# .PCD v0.7 - Point Cloud Data file format
VERSION 0.7
FIELDS x y z rgba
SIZE 4 4 4 4
TYPE F F F U
COUNT 1 1 1 1
WIDTH 931
HEIGHT 1
VIEWPOINT 0 0 0 1 0 0 0
POINTS 931
DATA ascii
-0.0030587688 0.0084939115 0.0087371403 4287442499
-0.010838237 -0.002121482 0.018167522 4287639104
-0.010010127 0.0029035695 0.012774005 4289013044
-0.0090586804 0.0072277896 0.0080992812 4289734438
-0.0073227771 0.008059442 0.0069821393 4289931554
-0.0052602105 0.0074950494 0.0072852867 4289669413
-0.0026863441 0.0048379861 0.0097143138 4288884013
-0.00060489774 0.0042750947 0.010013551 4288360243
0.001134064 0.005107332 0.0088960296 4288228918
0.0026911162 0.006636437 0.0070724534 4288359988
0.0040582307 0.0088618472 0.0045444751 4288032059
0.0057733543 0.0096926838 0.0034322748 4288097084
0.0078524835 0.0091301128 0.0037323693 4287639359
0.010311659 0.0071752071 0.0054413611 4287508544
-0.011283446 -0.0023085512 0.015578023 4288685368
-0.010301746 0.0020308085 0.010906612 4288817714
-0.0088706948 0.0042665638 0.0083694449 4289145644
-0.0072924756 0.0058010742 0.0065442296 4288949293
-0.0050617792 0.0045345053 0.0075531686 4290258718
-0.0029887334 0.0039687417 0.007852477 4289015593
-0.00091025606 0.003403455 0.0081506884 4289276969
0.00082609802 0.0042376742 0.0070353644 4288949803
0.0027336329 0.0043722987 0.0066268956 4289080364
0.0044621192 0.0052061453 0.0055134045 4288949038
0.0063671134 0.0053407699 0.0051056175 4289799718
0.0086410865 0.004077971 0.0061057517 4289472299
0.011300083 0.0014188476 0.0085104303 4289668393
0.014170293 -0.0019370504 0.011613387 4289014318
0.019184539 -0.012971148 0.022435162 4288949293
0.027016465 -0.033771306 0.043061927 4288949293
-0.012192558 -0.00037741289 0.010869252 4288686899
-0.01075051 0.0018655322 0.0083345966 4289798954
-0.0093243532 0.0041075125 0.0058033848 4289407273
-0.0075883158 0.0049434975 0.0046894858 4288884013
-0.0053607821 0.0036723837 0.0056957444 4289538343
-0.0032907017 0.0031041726 0.0059940638 4290061603
-0.0012152046 0.0025364682 0.0062912414 4289538343
0.00069213286 0.0026709512 0.0058827223 4289145643
0.0025995523 0.0028055534 0.0054742685 4288884013
0.0045070387 0.0029402524 0.0050658742 4289538343
0.0065961927 0.002373904 0.0053604217 4289538599
0.009243574 -0.00029487535 0.0077608833 4289407784
0.011725429 -0.0022612698 0.0094550895 4289669414
0.015171453 -0.0077293217 0.014651801 4290454558
0.020583179 -0.020198219 0.026845593 4289931298
0.028235711 -0.040362477 0.046719305 4289931298
-0.012790322 0.00016542152 0.0075909039 4288621619
-0.011355843 0.0024144053 0.0050627766 4289930024
-0.0096171685 0.0032526329 0.0039498778 4290127138
-0.0078837238 0.0040905848 0.0028381692 4289931044
-0.0054939687 0.002110403 0.0045464924 4290323233
-0.0034242012 0.001539968 0.004843208 4289603879
-0.0013490021 0.00097005814 0.0051387912 4289668903
0.00055821985 0.0011045188 0.0047302851 4289407530
0.0024655126 0.0012390912 0.0043218462 4289472809
0.0041941293 0.0020772889 0.003211611 4290323233
0.0060988925 0.0022118837 0.0028038668 4289473064
0.0087400489 -0.00046602264 0.0051989919 4289146409
0.011589404 -0.0038453676 0.0082898205 4289473574
0.015412658 -0.010736547 0.014872809 4289342249
0.021402515 -0.025352329 0.029133398 4289342249
0.029257586 -0.04628171 0.049655944 4289080619
-0.014374185 -0.0036570616 0.0089652939 4288032314
-0.013232403 1.4312565e-05 0.0050277663 4289210923
-0.011645634 0.001562193 0.0032104859 4289211944
-0.0099095553 0.0024024025 0.0020997832 4288884779
-0.0080161877 0.0025354847 0.0016939426 4289015338
-0.0059575178 0.0019620135 0.001991245 4289211434
-0.0035576485 -2.3961067e-05 0.0036925441 4289211434
-0.0013122261 -0.0013023764 0.0046884743 4289210923
0.00059754401 -0.0011677444 0.0042794151 4289014829
0.0021556281 0.00037881732 0.0024688141 4289015083
0.0037030801 0.0019247606 0.00066050328 4289734949
0.0057835989 0.0013534203 0.00095358025 4290519839
0.0084212162 -0.0013335124 0.0033428846 4290454303
0.011453409 -0.005429171 0.0071247583 4290192929
0.015653137 -0.013752244 0.015087529 4290061858
0.022028076 -0.029823333 0.030707892 4289996323
0.029888036 -0.050817758 0.051179774 4289996323
-0.014810931 -0.0038097352 0.0063996231 4288032314
-0.013673682 -0.00012779981 0.0024713213 4289081383
-0.012092005 0.0014241114 0.00065837801 4289735969
-0.010041855 0.00084760785 0.00095573813 4289408038
-0.0081486031 0.00098066777 0.00054990873 4289538853
-0.0059252195 -0.00030387193 0.0015470935 4289276968
-0.0036910586 -0.001587607 0.002542085 4289015083
-0.0014461242 -0.002870433 0.0035348041 4289145898
0.00029049814 -0.0020275414 0.0024259919 4289341993
0.0018461421 -0.0004767701 0.00061915442 4289342504
0.0035695583 0.00036540627 -0.0004866682 4289800483
0.0058308132 -0.00091591477 0.00050290115 4289408038
0.0082865097 -0.0029038638 0.002187687 4289081129
0.011503823 -0.0077200495 0.0066568041 4289342504
0.016081952 -0.017483629 0.015992373 4289342504
0.022652159 -0.03431157 0.032269709 4289472808
0.029933818 -0.053250685 0.050605312 4289472808
-0.014943931 -0.0053773299 0.0052460609 4288164404
-0.01380587 -0.0016844571 0.0013258345 4289407273
-0.012223948 -0.00012819096 -0.00048386864 4290192928
-0.010333594 4.5485795e-06 -0.00088916346 4289931554
-0.0082809664 -0.00057388097 -0.00059392583 4290323999
-0.0060580894 -0.0018628426 0.00040004123 4289473574
-0.003824424 -0.0031509846 0.0013918197 4289211689
-0.0017501563 -0.0037275553 0.0016825972 4289342504
-1.6141683e-05 -0.0028826669 0.000575996 4289407783
0.0017125942 -0.0020380132 -0.00052944757 4289407783
0.0032578893 -0.00048357248 -0.0023306496 4289669670
0.0058776774 -0.003189303 4.9163587e-05 4289800228
0.0087024011 -0.0066031739 0.0031203097 4289538598
0.011740085 -0.010724567 0.0068811243 4289473064
0.016509654 -0.021227837 0.016887702 4289015083
0.023083232 -0.038107894 0.033124682 4289015083
0.029979251 -0.055687681 0.050027847 4289210668
-0.015228171 -0.0062304363 0.0033916002 4288686644
-0.013938013 -0.0032408312 0.00018055364 4288949549
-0.012512468 -0.00096641108 -0.0023258878 4289146408
-0.010624908 -0.00083388761 -0.0027306015 4289342759
-0.0084132962 -0.002128154 -0.0017375648 4289800739
-0.0061909109 -0.0034215264 -0.00074680988 4289211944
-0.0041250587 -0.0040009804 -0.00045596622 4289277223
-0.0018837862 -0.0052928627 0.00053094141 4289080873
2.2936612e-05 -0.0051584914 0.00012250245 4289277223
0.0017544143 -0.004311502 -0.00098183099 4289473574
0.0034806132 -0.0034647621 -0.0020850105 4290454814
0.0059242025 -0.0054668039 -0.00040759984 4290323488
0.0087505318 -0.0088914633 0.002654939 4290519839
0.012161646 -0.014449351 0.0077929189 4290388769
0.017313628 -0.026408069 0.019159876 4290257443
0.024087239 -0.044051133 0.036047809 4289995813
0.030412382 -0.059551112 0.050831363 4289407018
-0.017415065 -0.0072121993 0.0019488251 4287051329
-0.016116407 -0.0042134002 -0.0012575155 4289602859
-0.014531434 -0.0026483461 -0.0030613681 4289604389
-0.012956999 -0.0010839626 -0.0048628319 4289015594
-0.011074901 -0.00095185637 -0.0052663982 4289211944
-0.0088691451 -0.0022508651 -0.004275471 4289408038
-0.006817054 -0.0028335936 -0.0039834278 4289996834
-0.0047595166 -0.0034158677 -0.0036924221 4289277224
-0.0023569763 -0.0054277293 -0.0020115525 4289277223
-0.00045572221 -0.0052937567 -0.0024188282 4289277223
0.0014456138 -0.0051596649 -0.0028260378 4289800483
0.0033470131 -0.0050254688 -0.0032331888 4289342759
0.0057899058 -0.007034108 -0.0015605977 4289211944
0.0087983198 -0.01118385 0.0021865396 4289669413
0.01221047 -0.016759105 0.0073110713 4290192418
0.017927246 -0.03089612 0.020724557 4289799718
0.02489786 -0.049306825 0.038260885 4289799718
0.031232063 -0.0648541 0.053006135 4289341994
-0.018436912 -0.0044619627 -0.0033917809 4287835963
-0.016851816 -0.0028927103 -0.0051924065 4289406764
-0.015123669 -0.0020424649 -0.0062933713 4290062113
-0.013400756 -0.0011924542 -0.0073931897 4290063134
-0.011524126 -0.0010607429 -0.0077955918 4290062368
-0.0093241967 -0.0023645684 -0.0068066819 4290454558
-0.0072777607 -0.002949886 -0.0065150894 4289669669
-0.0055597536 -0.0020998493 -0.0076134987 4289604133
-0.0031685866 -0.0041190684 -0.0059351651 4289407783
-0.001105845 -0.0047029555 -0.0056467727 4289866274
0.0011372305 -0.006003201 -0.0046667727 4290258718
0.0030358322 -0.005869206 -0.0050733285 4289473574
0.0052950792 -0.007168144 -0.0040965835 4289015593
0.0081139244 -0.010615133 -0.0010489793 4289342504
0.012258939 -0.019072957 0.0068262098 4289211434
0.018727694 -0.036117367 0.022966482 4289211434
0.025706626 -0.054584146 0.040458061 4289014828
0.031275325 -0.067316458 0.052410014 4289276458
-0.019900691 0.00047766417 -0.01080339 4288687919
-0.018339362 0.0020495877 -0.012595627 4289734948
-0.016328368 0.0014591813 -0.012298407 4289409824
-0.014311939 0.00086925179 -0.012002281 4289605918
-0.012131289 -0.00044041872 -0.011012641 4289212963
-0.009939868 -0.0017491803 -0.010025274 4289473318
-0.0079017542 -0.0023372769 -0.0097335596 4289473318
-0.0060249567 -0.0022052601 -0.010135778 4289735204
-0.0038092211 -0.0035120398 -0.0091533381 4289800994
-0.0019269176 -0.0033794343 -0.0095565859 4289801248
0.00030497834 -0.0046848282 -0.0085774995 4290128158
0.0021927655 -0.0045516081 -0.0089817438 4290062624
0.0046209283 -0.0065743774 -0.0073159193 4289735458
0.007430695 -0.0100329 -0.0042746412 4289866018
0.012121633 -0.020672567 0.0056495061 4289996834
0.019150076 -0.039924003 0.023815967 4289996834
0.026131975 -0.05844719 0.041263949 4289996834
0.031318232 -0.069782868 0.051810905 4289669159
-0.0086884797 -0.00098928064 -0.013633923 4288823323
-0.0066559277 -0.0015798546 -0.013342598 4290000149
-0.0047871806 -0.0014483221 -0.013743028 4289214749
-0.0030902512 -0.00059520826 -0.014833463 4289540639
-0.0010494515 -0.0011848956 -0.014543675 4290392338
0.0009967573 -0.0017740652 -0.014254944 4290523919
0.0034082048 -0.0038045682 -0.012590518 4289606174
0.00638346 -0.0079958737 -0.0088660344 4289539618
0.011613857 -0.020830892 0.0030985577 4289474083
0.019383434 -0.043023169 0.023969341 4289474083
0.026175031 -0.060882784 0.040688183 4289474083
0.031167531 -0.071533412 0.050523303 4289211944
0.03349708 -0.072101749 0.050751992 4288883504
0.030437648 -0.071117267 0.047184218 4288690723
0.032954581 -0.072410293 0.048096385 4289080363
0.029669441 -0.071617968 0.032892589 4284704309
-0.028742347 -0.026608385 -0.035400964 4284442168
-0.0076916739 -0.032816552 -0.038044628 4284704308
0.010378201 -0.061152048 -0.015607389 4284639028
0.014366772 -0.069441535 -0.0088460017 4284639029
0.011437792 0.020790353 0.078354679 4278997154
0.012579065 0.024102442 0.074144728 4278536368
0.014422093 0.024879241 0.0729573 4278665398
0.0076903179 0.024692696 0.07076747 4279914898
0.010284889 0.03006386 0.063880377 4278799529
0.012095943 0.030840602 0.062701389 4279258273
0.014824696 0.028440127 0.065283604 4278404023
0.018136725 0.024135647 0.070115544 4279256744
0.021296313 0.020468898 0.074188612 4278537644
0.024102829 0.018074069 0.076754287 4278735014
0.026149612 0.018219255 0.076316558 4278407083
0.027008608 0.022171017 0.07138405 4278668713
0.03474899 0.017532792 0.076060787 4278271679
0.0061583407 0.028140761 0.063526087 4278800293
0.018875042 0.026438933 0.063964732 4278930854
0.021071352 0.025943991 0.064284839 4278799784
0.022492629 0.027996778 0.061611421 4278471599
0.024095671 0.029411826 0.059689008 4278274229
0.025688028 0.030826196 0.057768874 4279520159
0.0278791 0.030331099 0.058090195 4279651229
0.031104576 0.026656117 0.062139459 4279125930
0.036238488 0.017260704 0.072888918 4278930090
0.0043666176 0.025077585 0.064248741 4282273904
0.0051499493 0.029702667 0.058563791 4278669224
0.0071292631 0.029842714 0.058140226 4278668969
0.015234251 0.029763835 0.057194389 4278799784
0.0177853 0.027986169 0.059013166 4278865318
0.019775737 0.028127296 0.058587439 4278734249
0.02157131 0.028907483 0.057415284 4278602668
0.027129017 0.030607633 0.054650605 4278274229
0.0038842373 0.024718383 0.061538614 4280701318
0.0044901632 0.030001204 0.055116728 4278472363
0.0064613931 0.030140659 0.054694884 4278406573
0.0082540363 0.030922515 0.05352477 4278930089
0.010585461 0.029777573 0.054598935 4279192229
0.012559615 0.029917384 0.054176569 4278668968
0.015093934 0.028131867 0.055993952 4278472874
0.017076235 0.028272355 0.055569917 4278668714
0.018866533 0.02905434 0.054400451 4278602923
0.020262081 0.03111838 0.051742531 4278799273
0.021838997 0.032540351 0.049832292 4278602414
0.024205558 0.031398207 0.05089926 4278273973
0.0030617304 0.025658423 0.057338282 4279653014
0.012787621 0.027003847 0.054472111 4278537898
0.015140157 0.025856057 0.055538543 4278407083
0.016935885 0.02664051 0.054369584 4278537898
0.018534448 0.028068291 0.052457958 4278865319
0.019927826 0.030138733 0.04980547 4278603434
0.021305177 0.032208137 0.047156401 4278668713
0.023665935 0.031061241 0.048221234 4278799784
0.026442539 0.028629424 0.050766863 4278537643
0.029856276 0.024271181 0.055530801 4278603688
0.034970753 0.014775891 0.066209696 4278538409
0.0020705089 0.027263559 0.052404262 4278602669
0.0033470467 0.029991278 0.048998199 4278798764
0.0049535222 0.031423654 0.047087938 4278864809
0.0067276992 0.03220854 0.045925073 4278930854
0.0094014555 0.029760251 0.048485734 4278470578
0.012096699 0.027313529 0.051041834 4278667694
0.014627066 0.025514612 0.05285003 4278668458
0.01641757 0.02630087 0.051683836 4278668713
0.017819431 0.02837842 0.049034469 4278471854
0.019010935 0.031100547 0.045646913 4278471344
0.035241619 0.011810765 0.066454649 4278668969
-3.651157e-05 0.025504161 0.051633589 4282536299
0.0007410422 0.030189956 0.045996241 4278733229
0.0064118393 0.031252488 0.04400098 4278535859
0.011223465 0.028285209 0.046879079 4278471599
0.013556372 0.02712729 0.047943003 4278734504
0.015522424 0.027266588 0.047522418 4278799784
0.016914088 0.029349968 0.044880204 4278602668
0.018483888 0.030784493 0.042981397 4278601903
0.020043032 0.032218285 0.04108496 4279781533
0.022788543 0.029766694 0.043623909 4279716509
0.025959834 0.026022179 0.047634855 4278403769
0.02977781 0.020338789 0.053852104 4278536368
0.036134325 0.0068963692 0.068904638 4279192229
-0.0011785999 0.027795581 0.045977101 4279981199
-7.60369e-05 0.031192131 0.041841593 4278669224
0.01053505 0.028623881 0.043470044 4278799784
0.012673542 0.028111568 0.043792378 4278668969
0.014440209 0.028900491 0.04263458 4278669224
0.022051744 0.030104069 0.040226839 4278273973
0.036403127 0.0039073303 0.069132075 4278274484
-0.0023183674 0.030113535 0.040340204 4278866083
-0.0010612793 0.032866009 0.036958121 4278472618
0.00086405501 0.033002045 0.036545962 4278406828
0.0029645301 0.032484598 0.036874577 4278865318
0.005603645 0.030007482 0.039422642 4278734503
0.0080838315 0.028185112 0.041226555 4278407083
0.010030884 0.028322918 0.040809926 4278407083
0.011978019 0.028460793 0.040393326 4278734759
0.013736777 0.029251328 0.03923887 4278538409
0.01549023 0.03004159 0.038085554 4278799783
0.029085217 0.018352646 0.049964063 4278340019
0.036878332 0.00025839731 0.070087038 4278930089
-0.0024547577 0.028520159 0.039167989 4278669224
0.0052892268 0.029067347 0.037510242 4278275504
0.0077660941 0.027238168 0.039309882 4278668968
0.0098932944 0.02672058 0.039631236 4278472874
0.011654783 0.027513426 0.038477801 4278472618
0.013410978 0.028305992 0.037325498 4278800038
0.014780052 0.030407434 0.034703027 4278603689
0.016326699 0.031853426 0.032819118 4278472363
0.01845148 0.031335935 0.033141267 4278930854
0.021377385 0.028202716 0.036398239 4278800038
0.02412843 0.025725357 0.038916081 4278603433
0.028943794 0.016712788 0.048757933 4278341548
-0.0035428591 0.022838112 0.042849254 4282274414
-0.0029244088 0.028244 0.036517445 4278734249
0.0074487627 0.026295837 0.03739652 4278734249
0.0097557418 0.025118427 0.038452674 4278668968
0.011331957 0.02657068 0.036565598 4278603433
0.013085593 0.027365208 0.035415541 4278406828
0.014261752 0.0301299 0.032064389 4278602669
0.024191201 0.023460414 0.038464572 4278472363
0.029618772 0.012449656 0.050476812 4278538663
-0.0046629757 0.025197396 0.037238445 4279980178
-0.0021448433 0.030754883 0.030513078 4278930598
-0.00057406351 0.032210756 0.028630283 4279586714
0.0015095733 0.031685494 0.028957479 4278995624
0.0043073036 0.028520796 0.032224867 4278798764
0.0067721903 0.026677607 0.034017082 4278667949
0.0090706684 0.02549524 0.035071675 4278603434
0.010824353 0.026291881 0.033923212 4278865318
0.012572754 0.027088206 0.03277592 4278471853
0.014894374 0.032632958 0.026093498 4278731444
0.024253584 0.021191288 0.038009912 4278864299
0.030496158 0.0075110085 0.052912518 4278800293
-0.0061079971 0.028909532 0.030174028 4278931618
0.0060967728 0.027072808 0.030647453 4278603178
0.0083867796 0.025885416 0.031700574 4278931109
0.0099475458 0.027345294 0.029823419 4278537898
0.012466129 0.032246605 0.023883622 4278339764
0.014565997 0.031720746 0.02420602 4279455389
0.016866937 0.030534497 0.025257003 4278800039
0.019972092 0.026706424 0.029222339 4278865064
0.023913529 0.020238873 0.036095064 4278734248
0.031167952 0.0032108165 0.05460421 4278734248
-0.006732855 0.029330455 0.026810456 4278800548
-0.0053251274 0.031460263 0.024199083 4278472874
-0.003764566 0.032924086 0.022324976 4278995879
-0.0017002672 0.03239293 0.02265295 4278667694
0.00054357201 0.031197721 0.023712423 4278733738
0.0031517819 0.028674588 0.026233856 4279127204
0.0052430667 0.028145576 0.026556157 4278865574
0.0073397718 0.027617026 0.026877359 4278800038
0.0090722777 0.028416513 0.025736719 4278669224
0.010612018 0.029879294 0.023867469 4278537388
0.023774721 0.018628396 0.034910522 4278274484
0.031431191 0.00021816418 0.054830395 4278274484
-0.0079698786 0.024289455 0.029734489 4281094784
-0.0071933195 0.029097309 0.024190005 4278669734
-0.0057904534 0.031233313 0.021584637 4278471854
0.00040962175 0.02963382 0.022561915 4278603434
0.0030169822 0.02710185 0.02507687 4278603944
0.0049287267 0.027236996 0.024667677 4278472874
0.0068405382 0.027372219 0.024258517 4278407083
0.0083831884 0.028839497 0.0223919 4278341548
0.0099151805 0.030306134 0.020527568 4278472874
0.011436541 0.03177204 0.018665615 4278472363
0.013525162 0.031241002 0.018987086 4278341293
0.024037259 0.015688416 0.035176769 4278603944
0.032303706 -0.0047770664 0.057224482 4278341548
-0.0081046671 0.022710506 0.02857279 4280635783
-0.0073268861 0.027533729 0.023039639 4278603688
0.0027058236 0.026198084 0.023191191 4278668968
0.0044357218 0.027001586 0.022054296 4278734759
0.0063421018 0.027136404 0.021646287 4278603689
0.0078796782 0.028607728 0.019784018 4278407083
0.016069937 0.027144209 0.020331733 4278538154
0.019166067 0.023276169 0.024269089 4278473129
0.024700012 0.011405703 0.036884144 4278472874
-0.0092005059 0.025164394 0.023027178 4279914645
-0.0082746856 0.029329892 0.018238913 4278537644
-0.0067186989 0.030806327 0.016375672 4278800038
-0.0051732995 0.032282129 0.01451471 4279455644
-0.0002052635 0.027848911 0.018805727 4278799018
0.0023950674 0.025298923 0.021308895 4278602923
0.0041223913 0.026104456 0.020174153 4278734504
0.0060260035 0.026239067 0.019766726 4278472363
0.0073769651 0.02838493 0.017182805 4278799784
0.01078926 0.029993469 0.014922823 4278403004
0.019622523 0.019684352 0.025272407 4278995624
0.025761839 0.0057670996 0.040022887 4278995624
-0.010134056 0.026970543 0.018230211 4278865829
-0.0056412816 0.032086138 0.011924534 4278471344
0.0013805963 0.027097095 0.016527463 4278734249
0.0032733567 0.027230851 0.016122293 4278800039
0.0051661916 0.027364671 0.015717153 4278668969
0.0083918609 0.029649781 0.012737057 4278865065
0.010276839 0.029783288 0.01233378 4279455899
0.012738075 0.027900798 0.014097082 4278733739
0.019683015 0.017422885 0.024824068 4279192484
0.026421227 0.0014452413 0.041701462 4279192484
-0.012313049 0.025960138 0.016763601 4282142833
-0.011385277 0.030151876 0.011994717 4278735014
-0.0013379864 0.028109131 0.012889347 4278800039
0.00089559332 0.026891317 0.013934421 4278734503
0.0026043989 0.027699832 0.012806975 4278865829
0.0043079294 0.028508054 0.011680721 4278734504
0.012220431 0.027692644 0.011510975 4278733993
0.01974315 0.015157245 0.024372656 4278274994
0.027279016 -0.0035676248 0.044086117 4278274994
-0.012445282 0.024408476 0.015621918 4281684089
-0.011516482 0.028613364 0.010862737 4278800548
-0.0098081566 0.029423565 0.0097366991 4278603943
-0.0079401024 0.029555155 0.0093364986 4278866338
-0.0060719401 0.029686831 0.0089363372 4278669989
-0.0040333755 0.029140664 0.0092597334 4278407848
-0.0018163845 0.027917212 0.010304973 4278473128
0.00023572147 0.027372148 0.010625585 4278538153
0.0019365996 0.02818227 0.0095014824 4278865829
0.0036322027 0.028992111 0.0083785756 4278931108
0.005138848 0.030478628 0.0065361885 4278668969
0.019408844 0.014239516 0.022482581 4278799528
0.027935227 -0.0079263933 0.045737546 4278406319
-0.012263965 0.021494899 0.015929934 4280633744
-0.0077417158 0.026657989 0.0096523939 4278471598
-0.0058683082 0.026790014 0.0092510907 4278996389
-0.0038246699 0.026242001 0.0095717339 4278539684
-0.0017756075 0.025694435 0.0098912613 4278605219
0.00010342151 0.025827093 0.0094889319 4278735778
0.0018043928 0.0266394 0.0083664609 4278472874
0.0035000853 0.027451411 0.0072451783 4278669224
0.0050070174 0.028942311 0.0054060416 4278407594
0.0068756118 0.029074544 0.005006182 4279062433
0.0087442696 0.029206861 0.0046063727 4278996643
0.010995969 0.027982032 0.0056412769 4279062434
0.013840947 0.02472272 0.0088242525 4278538664
0.019468648 0.011969939 0.022028271 4278538664
0.028789461 -0.012980565 0.048091829 4278538664
-0.011926737 0.017889459 0.016954828 4279980178
-0.010823283 0.021438506 0.012934766 4279454114
-0.0090987384 0.022254158 0.011808519 4278798509
-0.0075440258 0.023752267 0.0099619841 4278731953
-0.0056653731 0.023884641 0.009559541 4278731953
-0.003786616 0.024017094 0.0091571314 4278797999
-0.0017351545 0.023467468 0.0094745299 4278470324
-2.8837472e-05 0.024282271 0.0083524464 4278799274
0.0018501729 0.024414988 0.0079501672 4278731953
0.0035486296 0.025229359 0.0068299351 4279257509
0.0056083947 0.024680691 0.0071457615 4278930599
0.0073016286 0.025494853 0.00602677 4278996643
0.0089895576 0.026308728 0.0049089817 4279324574
0.010863498 0.0264415 0.0045081014 4279652249
0.013707429 0.023171181 0.007683008 4279915154
0.019528098 0.0096962042 0.021570906 4279915154
-0.011903375 0.015642036 0.016527079 4279586714
-0.010637347 0.018516943 0.013235484 4278732463
-0.008907374 0.019335132 0.012109709 4278666928
-0.0071826316 0.020153042 0.01098513 4279125674
-0.0056302063 0.021655377 0.0091424873 4278732718
-0.0035791248 0.021103475 0.0094581852 4278274484
-0.0016950369 0.021236379 0.0090546897 4278799018
0.00018913671 0.021369349 0.008651224 4278667693
0.0018956251 0.022186389 0.0075308634 4278994858
0.0041381456 0.020951819 0.0085608354 4279126439
0.0058421083 0.021768847 0.0074411454 4278733229
0.0077265464 0.021902179 0.0070378808 4278470833
0.0096110404 0.022035597 0.0066346666 4278470324
0.011495572 0.022169108 0.0062315157 4278798254
0.014349144 0.018888544 0.0093960697 4278798254
0.020373091 0.0046877526 0.023962334 4278601904
-0.01203651 0.014078114 0.015376342 4279519139
-0.010928713 0.017649252 0.011371871 4279322024
-0.0090397857 0.017782141 0.010967067 4279322278
-0.0073149651 0.018602207 0.0098440992 4278994348
-0.0055953786 0.019421998 0.0087223211 4279060394
-0.0038810335 0.020241503 0.0076017315 4279060394
-0.0019997172 0.020374186 0.0071988115 4279191464
-0.00011831895 0.020506959 0.0067959325 4279453858
0.0019407347 0.019953668 0.0071084471 4279060903
0.0040052012 0.019400839 0.0074198609 4279388834
0.0057092384 0.020220041 0.0063017951 4278799019
0.0075935796 0.020353355 0.0058985436 4279257763
0.0098544918 0.01911597 0.0069214525 4278799273
0.011935208 0.01856463 0.0072296513 4278995879
0.014989384 0.014588594 0.011096389 4279126693
0.02121624 -0.00034247711 0.026337821 4279126693
-0.012169607 0.012514453 0.014225786 4279650209
-0.010902297 0.015406862 0.01094712 4279518118
-0.0093335025 0.016918868 0.0091074342 4279387559
-0.007447239 0.017051626 0.0087032476 4279387559
-0.0058942772 0.018562682 0.0068670763 4279387559
-0.0041825287 0.019384205 0.0057486342 4279256743
-0.0023039952 0.01951668 0.0053462991 4279256743
-0.00025064126 0.018960662 0.0056583481 4279453604
0.0018081143 0.018405147 0.0059692496 4279781534
0.0036922283 0.018538266 0.0055659087 4279584673
0.0053936802 0.019359451 0.0044500427 4279060903
0.0074606426 0.018804777 0.0047593908 4278995369
0.009533003 0.018250581 0.0050676549 4278864809
0.011992253 0.016321987 0.0067965882 4278864554
0.015434694 0.010958556 0.012073618 4278799274
0.021861395 -0.0047073103 0.027987529 4278995879
-0.011990979 0.0095668919 0.014508815 4280304283
-0.010876179 0.013160285 0.010519356 4279846814
-0.0094656311 0.015368558 0.0079667503 4279584418
-0.0077433139 0.016192779 0.0068476023 4279583654
-0.0060262419 0.017016713 0.005729639 4279583908
-0.0043144189 0.017840393 0.0046128156 4279255723
-0.0024359822 0.017972842 0.0042104879 4279583908
-0.00073198602 0.018796112 0.0030955235 4280370838
0.0013211295 0.018238015 0.003405978 4280174744
0.0031997897 0.018370729 0.0030037919 4279583908
0.0050785169 0.018503547 0.0026016654 4279125673
0.0071425252 0.017946433 0.0029100282 4278797998
0.0093998015 0.016700037 0.0039270772 4278995369
0.011667814 0.01545449 0.0049418965 4279126438
0.015299197 0.0093838312 0.010915314 4278864299
0.021721443 -0.0063325576 0.026792087 4278929834
-0.011657428 0.0059165768 0.01550058 4282140283
-0.010692094 0.010215558 0.010802996 4280894353
-0.0094367266 0.013124622 0.0075401636 4280566933
-0.0077116638 0.013951197 0.0064220661 4280500635
-0.0058255121 0.014083989 0.0060179336 4280369309
-0.0037702695 0.013523564 0.0063260542 4280303774
-0.0020529255 0.014349855 0.0052098082 4280305049
-0.00016650185 0.014482938 0.0048058229 4280369818
0.0015429854 0.015308857 0.0036913985 4279649698
0.0030675158 0.01682708 0.0018681986 4279912349
0.0049461313 0.016959872 0.0014660861 4279322533
0.0071948692 0.015708372 0.0024816236 4279060649
0.0094543286 0.014457759 0.0034948895 4278602414
0.011534151 0.013899792 0.0037982957 4278799019
0.01497069 0.0085009597 0.0090501281 4278863533
0.021777242 -0.0086490177 0.02630337 4279060394
0.0017641298 0.012371205 0.0039704861 4283251063
0.0032942742 0.013894141 0.0021494376 4282596989
0.0051781274 0.01402729 0.0017461898 4282531198
0.0070620291 0.01416054 0.00134301 4282270078
0.0095085092 0.012211338 0.0030596489 4281746054
0.011780906 0.010957327 0.0040669562 4280173723
0.015799724 0.0034598745 0.011421074 4279845793
0.022810332 -0.014437661 0.029335983 4279845793
0.045126826 -0.071043752 0.03304093 4282667368
0.019585732 -0.078584172 -0.0069112922 4282666094
-0.020917434 0.0032875799 -0.016100023 4285688609
-0.019371856 0.0048627295 -0.017885594 4285687589
-0.017377201 0.0042689666 -0.017586548 4285687334
-0.023037162 0.00236848 -0.017513236 4285361699
-0.021636505 0.0046734177 -0.019989867 4285623839
-0.020101365 0.0062521733 -0.021769904 4285951004
-0.018117685 0.0056554489 -0.021470163 4285951004
-0.015817154 0.0036096722 -0.019787641 4285951004
-0.0135005 0.0015651546 -0.018108552 4285688099
-0.011328768 0.00024621934 -0.017123552 4285425703
-0.0094736777 0.0003765747 -0.017521219 4285425703
-0.0074521117 -0.00021695346 -0.017229199 4285490984
-0.023744453 0.0037663206 -0.021397123 4285427744
-0.022206534 0.0053494945 -0.023174558 4285493023
-0.020528983 0.0062047578 -0.024258249 4285557794
-0.018550944 0.005605422 -0.023958907 4285558048
-0.016411964 0.004279647 -0.022970408 4285886489
-0.01410399 0.0022279359 -0.021294374 4285689628
-0.012101628 0.0016306601 -0.021000061 4285689629
-0.010257341 0.0017602332 -0.02139543 4285689884
-0.0084129609 0.0018899366 -0.021790724 4285690139
-0.00690623 0.0034717992 -0.023560882 4285689628
-0.0054100752 0.0050529912 -0.025328638 4285886233
-0.0037503466 0.0059078895 -0.02640776 4286016794
-0.0013884157 0.0038607754 -0.02474276 4286017048
0.0013486668 0.00036432967 -0.021710791 4285951258
0.0052057616 -0.0074806139 -0.014576907 4285819933
0.010600645 -0.021120332 -0.0019834004 4285819933
0.018347606 -0.043449178 0.018789839 4285819933
0.025499254 -0.062868141 0.036796231 4285819933
0.029901795 -0.071411908 0.044537295 4285623329
0.032021757 -0.071261466 0.044083968 4285163563
-0.024305563 0.004452087 -0.024576932 4285624858
-0.022775408 0.0060390495 -0.026349418 4285755673
-0.0211058 0.00689587 -0.027429722 4285623838
-0.01913609 0.0062937886 -0.027130309 4285623583
-0.016850274 0.0042338781 -0.02545457 4285689628
-0.014548335 0.0021752343 -0.023782255 4285755928
-0.012712281 0.0023041293 -0.024175933 4285624348
-0.011039466 0.0031617023 -0.025256533 4285558813
-0.0092058964 0.0032906234 -0.025649525 4285624348
-0.0077095889 0.0048760548 -0.027414108 4285755673
-0.0060525462 0.0057328828 -0.028491121 4285755163
-0.0042267554 0.0058615804 -0.028882205 4285623838
-0.0018708482 0.0038074479 -0.027220845 4285689628
0.0010391735 -0.00042780116 -0.023512229 4285886489
0.0048913993 -0.0082970075 -0.016395453 4285754909
0.010464597 -0.022705615 -0.0031495597 4285754909
0.018392939 -0.045829229 0.018255595 4285754909
0.025732057 -0.066033825 0.036899224 4285754909
0.029366741 -0.071697518 0.041897096 4285623839
0.031481206 -0.071547464 0.041444942 4285295909
-0.026256654 0.0028275587 -0.025287034 4285296163
-0.024865512 0.005151201 -0.027746849 4285493533
-0.023490261 0.007473886 -0.030203212 4285887253
-0.021981064 0.0090638362 -0.031967819 4285821718
-0.019872542 0.0077270754 -0.030979499 4285821719
-0.017598081 0.0056598298 -0.029306285 4285821719
-0.015149686 0.0028626844 -0.02694994 4285689883
-0.013482265 0.0037219711 -0.028027872 4285559068
-0.011656925 0.0038501956 -0.028419191 4285559069
-0.0099973083 0.0047091022 -0.029495243 4285624348
-0.0081744567 0.0048373751 -0.029885858 4285953043
-0.00669384 0.0064261481 -0.031643704 4285755164
-0.0048761852 0.0065542534 -0.032033056 4285557794
-0.002528999 0.004493013 -0.030374829 4285623583
0.00037177652 0.00024402887 -0.02667409 4285689628
0.0043956079 -0.0083792657 -0.018891983 4285689884
0.01032858 -0.024290599 -0.0043155085 4285689884
0.01881228 -0.049671523 0.019078836 4285689884
0.025774304 -0.068479076 0.036316339 4285689884
0.02902497 -0.072702669 0.039942615 4285427489
0.031136613 -0.072552823 0.039491057 4285098793
-0.026807863 0.0035341196 -0.028453643 4285427743
-0.025280017 0.0051295236 -0.030219179 4285493533
-0.023909677 0.0074583329 -0.032669507 4285624349
-0.022255961 0.0083184093 -0.033743169 4285624348
-0.020302881 0.0077107288 -0.033443473 4285624348
-0.017724525 0.0041694827 -0.030403003 4285624348
-0.015434641 0.0020969175 -0.028738024 4285558814
-0.013769824 0.0029581413 -0.029813711 4285559068
-0.012273196 0.0045520589 -0.03157194 4285559069
-0.01045591 0.004679814 -0.031961463 4285558558
-0.008806847 0.0055402964 -0.033033572 4285690139
-0.0071630292 0.0064004697 -0.034104433 4285953044
-0.0053508468 0.0065282024 -0.034492608 4285886999
-0.0028333701 0.0037279427 -0.032157116 4285886999
6.346032e-05 -0.00053434819 -0.028465483 4285755929
0.0044455379 -0.010647409 -0.019342564 4285690394
0.010561224 -0.027338177 -0.0041228859 4285690394
0.019230518 -0.053526603 0.019892599 4285755929
0.025626555 -0.070197299 0.03505246 4285690394
0.028491288 -0.07297229 0.037314162 4285427489
0.030402452 -0.072092138 0.0361869 4284966958
-0.027075063 0.0027808659 -0.030236986 4285427998
-0.025693741 0.005116839 -0.032684818 4285493788
-0.024181534 0.0067155994 -0.034443628 4285624349
-0.02253044 0.0075775944 -0.035515063 4285558558
-0.020276126 0.0054957382 -0.033847526 4285558559
-0.01800571 0.0034151673 -0.032183409 4285558558
-0.015876625 0.0020712875 -0.031205922 4285559069
-0.014217079 0.0029343106 -0.032278832 4285559068
-0.012562793 0.0037971064 -0.033350579 4285559069
-0.010913741 0.004659608 -0.034421083 4285624349
-0.0091018379 0.00478708 -0.034809377 4285558558
-0.0074606389 0.0056492426 -0.035878029 4285624094
-0.0056512579 0.005776763 -0.036265612 4285624094
-0.003313452 0.0037017353 -0.034615248 4285558558
-0.00042321533 -0.00057405978 -0.030932102 4285493533
0.003950756 -0.010718174 -0.021830566 4285493533
0.010793153 -0.030394234 -0.0039364276 4285493533
0.019460876 -0.056661092 0.020019982 4285493533
0.02528937 -0.071181953 0.033112396 4285493533
0.027766261 -0.0724997 0.034016527 4285493790
-0.027624335 0.0035098791 -0.033387084 4285493534
-0.026250605 0.0058518648 -0.035828404 4285821464
-0.024599563 0.0067159198 -0.036898259 4285886998
-0.02250598 0.0053649284 -0.035916734 4285952789
-0.020097781 0.0025385879 -0.033571772 4285755674
-0.017822724 0.00045174733 -0.031913582 4285624349
-0.016003307 0.00057930127 -0.032303825 4285624349
-0.014183786 0.00070697814 -0.032693997 4285624859
-0.012689371 0.002309449 -0.034445226 4285624859
-0.011040267 0.0031741187 -0.035514098 4285624349
-0.0093964301 0.0040385164 -0.036581762 4285624094
-0.0074166469 0.0034291372 -0.036290579 4285558559
-0.005431477 0.0028202422 -0.036000468 4285558303
-0.0029131025 2.6337802e-06 -0.033678375 4285558303
-0.00037331879 -0.0028133541 -0.03136079 4285559324
0.0041818283 -0.01372391 -0.021605784 4285559324
0.011392236 -0.034930401 -0.0024042828 4285559324
0.020063717 -0.061275221 0.0214919 4285559324
0.024763327 -0.071426436 0.030500975 4285559323
0.027042398 -0.072013721 0.030728806 4285493790
-0.027890328 0.00277026 -0.035160337 4285493533
-0.026662562 0.0058594309 -0.038279157 4285755418
-0.024870407 0.0059846379 -0.038663886 4285689629
-0.022929061 0.0053694956 -0.038366783 4285886998
-0.020375337 0.0017937534 -0.035345886 4285953044
-0.018258024 0.00044027343 -0.034372598 4285689884
-0.01628701 -0.00017251074 -0.034081578 4285624349
-0.014630042 0.00069469586 -0.035150703 4285559068
-0.012653496 8.251518e-05 -0.0348607 4285624603
-0.011166748 0.0016889125 -0.036606904 4285624348
-0.0096905977 0.0032946207 -0.038350709 4285821464
-0.007884223 0.0034217946 -0.038737748 4285952533
-0.0057316273 0.0020715594 -0.037771452 4285952533
-0.0033925548 -1.6435981e-05 -0.036131274 4285755674
-0.00050217286 -0.0043183416 -0.032467972 4285624859
0.0045932755 -0.017476372 -0.020712279 4285624859
0.01235735 -0.040959768 0.0004639253 4285624859
0.020665092 -0.065906592 0.022951212 4285624604
0.024616238 -0.073137097 0.029242638 4285559068
0.02651144 -0.07225167 0.028123584 4285427998
-0.029817458 0.0011664182 -0.035861161 4285427488
-0.028578546 0.0042649396 -0.038975868 4285755674
-0.027073745 0.0058760568 -0.04072332 4285558048
-0.025433268 0.0067436807 -0.041787636 4285492258
-0.02335136 0.0053831451 -0.040810227 4285623838
-0.021107119 0.0032809712 -0.03915542 4285689628
-0.018538345 -0.00030449778 -0.036145929 4285755674
-0.016727198 -0.00017754734 -0.036534417 4285558558
-0.014915958 -5.0488859e-05 -0.036922846 4285558813
-0.013266843 0.00081839412 -0.037988521 4285624603
-0.011787858 0.0024285205 -0.039729733 4285755419
-0.01015193 0.0032967478 -0.040792454 4285886489
-0.0085212402 0.0041646734 -0.04185392 4285820954
-0.0062042698 0.0020684786 -0.040214036 4285952279
-0.0036956705 -0.00076722726 -0.037903063 4285821209
-9.630993e-05 -0.0080447942 -0.031553242 4285689629
0.0057272129 -0.024203233 -0.01713492 4285558813
0.013870936 -0.049235694 0.0053313067 4285689629
0.021078767 -0.069815122 0.023725729 4285689629
0.024280271 -0.07410758 0.027312923 4285558813
0.026172847 -0.073220201 0.026196118 4285230374
-0.030632142 0.0034164935 -0.040353265 4285493024
-0.029124554 0.0050319918 -0.04209806 4285887509
-0.027627509 0.0066468604 -0.043840513 4285953043
-0.025994975 0.0075161383 -0.04490152 4285755674
-0.024070259 0.0068954192 -0.044604126 4285821719
-0.021686021 0.0040413141 -0.042273894 4285821718
-0.019434366 0.0019332469 -0.040625539 4285624348
-0.017323282 0.00057066604 -0.039657414 4285624349
-0.015679557 0.0014412515 -0.040720429 4285558813
-0.013716988 0.00082374737 -0.040430725 4285690139
-0.012407817 0.0031815954 -0.042842727 4285821209
-0.010612462 0.0033078678 -0.043227505 4285558048
-0.00915711 0.0049209408 -0.044960231 4285557794
-0.0066761374 0.0020744801 -0.042650022 4285558048
-0.0043491274 -2.7421862e-05 -0.041017152 4285689629
0.00013041124 -0.011041284 -0.031320281 4285689628
0.0066778325 -0.030217797 -0.014251611 4285689628
0.015014421 -0.056065865 0.008827663 4285689629
0.02093322 -0.071509793 0.022479117 4285689628
0.023756012 -0.07433138 0.024716713 4285427743
0.025260514 -0.071958534 0.022263799 4285230629
-0.033085126 0.0048170201 -0.043767769 4285295653
-0.031444926 0.005688671 -0.04482903 4285493278
-0.029950429 0.0073075965 -0.046567723 4285493278
-0.028180126 0.0074311085 -0.046947885 4285690138
-0.02655552 0.008301951 -0.04800551 4285690138
-0.024490621 0.0069314912 -0.047031082 4285690394
-0.022263762 0.004815042 -0.045382444 4285558814
-0.020020802 0.0026998557 -0.043737244 4285558813
-0.01807474 0.0020787753 -0.043445833 4285624603
-0.016282443 0.0022044964 -0.043830208 4285624349
-0.014651913 0.0030764379 -0.044888664 4285558558
-0.013191137 0.0046939589 -0.046619397 4286018834
-0.011740945 0.0063108541 -0.048347764 4285821208
-0.0099616535 0.0064360984 -0.048729021 4285689628
-0.007492248 0.0035801604 -0.046422973 4285690138
-0.004475873 -0.0015096478 -0.042107638 4285755928
0.00035642833 -0.014046259 -0.031093486 4285755928
0.0076262467 -0.036258295 -0.011387385 4285755928
0.015605751 -0.060692623 0.010293166 4285755928
0.020415992 -0.071715392 0.019894835 4285755928
0.022666961 -0.072313495 0.020121984 4285427488
0.024732102 -0.072167091 0.019680269 4284966704
-0.033207763 0.0033594295 -0.044840656 4285295653
-0.031842839 0.0057331175 -0.047255564 4285493278
-0.030213092 0.0066062547 -0.048312824 4285493279
-0.02844559 0.0067295656 -0.048692394 4285427233
-0.026532296 0.0061036162 -0.048395988 4285427488
-0.024613556 0.0054781549 -0.048100661 4285559069
-0.022538368 0.00410413 -0.04713162 4285559069
-0.020606074 0.0034798197 -0.046839047 4285558813
-0.018668365 0.002856005 -0.046547558 4285558813
-0.016884197 0.0029811487 -0.046930194 4285558558
-0.015261602 0.0038546547 -0.047985259 4285558559
-0.013808601 0.0054760128 -0.049711075 4285690139
-0.012366176 0.0070967041 -0.051434487 4285821463
-0.010595031 0.0072213598 -0.051814009 4285821464
-0.0083068274 0.0051035546 -0.050182823 4285756183
-0.0051275827 -0.00074960291 -0.045206845 4285624604
4.8723072e-05 -0.014818214 -0.032880176 4285493278
0.0076707788 -0.038589932 -0.011884678 4285624604
0.015829626 -0.063843042 0.010410204 4285624604
0.02027088 -0.07340505 0.018651914 4285493278
0.022333167 -0.073258989 0.018210713 4285493024
-0.033195551 0.0011498109 -0.04523674 4285361443
-0.03169005 0.002778098 -0.046971347 4285559069
-0.030054945 0.0036537722 -0.048028126 4285493279
-0.028282236 0.0037774183 -0.048408829 4285427488
-0.026363913 0.0031496324 -0.04811516 4285427489
-0.024143871 0.0010195337 -0.046475053 4285559069
-0.02236015 0.0011442862 -0.046857867 4285493533
-0.02042285 0.00051815808 -0.046568025 4285559068
-0.018948529 0.00214497 -0.04829533 4285493278
-0.01716717 0.0022698864 -0.048677385 4285493024
-0.015708681 0.0038958602 -0.05040117 4285427488
-0.014260765 0.0055211633 -0.052122552 4285493534
-0.01282344 0.0071458258 -0.053841587 4285493024
-0.010888297 0.0065202117 -0.05355078 4285493279
-0.0086034648 0.0043957047 -0.051923845 4285493534
-0.0052537024 -0.00222468 -0.04629207 4285493534
-8.1095845e-05 -0.016334854 -0.033995934 4285427998
0.0078951232 -0.04167483 -0.011718068 4285493534
0.015869949 -0.06625288 0.0098546976 4285493534
0.020125803 -0.075094379 0.017409243 4285427998
0.021999771 -0.074199699 0.016302869 4285296419
-0.031126101 -0.00244838 -0.044670086 4285361698
-0.029337648 -0.0023237318 -0.045054249 4285427233
-0.027691688 -0.0014450401 -0.046111632 4285426979
-0.025760371 -0.0020741038 -0.045822412 4285558049
-0.023675639 -0.0034562983 -0.044862114 4285492259
-0.022031996 -0.0025774352 -0.045918755 4285558049
-0.020240311 -0.0024520271 -0.046303201 4285492768
-0.018604483 -0.001573436 -0.047358029 4285624093
-0.016973879 -0.0006951578 -0.048411619 4285492769
-0.015509818 0.00093548745 -0.050133273 4285426724
-0.014056347 0.0025655515 -0.05185261 4285492769
-0.012446832 0.0034426935 -0.052901417 4285558559
-0.010504007 0.0028154366 -0.05261391 4285427489
-0.008383818 0.0014367625 -0.051660433 4285427744
-0.005379796 -0.0036995113 -0.04737711 4285361953
0.00014371052 -0.019354247 -0.033779755 4285361953
0.0081187338 -0.044768117 -0.011557698 4285361953
0.015909944 -0.068666786 0.0092962096 4285427488
0.019795453 -0.076032393 0.01550264 4285361953
0.021854749 -0.07588654 0.015062072 4285164329
-0.030426804 -0.0084529184 -0.041711822 4285360934
-0.02876227 -0.0075708963 -0.042771656 4285426978
-0.027102951 -0.0066890754 -0.043830324 4285492513
-0.025303725 -0.0065634847 -0.044216651 4285558048
-0.023208838 -0.0079493038 -0.043261819 4285492513
-0.021404061 -0.0078231059 -0.043649171 4285492514
-0.019752268 -0.006941393 -0.044705827 4285558049
-0.018261496 -0.0053047091 -0.04643013 4285558049
-0.016464423 -0.0051787123 -0.046815574 4285492003
-0.014989451 -0.003542956 -0.048536267 4285492514
-0.013361316 -0.002662424 -0.049587566 4285492258
-0.011738423 -0.0017821789 -0.050637599 4285558558
-0.00978259 -0.0024107024 -0.050354533 4285558304
-0.0079931244 -0.0022846535 -0.050737899 4285492769
-0.0046336688 -0.0089434609 -0.045137864 4285492769
0.00072199851 -0.023889445 -0.032241311 4285492769
0.0088809542 -0.050130345 -0.0094124936 4285492768
0.015767153 -0.070331395 0.0080716731 4285492768
0.018910207 -0.074706353 0.011611928 4285361188
0.020958666 -0.07456129 0.011173663 4285098283
-0.030003536 -0.012966029 -0.040115122 4285426469
-0.028467905 -0.011322565 -0.041846283 4285426724
-0.026800532 -0.01043807 -0.042905003 4285426723
-0.024993453 -0.010311931 -0.043293022 4285492514
-0.023038652 -0.010943599 -0.04301206 4285492259
-0.021378938 -0.010059312 -0.044068888 4285492258
-0.019724432 -0.0091752484 -0.045124486 4285492258
-0.017919589 -0.009048827 -0.045511678 4285426468
-0.016114656 -0.0089222789 -0.045898814 4285426468
-0.014470551 -0.0080386139 -0.046951935 4285557794
-0.012504522 -0.0086688325 -0.046672877 4285557794
-0.010865584 -0.007785283 -0.047724701 4285557794
-0.0090629943 -0.0076584406 -0.048110981 4285558049
-0.0074319318 -0.0067751892 -0.049160998 4285558049
-0.0044121258 -0.011940792 -0.044904076 4285492513
0.00094498321 -0.026930057 -0.03204082 4285492259
0.0085638277 -0.050979987 -0.011255515 4285492513
0.015077647 -0.069729231 0.0048628906 4285492259
0.018211409 -0.074117862 0.0083952444 4285360934
-0.029991943 -0.015213683 -0.040539902 4285360678
-0.028313983 -0.014326409 -0.041599337 4285426469
-0.026641246 -0.013439335 -0.042657614 4285426724
-0.025118444 -0.01179225 -0.04438252 4285426723
-0.023163985 -0.01242613 -0.044103146 4285492259
-0.021504212 -0.011539668 -0.045158334 4285492259
-0.01954421 -0.01217293 -0.044879977 4285492258
-0.017734166 -0.012046158 -0.045268297 4285426468
-0.015765976 -0.012678638 -0.044991538 4285426468
-0.014113829 -0.011792228 -0.046044741 4285492258
-0.011976726 -0.013183117 -0.045105051 4285557794
-0.010327097 -0.012296632 -0.046157587 4285557794
-0.0085139796 -0.012169048 -0.046546116 4285558048
-0.0068721995 -0.011282913 -0.047596741 4285492514
-0.0038431808 -0.016463079 -0.043353327 4285492768
0.0011672564 -0.029979162 -0.031846505 4285492513
0.0080677122 -0.051067106 -0.013755568 4285492768
0.014025152 -0.067598201 0.00034414046 4285492513
0.017513763 -0.073515929 0.0051883953 4285360934
-0.029844116 -0.018228494 -0.040299717 4285163563
-0.028160792 -0.017338663 -0.041358657 4285295144
-0.02648266 -0.016449094 -0.042416397 4285360678
-0.025098857 -0.014034778 -0.044805542 4285427234
-0.023289267 -0.013908371 -0.045194022 4285427233
-0.021629456 -0.013019748 -0.046247583 4285426979
-0.019517224 -0.014417134 -0.045306254 4285361444
-0.017549444 -0.015051976 -0.045031097 4285492514
-0.015576247 -0.015686251 -0.044757038 4285492259
-0.013758183 -0.015558705 -0.045146927 4285492259
-0.012103237 -0.014669836 -0.046198998 4285492259
-0.010287676 -0.014542207 -0.046588153 4285492258
-0.0086405911 -0.013653599 -0.047638401 4285492514
-0.0066563413 -0.014286578 -0.047366239 4285492259
-0.0039712004 -0.017960757 -0.044455189 4285492513
0.0008591786 -0.030755885 -0.033636715 4285492514
0.0070347413 -0.048864961 -0.018225517 4285492514
0.012974579 -0.065445043 -0.0041582752 4285492514
0.01663273 -0.072140865 0.0013337405 4285295144
-0.027174029 -0.024949692 -0.037129246 4285098284
-0.025616247 -0.02329158 -0.038855232 4285294889
-0.024213377 -0.020869471 -0.041243475 4285164584
-0.022532303 -0.019977309 -0.042300049 4285295908
-0.020856474 -0.019085348 -0.043355446 4285427233
-0.018881124 -0.01972194 -0.043083645 4285493024
-0.017210413 -0.018830128 -0.04413778 4285427233
-0.015229542 -0.01946611 -0.043866992 4285426978
-0.013724346 -0.017810859 -0.045581069 4285426469
-0.011903666 -0.017682999 -0.04597142 4285426468
-0.010248601 -0.016791828 -0.047021773 4285492259
-0.0085988007 -0.015900917 -0.048070919 4285492258
-0.0067832507 -0.015773058 -0.048459902 4285492258
-0.0037518144 -0.020983398 -0.044240102 4285361188
0.00072786212 -0.032290414 -0.034765646 4285360934
0.0065407343 -0.048927389 -0.020707488 4285360934
0.011925898 -0.063269757 -0.0086443927 4285360934
0.015753224 -0.070748053 -0.0025078645 4285229354
-0.014253873 -0.02632241 -0.040345538 4284901679
-0.012729779 -0.024661534 -0.042060331 4285228843
-0.011053443 -0.023766793 -0.043113749 4285294378
-0.0095478483 -0.022106998 -0.044824407 4285294889
-0.0080528595 -0.020447835 -0.046532705 4285360934
-0.0062267818 -0.020319231 -0.046923935 4285360934
-0.0035331361 -0.02401451 -0.044031166 4285295143
0.00042041019 -0.033060044 -0.036550559 4285294889
0.005868677 -0.048216417 -0.023838401 4285294889
0.011060629 -0.061836548 -0.012459172 4285294889
0.014875259 -0.069337465 -0.0063363337 4285097518
-0.0021019615 -0.032422952 -0.039242245 4284966959
0.0013452359 -0.03919258 -0.033749834 4285097774
0.005912371 -0.05055844 -0.024343353 4285097519
