# .PCD v0.7 - Point Cloud Data file format
VERSION 0.7
FIELDS x y z rgba
SIZE 4 4 4 4
TYPE F F F U
COUNT 1 1 1 1
WIDTH 887
HEIGHT 1
VIEWPOINT 0 0 0 1 0 0 0
POINTS 887
DATA ascii
0.010181535 -0.051370576 -0.0075706351 4286659648
0.0073108114 -0.049202271 -0.011603071 4287183164
0.0095816553 -0.050636463 -0.010696575 4286790209
0.026303079 -0.0083169937 0.070548639 4281437504
0.019533191 4.3287873e-06 0.059357833 4282673743
0.020232882 0.005631566 0.053208325 4281242684
0.021911111 0.0071371719 0.051370203 4280526644
0.025134828 0.0024654642 0.05598348 4280721208
0.029625256 -0.007006593 0.065601654 4280328508
0.016873889 0.00026361644 0.056388624 4281566278
0.017094124 0.0079762861 0.04809957 4280655419
0.018427063 0.010863204 0.044834655 4281112889
0.020078715 0.012371432 0.043005131 4281566788
0.022583358 0.010436565 0.044752616 4281109829
0.026332021 0.0036845282 0.051498011 4280651848
0.030312447 -0.0037520677 0.058946665 4280455754
0.034351885 -0.011184625 0.06638357 4280653379
0.037716515 -0.015862048 0.07095746 4281306433
0.041118689 -0.020536847 0.075523891 4281437249
0.043614339 -0.021771893 0.076524153 4281695564
0.014637332 0.0075842813 0.045865949 4281371714
0.015811611 0.011171501 0.041891366 4280980798
0.017460756 0.012683827 0.040065549 4279612724
0.019099247 0.014195543 0.038241945 4280002874
0.021417283 0.012943879 0.039273944 4279806778
0.024447046 0.0089308843 0.04315516 4278699059
0.027686944 0.0042297319 0.047742322 4280654144
0.030964393 -0.00046881288 0.052322015 4280719423
0.033363022 -0.0017148405 0.053338222 4280785468
0.035400469 -0.0015803874 0.052930981 4281437504
0.037060641 -6.6526234e-05 0.051103499 4280199224
0.040431999 -0.0047585294 0.055664748 4279350583
0.045780905 -0.016340837 0.067309313 4280458559
0.012669235 0.0051208511 0.045780111 4281567809
0.013536964 0.010107208 0.040382549 4281306944
0.015353285 0.010930568 0.039272729 4281241664
0.017164323 0.011753671 0.038164038 4280981308
0.018970061 0.012576517 0.037056472 4280916284
0.020942878 0.012706224 0.036661789 4280785214
0.023791049 0.0093723908 0.039823227 4280980799
0.026488325 0.0067329705 0.042268708 4281045824
0.029207071 0.0040950775 0.044709906 4280980799
0.030848691 0.0056118593 0.042889319 4280849983
0.032293815 0.0078200921 0.040361844 4280719679
0.033534404 0.01071918 0.037129134 4281371458
0.036665011 0.0067002475 0.040980779 4281567044
0.041378375 -0.0028483719 0.050485753 4281046333
0.046756297 -0.014465816 0.062096573 4279482928
0.052225359 -0.026077181 0.073689304 4279743539
0.011109579 0.0097440705 0.038163304 4281242174
0.012600224 0.011960957 0.03563099 4280785213
0.01473153 0.011394382 0.035948962 4280850494
0.01720196 0.0094373077 0.037688348 4281110848
0.019179963 0.0095672458 0.037292544 4281045823
0.021330219 0.0090021938 0.03760694 4281046334
0.023485888 0.0084375814 0.037920307 4280850238
0.025824539 0.0071786419 0.038941778 4280980799
0.027993688 0.0066151321 0.039252609 4280849984
0.029619453 0.0081352293 0.037438478 4280262973
0.030863298 0.011043187 0.034211624 4279611959
0.032650579 0.011867687 0.033109907 4281241408
0.035196364 0.0099164993 0.034834847 4281306689
0.039113775 0.0031106174 0.041497637 4281241664
0.043281119 -0.0043851659 0.048855148 4280981054
0.048900481 -0.016730256 0.061134413 4280654654
0.0093177669 0.0065974593 0.038795531 4281502529
0.010346245 0.010916222 0.034131724 4279353134
0.012149211 0.011742946 0.033027768 4279808308
0.017072614 0.0078144521 0.03650004 4280850238
0.019389186 0.0065494254 0.037522364 4281046079
0.02154452 0.0059824586 0.037834123 4281111359
0.023530547 0.006113112 0.037436854 4280980543
0.025161836 0.0076377913 0.035624713 4281111103
0.026962515 0.0084650591 0.034521736 4281045313
0.028757857 0.009292081 0.033419911 4281175363
0.030362422 0.010815289 0.031613331 4279611449
0.032144394 0.011641618 0.030514318 4279350583
0.03449339 0.01037949 0.031530809 4279610938
0.03801392 0.0049428865 0.036770616 4280002874
0.042361945 -0.0032736808 0.044816822 4280588863
0.04836493 -0.017050125 0.058475606 4280980034
0.007208731 0.0048432201 0.038002361 4281827399
0.0082541294 0.0091761053 0.033344954 4281113143
0.0095843635 0.012106229 0.030113207 4281697858
0.011376653 0.01293442 0.029013019 4281568319
0.013818916 0.010962304 0.030748054 4280850749
0.016776811 0.0068917125 0.034603953 4280850494
0.019259412 0.0049224347 0.036331058 4281111104
0.021586295 0.0036537647 0.037348133 4280980289
0.023225807 0.0051832497 0.035537556 4281110849
0.024500221 0.0081103593 0.032317549 4281241665
0.025753234 0.011036228 0.029101873 4281306433
0.027897691 0.010466799 0.029414421 4281306179
0.02967703 0.011295039 0.028317498 4281175874
0.031826876 0.010726161 0.028629119 4280719168
0.034172706 0.0094594955 0.029642904 4280914243
0.037882324 0.0033069998 0.035573065 4280718404
0.042816028 -0.0070296973 0.045706294 4280652868
0.049618009 -0.023640536 0.062137552 4280718149
0.0049498528 0.0037925243 0.036499839 4281759313
0.0060094632 0.0081393421 0.031849351 4281176893
0.0076594241 0.0096731633 0.030039435 4280397613
0.0092987604 0.011206359 0.028231768 4280525114
0.011249382 0.011334162 0.027841192 4280916539
0.01352736 0.010057639 0.028864494 4280459833
0.016315077 0.0066757351 0.032004863 4280133434
0.018622678 0.0054013282 0.033022437 4280915264
0.020769358 0.004829444 0.033332583 4280980544
0.022398386 0.0063625574 0.031527426 4280980288
0.023485612 0.0099991783 0.027611721 4280525113
0.024905525 0.012231734 0.025108913 4279157038
0.027403755 0.010257412 0.026828323 4279351349
0.029733019 0.0089850277 0.027842019 4280849984
0.032073006 0.0077134967 0.028853601 4281175363
0.034423731 0.0064427257 0.029863158 4280457284
0.03852322 -0.0011297613 0.037179828 4280457028
0.044052251 -0.013599038 0.049388234 4280653125
0.050868608 -0.03026136 0.065777175 4280653125
0.0039209649 0.0064024627 0.031064115 4283664164
0.0054236613 0.0086460263 0.028548863 4282554150
0.0072212406 0.0094787106 0.027450735 4282096423
0.008855436 0.011015967 0.025647329 4281309494
0.010961372 0.010438763 0.025963714 4280917558
0.013236191 0.0091576502 0.026984351 4280459069
0.016020231 0.0057645664 0.03011723 4280915263
0.01798702 0.0058937222 0.029723637 4280850749
0.019953866 0.0060229897 0.029330114 4280981309
0.0215724 0.0075597912 0.02753034 4281046334
0.023003388 0.0097995698 0.025030125 4280395574
0.024418324 0.012038376 0.022533188 4280851768
0.027092773 0.0093538836 0.024950458 4279743793
0.029603781 0.0073738992 0.026662501 4278636073
0.032506038 0.0039894283 0.029772362 4281177148
0.035435095 0.00060684979 0.032876946 4281242429
0.040320363 -0.009798713 0.042970397 4281372223
0.046068497 -0.023008071 0.055843391 4281240389
0.052116759 -0.036912747 0.069394507 4281305413
0.0092025138 0.007299751 0.026593434 4282094384
0.011155564 0.0074276701 0.02620234 4281570614
0.01327198 0.0068490952 0.026515005 4281112124
0.0155598 0.0055645108 0.027529864 4280916284
0.017352451 0.0063996017 0.026434703 4281046588
0.0191398 0.0072344095 0.025340717 4280981308
0.020921845 0.0080689713 0.024247879 4280200498
0.022521887 0.0096090138 0.022455167 4281177149
0.024469975 0.00973735 0.022065619 4281698369
0.026782172 0.0084550306 0.023076022 4281372479
0.02965929 0.0050578564 0.026182609 4281046334
0.032938033 0.00025247782 0.030681685 4281112123
0.036824539 -0.0066648573 0.037268355 4281176893
0.042306758 -0.019216031 0.04942685 4281241918
0.047689985 -0.031056173 0.060868852 4281240899
0.014934305 0.006082207 0.024247551 4282422568
0.0165505 0.007627368 0.022454659 4281767219
0.018498335 0.007755354 0.022064915 4281374010
0.020098548 0.0092997253 0.020275336 4281114419
0.021864604 0.010135517 0.019187404 4280658989
0.023804523 0.010263309 0.018799488 4280721718
0.026108205 0.0089760497 0.019808305 4280198204
0.029345373 0.0041525066 0.024304109 4280133179
0.033368982 -0.0034973323 0.031581536 4280589373
0.03859099 -0.015385546 0.043027684 4280915264
0.044096693 -0.027974494 0.055151895 4281111104
0.048722513 -0.037023447 0.063778624 4281696584
0.01558169 0.0095836893 0.017788244 4283008813
0.017515998 0.0097107887 0.017401207 4282681138
0.01979766 0.0084173977 0.018410899 4282160174
0.021561082 0.0092552006 0.017325142 4281636658
0.023677208 0.0086728483 0.017635038 4281307964
0.025798714 0.0080909505 0.017943939 4280653634
0.029584954 0.0011230707 0.024517609 4280848963
0.034360062 -0.0093883798 0.034558974 4280979524
0.040164202 -0.023440607 0.048059948 4280980289
0.04530587 -0.034649335 0.05876122 4281305668
0.048972562 -0.040181123 0.063893072 4282216783
0.023549911 0.0070826635 0.016470792 4283731483
0.026215665 0.004362613 0.018863494 4281439798
0.030192247 -0.0033385232 0.026114073 4281176639
0.035722788 -0.016728669 0.03890539 4281111359
0.041544706 -0.030823469 0.052369982 4281108809
0.045935906 -0.039220832 0.060269352 4281173834
0.048832096 -0.041925095 0.06261643 4282607189
0.031350225 -0.0099593848 0.029776854 4284315943
0.037082724 -0.024103858 0.043226328 4282941494
0.042543642 -0.036813863 0.055270664 4282811443
0.046372488 -0.043096133 0.061073478 4282218568
0.04642427 -0.045552932 0.060488652 4283525444
0.043023042 -0.043128423 0.055505391 4284442679
0.0045098253 0.005625844 -0.011771841 4284577573
0.011681713 -0.0096556246 0.0017392172 4284706094
-0.039014097 0.01858183 -0.020513564 4284704309
0.0034485869 -0.00048034638 -0.0084442133 4284575789
0.0050195456 0.0011268705 -0.010179221 4282877998
0.0083453543 -0.0054254904 -0.0044540344 4282158133
0.012698445 -0.016423926 0.0053263451 4282746164
0.017463565 -0.028899677 0.016444517 4282746164
0.021308597 -0.036922157 0.023486307 4283985208
0.0064738281 -0.0078539252 -0.0045375745 4282354230
0.010145321 -0.015912101 0.0025205871 4281764923
0.014201757 -0.025453791 0.01091878 4281830204
0.0178308 -0.032760084 0.017277149 4282350403
0.021176722 -0.038575977 0.022275338 4283655749
0.0079246499 -0.016878203 0.0010721494 4283723833
0.011780988 -0.025704831 0.0087821251 4282221628
0.015050318 -0.031543434 0.013782339 4282219844
0.017866015 -0.035141811 0.016752912 4282612034
0.0093720369 -0.025945961 0.0066500409 4283198533
0.012612995 -0.031803966 0.011642745 4282610248
0.015408874 -0.035414681 0.014608989 4282739024
0.013123337 -0.036428094 0.013141153 4283198534
0.012993809 -0.038058683 0.011947075 4283263049
0.010272402 -0.039177701 0.0079567228 4283131469
0.01225701 -0.039047793 0.0075592343 4281822553
0.0047123022 -0.038192153 -0.00012201292 4282609230
0.0068283044 -0.038827956 0.00014772039 4282412113
0.0092619024 -0.040990867 0.0017414887 4282214999
0.0063945539 -0.038902506 -0.0023519159 4282410838
-0.0034029298 -0.033362918 -0.011051817 4283590213
-0.0010411963 -0.035550624 -0.0094587598 4282935629
-0.0039531589 -0.032618068 -0.014181979 4283135039
-0.0018895157 -0.033266358 -0.013908586 4282739789
-0.0075264834 -0.025777906 -0.022180799 4283331389
-0.0047860481 -0.030308582 -0.018616693 4282480709
-0.0027360804 -0.030959949 -0.018342195 4281953879
-0.010218773 -0.023554176 -0.026216069 4283920183
-0.0076480247 -0.027322039 -0.023311857 4282612799
-0.0050504543 -0.031088032 -0.020412924 4282284359
-0.0095222853 -0.029768899 -0.023408648 4283263814
-0.0070753358 -0.032766521 -0.021170115 4282283338
-0.0050314553 -0.033422805 -0.020897726 4282019413
0.044768244 -0.050631516 0.050702613 4282602598
0.044247344 -0.050904267 0.048075657 4282537319
0.052877985 -0.051073477 0.047070846 4282863974
0.040873498 -0.048382141 0.043158919 4282406249
0.038089585 -0.048031844 0.040289316 4282537063
0.040548064 -0.049360946 0.041228041 4282340458
0.045110874 -0.05055058 0.041746676 4281619829
0.035140868 -0.046930894 0.036749456 4282602854
0.03795265 -0.049737111 0.039040916 4282274414
0.040598236 -0.051806167 0.040652309 4282471018
0.03482274 -0.047888942 0.034832384 4281553274
0.037630975 -0.050704077 0.037117939 4282405229
0.04008577 -0.052042171 0.038050894 4282143343
0.03450498 -0.048842244 0.032918707 4281487484
0.036940522 -0.050186098 0.033852123 4282601834
0.031945046 -0.049184315 0.030748378 4282274923
0.034005884 -0.049048372 0.030336425 4282142578
0.029220676 -0.048771366 0.027910974 4282602599
0.031809952 -0.050870724 0.029513702 4282209133
0.025993733 -0.046101511 0.023068767 4282471019
0.028734235 -0.048956379 0.025341406 4282405484
0.031317461 -0.051062644 0.026940379 4282536554
0.023142394 -0.044902317 0.019578502 4281881458
0.025860591 -0.047767535 0.021848943 4281750134
0.028776087 -0.051380619 0.024783548 4282339694
0.023180466 -0.047311202 0.019033127 4282274414
0.026073484 -0.050936788 0.021963939 4281749878
0.028466253 -0.052305669 0.022889212 4283255399
0.020350359 -0.046085894 0.015557203 4282537318
0.023218233 -0.049724206 0.018484797 4282339948
0.025940048 -0.052606538 0.020741377 4282536553
0.020386163 -0.048492193 0.015014418 4282274924
0.023085687 -0.051384881 0.017268844 4282339948
0.014436178 -0.042058997 0.0073025012 4281817453
0.017412838 -0.046481885 0.010888756 4281226619
0.020254511 -0.050143763 0.013805088 4281815668
0.014630005 -0.045208722 0.0074370326 4282275433
0.017117959 -0.047361091 0.0090250978 4282209134
0.019955922 -0.051034108 0.011933979 4282208624
0.011870377 -0.043916181 0.0039941045 4281686129
0.014661741 -0.047603369 0.0069039469 4282012529
0.017315794 -0.050525442 0.0091476217 4282209133
0.01999129 -0.053445995 0.011387095 4283059814
0.011900146 -0.046304137 0.0034665288 4281686639
0.014693145 -0.050002128 0.0063678441 4280767109
0.017512951 -0.053698212 0.0092639066 4281355138
0.0090060085 -0.044217385 -0.00062139233 4282078829
0.012088012 -0.049464189 0.0035947789 4282078064
0.014724243 -0.05240491 0.0058287983 4282732393
0.0059878677 -0.04133606 -0.0053566531 4281751663
0.0087225474 -0.04505986 -0.0024601994 4282012273
0.011642251 -0.049551964 0.0010881242 4282077808
0.026609631 -0.053251997 0.0022261592 4282928489
0.0028542541 -0.037653036 -0.010736091 4280902514
0.0060139112 -0.043708146 -0.0058713546 4281554293
0.0084394515 -0.045897692 -0.0042955941 4281880948
0.011039153 -0.04885833 -0.0020674425 4283190119
0.030483602 -0.054624304 0.0002274104 4281880948
-0.00023909658 -0.033936575 -0.016100362 4281098353
0.00272898 -0.039236814 -0.011896027 4280112779
0.0058870949 -0.045309409 -0.0070440499 4280898179
0.008156728 -0.046730772 -0.0061275987 4281422203
0.032169964 -0.055355549 -0.0020192191 4282536299
-0.00051001832 -0.034727313 -0.017903456 4279720334
0.0024540275 -0.040043093 -0.013709734 4280308364
0.0054555424 -0.045356251 -0.0095234578 4281881204
0.0078743808 -0.047559269 -0.0079561733 4282208368
-0.0029821508 -0.034078583 -0.020626387 4280179844
-0.00063370541 -0.036293052 -0.019050216 4279718803
0.0024784915 -0.042403556 -0.014215297 4281291134
0.0051769316 -0.046173334 -0.011344376 4282797164
-0.00046400353 -0.039422117 -0.01889413 4281094528
0.0023532994 -0.043986484 -0.015374607 4281617788
0.0050507039 -0.0477672 -0.012511658 4282661248
0.0018527322 -0.050315492 -0.020009883 4282143344
-0.00077061728 -0.051220074 -0.023863349 4281090704
0.0054752864 -0.053225428 -0.023102365 4282732648
-0.0011859499 -0.051200449 -0.02629682 4282272374
-0.0014552586 -0.051971108 -0.028085139 4282732649
-0.0018693469 -0.051935703 -0.030507047 4282339438
-0.0021377727 -0.052695021 -0.032287057 4282143088
-0.0051274933 -0.053448707 -0.03848749 4281027974
0.0042387582 -0.054378048 -0.041523445 4282733414
-0.012238849 -0.054276541 -0.046267059 4281746819
-0.010345761 -0.056508899 -0.047142524 4282797163
0.0018328726 0.0046660453 0.030279128 4285099303
0.0030441023 0.008331567 0.026354296 4285231394
0.0051441006 0.007751517 0.026669947 4285296673
-0.00039918348 0.0036401451 0.02878849 4285098539
0.00067635998 0.0080270842 0.024164207 4285689883
0.0023187585 0.0095732361 0.02236552 4285886234
0.0047125258 0.0075712278 0.024090175 4285886233
0.0071224757 0.0055703372 0.025811704 4285886234
0.0092330612 0.0049889758 0.026123725 4285297183
0.011188667 0.0051170588 0.025732117 4285167644
0.01298124 0.0059540719 0.024638491 4285104913
-0.0016795583 0.0077324882 0.021978684 4285689883
-0.00033080205 0.010707058 0.018775746 4285558304
0.0014452934 0.011544637 0.017686659 4285492259
0.0039772503 0.0088233873 0.020111844 4285689119
0.0068405382 0.0046805888 0.023936966 4285754908
0.0091057271 0.0033854693 0.024949471 4285493533
0.011061206 0.0035135373 0.024557879 4285428253
0.012527939 0.0057747439 0.022064937 4285100578
0.014144283 0.0073242038 0.020275163 4284969763
-0.0040236674 0.007447876 0.019797646 4285230374
-0.0023810603 0.009002544 0.018005311 4285755929
-0.0010424368 0.011985153 0.014810951 4285689628
0.0010217279 0.011396058 0.015128737 4285623584
0.0032434016 0.010093443 0.016146544 4285623838
0.0062495358 0.0052230135 0.020664647 4285820954
0.0085062198 0.0039229169 0.021675607 4285624604
0.010613609 0.0033370554 0.021985041 4285559324
0.011912614 0.0063177273 0.018799104 4285559324
0.013521146 0.0078709871 0.017014215 4285559324
0.015119024 0.009423703 0.015231503 4285754908
0.017218638 0.0088377595 0.015542811 4285754908
0.019497152 0.0075397417 0.016549889 4285427488
0.021610256 0.0069548935 0.016858665 4285034788
-0.0060789548 0.005739212 0.019025341 4285361954
-0.0045720637 0.008015275 0.016533555 4285493534
-0.002793435 0.0088571757 0.015447015 4285624348
-0.0013130866 0.011131715 0.0129607 4285886998
0.00074810907 0.010540217 0.013277425 4285887253
0.0028147474 0.0099491775 0.013593129 4285952789
0.0056596212 0.005778864 0.01740223 4285887254
0.0079077855 0.004473865 0.018411549 4285558558
0.010006841 0.0038852692 0.018721014 4285558813
0.011786141 0.0047279224 0.017634941 4285624603
0.013064355 0.0077160597 0.014459809 4285624603
0.014657095 0.0092727542 0.012681441 4285820699
0.016751047 0.0086842403 0.012992239 4285754653
0.019543625 0.0052373633 0.016082523 4285755674
0.022011075 0.0032214224 0.017778389 4285427743
0.024137296 0.0026353449 0.018082963 4285100324
-0.0067569502 0.0070332512 0.015064146 4285493534
-0.0048374049 0.0071581826 0.014679162 4285558813
-0.0027740598 0.0065643564 0.014993673 4285624093
-0.00114429 0.0081270263 0.013210481 4285558303
0.00077292323 0.008252129 0.012826204 4285558303
0.002690237 0.0083773285 0.01244198 4285624094
0.0050707944 0.0063482374 0.014149636 4285558558
0.0074675046 0.0043203235 0.015854144 4285624349
0.0095608942 0.0037291348 0.016163064 4285624349
0.011334881 0.0045736134 0.015079698 4285690138
0.012773391 0.006852746 0.012607202 4285690138
0.014531448 0.0076964051 0.011527188 4285557793
0.016625095 0.0071056783 0.011836395 4285558303
0.019070406 0.005081594 0.013531657 4285624604
0.021883447 0.0016252473 0.016609721 4285493533
0.024544809 -0.0011126399 0.018990023 4285427998
0.028133467 -0.0074308962 0.0248257 4285427744
0.032689586 -0.017326839 0.034108669 4285296163
0.038253345 -0.030797847 0.04683096 4285296164
-0.0083938278 0.0031702071 0.016394841 4285295908
-0.0070190765 0.0061810091 0.013212669 4285886488
-0.005102329 0.0063057169 0.012828216 4285952534
-0.0030419789 0.0057095513 0.013141638 4285886998
-0.00097614527 0.0051137954 0.013454076 4285689884
0.00079743192 0.0059599206 0.01237197 4285624349
0.0025657639 0.0068057626 0.011291033 4285559069
0.0049456693 0.0047700629 0.012993883 4285624604
0.0070279539 0.0041758567 0.013303302 4285624604
0.0087965541 0.0050220639 0.012222575 4285624349
0.010722104 0.0051482096 0.011837009 4285624348
0.012317888 0.0067137703 0.010064475 4285952788
0.014070626 0.0075592399 0.0089871511 4285755419
0.015988335 0.0076852217 0.0086034127 4285624349
0.018597905 0.0049349368 0.010987384 4285624349
0.021580201 0.00074832141 0.014749859 4285690393
0.025129613 -0.0055923015 0.020578511 4285558813
0.02908925 -0.013366774 0.027778234 4285427489
0.033842504 -0.024010763 0.037725285 4285427489
0.038676124 -0.034649342 0.047656354 4285295654
-0.010577817 0.00218907 0.014925948 4285230119
-0.0090593286 0.0044852942 0.012446353 4285689629
-0.0075567476 0.0067805499 0.0099700764 4285689118
-0.0056481622 0.0069047213 0.0095872562 4285623838
-0.0033095032 0.0048593879 0.011293069 4285886999
-0.0011006519 0.0035381913 0.012300102 4285689884
0.00082165003 0.003663592 0.011914777 4285624349
0.0025926903 0.0045118183 0.010834886 4285558814
0.004820589 0.0031922087 0.011838356 4285624603
0.0065891482 0.0040404573 0.010759171 4285559068
0.0081930347 0.0056106672 0.0089881159 4285558558
0.0097862966 0.0071802586 0.0072193127 4285558558
0.011533652 0.0080274493 0.0061446298 4285755418
0.013275705 0.0088744387 0.0050710384 4285821208
0.015522767 0.0075567439 0.0060711615 4285755673
0.018126145 0.0047972947 0.0084497966 4285690138
0.021803729 -0.0022872984 0.014962801 4285493023
0.025891177 -0.010810122 0.022843599 4285493024
0.030404564 -0.020770125 0.032089047 4285493024
0.034625992 -0.029283911 0.039943285 4285427233
0.038725533 -0.037072912 0.047097098 4285031984
-0.013015199 0.0026657209 0.012064855 4285295909
-0.011364017 0.0042422414 0.010286814 4285624604
-0.0094531439 0.0043663383 0.0099033657 4285690138
-0.008093331 0.0073935837 0.0067372918 4285492514
-0.0060524456 0.0067916438 0.0070512239 4285492513
-0.0040060841 0.0061901435 0.0073641296 4285624093
-0.0016625933 0.0041386187 0.0090641528 4285755673
0.00040003657 0.0035384074 0.0093739666 4285558813
0.0023169592 0.0036635399 0.0089897849 4285558813
0.0042339675 0.0037887916 0.0086056776 4285624348
0.0059945323 0.0046386793 0.0075297225 4285624348
0.0074313842 0.006937094 0.0050721467 4285689628
0.0094998293 0.0063377619 0.005381247 4285689373
0.011079971 0.0079110116 0.0036183931 4285624094
0.012816712 0.0087597817 0.0025475454 4285558303
0.015057921 0.0074373558 0.0035454985 4285558814
0.018172923 0.0024983063 0.0079849036 4285493278
0.022377137 -0.0067780092 0.016545814 4285493278
0.027006933 -0.017495878 0.026468106 4285427999
0.031536467 -0.027485386 0.035687342 4285230118
-0.015688885 0.0046143457 0.0078180339 4285229864
-0.014304835 0.00765156 0.0046534091 4285493024
-0.012280714 0.0070459992 0.0049688034 4285559069
-0.010251071 0.0064408481 0.0052832123 4285821719
-0.0084912218 0.0072921515 0.0042084157 4286019344
-0.0064559765 0.0066875815 0.0045218654 4285821718
-0.0042723082 0.0053559169 0.0055272258 4285821718
-0.0020777993 0.0040250346 0.0065305433 4285558813
-0.00016915426 0.0041495115 0.0061479355 4285558814
0.0017395951 0.0042740926 0.0057653836 4285624604
0.0036484413 0.004398793 0.0053828931 4285690139
0.0052446388 0.0059770942 0.0036198404 4285887509
0.0071482919 0.0061016902 0.0032385678 4286018324
0.008890301 0.0069527626 0.0021681355 4285952788
0.010955814 0.0063512102 0.002476217 4285821464
0.012859661 0.0064761341 0.0020951384 4285624350
0.015442569 0.0036977604 0.0044646482 4285559324
0.018736664 -0.0019818097 0.0095782997 4285493789
0.023299377 -0.012736946 0.019489288 4285493789
0.028298048 -0.024937347 0.030756366 4285427488
0.03230501 -0.032780714 0.037892386 4285097518
-0.025971819 0.018656991 -0.007124491 4285689374
-0.024128985 0.018776014 -0.0074947774 4285754398
-0.02167901 0.015239201 -0.0043866523 4285754399
-0.019326206 0.012435235 -0.0019789808 4285623583
-0.017205331 0.011094436 -0.00096474565 4285493023
-0.015332464 0.011215806 -0.0013407578 4285493789
-0.012931067 0.0084152892 0.0010573827 4285493533
-0.010912459 0.0078072697 0.001372302 4285559323
-0.0088883601 0.007199727 0.0016862135 4285493533
-0.0068587847 0.0065926239 0.0019990911 4285559069
-0.0048237443 0.0059860051 0.0023109613 4285493278
-0.0024922751 0.00392057 0.0040035318 4285493278
-0.00058912113 0.0040446669 0.0036220043 4285559069
0.0013141446 0.0041688755 0.003240542 4285624604
0.0029104687 0.0057513788 0.0014806909 4285690139
0.0046523586 0.006604448 0.00041171152 4285623839
0.0065478459 0.0067284852 3.2059674e-05 4285623584
0.008766491 0.0053954497 0.0010277403 4285754909
0.011160132 0.003334865 0.0027084439 4285755673
0.013236102 0.0027319193 0.0030128672 4285558558
0.01616535 -0.0015107989 0.0067463825 4285558814
0.019988041 -0.0093906447 0.013900943 4285427998
0.024744343 -0.020905018 0.024468563 4285296419
0.029231152 -0.030958571 0.033650294 4285296674
-0.028724659 0.022164889 -0.012730579 4285558303
-0.027132604 0.02375003 -0.014487463 4285820953
-0.025313977 0.023867447 -0.014852916 4285689373
-0.022889044 0.020318042 -0.01174793 4285952279
-0.020685028 0.018236972 -0.010035402 4285886743
-0.01833823 0.015423957 -0.0076330318 4285624604
-0.016228404 0.014078215 -0.0066198395 4285559069
-0.01371194 0.010535143 -0.0035329291 4285559069
-0.011976223 0.011389092 -0.0045997095 4285427999
-0.009971153 0.010778058 -0.0042835977 4285427999
-0.0079606213 0.010167532 -0.003968548 4285493279
-0.0053740926 0.0066294819 -0.00089541281 4285493278
-0.0029059984 0.0038251132 0.0014831866 4285493278
-0.0010083355 0.0039488375 0.0011027508 4285559069
0.00073876232 0.0048041791 3.4182915e-05 4285624349
0.0023272745 0.0063905269 -0.0017208254 4286084879
0.0037491433 0.0087074488 -0.0041607451 4285755419
0.0059484877 0.0073686764 -0.0031645652 4285557794
0.008158613 0.0060307682 -0.0021704959 4285558303
0.011199739 0.0010406822 0.0022489552 4285689884
0.013611507 -0.0010251179 0.0039211335 4285690138
0.01722521 -0.0082014948 0.010381125 4285558813
0.021408733 -0.017564356 0.018882025 4285361954
0.026186187 -0.029112242 0.029419171 4285361954
0.02962989 -0.034816653 0.034476805 4285493024
-0.030885439 0.022025071 -0.01484846 4285558813
-0.029519368 0.025086578 -0.017990256 4285624093
-0.028058831 0.027410936 -0.020434227 4285557794
-0.026140671 0.026791394 -0.020102914 4285557793
-0.023974884 0.02470113 -0.018387677 4285755164
-0.021669175 0.021876622 -0.015983704 4285755418
-0.019341927 0.019053616 -0.013583977 4285624348
-0.017251287 0.017702229 -0.012570236 4285558813
-0.01501805 0.015616745 -0.010868241 4285559069
-0.013440814 0.017205995 -0.01261833 4285559068
-0.011599917 0.017325554 -0.012987734 4285558813
-0.0094793402 0.015976507 -0.011979626 4285558814
-0.0066356696 0.01095739 -0.0075328182 4285558813
-0.0038995482 0.0066748261 -0.0037810879 4285558813
-0.0017224513 0.0053297803 -0.0027840736 4285558814
0.00016447529 0.0054528937 -0.0031622837 4285558559
0.0015919954 0.0077766106 -0.0055985022 4285952533
0.0030035414 0.010099348 -0.0080313999 4285821209
0.0051916875 0.0087555125 -0.007036306 4285821464
0.0075518154 0.00667952 -0.0053588375 4285756183
0.01074741 0.00094079226 -0.00026517615 4285690648
0.013819363 -0.0040624291 0.0041367086 4285493533
0.017944206 -0.013457686 0.012627965 4285362209
0.022654399 -0.02504497 0.023152186 4285362208
0.026577422 -0.032966152 0.0302507 4285230374
-0.03314187 0.022633739 -0.017655339 4285361699
-0.031552378 0.02422718 -0.019405333 4285624604
-0.030311983 0.028034877 -0.023230515 4285952534
-0.028867099 0.0303647 -0.025666393 4285755418
-0.027083475 0.030479822 -0.026024846 4285821209
-0.024695288 0.026906237 -0.022928957 4285886998
-0.022156652 0.022596903 -0.019148085 4285821718
-0.019964468 0.02050199 -0.017442934 4285624349
-0.018013898 0.01988275 -0.017119475 4285558813
-0.01618946 0.020001017 -0.017485742 4285624603
-0.014767651 0.022330113 -0.019916488 4285624348
-0.012950975 0.0224481 -0.020281028 4285886999
-0.010715354 0.02035654 -0.018584199 4285886998
-0.0077521242 0.01458424 -0.013457735 4285952789
-0.0048909672 0.0095510855 -0.0090258475 4285821209
-0.0025827698 0.0074645802 -0.0073433183 4285624094
-0.00070936978 0.0075867996 -0.0077188313 4285558558
0.00085814297 0.0091805235 -0.0094631324 4285493279
0.0024150349 0.010773614 -0.011205181 4285559323
0.0045946613 0.0094248578 -0.010211666 4285625369
0.0072681271 0.0058714449 -0.0071717836 4285559579
0.010950617 -0.0020899922 -4.3529086e-05 4285493789
0.014692042 -0.010047413 0.0070729651 4285427998
0.01933768 -0.021674 0.017583802 4285427998
0.023553837 -0.031091452 0.026035512 4285164838
-0.035276104 0.02251609 -0.019763168 4285295653
-0.033793893 0.024854552 -0.022201862 4285558813
-0.032217551 0.026451491 -0.023945946 4285624349
-0.030651737 0.028047804 -0.025687803 4285755419
-0.029211801 0.030383885 -0.028117815 4285755419
-0.02731562 0.029758506 -0.027785406 4285755419
-0.025172513 0.027653649 -0.026075492 4285689884
-0.022519652 0.022590809 -0.021613879 4285558558
-0.020585593 0.021968182 -0.021288844 4285558558
-0.018646035 0.021346021 -0.020964829 4285558813
-0.017095227 0.022942096 -0.022703124 4285624603
-0.01555502 0.024537623 -0.024439259 4285821719
-0.013888594 0.025393616 -0.025487125 4285689628
-0.011669669 0.023294404 -0.023791883 4285755163
-0.0090082623 0.018980678 -0.020044951 4285886999
-0.0061698519 0.013930757 -0.015619995 4285952789
-0.0037362576 0.01109805 -0.013254098 4285624348
-0.0015814416 0.0097429156 -0.012259118 4285559069
0.00043135136 0.0091264993 -0.011949054 4285428254
0.002605062 0.0077728629 -0.010957734 4285428254
0.0043150559 0.0086326003 -0.012013664 4285362463
0.0071456768 0.0043306947 -0.0083000567 4285428255
0.0108261 -0.0036548823 -0.001189449 4285428254
0.015562665 -0.016058378 0.0099901967 4285428254
0.020221416 -0.027718991 0.020472163 4285362209
-0.037398491 0.022408292 -0.021866461 4285361699
-0.035913404 0.024753395 -0.024300963 4285492768
-0.034229841 0.025611531 -0.025351504 4285689373
-0.032331754 0.024983786 -0.025021341 4285689374
-0.030765701 0.026584458 -0.026759978 4285558559
-0.029095005 0.027442064 -0.027807701 4285558303
-0.027193759 0.026814815 -0.027477957 4285558559
-0.025166493 0.02544589 -0.026461598 4285624348
-0.022881936 0.022593789 -0.024073105 4285559069
-0.020953517 0.021968607 -0.023748586 4285559069
-0.019276742 0.022827122 -0.024797142 4285559069
-0.017605189 0.023685399 -0.025844578 4285755928
-0.016072784 0.025284763 -0.027575873 4285624093
-0.014414351 0.026142407 -0.028620511 4285492259
-0.012343366 0.024777003 -0.027612336 4285558049
-0.00969382 0.0204494 -0.023872877 4285558303
-0.0071566813 0.01686459 -0.020822598 4285624349
-0.0045926869 0.013281647 -0.017777618 4285624348
-0.0018518753 0.0089603215 -0.014056205 4285559069
0.00076850131 0.0053812116 -0.011022331 4285296928
0.0029497556 0.0040237084 -0.010035796 4284968233
-0.03781775 0.023171041 -0.025015924 4285493023
-0.036340285 0.025522124 -0.027443947 4285886489
-0.034450684 0.024891529 -0.027113814 4285952534
-0.032555576 0.024261374 -0.026784733 4286018323
-0.030654948 0.023631684 -0.026456669 4285689883
-0.028863821 0.023747128 -0.026816744 4285624093
-0.026954848 0.023118183 -0.026490204 4285624349
-0.025040384 0.022489645 -0.026164655 4285559069
-0.023120437 0.021861613 -0.025840167 4285559068
-0.021320719 0.021978024 -0.026201664 4285558813
-0.019649249 0.022838354 -0.027247533 4285558814
-0.018245142 0.025185768 -0.029660089 4285690393
-0.016723197 0.026788753 -0.031385973 4285887508
-0.015211854 0.028391205 -0.033109695 4285690139
-0.013015632 0.026277397 -0.031419758 4285755418
-0.010519724 0.022678882 -0.028369498 4285755673
-0.0077080913 0.01759671 -0.023962127 4285755929
-0.0050059967 0.013259605 -0.020242848 4285493278
-0.0015227422 0.0052126572 -0.013129273 4285493279
0.0015620552 -0.00060362369 -0.008066223 4285493789
-0.039919261 0.023084912 -0.027108133 4285427744
-0.03843892 0.025442638 -0.029531954 4285820953
-0.036766116 0.026304301 -0.030577157 4285754909
-0.034671154 0.024176165 -0.028872736 4285820954
-0.032669496 0.022796426 -0.027858118 4286018324
-0.03065699 0.02141748 -0.026845608 4285689883
-0.028633606 0.020039294 -0.025835169 4285689884
-0.026834447 0.020155344 -0.026196796 4285624349
-0.025155332 0.021018006 -0.027242821 4285624603
-0.023604315 0.022626836 -0.028971646 4285624604
-0.021938276 0.023488872 -0.030014874 4285624349
-0.020405669 0.025096685 -0.03173979 4285558559
-0.018883657 0.026703946 -0.033462554 4285558558
-0.017372217 0.028310601 -0.035183068 4285755929
-0.015598867 0.028425697 -0.035538968 4285755929
-0.013269726 0.02555966 -0.033172075 4285755928
-0.010635901 0.021204859 -0.029449154 4285690393
-0.0076813214 0.015362319 -0.024373364 4285559068
-0.00424302 0.0072883368 -0.017268904 4285558814
-0.00029689819 -0.003015548 -0.0081405556 4285427234
0.0026581623 -0.0081033632 -0.0037731337 4285032239
-0.041721027 0.020757902 -0.027132874 4285296164
-0.04042707 0.024622899 -0.030928321 4285821209
-0.038754407 0.0254866 -0.031971954 4285623583
-0.036982905 0.025600348 -0.032328412 4285557539
-0.034997907 0.024215054 -0.031313814 4285557793
-0.03311139 0.02357997 -0.03098629 4285689374
-0.03099535 0.021446832 -0.029290894 4285755674
-0.028863106 0.019314844 -0.027598668 4285624093
-0.026949387 0.018681806 -0.027276395 4285558558
-0.025390264 0.020295396 -0.029003661 4285624348
-0.02408709 0.023405422 -0.032093268 4285624093
-0.022429045 0.024269152 -0.033133309 4285624094
-0.020776208 0.025132611 -0.034172174 4285558559
-0.019259337 0.026743833 -0.035890598 4285624094
-0.017619621 0.027606655 -0.036926672 4285558559
-0.01571301 0.026973899 -0.036602411 4285558559
-0.013245944 0.023351591 -0.03356285 4285559069
-0.010752041 0.019731116 -0.030528607 4285493533
-0.0073666908 0.011629604 -0.023431644 4285493534
-0.0033353083 0.00054404885 -0.013636506 4285493023
0.00077642128 -0.01053609 -0.003857428 4285493023
-0.04408681 0.022942327 -0.031279169 4285032493
-0.04260071 0.02531324 -0.033694506 4285493278
-0.040933501 0.026178669 -0.034735478 4285886998
-0.039372597 0.027795959 -0.036460329 4285952533
-0.037406933 0.026404954 -0.035445198 4285755418
-0.035536904 0.025766518 -0.035116088 4285755163
-0.033443045 0.023625288 -0.033421237 4285952788
-0.031444822 0.022236675 -0.032412432 4285821464
-0.029206727 0.019346341 -0.030041102 4285624094
-0.027298663 0.018710747 -0.02971934 4285558558
-0.025744673 0.020328291 -0.03144227 4285689884
-0.024568822 0.02419747 -0.035205103 4285755418
-0.022918742 0.025062811 -0.03624187 4285886743
-0.021146018 0.025177535 -0.036597896 4285952533
-0.019242626 0.024542157 -0.036274802 4285755418
-0.017466981 0.024657283 -0.03663126 4285624349
-0.01541942 0.023272801 -0.03563166 4285624349
-0.012945328 0.019640036 -0.032601714 4285559068
-0.010020632 0.013760563 -0.027546244 4285559324
-0.0061895065 0.003387928 -0.018440912 4285428255
-0.0018435866 -0.0092272311 -0.0073229275 4285428255
0.0016977303 -0.017342329 -0.00027509447 4285164838
-0.04438496 0.022998881 -0.033714019 4285426979
-0.042903807 0.025376007 -0.036123455 4285493279
-0.041241881 0.026243251 -0.037161741 4285559068
-0.039585132 0.027110294 -0.038198967 4285755673
-0.03772625 0.026468802 -0.03786929 4285755928
-0.035755534 0.025073837 -0.036858402 4285755928
-0.03377397 0.023679629 -0.035849575 4285624348
-0.031669889 0.021532677 -0.034161653 4285558558
-0.029549632 0.019386817 -0.032476887 4285624349
-0.027764205 0.019501921 -0.032835796 4285558813
-0.026337709 0.021876421 -0.035233561 4285690139
-0.024804752 0.023497064 -0.036948916 4285820953
-0.023282353 0.02511717 -0.038662121 4285820954
-0.021259692 0.023726355 -0.037660997 4285820953
-0.019356597 0.023088772 -0.037339486 4286018324
-0.017181922 0.020947166 -0.035665087 4285755673
-0.015126828 0.019558802 -0.03467029 4285559068
-0.012507301 0.015163735 -0.030974085 4285493533
-0.0091501959 0.0070122629 -0.023907566 4285427998
-0.0048716553 -0.0056443736 -0.012804045 4285427998
-0.00094134733 -0.016040936 -0.0037414508 4285296419
0.00187115 -0.02042304 -8.3573803e-05 4284900914
-0.04412562 0.01852252 -0.032041926 4285623584
-0.042728838 0.021663658 -0.035131488 4285559069
-0.041156996 0.023290262 -0.03685214 4285558559
-0.039696474 0.025672764 -0.039252374 4285493023
-0.037837874 0.025029059 -0.038924295 4285558559
-0.035973784 0.024385821 -0.038597308 4285492768
-0.033886518 0.022231087 -0.03691097 4285493023
-0.031894591 0.020833317 -0.035907492 4285558814
-0.0298918 0.019436363 -0.0349061 4285558814
-0.028111871 0.019551083 -0.03526393 4285558813
-0.026690323 0.021931764 -0.037655737 4285755929
-0.025284689 0.024311554 -0.040044326 4285558048
-0.023645226 0.025180522 -0.04107571 4285557539
-0.021628391 0.023785006 -0.040076751 4285557793
-0.019340318 0.020881068 -0.037728116 4285689629
-0.017030742 0.017978635 -0.035383713 4285689628
-0.014699657 0.015077718 -0.033043541 4285624348
-0.011517692 0.0076538995 -0.026662013 4285559068
-0.0074367113 -0.0042897388 -0.016248748 4285493533
-0.0032700412 -0.016227633 -0.0058526159 4285493533
-0.000333976 -0.021377958 -0.0015274629 4285428253
0.0021928288 -0.024265498 0.00077384978 4285163564
-0.043589663 0.011751305 -0.028337024 4285031984
-0.04226895 0.015661415 -0.032105222 4285426724
-0.040778827 0.018052228 -0.034506593 4285492259
-0.039304558 0.020442083 -0.036904655 4285492258
-0.03763954 0.021314081 -0.037940215 4285558814
-0.0358737 0.021427486 -0.038295519 4285493023
-0.033999044 0.020782799 -0.037972182 4285493534
-0.03211889 0.020138618 -0.037649911 4285559069
-0.030347254 0.020252686 -0.038006164 4285559068
-0.028692108 0.021124523 -0.039039299 4285624860
-0.027280893 0.023511078 -0.041424189 4285821973
-0.025763553 0.025139425 -0.043129932 4285821973
-0.02425677 0.026767161 -0.044833422 4285624094
-0.022251096 0.025366548 -0.043835502 4285624348
-0.019844498 0.021696337 -0.040816806 4285755929
-0.017411042 0.018028032 -0.037803452 4285821719
-0.014409203 0.011335835 -0.032102603 4285493279
-0.010530811 0.00010933727 -0.022375388 4285493534
-0.006290596 -0.012623958 -0.011319952 4285493535
-0.0026763938 -0.021571726 -0.003640604 4285427489
-0.00016655773 -0.024469279 -0.0013425025 4285098028
-0.043240961 0.0064725131 -0.026014779 4285031984
-0.041811053 0.009633176 -0.029098006 4285360678
-0.040206712 0.011270493 -0.030818628 4285426469
-0.038813848 0.014428969 -0.033894256 4285558049
-0.037132729 0.015304115 -0.034931384 4285558049
-0.035668444 0.017700087 -0.037322428 4285492003
-0.034003038 0.018574435 -0.038356241 4285558813
-0.032342818 0.019448534 -0.039388947 4285493023
-0.030687813 0.020322461 -0.040420566 4285559068
-0.029270988 0.022715759 -0.042801704 4285559068
-0.027750898 0.024348516 -0.044504818 4285558814
-0.02636319 0.026740134 -0.046879951 4285887508
-0.024617847 0.026852932 -0.047230601 4285887254
-0.022745196 0.026206702 -0.046907995 4285821719
-0.020087887 0.021007147 -0.042550396 4285755929
-0.017393027 0.015810098 -0.038200211 4285558814
-0.013849344 0.0060638785 -0.029827911 4285493534
-0.0095466264 -0.0074699521 -0.018114194 4285427743
-0.0054286607 -0.019480795 -0.0077607804 4285427743
-0.0025141276 -0.024663128 -0.0034543397 4285230119
-0.041450094 0.0043423474 -0.026787866 4285360169
-0.039832193 0.0059848651 -0.028507959 4285360679
-0.03832512 0.0083899051 -0.030902872 4285492003
-0.036730912 0.010031112 -0.032618042 4285557539
-0.035147224 0.011671763 -0.034331076 4285557539
-0.033682372 0.014074367 -0.036717206 4285557538
-0.032344405 0.017238427 -0.039774928 4285557793
-0.030800331 0.018876862 -0.041479755 4285492259
-0.029499467 0.022038739 -0.04452987 4285492768
-0.027981829 0.023675654 -0.046229165 4285493278
-0.026596431 0.026073672 -0.048598986 4285493278
-0.024729531 0.025424726 -0.048276916 4285558813
-0.022857178 0.024776299 -0.047955889 4285559068
-0.020330895 0.020322565 -0.044280548 4285493533
-0.017110582 0.012066126 -0.037258927 4285493534
-0.013021093 -0.00075127184 -0.026229056 4285427743
-0.0088406019 -0.013562627 -0.015217356 4285427743
-0.0054114312 -0.02180516 -0.0082373982 4285229864
-0.04310124 0.00044456869 -0.025479728 4285228844
-0.041469958 0.0020922273 -0.027199382 4285360424
-0.039751712 0.0029738694 -0.028240887 4285426468
-0.038238887 0.005385749 -0.030632006 4285492004
-0.036330733 0.0047364682 -0.030320555 4285492004
-0.034733493 0.0063823462 -0.032033052 4285557284
-0.03314675 0.0080276281 -0.033743292 4285557538
-0.031792197 0.011201449 -0.036797822 4285557793
-0.030345377 0.013609629 -0.039175328 4285492003
-0.02903058 0.016781054 -0.042221654 4285491749
-0.027618218 0.019187242 -0.044592064 4285689884
-0.026343267 0.02235635 -0.047630277 4285624859
-0.024592828 0.022469442 -0.047981966 4285559324
-0.022715423 0.021819167 -0.047663588 4285493533
-0.019925904 0.015825924 -0.042659964 4285493789
-0.016168144 0.0044934154 -0.032982372 4285427999
-0.011655722 -0.010648772 -0.01997881 4285427999
-0.0081366114 -0.019681282 -0.012339548 4285296163
-0.0052542984 -0.024896301 -0.0080496473 4285163563
-0.043032337 -0.0025820881 -0.025221556 4285163563
-0.041395504 -0.00092978776 -0.026939014 4285294888
-0.039769154 0.00072199851 -0.028654328 4285426214
-0.038153332 0.0023731589 -0.0303674 4285426213
-0.036342751 0.0024892613 -0.030731838 4285492003
-0.034637313 0.00337255 -0.031768914 4285557539
-0.032937054 0.0042556375 -0.032804854 4285557539
-0.031352643 0.0059052333 -0.03451135 4285491748
-0.029778752 0.0075542331 -0.036215596 4285492004
-0.02821542 0.0092026815 -0.037917681 4285491749
-0.027018618 0.013149209 -0.041627567 4285492004
-0.025727067 0.016328085 -0.044662569 4285492259
-0.024208751 0.017973915 -0.046355329 4285558558
-0.022067603 0.015790679 -0.044703875 4285559323
-0.01913422 0.009015508 -0.03904843 4285229863
-0.014964376 -0.0046446696 -0.027396601 4285164073
-0.010832895 -0.01753334 -0.016430814 4285164073
-0.007846754 -0.023530871 -0.011479476 4285163564
-0.039689768 -0.0023038164 -0.028398044 4285228844
-0.038168196 0.00012166798 -0.030781193 4285294634
-0.036457542 0.0010073707 -0.031817757 4285360424
-0.034646925 0.0011235699 -0.032182135 4285360679
-0.032836143 0.0012398958 -0.032546446 4285426213
-0.031025235 0.0013563335 -0.03291072 4285426469
-0.029327299 0.0022416189 -0.033944421 4285492004
-0.027750406 0.0038952827 -0.035645977 4285557539
-0.026421037 0.0070851967 -0.038682118 4285426468
-0.025112893 0.010273773 -0.041713886 4285360424
-0.023454513 0.011157017 -0.042739335 4285360168
-0.021421809 0.0097362846 -0.041763213 4285360423
-0.018086534 0.00063928962 -0.034126591 4285360934
-0.013895858 -0.0130587 -0.022508387 4285360934
-0.010281485 -0.022913478 -0.014235378 4285295144
-0.034761798 -0.00035806745 -0.033267833 4285163308
-0.033058804 0.00052949041 -0.034301095 4285360934
-0.031140376 -0.00012534112 -0.033996388 4285426724
-0.029442403 0.00076209754 -0.035028484 4285426213
-0.027749646 0.001649335 -0.036059424 4285492004
-0.026298735 0.0040775463 -0.038422883 4285360678
-0.024621736 0.0049639791 -0.039450504 4285426214
-0.022949953 0.0058502257 -0.040477034 4285360423
-0.020778049 0.0036559254 -0.038841575 4285294888
-0.0175579 -0.0046964288 -0.031891976 4285360679
-0.013752151 -0.01612372 -0.022297645 4285360679
-0.010537867 -0.023697928 -0.016037293 4285229353
-0.030925069 -0.0039266795 -0.033081412 4285228844
-0.029444668 -0.0014902651 -0.035446063 4285360424
-0.027864669 0.00017224252 -0.037141666 4285360679
-0.026177097 0.0010614619 -0.038169909 4285492003
-0.024494726 0.0019504204 -0.039196968 4285360678
-0.022694062 0.0020667166 -0.039558783 4285425959
-0.020640943 0.00063860416 -0.038593307 4285294634
-0.017417494 -0.007737413 -0.031662412 4285360424
-0.013872121 -0.017653346 -0.023418175 4285360424
-0.010928091 -0.023705922 -0.018497802 4285294634
-0.02763376 -0.0036299527 -0.03623132 4285229353
-0.0260561 -0.001963146 -0.037923105 4285295399
-0.024489012 -0.00029685348 -0.039612722 4285360934
-0.022685815 -0.00018040836 -0.039975055 4285360678
-0.020504508 -0.0023871511 -0.038351301 4285294889
-0.017535072 -0.0092383474 -0.032761954 4285425704
-0.014254745 -0.017634474 -0.025860369 4285425703
-0.024122145 -0.0048791468 -0.038047045 4284966703
-0.022431564 -0.0039852336 -0.039072428 4285098028
-0.020242896 -0.0061980337 -0.037455067 4285294888
-0.017267127 -0.013068385 -0.031881709 4285294888
-0.014505494 -0.018382914 -0.027636617 4285294888
-0.019479688 -0.013136983 -0.033933092 4284901168
-0.016871873 -0.017689854 -0.03035266 4285163563
-0.014231872 -0.022240587 -0.026778569 4285229099
