# .PCD v0.7 - Point Cloud Data file format
VERSION 0.7
FIELDS x y z rgba
SIZE 4 4 4 4
TYPE F F F U
COUNT 1 1 1 1
WIDTH 881
HEIGHT 1
VIEWPOINT 0 0 0 1 0 0 0
POINTS 881
DATA ascii
-0.0013779886 0.020901319 0.032884978 4290981388
0.00077882409 0.020375419 0.033199184 4289803288
-0.0040043816 0.012998573 0.039175756 4289277989
-0.0024968199 0.015130643 0.036541127 4289605918
-0.00066609308 0.015932489 0.035380423 4290325273
0.0013315864 0.016069666 0.03495555 4290455578
0.0033293702 0.016206924 0.034530714 4290522134
0.0053272322 0.016344275 0.034105923 4289216278
0.017702915 0.015844248 0.033018321 4290786058
-0.0038135983 0.0099986866 0.039450422 4288557359
-0.002466917 0.012804709 0.036085229 4289015593
-0.00063344091 0.013608932 0.034925558 4289538853
0.0013668239 0.013746262 0.034500118 4289603879
0.0037165992 0.012550786 0.03553975 4290126628
0.0057223849 0.012688652 0.035113256 4289865764
0.007908307 0.012160551 0.035418164 4289473318
0.009916909 0.012298781 0.034991194 4289343014
0.011925571 0.012437101 0.034564272 4289605409
0.013746202 0.013241004 0.033407748 4289867294
0.016133796 0.012048662 0.034439661 4290193693
0.018532122 0.010857139 0.035469342 4290455069
0.021333396 0.0083364956 0.037952751 4290323999
0.025945131 -0.00016558915 0.046978138 4290520093
-0.0044426322 0.010337058 0.036053013 4289014574
-0.0029368438 0.012482174 0.033428494 4289603879
-0.0012778044 0.013957229 0.031539515 4289538853
0.00071433187 0.014093984 0.031115793 4289734949
0.0032301396 0.012224887 0.03288481 4289996579
0.0052304752 0.012362365 0.032459464 4290062114
0.0075906441 0.011163343 0.033493739 4289669669
0.0097790174 0.010633271 0.033796541 4289212199
0.011787578 0.010771569 0.033369634 4289735458
0.013608288 0.011577673 0.032214712 4290128159
0.015614271 0.01171596 0.03178848 4289277479
0.018586526 0.0085175149 0.034996949 4289211943
0.021977402 0.0039866567 0.039652504 4289146408
0.027590321 -0.0078785047 0.052283935 4288950058
-0.0064236969 0.0078650378 0.036018901 4286660159
-0.0052341819 0.011360608 0.031933673 4288949039
-0.0035723224 0.0128402 0.03004723 4289865764
-0.0017520487 0.013647884 0.028893594 4290127649
0.00040630996 0.013113189 0.029200889 4290323488
0.0027444586 0.011908058 0.030236445 4290323488
0.0047393441 0.012045145 0.029812247 4289473319
0.0069139898 0.011511829 0.030116268 4289080618
0.0087293312 0.012319598 0.028963994 4289342759
0.010909446 0.011786822 0.029266972 4289800483
0.012719544 0.012594398 0.028115936 4290389279
0.01490511 0.012062177 0.028417889 4290062369
0.017868321 0.0088520683 0.031620134 4290258463
0.021641262 0.0029663071 0.037715845 4290258209
0.027843324 -0.010946617 0.052491859 4290126628
-0.0067214705 0.0068742223 0.034093961 4287771448
-0.0058607534 0.011728328 0.028557226 4289604133
-0.0043727905 0.013885409 0.025946248 4289277224
-0.0023943223 0.014021087 0.025525335 4288950059
-7.2773546e-05 0.012810308 0.026561093 4289146409
0.002259545 0.011600379 0.02759457 4289342504
0.0042489767 0.011737075 0.027171515 4289276968
0.0062384754 0.011873864 0.026748512 4289211689
0.0080458671 0.012683284 0.02559955 4289081129
0.010217682 0.012147721 0.025902662 4289211688
0.012207361 0.012284782 0.025479812 4290062369
0.0143873 0.011749923 0.025781371 4290127393
0.017151248 0.0092001781 0.028253026 4290192929
0.021305513 0.001950644 0.035782546 4290126883
0.028095607 -0.014023304 0.052693576 4289995558
-0.0070188381 0.0058881268 0.032172326 4288294708
-0.0061596073 0.010757498 0.026647348 4289145644
-0.0045079179 0.012245167 0.024769548 4290454304
-0.0025295503 0.012380823 0.024348643 4289931299
-0.00020848587 0.011165578 0.025381226 4290192929
0.0019493774 0.010626491 0.025685403 4289734949
0.0041126832 0.010087874 0.025988497 4289473319
0.0061020777 0.010224629 0.025565498 4289211688
0.0077275522 0.01171099 0.023693714 4289146409
0.0095270574 0.012522131 0.022548106 4289211688
0.011883298 0.01130987 0.023573551 4289342759
0.014630329 0.008750014 0.026042264 4289146153
0.017591488 0.00551771 0.029228639 4288950059
0.021751627 -0.001755625 0.036738947 4289211178
0.028347172 -0.017108589 0.052889116 4289211178
-0.007476192 0.0055851191 0.029526714 4288882993
-0.0066211596 0.010469642 0.024013963 4289211434
-0.0049745478 0.0119613 0.022140529 4290257954
-0.0030016415 0.012096573 0.021720774 4290192929
-0.00034415349 0.0095210969 0.024201535 4290585118
0.0018134266 0.0089797713 0.024504133 4289865764
0.0041529089 0.0077615418 0.025529657 4289407783
0.0061448738 0.0078984722 0.02510611 4289277223
0.0079550818 0.0087124966 0.023959737 4289473318
0.009575516 0.010202982 0.022092331 4289538598
0.011933958 0.0089864545 0.023114052 4290389279
0.014872655 0.0057414956 0.026296981 4290389024
0.017838126 0.0024984777 0.029474292 4290257954
0.022001497 -0.0047989339 0.036966033 4290323233
0.028795896 -0.020878367 0.05379796 4290257954
-0.008413516 0.0073332042 0.024710216 4288359733
-0.0070819184 0.010190871 0.02138716 4289342249
-0.0054404028 0.011686552 0.019518044 4289211434
-0.0034729503 0.011821423 0.019099433 4289276968
-0.00099259242 0.0099166557 0.020851422 4289669413
0.0011566766 0.0093725435 0.02115415 4289865763
0.0034876578 0.0081492998 0.022178214 4289734948
0.0058294013 0.0069269314 0.023200009 4289669669
0.0076370165 0.0077429377 0.022055857 4289669669
0.0092550367 0.0092376508 0.02019221 4289669669
0.011610324 0.0080165006 0.021211341 4290258208
0.014545318 0.0047602467 0.024386901 4289800228
0.017699407 0.00082750618 0.028275825 4289996323
0.02244564 -0.0085290596 0.037905313 4290192164
0.029243534 -0.024661176 0.054697461 4290257443
-0.0093489662 0.009103708 0.019909788 4288754219
-0.0077046379 0.010603931 0.018043209 4290388769
-0.0060708895 0.012103479 0.016178995 4289931043
-0.0039434917 0.011555452 0.016484588 4290519839
-0.001639884 0.010325726 0.017511073 4290454559
0.00050106645 0.0097788237 0.017813928 4289865763
0.0026474483 0.0092323869 0.018115699 4289407783
0.004978016 0.0080048256 0.019136596 4289538598
0.0071379133 0.0074594654 0.019435681 4289407783
0.0087508261 0.0089582615 0.017576322 4290519838
0.010726694 0.0090943389 0.017156385 4289996579
0.013460493 0.0065071024 0.019608349 4289538599
0.016792152 0.0018794388 0.024208028 4289145643
0.022304254 -0.010230787 0.036684815 4289210923
0.029492589 -0.027776666 0.054871343 4289210923
-0.01113829 0.005966004 0.020604227 4286987833
-0.010122657 0.010211546 0.015848044 4289276968
-0.0083262175 0.011030499 0.014709014 4289800228
-0.006535016 0.011849228 0.013571128 4288884524
-0.0042453483 0.010614034 0.014597241 4289407784
-0.0021154769 0.010064054 0.014900737 4289408039
1.9837171e-05 0.0095145442 0.015203152 4289407783
0.0018087327 0.010333452 0.014066074 4289800484
0.0041281395 0.0091006644 0.015086137 4289734948
0.006095767 0.0092359707 0.014667802 4289865508
0.0078795068 0.010054853 0.013531983 4290258464
0.0096579567 0.010873411 0.012397401 4290519839
0.01256682 0.0075933188 0.015562233 4290323488
0.016078342 0.0022665262 0.020868875 4290126883
0.022162898 -0.011932246 0.03546451 4289930534
0.029543631 -0.030218244 0.054324411 4289930534
-0.011586711 0.0057043098 0.017986801 4287969074
-0.010575451 0.0099627934 0.013241258 4289145643
-0.0087842867 0.010783572 0.012104962 4289276968
-0.0068333149 0.010917146 0.011689741 4288950059
-0.0045467913 0.0096773133 0.012713246 4289407783
-0.0025902838 0.0098114647 0.012296986 4289277224
-0.00046061724 0.0092593469 0.012598965 4289342504
0.001323007 0.010080073 0.011464622 4289669669
0.0034581646 0.0095285177 0.011765566 4289734948
0.0054176599 0.0096632503 0.011348952 4289276969
0.0073772073 0.0097980909 0.010932397 4289865764
0.0093368068 0.0099330246 0.010515898 4289146153
0.01205286 0.0073269568 0.012958616 4289146154
0.015749218 0.0012969524 0.018967893 4289342248
0.021827122 -0.01294852 0.033530772 4289537833
0.029397205 -0.03197924 0.053061426 4289537833
-0.012034345 0.0054518059 0.015375879 4288359988
-0.011186972 0.010412637 0.0099216178 4289145644
-0.0094037578 0.011235043 0.0087886266 4290258209
-0.0072960556 0.010678913 0.0090934224 4289800483
-0.0050153732 0.0094342977 0.01011486 4290454558
-0.0028941184 0.0088792779 0.010416906 4289277224
-0.00076741725 0.0083246939 0.01071791 4289277224
0.0011891499 0.0084590353 0.01030178 4289538598
0.0031457841 0.0085934587 0.0098856874 4289407783
0.0049215779 0.0094160736 0.0087547265 4289407783
0.0070592463 0.0088626333 0.0090536885 4289604134
0.0093885362 0.0076220296 0.010065291 4289800228
0.012295336 0.0043197647 0.013214268 4289734949
0.015995264 -0.0017298087 0.019208152 4289604134
0.021880263 -0.015334308 0.033024505 4289472553
0.029447755 -0.034426905 0.052510187 4289472553
-0.012324549 0.0045164824 0.01348995 4288294453
-0.011319354 0.0088008605 0.0087652318 4289014573
-0.0098600909 0.011008576 0.0061992351 4290127139
-0.0079227164 0.011141177 0.0057868697 4289734949
-0.005650524 0.0098915212 0.0068068951 4290585374
-0.0033675544 0.0086427405 0.0078246556 4289800484
-0.0014192127 0.0087763853 0.0074101724 4289473318
0.00105533 0.0068382435 0.0091391094 4289669669
0.0028337985 0.0076631419 0.008009132 4289800484
0.004606992 0.00848772 0.0068803839 4289538598
0.0063748993 0.0093120374 0.0057528336 4290389023
0.0090678111 0.0066866241 0.0081873536 4290519839
0.0119709 0.0033731014 0.011328992 4290519839
0.016049195 -0.0040756315 0.018731218 4290650654
0.022321243 -0.019102953 0.033936232 4290519073
0.029694702 -0.037567832 0.05266583 4290519073
-0.013396747 0.0070564412 0.0080231912 4288425269
-0.012247458 0.010659069 0.0040276889 4289733928
-0.010639302 0.012178723 0.0021850001 4289211178
-0.0085482225 0.011616971 0.0024900958 4289211178
-0.0062845424 0.010362349 0.0035086181 4289604134
-0.0040100813 0.0091085546 0.0045249108 4290257953
-0.0017248355 0.0078555532 0.0055390317 4289865508
0.00057116896 0.0066034496 0.0065508969 4289734693
0.0023443624 0.007430125 0.0054236986 4289996580
0.0039317459 0.0089490004 0.0035859849 4289996580
0.0056916848 0.0097750016 0.0024617016 4289604134
0.0083757341 0.0071401782 0.0048916005 4289604134
0.011458308 0.0031230375 0.0087370612 4289407783
0.016102798 -0.0064256415 0.018251359 4289930788
0.02276114 -0.022884585 0.034838639 4289930788
0.029940942 -0.040717304 0.052815333 4290061094
-0.014310405 0.0089269578 0.0032909419 4289406509
-0.013014711 0.011843555 2.0900741e-05 4290257189
-0.011255357 0.012670863 -0.0011021812 4290454049
-0.0091725998 0.012106366 -0.00079700164 4290323234
-0.0067504272 0.010151099 0.00093307346 4290388513
-0.0044817962 0.0088924952 0.0019473489 4289865253
-0.0023747198 0.008329954 0.0022475664 4289472808
-8.7209046e-05 0.0070728064 0.0032580215 4289538599
0.0016780123 0.0079011582 0.0021340828 4289734693
0.0032576211 0.0094238967 0.00030127726 4290519839
0.0048265904 0.010945994 -0.0015292056 4289865764
0.0071276948 0.0096902139 -0.00052140094 4289407528
0.010381371 0.0049646012 0.0040263552 4289473064
0.01539189 -0.0060039237 0.014937036 4289145898
0.022618815 -0.024597898 0.033609834 4289145898
0.029597316 -0.041794583 0.050838567 4288818479
-0.016526394 0.0078939982 0.0018401798 4288163894
-0.015378315 0.011518445 -0.0021389518 4289537834
-0.013780471 0.013046004 -0.0039730053 4289669414
-0.01187028 0.013176598 -0.0043796953 4288949803
-0.0097958446 0.01260931 -0.0040743817 4289341993
-0.0073823482 0.010646831 -0.0023473538 4289472553
-0.0051222257 0.009383224 -0.001334535 4289734183
-0.003023468 0.0088178553 -0.0010341369 4289407274
-0.00091928989 0.0082530119 -0.00073485076 4288949548
0.00083532184 0.0090827793 -0.0018548649 4289276714
0.0024044663 0.010609232 -0.0036822576 4289865764
0.0043286607 0.010741591 -0.0040913317 4290258209
0.0066239387 0.0094809607 -0.0030854959 4290519839
0.010059051 0.0040431395 0.0021591391 4290192419
0.01525468 -0.0076571628 0.013751268 4290257698
0.022476517 -0.026310891 0.032381244 4290257698
0.029254086 -0.042867154 0.048865184 4290257189
-0.01696378 0.0076985918 -0.00073124282 4288425524
-0.015664324 0.01063291 -0.003989175 4289145388
-0.014068902 0.012164697 -0.0058194697 4289473319
-0.012000218 0.01159469 -0.0055146459 4289473319
-0.0097621381 0.010324962 -0.0045005474 4289146153
-0.0076798908 0.009756051 -0.0041984189 4289145644
-0.00542292 0.0084878057 -0.0031881947 4289341738
-0.003499113 0.0086197108 -0.0035975035 4289538089
-0.0014005937 0.0080522522 -0.0032986607 4289472808
0.00034872442 0.0088838562 -0.0044159256 4289538344
0.0019127838 0.010414302 -0.0062389467 4289407783
0.0038315095 0.010546274 -0.0066468623 4289669669
0.0064916089 0.0078833736 -0.0042314101 4288819244
0.0099251196 0.0024278238 0.0010005478 4289146153
0.015308175 -0.010008477 0.013270397 4289473319
0.02252759 -0.02872178 0.031856976 4289473319
0.029303286 -0.045330957 0.0483023 4289472553
-0.017553467 0.0082154721 -0.0040071625 4289210414
-0.015949901 0.0097520873 -0.0058360305 4289864999
-0.014356915 0.011288084 -0.0076625701 4290389279
-0.012130115 0.010013059 -0.0066494104 4290127649
-0.010056295 0.0094412863 -0.0063472521 4290454303
-0.0078105815 0.0081677139 -0.0053379219 4289865253
-0.0057232119 0.0075970814 -0.005038498 4289080108
-0.003973987 0.0084306523 -0.006154282 4289145388
-0.0020555668 0.0085622817 -0.0065623708 4289603113
-0.00031422079 0.0093955658 -0.0076763686 4289538344
0.0014218614 0.010228552 -0.008789124 4289734949
0.0038825385 0.0082566887 -0.0070814658 4289865764
0.0067295916 0.0048841536 -0.0039686766 4289538598
0.010354683 -0.0012895465 0.0019531734 4289604134
0.015742321 -0.013765119 0.01419279 4289276968
0.023157818 -0.033238009 0.033437371 4289276968
-0.017836213 0.0073351488 -0.0058543924 4289014319
-0.016390663 0.0095811486 -0.0083884057 4289080108
-0.01464453 0.010416225 -0.0095023401 4289538853
-0.012581799 0.0098413378 -0.009199487 4289735204
-0.010186449 0.0078576952 -0.0074833911 4290258208
-0.0081074946 0.0072841793 -0.0071838778 4289669159
-0.0061920322 0.0074153803 -0.0075915009 4289472808
-0.0044480972 0.008250773 -0.0087045487 4289407274
-0.0023608766 0.0076781288 -0.0084065627 4289538089
-0.00079908222 0.0092170835 -0.010222699 4289538344
0.0012909397 0.0086448267 -0.0099251615 4290257698
0.0037509464 0.006666325 -0.0082222335 4290519328
0.0065969527 0.0032827109 -0.0051173586 4290454558
0.010220267 -0.0029109046 0.00079023652 4290454303
0.015985079 -0.016831897 0.01440433 4290454303
0.023400644 -0.036366381 0.033603378 4290389024
-0.0185767 0.0085822791 -0.0098219337 4289406764
-0.017141424 0.010834157 -0.012348889 4289407274
-0.015405931 0.011670679 -0.013458955 4289146408
-0.013354182 0.011092827 -0.013155397 4289146409
-0.010970194 0.0091017932 -0.011441777 4289473319
-0.0089022182 0.0085252598 -0.011141524 4289931043
-0.0069975741 0.0086557046 -0.011546856 4289800229
-0.0049214289 0.0080799833 -0.011248233 4289604134
-0.0030139573 0.0082108453 -0.011654006 4289473319
-0.0011064187 0.0083417967 -0.012059728 4289800228
0.00062175468 0.0091786161 -0.013167567 4289472808
0.003073059 0.007192947 -0.011467712 4289472808
0.0059100054 0.0037977099 -0.0083690491 4289799974
0.0097109675 -0.0031215549 -0.0017735045 4289668904
0.016037012 -0.019202232 0.013909817 4289668904
0.023257179 -0.038093641 0.032364555 4289668904
0.028862443 -0.050633162 0.044499591 4289079854
-0.021206252 0.0097185299 -0.013373782 4288621363
-0.019773334 0.011976719 -0.015895449 4289864745
-0.018201124 0.013524361 -0.017707981 4290323488
-0.016323704 0.013652515 -0.018107839 4289996578
-0.014446184 0.013780791 -0.018507635 4289866020
-0.011915654 0.011072926 -0.016091282 4290323744
-0.01002726 0.011202142 -0.01649325 4290192674
-0.0079702064 0.010622777 -0.016192282 4289538598
-0.0060789622 0.010752417 -0.016594682 4289473063
-0.0038398243 0.0094654635 -0.015593517 4289603878
-0.0019430965 0.0095956847 -0.015996933 4290258209
0.00013294071 0.0090180486 -0.015699692 4289865764
0.0023963116 0.0077330843 -0.014703436 4289145899
0.0052241981 0.0043262243 -0.011610974 4289276714
0.0090151839 -0.0026157126 -0.005029561 4289472553
0.015708733 -0.020162247 0.012015678 4289472553
0.022921128 -0.039113551 0.030428201 4289668904
0.028324988 -0.050986215 0.041838087 4289996579
-0.022082642 0.01171454 -0.018023092 4288817969
-0.020510301 0.013266429 -0.019832447 4289406764
-0.018638466 0.013394076 -0.02023121 4289538599
-0.016924217 0.01423347 -0.021333478 4289015338
-0.015054829 0.014361165 -0.021731559 4289342504
-0.013022307 0.01377771 -0.021427155 4289604133
-0.010984346 0.013194732 -0.02112383 4289604133
-0.0091093443 0.013323124 -0.021522874 4289473318
-0.0070632063 0.012740903 -0.021221142 4289604133
-0.0050116368 0.012159139 -0.020920433 4289734948
-0.0027782768 0.01086754 -0.019921256 4290323488
-0.00071323663 0.010286957 -0.019623293 4289930788
0.0015389472 0.0089968219 -0.018627914 4289603623
0.0043550991 0.0055781528 -0.015541088 4290127139
0.0086946897 -0.0035155341 -0.0068812575 4290257443
0.0155706 -0.021826953 0.010821685 4290257443
0.022777902 -0.040837958 0.029191423 4289930279
0.027983403 -0.052039161 0.039878771 4289340973
0.030505594 -0.053309947 0.040817246 4288882994
-0.022209622 0.010160983 -0.019137874 4288164148
-0.020637043 0.011717249 -0.020944055 4288229939
-0.018920183 0.0125589 -0.022045342 4288295984
-0.01720855 0.01340029 -0.023145448 4288295984
-0.015341971 0.013527773 -0.023542948 4288492078
-0.013475291 0.013655372 -0.023940388 4288557613
-0.011277448 0.012356501 -0.022937225 4288688685
-0.0095734484 0.013197783 -0.024035396 4288819243
-0.0078747049 0.014038838 -0.025132351 4289211944
-0.0058341473 0.013454136 -0.024830988 4289342503
-0.0036119632 0.012157373 -0.023832681 4289211689
-0.0012001432 0.010149024 -0.022139112 4288949293
0.0010461956 0.0088541359 -0.021145783 4288622384
0.0038559549 0.0054240376 -0.018065717 4289080108
0.0081876852 -0.0036987737 -0.0094253486 4289341228
0.015432499 -0.02349136 0.0096279047 4289341228
0.022634702 -0.042562053 0.027954865 4289341228
0.02764219 -0.053087339 0.037922814 4289210414
0.029963626 -0.053651676 0.038165301 4288555828
-0.021888562 0.0064578913 -0.018146113 4288164404
-0.020459756 0.0087355524 -0.020652382 4288687919
-0.018428151 0.0081472471 -0.020351244 4289146408
-0.01686313 0.0097076371 -0.022152461 4289080873
-0.015148681 0.010551509 -0.023251476 4289277479
-0.013439462 0.011395115 -0.024349304 4289015849
-0.011404797 0.010807499 -0.024048543 4289277223
-0.0095327199 0.01093566 -0.024446985 4289081129
-0.0078312643 0.011779074 -0.025542917 4288753964
-0.0059617087 0.011907283 -0.025940659 4288688428
-0.0039160512 0.011320844 -0.02564192 4288426799
-0.0016862936 0.01002029 -0.024648407 4288557359
0.0003728345 0.0094349533 -0.024352331 4288295729
0.0033575781 0.0052790195 -0.020583756 4288295729
0.008054886 -0.0053009614 -0.010574532 4288164404
0.015483821 -0.02586928 0.009127941 4288164404
0.022683593 -0.044999473 0.027411561 4288164404
0.027301392 -0.054130778 0.035970304 4288163893
0.029225001 -0.053270906 0.034828018 4287771449
-0.021866828 0.0041794777 -0.01856474 4288425779
-0.020434931 0.0064638816 -0.021066763 4289015083
-0.018555481 0.0065919906 -0.02146719 4289670179
-0.016675908 0.0067202225 -0.021867558 4289343013
-0.015115894 0.0082847662 -0.023664387 4289474338
-0.013403956 0.0091307424 -0.024761179 4289147174
-0.011532102 0.0092587769 -0.025159663 4289212453
-0.009660162 0.009386912 -0.02555809 4289277989
-0.0079586506 0.010232516 -0.026652416 4289277734
-0.0060892329 0.010360695 -0.027050143 4289146919
-0.0040438883 0.0097720399 -0.026752964 4289146919
-0.0016361028 0.0077502169 -0.025068292 4289211943
0.000425376 0.007162869 -0.024774393 4289211943
0.0034115575 0.0029938594 -0.021015862 4289146664
0.0079221204 -0.0069028586 -0.011723517 4289277479
0.015345598 -0.027535267 0.007933028 4289277479
0.022540269 -0.046725124 0.026173893 4289277479
0.026960982 -0.055169478 0.034021214 4288950824
0.028881958 -0.054307595 0.032881096 4288033334
-0.021994382 0.0026179478 -0.019685259 4288752688
-0.020410433 0.0041881278 -0.02148415 4289211433
-0.018528447 0.0043163896 -0.021885131 4289866529
-0.01648936 0.0037243143 -0.021588827 4289408548
-0.01476413 0.004573293 -0.022686908 4289343269
-0.013368774 0.0068622455 -0.025176017 4289147428
-0.011494376 0.0069904365 -0.025575055 4289082149
-0.0094522499 0.0063990019 -0.025279073 4288951079
-0.0077453479 0.0072471611 -0.02637293 4289212708
-0.0060437173 0.0080950633 -0.027465591 4289147429
-0.0038203597 0.0067851692 -0.026477298 4289343523
-0.0014079101 0.0047570579 -0.024798499 4289408803
0.00065858662 0.0041678697 -0.024507286 4289735968
0.0032815225 0.0014232174 -0.022142462 4289146919
0.007975731 -0.0092228875 -0.012181303 4289016614
0.015585458 -0.030637488 0.0081192181 4289016614
0.02239698 -0.048450455 0.024936456 4289016614
0.0264266 -0.05548548 0.031386212 4288886053
0.02834226 -0.054621786 0.030248839 4289014573
-0.022270687 0.0017799363 -0.021502912 4289081638
-0.020537727 0.0026312694 -0.02260129 4289344034
-0.018809985 0.003482379 -0.023698453 4289343524
-0.016773887 0.0028878823 -0.023403147 4289539618
-0.015051272 0.0037388504 -0.024499066 4289474849
-0.013333913 0.0045896173 -0.02559383 4289017123
-0.011456989 0.0047179535 -0.02599342 4289017123
-0.0095799677 0.004846435 -0.026392927 4288886309
-0.0077028833 0.0049750172 -0.026792383 4288886053
-0.005825717 0.0051037036 -0.027191781 4289016868
-0.0037729964 0.0045110956 -0.026899388 4289344034
-0.0013585687 0.0024765879 -0.025225921 4289344033
0.00071027502 0.0018853396 -0.024936846 4289474848
0.0033350103 -0.00086798519 -0.022578903 4289212453
0.0080290176 -0.011547089 -0.012641999 4289474594
0.015258087 -0.031586803 0.0062327459 4289474594
0.021870701 -0.048734874 0.02232274 4289278243
0.025892986 -0.055792376 0.028757814 4288819753
-0.022397958 0.00022120029 -0.022621443 4288689449
-0.020816237 0.0017999634 -0.024413403 4289279009
-0.019091126 0.002653107 -0.02550845 4289278244
-0.017057996 0.0020561591 -0.025214098 4289474594
-0.015338022 0.0029091686 -0.02630789 4289409568
-0.013461325 0.0030373782 -0.026707519 4289147683
-0.011419903 0.0024413243 -0.026414692 4288951844
-0.009540353 0.0025699511 -0.026814761 4288886308
-0.0074907728 0.0019747242 -0.026523558 4288951844
-0.0057810396 0.0028275624 -0.027614698 4289344288
-0.0037259758 0.0022329465 -0.027324479 4289474848
-0.0014875382 0.00091538578 -0.026345825 4289474848
0.00076164305 -0.00040134788 -0.025369313 4289540128
0.0033881776 -0.0031633377 -0.023018256 4289539618
0.0080819577 -0.013875343 -0.013105683 4289474083
0.014931107 -0.032531314 0.0043496508 4289474083
0.02153651 -0.04973264 0.020402264 4289343524
0.025360145 -0.056090094 0.026136 4288687918
-0.022970483 0.0008457005 -0.025822343 4288493864
-0.021396533 0.0024283156 -0.02760941 4289017379
-0.019833148 0.0040103197 -0.029394144 4289606174
-0.01781103 0.0034104437 -0.029099135 4289540894
-0.01578347 0.0028110668 -0.028805193 4289279264
-0.013912242 0.002938889 -0.02920367 4288559654
-0.012040932 0.0030668303 -0.029602077 4288625444
-0.010002423 0.0024685264 -0.029310219 4288821538
-0.0079584904 0.0018707067 -0.029019436 4289084189
-0.0060816072 0.0019993782 -0.029418772 4289018144
-0.0040295236 0.001402311 -0.029129509 4289083424
-0.00179426 8.0145895e-05 -0.028153418 4289540894
0.00045173243 -0.0012411848 -0.027179543 4289474848
0.0032578669 -0.0047374889 -0.024147375 4289081893
0.0081345625 -0.016207717 -0.013572328 4288950059
0.014793003 -0.034196027 0.0031556431 4288950059
0.021011565 -0.050000876 0.017800082 4288818988
0.024634238 -0.055654079 0.02283619 4288426034
-0.0068985745 0.0033604428 -0.033281878 4288300064
-0.0046825632 0.0020324513 -0.032305028 4288888604
-0.0024558157 0.00070529431 -0.031330384 4289410079
0.00014223158 -0.0020763278 -0.028986337 4289017633
0.0027616806 -0.0048563927 -0.026646763 4288820518
0.0081868321 -0.018544182 -0.014041897 4288820263
0.015031518 -0.037314646 0.0033300612 4288820263
0.020869307 -0.051713847 0.016571499 4288689449
0.024103103 -0.055931255 0.020229116 4288230704
0.023185827 -0.05474136 0.016265832 4287184439
0.0089375302 0.011908986 0.074364826 4284638774
0.0037660524 0.013097391 0.070250019 4284705329
-0.0021616742 0.016752832 0.050362661 4284638773
-0.024681851 -0.0022934601 -0.025149446 4283001673
-0.023838364 0.0029434338 -0.030398713 4282748714
-0.022428468 0.0052591711 -0.03287179 4283009578
-0.020573691 0.0053855255 -0.03326701 4283988778
-0.025826477 0.0012766123 -0.031106923 4282090049
-0.024704419 0.0050635114 -0.034959052 4281829183
-0.023005977 0.0059212074 -0.036043629 4281570359
-0.021312751 0.0067786835 -0.037126996 4281505078
-0.019156545 0.00544139 -0.036141261 4282027063
-0.017148297 0.0048362762 -0.035846472 4282416958
-0.015296035 0.0049627684 -0.036240935 4282744123
-0.013607759 0.0058203451 -0.03732292 4282873154
-0.011257742 0.0037545487 -0.035655532 4283068483
-0.0093998909 0.0038817748 -0.036050919 4283526465
-0.0075419657 0.0040091202 -0.036446244 4283918908
-0.026678115 0.0034089386 -0.035662007 4281698623
-0.02542074 0.0064716935 -0.038813926 4279613488
-0.023883462 0.0080649219 -0.040583484 4280395319
-0.021897107 0.0074558817 -0.040285833 4280004403
-0.019749384 0.0061135702 -0.039301496 4279353388
-0.017749466 0.0055056773 -0.039006565 4281307199
-0.01590535 0.0056316145 -0.039399292 4281243449
-0.01422504 0.0064908117 -0.040477984 4281177403
-0.011883721 0.0044178814 -0.038813651 4281307199
-0.010034014 0.0045445412 -0.039207309 4281372988
-0.0083561502 0.005403921 -0.040285219 4281047353
-0.0066835582 0.0062630661 -0.041361921 4280785979
-0.004130017 0.0034606978 -0.039021477 4280720699
-0.001555074 0.00065991282 -0.036685497 4281176639
0.0017716065 -0.0050667971 -0.031625822 4281697603
0.0075493529 -0.020302676 -0.017715808 4281828164
0.014378877 -0.039188229 -0.00042498671 4281828164
0.019631907 -0.051482119 0.010713305 4281697859
0.022463311 -0.054264612 0.012995247 4282348108
-0.026947722 0.0026170388 -0.037447345 4281307198
-0.025544733 0.004951939 -0.039904509 4281241664
-0.023856871 0.0058132857 -0.040983602 4281437249
-0.022174224 0.0066743828 -0.0420615 4281241409
-0.020029694 0.0053275079 -0.041079782 4280850494
-0.018191148 0.0054529235 -0.041471422 4280851004
-0.016191438 0.0048428886 -0.041177936 4281372733
-0.014513765 0.0057041496 -0.042254485 4281307964
-0.012342177 0.004359521 -0.041278154 4281112634
-0.010497954 0.0044857934 -0.041670658 4281241918
-0.0089971162 0.0060818717 -0.043428592 4280069938
-0.0075068884 0.0076772757 -0.04518415 4280720189
-0.0049648918 0.0048653372 -0.042847738 4280002620
-0.0020420365 0.0005864352 -0.03915374 4278895408
0.0018249154 -0.0073605999 -0.032064132 4281046079
0.0079714879 -0.024110429 -0.016828101 4281046079
0.014804127 -0.043052845 0.00041995011 4281371968
0.019490659 -0.053183056 0.0094933622 4281371968
0.022128087 -0.055241048 0.011090804 4282021453
-0.028491378 -0.0012514889 -0.036086626 4282282829
-0.027506679 0.0033075735 -0.040603012 4280459579
-0.025963739 0.0049098171 -0.042367399 4280003383
-0.024431363 0.0065114498 -0.044129461 4281046079
-0.022603825 0.0066358894 -0.044518925 4281046078
-0.020465121 0.0052842125 -0.043539211 4280655419
-0.018632043 0.0054092593 -0.043929689 4280330038
-0.01679888 0.0055344217 -0.044320099 4281242684
-0.014802083 0.0049221329 -0.044027589 4281177148
-0.012799881 0.0043103173 -0.04373616 4280981308
-0.011130009 0.0051734187 -0.044809215 4280003383
-0.0096369497 0.0067733042 -0.046562217 4281241408
-0.0079802908 0.0076357201 -0.047632299 4281501763
-0.0054445155 0.0048146173 -0.045301095 4281110593
-0.0025282241 0.00052204728 -0.041615393 4281372224
0.0020601116 -0.010394841 -0.031826477 4281372224
0.0085774511 -0.028667249 -0.015271311 4281372224
0.015228294 -0.04693038 0.0012556147 4281372224
0.019539662 -0.055619411 0.0089508183 4281241408
0.021600354 -0.055477135 0.0085131116 4282217293
-0.029326148 0.00092235953 -0.040615462 4281371714
-0.028064497 0.004011564 -0.04374896 4281046079
-0.026529334 0.0056177042 -0.045508496 4280785213
-0.024854735 0.0064825043 -0.046581548 4280524858
-0.023032673 0.0066065565 -0.046969853 4280980798
-0.021055147 0.0059904009 -0.046675131 4280785978
-0.01907219 0.0053746961 -0.046381429 4281176893
-0.017244499 0.0054994673 -0.046770684 4281111869
-0.015416719 0.00562438 -0.047159865 4281242429
-0.013422843 0.0050098002 -0.04686828 4281242428
-0.011592247 0.0051351115 -0.047257908 4280395319
-0.010104313 0.0067390651 -0.049006619 4280329274
-0.0084529482 0.0076033026 -0.050073959 4281045824
-0.006276764 0.006250672 -0.04910475 4280784704
-0.0033723973 0.0019441843 -0.045426272 4280590394
0.001566451 -0.010483526 -0.034304198 4280590139
0.0086278729 -0.031026468 -0.015757136 4280590139
0.015464023 -0.050082661 0.0014058203 4280590139
0.019208241 -0.056583941 0.0070541687 4280914753
0.02145882 -0.057179622 0.0072920881 4282216528
-0.029449925 -0.0005986765 -0.041707046 4281371203
-0.028187692 0.0024993196 -0.044834204 4281045059
-0.026505135 0.0033667311 -0.045907415 4281175874
-0.024977662 0.0049768351 -0.047662005 4281436738
-0.022850722 0.0036153868 -0.046686329 4281436994
-0.021023363 0.0037399009 -0.047075696 4281241409
-0.019195899 0.0038645491 -0.047464985 4281241153
-0.017528865 0.0047315136 -0.048534516 4281241153
-0.015540708 0.0041141883 -0.048243381 4281307199
-0.013878852 0.0049810372 -0.049311634 4281308218
-0.012053732 0.0051059797 -0.049700089 4281308474
-0.010399722 0.0059724785 -0.050766457 4280719423
-0.0084032975 0.0053562224 -0.050476782 4280784194
-0.0064014681 0.0047404058 -0.050188132 4280914244
-0.0038567111 0.0019024834 -0.047871724 4280653633
0.0012554154 -0.011303835 -0.03609962 4280849218
0.0088624656 -0.034130268 -0.01557081 4280849218
0.015324667 -0.051762722 0.00020079315 4280849218
0.018877221 -0.057543762 0.0051609017 4281044548
0.020739721 -0.056661911 0.0040509552 4282346323
-0.029007055 -0.0051019788 -0.040067814 4282217294
-0.027589232 -0.0027399659 -0.042508781 4281173834
-0.025746323 -0.0026147589 -0.042901717 4281174599
-0.024352282 -0.00025408715 -0.045337476 4281501764
-0.022669472 0.00061574578 -0.046408966 4281371204
-0.020836912 0.00074060261 -0.046799444 4281371204
-0.019004259 0.00086559355 -0.047189847 4281436228
-0.017331842 0.0017350465 -0.048258878 4281566789
-0.015501678 0.0018600971 -0.048648581 4281697094
-0.013837099 0.0027292743 -0.049715757 4281892424
-0.012009449 0.0028543696 -0.05010476 4282022474
-0.010352749 0.0037232861 -0.051170129 4281955663
-0.008527644 0.0038484558 -0.051558413 4281694798
-0.0067024864 0.0039737523 -0.051946614 4281631048
-0.004161261 0.0011267662 -0.049635902 4281501253
0.0013081096 -0.013605244 -0.036543392 4281436484
0.0090963617 -0.037242554 -0.015390573 4281501253
0.014811322 -0.051957436 -0.0023500286 4281436484
0.018167229 -0.05701407 0.0019261427 4281436484
-0.028565556 -0.0096226707 -0.038440995 4282347854
-0.02699253 -0.0080010146 -0.040198963 4281369929
-0.025136419 -0.0078748986 -0.040594719 4281109573
-0.023878135 -0.0047594458 -0.043707922 4280979524
-0.022032477 -0.0046338141 -0.044101283 4280980034
-0.020186715 -0.0045080632 -0.044494569 4280915008
-0.01818338 -0.0051289499 -0.044210143 4280849218
-0.016655069 -0.0035096258 -0.045958057 4280914499
-0.014974527 -0.0026373044 -0.047027111 4281109319
-0.013299249 -0.0017651692 -0.048094988 4281240133
-0.011461072 -0.0016393587 -0.048486248 4281435464
-0.0097936466 -0.00076755881 -0.049552232 4282021964
-0.0077845305 -0.0013873354 -0.049268499 4281956173
-0.0061223283 -0.00051566958 -0.050333202 4281956939
-0.003392484 -0.0041160509 -0.047357947 4281632069
0.0017234609 -0.017401002 -0.035644963 4281631813
0.0091454089 -0.039618455 -0.015888358 4281632069
0.014672391 -0.053632475 -0.0035514496 4281631813
0.017458372 -0.056470871 -0.0012988634 4281695564
-0.028408058 -0.012660623 -0.038185604 4281890384
-0.026829481 -0.011034153 -0.039941557 4281370438
-0.024968185 -0.01090771 -0.040338434 4281240644
-0.023703977 -0.0077831 -0.043446437 4281305924
-0.021853127 -0.0076571181 -0.043840908 4281240389
-0.019847542 -0.0082802102 -0.043558627 4281240133
-0.017836533 -0.0089027658 -0.04327745 4281175364
-0.016140036 -0.0080272928 -0.044348374 4281175364
-0.014611423 -0.0064034164 -0.046093076 4281175364
-0.012928098 -0.0055285916 -0.047161013 4281175364
-0.010914098 -0.0061504692 -0.046880133 4281240134
-0.0090653338 -0.0060238093 -0.047273546 4281435719
-0.0072165094 -0.0058970302 -0.047666892 4281370949
-0.0053676255 -0.005770117 -0.048060142 4281435719
-0.0029827766 -0.00788562 -0.046438672 4281239623
0.0021377429 -0.021209694 -0.0347558 4281305158
0.0088261552 -0.04050412 -0.017730003 4281305158
0.013973551 -0.053066306 -0.0067621879 4281435464
0.016939946 -0.056660853 -0.0038449205 4281434444
-0.028533466 -0.01420252 -0.039292186 4281891913
-0.026954673 -0.012571685 -0.041044965 4281436228
-0.025093511 -0.012445264 -0.041441813 4281240644
-0.023530491 -0.010815307 -0.043191023 4281240644
-0.021674454 -0.010688983 -0.043586604 4281175109
-0.01966387 -0.011313908 -0.043307066 4281175364
-0.017490733 -0.012689531 -0.042354051 4281109828
-0.01594599 -0.011060283 -0.044099033 4281109828
-0.014411815 -0.0094317123 -0.045841649 4281175109
-0.012558002 -0.0093049556 -0.046236321 4281240133
-0.010368548 -0.010678932 -0.045286462 4281305158
-0.008338809 -0.011301801 -0.045010455 4281435719
-0.0064767934 -0.011174113 -0.045406602 4281240644
-0.0047905073 -0.010296419 -0.046473198 4281435719
-0.002217222 -0.013167515 -0.044188745 4281369929
0.0023698322 -0.024281748 -0.034545351 4281435464
0.0085073039 -0.041385122 -0.019568225 4281435464
0.013462311 -0.053235814 -0.0092949225 4281434953
0.01642229 -0.056841724 -0.0063843764 4281433423
-0.028517894 -0.016498581 -0.039722238 4281695053
-0.026936218 -0.014863238 -0.041472364 4281305159
-0.025072545 -0.014736652 -0.041869763 4280914243
-0.023357704 -0.013855986 -0.042941757 4281109828
-0.021648087 -0.012975596 -0.044012509 4281110084
-0.01963516 -0.013602547 -0.043735094 4281240644
-0.017773736 -0.013475642 -0.044131652 4281044804
-0.016071841 -0.012595445 -0.045200512 4281109828
-0.014537446 -0.010962464 -0.046939932 4281175364
-0.012353912 -0.01234135 -0.045992143 4281370438
-0.010159619 -0.013719432 -0.045046512 4281435719
-0.008124873 -0.014344156 -0.044773195 4281305414
-0.0066035651 -0.012711555 -0.046509527 4281304903
-0.0045660213 -0.013335876 -0.046236578 4281370439
-0.0023448355 -0.014711574 -0.045296341 4281500489
0.0022393316 -0.025858879 -0.035676625 4281369673
0.0081888437 -0.042261355 -0.021403028 4281434953
0.012951814 -0.053396098 -0.011821131 4281434444
0.01609434 -0.057764627 -0.0082511678 4281302608
-0.028080374 -0.021068774 -0.038130954 4281367633
-0.026631244 -0.018671803 -0.040554386 4281042508
-0.024613634 -0.019300982 -0.040279854 4281175874
-0.022739336 -0.019173563 -0.04067944 4281110339
-0.021167763 -0.017534167 -0.042423911 4281109318
-0.019606765 -0.015895374 -0.044166047 4281174344
-0.017742824 -0.015768297 -0.044563152 4281044039
-0.016038228 -0.014885686 -0.045631006 4281239623
-0.014176786 -0.01475855 -0.046027407 4280913478
-0.0121505 -0.015386328 -0.045754045 4281239624
-0.0099513941 -0.016768403 -0.044812713 4281240134
-0.0080817379 -0.016640335 -0.045210589 4281370694
-0.006384775 -0.01575768 -0.046276327 4281435464
-0.0046930946 -0.014875233 -0.047340833 4281370439
-0.0022943281 -0.017009459 -0.045736942 4281566534
0.0021088608 -0.02743569 -0.036807671 4281500999
0.0080542006 -0.043886654 -0.022568813 4281566023
0.012628179 -0.054300904 -0.013675674 4281500234
0.015766762 -0.058682792 -0.010114633 4281759568
-0.025611073 -0.026286729 -0.036282606 4281429088
-0.023572452 -0.026916698 -0.036014181 4281626713
-0.02167698 -0.026787855 -0.036418285 4281170263
-0.020235114 -0.024384439 -0.038835049 4281040214
-0.018655237 -0.022739992 -0.040577978 4281564239
-0.016929358 -0.021853901 -0.041648794 4281630794
-0.015208725 -0.020968027 -0.042718396 4281303119
-0.013331424 -0.020839818 -0.043118179 4281041488
-0.011289481 -0.021468677 -0.04284982 4281369164
-0.0092421323 -0.022097081 -0.042582538 4281303628
-0.0075291991 -0.021211244 -0.043650132 4281238858
-0.005994115 -0.019568913 -0.045382906 4281370694
-0.0042944029 -0.018683754 -0.046447515 4281566534
-0.0020662397 -0.020067796 -0.045515217 4281762119
0.0021589957 -0.029768333 -0.037273861 4281566024
0.0079195909 -0.045511626 -0.023734359 4281566024
0.012490854 -0.055956699 -0.014863294 4281631304
0.015439602 -0.059596248 -0.011974663 4282345558
-0.013586048 -0.030875459 -0.036486492 4281101923
-0.011679571 -0.030745238 -0.036892481 4281103199
-0.0097730234 -0.030614913 -0.037298404 4281561178
-0.0076993369 -0.031243689 -0.037038337 4281300314
-0.0059597082 -0.030353837 -0.038110003 4281105748
-0.0042253472 -0.029464245 -0.039180465 4281303118
-0.0024962686 -0.028574862 -0.040249698 4281630539
-0.00023929402 -0.029961251 -0.039326794 4281630794
0.003110785 -0.0358968 -0.034427553 4281630794
0.0077850111 -0.047136284 -0.024899697 4281499723
0.011982098 -0.056096286 -0.017374586 4281760334
0.040710054 -0.05723381 0.025060192 4282340203
-0.018700682 -0.034306653 -0.032590747 4281819494
-0.0097085536 -0.04222247 -0.029370358 4282667878
0.011029884 0.012052979 0.073920056 4285557794
0.014738614 0.0064405203 0.080234617 4285557538
0.0046451092 0.017737009 0.064549997 4285427744
0.0060089678 0.020447526 0.061109692 4285624349
0.0080584362 0.020588554 0.060674019 4285624093
0.011005014 0.017520443 0.063985594 4285886234
0.014524667 0.012529276 0.069538154 4285886233
0.017532937 0.0094655454 0.072836705 4285623839
0.020005729 0.0083275922 0.073886372 4285558559
0.021918952 0.0091137253 0.07269232 4285427744
0.022862954 0.013104133 0.067766435 4285493024
0.023970332 0.016451661 0.06359344 4285689629
0.026437931 0.015313603 0.064644396 4285885723
0.030723572 0.0084130429 0.072397232 4285885724
0.0016012378 0.019109473 0.060010821 4284967213
0.0031341761 0.02118399 0.057326972 4285886999
0.004825037 0.022613015 0.055395588 4285689628
0.0068583749 0.022752907 0.054963328 4285689374
0.0096086822 0.020316619 0.057522506 4285689374
0.01256237 0.017238006 0.060824439 4285755418
0.014989164 0.01609239 0.061880559 4285624348
0.016864976 0.016878076 0.060696028 4285624604
0.018735496 0.01766346 0.059512675 4285690394
0.020215506 0.019734841 0.056840457 4285689883
0.021874774 0.021162186 0.054916151 4285689373
0.024315158 0.020017829 0.055969626 4285492258
0.027568784 0.016303938 0.059994079 4285820188
0.03248097 0.0074531361 0.069953658 4285820188
0.00078755617 0.019998942 0.055798218 4285098284
0.0023102686 0.02207936 0.053121418 4285689628
0.0041644052 0.022865415 0.051942877 4285821464
0.0063659959 0.022358268 0.052259147 4285886999
0.0087520704 0.021205258 0.053320602 4285821463
0.011512343 0.018760867 0.055871159 4285755673
0.014109695 0.016963962 0.057672061 4285624349
0.015787855 0.018396828 0.055746861 4285624349
0.017834835 0.018537965 0.055311926 4285624349
0.019304611 0.020615254 0.052646771 4285952789
0.021148555 0.02140113 0.051470779 4285886743
0.023184933 0.021541722 0.051038243 4285755418
0.026223557 0.018458374 0.054314293 4285820954
0.030710787 0.010864589 0.062772736 4285821209
-2.4601817e-05 0.020906374 0.051598482 4285164583
0.0014878735 0.022992674 0.04892873 4285493534
0.0035049096 0.023131337 0.04849986 4285624094
0.0056982264 0.022621352 0.048816286 4285689629
0.0084335282 0.02016633 0.051365577 4285624094
0.010827243 0.019009512 0.052422129 4285558559
0.013231736 0.017853498 0.053476438 4285624349
0.014712602 0.019937992 0.050813757 4285624349
0.016746119 0.020078182 0.050381675 4285624349
0.018395215 0.021513626 0.04846596 4285624093
0.020618385 0.021006163 0.048776388 4285755419
0.022846915 0.020499177 0.049085669 4285821208
0.025681596 0.018051546 0.05161424 4285689883
0.030161168 0.010430779 0.060054682 4285624349
-0.00049930811 0.020528816 0.04890234 4285559069
0.0008376427 0.023272652 0.045493744 4285624858
0.0030198917 0.02275965 0.045810781 4285821209
0.0052075833 0.022247087 0.046126701 4285820954
0.008115381 0.019132089 0.04941383 4285624093
0.010324642 0.018621106 0.049725316 4285624349
0.012723327 0.017460268 0.050777592 4285624349
0.014199298 0.019551069 0.048120789 4285558813
0.01584865 0.020990826 0.04620827 4285558558
0.017295286 0.023079745 0.0435578 4285558303
0.019699523 0.021919522 0.044609144 4285623839
0.022114476 0.020760145 0.045658208 4285558303
0.025340453 0.017004602 0.04965917 4285558558
0.03042331 0.0074097663 0.060295016 4285558559
-0.0011410229 0.02081405 0.045468919 4285493534
0.00035900995 0.022912707 0.04281158 4285690394
0.002189368 0.023703679 0.041642942 4285820954
0.0045419075 0.022534985 0.042701639 4285952279
0.0076191574 0.018755376 0.046723984 4285886999
0.0098227933 0.018241826 0.047034979 4285624348
0.012031842 0.01772872 0.047344878 4285558813
0.013686771 0.019173194 0.045434371 4285558813
0.014952675 0.02192143 0.042047754 4285624604
0.016772807 0.022712197 0.040881649 4285821209
0.018976692 0.022199016 0.041192852 4285886999
0.021777602 0.019731328 0.043715484 4285886998
0.024999715 0.015962265 0.047707468 4285689884
0.03048216 0.0050313957 0.059792727 4285624094
-0.0017815977 0.021112815 0.042045191 4285755673
-0.00028911233 0.023217496 0.039394371 4285623839
0.0017062724 0.023354605 0.038970053 4285426214
0.0042286217 0.021525782 0.040767118 4285623583
0.0069454126 0.019042946 0.043300718 4285689373
0.0091407448 0.018526603 0.043611839 4285755418
0.011341505 0.018010661 0.043921903 4285624349
0.012988679 0.019459046 0.042016253 4285624348
0.014436215 0.021561138 0.039375372 4285690138
0.016059402 0.023008008 0.037474927 4285820698
0.018060643 0.023146097 0.037049789 4285755164
0.020850029 0.020668756 0.039568335 4285886744
0.024459653 0.015578248 0.045023769 4285755673
0.030743035 0.0019953102 0.060022183 4285689884
-0.0042513534 0.020629868 0.039796725 4285033259
-0.0027558506 0.022741325 0.037150044 4285821718
-0.0009360984 0.023535866 0.035986833 4286017813
0.00087840855 0.024330135 0.0348248 4286083349
0.0035648644 0.021836292 0.037358262 4286017813
0.0062728114 0.019344002 0.039887212 4285821208
0.0086406358 0.018167682 0.040936172 4285624349
0.010468829 0.01896318 0.039771438 4285624349
0.01210558 0.020415246 0.037871256 4285689883
0.013542874 0.022523243 0.035237432 4286018068
0.015155645 0.023973804 0.033342462 4285754908
0.017146094 0.024111126 0.032919608 4285557538
0.020120792 0.020968106 0.0361684 4285689119
0.023920342 0.015203364 0.042346552 4285689629
0.030396609 0.00091769546 0.058045916 4285755419
-0.0045525655 0.019632995 0.037868217 4285492768
-0.0030592829 0.021750886 0.035226878 4285623584
-0.0012421086 0.022547439 0.034065831 4285556518
0.00074239448 0.022683751 0.033643793 4285556774
0.003077507 0.021500606 0.034696326 4285688609
0.0054234043 0.020318225 0.035746656 4285624094
0.007418856 0.020455509 0.03532245 4285624349
0.0094143748 0.020592883 0.034898296 4285624349
0.010852069 0.022707481 0.032269165 4285624349
0.012651041 0.023503307 0.031112377 4285754908
0.014253389 0.024957556 0.029222876 4286149138
0.01662102 0.023777127 0.03026893 4286017813
0.019392693 0.021280922 0.032778192 4286017814
0.023381798 0.014837548 0.039675899 4285886488
0.030252574 -0.00081318617 0.056804568 4285820699
0.0072818696 0.018800408 0.034135256 4285425704
0.009094201 0.019599199 0.032977141 4285426214
0.010715447 0.021058995 0.031086765 4285491749
0.012326062 0.022518098 0.029198751 4285360168
0.019451614 0.018965203 0.032322198 4285425959
0.023441458 0.01249982 0.03920345 4285557794
0.030108562 -0.0025438368 0.05556339 4285492258
-0.018562563 0.004782699 -0.032971289 4284906269
