# .PCD v0.7 - Point Cloud Data file format
VERSION 0.7
FIELDS x y z rgba
SIZE 4 4 4 4
TYPE F F F U
COUNT 1 1 1 1
WIDTH 980
HEIGHT 1
VIEWPOINT 0 0 0 1 0 0 0
POINTS 980
DATA ascii
0.010475989 0.041221384 -0.011383103 4278406828
0.014153458 0.041462637 -0.012121824 4278341293
0.01580533 0.042269111 -0.013205484 4278668458
0.017831001 0.04170426 -0.012860292 4278995879
0.019669781 0.041825198 -0.013229434 4278930088
0.022093352 0.039890714 -0.011460162 4278799273
0.024730619 0.03727233 -0.0089817699 4278734248
0.026988728 0.036025099 -0.0079310117 4278865318
0.029257525 0.034778696 -0.0068823835 4278602923
0.03030308 0.037639916 -0.010099659 4278406319
0.033595841 0.03925363 -0.012263658 4278862259
0.037157372 0.033904597 -0.0069626849 4278665654
-0.0089700297 0.034243722 -0.0040906826 4279258528
-0.0078754723 0.037815295 -0.008062914 4278930853
0.0014939606 0.037725989 -0.0091975573 4278406319
0.0038415678 0.035778992 -0.0074185482 4278799784
0.0058640391 0.035211097 -0.0070748222 4278733738
0.0070253573 0.038087644 -0.010309601 4278668203
0.013849068 0.040635411 -0.013931522 4278533564
0.016058475 0.039380163 -0.012874639 4278472363
0.018089216 0.038813464 -0.012532093 4278669224
0.019933246 0.038934741 -0.012902294 4278800039
0.021972034 0.038368735 -0.012561237 4278538409
0.024213616 0.037115939 -0.01151049 4278669479
0.026065663 0.037238017 -0.011882095 4278472874
0.027917679 0.037360191 -0.012253623 4278472363
0.030372672 0.041723829 -0.017247468 4279388323
0.031997647 0.042531565 -0.018323546 4279127459
0.034898333 0.039222084 -0.015153874 4278799273
0.039122954 0.031798609 -0.0077480972 4278864553
-0.0090411827 0.02358941 0.0045274012 4282925938
-0.0086428858 0.030637916 -0.0030403472 4278668714
-0.0075395368 0.034221023 -0.0070062028 4278799784
-0.006308496 0.037110265 -0.010248952 4279128223
-0.0046275966 0.037922017 -0.011335932 4279062178
-0.002792228 0.03804164 -0.011705199 4278996388
-0.00063193589 0.036777966 -0.010642322 4278930853
0.0012089498 0.036898147 -0.011012549 4278603434
0.0033854581 0.035635706 -0.0099528031 4278799783
0.0052318312 0.035756417 -0.010324009 4278864808
0.0065588392 0.037950218 -0.012836827 4278274739
0.0076939799 0.040833913 -0.01605976 4278995368
0.0089862235 0.043025654 -0.018565511 4279847835
0.010987144 0.042454511 -0.018218821 4278272444
0.013361178 0.040503182 -0.016449625 4278666928
0.016124394 0.037172779 -0.013261188 4278602668
0.018535983 0.035224095 -0.011499402 4278537898
0.02038794 0.035345905 -0.011871188 4278669224
0.022045322 0.036157392 -0.012952491 4278407083
0.023697324 0.036968671 -0.014032683 4278407083
0.025543895 0.037090406 -0.014403176 4278603944
0.026985208 0.038590338 -0.016189551 4278538409
0.028005157 0.041467469 -0.019388607 4278600373
0.043857127 0.027062181 -0.0060968664 4278799783
0.046642344 0.02443694 -0.0036605103 4278473129
-0.0075724907 0.02354522 0.0015862957 4279979668
-0.0065984838 0.027835339 -0.0030924808 4278669479
-0.0038052723 0.032244012 -0.0081372838 4278276014
-0.0022730827 0.03375287 -0.009939786 4279127968
-0.00075152144 0.035261072 -0.011740047 4278865829
0.00092432648 0.036074955 -0.012824181 4278603433
0.002427265 0.037582181 -0.014620596 4278799783
0.0042601191 0.03770199 -0.014989096 4278996134
0.0073990636 0.040020999 -0.017861182 4278930599
0.0085107163 0.042912029 -0.021072797 4279128224
0.010505993 0.042338319 -0.020726608 4278864553
0.015444528 0.037730511 -0.016489176 4278472109
0.017847423 0.035774708 -0.014730585 4278668713
0.019691233 0.035895988 -0.015100729 4278668969
0.021146234 0.037400957 -0.016886778 4278668969
0.022590496 0.038905352 -0.018670652 4278669479
0.024223795 0.039717637 -0.019745346 4278669734
0.025851712 0.040529672 -0.020818889 4278734758
0.027269106 0.042032562 -0.022597171 4278341293
0.036716267 0.035610788 -0.017021324 4278340274
0.039657712 0.032282259 -0.013875987 4278734248
0.042183466 0.030335691 -0.012141204 4278865574
0.043829702 0.031149663 -0.013217879 4278472108
0.045017358 0.033342756 -0.015696514 4278865319
0.049663365 0.030832734 -0.013639042 4278599863
-0.0070995241 0.019205406 0.0033253692 4279456154
-0.0056598 0.021418955 0.00079908781 4278670244
-0.0042360574 0.023631603 -0.0017239479 4278669734
-0.0028282851 0.025843315 -0.0042436905 4278407594
-0.0014364906 0.028054025 -0.0067601143 4278472618
-0.00022277236 0.030959941 -0.0099861473 4278407083
0.0011343323 0.033168629 -0.012495491 4278931618
0.0023080111 0.036072131 -0.015713319 4278865574
0.0034603067 0.038974322 -0.018926783 4278996388
0.014951915 0.037607267 -0.01899942 4278668713
0.017348826 0.035644446 -0.017244477 4278668713
0.018995611 0.036459547 -0.018320452 4278603434
0.020442799 0.037968434 -0.020101715 4278472109
0.027148969 0.040531226 -0.023683194 4278668713
0.028763484 0.041344762 -0.024752276 4278538409
0.031003522 0.040079147 -0.023710674 4278603944
0.0334672 0.038121626 -0.021968536 4278603689
0.036378235 0.034780029 -0.018825322 4278603434
0.03887932 0.032825112 -0.017090514 4278668968
0.040954344 0.032255866 -0.016760912 4278734759
0.041916136 0.035147384 -0.019934753 4278602923
0.042630024 0.038729444 -0.023804158 4278340018
0.04377516 0.040926371 -0.026269257 4279257509
0.046294563 0.038973182 -0.024537807 4279258019
0.050470863 0.03218165 -0.017921057 4278339509
0.056123219 0.02124669 -0.0071280543 4278469558
-0.0069249123 0.016246594 0.0036239587 4279587224
-0.0053282529 0.017768111 0.0018147696 4278670244
-0.0035883337 0.018590145 0.00072070118 4278342314
-0.0020102113 0.020110607 -0.0010845689 4278407338
-0.00044273585 0.021630518 -0.0028876662 4278473128
0.00062842295 0.025244791 -0.0068223164 4278276269
0.0026905686 0.032468386 -0.014675288 4278341804
0.0038514882 0.035379924 -0.017883956 4279062434
0.0051636361 0.037592523 -0.020379167 4279193248
0.0064597614 0.039804123 -0.022871047 4278799783
0.0080958046 0.040620245 -0.023943581 4278733995
0.0099071674 0.040739022 -0.024307486 4278733993
0.012268554 0.038767125 -0.022550499 4278668458
0.014274016 0.038189862 -0.022209492 4278865574
0.01647355 0.03691645 -0.021163575 4278668713
0.018109683 0.037733044 -0.022235774 4278602923
0.020775646 0.041453611 -0.026489548 4278536878
0.026619306 0.040421173 -0.026174311 4279257763
0.029058332 0.038455203 -0.024432227 4278734248
0.031303249 0.037185587 -0.02339489 4278603689
0.033558849 0.035916708 -0.022359598 4278472874
0.035825092 0.034648698 -0.021326395 4278407083
0.037883826 0.034076095 -0.020995218 4278538409
0.039727002 0.034198385 -0.021364454 4278472874
0.04089953 0.036403544 -0.023830265 4278734249
0.041603472 0.039995991 -0.027689546 4278336959
0.042738322 0.042198837 -0.03014767 4279191464
0.044783242 0.041625783 -0.029813385 4279389089
0.04800462 0.03758537 -0.025996342 4278733993
0.0522057 0.030773655 -0.019400779 4278341038
-0.0068992786 0.013980661 0.0032039471 4279324829
-0.0052997135 0.015506741 0.0013974225 4278996898
-0.0037107505 0.017032184 -0.0004068492 4278866084
-0.0018196739 0.017155275 -0.00078744441 4278604199
7.1492046e-05 0.017278481 -0.0011679772 4278669734
0.0016392954 0.018802833 -0.0029677777 4278735269
0.0028676391 0.021727353 -0.0061836317 4278669479
0.003907539 0.025350742 -0.010103704 4278407593
0.004581172 0.03037253 -0.01543445 4278341549
0.0057346821 0.033292443 -0.018635044 4278538154
0.0068668053 0.036211055 -0.021831268 4279062178
0.0083331466 0.037729364 -0.023610231 4278996644
0.0097887963 0.039247066 -0.025386978 4278800039
0.011966389 0.037967678 -0.024340097 4278341293
0.013783038 0.038086973 -0.024704941 4278800039
0.015976731 0.036808819 -0.023661163 4278537643
0.019233035 0.03844545 -0.025799025 4278865064
0.020066908 0.042056397 -0.02967691 4281159298
0.021670917 0.04287336 -0.030740822 4279126693
0.023875289 0.041596405 -0.029698819 4278471088
0.026704134 0.038227051 -0.026555721 4278799018
0.029559739 0.034859568 -0.023417909 4278799273
0.031812239 0.033586029 -0.022385309 4278537898
0.033437505 0.034404866 -0.023453128 4278603689
0.03505734 0.035223499 -0.024519827 4278603944
0.036671769 0.036041826 -0.025585327 4278669224
0.038501434 0.036163226 -0.025951844 4278669479
0.039437633 0.039070647 -0.029107476 4278276013
0.04057835 0.041280393 -0.031561941 4278338234
0.041931603 0.042793084 -0.033316925 4278403259
0.055616125 0.024498142 -0.01602155 4278604454
-0.0067257844 0.011006996 0.0034916941 4279652503
-0.0052714683 0.013241194 0.00097712222 4279324828
-0.003526099 0.014067989 -0.00011484697 4278931873
-0.0016297847 0.014191404 -0.00049650669 4279128734
0.00042550266 0.01361198 -0.00016946811 4278669989
0.0018400066 0.015844025 -0.0026757782 4278538918
0.0030742772 0.018777683 -0.0058863205 4278669734
0.0042871907 0.021710057 -0.0090924809 4278473128
0.0056483373 0.023938876 -0.011587793 4278342059
0.0068211742 0.026868835 -0.014785746 4278276269
0.010211356 0.035650879 -0.024353394 4278931364
0.011847574 0.036471575 -0.025422568 4278866083
0.013292786 0.03799317 -0.027193807 4278865828
0.01510397 0.038112212 -0.027557474 4278930853
0.019162862 0.043373141 -0.033555564 4279323299
0.020557158 0.044891879 -0.035316221 4278995879
0.029024623 0.034749687 -0.025907539 4279061669
0.031271279 0.03347142 -0.024877064 4278668968
0.032678798 0.03499151 -0.02664002 4278603689
0.033860393 0.037210241 -0.029098082 4278538409
0.035025869 0.039427944 -0.031552806 4278341548
0.036836669 0.039548114 -0.031915538 4278603944
0.038870566 0.038969703 -0.031582482 4278341548
0.040683884 0.039090239 -0.031945564 4278668203
0.042040057 0.040607527 -0.033697858 4278536879
0.043616641 0.041426014 -0.034753792 4278865319
0.046824943 0.037358448 -0.03095367 4278472618
0.051248092 0.029804081 -0.023694754 4278538409
0.057165459 0.018068101 -0.012292653 4278538409
-0.0046408698 0.0081489645 0.0033883024 4281092999
-0.0031887405 0.010389727 0.0008790791 4279456409
-0.0014405325 0.011218932 -0.00021172967 4279128479
0.00030240417 0.012047894 -0.0013014013 4278932128
0.0020400546 0.01287666 -0.0023899768 4278735779
0.0031162016 0.01652424 -0.006301112 4278801314
0.0043323822 0.019465551 -0.0095013706 4278669989
0.0060354136 0.020292364 -0.010582754 4278473383
0.0073889717 0.022527363 -0.013071581 4278669734
0.0087264925 0.024761461 -0.015557148 4278472873
0.010047976 0.026994605 -0.018039418 4278866084
0.0111733 0.029930476 -0.021221038 4278603944
0.012460023 0.032161545 -0.023696173 4278472874
0.013359711 0.035798378 -0.02757125 4279128479
0.014797114 0.037324004 -0.029337624 4279062433
0.016032979 0.039551985 -0.031802285 4278931108
0.02564732 0.038039178 -0.031514689 4278668458
0.028490204 0.034648925 -0.028390631 4278865574
0.030311842 0.034769438 -0.028755808 4278734248
0.031496599 0.03699483 -0.031209638 4278865319
0.033817705 0.041442789 -0.036107451 4278402493
0.038527194 0.038176954 -0.033356816 4278795448
0.04078906 0.036895901 -0.032332219 4278668969
0.04260486 0.037016708 -0.032695718 4278472618
0.04465159 0.036437266 -0.032366633 4278472874
0.047872111 0.032357313 -0.028578691 4278407083
0.053015713 0.022679623 -0.019265702 4278472874
0.059668534 0.0088080987 -0.0058222907 4278407083
-0.0023928806 0.0045755059 0.0039830785 4282664053
-0.00078440085 0.006115444 0.0021847058 4279914899
0.00049639121 0.0090694614 -0.0010223119 4279325083
0.0017558374 0.01202219 -0.0042249588 4278866593
0.0029939413 0.014973648 -0.0074232216 4278670754
0.0045438036 0.016510163 -0.0092095044 4278735779
0.0062522516 0.017339464 -0.010290312 4278735779
0.0077834688 0.018875018 -0.012072731 4278669989
0.0093040392 0.020409934 -0.013852887 4278669989
0.010813911 0.021944296 -0.015630864 4278669734
0.01231312 0.023478013 -0.017406577 4278800549
0.01325373 0.027128395 -0.021281794 4278669733
0.014352873 0.030071575 -0.024451524 4278407339
0.016296241 0.0366592 -0.031476822 4279062178
0.017328434 0.039598271 -0.034632891 4279127713
0.018535223 0.041831121 -0.037086673 4279324319
0.020322042 0.041948952 -0.03744515 4278996388
0.022712989 0.039953344 -0.035713166 4278734248
0.025324058 0.037254535 -0.033288024 4278603434
0.027749779 0.035261374 -0.031562828 4278865574
0.029563257 0.035381369 -0.031926356 4278471854
0.030528285 0.038316682 -0.035068445 4278602924
0.033046257 0.042072989 -0.039258711 4278470834
0.041119371 0.033994526 -0.032029875 4278341293
0.043396756 0.032710195 -0.031011509 4278473129
0.045684751 0.031426709 -0.029995238 4278603944
0.04961805 0.025227301 -0.024148434 4278538409
0.055016659 0.014817975 -0.014172201 4278604199
0.061928771 0.00020191073 -7.6126307e-05 4278538664
0.0019551069 0.0090443194 -0.0039466918 4281354628
0.0030354261 0.012714099 -0.0078423712 4278931363
0.0044217929 0.014964223 -0.010328218 4279455644
0.006130293 0.015795723 -0.011407407 4278997663
0.0076617375 0.017335664 -0.013186619 4279062943
0.0095313601 0.017458025 -0.013562403 4278866338
0.011223931 0.018288791 -0.014638157 4278735268
0.012731396 0.019827433 -0.016412275 4278669733
0.014045704 0.022073474 -0.018883171 4278931873
0.014973685 0.025734097 -0.022747621 4278800803
0.016062707 0.028685484 -0.025908723 4278800039
0.017130308 0.03163556 -0.029065453 4278276524
0.018176477 0.034584321 -0.032217808 4278603943
0.019397069 0.036824666 -0.034669463 4278735013
0.021197159 0.036943376 -0.0350306 4278931619
0.022997228 0.037062187 -0.035391659 4278866084
0.025205044 0.035768013 -0.034363315 4278735014
0.027010409 0.035887375 -0.034725286 4278800038
0.028815731 0.036006831 -0.035087179 4278472363
0.030709408 0.041892741 -0.041350923 4278734504
0.032493144 0.04201106 -0.041708268 4278866084
0.035156649 0.039307542 -0.039299712 4278669223
0.038286794 0.035194911 -0.035513505 4278668458
0.041223668 0.031789664 -0.032424051 4278340784
0.043731235 0.029796209 -0.030719584 4278603688
0.047177475 0.024984796 -0.026260959 4278538663
0.051827829 0.016653061 -0.018365927 4278801058
0.057486452 0.0055080131 -0.0077306586 4278735524
0.063469328 -0.0063354596 0.003575258 4279522199
0.003567189 0.0083163232 -0.0061611379 4281419909
0.0047984682 0.011284914 -0.0093448842 4279914134
0.006177254 0.013541218 -0.011824247 4279128479
0.0077116005 0.01508569 -0.013600742 4278931873
0.0095837824 0.0152082 -0.013977048 4278801058
0.011279065 0.016041394 -0.015051758 4278931619
0.012789432 0.0175846 -0.016823204 4278931873
0.014106818 0.019837417 -0.019289829 4278997664
0.015593123 0.02137927 -0.021056274 4278800803
0.016881071 0.023630358 -0.023516836 4278800803
0.018343288 0.025170833 -0.025278294 4278735269
0.019408781 0.028129648 -0.028427999 4278604198
0.020844191 0.029668611 -0.030183963 4278276269
0.02368284 0.032744624 -0.033689126 4278407339
0.025289753 0.033573024 -0.034745339 4278931619
0.026684901 0.035109702 -0.036492877 4279062433
0.027860211 0.037354186 -0.038930222 4278931363
0.040652175 0.031702708 -0.034887634 4278472109
0.044292826 0.026166491 -0.029745553 4278735014
0.048667692 0.018512327 -0.022548843 4278800549
0.054267216 0.0073281713 -0.011927892 4278604199
0.058773056 -0.00031705946 -0.004757233 4278997664
0.06405326 -0.010077596 0.004460074 4280832899
0.0065613464 0.0098561011 -0.010847085 4279848598
0.0081039332 0.011405528 -0.012622028 4279390108
0.0096358806 0.012954332 -0.014394701 4278866084
0.011333894 0.013789825 -0.015468302 4278997154
0.012667716 0.016050182 -0.017933425 4278931873
0.014167599 0.017597247 -0.019699462 4278866593
0.015656807 0.019143675 -0.021463236 4279063198
0.017135311 0.020689499 -0.023224777 4278801059
0.018603094 0.022234775 -0.024984134 4278669989
0.020252997 0.023067746 -0.026047602 4278669989
0.022093032 0.023188997 -0.026416821 4278931874
0.02333851 0.025444292 -0.028863654 4278538663
0.024367046 0.028409764 -0.031999186 4278341803
0.026565965 0.033625931 -0.03756614 4278800549
0.027532799 0.036587641 -0.040689066 4279062688
0.028478159 0.03954801 -0.043807626 4279062688
0.029616298 0.041796785 -0.046232432 4278603434
0.031389084 0.041914396 -0.046587572 4278406318
0.037157267 0.035052791 -0.040420309 4278341295
0.041431163 0.02736761 -0.03322145 4278734504
0.046446793 0.017558355 -0.023974307 4278603689
0.051767606 0.0070450082 -0.014055976 4278800294
0.056702655 -0.0020448938 -0.0055247545 4278800294
0.060057517 -0.006168291 -0.0018027304 4280111504
0.064397782 -0.013124049 0.0046510901 4281226108
0.010557145 0.0071208328 -0.011336342 4282926194
0.01174153 0.010104347 -0.014497367 4280241299
0.012904532 0.013086569 -0.017654011 4279586969
0.014410008 0.014638349 -0.019417865 4279325083
0.015904777 0.016189568 -0.021179542 4278736289
0.017201573 0.018454362 -0.02363204 4278866594
0.018862231 0.019290127 -0.024696119 4278866594
0.02071018 0.019411784 -0.025067013 4278669989
0.022558123 0.019533567 -0.025437813 4278735524
0.023812037 0.02179601 -0.027881438 4278735269
0.024849182 0.024770811 -0.031012187 4278800804
0.026068233 0.027031161 -0.033448659 4278407594
0.027477225 0.028577529 -0.035192452 4278276269
0.029205978 0.035231635 -0.04211475 4278603688
0.030141158 0.038200215 -0.045224663 4278866338
0.031705111 0.039030641 -0.046268567 4278734758
0.034141347 0.037012421 -0.044564623 4278603433
0.037704088 0.031435806 -0.039433204 4278669224
0.042883076 0.020879913 -0.029511016 4278603689
0.048824653 0.008194834 -0.017549708 4278538154
0.053941995 -0.0016382709 -0.0083456095 4278341803
0.057737295 -0.0071989596 -0.0032604104 4279193503
0.060162395 -0.0084906071 -0.0022843545 4280832643
0.064503402 -0.01546818 0.0041529834 4281422458
0.01314069 0.010114405 -0.017380714 4280699789
0.014651731 0.011670962 -0.019142481 4279914388
0.01615208 0.013226882 -0.020901974 4278735779
0.017828852 0.014065806 -0.021967728 4278539428
0.018930886 0.017053239 -0.025105281 4278735524
0.020781383 0.017175063 -0.025476685 4278538918
0.022436725 0.018012896 -0.026537897 4278932129
0.024086684 0.018850528 -0.02759799 4278801059
0.025129778 0.021834455 -0.030723361 4278538918
0.026557762 0.023386419 -0.032467805 4278669734
0.028180875 0.024222545 -0.033522241 4278801059
0.029590044 0.025773481 -0.035262756 4278669734
0.030354813 0.029468257 -0.039061077 4278407849
0.031306647 0.032446738 -0.04216779 4278603943
0.032670148 0.033994898 -0.043898888 4278407084
0.035557613 0.03054237 -0.040832251 4278996899
0.039803345 0.022806969 -0.033663612 4278931619
0.045680098 0.010078035 -0.021718718 4278997154
0.051198605 -0.0012169108 -0.011159901 4279062688
0.055192977 -0.0075109154 -0.00539866 4280439179
0.057839606 -0.0095211193 -0.003741364 4280570504
0.060266897 -0.010816984 -0.0027689924 4281094783
0.06484665 -0.018529445 0.004333239 4281357178
0.016214438 0.010974519 -0.021321068 4282013293
0.017706994 0.012534425 -0.023075655 4280374663
0.019188825 0.014093772 -0.024828054 4279063453
0.020659957 0.015652478 -0.026578184 4278997408
0.022315346 0.016492501 -0.02763778 4278735779
0.023767702 0.018050261 -0.029384004 4278997919
0.025209341 0.019607358 -0.031127969 4278408103
0.027046248 0.019728735 -0.031496316 4278735524
0.028883122 0.019850209 -0.031864583 4278932129
0.030303225 0.021406248 -0.03360403 4278669989
0.031501547 0.023678683 -0.036026277 4278931874
0.032683741 0.025950179 -0.038445268 4278735014
0.03428261 0.026787318 -0.039492894 4278604198
0.037190478 0.02332522 -0.036438465 4278473128
0.041899037 0.01413437 -0.027925741 4278473128
0.047799248 0.0013675243 -0.016014811 4278538408
0.051978916 -0.005665049 -0.0095780734 4279849873
0.055292919 -0.0098307803 -0.0058773188 4281226109
0.057709105 -0.011131801 -0.0049060797 4281356668
0.060606159 -0.0138629 -0.0025763279 4280766853
0.065664798 -0.023029767 0.0058668219 4280898178
-0.031004731 -0.028064996 0.021173727 4279851404
-0.029351022 -0.025760405 0.018661708 4279853188
0.019256646 0.011846446 -0.025244765 4280112524
0.020922791 0.012689263 -0.026304971 4279522199
0.022193985 0.014972422 -0.028737433 4279194268
0.023844033 0.015814446 -0.029794283 4279194268
0.025488719 0.016656186 -0.030849928 4278931873
0.027330847 0.016777914 -0.03121932 4278997919
0.028967442 0.017619338 -0.032273181 4278866594
0.03039046 0.01917991 -0.034009911 4278801059
0.031802706 0.020739947 -0.035744436 4278932129
0.033204205 0.022299308 -0.037476689 4278735269
0.035243582 0.021701455 -0.037159458 4278669734
0.038820505 0.016073078 -0.032069974 4278866338
0.043769613 0.0061365068 -0.022900868 4279194013
0.049017835 -0.0045133084 -0.013065862 4279259549
0.052077033 -0.0079759732 -0.010049625 4280045970
0.054703712 -0.01000078 -0.0083981296 4281684343
0.057578605 -0.012742169 -0.0060705682 4281815669
0.061179683 -0.017634995 -0.0017111115 4281815669
-0.031240035 -0.028974943 0.019285295 4279326104
-0.029588629 -0.026663892 0.016778573 4278867613
0.02246188 0.01200762 -0.028466661 4281490033
0.023722734 0.014296837 -0.030892115 4280178568
0.025567435 0.014418624 -0.031262103 4279063453
0.027209457 0.015262499 -0.0323155 4278735779
0.029051421 0.015384335 -0.032684766 4278735014
0.030477338 0.01694949 -0.034418814 4278734758
0.032313861 0.017071199 -0.034786824 4278800803
0.033936977 0.017914254 -0.035836108 4278931619
0.035986751 0.017314907 -0.03552258 4279062943
0.039354108 0.012390569 -0.031128274 4279325084
0.044087231 0.0031444132 -0.022662798 4279652759
0.048889875 -0.0060969889 -0.014211147 4279587224
0.051948048 -0.0095706582 -0.011202834 4280308619
0.054803476 -0.012322254 -0.0088779321 4281749878
0.058376499 -0.017232321 -0.0045243688 4281881204
0.061752122 -0.021420024 -0.00085523725 4282405993
-0.031366128 -0.030610435 0.018101029 4279128478
-0.02971435 -0.028292827 0.015599085 4278931873
-0.027735922 -0.028165929 0.015199512 4279062688
-0.025874149 -0.027309172 0.014100837 4279259803
-0.024256576 -0.024993494 0.011606077 4279589773
-0.022532683 -0.023408078 0.0098126289 4280246399
0.025645824 0.012176916 -0.031677201 4280046989
0.027290557 0.013023198 -0.032729559 4279587224
0.028724762 0.014593188 -0.034462083 4279193503
0.030563874 0.014714964 -0.034830689 4278800293
0.032192439 0.015560474 -0.035879508 4278931363
0.034028776 0.015682276 -0.036247402 4278866084
0.036296785 0.014357615 -0.03525674 4278931873
0.039668128 0.0094181895 -0.030874578 4279128988
0.044182941 0.00086673349 -0.023109034 4279063453
0.048761923 -0.0076803789 -0.015356212 4278932383
0.052045636 -0.01188761 -0.011678736 4280308619
0.055132132 -0.015370205 -0.008684136 4281815668
0.058941051 -0.021017604 -0.0036667101 4282209134
-0.031383526 -0.03297808 0.017616149 4279193503
-0.029840011 -0.029921465 0.014419815 4278800548
-0.027747709 -0.030526757 0.014718384 4279128223
-0.025883246 -0.029667623 0.013620723 4278997153
-0.024143267 -0.028076969 0.011827227 4278801824
-0.022535849 -0.025755234 0.0093394313 4279129498
-0.020694923 -0.024897315 0.0082468241 4282145128
0.028808415 0.012354378 -0.034876421 4281949798
0.030234767 0.013928343 -0.036604024 4280244358
0.032281354 0.013324212 -0.036293257 4279260059
0.034120239 0.013446189 -0.036661655 4278997918
0.036390431 0.012117323 -0.035674676 4278670244
0.039544716 0.007887952 -0.031981267 4278932894
0.044278298 -0.0014150441 -0.023558227 4278867359
0.049081396 -0.010713346 -0.015148981 4278998429
0.052822042 -0.016383015 -0.010131072 4280505734
0.056147274 -0.020600483 -0.0064715706 4281750133
-0.03129271 -0.03608454 0.017825905 4278866338
-0.029743303 -0.033018813 0.01463487 4278407338
-0.027759802 -0.032891653 0.014234224 4278866083
-0.026009101 -0.031296022 0.012441672 4278735269
-0.024268936 -0.029701009 0.010651372 4278866594
-0.022661131 -0.027372696 0.0081683621 4278735524
-0.020820182 -0.026512608 0.0070773587 4278932383
-0.01885723 -0.026386201 0.0066812858 4279522198
-0.017023984 -0.025526397 0.005591996 4281946994
0.032369927 0.011083823 -0.036709994 4280244614
0.033785697 0.012661692 -0.038432065 4279195289
0.036268227 0.010600571 -0.036771648 4278998173
0.039857678 0.0049029849 -0.031736732 4278867359
0.044594176 -0.0044283196 -0.023335394 4278801824
0.049400177 -0.013754852 -0.014947861 4279391638
0.052918389 -0.018714763 -0.010617662 4280964478
0.056473985 -0.023672096 -0.006294806 4282537063
-0.032250848 -0.045960762 0.024702206 4282798184
-0.031202529 -0.039199464 0.018029455 4280373898
-0.029758211 -0.035387926 0.01414828 4278669479
-0.02777217 -0.035260625 0.013747105 4278866083
-0.026018593 -0.033660494 0.011957258 4278800804
-0.024156559 -0.032797061 0.010863394 4278669989
-0.022664692 -0.029725887 0.0076908469 4278801059
-0.020821024 -0.028863423 0.0066008642 4278997153
-0.018855553 -0.028736882 0.0062042549 4278866338
-0.017019603 -0.027874731 0.0051160399 4279652759
-0.015056502 -0.0277481 0.0047200881 4280505223
0.039733928 0.0033689365 -0.032846175 4280769659
0.044909336 -0.0074500293 -0.023118727 4280638589
0.049494885 -0.016075477 -0.015425771 4280376449
-0.030680422 -0.045279168 0.021004446 4282667113
-0.02933016 -0.040716745 0.016434148 4279849109
-0.027557846 -0.039111182 0.014643665 4279456154
-0.025912207 -0.036767587 0.012162579 4279128733
-0.024282444 -0.034424894 0.0096847787 4278866339
-0.022668544 -0.032083161 0.0072103087 4279063199
-0.020822179 -0.031218402 0.0061214212 4278931873
-0.018854152 -0.031091705 0.005724296 4278931873
-0.017145041 -0.029489473 0.0039470345 4279128733
-0.015049886 -0.030100405 0.0042406246 4278932128
-0.013488736 -0.027761489 0.0017772214 4279063454
-0.011668388 -0.026897773 0.0006939834 4279521944
-0.027004559 -0.04519739 0.01760605 4280439689
-0.025574494 -0.0413647 0.013744151 4279456663
-0.024052311 -0.038274169 0.010578346 4278932383
-0.022551354 -0.035184905 0.007416904 4278931618
-0.020823631 -0.03357739 0.0056389887 4278997664
-0.018853072 -0.033450566 0.0052413289 4279063199
-0.01714107 -0.031843796 0.0034667272 4278932128
-0.015307616 -0.030977346 0.0023823194 4278538918
-0.013614055 -0.029371567 0.00061165821 4278669733
-0.011793699 -0.02850569 -0.00046997797 4278932128
-0.0099785812 -0.027640082 -0.0015504295 4279587479
-0.0083113946 -0.026035644 -0.0033155121 4280046734
-0.024890628 -0.048207931 0.017381964 4282470763
-0.023704667 -0.042879112 0.012151619 4279718803
-0.022313628 -0.039037794 0.0083058923 4279587989
-0.02082536 -0.035940506 0.0051535759 4278867359
-0.018978778 -0.035071261 0.0040679704 4278801314
-0.01726659 -0.033460118 0.0022965735 4278800549
-0.015433099 -0.032591499 0.0012137657 4278473128
-0.013739336 -0.03098134 -0.00055369083 4278735269
-0.011781756 -0.030854903 -0.00094840396 4278735524
-0.0099639334 -0.029986896 -0.0020278217 4278800804
-0.0080087744 -0.029860377 -0.0024218662 4279063199
-0.0064891987 -0.027510576 -0.0048667984 4279194778
-0.0048376657 -0.025902502 -0.0066253473 4279718549
-0.003046155 -0.025035769 -0.0076990635 4282536044
-0.021834914 -0.044393174 0.010559371 4281880948
-0.020580057 -0.039797001 0.0060379971 4281094274
-0.018978115 -0.037436113 0.0035806615 4279652759
-0.017263036 -0.035820477 0.0018119523 4278800293
-0.015426848 -0.034949459 0.00073018949 4278603689
-0.013730232 -0.033334769 -0.0010346202 4278538663
-0.011770114 -0.033208169 -0.0014298456 4278800804
-0.009809874 -0.03308145 -0.0018250132 4278801569
-0.0078495219 -0.032954611 -0.00222011 4278735269
-0.0063242279 -0.030597843 -0.0046613673 4279129499
-0.0046671443 -0.028985105 -0.006417756 4278998173
-0.0030206777 -0.027372882 -0.0081719533 4279587734
-0.0012317225 -0.026504017 -0.0092434473 4279784338
-0.018725391 -0.041298412 0.0044589117 4281550723
-0.017002109 -0.039677821 0.0026917625 4280241553
-0.015157875 -0.038804181 0.0016100127 4279062178
-0.013587225 -0.036438413 -0.00083587784 4278735269
-0.011895634 -0.034819566 -0.0025963346 4278604708
-0.0099355429 -0.034692861 -0.0029914798 4278997664
-0.0082597621 -0.033074766 -0.0047486247 4278735524
-0.0063047968 -0.032948151 -0.0051425518 4279063199
-0.0044972859 -0.032076143 -0.0062163407 4278997153
-0.0028452612 -0.03045924 -0.0079683745 4278669479
-0.0010509342 -0.029587835 -0.0090393284 4278407083
0.00042694807 -0.027227104 -0.0114658 4279128733
0.0023636371 -0.027101062 -0.011855596 4279391383
0.0038175918 -0.024741642 -0.014277067 4279655564
-0.013578873 -0.038802244 -0.0013242755 4281419144
-0.011884432 -0.037178822 -0.0030821208 4279455643
-0.010061167 -0.036303975 -0.0041577378 4279390619
-0.0085272379 -0.033933677 -0.00659109 4278866594
-0.0067198053 -0.033059619 -0.0076633403 4278997664
-0.0049176179 -0.032185763 -0.008734432 4278931618
-0.00282057 -0.032806762 -0.0084487954 4278866083
-0.0010235459 -0.031932987 -0.0095186653 4278603689
0.00076820329 -0.031059451 -0.010587391 4278932128
0.0027127713 -0.030932911 -0.010978778 4278866593
0.0041751154 -0.028566398 -0.013397069 4279129243
0.005621478 -0.026200779 -0.015812043 4279457939
-0.011736993 -0.040292554 -0.0028919075 4280961418
-0.0099083781 -0.039415158 -0.0039670374 4280044948
-0.0085105933 -0.036287911 -0.0070744953 4279062433
-0.0068450049 -0.034661643 -0.0088229496 4279062689
-0.0050428025 -0.033785641 -0.0098924534 4278800549
-0.0030959658 -0.033659324 -0.01028457 4278472873
-0.0011490323 -0.033532888 -0.010676627 4278538663
0.00064274296 -0.032657169 -0.011743733 4278800804
0.0024292283 -0.031781636 -0.012809739 4278669734
0.0038892776 -0.02940876 -0.015222647 4278997664
0.0054965913 -0.027785376 -0.016958777 4278997918
0.0070932806 -0.026162595 -0.01869262 4279326614
0.0090165325 -0.026036963 -0.019079365 4278867103
0.010768551 -0.025163084 -0.020137904 4279721354
-0.0080691651 -0.040902928 -0.005532125 4282664054
-0.0065370612 -0.038519569 -0.0079552326 4281093254
-0.0048738606 -0.036888935 -0.0096999239 4279127459
-0.0032212622 -0.035258926 -0.011442349 4278866083
-0.0014268719 -0.03438098 -0.01250846 4278801059
0.00051730871 -0.034254603 -0.012899869 4278473638
0.0019883439 -0.03187453 -0.015310259 4278866594
0.0036038198 -0.030246429 -0.017044839 4278735524
0.0050455667 -0.027868025 -0.019449152 4278538918
0.0073001422 -0.029243805 -0.018493142 4278407848
0.0088917203 -0.027616896 -0.020222642 4278538919
0.010814868 -0.027491122 -0.020609252 4279128989
0.012564275 -0.026615113 -0.021665562 4279327123
0.014661275 -0.027239218 -0.021382231 4280180353
-0.0045586973 -0.040754847 -0.0088399481 4280436628
-0.0031969845 -0.037612088 -0.011926869 4279782808
-0.0013999008 -0.036731794 -0.012991902 4278997408
0.00023700669 -0.035098143 -0.014727783 4278932129
0.0017057434 -0.032711722 -0.017132793 4278473638
0.003318727 -0.031079359 -0.018863667 4278866339
0.0049210861 -0.029447623 -0.020592265 4278669989
0.0071751624 -0.030827813 -0.019639414 4278669989
0.0089351982 -0.029949188 -0.020696431 4278866593
0.010689929 -0.029070757 -0.021752283 4279062433
0.012960188 -0.030449532 -0.020802416 4278932128
0.015417468 -0.032579653 -0.019186914 4279587734
0.017711867 -0.033956558 -0.018241681 4280640373
-0.0013732389 -0.039086722 -0.013478318 4282075514
0.00042126328 -0.038204268 -0.014541103 4280568718
0.0018956959 -0.03581088 -0.01694244 4278931363
0.003514234 -0.034173846 -0.018671144 4278473128
0.0049593821 -0.03178212 -0.021066405 4278473383
0.0070502162 -0.032411516 -0.020785462 4278669989
0.0086421818 -0.03077583 -0.022508536 4278800804
0.010394257 -0.029895395 -0.02356223 4278865574
0.013008226 -0.032787807 -0.021281723 4279061923
0.016171955 -0.037941732 -0.017007248 4278996898
0.019015584 -0.041584723 -0.014071247 4279783828
0.021523051 -0.043717854 -0.012470508 4280505479
0.022941738 -0.041326813 -0.014859678 4281490033
0.0023994483 -0.0404341 -0.015421724 4280372369
0.0040288642 -0.038791984 -0.017149368 4279455899
0.0054850765 -0.036392994 -0.019541992 4278931619
0.006925296 -0.033994898 -0.021931287 4278735524
0.0085174516 -0.032354839 -0.023651157 4278932129
0.010269545 -0.031472228 -0.024703231 4278997153
0.013229191 -0.035886884 -0.021099044 4278800548
0.016396899 -0.041055836 -0.016836734 4279193503
0.019780692 -0.046978585 -0.011917865 4279849364
0.022663418 -0.050629824 -0.0089977561 4280178059
0.025021024 -0.05201111 -0.0080714924 4281227128
0.0064966045 -0.043299936 -0.016033338 4281027974
0.0076257624 -0.039375186 -0.019751681 4279718549
0.008728236 -0.035452075 -0.023464572 4278800803
0.010485694 -0.034566924 -0.024516098 4278866083
0.013103306 -0.037476584 -0.022249321 4279127968
0.016796943 -0.044937156 -0.016009407 4279718293
0.020365644 -0.051635541 -0.010442494 4280439434
0.023439148 -0.056055434 -0.0068706307 4281161083
0.00848943 -0.045538835 -0.016924271 4282009468
0.0096086562 -0.041603684 -0.020632407 4279390619
0.011211917 -0.039953992 -0.022347959 4279455643
0.013842046 -0.042871572 -0.020090187 4279455388
0.017371561 -0.049592309 -0.014530121 4279586458
0.020770963 -0.055548996 -0.0096403724 4280307599
0.023670342 -0.059220977 -0.0067398357 4282602598
0.012276582 -0.0468897 -0.018873872 4282404464
0.014406323 -0.047524892 -0.018606959 4281878909
0.017944813 -0.054264687 -0.013063292 4281420163
0.021353357 -0.06023825 -0.0081883706 4282207604
0.017990954 -0.056658357 -0.01358338 4280635273
0.02104477 -0.061118968 -0.010036863 4280763539
0.024735652 -0.061732359 -0.012684993 4282143599
0.025490925 -0.058627665 -0.018190347 4282536808
-0.012102526 -0.054891206 -0.021277301 4282928234
-0.00022049248 -0.057288699 -0.023484137 4282863208
-0.0027523786 -0.056680091 -0.026212052 4282928743
-0.00065206736 -0.057333432 -0.025951277 4282797418
-0.0033275522 -0.055931002 -0.029324003 4282797418
-0.00093026832 -0.058151253 -0.027760509 4282994534
-0.036160696 0.0116245 0.065942705 4284966448
-0.034243498 0.012417607 0.064782798 4285885469
-0.037497398 0.017934076 0.055717189 4285820444
-0.035612244 0.018727209 0.054565381 4285820189
-0.03309669 0.015532549 0.057916548 4285820188
-0.030011166 0.0090176202 0.065011233 4285885978
-0.041506056 0.015367288 0.05608068 4285427233
-0.039808709 0.01749754 0.053428162 4285820953
-0.038227562 0.020294014 0.050029051 4285623329
-0.03635836 0.021088257 0.048882052 4285623328
-0.033965554 0.018548273 0.051479671 4285623584
-0.03133424 0.014676437 0.055569407 4285689628
-0.028448399 0.009473905 0.061147887 4285755674
-0.025633264 0.0049404502 0.065970689 4285558559
-0.044269253 0.018283434 0.05004276 4285493023
-0.042108107 0.017071009 0.051143523 4285624093
-0.040326167 0.018537451 0.049247216 4285820699
-0.038654897 0.02067266 0.046604827 4285886744
-0.036690731 0.020799357 0.046208665 4285886744
-0.034304049 0.018250082 0.048800983 4285886998
-0.031787474 0.015033431 0.052135553 4285689883
-0.029465746 0.013155911 0.053972665 4285558813
-0.027468543 0.013285007 0.053570043 4285558813
-0.025471102 0.013414189 0.053167421 4285558558
-0.02347346 0.013543457 0.052764807 4285557793
-0.020502526 0.0083290488 0.058313217 4285492003
-0.048597511 0.018418163 0.047411062 4285163308
-0.046902765 0.020561155 0.044768594 4285819934
-0.044671673 0.018670674 0.046618707 4285820444
-0.04251897 0.017453212 0.047717907 4285689374
-0.040550034 0.017580029 0.047320638 4285624094
-0.038881008 0.019721631 0.044683561 4285624093
-0.036919627 0.019848086 0.044287913 4285624093
-0.034641784 0.017960943 0.046128832 4285624349
-0.032131504 0.014732838 0.049456451 4285624349
-0.030147996 0.014860921 0.049056496 4285624349
-0.028391112 0.016330529 0.047168724 4285689883
-0.026760843 0.01847 0.044539809 4285755164
-0.024908852 0.019267868 0.043399725 4285820698
-0.022333231 0.016044337 0.046714433 4285820443
-0.019109923 0.0094725266 0.053732503 4286017304
-0.050769318 0.017344858 0.045884632 4285163564
-0.049242083 0.020843942 0.041750498 4285820189
-0.047384594 0.021643519 0.040610388 4286016794
-0.044981096 0.018397078 0.043951042 4286017304
-0.042739648 0.016500704 0.045794107 4285820953
-0.040676277 0.015953299 0.046142928 4285689883
-0.038906951 0.017427702 0.044255611 4285624349
-0.036942963 0.017554265 0.043859396 4285624349
-0.034873497 0.017007481 0.044207085 4285559069
-0.032582659 0.015114598 0.04604049 4285559069
-0.030828428 0.016588263 0.044156469 4285624349
-0.029197935 0.018734276 0.041532289 4285755419
-0.027699251 0.021552056 0.0381696 4285754908
-0.02562869 0.021005701 0.038517334 4285557794
-0.023188699 0.018442582 0.041086055 4285492003
-0.020479161 0.014536519 0.045130741 4285689119
-0.017483998 0.0092884861 0.050648186 4285885979
-0.014445778 0.0040433295 0.056157019 4285689374
-0.05277295 0.01492241 0.045854874 4285229863
-0.051229183 0.018433414 0.041725468 4285755419
-0.049539175 0.020589117 0.039093629 4285623583
-0.047597948 0.020713817 0.038701713 4285492003
-0.045381431 0.01880908 0.04054486 4285689119
-0.043054242 0.01622913 0.043129236 4285755163
-0.040802423 0.014326792 0.044965357 4285689884
-0.039032836 0.015805554 0.043081217 4285624350
-0.037273701 0.017283663 0.041199282 4285624349
-0.035419974 0.018085584 0.040061772 4285624348
-0.03314044 0.016185313 0.04189251 4285624349
-0.031286243 0.016987361 0.040755056 4285624094
-0.029776458 0.019814536 0.03739658 4285689629
-0.028172109 0.02196547 0.034782581 4286018323
-0.026109848 0.021416299 0.035130367 4286017814
-0.023678672 0.018843804 0.037694246 4286018069
-0.021102089 0.015598275 0.040992439 4286214674
-0.018625017 0.013028909 0.043547183 4285820443
-0.016126331 0.01046098 0.046097677 4285623584
-0.01294687 0.0045249611 0.052328464 4285621799
-0.0094500072 -0.0027553439 0.060022343 4285753123
-0.055016134 0.014534328 0.043584861 4285164329
-0.05346385 0.018056739 0.039461806 4285427488
-0.051687557 0.019539867 0.037579238 4285820953
-0.049921673 0.021022338 0.035698857 4285755673
-0.047899712 0.020467591 0.03605248 4285820698
-0.045689125 0.018555809 0.037891872 4285886489
-0.043273885 0.015288085 0.041213777 4285886998
-0.041025344 0.013378918 0.043045565 4285689628
-0.039258186 0.014861818 0.041165181 4285689628
-0.037705872 0.017700192 0.037804417 4285624349
-0.035964977 0.019181538 0.035929434 4285755419
-0.03391188 0.018629272 0.036277134 4285755419
-0.031742964 0.017399941 0.037363384 4285689373
-0.030014772 0.018880691 0.035491139 4285623583
-0.028297078 0.020360876 0.033621006 4285623583
-0.026235092 0.019809444 0.033967175 4285689118
-0.024046589 0.018581666 0.035049699 4285689119
-0.021599952 0.016001366 0.037603989 4285623584
-0.019131694 0.013422549 0.040153988 4285623583
-0.016641837 0.010845196 0.042699676 4285884448
-0.055140812 0.012917601 0.042414192 4285295908
-0.053507108 0.015769389 0.039043076 4285493024
-0.051811207 0.017938454 0.036419701 4285558558
-0.050131049 0.020106535 0.033799596 4285886998
-0.048200693 0.020230416 0.033409782 4285821208
-0.045904715 0.01763073 0.035987198 4285689883
-0.043681119 0.0157132 0.037819069 4285689628
-0.041537892 0.014477398 0.038906932 4285558558
-0.039681803 0.015283577 0.037772074 4285689884
-0.038034912 0.017449934 0.035158992 4285755419
-0.036299098 0.018935341 0.033288226 4285952278
-0.034251627 0.018380467 0.033635385 4285952278
-0.0320885 0.017146271 0.034719545 4286018068
-0.030139919 0.017271962 0.034326531 4285755164
-0.028421994 0.018756513 0.032459591 4285623583
-0.026360255 0.018202815 0.032804139 4285624348
-0.024172205 0.016970567 0.033883449 4285624093
-0.0218498 0.01506022 0.035696 4285558048
-0.019384999 0.012472343 0.03824012 4285884704
-0.053309191 0.011426382 0.040848441 4285426979
-0.051768463 0.014969964 0.036744013 4285558558
-0.050082531 0.017144985 0.034127552 4285558303
-0.048235413 0.017952435 0.032995883 4285624349
-0.046028715 0.016027145 0.034826126 4285624349
-0.043993372 0.015468828 0.035173837 4285624349
-0.04195245 0.014910977 0.035520419 4285624349
-0.040005121 0.015036169 0.035127345 4285690139
-0.038363155 0.017208796 0.032520086 4285755164
-0.036632475 0.018698175 0.030653618 4285557794
-0.034697812 0.018822774 0.030263267 4285492003
-0.032543156 0.017583627 0.031345785 4285754908
-0.030377578 0.016345218 0.032426193 4285886489
-0.028431568 0.016470782 0.032033727 4285624348
-0.02636743 0.015915032 0.032376077 4285624348
-0.024177138 0.014678489 0.033451635 4285623584
-0.021975946 0.013442695 0.034525108 4286607883
-0.052951928 0.0056939088 0.0441227 4285426468
-0.051394407 0.0092494898 0.040023003 4285558304
-0.049692024 0.0114321 0.037408076 4285623839
-0.047917087 0.012928221 0.035535581 4285558814
-0.046061616 0.013738416 0.034403861 4285624349
-0.044304889 0.01523355 0.032535106 4285558813
-0.042558622 0.016728055 0.030668564 4285558813
-0.040525723 0.016167518 0.031015154 4285755674
-0.03869066 0.016976692 0.029887773 4285886998
-0.036965054 0.018470131 0.028025523 4285623329
-0.035142902 0.019278623 0.026900858 4285689119
-0.032996703 0.018034443 0.027981821 4285952279
-0.030727196 0.016107131 0.02979489 4285952279
-0.028556492 0.014864691 0.030871026 4285689119
-0.026374865 0.013623074 0.031944975 4285557794
-0.052676756 0.00062340498 0.046638757 4285360933
-0.050939482 0.0028147101 0.044021584 4285492003
-0.049217973 0.0050050318 0.041407697 4285623328
-0.047512252 0.0071944557 0.038796999 4285623839
-0.045913119 0.01007048 0.035452534 4285689884
-0.044335116 0.012945224 0.03211239 4285558813
-0.0426821 0.015131444 0.029512547 4285558813
-0.040946018 0.016629744 0.027651295 4285558813
-0.039220411 0.018127412 0.025792263 4285821719
-0.037505273 0.019624513 0.023935348 4285952533
-0.035586875 0.019747969 0.023548204 4285952789
-0.033339594 0.017812464 0.025360808 4285952279
-0.030963834 0.015191916 0.027902871 4285689373
-0.028566439 0.012572851 0.030440643 4285557794
-0.026382599 0.011326935 0.031510841 4285818914
-0.052483145 -0.0037784874 0.048401419 4285557538
-0.050652128 -0.002270259 0.046523929 4285492258
-0.048916828 -7.2486699e-05 0.043912057 4285492003
-0.047285292 0.0028142668 0.04056748 4285558049
-0.045584235 0.0050100014 0.037962638 4285557538
-0.044178952 0.0092735179 0.033156417 4285491748
-0.04251748 0.011466868 0.030559689 4285624349
-0.041069176 0.015037734 0.026498623 4285624604
-0.039444674 0.017228816 0.023909509 4285558814
-0.037835989 0.019418996 0.02132361 4285558559
-0.035816338 0.018853333 0.021669697 4285558558
-0.03357235 0.016910978 0.023478024 4285623838
-0.030975927 0.012904637 0.027476411 4285689374
-0.028576661 0.01027685 0.030007225 4286607883
-0.054297391 -0.0083260536 0.050557058 4284966448
-0.052450385 -0.006812498 0.048679452 4285426724
-0.05061378 -0.0052995682 0.046804056 4285558304
-0.04887272 -0.0030948892 0.044195879 4285558048
-0.047147457 -0.0008912012 0.041590985 4285492259
-0.045437951 0.0013116002 0.038989294 4285557284
-0.04383738 0.0042052604 0.035657577 4285491748
-0.042066302 0.0057143606 0.033795696 4285557539
-0.040798206 0.010680165 0.028274927 4285624094
-0.039263774 0.013569813 0.024956737 4285493024
-0.037750524 0.016458165 0.021642879 4285493278
-0.035725791 0.015890542 0.021986313 4285493023
-0.033477057 0.013941903 0.023788709 4285622818
-0.052418206 -0.009855099 0.048951313 4285295144
-0.050576005 -0.008337453 0.047077954 4285492514
-0.048829187 -0.0061259121 0.04447351 4285492259
-0.047185797 -0.0032209456 0.04113951 4285492003
-0.045382913 -0.001705572 0.039274268 4285557539
-0.043683428 0.00050313771 0.036679555 4285557539
-0.04171275 0.0006294921 0.036281511 4285557538
-0.040331867 0.0049178936 0.031499803 4285558049
-0.038780805 0.0078172944 0.028184786 4285624094
-0.0373546 0.011408765 0.024144553 4285624348
-0.035423111 0.011532914 0.023754656 4285624094
-0.033491414 0.011657152 0.023364771 4285820444
-0.048871059 -0.008468762 0.044013176 4285228588
-0.047136944 -0.0062513947 0.041416164 4285360423
-0.045418594 -0.0040350109 0.038822439 4285360678
-0.043530416 -0.0032119006 0.037692081 4285492259
-0.041647304 -0.0023890734 0.036562853 4285426468
-0.039965648 -0.00017479807 0.033976715 4285492259
-0.038299803 0.0020386018 0.031393796 4285492514
-0.036856782 0.0056420825 0.027358294 4285492259
-0.03501555 0.0064625479 0.026237767 4285557538
-0.033070583 0.0065876059 0.025845174 4286015774
-0.047001366 -0.009989202 0.0424162 4285163054
-0.045364555 -0.0070671141 0.039096568 4285294888
-0.043563616 -0.0055431575 0.03723827 4285492003
-0.041582447 -0.0054162592 0.036838017 4285492259
-0.039797042 -0.0038930923 0.034982938 4285361188
-0.03812274 -0.0016726479 0.032403219 4285426723
-0.036567647 0.0012445971 0.029100388 4285492003
-0.034609605 0.0013703629 0.028705068 4285426468
-0.043597069 -0.0078785419 0.036781389 4284967214
-0.041708488 -0.0070510656 0.035654243 4285229864
-0.039825026 -0.0062238127 0.034528147 4285361189
-0.038147662 -0.0039966553 0.031952661 4285426468
-0.036589298 -0.0010704473 0.028655667 4285426469
-0.034628708 -0.00094456226 0.028259795 4285426723
-0.039950941 -0.0078562126 0.033346139 4285230118
-0.038072508 -0.0070270821 0.032222766 4285361189
-0.036405209 -0.004793942 0.029654238 4285426724
-0.034542385 -0.0039655939 0.028534103 4285492769
-0.040174227 -0.0087836534 0.031441703 4285166114
-0.038198259 -0.0086570531 0.03104252 4285164584
-0.03642774 -0.0071216822 0.029200297 4285426468
-0.034456659 -0.006995216 0.028802242 4285492003
-0.034582231 -0.0086205974 0.02762536 4285033769
-0.018491935 -0.012200363 0.012051981 4285492258
-0.01666965 -0.011356428 0.010953628 4285622818
-0.014585089 -0.011948116 0.011264162 4285950239
-0.018488739 -0.014528923 0.011591017 4285099304
-0.016794641 -0.012962572 0.0097909048 4285623839
-0.014977511 -0.012116693 0.008695282 4285688864
-0.018485833 -0.016861655 0.011127103 4285099304
-0.016788844 -0.015290715 0.0093296058 4285427488
-0.015102413 -0.013720386 0.0075343624 4285624348
-0.013154391 -0.013594508 0.0071416255 4285624093
-0.011206236 -0.013468504 0.0067489408 4285492513
-0.0092579536 -0.013342381 0.0063563194 4285491494
-0.0075977631 -0.011773273 0.0045666471 4285819169
-0.018738966 -0.017749079 0.0092597827 4285098538
-0.016913902 -0.016898461 0.0081657004 4285426724
-0.015094031 -0.016048081 0.0070727468 4285492513
-0.013279367 -0.015197918 0.0059809312 4285558048
-0.011608515 -0.013623983 0.0041921847 4285492259
-0.0098069757 -0.012774438 0.0031031817 4285492004
-0.008154586 -0.011201516 0.0013183663 4285491239
-0.0062195882 -0.011076063 0.00092856865 4285490729
-0.018608604 -0.020812459 0.0094916821 4285164073
-0.016908515 -0.019232601 0.0077000428 4285295143
-0.014952887 -0.019106396 0.0073056482 4285492259
-0.013132844 -0.018253721 0.0062143616 4285426979
-0.011456404 -0.016675085 0.0044277869 4285360933
-0.0097905733 -0.015097007 0.0026433729 4285360934
-0.0081353076 -0.013519526 0.00086123217 4285425958
-0.0064906366 -0.011942618 -0.00091869291 4285426469
-0.0048565678 -0.010366254 -0.0026964499 4285426213
-0.003081318 -0.009515807 -0.0037782183 4285492003
-0.0011568628 -0.0093907192 -0.0041656597 4286540309
0.016338188 0.0064573884 -0.022168152 4285426469
0.017649926 0.0087495074 -0.024604155 4285492514
0.019324144 0.0095949396 -0.02566443 4285229864
0.020992996 0.010440174 -0.026723586 4284901168
-0.016903419 -0.021570899 0.0072314516 4285295398
-0.015078139 -0.020715788 0.0061405748 4285426724
-0.013258066 -0.019860931 0.0050508939 4285426468
-0.011581425 -0.018277928 0.0032675266 4285426469
-0.0097744614 -0.017423704 0.0021806452 4285426469
-0.0082599185 -0.015113622 -0.00029262435 4285426469
-0.0063225217 -0.014988028 -0.00068293046 4285492259
-0.0046828873 -0.013406985 -0.002458523 4285492769
-0.0030538663 -0.011826463 -0.0042319233 4285492768
-0.0012811646 -0.010973886 -0.005311477 4285492258
0.00048627332 -0.010121547 -0.0063898833 4285490984
0.016583297 0.0034672767 -0.021910511 4285557794
0.018273611 0.0043158494 -0.02297247 4285558048
0.01995858 0.0051641837 -0.024033275 4285492514
0.021446414 0.006737195 -0.025777008 4285361188
-0.016898636 -0.023913242 0.0067598335 4285032494
-0.015203353 -0.022324868 0.0049757268 4285229864
-0.01351862 -0.020737104 0.0031938776 4285492514
-0.011706401 -0.019880481 0.0021074675 4285426723
-0.0098994002 -0.019024074 0.0010222048 4285426724
-0.0080976598 -0.018167846 -6.1955303e-05 4285426469
-0.0063011348 -0.017311901 -0.0011449493 4285426724
-0.0045098625 -0.016456164 -0.0022267867 4285426978
-0.0028752796 -0.014870964 -0.0039980253 4285623838
-0.0014054291 -0.012556754 -0.0064570783 4285492768
0.00020524114 -0.010972828 -0.0082233669 4285426979
0.0021242239 -0.010847881 -0.0086095547 4284901169
0.016827732 0.00046865642 -0.021659026 4285492259
0.018337205 0.0020472035 -0.023403974 4285558049
0.020024884 0.002897907 -0.024463691 4285558049
0.021515604 0.0044754818 -0.026204761 4285755164
0.023189895 0.0053255372 -0.027261615 4285623329
