# .PCD v0.7 - Point Cloud Data file format
VERSION 0.7
FIELDS x y z rgba
SIZE 4 4 4 4
TYPE F F F U
COUNT 1 1 1 1
WIDTH 975
HEIGHT 1
VIEWPOINT 0 0 0 1 0 0 0
POINTS 975
DATA ascii
-0.0063473545 0.025868108 0.012695038 4283991329
-0.004469879 0.025990834 0.012324561 4283994133
-0.0027468689 0.026800243 0.011234435 4283930639
-0.00071463361 0.02623654 0.011583726 4283927833
0.0016429238 0.024300752 0.013369241 4283928599
0.0041792728 0.021679984 0.015869766 4283925284
0.0062412471 0.021118458 0.016213372 4283858729
-0.060698647 0.019427527 0.023778234 4283721284
-0.059339743 0.024406133 0.018268529 4284120104
-0.05771121 0.0266071 0.015699904 4284055588
-0.056019049 0.028113417 0.013867377 4284056863
-0.054173235 0.028232152 0.013501679 4284124183
-0.052157726 0.026964327 0.014599622 4283927324
-0.04986902 0.023617815 0.017889377 4284123164
-0.047373157 0.018887129 0.022635411 4284317218
-0.0096493103 0.021333069 0.015176208 4284251174
-0.008493159 0.02490293 0.01120529 4284121633
-0.0066185668 0.025025371 0.010835308 4283990053
-0.0045921579 0.024458921 0.011183941 4283925028
-0.002560284 0.023892909 0.011531559 4283924519
-0.00068003312 0.024015961 0.011160645 4283990054
0.0013600551 0.023450637 0.011506756 4284056354
0.0035680458 0.022197464 0.012568378 4283925029
0.0054565705 0.022321293 0.012196013 4283860513
-0.060604844 0.015803833 0.024833541 4283789624
-0.059162948 0.020102005 0.020065937 4284054314
-0.057446744 0.021614134 0.018231828 4284056099
-0.055740964 0.023125613 0.016399879 4284055843
-0.053963747 0.023940859 0.015300733 4284055843
-0.05210707 0.024060292 0.014932883 4284186403
-0.049901213 0.021398451 0.017483741 4284251939
-0.047673684 0.01873808 0.020030361 4284251938
-0.010058921 0.021176133 0.012592108 4284121378
-0.0087612011 0.024065055 0.0093484158 4283927324
-0.0070382431 0.024878619 0.0082614804 4283731484
-0.005017478 0.024309602 0.0086095454 4283601179
-0.0028370172 0.023050005 0.0096730674 4283864084
-0.00064574927 0.021791227 0.010734462 4283925284
0.0012371615 0.021914516 0.010363069 4284055843
0.0032824241 0.021347433 0.01070656 4283924009
-0.058840055 0.014383852 0.023311827 4283923754
-0.057031166 0.015203077 0.022207968 4283924773
-0.055306409 0.016720112 0.020375494 4283924774
-0.053592104 0.018236496 0.018545188 4283990563
-0.051719453 0.018356901 0.01817413 4283923754
-0.049846571 0.018477391 0.017803077 4284055589
-0.047704216 0.016505945 0.019614555 4284054568
-0.045637976 0.015232738 0.020695921 4284187168
-0.011922717 0.018823661 0.012537663 4284445739
-0.010467786 0.021028157 0.010014745 4284122654
-0.0091748238 0.023925452 0.0067786304 4283927069
-0.0074571669 0.024740821 0.0056943828 4283795489
-0.0052906834 0.023475889 0.0067572044 4283666459
-0.0031133555 0.022211706 0.0078179976 4283602708
-0.00092522427 0.020948362 0.0088766785 4283859239
0.00095490366 0.021071456 0.0085058259 4284055588
0.0028351024 0.021194629 0.0081350179 4283925793
-0.058592606 0.0093402825 0.025809284 4283857964
-0.056694094 0.0094620846 0.025432896 4283858219
-0.054795299 0.0095839798 0.025056515 4283989544
-0.052977789 0.010406002 0.023952659 4283990053
-0.051418025 0.013327431 0.020669013 4283989798
-0.049618732 0.014148418 0.019568875 4283989544
-0.047824565 0.014969196 0.018469762 4283924773
-0.045758758 0.013691567 0.019547854 4283989799
-0.043776941 0.013113938 0.01989897 4284184109
-0.041887123 0.013235752 0.019524746 4284314668
-0.03999709 0.013357665 0.01915054 4284445229
-0.012887735 0.021463472 0.0070977556 4284252194
-0.011162195 0.022281332 0.006013466 4284455174
-0.0097335503 0.024490757 0.0035007335 4283859494
-0.0080238618 0.02530776 0.0024197064 4283858473
-0.0060170591 0.024733437 0.0027671726 4283793449
-0.0036970451 0.02276879 0.0045399927 4283729188
-0.0016739666 0.022195702 0.0048843762 4283729953
0.0003545545 0.021623056 0.0052277511 4283793193
0.002226606 0.021745693 0.004858546 4282417979
-0.058566835 0.0063833557 0.026108265 4283857199
-0.056663062 0.0065054335 0.025730792 4283858219
-0.054759007 0.0066276155 0.025353324 4283858219
-0.052854683 0.0067498721 0.024975855 4283858219
-0.051118221 0.0082763322 0.023147766 4283923499
-0.049392212 0.0098022334 0.021321762 4283923498
-0.047587242 0.010625787 0.02022218 4283924009
-0.045787398 0.011449084 0.019123666 4283989033
-0.043897908 0.011570755 0.018749416 4283988778
-0.042008203 0.01169252 0.018375181 4283989544
-0.04021835 0.0125154 0.017278824 4283989034
-0.03843366 0.013338018 0.01618354 4284054569
-0.036654118 0.014160436 0.015089299 4284185129
-0.034771573 0.014282044 0.014716714 4284250663
-0.032778013 0.013703372 0.015064205 4284184363
-0.030892398 0.013825338 0.01469114 4284512548
-0.029122766 0.01464742 0.013599093 4284709154
-0.01529019 0.021913338 0.0041875625 4284706349
-0.013710346 0.023431337 0.0023917407 4284253468
-0.011998128 0.0242505 0.001311739 4284058138
-0.010436825 0.025767496 -0.00048034452 4283927833
-0.0085894689 0.025888065 -0.0008450225 4283861789
-0.0065909773 0.025310958 -0.0004975535 4283927579
-0.0042796545 0.023339251 0.0012719408 4283731738
-0.002264902 0.022763424 0.0016162908 4283859239
-0.00040375814 0.022885235 0.0012491522 4283661868
-0.058614817 0.004122816 0.025675144 4283791409
-0.056784313 0.0049498081 0.024571795 4283857963
-0.054958876 0.0057765059 0.023469556 4283858219
-0.053057332 0.0058985315 0.023092594 4283923499
-0.051155549 0.0060206391 0.022715632 4283924009
-0.049340043 0.0068469159 0.021615528 4283923498
-0.047618885 0.008376874 0.01979382 4283923754
-0.045816284 0.0092024766 0.01869639 4283923498
-0.043924224 0.0093242601 0.018321589 4283923499
-0.041934688 0.0087427534 0.018667836 4283924008
-0.04033928 0.010974538 0.016131029 4284054824
-0.038554508 0.011799287 0.015037357 4283923754
-0.036880169 0.013326705 0.013225286 4284054824
-0.034892458 0.012745392 0.013572129 4284054314
-0.033009809 0.012867052 0.013199559 4284054569
-0.031126972 0.012988798 0.012827008 4284054569
-0.029475939 0.014514994 0.011019844 4283989288
-0.027598102 0.01463658 0.010648406 4283987758
-0.025720078 0.014758267 0.010276998 4284249389
-0.023717847 0.014178388 0.010621346 4284444718
-0.021963526 0.015001908 0.0095342649 4284640304
-0.015822951 0.022498261 0.00091831759 4284251683
-0.013970692 0.022618856 0.00055244751 4284121378
-0.012403894 0.024140466 -0.0012374655 4284121379
-0.010556746 0.02426091 -0.0016021882 4283992858
-0.0088576525 0.02508154 -0.002677822 4283927579
-0.0068621412 0.024502076 -0.0023314948 4283927834
-0.0047076344 0.023223296 -0.0012762174 4283991074
-0.0025423318 0.021945348 -0.00022305176 4283793193
-0.0010017455 0.02346573 -0.0020073452 4282353209
-0.058663066 0.0018581972 0.025238886 4283922224
-0.056905482 0.0033944286 0.023412965 4284054314
-0.055158328 0.0049300157 0.021589212 4283989034
-0.053259548 0.0050517954 0.021212745 4283989033
-0.051276822 0.0044672601 0.021558356 4283989033
-0.049374875 0.0045894049 0.021181382 4283923499
-0.047561731 0.0054177232 0.02008342 4283923498
-0.045937169 0.0076576583 0.017545562 4283923753
-0.0439508 0.0070736408 0.017890673 4283923499
-0.042055953 0.0071956441 0.017515346 4283858219
-0.040260602 0.0080231316 0.01642115 4283924008
-0.038367968 0.0081451498 0.016046382 4283924009
-0.036685351 0.0096773542 0.014236004 4283989033
-0.034689877 0.0090943389 0.014579625 4284054824
-0.032909777 0.0099211596 0.01348869 4284054824
-0.031134833 0.010747738 0.012398846 4284055079
-0.029480893 0.012278475 0.010594356 4284054823
-0.027718972 0.013104372 0.0095072119 4284054824
-0.02571987 0.012522005 0.009850434 4284054824
-0.02383912 0.012643918 0.0094785234 4284120868
-0.021958191 0.012765922 0.0091066407 4284054823
-0.020335544 0.014295012 0.0073087132 4284119848
-0.018987272 0.017230164 0.004087857 4283988268
-0.017391156 0.018757738 0.0022952473 4284055078
-0.015668344 0.019581717 0.0012163064 4284120104
-0.013670873 0.018999837 0.0015603052 4284120868
-0.011953171 0.019823652 0.00048250239 4284119849
-0.010386012 0.021349654 -0.0013040677 4284055333
-0.0088294856 0.022875095 -0.0030885134 4283990308
-0.0068315603 0.022293566 -0.0027442835 4283924773
-0.0048281886 0.021712516 -0.0024011107 4283924773
-0.0029753968 0.021833654 -0.0027666949 4283727659
-0.0017573684 0.024761204 -0.0059611602 4281300058
-0.058784384 0.00029874966 0.024076987 4283791408
-0.057026546 0.0018392764 0.022254288 4284054314
-0.055200968 0.0026702173 0.021155253 4284251174
-0.053218756 0.0020833351 0.021499202 4284251173
-0.051314484 0.0022054948 0.021121666 4284185894
-0.049496155 0.0030362047 0.020024251 4284054824
-0.047682945 0.0038666502 0.018927898 4283923753
-0.045966405 0.0054049902 0.017113741 4283924008
-0.044071894 0.0055268295 0.016738374 4283923754
-0.042080197 0.0049409829 0.017080843 4283858474
-0.040282134 0.0057708025 0.015987683 4283923753
-0.038489189 0.0066003539 0.014895658 4283923498
-0.036701385 0.0074296482 0.013804709 4283923753
-0.034703504 0.0068445764 0.014146163 4283924008
-0.032810371 0.0069668181 0.013771444 4283989544
-0.031029996 0.0077958815 0.012682159 4284054568
-0.029486123 0.010037825 0.010165784 4284055079
-0.027603131 0.010159679 0.0097932732 4284054568
-0.025719967 0.010281615 0.0094207888 4284055078
-0.023589227 0.0089915842 0.010473344 4284054568
-0.021953132 0.0105258 0.0086759282 4284054568
-0.020198528 0.011353716 0.0075921332 4284054314
-0.018712584 0.013592385 0.0050876662 4283988523
-0.016973775 0.014419496 0.0040070852 4283989033
-0.015377257 0.015951477 0.0022178283 4284054823
-0.013232272 0.014662925 0.0032679113 4284121634
-0.01150379 0.015489593 0.0021896223 4284122143
-0.0099256709 0.017020632 0.00040419586 4284122398
-0.0083581768 0.018551119 -0.0013791081 4284123419
-0.0065003261 0.018672384 -0.0017458471 4283925793
-0.0046423674 0.018793762 -0.0021125255 4283990563
-0.0030960254 0.020323098 -0.0038914019 4283463988
-0.05890562 -0.0012604482 0.022915255 4284445228
-0.057072189 -0.0004269667 0.021816224 4284446504
-0.055165853 -0.00030487403 0.021438122 4284447523
-0.053178567 -0.00089366361 0.021779355 4284447523
-0.051269028 -0.00077121705 0.021400742 4284317219
-0.049445283 6.1955303e-05 0.020303868 4284054823
-0.047804091 0.002315823 0.017772544 4284054314
-0.045995917 0.0031481534 0.016678877 4284120869
-0.044004742 0.0025600083 0.017019644 4283989544
-0.042007986 0.0019722991 0.017359361 4283989033
-0.040105078 0.0020948015 0.016982421 4284054823
-0.038201947 0.0022174083 0.016605511 4284054824
-0.036508147 0.0037589408 0.014799495 4283989033
-0.034609955 0.0038813911 0.014423684 4283989798
-0.032931831 0.005422134 0.012620862 4284055333
-0.031038586 0.0055444427 0.012246166 4284055333
-0.029260661 0.0063755661 0.011159056 4284120869
-0.027369726 0.0064978935 0.010784947 4284120614
-0.02547865 0.0066203177 0.010410876 4284055334
-0.023463864 0.0060346387 0.010747689 4284055333
-0.021822158 0.0075735077 0.0089525199 4284054824
-0.02006213 0.0084039159 0.0078692874 4284055079
-0.018438872 0.0099418089 0.0060778577 4283989544
-0.016691957 0.01077155 0.0049973633 4283924008
-0.014813345 0.010893695 0.0046261614 4283990054
-0.012934614 0.011015952 0.0042550145 4283989799
-0.011198018 0.011845287 0.0031767618 4283990308
-0.0094666667 0.01267438 0.0020996174 4283990053
-0.0078882203 0.014209904 0.00031745806 4284056099
-0.0060197562 0.014331862 -5.1381066e-05 4283925028
-0.0044571795 0.015866492 -0.0018302188 4283924518
-0.0030609369 0.018106677 -0.0043114289 4283136314
-0.045843262 -0.00053767487 0.017672058 4284578338
-0.043844324 -0.0011275932 0.018009629 4284447523
-0.041839805 -0.0017170049 0.018346127 4284186149
-0.040127467 -0.00017009303 0.016539562 4284120359
-0.038323689 0.00066440925 0.015448642 4284120614
-0.036734264 0.0029219128 0.012932898 4284055334
-0.034838859 0.0030441396 0.012557608 4283925029
-0.033053208 0.0038777366 0.011470473 4284121123
-0.031160083 0.0039999858 0.011095767 4284055334
-0.029266786 0.0041223392 0.010721092 4284120614
-0.027255315 0.0035340562 0.011056731 4284120614
-0.025479633 0.0043673515 0.0099718394 4284055078
-0.023462463 0.0037796237 0.010306495 4284055333
-0.021691825 0.0046127774 0.0092227394 4283990053
-0.01992638 0.0054456741 0.008140075 4283989798
-0.018428918 0.0076981261 0.0056432085 4283990053
-0.016545203 0.007820487 0.0052709104 4283858728
-0.014798086 0.0086524785 0.0041920859 4283858728
-0.012777358 0.0080655292 0.0045264577 4283989799
-0.011035349 0.0088973716 0.0034487806 4283989799
-0.0091538019 0.0090199709 0.0030771978 4284055078
-0.007419616 0.0098514892 0.002001211 4284055334
-0.005690679 0.010682765 0.00092633348 4283924008
-0.0041198432 0.012222309 -0.000850874 4283924263
-0.0025596321 0.013761211 -0.0026258635 4283726129
-0.040051062 -0.0031532943 0.016806018 4284578084
-0.038343612 -0.0016023107 0.015003779 4284382498
-0.036646675 -5.19678e-05 0.013203721 4284513569
-0.034853127 0.00078418478 0.012116588 4284121378
-0.032954957 0.00090664625 0.01174079 4284448289
-0.031169068 0.001742512 0.010655263 4284315943
-0.029158045 0.001151856 0.010989278 4284185128
-0.027259309 0.0012746193 0.010613571 4283988268
-0.025480907 0.0021102875 0.0095297424 4284054568
-0.023584526 0.0022330657 0.0091546299 4284120359
-0.021813821 0.0030683726 0.008072502 4283990308
-0.020048324 0.0039034188 0.0069914674 4284186914
-0.018288035 0.0047382265 0.0059115356 4283990053
-0.016532961 0.0055727921 0.0048327092 4283924774
-0.014509965 0.0049836971 0.0051648812 4283858983
-0.012620743 0.0051065832 0.0047916221 4283989798
-0.01073138 0.00522957 0.0044184066 4283924263
-0.008986529 0.0060638413 0.0033418797 4283989799
-0.0072469339 0.0068979114 0.0022664284 4284055079
-0.0056625493 0.0084425397 0.0004898347 4283989034
-0.003783498 0.0085652359 0.00011894666 4283924009
-0.0020596907 0.0093985237 -0.00095312484 4283726638
-0.028819997 -0.0032576472 0.012666269 4284574259
-0.027028326 -0.0024190843 0.011581366 4284247859
-0.025241826 -0.0015807971 0.010497612 4284052528
-0.023337517 -0.0014575273 0.010120918 4284119849
-0.021558721 -0.00061956793 0.0090388181 4284120614
-0.019656766 -0.00049626455 0.0086627332 4284055333
-0.018016759 0.0010556728 0.0068778927 4284121124
-0.016387302 0.0026069731 0.0050952509 4284056099
-0.014632035 0.0034437887 0.0040181 4283858983
-0.012603853 0.0028529242 0.0043476354 4283923753
-0.010853689 0.0036896057 0.0032716403 4283989033
-0.0088199191 0.0030993 0.0036002183 4283989033
-0.0072220117 0.0046490356 0.0018241843 4284054824
-0.0054849312 0.0054851919 0.00075095147 4283923753
-0.0037531219 0.0063210651 -0.00032112375 4283858729
-0.0020265691 0.0071566924 -0.0013920846 4283530543
-0.019522931 -0.0034799054 0.0089145722 4284250154
-0.01610874 -0.0010836124 0.0060537448 4284313649
-0.014209155 -0.00096019357 0.0056783315 4284446249
-0.012448363 -0.00012072176 0.0046017626 4284249643
-0.010551214 2.7269125e-06 0.004226977 4284118574
-0.0087982044 0.00084184855 0.0031521386 4284053803
-0.007197395 0.0023960955 0.001378837 4284055079
-0.0054575801 0.0032345392 0.00030675158 4283990308
-0.0037230365 0.0040727854 -0.00076426007 4283923753
-0.0019937642 0.0049107522 -0.0018341136 4283530799
-0.0083445311 -0.0035729483 0.0047964891 4284314669
-0.0068795532 -0.0012960657 0.0023263358 4284184108
-0.0052810982 0.00026245415 0.00055687968 4284055843
-0.0035411343 0.0011031739 -0.00051350426 4284054823
-0.001961261 0.0026607215 -0.0022791843 4283659829
-0.0046574362 -0.0048768446 0.0028881328 4284708643
-0.0029040314 -0.0040330924 0.0018167431 4284380969
-0.04389051 -0.020873435 0.015756093 4282287418
-0.042147133 -0.019290194 0.01396962 4282744379
-0.040316332 -0.018437006 0.012886307 4283855669
-0.038490701 -0.017584048 0.011804086 4284378164
-0.043828603 -0.023913912 0.015982289 4281956173
-0.042174686 -0.021594301 0.013498141 4281568064
-0.040341172 -0.020738743 0.012415889 4282157879
-0.038613204 -0.019152068 0.010635926 4282158643
-0.036689583 -0.019028448 0.010254723 4282747438
-0.034871507 -0.018173642 0.0091757877 4283793194
-0.032841783 -0.01878088 0.0094924225 4284381224
-0.0308065 -0.019387655 0.0098080477 4284575023
-0.043951694 -0.025494605 0.014804586 4281890639
-0.042297382 -0.023168497 0.012325306 4281436738
-0.040463824 -0.022310816 0.011244667 4281634364
-0.038635407 -0.021453403 0.010165165 4281634874
-0.036709238 -0.021329664 0.009783431 4281700919
-0.034782875 -0.021205783 0.0094017414 4281961529
-0.032856334 -0.02108182 0.0090200743 4282027064
-0.031040516 -0.020224825 0.0079433685 4282417723
-0.02900267 -0.02083353 0.0082568815 4281764669
-0.026959304 -0.021441787 0.0085693663 4282090558
-0.025148321 -0.020584807 0.0074938508 4282221373
-0.023342531 -0.019728042 0.0064194482 4283073329
-0.021541934 -0.018871523 0.0053461399 4283790643
-0.043982696 -0.027811304 0.014324264 4282152778
-0.042325322 -0.025478534 0.011849319 4281698114
-0.040586401 -0.023882575 0.01007367 4281371713
-0.038757924 -0.023023024 0.0089957891 4281371968
-0.036729176 -0.023634933 0.0093090972 4281437248
-0.034694862 -0.024246402 0.0096214404 4281437759
-0.032871161 -0.023386821 0.0085446863 4281438014
-0.031163383 -0.021792434 0.0067756157 4281437759
-0.029239263 -0.021668442 0.0063945726 4281371969
-0.027314987 -0.021544345 0.0060135685 4281568064
-0.025390524 -0.021420129 0.005632611 4281567553
-0.023708809 -0.019826949 0.0038689803 4282157114
-0.021913532 -0.018968619 0.0027983747 4282157114
-0.01986983 -0.019578636 0.0031094346 4282221119
-0.017950121 -0.0194543 0.0027297437 4282808893
-0.015633781 -0.021531031 0.0044178087 4284378674
-0.04392213 -0.030870594 0.014536482 4282219588
-0.042353544 -0.02779264 0.011370291 4281828928
-0.040514518 -0.026930369 0.010291873 4281502018
-0.038680654 -0.026068337 0.0092145586 4281501764
-0.036749389 -0.02594433 0.0088317627 4281305668
-0.034817923 -0.025820203 0.008449004 4281110594
-0.032886278 -0.025695957 0.0080662938 4281110848
-0.031175602 -0.024097025 0.0062998999 4281307454
-0.029362198 -0.023235805 0.00522702 4281307454
-0.027438033 -0.023111723 0.0048460308 4281242173
-0.025513712 -0.022987552 0.0044650789 4281568829
-0.0237105 -0.022126667 0.0033944603 4281568064
-0.021912511 -0.021265984 0.0023249071 4281568828
-0.019993078 -0.021141797 0.0019451734 4281568064
-0.018202815 -0.020281442 0.00087735616 4282156604
0.049366206 0.0012964979 -0.028841548 4284639284
-0.043862153 -0.033938281 0.014742357 4282350659
-0.042382013 -0.030110814 0.010888212 4281763904
-0.040443253 -0.029986553 0.010503751 4281502018
-0.038603995 -0.029122047 0.0094269933 4281305923
-0.036667515 -0.028997734 0.0090431338 4281371204
-0.034835879 -0.028133489 0.0079680579 4281306944
-0.033009406 -0.02726949 0.0068940697 4281112124
-0.031188119 -0.026405677 0.0058211479 4281242173
-0.029371995 -0.025542147 0.0047493652 4281242429
-0.02744529 -0.025417946 0.0043678414 4281242429
-0.025518421 -0.025293626 0.0039863717 4281307453
-0.023712497 -0.024430417 0.0029168576 4281307453
-0.022035565 -0.022828832 0.0011608396 4281633854
-0.020116273 -0.022704668 0.00078111514 4281698879
-0.018325973 -0.021842167 -0.00028506666 4281960508
-0.04175147 -0.037631758 0.015245573 4282024513
-0.039985161 -0.036021151 0.013474352 4281632323
-0.038229343 -0.034411155 0.011705325 4281370949
-0.036484037 -0.032801725 0.0099384608 4281567043
-0.034749229 -0.031192809 0.0081737274 4281371968
-0.033024933 -0.029584534 0.006411179 4281307453
-0.031090673 -0.02946008 0.0060279844 4281242428
-0.029269155 -0.028594054 0.0049567716 4281242939
-0.02745283 -0.0277282 0.0038866373 4281177148
-0.025641669 -0.026862629 0.0028176457 4281242428
-0.023835722 -0.025997289 0.0017497577 4281372734
-0.021911342 -0.025872931 0.001368925 4281568573
-0.01986054 -0.026489064 0.001673555 4281634108
-0.018062171 -0.025623895 0.00060741603 4282026043
-0.016137365 -0.025499173 0.0002267547 4282810678
-0.037260134 -0.044188783 0.018102191 4282871879
-0.035791319 -0.040340118 0.014267041 4282285124
-0.034349043 -0.036493063 0.010437231 4281958468
-0.032825936 -0.033391602 0.0073002474 4281959998
-0.03099386 -0.032522865 0.0062285 4281632578
-0.029166956 -0.03165435 0.0051578591 4281502528
-0.027345229 -0.03078606 0.0040883226 4281307454
-0.025528688 -0.029917978 0.0030199094 4281242429
-0.023717348 -0.029050104 0.0019525578 4281371713
-0.021787766 -0.028925441 0.0015706709 4281371968
-0.019858021 -0.028800644 0.0011888547 4281372478
-0.017928142 -0.028675742 0.00080707762 4281831479
-0.016129617 -0.027808301 -0.00025736261 4283202104
0.015587762 -0.021230556 -0.01076944 4284182579
0.017320711 -0.020365305 -0.011819344 4283460673
-0.032091822 -0.040942319 0.01160925 4282870603
-0.030677889 -0.037086062 0.0077934759 4282282829
-0.029177945 -0.033977225 0.0046678642 4281172048
-0.027353514 -0.033106618 0.0035994267 4281109063
-0.025652196 -0.031490773 0.0018483484 4281240134
-0.023720201 -0.031366073 0.0014659008 4281305669
-0.021788079 -0.031241275 0.0010834904 4281370949
-0.019855801 -0.031116344 0.00070115086 4281240389
-0.017923389 -0.030991293 0.00031886343 4281765944
-0.016122136 -0.030121475 -0.00074450951 4283660083
0.015285708 -0.022044756 -0.012599733 4283334448
0.017015997 -0.021177471 -0.013647502 4282090813
0.01874095 -0.020310476 -0.014694093 4281764159
0.02027569 -0.018702611 -0.016410077 4282156094
0.022362335 -0.019318096 -0.016113816 4281960764
0.024264112 -0.01919239 -0.016488021 4281895484
0.026165878 -0.019066542 -0.016862126 4282155328
0.027285317 -0.015978977 -0.0199099 4282941239
-0.017918941 -0.03331086 -0.00017242227 4281434189
-0.016114976 -0.032438762 -0.0012346478 4283656003
0.013077065 -0.022979714 -0.014050921 4284510764
0.015160676 -0.023598105 -0.013756055 4282420273
0.016890995 -0.022728652 -0.014802171 4281307708
0.018797982 -0.022602946 -0.015177665 4281503549
0.020335613 -0.020990558 -0.016890908 4281699389
0.022049885 -0.02012185 -0.017933553 4281242428
0.02375879 -0.019253351 -0.0189751 4281503803
0.025655054 -0.019127861 -0.019348109 4281633854
0.027160505 -0.017517127 -0.021054661 4281634618
0.029051369 -0.017391764 -0.021426437 4281897014
0.030741449 -0.016524084 -0.022463871 4283464754
0.03242613 -0.01565665 -0.023500174 4284315433
0.012952384 -0.024530575 -0.015205426 4283531308
0.015212145 -0.025897138 -0.014243267 4281961019
0.017124331 -0.025771193 -0.014619876 4281242173
0.0188547 -0.024899513 -0.01566422 4281307708
0.020395199 -0.023282543 -0.017374752 4281307708
0.021924999 -0.021666221 -0.019083051 4281438524
0.023823809 -0.021540686 -0.019456653 4281503549
0.025722604 -0.02141504 -0.019830173 4281373244
0.027621385 -0.021289274 -0.020203596 4281503803
0.029520134 -0.021163382 -0.020576915 4281570359
0.03121827 -0.02029296 -0.021614322 4282091834
0.032911018 -0.019422799 -0.022650538 4281765178
0.034598373 -0.018552892 -0.023685606 4282418488
0.036280319 -0.017683215 -0.02471951 4281698368
0.038379427 -0.018301152 -0.024428204 4282157624
0.041339699 -0.021892674 -0.021491786 4282484533
0.044543322 -0.026225612 -0.01789953 4282940218
0.047121041 -0.028326884 -0.016294859 4283329349
0.013348594 -0.028326191 -0.014356304 4283204909
0.015439589 -0.028948382 -0.014066242 4281569083
0.017178005 -0.028074123 -0.015110612 4281437758
0.018729426 -0.026452266 -0.016820025 4281176638
0.02027013 -0.02483096 -0.01852729 4281111613
0.021800134 -0.023210295 -0.020232322 4281242428
0.023888486 -0.023832053 -0.019941276 4281372734
0.025982175 -0.024453335 -0.019651191 4281307453
0.027886163 -0.024327219 -0.020025631 4281438268
0.029790128 -0.024200968 -0.020399971 4281568573
0.03149366 -0.023328058 -0.021436734 4281306943
0.0331918 -0.022455372 -0.02247235 4281568319
0.034473017 -0.020090453 -0.024829775 4281306943
0.03657186 -0.020710677 -0.024540149 4281306688
0.038887128 -0.022076346 -0.023591047 4281371968
0.042495761 -0.027915262 -0.018684607 4281633854
0.013223443 -0.02988299 -0.015515235 4283008559
0.015490234 -0.031257696 -0.014561119 4281503549
0.017231353 -0.030381091 -0.015604363 4281307708
0.018785654 -0.028754719 -0.017311037 4281111104
0.020329241 -0.02712889 -0.019015552 4281176384
0.022048956 -0.026253328 -0.020054301 4281241664
0.02414234 -0.026876919 -0.019765908 4281372733
0.025856685 -0.026001483 -0.020803424 4281307453
0.027760524 -0.025875367 -0.021177826 4281568573
0.029466797 -0.025000207 -0.022213558 4281307453
0.031367905 -0.024874054 -0.02258726 4281241919
0.033066072 -0.023999177 -0.023621207 4281046079
0.034964424 -0.023872949 -0.023994165 4281176128
0.036862724 -0.023746617 -0.024367033 4281241409
0.039182827 -0.025116228 -0.02342221 4281306688
0.043222476 -0.032467976 -0.017213184 4281305668
0.013271585 -0.032192156 -0.016009372 4281103198
0.015540559 -0.033571109 -0.015058969 4280843099
0.017284375 -0.032692119 -0.016101133 4280585548
0.018841552 -0.031061225 -0.017805062 4280651083
0.020572009 -0.030182913 -0.018844366 4280782408
0.022483764 -0.030056641 -0.019220605 4280978759
0.024584854 -0.030681871 -0.018935371 4281109063
0.026115248 -0.029052265 -0.02063366 4281372734
0.027634906 -0.02742321 -0.0223298 4281177148
0.029341204 -0.026545875 -0.023363875 4281307708
0.031242166 -0.026419707 -0.023737526 4281111613
0.033345811 -0.027044185 -0.023452343 4281111359
0.035249364 -0.026917592 -0.023826314 4281111614
0.037152871 -0.026790902 -0.024200199 4280980033
0.039267078 -0.0274143 -0.023916803 4280980799
0.043947779 -0.037037782 -0.015754482 4280915263
0.020446477 -0.031736977 -0.020001106 4280584784
0.022358088 -0.03161069 -0.020377308 4280649808
0.024648005 -0.032991931 -0.019433904 4280715089
0.026373114 -0.032111444 -0.020470213 4281240898
0.028092854 -0.031231172 -0.021505378 4281241919
0.029807212 -0.030351132 -0.022539377 4281438524
0.031516179 -0.029471293 -0.023572277 4281373498
0.033422302 -0.029344663 -0.023946855 4281111613
0.035123169 -0.028465152 -0.024977919 4281111359
0.037234426 -0.02909103 -0.024695691 4280980288
0.039350998 -0.029716484 -0.024414368 4281176639
0.043818653 -0.03861583 -0.016928671 4281045568
0.032045312 -0.040968306 -0.01581529 4282216273
0.033387057 -0.03857366 -0.018164882 4281892934
0.03491506 -0.036934994 -0.019855734 4281696583
0.03602222 -0.033787079 -0.022854351 4281501510
0.037523374 -0.032150008 -0.024539709 4281371459
0.039644957 -0.032777242 -0.024261061 4281305159
0.044328768 -0.042456761 -0.016142352 4281239878
0.038968205 -0.046701558 -0.014213031 4282739533
0.040094629 -0.043543614 -0.017208667 4282154819
0.042040464 -0.043413952 -0.017590752 4281958979
0.013578359 0.019144479 0.023151882 4278997408
0.015988328 0.024842469 0.016649332 4278399433
0.010164574 0.022917649 0.016618315 4279128733
0.011196584 0.026458448 0.012655883 4279060649
0.014790233 0.027389428 0.011196087 4278273209
0.020215834 0.021495141 0.016893651 4279320749
0.020628111 0.027079418 0.010798191 4280828308
0.0078047104 0.022614568 0.014404866 4279392914
0.0091868229 0.024795638 0.011881969 4278472874
0.010552902 0.026975699 0.0093623446 4278929324
0.012078937 0.028469624 0.0075613512 4279782298
0.014309149 0.027222756 0.0086222989 4279847833
0.016912907 0.024606986 0.011109973 4279058863
0.018617729 0.025416134 0.01002407 4279385263
0.0070095435 0.023821095 0.010392847 4279457428
0.0082108639 0.026695749 0.0071620895 4278733229
0.011604395 0.028316678 0.0049964339 4278268109
0.017022481 0.029372351 0.0031807823 4280434588
0.0048382692 0.022851633 0.008906127 4279719824
0.0063834563 0.02435522 0.0071078567 4278865829
0.0075773224 0.027238075 0.0038852096 4278536624
0.014854271 0.028417837 0.0017046472 4279189168
0.01598125 0.03129667 -0.0015044557 4281219734
0.0042210557 0.023395337 0.005626183 4279391639
0.0055909827 0.025595045 0.0031206217 4278799784
0.0067747235 0.028485943 -9.3374401e-05 4278273974
0.0082826875 0.029991638 -0.0018809047 4278601903
0.010657489 0.028037807 -0.0001133671 4278995114
0.013048422 0.026085135 0.0016510654 4278535348
0.014731985 0.026899317 0.00057426747 4279190444
0.015676007 0.030478181 -0.0033373144 4281219479
0.0036049411 0.023952374 0.0023562368 4278931109
0.010185137 0.027911838 -0.0026582084 4278990779
0.012926091 0.024564691 0.00051922631 4279256489
0.014790427 0.024687413 0.00015199557 4279059628
0.01610465 0.026890544 -0.0023372509 4282592654
0.055586472 0.016809061 0.0032826038 4281548938
0.05701587 0.018315975 0.0015154351 4279388323
0.05771533 0.021891285 -0.0023383861 4278994859
0.061238937 0.022832757 -0.0037728408 4278796469
0.0012957156 0.023704162 0.00017212331 4279261334
0.0040103532 0.02812794 -0.0048142173 4278601394
0.0055133998 0.029641865 -0.0065941643 4278862768
0.0073507093 0.029762549 -0.0069562695 4279320494
0.010063816 0.026402591 -0.003781741 4278401219
0.012981612 0.022348531 9.4346702e-05 4279190954
0.015209544 0.021079846 0.0011391053 4278928813
0.052883551 0.02287076 -0.0055256588 4281025423
0.054283723 0.024380099 -0.0072837467 4278929324
0.055433519 0.026580652 -0.0097343009 4278337978
0.05656711 0.028780177 -0.012181557 4279717018
0.05890885 0.027521148 -0.011157564 4279126184
0.062498972 0.022806156 -0.0066701313 4278599863
0.00036661327 0.025684744 -0.0044978377 4278931619
0.0048843622 0.030239897 -0.0098296581 4279258274
0.0067135096 0.03036003 -0.010190166 4279585184
0.0092426129 0.027686939 -0.0077278418 4278271169
0.015086625 0.019553326 2.7669594e-06 4279714979
0.049959246 0.023995448 -0.0090737157 4282531199
0.051354423 0.025508741 -0.010827547 4278733993
0.055958938 0.02865695 -0.014690794 4278793153
0.058050185 0.028086847 -0.01436091 4278404279
0.061136141 0.024743129 -0.011266169 4278274229
0.065499038 0.017934531 -0.0047219456 4278273973
-0.00056070462 0.02768746 -0.0091513246 4278407339
0.011671819 0.023506554 -0.0063928505 4278992819
0.014603402 0.019427378 -0.0025393711 4280566169
0.048910327 0.025262993 -0.012976345 4281287818
0.05029504 0.026779963 -0.014724778 4278668458
0.052141875 0.026903404 -0.015087131 4278603179
0.053988583 0.027026927 -0.015449392 4278339763
0.057681598 0.027274204 -0.016173633 4278665653
0.060269479 0.025310813 -0.014466098 4278471089
0.065372065 0.016393218 -0.0058685862 4278537133
-0.00084138289 0.026897913 -0.010968061 4278669478
0.00049569458 0.029127995 -0.01344236 4278930853
0.0023164786 0.029247386 -0.013801365 4278668204
0.0039680563 0.030069927 -0.014863791 4278536368
0.0057862587 0.030189337 -0.015222143 4278667438
0.0079537518 0.028903442 -0.014175592 4278797488
0.011018544 0.024105653 -0.0096215364 4278928813
0.013940908 0.020012815 -0.0057762181 4281875593
0.048786584 0.023752365 -0.014100336 4280371348
0.050171547 0.025273722 -0.015845476 4278471599
0.051781986 0.026095798 -0.016898081 4278865065
0.05338693 0.026917594 -0.017949542 4278733739
0.055469699 0.026342608 -0.017621368 4278930344
0.057557687 0.025768068 -0.017294148 4278603179
0.060391948 0.023100238 -0.014903263 4278668458
0.06574446 0.013456739 -0.00563969 4278472363
-0.0018390529 0.021051839 -0.0074933805 4280114818
-0.00047749281 0.023289904 -0.0099675544 4278735014
0.0011954829 0.024115877 -0.011032724 4278931109
0.0026967563 0.025646962 -0.012799116 4279324319
0.0043564439 0.026472196 -0.013861488 4279192994
0.0060108006 0.027297223 -0.014922773 4279454879
0.0083576478 0.025302354 -0.01317969 4278865065
0.010897744 0.022603961 -0.010739421 4278798509
0.01363913 0.019202527 -0.0076035876 4281875338
0.048201304 0.02364433 -0.016603619 4279781279
0.049581174 0.025169684 -0.018344369 4278602669
0.061254553 0.018785276 -0.013283731 4278537644
-0.0011682585 0.016007677 -0.0051010656 4280049538
0.00052884594 0.016837254 -0.0061693713 4278603943
0.0020571053 0.018374342 -0.0079378486 4278407083
0.0035746954 0.019910887 -0.009704181 4278341294
0.0089347847 0.020981368 -0.01149417 4278340529
0.011130869 0.019688744 -0.010459835 4278537134
0.013517354 0.017690152 -0.0087293964 4280894864
0.04600326 0.022718769 -0.018050171 4281812608
0.047616746 0.02354526 -0.019100152 4278733228
0.048991501 0.025074648 -0.020836556 4278601394
0.050119475 0.027306423 -0.023257852 4278273208
0.051947102 0.027428759 -0.023616303 4278273208
0.062115695 0.014453094 -0.011676995 4278533308
-0.000499174 0.010941915 -0.0027248384 4279720588
0.0012113899 0.011774536 -0.0037941448 4278801059
0.0027532838 0.013316859 -0.0055619935 4278669734
0.0044505633 0.014148839 -0.0066285781 4278735013
0.0061425455 0.014980525 -0.0076940018 4278734759
0.0078292042 0.015811965 -0.0087583018 4278734503
0.0096846409 0.015933894 -0.00912394 4278668969
0.011186555 0.01747407 -0.01088354 4278668969
0.013216149 0.016886946 -0.010551494 4278733993
0.014886837 0.017717712 -0.011612359 4278930853
0.016921822 0.017131127 -0.011281233 4279717274
0.018774671 0.01725338 -0.011645983 4279978648
0.021007888 0.015959322 -0.010621922 4280502419
0.02325183 0.014666039 -0.0095998477 4282925429
0.045196984 0.023332551 -0.021229718 4281353609
0.046572089 0.024866274 -0.022962973 4278929579
0.049054056 0.028636953 -0.027108263 4278930854
0.051109292 0.02805361 -0.02677967 4278931618
0.05389313 0.025356241 -0.024398893 4278733738
0.057673469 0.019841846 -0.019286806 4278733738
0.062235944 0.012217067 -0.012133068 4278864808
-0.00030530244 0.0079920627 -0.0024619373 4279851148
0.00092911348 0.010964185 -0.0056263842 4278669988
0.0026317611 0.011798549 -0.0066924002 4278997409
0.0043290891 0.012632698 -0.0077573443 4278603943
0.006358251 0.012042928 -0.0074271364 4278866083
0.0080503225 0.012876928 -0.0084908912 4278800293
0.0099110007 0.012999192 -0.008857565 4278668968
0.011595111 0.013832822 -0.0099195587 4278800039
0.0130946 0.015377287 -0.011675285 4278537899
0.01494731 0.015499324 -0.012040166 4278734758
0.016615391 0.016332194 -0.013098776 4278865829
0.018465439 0.016454261 -0.013462972 4278931364
0.020505492 0.015866037 -0.013134355 4279389089
0.0225509 0.015278265 -0.012806717 4279782298
0.024406282 0.015400968 -0.013171747 4279782809
0.026459696 0.01481393 -0.012845526 4280502928
0.028317709 0.014937006 -0.013210922 4280830093
0.044619299 0.023251858 -0.023713985 4280305049
0.04621952 0.024081865 -0.024758 4278733229
0.048461229 0.028570494 -0.029577829 4278599098
-0.00058508664 0.0071778148 -0.004297771 4279653269
0.00064723566 0.010158487 -0.0074551664 4278997153
0.0023472384 0.010994874 -0.00851906 4278866083
0.0042076521 0.011116825 -0.0088859098 4278800548
0.0065732785 0.0090968981 -0.0071666241 4278603689
0.0082707778 0.0099333785 -0.0082297483 4278734758
0.010136694 0.010055982 -0.0085974578 4278800293
0.011649784 0.011605628 -0.01035266 4278538154
0.01333129 0.012441359 -0.011412406 4278669223
0.015189238 0.012563735 -0.011778325 4278669223
0.016862739 0.013399146 -0.012836332 4278603689
0.018530874 0.014234286 -0.013893217 4278603689
0.020383481 0.014356617 -0.014257848 4278603434
0.022043567 0.015191425 -0.015312999 4278800039
0.024283852 0.013889357 -0.014296811 4278735268
0.026139095 0.014012162 -0.014661729 4278537899
0.027994307 0.014135063 -0.015026566 4278668968
0.029443011 0.015681408 -0.016768295 4278996898
0.030880935 0.017227188 -0.018507868 4278996898
0.032516699 0.018060975 -0.019557785 4279389853
0.034358315 0.018183373 -0.019919645 4279651994
0.035985921 0.019016817 -0.020967804 4280830094
0.038258009 0.017717652 -0.019957267 4281025679
0.04221727 0.02305826 -0.025833327 4281811844
0.044042338 0.023180133 -0.026191499 4279651228
0.045407213 0.024721907 -0.027916066 4278537134
0.046295818 0.027682479 -0.031003829 4278274484
0.052202985 0.026627492 -0.030705493 4278406318
0.055964153 0.0210771 -0.025616176 4278733994
-0.0005495064 0.0049344935 -0.0047384794 4279325849
0.00052590296 0.008640755 -0.0085851802 4278866084
0.0022259504 0.0094792992 -0.0096474374 4278734758
0.0042517856 0.0088848509 -0.0093199844 4278800293
0.0066194274 0.0068585798 -0.0076061217 4278603689
0.0084905513 0.0069814175 -0.0079749394 4278800293
0.010361701 0.007104367 -0.0083436863 4278996643
0.012056641 0.0079430416 -0.0094044982 4278865574
0.01356731 0.0094969273 -0.011155786 4278734758
0.015430503 0.0096196532 -0.011522729 4278734758
0.017109403 0.010457613 -0.012580201 4278669223
0.018782955 0.011295304 -0.013636483 4278866339
0.020451145 0.012132727 -0.014691635 4278735268
0.021921627 0.013684466 -0.016434629 4278538154
0.023966422 0.013092428 -0.0161101 4278669223
0.025621163 0.013929263 -0.017162379 4278538154
0.02747089 0.014051802 -0.017526135 4278931109
0.029117512 0.014888346 -0.018576711 4278603943
0.030758742 0.015724592 -0.0196261 4278603434
0.032394562 0.016560573 -0.020674355 4278865829
0.034024965 0.017396297 -0.021721464 4278865828
0.035649944 0.018231761 -0.022767434 4279585694
0.037918873 0.016928043 -0.021759588 4279389089
0.039321892 0.018476315 -0.023488548 4279586459
0.040714093 0.020023987 -0.025215369 4279978903
0.041870981 0.022283478 -0.027622629 4279454878
0.04392045 0.021692885 -0.027298074 4278930853
0.044825844 0.024663189 -0.030382548 4278669479
0.045942243 0.026920261 -0.032781646 4278866084
0.047277682 0.028464587 -0.034496911 4278735014
0.049315978 0.027873661 -0.034169924 4278669223
0.052081253 0.025149066 -0.031805366 4278538664
0.056084123 0.018870048 -0.026050031 4278407338
0.0012045689 0.0035288781 -0.0062465654 4280045969
0.0030807592 0.0036517382 -0.0066166255 4279389854
0.0049570054 0.0037747025 -0.0069866148 4279061924
0.0071693733 0.0024610832 -0.0059723537 4279061923
0.0088803731 0.003302779 -0.0070348303 4278997153
0.010412656 0.0048622303 -0.0087872082 4279062433
0.011758164 0.0071389265 -0.011227965 4278866084
0.01362389 0.0072617084 -0.011595493 4278996898
0.015308198 0.0081020631 -0.012652395 4278865829
0.016987147 0.0089422166 -0.013708204 4279128223
0.018473953 0.010499179 -0.01545124 4278735268
0.020328993 0.010621674 -0.015816346 4278931619
0.021991862 0.011461012 -0.016868722 4278341803
0.023844199 0.011583533 -0.017233137 4278800039
0.025498994 0.012422565 -0.018283755 4278800293
0.027148383 0.013261363 -0.019333288 4278406828
0.028792392 0.014099874 -0.020381631 4278668968
0.030842118 0.013506394 -0.020059425 4278406828
0.032272432 0.015060429 -0.021790726 4278603178
0.033902891 0.015898343 -0.022836179 4278537644
0.03574153 0.016020656 -0.023197368 4278734249
0.037796386 0.015427921 -0.02287586 4278537644
0.039199635 0.016980555 -0.024601541 4278930853
0.041035373 0.017102979 -0.024961926 4278800039
0.042422362 0.018654771 -0.02668431 4278668969
0.044252556 0.01877702 -0.027043462 4278603179
0.048097227 0.024141641 -0.032872833 4278341039
0.050145946 0.023549272 -0.032549527 4278472619
0.052921109 0.020816687 -0.030193519 4278931109
0.057176031 0.013805404 -0.023777507 4278866084
0.0056605116 -0.001357004 -0.0046693012 4280960654
0.0075500906 -0.0012330748 -0.0050418526 4280567698
0.0090986267 0.00033171475 -0.0067942515 4279520924
0.01063649 0.001895871 -0.0085444096 4279717274
0.011987753 0.0041794479 -0.010981331 4279520413
0.013858721 0.0043025836 -0.011349885 4279193249
0.015367176 0.0058651157 -0.013094017 4278931364
0.016864914 0.0074270666 -0.014836019 4279128224
0.018725188 0.0075498074 -0.015202232 4278866339
0.020396158 0.0083917677 -0.016254611 4279193759
0.022637719 0.0070766173 -0.015248658 4278538409
0.023916654 0.0093561634 -0.017670773 4278931109
0.025771521 0.0094789565 -0.018035606 4278668713
0.027226314 0.011038668 -0.019768625 4278734248
0.02907576 0.011161324 -0.020132229 4278668968
0.030719763 0.012002155 -0.021178875 4278406828
0.032566436 0.012124818 -0.021541785 4278734248
0.034413055 0.012247585 -0.021904595 4278603178
0.036259614 0.012370441 -0.02226733 4278537644
0.038106102 0.012493398 -0.022629969 4278734248
0.039514951 0.014050752 -0.024353426 4278603434
0.041355927 0.014173537 -0.024714828 4278538154
0.042972669 0.015013229 -0.025755532 4278537899
0.044810783 0.015136022 -0.026116222 4278669224
0.045960281 0.017408289 -0.028511893 4278341293
0.04732579 0.018963259 -0.030226462 4278341038
0.049385052 0.018369336 -0.029906943 4278276014
0.05802324 0.0094347298 -0.022196751 4278668969
0.011378795 -0.0032460466 -0.0062444974 4282465919
0.01274386 -0.00095504522 -0.0086791571 4281025933
0.015606906 0.002902247 -0.012852486 4281485699
0.017294008 0.0037472323 -0.013906538 4280961674
0.019162197 0.0038704947 -0.014274307 4279782809
0.020841256 0.0047151521 -0.015326621 4279586458
0.022898559 0.0041173324 -0.015009604 4279454878
0.02437775 0.0056827925 -0.016744263 4279127203
0.026240535 0.0058061257 -0.017110644 4278864809
0.02790343 0.0066501796 -0.018159499 4278668458
0.029358417 0.0082143545 -0.019889157 4278604199
0.031213053 0.0083374605 -0.020253696 4278668968
0.032651871 0.0099007599 -0.021980017 4278865574
0.034501042 0.010023702 -0.02234333 4278341294
0.035923652 0.011586182 -0.024066351 4278341294
0.037767336 0.011708967 -0.024428423 4278800039
0.039173741 0.013270523 -0.026148066 4278800293
0.041233197 0.012673985 -0.0258306 4278472619
0.04307396 0.012796886 -0.026191868 4278603689
0.045141276 0.012201063 -0.025875799 4278669223
0.046525884 0.01376158 -0.027590849 4278669223
0.048131671 0.014603008 -0.028627511 4278603689
0.049966671 0.014725931 -0.028987333 4278538154
0.051564179 0.015567042 -0.030022271 4278800293
0.054116383 0.013536189 -0.028357472 4278538664
0.059354424 0.0036114193 -0.019280568 4278604198
0.021663208 -0.00042124465 -0.013042184 4281614728
0.023350349 0.00042624772 -0.014094332 4281026188
0.025032112 0.0012734793 -0.01514535 4279979159
0.026708487 0.0021204948 -0.016195275 4279978903
0.028179813 0.0036899969 -0.017924897 4279323809
0.029640375 0.0052589327 -0.019652369 4278932129
0.031500243 0.0053823814 -0.020017935 4278670243
0.032944646 0.0069504231 -0.021742024 4278668713
0.034588665 0.0077957809 -0.022785135 4278668203
0.036014184 0.0093628131 -0.024505399 4278865318
0.037644677 0.010207489 -0.025545686 4278800039
0.039488167 0.010330364 -0.025907647 4278931364
0.041331571 0.010453351 -0.026269495 4278734758
0.043174893 0.010576427 -0.026631258 4278735013
0.045018125 0.010699607 -0.026992921 4278603943
0.046402965 0.012264494 -0.028704688 4278669223
0.048240636 0.012387507 -0.029065106 4278538154
0.049843691 0.013231054 -0.030099474 4278603689
0.051678456 0.013354067 -0.030459173 4278669223
0.053992804 0.012036983 -0.029472768 4278735268
0.059713285 0.00064186007 -0.019073609 4278538918
0.026978591 -0.00085285306 -0.015969181 4283121523
0.028455492 0.00072141737 -0.017696617 4280766089
0.031786747 0.0024188459 -0.019788403 4281554548
0.033444267 0.0032671764 -0.020832587 4280571014
0.034675937 0.0055637881 -0.023229968 4279717784
0.036104381 0.0071353205 -0.024947435 4279259294
0.037953172 0.0072584637 -0.025310501 4278931874
0.039583631 0.0081054717 -0.026349079 4278931874
0.04142959 0.008228641 -0.026711423 4278735523
0.043051861 0.0090752542 -0.027748205 4278472619
0.044894971 0.0091984421 -0.028109822 4278800039
0.046280045 0.010767706 -0.0298183 4278669734
0.048117593 0.010890719 -0.030178688 4278866339
0.049955036 0.011013832 -0.030538969 4278669734
0.052029349 0.010414593 -0.030227244 4278472874
0.054588273 0.0083712116 -0.028573681 4278865574
0.060798496 -0.0045024529 -0.016860321 4278735268
0.03847634 0.0035749823 -0.024407141 4280506243
0.040332973 0.0036987737 -0.024771649 4279587988
0.04196877 0.0045483783 -0.025809489 4279128734
0.043375701 0.0061232373 -0.027519092 4279128733
0.045224041 0.0062467903 -0.027881734 4278932129
0.04638591 0.0085460022 -0.03025987 4278735268
0.048457474 0.0079442263 -0.029949404 4278669223
0.050300151 0.008067701 -0.030310702 4278603689
0.052142702 0.0081912912 -0.030671883 4278866084
0.054943141 0.0054171011 -0.028353922 4278734758
0.061397549 -0.0082197562 -0.016001504 4278734758
0.042286299 0.0015832409 -0.025588922 4281948778
0.043922063 0.0024351329 -0.026625007 4281096569
0.046004239 0.0018316954 -0.026318431 4279392149
0.049027938 0.0042620748 -0.029056646 4279785104
0.050644554 0.0051131099 -0.030088648 4279718549
0.052492343 0.0052370504 -0.030450854 4278998173
0.055536613 0.001727879 -0.027472261 4278997663
0.0624795 -0.013402767 -0.013816989 4279259803
0.056128982 -0.0019741133 -0.026600163 4281620848
-0.02930164 -0.035556197 0.0034916261 4279130009
-0.027477164 -0.034683444 0.0024248241 4279063964
-0.025775623 -0.033063263 0.00067700353 4279327124
-0.023843799 -0.032938607 0.00029455964 4279721608
-0.030268986 -0.044763155 0.0095208595 4282079594
-0.029200811 -0.038635246 0.0036787856 4278932129
-0.027485859 -0.037009947 0.0019314857 4278669988
-0.025899027 -0.034635462 -0.00049413089 4278932129
-0.023967329 -0.034510829 -0.00087655801 4278735524
-0.022158403 -0.033636563 -0.0019384297 4278801058
-0.019977871 -0.035010509 -0.00096233282 4279326614
-0.018043052 -0.034885339 -0.0013451176 4279722374
-0.03006598 -0.048620857 0.010370309 4282340968
-0.029100616 -0.041722663 0.0038596354 4279259293
-0.027494851 -0.039340518 0.0014351103 4279128223
-0.025904965 -0.036959358 -0.00098615652 4278997409
-0.023970727 -0.03683459 -0.0013691089 4278735268
-0.022036348 -0.036709689 -0.0017519905 4278669733
-0.019850928 -0.038087629 -0.00078021549 4278932384
-0.018039022 -0.03721083 -0.0018408275 4278997919
-0.016363118 -0.035583116 -0.0035765464 4279063198
-0.014697794 -0.033955939 -0.005310134 4279391129
-0.012634628 -0.034581721 -0.0050159441 4279522454
-0.010843642 -0.033705823 -0.0060720602 4280374663
-0.0086334087 -0.035081513 -0.0051046321 4281423223
-0.030082379 -0.050981902 0.0098524829 4282471019
-0.029112946 -0.04406397 0.0033558831 4279193758
-0.02738956 -0.042429559 0.0016135387 4278931874
-0.025676724 -0.040795676 -0.00012667663 4279062944
-0.023974422 -0.03916239 -0.0018646731 4278735268
-0.022037495 -0.039037354 -0.0022480837 4278800803
-0.020100433 -0.038912185 -0.0026314235 4279062944
-0.018291172 -0.038033403 -0.0036898605 4278866593
-0.016487125 -0.037154861 -0.0047471798 4278997409
-0.014821608 -0.035523333 -0.0064775003 4278997409
-0.012758754 -0.036151327 -0.0061849141 4279194014
-0.010967746 -0.035273269 -0.0072393874 4279193758
-0.0088993236 -0.035900675 -0.0069477274 4279259294
-0.0071134418 -0.035022706 -0.0080010006 4279980433
-0.0051861517 -0.034897216 -0.008381688 4280766598
-0.0034081116 -0.034019537 -0.0094332295 4281946484
-0.030317154 -0.051833235 0.0079771681 4281947504
-0.029125568 -0.046409316 0.0028491188 4278997409
-0.027513701 -0.044013888 0.00043331832 4279128989
-0.0256836 -0.043132082 -0.00062795356 4278931874
-0.023858678 -0.042250447 -0.0016881544 4278735268
-0.021916542 -0.042125076 -0.0020725988 4278472874
-0.020099368 -0.041243754 -0.003131045 4278735268
-0.018287394 -0.040362649 -0.0041883751 4278800803
-0.016611096 -0.038726278 -0.0059175766 4278800803
-0.014546011 -0.039356418 -0.0056271944 4278735268
-0.012611248 -0.039230965 -0.0060097408 4279062178
-0.010676377 -0.039105363 -0.0063922233 4278931109
-0.0088825487 -0.038224854 -0.0074455156 4278669478
-0.007237792 -0.036589891 -0.0091680633 4278735013
-0.0053106509 -0.036464445 -0.0095487433 4278669478
-0.003383413 -0.036338858 -0.0099293375 4278735013
-0.0013042465 -0.036967255 -0.0096411007 4279259293
0.00047130138 -0.036087327 -0.010690314 4279521689
0.0023987629 -0.035961367 -0.011070681 4279259803
0.0041664056 -0.035081714 -0.012118162 4279522199
0.0057661831 -0.033448845 -0.013831194 4280242573
0.007520549 -0.032569811 -0.014875853 4281291389
-0.030551527 -0.052679926 0.0061053084 4282143854
-0.029138479 -0.048758782 0.0023393566 4279455899
-0.027409349 -0.047115326 0.00060241856 4279390108
-0.025573861 -0.046231024 -0.0004582759 4279259038
-0.024102282 -0.043071829 -0.0035383869 4279128223
-0.02216297 -0.042946674 -0.0039222967 4278800549
-0.020473357 -0.041305341 -0.0056510102 4278734758
-0.018411521 -0.041938119 -0.0053618234 4278800293
-0.016604748 -0.041055076 -0.0064163934 4278865573
-0.014537308 -0.041687258 -0.0061281417 4278931364
-0.012735642 -0.040804319 -0.0071815159 4278931364
-0.010939214 -0.039921604 -0.0082337651 4278734758
-0.0091480389 -0.03903906 -0.0092849266 4279127968
-0.0072184578 -0.038913563 -0.0096661691 4278735013
-0.0051424541 -0.039544649 -0.0093791205 4278669733
-0.0033590272 -0.038662247 -0.010428475 4278866339
-0.0014291778 -0.03853637 -0.010809494 4278997409
0.00034637749 -0.037654296 -0.011857079 4278866594
0.0022736937 -0.037528351 -0.01223742 4278997154
0.0038816556 -0.035890788 -0.013948811 4278800803
