# .PCD v0.7 - Point Cloud Data file format
VERSION 0.7
FIELDS x y z rgba
SIZE 4 4 4 4
TYPE F F F U
COUNT 1 1 1 1
WIDTH 960
HEIGHT 1
VIEWPOINT 0 0 0 1 0 0 0
POINTS 960
DATA ascii
0.022359084 0.0059254616 0.0080550201 4288687663
0.024695408 0.0046350658 0.0090508536 4288360753
0.026656374 0.0047655627 0.0086577013 4288295473
0.029204462 0.0027666613 0.010343343 4288295729
0.03117344 0.0028979033 0.0099487491 4288230448
0.033343472 0.0023197234 0.010246105 4287969074
0.035722565 0.0010327548 0.01123373 4288034099
0.038318776 -0.00096255541 0.012910089 4288034099
0.040931001 -0.0029566363 0.014583286 4287968818
0.042923894 -0.0028232634 0.014184302 4288034608
0.043844409 0.00085316598 0.010339642 4287250228
-0.02171091 0.017377064 -0.00036259741 4290462209
-0.019548036 0.01606866 0.00066313613 4289605408
-0.017784171 0.016908869 -0.00042266119 4290128413
-0.016025528 0.017748885 -0.0015073689 4289539108
-0.014272101 0.018588603 -0.0025909171 4288950058
-0.012089971 0.017281871 -0.0015687495 4289015594
-0.010191668 0.017406415 -0.0019506831 4289734948
-0.0084432587 0.018246166 -0.0030330243 4289276968
-0.0067001022 0.019085608 -0.004114205 4289800229
-0.0044961274 0.017780717 -0.003096126 4289799974
-0.0022813641 0.016476668 -0.00208019 4289472554
-0.00021651387 0.015887789 -0.001764616 4289538089
0.0018537678 0.015299328 -0.0014500134 4288883759
0.0042616092 0.013283394 0.00025793724 4288622128
0.0066855922 0.01126859 0.0019627698 4288556849
0.0091256909 0.0092549622 0.0036644451 4288557104
0.011059605 0.0093829036 0.0032761525 4288556848
0.013347112 0.0080844164 0.0042780414 4288687663
0.01564537 0.0067867264 0.0052778497 4288426289
0.018136518 0.0047769099 0.0069696046 4288425778
0.020458933 0.0034810379 0.0079647209 4288164404
0.022792088 0.0021859705 0.0089578237 4287968053
0.024945777 0.0016041398 0.0092564411 4288033843
0.027104817 0.001022771 0.0095540695 4287837238
0.029073678 0.0011538938 0.009159416 4288034099
0.031240746 0.00057323277 0.0094556473 4287968563
0.033413135 -6.8992376e-06 0.0097508579 4288034099
0.035794422 -0.0012980849 0.010734746 4287838259
0.038186397 -0.0025884807 0.01171664 4287772213
0.040589023 -0.0038780123 0.012696424 4287706678
0.042155903 -0.0023228973 0.010921873 4287577138
-0.020340219 0.018102963 -0.003991032 4289410588
-0.01845324 0.01822634 -0.0043710032 4289932063
-0.016844369 0.019785743 -0.0061529204 4290323743
-0.014820702 0.019191194 -0.0058312267 4290062114
-0.012791555 0.018597133 -0.0055106115 4290062114
-0.010609783 0.017286137 -0.0044916468 4290062114
-0.0087168477 0.017410427 -0.0048724236 4289734949
-0.0066713169 0.016817756 -0.004554864 4289276714
-0.0044651404 0.015508614 -0.0035405373 4289538344
-0.0020903163 0.013483591 -0.0018310994 4289080108
-2.0414591e-05 0.01289285 -0.0015181936 4288687663
0.0018916987 0.01301891 -0.0019024424 4288556849
0.0043015555 0.010996565 -0.00019983575 4288556594
0.006896127 0.0082593337 0.0021946952 4288491313
0.0093409307 0.0062394589 0.0038904846 4288426289
0.01128006 0.0063677356 0.0035011359 4288425778
0.013395838 0.005780682 0.003805317 4288360753
0.015875582 0.0037634298 0.0054943245 4288295474
0.018189453 0.0024625361 0.0064877886 4288164659
0.020514067 0.0011624098 0.0074792262 4288230195
0.0228494 -0.00013685226 0.0084685441 4288099379
0.025195463 -0.001435332 0.0094558373 4287968564
0.027166875 -0.0013041347 0.0090605952 4287903028
0.029333636 -0.0018870533 0.0093551222 4287968563
0.031109668 -0.0010414273 0.0082703643 4288034353
0.033482462 -0.0023376346 0.0092525948 4287837748
0.035459153 -0.0022056401 0.00885663 4287772469
0.037641875 -0.0027870536 0.0091482904 4287641908
0.039412417 -0.0019413382 0.0080649722 4287053878
-0.018712081 0.017400682 -0.0062064971 4289998364
-0.016966715 0.01824414 -0.0072852764 4289407783
-0.014801711 0.016927406 -0.0062663616 4289146154
-0.012770191 0.016331308 -0.0059478763 4289277224
-0.010586232 0.015016071 -0.0049326597 4289603878
-0.0086907446 0.015140504 -0.0053139688 4289407784
-0.0064905062 0.013826504 -0.0043018293 4288818989
-0.0041244514 0.011794236 -0.0025956482 4288884268
-0.0018999353 0.010482088 -0.0015882701 4288818734
0.00033536926 0.0091707334 -0.00058299489 4288753198
0.0025814734 0.0078601837 0.00042025 4288687663
0.0050040744 0.0058320686 0.0021153893 4288229684
0.0074427947 0.0038051903 0.0038073361 4288360499
0.0097265728 0.0024974346 0.0048032496 4288294963
0.011673603 0.0026262328 0.0044123121 4288099124
0.013797104 0.0020374805 0.0047132839 4288230195
0.016105104 0.00073170662 0.0057045426 4288360753
0.018423855 -0.00057327747 0.0066937804 4288230194
0.020937786 -0.0025945231 0.0083711166 4288099378
0.022906382 -0.0024637431 0.0079762731 4288295474
0.024874981 -0.0023328513 0.0075815096 4288034353
0.026843581 -0.0022018477 0.0071868282 4287969584
0.029007357 -0.0027871877 0.007480355 4287904048
0.030780746 -0.0019394904 0.0063977372 4287772468
0.032949843 -0.0025242567 0.0066903625 4287315764
-0.016950227 0.01598046 -0.0077196327 4289080874
-0.014641598 0.013937369 -0.0060072974 4288753709
-0.012460884 0.012617391 -0.0049947668 4289015594
-0.010269366 0.011298269 -0.0039843787 4288819244
-0.0083659887 0.0114232 -0.0043672901 4288426798
-0.0060060471 0.0093838573 -0.0026649106 4288623148
-0.0037847757 0.0080670118 -0.0016602669 4288230448
-0.001552701 0.0067509264 -0.00065767393 4288230194
0.00069015846 0.005435735 0.00034280494 4288491824
0.0031066686 0.0034005493 0.0020341324 4288295474
0.0053737685 0.0020871609 0.0030299053 4288229938
0.0074834228 0.0014949664 0.0033317469 4288164659
0.0097693875 0.00018300116 0.0043239314 4288033589
0.011718962 0.00031196326 0.0039324835 4287968053
0.013844833 -0.00027883053 0.0042313188 4287968563
0.015976086 -0.00086914003 0.0045291632 4287968818
0.018112723 -0.0014589801 0.0048260186 4288296238
0.020439038 -0.0027677268 0.0058105234 4288099378
0.022215173 -0.001918152 0.0047287121 4288230704
0.024175599 -0.0017878115 0.0043355841 4288035118
0.026136026 -0.0016573519 0.0039425436 4287969838
-0.016379662 0.010814607 -0.0053724218 4288756003
-0.014199562 0.0094901398 -0.0043632034 4288949803
-0.012008641 0.0081664473 -0.0033560358 4288884779
-0.0099535137 0.0075675994 -0.0030455422 4288753964
-0.0078929365 0.0069692284 -0.0027360618 4288623148
-0.0059788786 0.0070949495 -0.0031210557 4288361774
-0.0036007538 0.0050503612 -0.0014271941 4288426799
-0.0013638176 0.0037302747 -0.00042891968 4288230193
0.0010439232 0.001687862 0.0012591546 4288230194
0.0033051074 0.0003695935 0.0022527212 4288230195
0.005411718 -0.00022509694 0.0025534471 4288230195
0.0075237416 -0.00081937015 0.0028531998 4288099123
0.0098118857 -0.0021355227 0.0038416088 4288033843
0.011764005 -0.0020063967 0.0034496449 4287903029
0.013716161 -0.0018771589 0.0030577555 4287772213
0.01566834 -0.0017478168 0.0026659369 4287837748
0.017801993 -0.0023400337 0.0029617418 4288296750
0.019756902 -0.0022102743 0.0025695609 4287969583
0.02171183 -0.0020804033 0.0021774517 4287904559
-0.016226061 0.0078072846 -0.0051247645 4288101928
-0.014041092 0.0064787194 -0.0041197818 4287902773
-0.011845283 0.005151011 -0.0031169467 4288099123
-0.0097851232 0.0045502931 -0.0028091241 4288426289
-0.0075703636 0.0032240152 -0.0018098885 4288361008
-0.0056484081 0.0033502281 -0.0021964805 4288361008
-0.0034173988 0.0020252764 -0.0012004012 4288099378
-0.0010184348 -2.4393201e-05 0.00048440229 4288230194
0.0012368411 -0.0013475269 0.0014757803 4288165168
0.0033403784 -0.0019447282 0.001775383 4288099379
0.0052841567 -0.0018165037 0.001384831 4288033843
0.0072279945 -0.0016881675 0.0009943461 4288034099
0.0091718808 -0.0015597194 0.00060393196 4288230959
0.011289056 -0.0021555945 0.00090118777 4288165678
0.013059806 -0.0013024509 -0.00017665047 4288102439
-0.015934855 0.0040625632 -0.0041903602 4288035883
-0.014024183 0.0041875988 -0.0045750197 4288098868
-0.011682592 0.0021271035 -0.0028840778 4288033843
-0.0096173659 0.0015244782 -0.002578889 4288033843
-0.007397756 0.00019417703 -0.0015839757 4288033843
-0.0056222118 0.0010487512 -0.0026618624 4288230193
-0.0033890121 -0.00028043985 -0.0016695196 4288230704
-0.0013019964 -0.00088118017 -0.0013683746 4288099889
0.00095010921 -0.002208896 -0.0003796583 4287838003
0.0027259849 -0.0013538599 -0.0014572693 4288034353
0.0048266053 -0.0019533187 -0.0011586444 4288100144
0.0067649446 -0.0018253624 -0.0015480453 4288035883
0.0087033436 -0.0016972721 -0.0019373493 4287316784
-0.015920788 0.0017672032 -0.0046480754 4287642928
-0.014007576 0.001892373 -0.0050332742 4287902774
-0.011807397 0.00055620819 -0.0040379157 4287903028
-0.009742476 -4.863739e-05 -0.0037343213 4288033843
-0.0075233504 -0.0013833493 -0.0027426155 4288099379
-0.0057477765 -0.00052660704 -0.003818878 4288099124
-0.003823325 -0.00040014088 -0.0042059096 4287773233
-0.001741983 -0.0010033995 -0.003905314 4287970093
0.0005042851 -0.0023359135 -0.0029186802 4287840553
-0.015907027 -0.00053224713 -0.0051088063 4287773744
-0.013850696 -0.0011400208 -0.0048053553 4287706934
-0.01193215 -0.001014404 -0.0051915487 4287902773
-0.010159418 -0.0001559034 -0.006265766 4287772469
-0.0079461113 -0.0014954209 -0.0052761519 4287707189
-0.0061758682 -0.00063681602 -0.0063497415 4287511349
-0.016031295 -0.0021003187 -0.0062606474 4287839535
-0.013975285 -0.0027102977 -0.005958776 4287707189
-0.012199946 -0.0018495843 -0.0070319762 4287642164
-0.010284096 -0.0017240494 -0.0074175587 4287249974
0.022483071 -0.034984313 -0.0049544461 4286985793
0.025595304 -0.039362922 -0.0013729492 4287379258
0.028739639 -0.043739192 0.002202197 4286856508
0.018013712 -0.035366133 -0.0066770315 4286985793
0.020542879 -0.037497506 -0.0050865039 4287314234
0.023088096 -0.039627634 -0.0034991512 4287641144
0.026022993 -0.043264605 -0.00059124175 4287379769
0.028984644 -0.046899654 0.0023114113 4286333248
0.014086973 -0.038008116 -0.0064083231 4287444283
0.016426098 -0.039390311 -0.0054824431 4287640633
0.018597331 -0.0400149 -0.005220477 4287641144
0.020955211 -0.04139556 -0.0042982223 4287641909
0.023507774 -0.043531775 -0.0027172202 4287838258
0.02607638 -0.045666732 -0.0011393661 4287707189
0.02866105 -0.047800548 0.0004353961 4286595134
0.0050340593 -0.035597123 -0.0099848844 4286789444
0.0075001046 -0.037746467 -0.0083921738 4287509819
0.009646792 -0.038375437 -0.0081272796 4287641654
0.011969272 -0.039763302 -0.0072015864 4287772979
0.014302503 -0.041150369 -0.0062779011 4288427308
0.016470693 -0.041777477 -0.0060170786 4288099633
0.018644262 -0.042404085 -0.0057572247 4287772468
0.020823205 -0.043030232 -0.0054983692 4287510583
0.023191296 -0.044414476 -0.0045812959 4287314233
0.025942989 -0.04731454 -0.0023490684 4287379514
0.0032535456 -0.038861878 -0.0094465725 4287902774
0.0053917617 -0.039493814 -0.0091818757 4287771958
0.0073704943 -0.039363272 -0.0095794387 4287837748
0.0093492791 -0.039232619 -0.0099769384 4287772468
0.011498358 -0.039863452 -0.0097140567 4287904049
0.01399862 -0.04201667 -0.0081328461 4288557614
0.015988223 -0.041884892 -0.0085322047 4288099888
0.018334366 -0.043275177 -0.0076141926 4287511094
0.020329367 -0.043142788 -0.0080144452 4287183673
0.023058794 -0.046053216 -0.0057843821 4287510584
0.025437066 -0.047440931 -0.0048725689 4288294453
-0.0049268939 -0.040230453 -0.009705768 4286921278
-0.0031053461 -0.039335921 -0.010765042 4287314233
-0.00098104402 -0.039971329 -0.010499467 4287576118
0.0013053641 -0.041370936 -0.0095735909 4287903283
0.003283821 -0.041240677 -0.0099713067 4288231469
0.0052623376 -0.041110277 -0.010368929 4287903794
0.0072409213 -0.04097975 -0.010766477 4287641909
0.0095543116 -0.042377129 -0.009845593 4287511094
0.011538338 -0.042245977 -0.010244028 4287510839
0.013867855 -0.043641932 -0.0093262056 4288033844
0.015681889 -0.042746723 -0.010383078 4287640888
0.018024847 -0.044141591 -0.0094677182 4286921534
0.020017009 -0.044009373 -0.0098673934 4286594369
0.022559462 -0.046165757 -0.0082991542 4286791229
-0.0047581494 -0.043376982 -0.0095669227 4287707189
-0.0030824132 -0.041712709 -0.011286416 4287642164
-0.0011096112 -0.041583098 -0.011683208 4287641653
0.0013328195 -0.043753996 -0.010100749 4287511094
0.0033137836 -0.043623582 -0.010498983 4287576373
0.0052948184 -0.04349304 -0.010897123 4287576373
0.0072759092 -0.043362342 -0.011295174 4287511094
0.0092570446 -0.043231539 -0.01169314 4287183418
0.011408109 -0.04386656 -0.011433997 4287052604
0.013564561 -0.044501096 -0.011175827 4287771704
0.015551161 -0.044369526 -0.011574593 4287313468
-0.0068645403 -0.04512246 -0.010355708 4286333249
-0.0048867166 -0.04499279 -0.0107537 4287446323
-0.0032107867 -0.043324165 -0.012469956 4287511858
-0.0012381449 -0.04319457 -0.012866714 4288164914
0.00089091808 -0.043833874 -0.012605284 4287837494
0.0031844117 -0.045241632 -0.011687242 4287183419
0.0051652789 -0.04511109 -0.012085353 4286659903
0.0071462095 -0.044980429 -0.012483374 4286463554
-0.0074293278 -0.044422135 -0.013518219 4286333249
-0.0053115375 -0.045064762 -0.013256469 4287379769
-0.0033391304 -0.044935316 -0.013653279 4287314234
-0.0013666414 -0.044805735 -0.014050004 4288033589
0.00076208636 -0.045447238 -0.013790143 4287968054
0.002896212 -0.046088278 -0.013531295 4286594114
-0.0036180876 -0.045772411 -0.015492351 4286986814
-0.0018017441 -0.044869415 -0.016543936 4287313724
0.00016529858 -0.044740066 -0.016939472 4287444029
0.05133583 0.0001661852 0.02455082 4284442169
0.053215358 -0.0013501197 0.022935702 4281897779
0.047540054 0.0080898181 0.011040235 4282481474
0.050403759 0.0054163039 0.013415288 4281830459
0.056223132 -0.0063724592 0.02478019 4281439798
0.046306998 0.0099932775 0.0063978061 4282351423
0.048933625 0.0080137104 0.0080784187 4281895229
0.053154983 0.001110971 0.014587533 4281764925
0.059027325 -0.01071123 0.025913922 4281437758
0.045515765 0.010506831 0.0031511523 4280592944
0.047911 0.0092260391 0.0041393861 4280851258
0.051218309 0.0051232949 0.0078801047 4280459323
0.055697817 -0.002504617 0.015054898 4280915518
0.045165241 0.0096173882 0.0012905225 4281633600
0.047557317 0.0083320439 0.0022761226 4281110338
0.050635554 0.0049238726 0.0053207036 4281306944
0.054196194 0.00010219216 0.0097330157 4281241408
0.060099535 -0.01179193 0.020997303 4281241408
0.044172503 0.0043385476 0.0039443914 4283461949
0.045693636 0.0058909655 0.0021791961 4281372734
0.047870941 0.0053119957 0.002474064 4281110340
0.050728515 0.0026032925 0.0048241783 4281371203
0.054062773 -0.001523681 0.0085398648 4281174598
0.059732571 -0.012745395 0.019092498 4281240134
0.042937271 -0.00025068223 0.0059018321 4283789114
0.044908352 -0.00011852384 0.0055074021 4282482493
0.046879359 1.373142e-05 0.0051130634 4281438014
0.049072426 -0.00056633353 0.0054031406 4281175873
0.051495574 -0.0018581897 0.0063760336 4281241154
0.054384336 -0.0045734048 0.0087134317 4281436229
0.059826311 -0.015117958 0.018556556 4281436229
0.037098099 -0.0029765964 0.0065866504 4283527993
0.038863327 -0.0021290481 0.0055060554 4281958469
0.040834397 -0.0019970983 0.0051114652 4281762119
0.043233257 -0.003295362 0.00608561 4281698878
0.045209561 -0.003162846 0.0056901406 4281436483
0.047405068 -0.0037450194 0.0059780236 4281370949
0.049383901 -0.0036121085 0.0055822153 4281240644
0.051811922 -0.0049080178 0.0065509044 4281370694
0.054705188 -0.0076316297 0.0088808332 4281436229
0.060149688 -0.018208712 0.018698787 4281305414
0.032417942 -0.0027017817 0.0041347314 4283657534
0.034586683 -0.003288582 0.0044258293 4282416450
0.036555029 -0.0031570345 0.0040316265 4282154818
0.03831495 -0.0023076534 0.0029537417 4281566789
0.040702678 -0.0036111623 0.003926795 4281370948
0.043101043 -0.0049138144 0.0048977584 4281436738
0.045510054 -0.0062156469 0.005866671 4281240644
0.047491506 -0.0060826391 0.0054702777 4281371459
0.049694669 -0.006666407 0.0057551116 4281370694
0.052351996 -0.008682929 0.0074000731 4281304903
0.055025309 -0.010698318 0.0090419631 4281435719
0.060242515 -0.020591632 0.01815526 4281369929
0.030124037 -0.0037216842 0.0026628766 4283724599
0.032287136 -0.0043111593 0.0029533673 4282416450
0.034252707 -0.0041798875 0.0025596535 4281697603
0.036423773 -0.0047685951 0.0028487295 4281631814
0.038600162 -0.005356878 0.0031368732 4281501508
0.040992737 -0.0066643804 0.0041056164 4281305924
0.043182399 -0.0072515011 0.0043912381 4281110339
0.045377351 -0.0078381449 0.0046758782 4281305414
0.047358666 -0.0077051595 0.0042795073 4281304903
0.05000471 -0.0097291172 0.0059217643 4281304394
0.052666731 -0.01175189 0.0075609069 4281304393
0.056252532 -0.016648084 0.011910623 4281303883
0.061253518 -0.025852531 0.020320343 4281303884
0.027836118 -0.0047364384 0.0011934033 4284313904
0.030190885 -0.0060513765 0.0021660244 4282547773
0.032356344 -0.0066428632 0.0024544075 4281631048
0.034324452 -0.00651142 0.0020601843 4281500999
0.036703248 -0.0078244656 0.0030282829 4281436484
0.038884662 -0.0084145367 0.003313737 4281370949
0.041282095 -0.0097260624 0.0042782389 4281370949
0.043263406 -0.0095932782 0.0038817171 4281175619
0.045676798 -0.010903552 0.0048432369 4281240133
0.048319563 -0.012934372 0.0064811427 4281305414
0.051863991 -0.017848805 0.010827458 4281304903
0.054997623 -0.02131857 0.013811691 4281434954
0.058838256 -0.026949011 0.018821141 4281238603
0.062951073 -0.033297107 0.024498416 4281304138
0.028094914 -0.0077911764 0.0013789199 4283660339
0.030454552 -0.0091101974 0.0023473147 4281958979
0.032625046 -0.009703517 0.0026330519 4281500234
0.034598369 -0.0095717311 0.0022377819 4281435463
0.036982007 -0.010888748 0.0032015946 4281566788
0.039376326 -0.012205005 0.0041633826 4281436228
0.041991822 -0.014244474 0.0058015157 4281435973
0.044410128 -0.015558884 0.006758688 4281044039
0.047702622 -0.019767463 0.010423196 4280978758
0.050808601 -0.023250207 0.013404571 4281174344
0.054605011 -0.028901249 0.018409563 4281370184
0.05822023 -0.033826068 0.022730308 4281108043
0.030520547 -0.011450246 0.0018428583 4282090050
0.032493755 -0.011318564 0.0014475342 4281762118
0.034466937 -0.011186764 0.0010523032 4281436228
0.037055075 -0.013234854 0.0026908014 4281370948
0.039451566 -0.014555298 0.0036488827 4281370439
0.043120842 -0.020232767 0.0086658094 4281304649
0.046619855 -0.0251811 0.012997944 4281369163
0.050587703 -0.03157872 0.018674204 4281561434
0.027639883 -0.010278225 -0.0016607828 4283529778
0.03019263 -0.012335598 -2.0345673e-05 4282089794
0.032362483 -0.012933299 0.0002622474 4281631303
0.034739804 -0.014259577 0.0012206603 4281238603
0.036922976 -0.01485616 0.0015007574 4281107789
0.039941467 -0.018367052 0.0044829119 4281041744
0.043827359 -0.024789974 0.010160554 4280779858
0.027703561 -0.012615629 -0.002162667 4284575279
0.030258309 -0.014679395 -0.00052754767 4281300060
-0.012324452 -0.00341741 -0.0081835715 4282940218
-0.010408744 -0.00329189 -0.0085691242 4282547519
-0.0083446801 -0.0039032027 -0.008270286 4282351169
-0.0062751584 -0.0045140982 -0.0079724137 4282090049
-0.0042002015 -0.0051244721 -0.0076755858 4284053039
-0.018464312 -0.0038806349 -0.0095487861 4283396669
-0.016554452 -0.0037558526 -0.0099334372 4282611268
-0.01450441 -0.0043706149 -0.0096336799 4282024258
-0.012448899 -0.0049849153 -0.0093349358 4281894209
-0.010387942 -0.0055987462 -0.0090372153 4281959488
-0.0083215013 -0.0062121451 -0.008740453 4281698113
-0.006249629 -0.0068250299 -0.0084447507 4281893954
-0.0041723177 -0.0074374303 -0.0081500486 4282156349
-0.027092405 -0.00074075907 -0.013959522 4284509998
-0.024948902 -0.0021032169 -0.012969711 4283071543
-0.022794582 -0.0034648106 -0.011982038 4282351678
-0.020761289 -0.0040832162 -0.011680829 4281958979
-0.018587962 -0.0054433942 -0.01069678 4281631813
-0.016678229 -0.0053186342 -0.01108141 4281370949
-0.014488623 -0.006677486 -0.01010051 4281305158
-0.012573324 -0.0065521374 -0.0104861 4281370438
-0.010367423 -0.0079097375 -0.0095082652 4281305158
-0.0082986429 -0.0085251257 -0.0092136804 4281175363
-0.0063749962 -0.0083988756 -0.0096006729 4281566789
-0.0042980053 -0.0090135038 -0.0093075708 4282091834
-0.031112775 -0.0017880425 -0.015019228 4284512294
-0.029225416 -0.0016654283 -0.015399869 4282811443
-0.027090579 -0.0030328929 -0.014411745 4282223414
-0.024944901 -0.0043995827 -0.01342567 4281960509
-0.022917397 -0.0050206631 -0.013125024 4281893698
-0.020884402 -0.0056412816 -0.012825414 4281631813
-0.018845916 -0.006261453 -0.012526755 4281435719
-0.016801976 -0.0068811327 -0.012229176 4281435464
-0.014473155 -0.0089884326 -0.010570344 4281435464
-0.012555309 -0.0088629276 -0.010956455 4281435464
-0.010492288 -0.0094810426 -0.010662397 4281370439
-0.0084238276 -0.010098666 -0.010369411 4281240133
-0.0065003186 -0.0099724308 -0.010756383 4281436228
-0.0042705648 -0.011332422 -0.009786414 4282417978
-0.05064553 -5.5752695e-05 -0.016480602 4284638774
-0.034556918 -0.0065693036 -0.012652904 4284379183
-0.033005722 -0.0042028129 -0.01508896 4282548538
-0.030879691 -0.0055754781 -0.014102473 4282091834
-0.02898445 -0.0054523796 -0.014484721 4281632324
-0.027089052 -0.0053291544 -0.014866925 4281371458
-0.025067337 -0.005952917 -0.014566854 4281371458
-0.02291131 -0.0073231384 -0.013586115 4281502019
-0.021007471 -0.0071990341 -0.013969768 4281240644
-0.018969297 -0.0078214332 -0.013672711 4281305414
-0.01678881 -0.0091897324 -0.012696659 4281305159
-0.014597505 -0.010557204 -0.011722691 4281369929
-0.012679815 -0.010431737 -0.012108788 4281435464
-0.010472223 -0.01179795 -0.011137877 4281370439
-0.0084014088 -0.012417585 -0.010846997 4281304394
-0.0064753816 -0.012291208 -0.011234498 4281239113
-0.004243426 -0.013655469 -0.010268228 4282414918
-0.0021562949 -0.014273688 -0.0099803675 4284639539
-0.045576766 -0.012613848 -0.0080629792 4284704563
-0.035476372 -0.015748568 -0.0065724966 4282935629
-0.034453385 -0.0096225441 -0.012427337 4282283848
-0.033011764 -0.0064991787 -0.015542401 4281632069
-0.031119496 -0.0063763931 -0.015924145 4281566788
-0.029227063 -0.0062535033 -0.016305853 4281567043
-0.027334467 -0.0061304644 -0.016687488 4281436228
-0.02518975 -0.0075059682 -0.015707824 4281371459
-0.022905521 -0.0096297637 -0.014050184 4281305668
-0.020867817 -0.010254458 -0.01375482 4281370948
-0.018824629 -0.010878667 -0.01346047 4281305158
-0.016775966 -0.011502415 -0.013167145 4281304393
-0.014582463 -0.012874156 -0.012196872 4281304393
-0.012662232 -0.012748532 -0.012583485 4281238348
-0.010741889 -0.012622781 -0.012970032 4281303373
-0.0086740702 -0.0132448 -0.012680199 4280910163
-0.0066008046 -0.013866328 -0.012391368 4280386393
-0.004369352 -0.015234999 -0.011428291 4281167714
-0.035270274 -0.019580647 -0.0056826496 4282608209
-0.034462951 -0.011931933 -0.012889639 4282086988
-0.033018105 -0.0087996721 -0.015998803 4281697094
-0.031241097 -0.0079246908 -0.017061735 4281762629
-0.029228322 -0.0085537061 -0.016763302 4281501509
-0.027456351 -0.0076788142 -0.01782505 4281632324
-0.024934635 -0.011313207 -0.014811533 4281567043
-0.022900052 -0.011940397 -0.014517274 4281241409
-0.020728819 -0.013318278 -0.013546128 4281371203
-0.018948272 -0.012442432 -0.01460922 4281305158
-0.016899921 -0.013068385 -0.014317473 4281369929
-0.015124485 -0.012192637 -0.015379362 4281108044
-0.012928709 -0.013568431 -0.014412794 4280910673
-0.034472793 -0.014245346 -0.013354987 4282283084
-0.033024743 -0.011104196 -0.016458247 4281959488
-0.031245016 -0.010226928 -0.017520059 4281827908
-0.029229887 -0.01085794 -0.017223805 4281566024
-0.02720926 -0.01148846 -0.016928563 4281631814
-0.024554901 -0.01588691 -0.013247319 4281500998
-0.022381589 -0.017269157 -0.012279907 4281435463
-0.020721465 -0.015637219 -0.014019953 4281042763
-0.018938206 -0.014759034 -0.015081961 4280972638
-0.034482963 -0.016562864 -0.013823349 4282479689
-0.032916889 -0.014169358 -0.016242759 4281894718
-0.030896872 -0.014802396 -0.015949178 4281893954
-0.028631106 -0.016947314 -0.014302921 4281762629
-0.026103534 -0.020603172 -0.011307142 4281762629
-0.023549095 -0.024257168 -0.0083167059 4281631049
-0.021608531 -0.024130844 -0.0087078838 4281499724
-0.020321935 -0.020226806 -0.01247261 4280711008
-0.031778149 -0.024071753 -0.0099463081 4281957194
-0.029377185 -0.026980765 -0.0076328362 4281564494
-0.026954703 -0.029888235 -0.0053236666 4281564748
-0.024633311 -0.032036014 -0.0036934465 4282739279
-0.022546344 -0.032666482 -0.0034147874 4281886558
0.034608044 -0.015878379 3.2426789e-05 4279852424
0.036790892 -0.016477153 0.00031095557 4279655308
0.040015664 -0.02072987 0.0039592255 4279327888
0.044532467 -0.029364407 0.011642724 4279393168
0.04953881 -0.0394556 0.020659612 4279523984
0.029930785 -0.015559725 -0.0023870673 4279787908
0.032099992 -0.016161844 -0.0021076407 4279524493
0.034678087 -0.018230304 -0.00048199948 4279260569
0.037067764 -0.01956436 0.00046752114 4279260569
0.040296651 -0.02382981 0.0041050687 4279195289
0.044816531 -0.032490328 0.011768285 4279326358
0.049825571 -0.04261183 0.020761618 4279785103
0.023701724 -0.01682853 -0.003060272 4280178313
0.02585995 -0.017433941 -0.0027804961 4280112523
0.027829928 -0.017302699 -0.0031753434 4279326358
0.029996149 -0.017907307 -0.0028970418 4278867613
0.032366633 -0.019247204 -0.0019471971 4278998428
0.034747805 -0.020586297 -0.00099934172 4278866848
0.037343927 -0.022659957 0.00061785523 4278998684
0.040369987 -0.026202954 0.0035738125 4278997918
0.044890247 -0.034889564 0.011217237 4279195034
0.049474679 -0.043571755 0.018847914 4280636294
0.019271782 -0.017221026 -0.0048007919 4280963713
0.021418955 -0.017829567 -0.0045206835 4280373133
0.02357148 -0.018437617 -0.004241555 4279326103
0.025920097 -0.019783743 -0.0032908423 4279391639
0.027892604 -0.019652322 -0.0036861887 4279129498
0.030257247 -0.020997085 -0.0027385419 4278867613
0.03243383 -0.021603033 -0.0024638576 4278801313
0.034817174 -0.02294635 -0.0015197312 4278408359
0.037211176 -0.024288788 -0.00057769846 4278735523
0.040442992 -0.028580204 0.0030396096 4279063198
0.044754162 -0.036555618 0.0099944398 4279456663
0.048912011 -0.043789878 0.016269365 4281094783
0.012559414 -0.016248532 -0.0074943849 4281815923
0.014864627 -0.017602459 -0.0065387585 4280504713
0.017000742 -0.018214203 -0.0062582181 4279849364
0.019142212 -0.018825412 -0.0059786947 4279325338
0.021103865 -0.018695094 -0.0063721524 4279521943
0.023441259 -0.020046383 -0.0054226061 4279063709
0.025789369 -0.021396905 -0.0044750823 4279391384
0.028148167 -0.022746518 -0.0035296371 4279063963
0.030517671 -0.024095364 -0.0025862036 4278932638
0.032699272 -0.02470316 -0.0023141755 4278801568
0.035087451 -0.026050434 -0.0013743257 4278539173
0.037486307 -0.027396947 -0.00043649506 4279063198
0.040515639 -0.030961476 0.0025023893 4279456410
0.044618089 -0.038221344 0.0087718815 4279849108
0.048562042 -0.044738233 0.014364162 4281617788
0.0039740652 -0.01538077 -0.0097974446 4281947758
0.0062464997 -0.01674176 -0.0088388566 4280898944
0.008529678 -0.018101878 -0.0078823697 4280046479
0.010823611 -0.019461162 -0.0069279545 4279260059
0.01260535 -0.018587761 -0.0079931896 4278931874
0.014912743 -0.019945949 -0.0070412448 4278931618
0.017051192 -0.020559654 -0.0067628538 4278866593
0.019377355 -0.021916308 -0.005814529 4278801568
0.021344204 -0.021785632 -0.0062090186 4278867104
0.023498764 -0.022397965 -0.0059335483 4278932639
0.025658663 -0.023009762 -0.0056590876 4278998174
0.028016955 -0.024363764 -0.0047168275 4278998174
0.030581666 -0.0264595 -0.0031083329 4278932893
0.032964014 -0.027811654 -0.0021707043 4278604708
0.035759188 -0.030647345 9.9256635e-05 4279194523
0.038371988 -0.032739513 0.0016983896 4279194779
0.041826505 -0.037797697 0.0059587993 4279587989
0.045318443 -0.042853311 0.010211855 4281355904
-0.00019029528 -0.01647535 -0.010856738 4281488759
0.001907371 -0.017094806 -0.010572458 4280112524
0.0040104501 -0.017713778 -0.010289164 4279849873
0.0062850602 -0.019078977 -0.0093342951 4279850129
0.0084016323 -0.019696809 -0.0090535264 4279325339
0.010695059 -0.021060489 -0.0081023006 4279259803
0.012825105 -0.021677241 -0.0078240177 4278866594
0.01496052 -0.022293463 -0.0075467667 4278670498
0.016921831 -0.022163406 -0.0079403324 4278867104
0.019429659 -0.024270095 -0.0063258363 4278932128
0.021583874 -0.024884686 -0.006052061 4278932639
0.023555927 -0.024753548 -0.0064475043 4278801824
0.025718171 -0.025367357 -0.0061751562 4278998174
0.028271507 -0.027470514 -0.0045694066 4279194779
0.031036429 -0.030317195 -0.0023001507 4278867104
0.034020953 -0.033906832 0.00063101947 4279063198
0.037233107 -0.038238928 0.0042224936 4279587479
0.040273767 -0.041824579 0.0071426034 4280177038
0.043341137 -0.045408309 0.01005747 4281356924
-0.0086519346 -0.015567496 -0.013160573 4279392659
-0.0067261979 -0.015441164 -0.01354803 4278933659
-0.0043426789 -0.017563939 -0.011914508 4278802333
-0.0024087466 -0.017436825 -0.012303432 4279194523
-0.00015892088 -0.01880835 -0.011347192 4279260314
0.0017805099 -0.018680625 -0.011737037 4278998684
0.004046537 -0.020050883 -0.010783828 4279129498
0.0061573684 -0.020671412 -0.010503656 4279260314
0.0084422268 -0.022040129 -0.0095540797 4279194268
0.010395255 -0.021911018 -0.009946282 4278932128
0.012870215 -0.024026789 -0.0083304076 4278801059
0.015007976 -0.024645016 -0.0080552502 4278670498
0.017151121 -0.025262773 -0.0077810916 4278801824
0.019481633 -0.026627891 -0.0068401652 4278801824
0.021822844 -0.027992114 -0.0059013288 4279259803
0.023987437 -0.028608076 -0.0056311931 4279390873
0.026537411 -0.030718111 -0.0040297844 4280176528
0.02929613 -0.033574 -0.0017659292 4280831624
0.032466967 -0.037922159 0.0018237829 4281422714
0.035471853 -0.041521348 0.0047426559 4282471783
-0.013053089 -0.015136331 -0.015564475 4279393169
-0.01113572 -0.015010796 -0.015950438 4279326613
-0.0089241639 -0.016389728 -0.014990116 4279194779
-0.0068515465 -0.017015688 -0.014704468 4278997918
-0.0044687018 -0.019145057 -0.013075746 4278604453
-0.0023798607 -0.019769691 -0.01279316 4278998174
-0.00028559566 -0.020393871 -0.012511591 4278998174
0.0019745082 -0.02176901 -0.011560577 4279194779
0.0040822886 -0.02239202 -0.011281515 4279063709
0.0061954781 -0.023014575 -0.011003464 4278801568
0.0084824935 -0.024387509 -0.010057616 4279063453
0.01043804 -0.024258234 -0.010450325 4279063453
0.012741216 -0.025629885 -0.0095074801 4278866339
0.014878649 -0.02625031 -0.0092339022 4278931618
0.017200602 -0.027620494 -0.0082946531 4279325083
0.019533273 -0.028989755 -0.0073574777 4279390873
0.021876654 -0.03035818 -0.0064223553 4280503694
0.024605075 -0.033225089 -0.0041592047 4280896649
0.027734589 -0.037589341 -0.00057120994 4281681539
0.030896191 -0.041951299 0.0030104034 4282665839
-0.017283902 -0.015444264 -0.017291119 4279719824
-0.015094556 -0.016829327 -0.016329933 4279457938
-0.013035916 -0.017458789 -0.016043337 4279063708
-0.010971829 -0.018087722 -0.015757794 4278867103
-0.008755438 -0.019470662 -0.014801784 4278866593
-0.0068273246 -0.019344181 -0.015189725 4278735778
-0.0042902753 -0.02223406 -0.012895933 4278801568
-0.0023512915 -0.022106618 -0.013285878 4278736033
-9.7110868e-05 -0.023486644 -0.012337069 4278867103
0.0018473677 -0.023358583 -0.012727923 4279129244
0.0039548166 -0.023983821 -0.012450452 4278997918
0.00623326 -0.025361791 -0.011506247 4279063709
0.0085224546 -0.026738994 -0.010564093 4279259548
0.010651462 -0.027362414 -0.01029066 4279325339
0.013133079 -0.029490799 -0.0086859651 4279456663
0.015278205 -0.030112915 -0.0084155947 4281813373
-0.020965807 -0.030265018 -0.0058317403 4280638333
-0.020054407 -0.02407591 -0.01161101 4280046734
-0.018519044 -0.021677084 -0.01401871 4279914899
-0.016999573 -0.019279242 -0.016423075 4278866594
-0.014802724 -0.020668171 -0.015466689 4278866339
-0.013019063 -0.019785278 -0.016525244 4278932383
-0.011096634 -0.019659422 -0.016912235 4278801313
-0.0088807419 -0.021046743 -0.015959406 4278670498
-0.0066540465 -0.022433273 -0.015008616 4278670243
-0.0044165775 -0.023818932 -0.014059945 4278670243
-0.0023230352 -0.024447635 -0.013781602 4278473894
-6.6682696e-05 -0.025831848 -0.012836493 4278801313
0.0020403713 -0.026459411 -0.012560683 4279063198
0.0039901063 -0.026330911 -0.012952521 4279587223
0.0066015497 -0.029223964 -0.010679781 4279914645
0.008898247 -0.030604966 -0.0097424425 4280045968
0.011547234 -0.033495292 -0.0074770488 4281617279
0.013697341 -0.034119368 -0.0072094016 4283122799
-0.020580702 -0.034904964 -0.0043187626 4280768129
-0.020048819 -0.026418008 -0.012101865 4279718549
-0.018643565 -0.023252763 -0.015176228 4279783828
-0.01698792 -0.021607928 -0.016905341 4279063454
-0.014788866 -0.023001067 -0.01595268 4278801059
-0.012861356 -0.022875004 -0.016340788 4278866848
-0.010789871 -0.023507886 -0.016059991 4278932128
-0.008566469 -0.024899073 -0.015111963 4278997663
-0.0064814389 -0.025530763 -0.01483374 4278801568
-0.0043909848 -0.026161991 -0.014556534 4278932638
-0.0022950917 -0.026792757 -0.01428027 4278932383
-3.65749e-05 -0.028181128 -0.01333892 4278669734
0.0023926049 -0.030326679 -0.011734027 4279521434
0.0046753287 -0.031713217 -0.010797363 4279980178
0.0069688112 -0.033098944 -0.0098627023 4282074493
-0.020707481 -0.036513068 -0.0055001718 4281225598
-0.020173848 -0.028002106 -0.013265606 4279783574
-0.01876805 -0.024828151 -0.016333532 4279325338
-0.016976558 -0.023940675 -0.017390586 4279390873
-0.014775321 -0.025338084 -0.01644161 4279194268
-0.012845278 -0.025211863 -0.016830239 4278867359
-0.010771468 -0.02584672 -0.016551599 4279259804
-0.0083995275 -0.028003126 -0.014940623 4279390874
-0.0061604753 -0.029397577 -0.013998903 4279587224
-0.0042140111 -0.029269807 -0.014390476 4280110994
-0.0019587427 -0.030662864 -0.013451848 4281223815
-0.02096168 -0.037356414 -0.0073502515 4282208623
-0.020559102 -0.028057419 -0.015765715 4279980434
-0.019158103 -0.02487509 -0.018826116 4279455643
-0.017100975 -0.025513597 -0.018546049 4279259803
-0.014623947 -0.028442837 -0.016266905 4279390873
-0.012407068 -0.029843412 -0.015324321 4279456664
-0.010035895 -0.032006577 -0.013718177 4279455644
-0.0076485872 -0.034168556 -0.012115188 4280176529
-0.0055428296 -0.034803256 -0.011844438 4280438158
-0.020293847 -0.031935856 -0.014925763 4282340204
-0.018884279 -0.028744347 -0.017981302 4279653014
-0.016684152 -0.030150622 -0.017038822 4279391129
-0.014197275 -0.033087909 -0.01476822 4280832134
-0.011970203 -0.034492172 -0.013830975 4281486464
-0.018346533 -0.034163296 -0.015816823 4281292663
-0.015998416 -0.036341339 -0.014216192 4281423988
-0.013771936 -0.037750162 -0.013282165 4282405738
0.016565889 -0.04440318 -0.016964376 4283255399
0.020386729 -0.045754023 -0.018941339 4282732393
-0.035355851 0.020779137 0.014567224 4285426469
-0.033556364 0.021607917 0.013463879 4285819679
-0.031180806 0.018915668 0.015947251 4285754399
-0.028783657 0.016224898 0.018426327 4285623329
-0.026364915 0.013535675 0.020901078 4285688864
-0.039199308 0.01825415 0.01490332 4285098538
-0.038148455 0.02403355 0.0087799951 4285689373
-0.03658659 0.02627673 0.0062483028 4285754654
-0.034700401 0.026399404 0.0058679972 4285754398
-0.032349728 0.023696743 0.0083497595 4285951768
-0.029977471 0.020995587 0.01082724 4285754909
-0.027583629 0.01829597 0.013300393 4285556773
-0.043551698 0.019272875 0.011652974 4285296673
-0.041955285 0.021524537 0.0091190301 4285362463
-0.040479898 0.024484552 0.0058722645 4285624093
-0.039025716 0.02744326 0.0026298277 4285689373
-0.037261084 0.028273981 0.0015366804 4285623839
-0.035275154 0.027687021 0.0018734913 4285623584
-0.033167787 0.026391972 0.0029231384 4285689374
-0.030812383 0.023680948 0.0053973943 4285755418
-0.02855663 0.021679617 0.007154569 4285623838
-0.053621694 0.020658534 0.0088353343 4285361699
-0.052266233 0.025055423 0.0041476786 4285689883
-0.050301 0.02446422 0.0044864789 4285951514
-0.04833021 0.023873452 0.0048242062 4285951513
-0.046256818 0.022571154 0.0058769751 4285624348
-0.044371888 0.022693232 0.0054965355 4285558813
-0.042691432 0.024238668 0.0036861356 4285559069
-0.041021459 0.025783449 0.0018779393 4285690138
-0.039469682 0.028038949 -0.00064199511 4285952789
-0.037823394 0.029582366 -0.0024452806 4285820954
-0.035961494 0.029703386 -0.0028207414 4285820953
-0.033752233 0.027692266 -0.0010593049 4286018324
-0.031408347 0.024971768 0.0014106212 4285820699
-0.029285014 0.02367349 0.0024539037 4285689629
-0.026903301 0.020955604 0.0049163941 4285425703
-0.057520486 0.018864233 0.0084590614 4285296419
-0.056049041 0.022561096 0.0044916999 4285493279
-0.054431804 0.02482662 0.0019629868 4285558814
-0.052741535 0.026376583 0.0001535425 4285623838
-0.050787292 0.02578244 0.00049287546 4285689373
-0.048733294 0.024474394 0.0015461696 4285755418
-0.046668388 0.023167171 0.0025972771 4285624348
-0.044891074 0.024002641 0.0015045395 4285624349
-0.043118909 0.024837881 0.00041291025 4285558813
-0.041561566 0.027100161 -0.0021033036 4285558814
-0.040127613 0.030074943 -0.0053285379 4285755674
-0.038384251 0.030908566 -0.0064141648 4285821464
-0.036420293 0.030315746 -0.0060762689 4285755673
-0.034219697 0.028297476 -0.0043180566 4285689883
-0.032002851 0.026280351 -0.0025630444 4285624348
-0.029890686 0.024976991 -0.0015208693 4285624349
-0.0275205 0.022249587 0.00093732309 4285558304
-0.02512873 0.019523669 0.0033912342 4286410003
-0.058044314 0.020900883 0.0037393905 4285427489
-0.056502178 0.023890588 0.00049829483 4285690649
-0.054809242 0.02544491 -0.0013084589 4285756183
-0.053126775 0.026998699 -0.0031130631 4285689628
-0.051272117 0.027118474 -0.0034876503 4285624094
-0.049229264 0.025805302 -0.0024354272 4285755673
-0.047078833 0.023776576 -0.00067252759 4285887254
-0.045210145 0.023897521 -0.0010497449 4285624349
-0.043341242 0.024018563 -0.0014269454 4285624349
-0.041786194 0.026287191 -0.0039377995 4285558813
-0.040246971 0.028554898 -0.0064453762 4285558814
-0.03850355 0.02939067 -0.0075293975 4285558558
-0.036539875 0.028795611 -0.0071931165 4285558303
-0.034455284 0.027485833 -0.006148797 4285558303
-0.032477871 0.02689185 -0.0058151581 4285624093
-0.030494921 0.026298322 -0.005482554 4285558048
-0.028259657 0.024276003 -0.0037360853 4285623839
-0.025629908 0.020111553 0.00012786407 4285492003
-0.058164082 0.019361846 0.0026083263 4285295399
-0.056870751 0.024518445 -0.0027680909 4285493534
-0.055185594 0.026076619 -0.0045700539 4285690138
-0.053599365 0.028353229 -0.0070826272 4285821718
-0.051664345 0.027753405 -0.0067427619 4285755929
-0.049723789 0.027154006 -0.0064039654 4285821463
-0.04748819 0.024399437 -0.0039325254 4285624349
-0.045627631 0.024519816 -0.0043081315 4285624349
-0.043665022 0.023922108 -0.0039735846 4285624604
-0.041905887 0.02476088 -0.005059286 4285624603
-0.040151887 0.02559939 -0.0061438796 4285624604
-0.038403057 0.026437707 -0.0072274101 4285624604
-0.036546856 0.026558243 -0.0076018129 4285624604
-0.034690477 0.02667889 -0.0079761744 4285689883
-0.032833904 0.026799634 -0.0083505102 4285952533
-0.030977152 0.026920483 -0.0087248087 4285886488
-0.028873794 0.025607809 -0.0076873819 4285886233
-0.026381813 0.022146106 -0.0045362106 4285689118
-0.056906395 0.022273377 -0.0031754086 4285361953
-0.055389598 0.025278889 -0.0063982266 4285559068
-0.053717315 0.026840605 -0.0081942193 4285559068
-0.05187355 0.026959598 -0.0085666664 4285558559
-0.049935937 0.026357807 -0.0082289409 4285624094
-0.047800116 0.024315 -0.0064730668 4285558303
-0.045846038 0.023714393 -0.0061384928 4285623839
-0.043886378 0.023114286 -0.0058050216 4285624093
-0.041921183 0.022514611 -0.0054726079 4285689884
-0.040057451 0.022635423 -0.0058486853 4285624349
-0.038193524 0.022756346 -0.006224731 4285558558
-0.03666649 0.025036447 -0.0087199006 4285689883
-0.034925245 0.025876552 -0.0098001044 4285755419
-0.033189178 0.026716419 -0.010879193 4285689628
-0.031217508 0.026117735 -0.010547651 4285623583
-0.029240355 0.025519494 -0.010217154 4285886743
-0.026880451 0.022765234 -0.0077766394 4285755163
-0.024627402 0.020731114 -0.006043531 4285558048
-0.022358142 0.018698141 -0.0043136189 4286476558
-0.056776725 0.0185766 -0.0021643294 4285295909
-0.055422239 0.023038596 -0.0068026897 4285427999
-0.053835198 0.025328256 -0.009305628 4285624859
-0.051900752 0.02472394 -0.0089690052 4285624348
-0.0500542 0.024843164 -0.0093419738 4285689884
-0.048303597 0.025685392 -0.010422921 4285821208
-0.046360485 0.025081895 -0.010087857 4285886999
-0.044310309 0.023756292 -0.0090469196 4285821208
-0.042145088 0.021709032 -0.0073017059 4285755418
-0.040284142 0.021829627 -0.0076772524 4285624093
-0.038642026 0.023394469 -0.0094633987 4285624093
-0.03712263 0.025680549 -0.011952078 4285821464
-0.035389356 0.026522286 -0.013029047 4285821209
-0.033661254 0.027363837 -0.014104941 4285623584
-0.031697907 0.026762359 -0.013773349 4285557794
-0.029606171 0.025440175 -0.012740254 4285623839
-0.02750355 0.024118818 -0.01170926 4285821209
-0.025261849 0.022077382 -0.0099788262 4285689373
-0.055455171 0.020794183 -0.0072101979 4285296163
-0.053865038 0.023090541 -0.0097088479 4285559323
-0.052018844 0.023209617 -0.010081846 4285624858
-0.050172411 0.023328774 -0.010454832 4285689883
-0.048613675 0.025623415 -0.012946986 4285820953
-0.046676189 0.025017347 -0.012612451 4285820954
-0.044733144 0.024411678 -0.012278929 4285952533
-0.042472579 0.021632738 -0.009832208 4285820953
-0.040723763 0.022477355 -0.010910903 4285624093
-0.039089449 0.024045974 -0.012692178 4285624093
-0.037577666 0.026338115 -0.015174441 4285624348
-0.035852358 0.027181488 -0.016248183 4285887509
-0.03413222 0.028024621 -0.017320804 4285887508
-0.032057159 0.026696883 -0.016287724 4285821718
-0.029971227 0.025369897 -0.015256723 4285887508
-0.027874447 0.024043772 -0.014227866 4285755928
-0.025894858 0.023441464 -0.013901045 4285558813
-0.023517564 0.020671032 -0.011477093 4285624349
-0.021118715 0.017902106 -0.0090574035 4286412043
-0.055318132 0.01708965 -0.0062068221 4285097774
-0.054070733 0.022304341 -0.011527894 4285493534
-0.052498691 0.024606153 -0.014017974 4285690139
-0.050756179 0.025452062 -0.015094113 4285689884
-0.049114622 0.027025066 -0.016873967 4285557793
-0.047089629 0.025688898 -0.015834613 4285558049
-0.045053735 0.024353575 -0.014797436 4285689629
-0.04290314 0.022292219 -0.013059186 4285755419
-0.04116229 0.023138463 -0.014134659 4285624093
-0.039535768 0.024710953 -0.015911128 4285624349
-0.037807919 0.025556546 -0.016983835 4285558814
-0.036085226 0.026401903 -0.018055424 4285558559
-0.034367725 0.027247019 -0.019125896 4285624348
-0.032415666 0.026640419 -0.018795408 4285624350
-0.030335553 0.025308724 -0.017766582 4285558814
-0.028244577 0.023977786 -0.016739827 4285493023
-0.026142769 0.022647683 -0.01571523 4285493534
-0.023638375 0.019143246 -0.012599407 4285558814
-0.020973861 0.01491579 -0.0087917037 4285426214
-0.054188408 0.020792767 -0.012638764 4285361953
-0.052886821 0.025290661 -0.017236784 4285624348
-0.051152267 0.026138201 -0.018309703 4285887254
-0.049422853 0.026985489 -0.019381519 4285623838
-0.047501966 0.026373915 -0.019046975 4285558048
-0.045474559 0.025033601 -0.018011359 4285755418
-0.043436266 0.02369412 -0.016977912 4285821718
-0.041706048 0.024541833 -0.018049613 4285624349
-0.039980985 0.025389314 -0.019120192 4285559068
-0.038149439 0.025508083 -0.019489743 4285559069
-0.036317699 0.025626972 -0.019859254 4285493278
-0.034485795 0.025745973 -0.020228725 4285559324
-0.032414347 0.024409212 -0.019201538 4285493533
-0.030332029 0.023073267 -0.018176466 4285493023
-0.02823884 0.02173809 -0.017153461 4285493023
-0.026007101 0.019676343 -0.015435928 4285558813
-0.023367979 0.015433993 -0.011633025 4285558558
-0.020829655 0.011920933 -0.008532213 4285491494
0.017310377 -0.0024925321 0.00041498151 4286080798
0.019627664 -0.0038105473 0.0013946733 4285688609
0.021395838 -0.0029571503 0.00031774584 4285426213
0.023158666 -0.0021039993 -0.00075802673 4285426468
0.025300069 -0.002697438 -0.00046507921 4285360934
-0.054218575 0.018549293 -0.013046253 4285229609
-0.053183757 0.025256515 -0.019743072 4285427998
-0.051640071 0.027569603 -0.022217536 4285755929
-0.049825817 0.02768667 -0.022584036 4285821719
-0.047913231 0.027072344 -0.022249484 4285821974
-0.045793481 0.02499577 -0.020514986 4285821974
-0.043864466 0.024382688 -0.020183619 4285558814
-0.041929916 0.023770005 -0.01985326 4285559068
-0.040098645 0.023888648 -0.020222833 4285559323
-0.038155727 0.023276746 -0.019894062 4285493533
-0.036321439 0.023395769 -0.02026411 4285493534
-0.034253277 0.022054326 -0.019239636 4285493789
-0.032174259 0.020713635 -0.01821724 4285493534
-0.029962189 0.018643845 -0.016500842 4285624859
-0.027858786 0.017304949 -0.015483209 4285558813
-0.025616974 0.015237302 -0.013772642 4285624094
-0.023098543 0.011711925 -0.010676138 4285624093
-0.020420298 0.0074591264 -0.0068909265 4285491494
0.014697194 -0.0020385534 -0.0024199458 4285490728
0.017000578 -0.0033620298 -0.001440811 4285492514
0.019498449 -0.0054105073 0.00022001658 4285558049
0.021639522 -0.006006375 0.00051120948 4285492768
0.023596853 -0.0058762133 0.00011871662 4285427234
0.02574598 -0.0064713657 0.00040851254 4285361189
-0.053030178 0.021560289 -0.018737573 4285427998
-0.051663324 0.02534854 -0.022609849 4285559069
-0.050037101 0.02693348 -0.024376772 4285493023
-0.048127472 0.026316751 -0.024043299 4285493023
-0.046011023 0.024233386 -0.022313094 4285558814
-0.043878347 0.022151157 -0.020586099 4285559068
-0.041941419 0.021536477 -0.02025792 4285559068
-0.039998956 0.020922247 -0.019930791 4285559324
-0.037939638 0.019575644 -0.01890799 4285690649
-0.035869449 0.018229797 -0.017887274 4285690393
-0.033671707 0.016152311 -0.016173087 4285690649
-0.031696461 0.015540563 -0.015852228 4285690394
-0.029471658 0.013465043 -0.014143341 4285558558
-0.027480058 0.012854565 -0.013825627 4285492768
-0.025355577 0.011512794 -0.012815516 4285492769
-0.022830106 0.0079769567 -0.0097286683 4285492768
-0.020410463 0.0051744133 -0.0073395544 4285492259
0.0064701512 -0.0026826411 -0.0033983709 4285491238
0.0082355402 -0.0018257722 -0.0044719772 4285426213
0.010341357 -0.0024267361 -0.0041757943 4285492514
0.012277022 -0.002298601 -0.0045643831 4285492259
0.014747396 -0.0043556988 -0.0029031606 4285426723
0.017052963 -0.0056833625 -0.0019277306 4285558558
0.019552834 -0.0077382624 -0.00027225167 4285493024
0.021696284 -0.0083361864 1.6868114e-05 4285427234
0.023656145 -0.0082058832 -0.00037614815 4285361444
0.025807621 -0.0088029876 -8.8496134e-05 4285230118
0.02815873 -0.010127023 0.00087818131 4285230373
-0.052787818 0.017114833 -0.017042166 4285229609
-0.051686883 0.02312332 -0.023005141 4285361699
-0.049962632 0.023976758 -0.024071105 4285493278
-0.047852352 0.021886349 -0.022344669 4285493279
-0.045625389 0.019061338 -0.019924201 4285493278
-0.043376848 0.01623784 -0.017508008 4285558558
-0.041424178 0.015621953 -0.017184684 4285624349
-0.039357461 0.014271352 -0.016166756 4285558049
-0.037279896 0.012921505 -0.015150905 4285492003
-0.035305284 0.012307353 -0.014831775 4285558559
-0.033208653 0.010958932 -0.01381962 4285624093
-0.031220339 0.010345861 -0.01350311 4285558558
-0.029226504 0.0097332597 -0.013187628 4285492768
-0.027227178 0.0091211349 -0.012873165 4285492513
-0.025222361 0.0085094422 -0.012559753 4285426979
-0.022952281 0.0064305812 -0.010864662 4285427233
-0.020400912 0.0028856248 -0.0077911825 4285426468
0.0019864105 -0.0023268387 -0.0058384361 4285425704
0.0040783659 -0.0029312521 -0.005541374 4285426214
0.0061757416 -0.0035352409 -0.0052452749 4285492514
0.0082785189 -0.0041387081 -0.0049502114 4285492513
0.010386694 -0.0047416985 -0.0046561407 4285492769
0.012500264 -0.0053442121 -0.0043630721 4285492513
0.014797281 -0.0066769347 -0.0033893138 4285492768
0.017105022 -0.008008793 -0.0024176687 4285427234
0.019240092 -0.0086095333 -0.0021286402 4285427234
0.021566618 -0.0099399462 -0.0011605397 4285427233
0.023526337 -0.009809643 -0.0015535187 4285361444
0.025677493 -0.010408945 -0.0012674499 4285230118
-0.051341586 0.017940331 -0.020614393 4285295654
-0.049603924 0.018796742 -0.021681398 4285624859
-0.047480918 0.016700622 -0.019962538 4285624859
-0.045141108 0.013129789 -0.016855547 4285624604
-0.043083258 0.011773989 -0.015839245 4285558559
-0.041120172 0.011156574 -0.015519682 4285426723
