# .PCD v0.7 - Point Cloud Data file format
VERSION 0.7
FIELDS x y z rgba
SIZE 4 4 4 4
TYPE F F F U
COUNT 1 1 1 1
WIDTH 964
HEIGHT 1
VIEWPOINT 0 0 0 1 0 0 0
POINTS 964
DATA ascii
0.0097866505 -0.023849942 -0.0090451129 4286855234
0.01172518 -0.023697399 -0.0095153973 4286854978
0.016213384 -0.025655344 -0.0084787272 4286789698
0.018160019 -0.025501728 -0.0089506581 4287116609
0.021151472 -0.029118441 -0.0061339405 4287247423
0.023957845 -0.031979047 -0.0039806115 4287640633
-0.0078064688 -0.026826151 -0.0059667532 4287248953
-0.0060432106 -0.025915787 -0.0071021845 4287968054
-0.0041081533 -0.025764517 -0.0075723827 4288033588
-0.0018137507 -0.027130306 -0.0067160842 4288230448
-5.5465847e-05 -0.026219986 -0.0078499876 4288950824
0.0022523664 -0.027584396 -0.0069967886 4288820008
0.004195746 -0.027431972 -0.0074686338 4288623659
0.0063294135 -0.028037161 -0.0072797802 4288296239
0.008468464 -0.028641827 -0.0070920889 4288296239
0.010221858 -0.027731217 -0.0082243644 4288623659
0.012168176 -0.027578034 -0.0086965226 4287903284
0.014114555 -0.02742473 -0.0091686137 4287968308
0.016264439 -0.028028034 -0.0089831762 4288099124
0.018625762 -0.029387198 -0.0081421779 4288164404
0.021206468 -0.031501733 -0.0066475058 4288556593
0.024437288 -0.035883047 -0.0031901235 4288425524
0.027057786 -0.037994169 -0.0017048875 4286463299
-0.0074419342 -0.030719139 -0.0051334584 4287576629
-0.0058447905 -0.029044852 -0.0069320765 4287968309
-0.0039045997 -0.028893188 -0.0074035237 4288230448
-0.0017848797 -0.029502161 -0.0072133061 4288164913
0.00034021959 -0.030110598 -0.0070243003 4288623658
0.0024707243 -0.030718498 -0.0068364451 4288688938
0.0046066046 -0.03132581 -0.0066498527 4288688938
0.0065578483 -0.031172648 -0.0071235122 4288558123
0.0087018237 -0.031779073 -0.0069386968 4288296493
0.010460563 -0.030865893 -0.0080705965 4288753963
0.012412019 -0.030712329 -0.0085440213 4288099633
0.014363542 -0.030558616 -0.0090173567 4288295728
0.016518351 -0.03116367 -0.0088347765 4288099633
0.018678501 -0.031768151 -0.0086533809 4288230449
0.021052539 -0.033130579 -0.0078185918 4288621873
0.023859575 -0.036008619 -0.00567848 4288294708
-0.0077636577 -0.03157071 -0.0069573047 4287313980
-0.0058210678 -0.031418972 -0.0074294331 4288033589
-0.0038783886 -0.031267129 -0.0079015018 4288230704
-0.0017563887 -0.031878114 -0.0077134641 4288165168
0.00018915161 -0.031725779 -0.0081860246 4288427308
0.00250379 -0.033098467 -0.0073409872 4288820008
0.0046419501 -0.03370779 -0.0071565853 4288820008
0.0067854822 -0.03431657 -0.0069733979 4288558123
0.0087419488 -0.034162857 -0.0074482234 4287969073
0.010503385 -0.033247314 -0.0085791582 4288492079
0.012259588 -0.03233204 -0.0097087147 4288034098
0.014411334 -0.032939635 -0.0095271217 4288099634
0.016568426 -0.033546686 -0.009346717 4287903284
0.018730856 -0.034153171 -0.0091675194 4287968563
0.020898633 -0.034759156 -0.0089894729 4288164404
0.02328271 -0.036124997 -0.0081603201 4287313468
-0.0080849528 -0.032417573 -0.0087777721 4287312959
-0.0059714504 -0.03303165 -0.0085894959 4287509819
-0.0040289126 -0.032879807 -0.00906152 4287771958
-0.0019072779 -0.033492997 -0.0088750245 4287903284
0.00021976978 -0.034105696 -0.0086897137 4288099633
0.0023521781 -0.034717806 -0.0085056582 4288230449
0.0044899732 -0.035329334 -0.0083227949 4288361008
0.0062539652 -0.034411669 -0.0094529176 4288099378
0.0083972141 -0.035022505 -0.0092711756 4287837494
0.010350931 -0.034868903 -0.0097452598 4287968054
0.012502257 -0.035478838 -0.0095652798 4287902774
0.014458749 -0.035324745 -0.010039826 4287771959
0.016618118 -0.0359338 -0.0098616155 4287837238
0.018577352 -0.03577923 -0.010336638 4287836984
0.020744763 -0.036387421 -0.010160123 4287901753
0.022917494 -0.036995023 -0.0099848555 4287182144
-0.0085766464 -0.032491706 -0.011253704 4287444028
-0.006468799 -0.033108495 -0.011065655 4287706423
-0.0045317151 -0.032957084 -0.011536376 4287771959
-0.0022369213 -0.034340255 -0.010693264 4287903284
6.8552792e-05 -0.035722516 -0.0098526189 4287706423
0.0023846924 -0.037103765 -0.0090145152 4288033079
0.0039645582 -0.035417117 -0.010798682 4287902263
0.0059126914 -0.035264201 -0.011271597 4287902008
0.0076688528 -0.0343448 -0.012398132 4287705913
0.010003839 -0.035724089 -0.011564159 4287772468
0.011954822 -0.035570554 -0.012037472 4287903284
0.01390586 -0.035416886 -0.012510699 4287378749
0.015654325 -0.034497596 -0.013634929 4287182399
0.017808083 -0.03510914 -0.013456878 4287378749
0.019967165 -0.035720147 -0.013280042 4287639358
-0.0015919991 0.0059859231 0.033381782 4284638774
-0.03259328 0.0083980411 0.032970041 4282411604
-0.030923665 0.0099632815 0.031067988 4279673158
-0.028125502 0.0058733821 0.034873612 4280391238
-0.019825086 0.004365027 0.035097346 4281566024
-0.018789925 0.0087529346 0.03035902 4281370184
-0.017786391 0.01313851 0.025628423 4281110339
-0.01633174 0.015405595 0.023031516 4280199478
-0.014402136 0.015556112 0.022562401 4280331058
-0.011807501 0.012886994 0.024922675 4280071214
-0.0095292479 0.011629112 0.025864413 4281243194
-0.0077547766 0.012485735 0.024685504 4281633853
-0.0059854649 0.013342053 0.023507928 4284707369
-0.037035286 0.0086010024 0.030607598 4281565768
-0.036436915 0.015847526 0.023000231 4280980033
-0.034933224 0.018124156 0.020395609 4279546934
-0.033166163 0.018981211 0.019219263 4281241408
-0.030835561 0.017001927 0.020890405 4280915008
-0.028488845 0.015024044 0.022557667 4280133179
-0.026126035 0.013047449 0.024221124 4280915264
-0.024647787 0.015322566 0.021623032 4281242684
-0.023032486 0.016888335 0.019737827 4281244723
-0.021738395 0.019869365 0.016438551 4280591158
-0.019991145 0.020725548 0.015267527 4280850494
-0.018409751 0.022289012 0.013390744 4281306689
-0.016185366 0.021022283 0.014342181 4281111613
-0.013452187 0.01763507 0.01740828 4280917303
-0.010692336 0.014250033 0.020467965 4281242683
-0.0087623745 0.014400862 0.019998981 4282027829
-0.0070062354 0.01525832 0.018826222 4284313393
-0.038498148 0.014103733 0.022318138 4281499723
-0.037790298 0.020658411 0.015444992 4279937593
-0.036036618 0.021516487 0.01427344 4280980288
-0.034148701 0.021662854 0.013813784 4281371203
-0.031834699 0.019675717 0.015483996 4281240898
-0.029504612 0.017689884 0.017150398 4280263484
-0.027305692 0.016416222 0.018104253 4280589629
-0.025845483 0.01869642 0.015515478 4281046079
-0.024400987 0.020975552 0.012930555 4280915518
-0.022816986 0.022543322 0.011056285 4279742774
-0.021085575 0.023400467 0.00989067 4279547954
-0.019038275 0.022837687 0.010137331 4280850748
-0.01682236 0.021565937 0.01108749 4280916283
-0.014264069 0.018876381 0.013443438 4280266799
-0.011684448 0.016188584 0.015794275 4280787508
-0.009596765 0.015629396 0.016031371 4281832245
-0.0080249012 0.017196923 0.014160575 4284052273
-0.039038718 0.014651217 0.019037252 4281368399
-0.038203299 0.020511054 0.012890607 4279872823
-0.036454819 0.02137088 0.011721933 4279285048
-0.034572303 0.021516792 0.01126357 4279025204
-0.032547846 0.020949386 0.011513572 4278438448
-0.030373469 0.019669272 0.012470081 4279937593
-0.028188311 0.018390127 0.013423989 4280784704
-0.026591152 0.019963086 0.011549627 4280784193
-0.025004417 0.021535374 0.0096778292 4280653888
-0.023428075 0.02310691 0.007808676 4280653633
-0.021546856 0.023253381 0.0073511247 4279806778
-0.019665487 0.023399964 0.0068936031 4279677239
-0.017621003 0.02283489 0.0071393177 4280264759
-0.014908679 0.019424081 0.010194067 4280656439
-0.012506187 0.017438136 0.011838568 4281113143
-0.010429442 0.0168759 0.012076678 4281702193
-0.039447039 0.014495738 0.016475471 4281956428
-0.038615406 0.020372763 0.010342814 4280718913
-0.037008382 0.021950401 0.0084689055 4280784448
-0.035133913 0.022095658 0.0080124754 4280914753
-0.032976158 0.020809732 0.0089696459 4280849729
-0.030663408 0.018809326 0.010630393 4280980544
-0.028628267 0.018240727 0.010876287 4280849984
-0.026886635 0.01910264 0.009711232 4280914754
-0.025302254 0.020679094 0.0078432579 4280849729
-0.023573473 0.02154021 0.0066814851 4280718914
-0.022007279 0.023115464 0.0048180949 4280784194
-0.020131327 0.023261577 0.0043618605 4280914753
-0.018255211 0.023407824 0.0039056744 4281045569
-0.015882775 0.021412842 0.0055524725 4280916029
-0.013326235 0.018705651 0.0078957789 4280916538
-0.011089735 0.017426983 0.0088345632 4281439543
-0.039592959 0.012912065 0.015335742 4282217038
-0.038759798 0.018806696 0.0092157889 4280718403
-0.037152484 0.020388715 0.0073450636 4280980288
-0.035278141 0.020533912 0.0068886243 4280915263
-0.033403598 0.020679213 0.006432211 4281046078
-0.031096883 0.018671744 0.0080894865 4281111103
-0.028920718 0.017383017 0.0090390164 4281176893
-0.026883058 0.016812481 0.0092827063 4280916028
-0.025143787 0.017676465 0.0081199165 4280915518
-0.023409657 0.018540211 0.006958412 4280850238
-0.02183786 0.020120181 0.0050969422 4280719423
-0.020436391 0.022415869 0.002537366 4280459324
-0.018725581 0.02327805 0.0013818052 4279937848
-0.01635918 0.021276005 0.0030251443 4280134453
-0.01397673 0.019275352 0.0046646222 4281176383
-0.011407733 0.016560458 0.0069984104 4281568319
-0.0095099509 0.016708784 0.0065372456 4284316964
-0.039869353 0.012049578 0.013489995 4282608974
-0.039170533 0.018682241 0.0066778455 4280653633
-0.037704058 0.020988606 0.0041067358 4281045569
-0.035976261 0.02185338 0.0029479936 4278961199
-0.033830151 0.020557761 0.0039013531 4280136494
-0.031241894 0.01710356 0.0069610681 4279353899
-0.029212691 0.016530059 0.0072050802 4280720954
-0.027178004 0.015957013 0.0074478723 4280981563
-0.025593042 0.017542221 0.0055862647 4281046844
-0.023709729 0.017688669 0.0051280558 4280720699
-0.022297338 0.019991644 0.0025706403 4280916284
-0.020900667 0.022293463 1.7169863e-05 4279156528
-0.019195072 0.023157407 -0.0011355039 4279481398
-0.016834721 0.021148324 0.0005043298 4279223084
-0.014290676 0.018422596 0.0028375406 4280916539
-0.011895567 0.016416401 0.0044691283 4281503038
-0.010176137 0.017281815 0.0033133943 4283076134
-0.040275618 0.01191479 0.010943051 4281304903
-0.039314397 0.017121136 0.0055543687 4280653889
-0.037847407 0.019434072 0.0029880125 4280589118
-0.036257841 0.021023482 0.0011281595 4280263994
-0.034255832 0.020445399 0.0013770331 4280328764
-0.029504173 0.015681751 0.0053745527 4280329528
-0.027770236 0.016549535 0.0042162091 4281046588
-0.026192926 0.018138483 0.0023597088 4281112124
-0.024317682 0.018284269 0.0019034445 4280916539
-0.022755921 0.019872166 5.0915405e-05 4280199989
-0.021364078 0.022180192 -0.0024965387 4281045313
-0.019501574 0.022325307 -0.0029494707 4281567554
-0.017144606 0.020309322 -0.0013136975 4281176384
-0.014604151 0.017574534 0.0010138229 4281177149
-0.012382522 0.016281493 0.001946345 4281046589
-0.010495596 0.01642891 0.0014877785 4282878508
-0.040811159 0.012514405 0.0076996107 4281891404
-0.039723754 0.017010435 0.0030263644 4281110848
-0.038397029 0.020054415 -0.00023569353 4280850238
-0.03667701 0.020922907 -0.0013893154 4281175618
-0.034680612 0.020342208 -0.0011407826 4281175618
-0.032248594 0.017589286 0.0012058634 4280915518
-0.030233286 0.017010264 0.0014499463 4280133688
-0.028509855 0.017879389 0.00029576942 4280720188
-0.026942864 0.019471847 -0.0015549269 4280916028
-0.025078319 0.019616775 -0.0020086095 4280720699
-0.023526877 0.021208264 -0.0038554147 4279156019
-0.021985866 0.022799004 -0.0056995656 4280589118
-0.020131439 0.022943456 -0.0061505567 4281436738
-0.01778315 0.020920247 -0.0045176391 4280850494
-0.015586041 0.019620746 -0.0035824757 4280265524
-0.013208337 0.017600052 -0.0019565504 4281634619
-0.011504658 0.018468574 -0.0031052232 4282486574
-0.041215457 0.012400016 0.0051673241 4282086988
-0.040264845 0.01763612 -0.0001959186 4280915008
-0.038810126 0.019961163 -0.0027495287 4279676983
-0.037095308 0.020831399 -0.0039002746 4280329274
-0.035245061 0.020974696 -0.0043508708 4280720189
-0.033108279 0.019665219 -0.003405055 4279547443
-0.030960709 0.018356688 -0.0024617892 4280263994
-0.029247783 0.019227169 -0.0036117807 4280458558
-0.027539968 0.020097353 -0.0047604609 4280719423
-0.025991052 0.02169285 -0.0066034328 4280784703
-0.024139717 0.021836825 -0.0070538465 4280198204
-0.022447303 0.022706162 -0.0081985909 4279611958
-0.02027487 0.021400124 -0.0072608758 4280133943
-0.018256068 0.020819858 -0.0070187766 4280003383
-0.016064793 0.019515544 -0.0060855262 4280720698
-0.013862781 0.018212117 -0.0051547755 4281634364
-0.011994675 0.018358022 -0.0056088008 4282093108
-0.042267598 0.01594314 -0.00085766427 4282281553
-0.041731365 0.023381572 -0.0083028562 4280522818
-0.039897501 0.02352339 -0.0087496191 4280719678
-0.037650406 0.021478094 -0.0071026338 4280915264
-0.035527579 0.020163037 -0.0061567836 4280850239
-0.033393957 0.018848859 -0.0052134562 4280783938
-0.031540811 0.018992551 -0.005664628 4280849219
-0.029539205 0.018408127 -0.0054204538 4280587588
-0.02798488 0.020008303 -0.0072615631 4280718659
-0.026133835 0.020152114 -0.0077120066 4280784194
-0.024438865 0.021023713 -0.0088558402 4280849474
-0.022431277 0.020440109 -0.0086127724 4281110339
-0.020418249 0.019857086 -0.0083709937 4281241409
-0.018399775 0.01927457 -0.0081304759 4281175874
-0.016375855 0.018692605 -0.0078911874 4280914243
-0.01383812 0.015931375 -0.0055826143 4281307199
-0.011967488 0.016077466 -0.0060372674 4281569085
-0.042410053 0.014394231 -0.0019724509 4282411603
-0.042004094 0.022586323 -0.010099379 4280718404
-0.040172994 0.022727888 -0.010545494 4281176893
-0.037929274 0.020675749 -0.0089026131 4281241153
-0.035669498 0.018624984 -0.0072636176 4281240899
-0.033821948 0.018768109 -0.0077135339 4281045059
-0.031974204 0.018911354 -0.0081634056 4280848453
-0.029830165 0.017593786 -0.0072257542 4280783173
-0.028127484 0.018467896 -0.0083699469 4280914243
-0.026429944 0.019341744 -0.0095128659 4280849474
-0.024581522 0.019485444 -0.009962609 4280914753
-0.022256956 0.017440386 -0.0083388016 4280915008
-0.020077653 0.016126119 -0.0074093831 4280915264
-0.017887615 0.01481276 -0.006482447 4280980543
-0.015853427 0.01422938 -0.0062473142 4281111103
-0.013644561 0.012917742 -0.0053248391 4281045569
-0.011424959 0.011607014 -0.0044048456 4281110848
-0.0095437393 0.011754014 -0.0048620133 4283595569
-0.04148446 0.017392501 -0.0077164164 4281371714
-0.039640255 0.017535053 -0.0081657479 4281240644
-0.037384033 0.01547727 -0.0065308516 4280848453
-0.03525167 0.014154151 -0.0055938982 4280848454
-0.033251092 0.013565019 -0.0053529372 4280716618
-0.031535447 0.014442086 -0.0064988271 4280913223
-0.029529206 0.01385358 -0.0062590991 4280847944
-0.027818523 0.014730468 -0.007403635 4280783428
-0.025806636 0.01414261 -0.0071651251 4280848709
-0.024100892 0.01501932 -0.0083082933 4280652359
-0.021766484 0.012968451 -0.0066918009 4280652868
-0.019738227 0.012382187 -0.0064570317 4280719934
-0.017377041 0.010333598 -0.0048469109 4280850749
-0.015332595 0.0097488239 -0.0046159076 4281046333
-0.013113678 0.0084335729 -0.0036991676 4281242173
-0.011055723 0.0078500062 -0.0034712544 4281894464
-0.0089923218 0.0072670355 -0.0032446152 4283659828
-0.040307894 0.0084965378 -0.0018769177 4281630028
-0.038706206 0.01011283 -0.0037202509 4281239623
-0.036840752 0.010257073 -0.0041747307 4281109574
-0.034975111 0.01040145 -0.004629151 4280912968
-0.032966919 0.0098106787 -0.0043917065 4280912968
-0.031098254 0.0099554881 -0.0048467191 4280978249
-0.029229425 0.010100402 -0.0053017074 4281108298
-0.027360402 0.01024545 -0.0057566566 4281044039
-0.025491208 0.010390617 -0.006211563 4280718148
-0.023621857 0.010535881 -0.0066664452 4280783938
-0.021435849 0.009213239 -0.005745302 4280719169
-0.019078195 0.0071576908 -0.0041393111 4280719679
-0.017031603 0.0065707639 -0.0039105765 4280915518
-0.014979541 0.0059843063 -0.0036830506 4280915518
-0.012922063 0.0053984448 -0.0034567877 4281046333
-0.010687664 0.0040801242 -0.0025470126 4282091068
-0.0087908134 0.0042283162 -0.0030079912 4283659064
-0.039661631 0.0025099143 0.0011596996 4281695053
-0.038043797 0.0041318163 -0.00068438426 4281240134
-0.03629946 0.0050151348 -0.0018342556 4281043784
-0.034281187 0.0044228211 -0.0016009957 4280979013
-0.03225746 0.0038310513 -0.0013689883 4281108808
-0.030517846 0.0047142878 -0.0025174888 4281108808
-0.028635897 0.0048602149 -0.0029756734 4281108808
-0.027053967 0.0064799264 -0.0048105023 4281108808
-0.02502422 0.0058890283 -0.004579646 4280849219
-0.023144402 0.0060350969 -0.0050370838 4280784194
-0.020948343 0.0047088489 -0.00412167 4280849473
-0.018902227 0.004119508 -0.0038945111 4280719679
-0.016850658 0.0035307556 -0.0036686282 4280980289
-0.014959648 0.0036781281 -0.0041284612 4281110593
-0.012899861 0.0030902401 -0.0039044167 4281110594
-0.011005938 0.0032380745 -0.0043647843 4281830714
-0.0092858002 0.004121013 -0.0055076363 4283855158
-0.039805986 0.00094005466 2.9828399e-05 4281630793
-0.038187861 0.002566345 -0.0018110648 4281239879
-0.036443435 0.0034518242 -0.0029593483 4281043784
-0.034425512 0.0028572753 -0.0027276594 4280848710
-0.032260127 0.0015235618 -0.0018084981 4280913734
-0.030373193 0.0016697496 -0.0022679996 4281174854
-0.028633341 0.0025553182 -0.0034149117 4281239879
-0.026898608 0.0034405515 -0.0045604496 4281174598
-0.024863876 0.0028478503 -0.0043324488 4280979778
-0.022978917 0.0029942989 -0.0047911494 4281044803
-0.021093778 0.0031408593 -0.0052498183 4281110339
-0.01888752 0.0018110797 -0.0043400489 4280979778
-0.016833633 0.0012202859 -0.004116388 4281044803
-0.01494012 0.0013678521 -0.0045768358 4281240898
-0.013046458 0.00151553 -0.0050372425 4281371458
-0.010981582 0.00092595071 -0.0048159938 4281829439
-0.0092587397 0.0018112734 -0.0059578847 4284115768
-0.039950274 -0.0006294921 -0.0010998305 4281435209
-0.038198046 0.00025870651 -0.0022485126 4280848199
-0.036587372 0.0018888116 -0.0040842351 4280848708
-0.034152441 -0.00093419105 -0.0017908439 4280653124
-0.032263167 -0.0007879734 -0.0022510123 4280652869
-0.030229323 -0.0013832897 -0.0020246953 4281044294
-0.028484091 -0.00049517304 -0.0031712484 4281174598
-0.026743986 0.00039263815 -0.0043164808 4281305159
-0.024856649 0.00053913891 -0.0047758613 4281109829
-0.023124158 0.0014266595 -0.0059191007 4281175109
-0.021239154 0.0015731975 -0.0063777491 4281043784
-0.019193724 0.00097937137 -0.006153727 4280977738
-0.01697991 -0.00035405159 -0.0052490309 4280977483
-0.014920942 -0.00094651431 -0.0050281584 4281108043
-0.013192996 -5.8867037e-05 -0.0061698463 4280977483
-0.011641093 0.0015681013 -0.0079901982 4281958724
-0.0094055608 0.0002368167 -0.0070904493 4284049213
-0.039570637 -0.0051782653 0.00052306801 4281565769
-0.037941352 -0.0035424605 -0.0013140049 4280717894
-0.036186196 -0.0026518479 -0.0024616756 4280520523
-0.034019448 -0.003994301 -0.0015495494 4280194378
-0.031983465 -0.0045917556 -0.0013254732 4280912968
-0.029941998 -0.0051887408 -0.0011026189 4281109318
-0.028041907 -0.0050414726 -0.001565272 4281500998
-0.026141658 -0.004894115 -0.0020279065 4281238349
-0.024545506 -0.0032600984 -0.0038564 4280977483
-0.022959784 -0.0016268268 -0.0056822319 4280910929
-0.021384478 5.7891011e-06 -0.0075054914 4280715089
-0.019499481 0.00015243143 -0.0079640672 4280649553
-0.017288856 -0.0011856928 -0.0070618391 4280715088
-0.015067503 -0.0025228038 -0.006162174 4280778584
-0.013171479 -0.0023749769 -0.006623175 4280452439
-0.011616647 -0.00074343383 -0.0084409863 4281234779
-0.038407937 -0.014226936 0.0062526762 4282738258
-0.036618546 -0.013331585 0.0050981473 4281370183
-0.034698151 -0.013183199 0.0046302136 4281239368
-0.032638878 -0.013781205 0.0048469249 4281892423
-0.030856825 -0.012886092 0.0036944309 4282219333
-0.028791875 -0.013483435 0.0039099297 4282152269
-0.027014755 -0.012588501 0.0027587907 4282152268
-0.02598919 -0.007965602 -0.0018009888 4280581214
0.040840071 -0.017004982 0.035515927 4281487228
0.043798823 -0.019677952 0.037763566 4280961673
0.047705546 -0.025183335 0.042745769 4281421438
0.052123379 -0.032101884 0.049086288 4282209133
0.034612812 -0.0060614124 0.022454536 4279325084
0.040204033 -0.010721765 0.026276296 4278664633
0.049849734 -0.027455032 0.04168582 4278798508
0.054057691 -0.033682913 0.047321513 4279651738
0.032222226 -0.00058490783 0.014425108 4278995368
0.034416229 -0.0011422113 0.014631562 4279257508
0.04781381 -0.0234809 0.034995198 4278602669
0.05247166 -0.031155407 0.041982666 4279390618
0.030951362 0.0013570115 0.009837959 4280569484
0.033583269 -0.00063473731 0.011408895 4279717528
0.036916327 -0.004771322 0.015018469 4279127458
0.041205429 -0.011765912 0.021340957 4278733993
0.046014987 -0.020186074 0.029009683 4278472109
0.050888181 -0.028601095 0.036663145 4279062688
0.055824999 -0.037010938 0.044301286 4280440199
0.030574206 0.00044924766 0.0079888161 4278404789
0.032977145 -0.00083153695 0.0088758525 4278273974
0.044452637 -0.017577246 0.023724543 4278866083
0.049543399 -0.02673696 0.032040134 4278997153
0.054703087 -0.035891086 0.040339127 4279456154
0.030420177 -0.0011739805 0.0068219621 4280374154
0.032371886 -0.0010192171 0.0063493606 4278668969
0.034779567 -0.0023038909 0.0072320569 4278472619
0.038351063 -0.0071855858 0.01149716 4278538153
0.042426236 -0.013502873 0.017105971 4278603943
0.048200745 -0.02485045 0.027433196 4278669478
0.053582884 -0.034753233 0.036389887 4278866084
0.030711122 -0.0042417422 0.0070099346 4280242318
0.031992603 -0.0019199103 0.0045060627 4278668968
0.034169309 -0.002487272 0.0047102869 4278603179
0.037273027 -0.0059412047 0.007614838 4278537644
0.041568644 -0.013000824 0.013886746 4278603688
0.047095947 -0.023662932 0.023516444 4278865828
0.052464381 -0.03359744 0.032453552 4279783573
0.05694288 -0.040642105 0.038681515 4282733414
0.030556735 -0.0058687553 0.0058403611 4280242829
0.045757331 -0.021733858 0.018940106 4279454879
0.051347591 -0.032423638 0.028530153 4278866084
0.056054063 -0.040214404 0.035416141 4281816179
0.029514141 -0.0045881495 0.0019744281 4279848599
0.030111872 -7.4133277e-05 -0.0025377683 4279126949
0.032269292 -0.00064735115 -0.0023321863 4279454879
0.044891462 -0.021233968 0.015721697 4279192995
0.050470479 -0.031957515 0.025289958 4278997154
0.055407126 -0.040498458 0.032830104 4280766854
0.029061487 0.0012368038 -0.0063786786 4279257763
0.031207949 0.00066053122 -0.006172074 4279324064
0.034049124 -0.002100423 -0.0039547551 4278931109
0.049356885 -0.030749992 0.021390805 4278997153
0.054520667 -0.040045835 0.02958264 4278932128
0.05707971 -0.041335203 0.030416204 4282602343
0.025509603 -0.0021255985 -0.0052526351 4281291899
0.02823709 0.0018346384 -0.0095363837 4278667694
0.041989129 -0.016542681 0.0059752949 4278669223
0.047769897 -0.028064579 0.01617026 4278866084
0.053635478 -0.039579622 0.026344867 4278342059
0.056671686 -0.042333163 0.028508933 4282274668
0.02470166 -0.0015240014 -0.0084124189 4280571013
0.025732301 0.0015616193 -0.011554109 4278800038
0.02741399 0.0024459735 -0.012684321 4278734760
0.029770568 0.0011309907 -0.01180887 4278603688
0.032367133 -0.00091584772 -0.010268377 4278668968
0.035675682 -0.00515908 -0.0067312107 4278734758
0.040189434 -0.013061605 0.00012925733 4278800549
0.046185479 -0.025352426 0.010969006 4278735524
0.052271608 -0.037635952 0.021787053 4278276524
0.056021459 -0.042594604 0.025940796 4281553273
0.022634506 -0.0032681152 -0.0090929661 4282274668
0.024113551 -0.0016446784 -0.010894073 4279718294
0.025360808 0.00071363896 -0.013360271 4278866338
0.027039904 0.0016000271 -0.014488261 4278997153
0.029393274 0.00028038025 -0.013615256 4279062688
0.031986415 -0.0017733052 -0.01207885 4278931618
0.034827251 -0.0045603439 -0.0098809991 4278735523
0.039096136 -0.011753179 -0.0037005236 4278670243
0.044840723 -0.023347899 0.0064509287 4278866849
0.051629178 -0.037872411 0.019235237 4278801314
0.055614538 -0.043580897 0.02404193 4279390874
0.012094084 -0.0026595816 -0.010598401 4282405994
0.013999362 -0.0025093332 -0.011060389 4281685364
0.016527977 -0.0045756921 -0.0095139984 4281160573
0.01844129 -0.0044245571 -0.0099777523 4280767619
0.020567693 -0.0050117895 -0.0097732898 4280308618
0.022483721 -0.0048602 -0.010237521 4279390108
0.024181411 -0.0039704591 -0.011368522 4278407084
0.025873803 -0.0030809641 -0.012498191 4278276269
0.027784579 -0.0029294267 -0.012960872 4278538408
0.029921673 -0.0035152212 -0.012758492 4278276779
0.032293014 -0.0048376471 -0.011893054 4278342314
0.03490657 -0.0068961456 -0.010366394 4278408103
0.038941581 -0.013373978 -0.0048653921 4278342569
0.044208836 -0.023530789 0.0039360486 4278735523
0.050748073 -0.037363417 0.016028298 4278866593
-0.014883667 -0.0055876374 -0.0059396573 4279395208
-0.013318129 -0.0039509833 -0.0077569559 4279067279
-0.011763036 -0.0023150444 -0.0095715635 4279458959
-0.0098721981 -0.0021674111 -0.010031149 4280374919
-0.0078054667 -0.0027632192 -0.0098151136 4281357179
-0.0053764991 -0.0048452839 -0.0082504358 4281487994
-0.0034747235 -0.0046964362 -0.0087124091 4278867358
-0.0012054332 -0.006033361 -0.0078270584 4279063453
0.00070184842 -0.0058838353 -0.0082901884 4278867359
0.0027982183 -0.0064767227 -0.0080808997 4279129499
0.0043250099 -0.0048420504 -0.0098879281 4279456663
0.0062298849 -0.0046923533 -0.010350203 4279259803
0.0083317868 -0.005284436 -0.010141982 4278735779
0.010239448 -0.0051342696 -0.010604745 4279195034
0.01194492 -0.0042424724 -0.01173657 4278866849
0.014054943 -0.0048335493 -0.01153004 4278997919
0.016585432 -0.0069062933 -0.0099890037 4278735779
0.018711448 -0.0074958652 -0.0097861728 4278670498
0.020417102 -0.0066035315 -0.01091764 4278736033
0.022548474 -0.0071924329 -0.010715927 4278931874
0.024467019 -0.0070405379 -0.011180683 4278472873
0.026606381 -0.0076285377 -0.010980709 4278538663
0.028304158 -0.0067363605 -0.012109912 4278538918
0.030222734 -0.0065840781 -0.012574388 4278407849
0.032370053 -0.007171087 -0.012376065 4278407848
0.034754083 -0.0084967613 -0.011516812 4278670499
0.039021101 -0.015733428 -0.0053686011 4278736033
0.04452461 -0.026659615 0.0040708743 4279259804
0.050586298 -0.039056547 0.014811536 4278866338
-0.024381913 -0.008654438 -0.0040846416 4279785358
-0.022942074 -0.0062643141 -0.0065851943 4278736543
-0.021203928 -0.0053698272 -0.0077248518 4278998429
-0.01899191 -0.0067166761 -0.0068296441 4279063198
-0.016931452 -0.0073157996 -0.006614123 4278866849
-0.014865577 -0.007914342 -0.0063998648 4278866849
-0.013297133 -0.0062730908 -0.0082146078 4278604453
-0.011568852 -0.0053787753 -0.0093514156 4278801059
-0.0098457709 -0.0044847652 -0.010486886 4278735269
-0.0077767372 -0.0050825775 -0.010273043 4279062688
-0.0058805123 -0.004934296 -0.010733776 4278735269
-0.0036224611 -0.0062766597 -0.0098490138 4278801314
-0.0015372224 -0.0068728551 -0.009638845 4278735268
0.00055340305 -0.0074685141 -0.0094299028 4278735779
0.0024606138 -0.0073188841 -0.0098929396 4278670754
0.0043679215 -0.0071691051 -0.010355885 4279063454
0.0062752925 -0.0070192218 -0.010818779 4278801314
0.0085762478 -0.0083574802 -0.0099438755 4278801314
0.010289654 -0.007462956 -0.011076122 4278997919
0.012199875 -0.0073124692 -0.011539421 4278866594
0.01431486 -0.0079053938 -0.011335696 4278801059
0.016849853 -0.0099842921 -0.0098006865 4278539173
0.018560827 -0.0090894997 -0.010931927 4278801059
0.020479172 -0.0089378655 -0.011396813 4278866594
0.022612836 -0.0095287636 -0.01119729 4278801059
0.024751827 -0.010119118 -0.010998948 4278604198
0.026675537 -0.0099666715 -0.011464848 4278931618
0.028599255 -0.0098141283 -0.011930681 4278669733
0.03052298 -0.0096614361 -0.012396398 4278801058
0.032675259 -0.010250263 -0.012200861 4278801058
0.035295188 -0.012321308 -0.010685573 4278604453
0.039567906 -0.019579343 -0.0045550652 4278866848
0.045076072 -0.03053797 0.0048588403 4279390874
0.050424546 -0.040749364 0.013595002 4278800803
-0.02452825 -0.010236271 -0.0052228728 4279588753
-0.023087941 -0.0078396052 -0.007718672 4279194268
-0.020879261 -0.0091912523 -0.0068259714 4279063199
-0.01881931 -0.0097926781 -0.0066120969 4278801059
-0.016753927 -0.010393575 -0.0063994555 4278539173
-0.01484786 -0.010245122 -0.0068630269 4278539173
-0.01310908 -0.0093479529 -0.0080008665 4278669733
-0.011375457 -0.008451052 -0.0091373483 4278472873
-0.0094742924 -0.0083026215 -0.00959945 4278735014
-0.0075730272 -0.0081540793 -0.0100615 4278341804
-0.0056716464 -0.0080053806 -0.01052348 4278735269
-0.0037701614 -0.0078565702 -0.010985394 4278735269
-0.0015019812 -0.0092023537 -0.01010632 4278538918
0.00040499493 -0.0090528727 -0.010569393 4278801059
0.002500657 -0.0096502081 -0.01036322 4278866594
0.0044104606 -0.0095002428 -0.01082678 4278801059
0.006320335 -0.0093501732 -0.011290289 4278604708
0.0084268339 -0.0099463165 -0.011086411 4278801059
0.010339491 -0.00979577 -0.011550403 4278866594
0.012454048 -0.010390982 -0.011348336 4278800804
0.014573954 -0.01098568 -0.011147494 4278735269
0.01669921 -0.011579789 -0.010947834 4278866084
0.018620018 -0.011428095 -0.011413417 4278866339
0.020540856 -0.011276282 -0.011878925 4278931874
0.022461731 -0.011124335 -0.012344333 4278735524
0.024600357 -0.011716872 -0.012147537 4278866339
0.026303533 -0.010820009 -0.013274874 4278997409
0.028447486 -0.01141192 -0.013079192 4278735524
0.030596752 -0.012003303 -0.012884653 4278800803
0.032979634 -0.013337888 -0.012031781 4278866594
0.035373099 -0.014671519 -0.011181402 4278669988
0.039646231 -0.0219514 -0.0050672628 4278801313
0.045153726 -0.032942824 0.0043222634 4278735014
-0.024371892 -0.013321929 -0.0050077112 4279391129
-0.022925816 -0.010918297 -0.0074999696 4278669733
-0.02102562 -0.010770656 -0.0079623805 4278538918
-0.018966012 -0.011374317 -0.0077500669 4278800803
-0.01706288 -0.011226229 -0.0082130162 4278473128
-0.014995053 -0.011829019 -0.0080025336 4278604198
-0.013256207 -0.010929666 -0.009138762 4278473128
-0.011352681 -0.010781176 -0.0096015362 4278669479
-0.0092765242 -0.011382952 -0.0093928045 4278931618
-0.0073701106 -0.011234023 -0.0098561188 4278538408
-0.0054635741 -0.011084937 -0.010319351 4278800549
-0.0035569333 -0.010935739 -0.010782531 4278735269
-0.0014671125 -0.011535965 -0.010576758 4278604453
0.00044236705 -0.011386298 -0.011040444 4278801059
0.002351936 -0.011236496 -0.011504057 4278539173
0.0042615831 -0.011086561 -0.011967591 4278735524
0.0061713085 -0.010936491 -0.012431054 4278735524
0.008277446 -0.011534877 -0.012228745 4278866339
0.010388941 -0.012132645 -0.012027672 4279062943
0.01290904 -0.014226086 -0.010499037 4278931874
0.014832258 -0.01407446 -0.010965402 4278866339
0.016962461 -0.014670424 -0.010768547 4278800804
0.018678829 -0.013770796 -0.011897865 4278866339
0.020602163 -0.01361879 -0.012363981 4278932129
0.022525534 -0.013466641 -0.012829992 4278604709
0.024666462 -0.014061227 -0.012635342 4278670244
0.026592512 -0.013908625 -0.013101823 4278932384
0.029187044 -0.01599516 -0.011590465 4279325338
0.031346537 -0.016587868 -0.011400077 4278997919
0.033967573 -0.018672086 -0.0098949112 4278801059
0.036142945 -0.019263275 -0.0097081624 4278801058
0.040190987 -0.025818713 -0.00426909 4278997408
0.044994913 -0.034606375 0.0031267209 4279193503
-0.024367414 -0.015661865 -0.0054736356 4279391639
-0.023071989 -0.012497373 -0.0086361943 4278474403
-0.021171935 -0.012349777 -0.0090985829 4278604708
-0.019112676 -0.012955658 -0.0088878265 4278538663
-0.017209679 -0.012807585 -0.0093507478 4278538663
-0.015142202 -0.013412602 -0.0091418205 4278669733
-0.013236299 -0.013264082 -0.0096052876 4278800803
-0.011160627 -0.013868205 -0.0093981652 4278997153
-0.0090795159 -0.014471851 -0.009192246 4278800804
-0.0071679391 -0.014322512 -0.0096568083 4278800804
-0.0052562617 -0.014173031 -0.010121296 4278669989
-0.0033444799 -0.014023446 -0.010585739 4278997664
-0.0012497231 -0.014625482 -0.010382808 4278735268
0.00066490471 -0.014475413 -0.010847743 4278735779
0.0025796145 -0.014325209 -0.01131261 4278735779
0.004685238 -0.014926031 -0.011112041 4278801824
0.00640928 -0.014024422 -0.012242123 4278867359
0.0083242282 -0.013873823 -0.012706763 4278539683
0.010636777 -0.015224136 -0.011844448 4278736289
0.013161417 -0.017323814 -0.01032177 4278736289
0.015497915 -0.018671989 -0.0094650798 4278800549
0.017224908 -0.017769501 -0.010595392 4278866084
0.01936537 -0.018366687 -0.010402609 4278735014
0.021299154 -0.018213846 -0.010871254 4278866339
0.02366231 -0.019559406 -0.010020565 4278801059
0.026036065 -0.020903997 -0.0091724247 4279129243
0.028200477 -0.021498755 -0.0089850463 4279521944
0.030592814 -0.022841625 -0.0081411414 4279390874
0.032995746 -0.024183504 -0.0072997697 4279063198
0.035409287 -0.025524445 -0.0064608199 4280178060
0.037602834 -0.026116364 -0.0062801023 4280636039
0.040734522 -0.029698931 -0.0034801257 4281160319
0.044836126 -0.036269598 0.0019314019 4282537064
-0.024363302 -0.018005848 -0.0059425603 4279850129
-0.022910997 -0.015588634 -0.0084266234 4278736289
-0.021005794 -0.015440643 -0.0088902712 4278866849
-0.018782727 -0.016804203 -0.0080108084 4278801314
-0.016871944 -0.016655549 -0.0084756464 4278865574
-0.014796875 -0.017262161 -0.0082702041 4279259294
-0.012883171 -0.01711303 -0.0087355673 4279062688
-0.0107999 -0.01771877 -0.0085319392 4279127968
-0.00888329 -0.017569162 -0.0089978203 4279324829
-0.006966576 -0.017419443 -0.0094636455 4279783828
-0.0048723742 -0.01802396 -0.0092623942 4279194268
-0.0029527918 -0.017873757 -0.0097287335 4279848853
-0.0010331199 -0.017723419 -0.010194991 4279979668
0.00088664889 -0.017572977 -0.0106612 4280110483
0.0028065071 -0.017422386 -0.011127323 4280438923
0.0051077008 -0.018778376 -0.010265753 4280635784
0.0070330128 -0.018627085 -0.010733001 4281027463
0.0089583918 -0.018475682 -0.011200182 4280765579
0.011082407 -0.019076861 -0.011005424 4281682304
0.01341299 -0.020429984 -0.010150645 4281878144
0.015958093 -0.022534482 -0.0086377449 4282336634
0.017899588 -0.022381283 -0.0091084428 4282925173
0.020259447 -0.023731701 -0.0082604699 4283252849
0.022629946 -0.02508121 -0.0074149407 4283122799
0.025439991 -0.027932636 -0.0052558747 4282731120
0.027619904 -0.028528512 -0.0050739949 4282666858
0.029805139 -0.029123805 -0.0048932959 4282537574
-0.023605995 -0.024147175 -0.003055118 4280766598
-0.022444062 -0.020205304 -0.006880708 4279718548
-0.020528406 -0.020056508 -0.0073468983 4279783828
-0.018453971 -0.020665608 -0.0071431287 4279521433
-0.016212776 -0.022032022 -0.006271258 4279979668
-0.013960883 -0.023397423 -0.0054019466 4280045204
-0.011864856 -0.024004482 -0.0052031502 4280175253
-0.010101892 -0.023096606 -0.0063402802 4281616259
-0.0083440766 -0.022189006 -0.0074760616 4282205818
-0.0065914541 -0.021281704 -0.0086104982 4282794359
-0.0046668351 -0.02113124 -0.0090781562 4282991474
-0.021519244 -0.027121134 -0.0033383407 4282470508
-0.019585215 -0.026970915 -0.0038090092 4282339693
-0.017492577 -0.02758085 -0.0036112596 4282470509
-0.01523345 -0.028950207 -0.0027470859 4282601323
-0.01312732 -0.029558778 -0.0025524618 4282862698
0.0013502985 -0.035719715 -0.02308033 4283190374
-0.00033500046 0.0089474842 0.030079132 4284902188
0.0007185787 0.012608975 0.026076632 4285492513
0.0024856739 0.013463408 0.024898237 4285754653
0.0048104972 0.012214258 0.025832539 4285819934
0.0077168941 0.0088635013 0.02887368 4285557793
0.010456976 0.0062155649 0.03120595 4285361189
0.012240417 0.0070716515 0.030023938 4285362209
0.013423905 0.010028161 0.02673967 4285427999
0.01398354 0.015083216 0.021358943 4285427489
0.015320316 0.017336167 0.018786931 4285754909
0.017672274 0.016089879 0.01971519 4285819933
0.021079175 0.011347584 0.024134016 4285885724
0.025369335 0.003811501 0.031335846 4285820188
-0.0043981299 0.014902227 0.021626895 4285296163
-0.0026417896 0.01575774 0.020452632 4285624858
-0.0010727569 0.017316632 0.018576235 4285558558
0.00067055225 0.018171377 0.017405238 4285558048
0.0029709637 0.01691591 0.018342182 4285820954
0.0054721609 0.014958359 0.019978078 4285689629
0.0081821047 0.012299277 0.022311093 4285558813
0.0099364445 0.013155244 0.021137768 4285493023
0.011487525 0.014713354 0.019266203 4285558814
0.012426008 0.018377468 0.015300356 4285821464
0.013948046 0.019933544 0.013435941 4285623584
0.016283542 0.018681563 0.014364915 4285557794
0.019464288 0.014624119 0.018079467 4285623583
0.023310842 0.0084650889 0.023875559 4285623839
0.028916841 -0.0032996237 0.035226136 4285623838
-0.005431883 0.016821839 0.0169516 4285559068
-0.0036887228 0.017678477 0.015782148 4285755929
-0.0021326505 0.019240715 0.01391216 4285689628
-0.00021794066 0.019390859 0.013447251 4285623839
0.0018840805 0.018835634 0.013682978 4285755163
0.0045611486 0.016165078 0.016017336 4285886999
0.0072595179 0.013496347 0.018346556 4285624348
0.0090033263 0.01435367 0.017177418 4285558813
0.010544091 0.015915327 0.015311608 4285558813
0.011472866 0.019589633 0.011356307 4285887254
0.013390861 0.019740768 0.010891147 4285886743
0.015514709 0.019187994 0.011122132 4285755163
0.018477678 0.015820459 0.014133681 4285755419
0.021889422 0.011047885 0.018528491 4285755929
0.027262069 -5.2191317e-05 0.029161764 4285689883
-0.0062871017 0.018055268 0.012993935 4285362208
-0.0045544691 0.018913262 0.011828663 4285755929
-0.00264531 0.019062854 0.011365015 4285887509
-0.00092038885 0.019920439 0.010201763 4285886999
0.0013603605 0.018654667 0.011136858 4285887253
0.003841497 0.016682312 0.01276781 4285755928
0.0063386522 0.01471132 0.014394958 4285624348
0.0078769438 0.016277097 0.01253289 4285558813
0.0097999759 0.016428404 0.012066346 4285558813
0.011122264 0.018699765 0.0095125325 4285624349
0.013037473 0.018850654 0.0090480372 4285755929
0.014952753 0.019001678 0.008583609 4285755419
0.017492771 0.017034739 0.010200793 4285689884
0.020470537 0.013657525 0.013200644 4285558559
0.025396723 0.0039320439 0.022427278 4285558814
-0.0069644116 0.018595882 0.0097492002 4285362208
-0.0052396655 0.01945547 0.0085874237 4285493788
-0.0035200939 0.020314708 0.0074270181 4285624604
-0.0014373958 0.019753449 0.0076640639 4285624093
0.00065071508 0.019192673 0.0078999177 4285558558
0.0033126064 0.016503356 0.010224819 4285624349
0.0054194778 0.015944302 0.010456229 4285624348
0.0073369816 0.016095035 0.0099909231 4285558813
0.0094519779 0.015536852 0.010220528 4285558814
0.010972176 0.017105736 0.008366324 4285624349
0.012684524 0.017965309 0.0072082728 4285558558
0.01439165 0.018824525 0.0060516056 4285558048
0.016717602 0.017558716 0.0069731157 4285623839
0.019475549 0.014877871 0.0092753246 4285624349
0.023961414 0.0065362379 0.017100388 4285558813
0.030886782 -0.0095839277 0.032503814 4285493534
-0.0074644536 0.018437147 0.007212555 4285362209
-0.0055662692 0.018585727 0.0067514591 4285559323
-0.0036679879 0.018734425 0.0062904172 4285558813
-0.0017695725 0.018883228 0.0058294237 4285624094
0.00031555444 0.018320054 0.0060643051 4285689629
0.00278458 0.016333558 0.0076883435 4285689629
0.0048858114 0.015771866 0.0079194754 4285624348
0.0067978799 0.015922181 0.0074554924 4285624604
0.0089072473 0.015361272 0.007684838 4285624604
0.010622256 0.016223125 0.0065276884 4285624604
0.012534555 0.016373776 0.0060638897 4285624348
0.013626266 0.019367166 0.0028348565 4285689628
0.015943702 0.018096291 0.0037551448 4285820953
0.018692747 0.015405931 0.0060529988 4285755419
0.022954881 0.0077472106 0.013171541 4285755164
0.028785829 -0.0048755035 0.025097305 4285624093
0.034712307 -0.017490551 0.037000023 4285427234
-0.0074362457 0.016142078 0.0067729298 4285100068
-0.0055355579 0.016290814 0.0063111987 4285428253
-0.0038158223 0.017154418 0.0051540099 4285624348
-0.0021012649 0.018017709 0.003998152 4285887253
-0.00020553172 0.018166393 0.0035378719 4285952789
0.0022574365 0.016172849 0.0051584635 4285886998
0.0047364123 0.014180712 0.0067752041 4285689628
0.0066483431 0.014330983 0.0063112304 4285624348
0.0087573752 0.013767876 0.0065390393 4285558813
0.010472462 0.014631905 0.0053834897 4285624603
0.011980023 0.016208664 0.0035389755 4285689883
0.01306713 0.019210421 0.00031758472 4285886999
0.015378706 0.017934754 0.0012359861 4285886743
0.01812147 0.015235133 0.0035288045 4286017559
0.021950051 0.0089761242 0.0092555936 4285952023
0.026904233 -0.00083907694 0.018406728 4285820699
0.031278074 -0.0085128769 0.025480403 4285426978
-0.0081107169 0.016712248 0.0035494361 4284903974
-0.0062181056 0.016860351 0.0030896626 4285559579
-0.004325375 0.017008573 0.0026299441 4285558813
-0.0026160553 0.01787363 0.001476977 4285623584
-0.0005395636 0.017305352 0.0017106533 4285623584
0.001731161 0.016021304 0.002635099 4285952533
0.0042040907 0.014022067 0.0042484319 4285689883
0.0059164464 0.014887795 0.0030950597 4285624349
0.007820379 0.015037544 0.0026331088 4285558813
0.0095249303 0.015902936 0.0014817547 4285689883
0.011224262 0.016767979 0.00033178739 4285755418
0.012099359 0.020492978 -0.0035694391 4285623328
0.01419238 0.019926883 -0.0033391193 4285557538
0.017130971 0.016502731 -0.00036254339 4285623838
0.020946924 0.010223024 0.0053525791 4285624093
0.025241379 0.0025187209 0.012427377 4285558303
0.02894019 -0.0030387565 0.01743331 4285295909
-0.0070773996 0.018162809 -0.00081518665 4285624859
-0.0053760894 0.019029297 -0.001964665 4285690138
-0.0034966134 0.019176565 -0.0024211006 4285492769
-0.001431074 0.01860524 -0.0021864101 4285558304
0.0012057684 0.015878834 0.00011833012 4285624093
0.0036726296 0.013872579 0.0017281706 4285821464
0.005379755 0.014740072 0.00057768915 4285558813
0.0070816688 0.015607275 -0.00057143718 4285558814
0.0085791126 0.01719185 -0.0024070553 4285624604
0.010066014 0.018775769 -0.0042400695 4285953298
0.011542376 0.020358905 -0.0060704127 4285886743
0.013422567 0.020507216 -0.0065262839 4285689883
0.016561858 0.016354546 -0.0028704088 4285755674
0.019945517 0.011487819 0.0014624884 4285821464
0.024011772 0.0044748709 0.0078384299 4285690394
0.027259905 0.00033114105 0.011468178 4285296164
0.029658075 -0.00094589591 0.012359459 4285165348
-0.0096309856 0.018615052 -0.0035605058 4285231139
-0.0081128255 0.020204745 -0.0053985417 4285493788
-0.0066051558 0.021793768 -0.0072340034 4285887764
-0.0047417209 0.021939762 -0.0076865554 4285756183
-0.0023208819 0.019923054 -0.0060705803 4285821719
0.00049281865 0.016466253 -0.0030807536 4285822228
0.0031420477 0.01373218 -0.00078549143 4285690394
0.004650224 0.015321739 -0.0026206188 4285559069
0.0063442364 0.016190551 -0.003766241 4285558813
0.0074359514 0.019218713 -0.006969288 4285624349
0.0093132369 0.01936657 -0.0074246228 4285624348
0.010781925 0.020953469 -0.0092498455 4285887254
0.013067983 0.019662619 -0.0083350949 4285887254
0.015993617 0.016215496 -0.0053717108 4285690394
0.018945795 0.012770616 -0.0024147229 4285558814
0.02256934 0.0071720704 0.0025831228 4285427744
0.025582572 0.0037322342 0.0055254772 4285361953
-0.010126427 0.018504068 -0.0060627684 4285034533
-0.0086132884 0.020097755 -0.0078963879 4285428253
-0.007110633 0.021690704 -0.0097273197 4285559069
-0.0050697327 0.021112926 -0.0094900224 4285492768
-0.00265228 0.019089356 -0.0078781508 4285492769
0.00015759096 0.015621305 -0.004895587 4285558813
0.0026123375 0.013600886 -0.0032926099 4285624604
0.0041154809 0.015194468 -0.005123286 4285559069
0.0058042817 0.016065001 -0.006265976 4285493279
0.0070901923 0.018379442 -0.0087767001 4285558813
0.0087632239 0.019248955 -0.0099153984 4285558813
0.010431014 0.020118169 -0.011052737 4285558558
0.012920637 0.018101215 -0.0094577521 4285558814
0.01584509 0.014643043 -0.0065022637 4285558814
0.018371925 0.012629256 -0.0049161301 4285493278
0.021558914 0.0084542483 -0.0012912499 4285559069
0.02477774 0.0042819306 0.0023259688 4285164584
-0.010096721 0.016223677 -0.0064918664 4284968744
-0.0084032491 0.017095961 -0.0076346528 4285427489
-0.0065348968 0.017242193 -0.0080885049 4285427998
-0.0046664402 0.01738856 -0.008542303 4285493278
-0.0022418089 0.015359014 -0.0069371355 4285558303
1.0829419e-05 0.01405593 -0.0060213846 4285690394
0.0022741556 0.012753837 -0.0051081912 4285558813
0.0037749298 0.014351554 -0.0069349972 4285624603
0.0056571029 0.014499553 -0.0073917066 4285624604
0.0071421154 0.016096301 -0.009214554 4285624604
0.0092204027 0.015519992 -0.0089873523 4285689884
0.011100125 0.015668131 -0.009443216 4285689883
0.013186466 0.015092723 -0.0092178378 4285755418
0.015905816 0.01234743 -0.0069520911 4285690139
0.018222675 0.011050478 -0.0060511911 4285755929
0.021408271 0.0068622306 -0.002435795 4285624603
0.024842866 0.0019538179 0.0018505249 4285295399
-0.0076623894 0.011901148 -0.0053191101 4285493278
-0.0059607662 0.012776352 -0.0064621684 4285755929
-0.0037168451 0.011468008 -0.0055478001 4285690138
-0.0018325187 0.011615701 -0.0060053812 4285690139
0.00023970753 0.01103618 -0.0057788258 4285755673
0.00212688 0.011184342 -0.0062369136 4285624094
0.0040141344 0.011332609 -0.006694953 4285690138
0.0060972348 0.010754235 -0.0064707408 4285689628
0.0079872943 0.010902978 -0.0069292681 4285689629
0.0096763521 0.011778139 -0.00806865 4285689629
0.011767615 0.011200771 -0.007846144 4285689373
0.013657853 0.011349835 -0.0083044833 4285558304
0.016175166 0.0093220696 -0.0067259287 4285623838
0.018285111 0.008746542 -0.0065077553 4285492514
0.021471962 0.0045452639 -0.0029024724 4285492258
0.025124563 -0.0011034012 0.0020491518 4285360933
-0.007454522 0.0088757426 -0.005074448 4285361189
-0.0055678934 0.0090233684 -0.0055327741 4285492514
-0.0036811605 0.0091711357 -0.0059910221 4285558303
-0.0016093627 0.008589223 -0.00576605 4285624094
0.00046782196 0.0080078915 -0.0055423426 4285623839
0.0025503971 0.0074271038 -0.0053198608 4285623584
0.004638359 0.0068468451 -0.0050986013 4285623583
0.0067317039 0.0062671453 -0.0048785484 4285689374
0.0086322203 0.006416671 -0.0053396369 4285623584
0.010532815 0.0065663308 -0.0058006528 4285623583
0.012636971 0.0059877709 -0.0055829263 4285623838
0.014334168 0.0068660229 -0.0067224535 4285558049
0.016652524 0.0055602416 -0.005828531 4285492258
0.018770073 0.0049831569 -0.0056138164 4285426979
0.02153527 0.0022242069 -0.0033720993 4285492259
0.024755212 -0.0019874275 0.00021540001 4285360678
-0.0072474256 0.0058417767 -0.0048358715 4285361189
-0.0055350736 0.0067221746 -0.0059782839 4285492513
-0.0034637377 0.0061379373 -0.0057549826 4285492768
-0.0013870001 0.0055542588 -0.0055328957 4285623839
0.00088252127 0.0042393804 -0.0046311314 4285558304
0.0029727146 0.0036569536 -0.0044120899 4285558304
0.005260963 0.0023437664 -0.0035147029 4285558304
0.0071692206 0.0024937913 -0.0039777565 4285558304
0.008879561 0.0033748373 -0.0051190793 4285558303
0.010584671 0.0042555854 -0.0062590367 4285558049
0.012691118 0.0036750585 -0.0060435547 4285492513
0.01459698 0.0038253739 -0.0065056696 4285492513
0.016920071 0.0025156438 -0.0056162006 4285426979
0.018831324 0.0026666149 -0.0060794479 4285361189
0.021384306 0.00062870234 -0.0045191478 4285360933
-0.0073942691 0.0042688847 -0.0059672589 4285361189
-0.0055026338 0.0044168904 -0.0064268163 4285492768
-0.0032471046 0.0030962825 -0.005525108 4285558304
-0.0011654124 0.002510801 -0.0053058616 4285558304
0.0009216778 0.0019258037 -0.0050878059 4285558303
0.0032039881 0.000607647 -0.0041923467 4285558303
0.0053045005 2.399087e-05 -0.0039774124 4285623838
0.0070201345 0.00090752542 -0.0051184725 4285492768
0.0087305382 0.001790747 -0.0062581841 4285558049
0.010435712 0.002673693 -0.0073965248 4285492513
0.012541804 0.0020909384 -0.0071825958 4285492513
0.014447525 0.0022412315 -0.007644685 4285492259
0.01697845 0.00019476563 -0.0060841274 4285427233
0.01889221 0.00034591556 -0.0065479893 4285427233
0.021447051 -0.0016983598 -0.0049930867 4285361189
-0.0071883276 0.0012223423 -0.0057378169 4285032494
-0.005112499 0.00063396245 -0.0055189691 4285492259
-0.0028495751 -0.00069048256 -0.0046222899 4285426978
-0.00076028332 -0.0012775883 -0.0044065509 4285492513
0.0011474304 -0.0011279806 -0.0048697498 4285492768
0.0030552335 -0.00097825378 -0.0053328909 4285492768
0.0049631223 -0.00082842261 -0.0057959687 4285492769
0.0068710893 -0.00067844242 -0.0062589701 4285426978
0.0085815564 0.00020696968 -0.0073970612 4285426979
0.010286789 0.0010920838 -0.0085337982 4285426979
0.012392528 0.00050712377 -0.0083214175 4285426723
0.014503628 -7.7292323e-05 -0.0081102382 4285426979
0.016828258 -0.0013956875 -0.007227635 4285361188
