# .PCD v0.7 - Point Cloud Data file format
VERSION 0.7
FIELDS x y z rgba
SIZE 4 4 4 4
TYPE F F F U
COUNT 1 1 1 1
WIDTH 477
HEIGHT 1
VIEWPOINT 0 0 0 1 0 0 0
POINTS 477
DATA ascii
-0.0018483922 -0.009439759 0.059282407 4282338929
-0.00081538409 -0.0035919622 0.053294513 4282077554
0.00072198361 -0.00060679018 0.050116874 4281749879
0.0027959719 -0.00048228353 0.049743686 4280568974
0.0054388568 -0.00321652 0.052169133 4280831113
0.0086829066 -0.0088075474 0.057387426 4280635529
0.011822484 -0.013681464 0.061899334 4282077554
-0.0044681355 0.0024901032 0.044699315 4280569739
-0.0032171309 0.0069174841 0.040132642 4278931109
-0.0015883148 0.0091913491 0.037668806 4278403259
0.0033256412 0.0051339343 0.041125998 4278534074
0.0062411427 0.0009566769 0.044942886 4278865064
0.0090415925 -0.0025019571 0.048057027 4279325084
0.011568777 -0.0045260862 0.049773302 4279325084
0.013806567 -0.0051166192 0.050094601 4280569993
0.014805861 2.1852553e-05 0.044850364 4281487229
0.016400252 0.0022945479 0.042393342 4280175764
0.022975519 -0.0081900284 0.052065052 4278535858
0.026573109 -0.014501639 0.057930641 4280897413
-0.0061638914 0.0094649792 0.035066824 4278537899
-0.0046767108 0.01246433 0.031911459 4279061159
-0.002664946 0.012584962 0.031549357 4279519648
-0.0005139038 0.011986487 0.031884156 4279061413
0.0046719983 0.0064774007 0.036726356 4278864809
0.0071500838 0.0044436976 0.038446367 4278800294
0.0090445802 0.0052854046 0.03738391 4278603944
0.010781094 0.0068453252 0.03562801 4278472364
0.016729945 0.0079321712 0.033837374 4278273464
0.028232671 -0.014656402 0.054870788 4278996133
-0.0077933222 0.004820548 0.036986567 4282667879
-0.0070700012 0.012161024 0.029653886 4278931110
0.0061450601 0.0071164519 0.033037778 4278865318
0.0080234408 0.007959336 0.03197987 4278865318
0.011143547 0.012526162 0.02709795 4278405809
0.012995172 0.013367757 0.026045097 4279192739
0.015644193 0.010608628 0.028449977 4279192228
0.018478006 0.0071309805 0.031541917 4279061159
0.022500223 -0.0013833269 0.039461695 4278864809
0.026924267 -0.011332877 0.048749764 4278734249
0.031594954 -0.021997206 0.058713853 4278865573
-0.0086827986 0.0075222328 0.031574205 4279456153
-0.0077125356 0.013435371 0.025650868 4278668714
0.0009768717 0.010296978 0.027679717 4278340784
0.0032744259 0.0089712664 0.028703513 4278865319
0.0054358914 0.008369334 0.029033372 4278603434
0.0071538985 0.0099366903 0.027287392 4278537643
0.0088612176 0.011503443 0.025543449 4278799528
0.021712661 -0.00016331673 0.035449609 4278274994
0.026291991 -0.01086577 0.045404978 4278931108
0.03095202 -0.021563187 0.055345904 4278931619
-0.009058509 0.0073447675 0.028957164 4279128224
-0.0079618283 0.012548678 0.023741327 4278537898
-0.0061027259 0.013394088 0.022689655 4278603688
-0.0042488873 0.014239252 0.021639051 4278865574
-0.0018455088 0.012181208 0.023357201 4278734758
0.00057408959 0.010124266 0.025072535 4278735014
0.003009893 0.0080684349 0.026784981 4278538153
0.0048748106 0.0089147091 0.025732731 4278406574
0.0067344047 0.0097607598 0.02468151 4278734248
0.0084365234 0.011331573 0.022941796 4278930854
0.010282777 0.01217705 0.021893149 4278865318
0.012281235 0.01229772 0.021534095 4278733993
0.014920615 0.0095206723 0.023927348 4278668459
0.017581549 0.0067450628 0.026316831 4278734503
0.021423236 -0.0010979772 0.033512171 4278865574
0.025997289 -0.011833198 0.043443415 4278734758
0.03065205 -0.022563435 0.053360309 4279062688
-0.0094335191 0.0071762651 0.026346942 4278996898
-0.0082107596 0.011666685 0.021835247 4278472874
-0.0021030679 0.011296466 0.021451026 4278340529
0.00031320751 0.009232834 0.023161883 4278800039
0.0024578646 0.0086254403 0.023491329 4278538153
0.0046079569 0.0080185235 0.023819838 4278669224
0.0063155852 0.0095938891 0.02208239 4278734248
0.0083164945 0.0097144693 0.021722702 4278799273
0.010008097 0.011289038 0.019988334 4278800039
0.012161091 0.010682747 0.02031667 4278603433
0.014639631 0.0086236149 0.022016976 4278866084
0.017622583 0.0043862313 0.025772279 4279062178
0.021630481 -0.0042069033 0.033634618 4278734504
0.026207333 -0.0149744 0.043540351 4278472363
0.030352417 -0.023558944 0.051378213 4278866338
-0.0095525719 0.005555287 0.025124649 4279520924
-0.0084593296 0.010789283 0.019932693 4278733993
5.2697957e-05 0.0083460212 0.021254778 4278667949
0.0020505898 0.0084660649 0.020895362 4278668713
0.0040485598 0.0085862428 0.020536033 4278799783
0.0060465895 0.0087065101 0.020176768 4278865318
0.0077410154 0.010285467 0.018445145 4278799528
0.017338142 0.0034805909 0.023856077 4278602413
0.021341261 -0.0051387548 0.031699236 4278930853
0.026080819 -0.016667344 0.042264279 4278669223
0.030053144 -0.024549849 0.049399652 4278931874
-0.010436449 0.008332096 0.019768855 4279389343
-0.0089678466 0.011382014 0.016656738 4278601903
-0.0073878132 0.01369822 0.014236489 4279257764
-0.0052816495 0.013083875 0.014569208 4279454879
-0.0028935783 0.011005417 0.016275087 4278470834
-0.00034836307 0.0081959367 0.018664651 4278799274
0.0016440079 0.0083156526 0.018306227 4278668713
0.0034901574 0.0091672912 0.017262286 4278930853
0.0054799803 0.0092870593 0.016904488 4278537644
0.0073181838 0.010138407 0.015862187 4278537644
0.02105239 -0.0060659647 0.029767407 4279061413
0.025618702 -0.016898997 0.039625015 4278931619
0.029413234 -0.024075456 0.04606222 4279194524
-0.012169577 0.0044002086 0.020978583 4281553528
-0.01119104 0.010400161 0.015120273 4279127713
-0.0079030618 0.01431033 0.010976912 4278471599
-0.0058052689 0.013693303 0.011309465 4278537133
0.0012380928 0.0081742406 0.015723806 4278668458
0.0029327646 0.0097616315 0.013998622 4278865319
0.0047655553 0.010614678 0.01295886 4278734248
0.0082609579 0.013053678 0.010199986 4279126948
0.010231964 0.013172656 0.0098458361 4279520158
0.013000883 0.0096260458 0.012899304 4278930598
0.016121248 0.0046152025 0.017310109 4278865319
0.020433966 -0.0055229291 0.02647802 4278734249
0.025157271 -0.01712168 0.036992583 4278735014
0.029114967 -0.025052644 0.044093933 4278997663
-0.012910217 0.0064737499 0.016331071 4280963713
-0.011943981 0.012490243 0.010488302 4278734504
-0.01024159 0.014081717 0.0087645222 4278603434
-0.0012890622 0.0086592436 0.012821438 4278668713
0.0008328706 0.0080418214 0.013148226 4278799783
0.0023763627 0.010369346 0.010744967 4278734249
0.0040524416 0.011960015 0.0090265181 4278799528
0.019981317 -0.0057014674 0.023877542 4278734759
0.024863994 -0.018070169 0.035045367 4278996899
0.028987231 -0.026759841 0.042807158 4279194013
-0.013152 0.0056109577 0.014438249 4280045968
-0.012060314 0.010905236 0.0092931036 4278472363
-0.010617115 0.013979569 0.0062054717 4278472874
-0.0086658299 0.01409632 0.0058540651 4278865829
-0.0064443238 0.012735277 0.0068679168 4278669479
-0.0039364919 0.0098974779 0.009244103 4278669479
-0.0015475079 0.0077997372 0.010934843 4278407338
0.00042830408 0.0079184026 0.010579359 4278603433
0.0018209517 0.010990396 0.0075013652 4278472363
0.0031921566 0.014061168 0.0044273459 4278472108
0.0049954578 0.014916919 0.0033962657 4278799528
0.0071012005 0.014296778 0.003724691 4278733993
0.0095254667 0.012201846 0.0054096109 4278603179
0.011965912 0.010107949 0.0070917546 4278603434
0.015070271 0.005065918 0.011482066 4278603944
0.019693984 -0.0066082031 0.021961156 4278669478
0.024738373 -0.019750983 0.03377844 4278669478
0.028519504 -0.026993088 0.040168013 4279325594
0.043028228 -0.033581823 0.044634502 4282798438
-0.013517573 0.005494602 0.011866007 4279915153
-0.012557119 0.011545271 0.0060509513 4278537898
-0.004191272 0.0090492964 0.007365407 4278733995
-0.001665324 0.0062040389 0.0097317416 4278407083
2.4434179e-05 0.0078039467 0.008017322 4278537898
0.0015578456 0.010143824 0.0056258622 4278603434
0.0029268526 0.013223127 0.0025588456 4278603433
0.0048785172 0.013340712 0.0022079893 4278603944
0.0069839507 0.012718372 0.0025347951 4278669223
0.0092511885 0.011356726 0.0035377624 4278735014
0.011847407 0.0085165128 0.0058920956 4278603943
0.015112277 0.0027197227 0.010947103 4278276268
0.019571459 -0.0082496256 0.020723891 4278735013
0.024445631 -0.020692319 0.031836614 4278866339
0.028052444 -0.027217321 0.037535671 4279456663
0.039847307 -0.031745099 0.040356491 4282732904
-0.013758466 0.0046432912 0.0099818241 4280111758
-0.012926262 0.011454917 0.0034995559 4278668714
-0.0094258673 0.013918191 0.00075834058 4278271934
-0.002203431 0.0068375245 0.0064938865 4278602923
-0.00023596734 0.0069556981 0.0061399131 4278602923
0.0014405809 0.0085592568 0.0044312193 4278865318
0.0029582754 0.010904752 0.0020477171 4278537643
0.015153976 0.0003695637 0.010409085 4278602924
0.019613266 -0.010632202 0.020160858 4278669223
0.02398623 -0.020887613 0.029224759 4278669223
0.027416369 -0.02669131 0.034237064 4279653014
-0.014618151 0.0075270608 0.0047030668 4279586968
-0.013547745 0.012865394 -0.00040330924 4278799529
-0.01186882 0.014472701 -0.0021095835 4278603179
-0.0099367723 0.014588252 -0.0024575647 4279062178
-0.0076008849 0.012467563 -0.0007724259 4278471344
-0.0051115416 0.0096027106 0.0015870235 4278405553
-0.0028805099 0.0082294941 0.0025893277 4278471599
-0.00078129768 0.0076020211 0.0029135118 4278799528
0.0011780262 0.0077197999 0.0025610789 4278668458
0.0026933514 0.010071658 0.0001829355 4278668714
0.0058291815 0.014028452 -0.0038900748 4278995878
0.0083915293 0.011168793 -0.0015430693 4279125163
0.011134174 0.0075665414 0.001473458 4278272444
0.015033921 -0.0012408197 0.0091951694 4278536879
0.019654777 -0.013018802 0.0195948 4279061414
0.023861168 -0.022560954 0.027963461 4278865573
0.027120339 -0.027638674 0.032291323 4279849618
0.032352384 -0.031842694 0.035563588 4282405483
-0.015228562 0.0089406967 0.0008001267 4279390619
-0.012241486 0.014408648 -0.0046399161 4278405809
-0.010314953 0.014523856 -0.0049869101 4279126949
-0.0032766834 0.0081445426 4.8210379e-05 4278602923
-0.0013256371 0.008261703 -0.00030282373 4278930854
0.00033514202 0.0098729134 -0.0020019845 4278602924
0.0033235364 0.014587097 -0.0067405552 4278865063
0.0052533038 0.014703445 -0.0070874095 4278931364
0.0078067891 0.011834577 -0.0047454815 4279061413
0.010540418 0.008220993 -0.0017356523 4278799274
0.014591295 -0.0013588592 0.0066390675 4278733994
0.019532003 -0.014663607 0.018354982 4278799529
0.023569465 -0.023488298 0.026032178 4278866084
-0.01656352 0.0027507097 0.0040273401 4282143343
-0.015837647 0.010371961 -0.0030895269 4278669479
-0.014534384 0.01423876 -0.0068173725 4278341039
-0.0038118064 0.0088180006 -0.0031595179 4278668969
-0.002011288 0.0096839368 -0.0041820388 4278800039
-0.00036109239 0.011298873 -0.005876014 4278603178
0.0045253411 0.016140439 -0.010945756 4278274738
0.019245435 -0.015560076 0.01644633 4278800294
0.023278113 -0.024410978 0.024104407 4278931364
0.026190924 -0.028024033 0.027074134 4282667878
-0.016920671 0.0026730448 0.0014830842 4282077299
-0.016075358 0.0095630512 -0.0049417489 4278407338
-0.014648087 0.0126881 -0.0079866927 4278406828
-0.01272732 0.012802809 -0.0083327666 4278930854
-0.010675035 0.012165569 -0.008005498 4279192738
-0.0086172856 0.01152876 -0.0076791383 4279192993
-0.0064172894 0.010140553 -0.0066813626 4278799783
-0.004345946 0.0095047951 -0.0063572587 4278865574
-0.0024113208 0.0096209571 -0.0067053572 4278800294
-0.00091116503 0.011991188 -0.0090659037 4278669224
0.0004253909 0.015111677 -0.012093758 4278603178
0.0023413859 0.015227087 -0.012438221 4278275249
0.0044103302 0.014591768 -0.012113243 4278406064
0.0067958795 0.01245559 -0.01045135 4278340784
0.013869055 -0.0023183674 0.0022151885 4278668458
0.018795565 -0.015701726 0.013873737 4278800039
0.022654407 -0.023828939 0.020846199 4278669479
0.025558183 -0.027453333 0.023809219 4282667878
-0.017277122 0.0026044324 -0.0010544313 4282077298
-0.016435925 0.0095135942 -0.0074635656 4278472874
-0.015013531 0.012646921 -0.010500951 4278603688
-0.011051659 0.012121551 -0.010519419 4278340528
-0.0087317154 0.0099740028 -0.0088514537 4278537898
-0.0066688098 0.0093353912 -0.0085275657 4278472618
-0.0046004578 0.0086972937 -0.0082045961 4278472873
-0.0026686676 0.0088132694 -0.0085521955 4278800549
-0.0010261871 0.010436364 -0.01023813 4278538153
0.00045824423 0.012812197 -0.012590721 4278603688
0.0022267103 0.013680875 -0.013603883 4278603433
0.004142601 0.013796389 -0.013948249 4278603433
0.0066802651 0.010900699 -0.011623494 4278603433
0.0095557123 0.0065010116 -0.0079688905 4278603944
0.013910718 -0.0046691597 0.001676694 4278472873
0.018509842 -0.016586676 0.011973698 4278603943
0.022197891 -0.023985773 0.018263405 4278801059
-0.017632909 0.0025447384 -0.0035851402 4281814904
-0.01667276 0.0087161362 -0.0093071591 4278603689
-0.0069199838 0.0085349157 -0.010370318 4278668969
-0.0048546195 0.0078944117 -0.010048449 4278472873
-0.0030675121 0.0087660551 -0.011063624 4278603688
-0.001285702 0.0096374601 -0.012077706 4278341293
0.00019637123 0.012019627 -0.014424888 4278537644
0.0092810504 0.0056882203 -0.0098157404 4278603435
0.013791434 -0.0062693059 0.00047049671 4278407338
0.018224487 -0.017467007 0.010077212 4278669733
0.021908056 -0.024887949 0.016351027 4279128988
-0.018348612 0.0047718212 -0.0081199696 4281159809
-0.017154999 0.0094415098 -0.01248684 4278668968
-0.015491262 0.011073649 -0.014170615 4278537644
-0.013709906 0.011946462 -0.015183505 4278669224
-0.011541035 0.010543242 -0.014190337 4278407084
-0.0071707964 0.0077390298 -0.012209544 4278668714
-0.0051084384 0.007096231 -0.011888843 4278734758
-0.0031823181 0.0072118491 -0.012235422 4278865574
-0.0012561344 0.0073275864 -0.012581933 4278668714
0.0093223304 0.0033661053 -0.010332058 4278731189
0.013832659 -0.0086259842 -7.2434545e-05 4278930598
0.018102644 -0.019099385 0.0088467579 4278800293
0.021784436 -0.026541978 0.015104281 4279128733
-0.018942654 0.0062594488 -0.011969583 4280700554
-0.015729588 0.010293946 -0.016000189 4278865065
-0.014079008 0.011929743 -0.017678166 4279389344
-0.012046747 0.011282556 -0.017353965 4279127203
-0.010009021 0.010635883 -0.017030671 4278733994
-0.0078297034 0.0092291981 -0.016042529 4278340784
-0.0057783946 0.0085835084 -0.015721472 4278668969
-0.0037216507 0.0079383403 -0.015401334 4278800039
-0.0019478798 0.00881356 -0.016410654 4278340784
-0.00062010065 0.011968076 -0.019410381 4278340528
0.00098538399 0.013602108 -0.021079516 4278865318
0.0028847083 0.013716601 -0.021420917 4278472618
0.0055588223 0.010034516 -0.018450404 4278602669
0.0087327547 0.0040766448 -0.013498965 4278865063
0.013552941 -0.0094686747 -0.0019411929 4278668969
0.017817821 -0.019972578 0.0069556558 4278734759
0.021495141 -0.027437039 0.013197338 4278997409
-0.020014882 0.010819122 -0.01847397 4278996644
-0.01836165 0.012459084 -0.020149259 4278405808
-0.0083513111 0.0099743232 -0.019198081 4278537644
-0.0061697029 0.0085635558 -0.018213609 4278668969
-0.0044013597 0.0094404891 -0.019220382 4278734248
-0.0026383214 0.010317221 -0.020226104 4278471854
0.0024667531 0.013707921 -0.023898246 4278668459
0.013113409 -0.0095455348 -0.0044661947 4278406573
0.017696191 -0.021602139 0.005727327 4278800549
0.0212062 -0.02832742 0.011293912 4279456153
-0.020366259 0.010819107 -0.020959692 4278669989
-0.018718213 0.012463123 -0.022630764 4278931363
-0.016830638 0.012575693 -0.02297098 4278603688
-0.015198503 0.014218934 -0.024638971 4278472619
-0.013316106 0.01433143 -0.024978073 4278669224
-0.011167351 0.012914136 -0.023991195 4278734758
-0.0088719353 0.010732792 -0.022343647 4278472873
-0.006975878 0.010846466 -0.022684935 4278669478
-0.0052209571 0.01172474 -0.023687648 4278669224
-0.0034713373 0.012602806 -0.024689307 4278472363
0.007871218 0.0040105879 -0.018485447 4278275759
0.01267454 -0.0096133947 -0.0069844835 4278800294
0.017411899 -0.022468224 0.0038415813 4278931363
0.020752229 -0.028450161 0.0087368283 4279652758
-0.020597383 0.010060124 -0.022774922 4279194524
-0.018829629 0.010940544 -0.023778958 4279128478
-0.017067123 0.011820689 -0.024781939 4279194778
-0.015054666 0.011165753 -0.024459297 4279391129
-0.013167053 0.011278562 -0.024799341 4279325084
-0.011013381 0.0098572075 -0.023816625 4279062944
-0.0089845657 0.0092036128 -0.023496654 4278866338
-0.0070886612 0.0093172789 -0.023837913 4278866339
-0.0056158043 0.011731021 -0.026158752 4278931619
-0.0038715564 0.012610927 -0.027157787 4278866084
-0.0021326169 0.01349064 -0.028155765 4278996643
-0.00039900094 0.014370129 -0.029152719 4278996644
0.0016328432 0.013717465 -0.028832713 4279193504
0.0041335076 0.010767698 -0.026541198 4278733993
0.0077557638 0.0024596453 -0.019654591 4278603433
0.012396187 -0.010437824 -0.0088394657 4278669224
0.016965417 -0.022564262 0.0013032914 4278931619
0.020298921 -0.028563879 0.0061864615 4279718294
-0.021664813 0.0022612214 -0.018282969 4282797928
-0.020469978 0.0069955215 -0.02260033 4278669733
-0.01869683 0.0078783482 -0.02360365 4278276779
-0.0090971664 0.0076747537 -0.024649423 4278276779
-0.0074777901 0.0093263239 -0.02630811 4278538919
-0.0057282299 0.010208614 -0.027306581 4278604199
-0.0038404018 0.010322027 -0.027646208 4278604199
-0.0019525252 0.010435566 -0.027985753 4278603944
-6.4596534e-05 0.01054924 -0.028325202 4278735014
0.0019750074 0.009894833 -0.028008224 4279062688
0.004328616 0.0077049285 -0.026380511 4278735013
0.0077973306 0.0001411885 -0.020168142 4278735268
0.012118183 -0.011257604 -0.01069095 4278669733
0.016681984 -0.023418874 -0.00057380786 4278866083
0.01984629 -0.028668649 0.0036429227 4280111248
-0.021893844 0.0014921874 -0.020106431 4282797928
-0.020462416 0.0046947896 -0.023092547 4278604198
-0.018442713 0.0040357262 -0.022774721 4278538918
-0.016292926 0.0026051179 -0.021798259 4278407848
-0.014132317 0.001175344 -0.020823684 4278407848
-0.012220841 0.0012895614 -0.021168046 4278538918
-0.010574602 0.0029468089 -0.022828426 4278342569
-0.0089390352 0.0046035722 -0.024486849 4278342569
-0.0070380569 0.0047175512 -0.024829017 4278277034
-0.0052777417 0.0056025833 -0.025827734 4278277034
-0.0035227314 0.0064874291 -0.026825398 4278342314
0.000268884 0.0067155659 -0.027507249 4278276779
0.0043689609 0.005403921 -0.026880344 4278408104
0.0076817609 -0.0014113337 -0.021338476 4278604709
0.012000039 -0.01284261 -0.011885736 4278670244
0.016074488 -0.022729509 -0.0037529073 4278735523
0.019394325 -0.028764397 0.0011061039 4282470764
-0.021889731 -0.00082139671 -0.020607762 4282600559
-0.020336039 0.0016155466 -0.022928922 4278734759
-0.01831127 0.00095462054 -0.022613686 4278604198
-0.016156595 -0.0004799515 -0.021641467 4278669733
-0.014118224 -0.0011398643 -0.021328449 4278407849
-0.012074385 -0.0017992705 -0.021016361 4278407849
-0.010422621 -0.000137344 -0.022674473 4278669988
-0.0086463206 0.00075054914 -0.023674587 4278538918
-0.007013198 0.0024115592 -0.025329119 4278473383
-0.0048285052 0.00097952783 -0.024361724 4278669988
-0.0032059923 0.0026401579 -0.02601414 4278473384
-0.0013023056 0.0027546361 -0.026356531 4278669988
0.00045280531 0.0036419183 -0.027352409 4278669989
0.0025052018 0.002983965 -0.027041061 4278538918
0.0047169812 0.0015541911 -0.026078062 4278669988
0.0078795664 -0.0045078844 -0.021204364 4278669988
0.012041274 -0.015199296 -0.012428679 4279063198
0.015954109 -0.024342351 -0.0049686334 4279128733
0.018943045 -0.028851211 -0.0014239121 4282667879
-0.021537162 -0.005469285 -0.019139022 4282600813
-0.020210266 -0.0014720261 -0.02277167 4278538408
-0.018180452 -0.0021348149 -0.022459002 4278538663
-0.016269457 -0.0020208955 -0.02280348 4278669733
-0.014104415 -0.0034590811 -0.021836316 4278604453
-0.012187872 -0.0033445656 -0.022181591 4278473384
-0.010403581 -0.0024541542 -0.023181578 4278604453
-0.0087596327 -0.00078827143 -0.024834873 4278407848
-0.0068509094 -0.00067387521 -0.025178472 4278735523
-0.0049421266 -0.00055932999 -0.025521966 4278604453
-0.0030332766 -0.00044468045 -0.025865393 4278669988
-0.0012701489 0.00044509023 -0.026861094 4278538918
0.0006361194 0.00055984408 -0.027203858 4278604453
0.0026935637 -9.9912286e-05 -0.026895115 4278735523
0.0050640665 -0.0023082346 -0.025285345 4278800803
0.008076746 -0.0076128021 -0.021076616 4278800803
0.012082212 -0.01756002 -0.012974677 4278866339
0.015671868 -0.025180832 -0.0068336441 4279128989
-0.021301925 -0.0093553066 -0.018339194 4282076533
-0.019728802 -0.0069042295 -0.020653937 4279586969
-0.018050224 -0.005232662 -0.022310602 4278801059
-0.016258143 -0.004339993 -0.02331062 4278669479
-0.014344528 -0.004225798 -0.02365547 4278538663
-0.012430824 -0.0041114762 -0.024000254 4278538663
-0.010384846 -0.0047749653 -0.023691794 4278735523
-0.0086031742 -0.0038824305 -0.024689559 4278997409
-0.0069643483 -0.0022124201 -0.026338516 4278997409
-0.0051959567 -0.001320444 -0.027333703 4278866339
-0.0032899491 -0.001205951 -0.027676612 4278997409
-0.0013838895 -0.0010913312 -0.028019428 4278866594
0.00067051128 -0.0017535612 -0.0277119 4278866338
0.0027303211 -0.0024153441 -0.027405249 4278866338
0.0049492121 -0.0038533583 -0.026450129 4278866594
0.0078042559 -0.0083965734 -0.022901598 4278800803
0.011804782 -0.018372104 -0.014820352 4279062943
0.015551694 -0.026790902 -0.0080472957 4280308108
-0.020951673 -0.014035091 -0.016894504 4282337399
-0.019486099 -0.010795996 -0.019860223 4280700298
-0.017678022 -0.0099003613 -0.020861568 4279325339
-0.015875209 -0.009004876 -0.02186192 4279128733
-0.013951007 -0.0088900477 -0.022208685 4279128989
-0.012026723 -0.0087751001 -0.022555372 4278801824
-0.0098382831 -0.010220267 -0.021598879 4278735524
-0.0083126128 -0.0077648535 -0.023899551 4279063454
-0.0065281689 -0.0068698674 -0.024896055 4278931618
-0.0051692836 -0.0036361888 -0.027841803 4278931618
-0.0031179823 -0.0043009967 -0.027535561 4279194269
-0.0010612532 -0.0049654096 -0.02723017 4279063454
0.0011490136 -0.0064084828 -0.026277069 4279062944
0.0030684285 -0.00629282 -0.026622109 4278735779
0.0049878843 -0.0061770082 -0.026967034 4278866593
0.0076882988 -0.0099544078 -0.024075937 4278538918
0.011686571 -0.019958064 -0.016015856 4279062944
0.015431542 -0.028400689 -0.0092607122 4281356158
-0.018888965 -0.017049678 -0.017119136 4283124329
-0.017185912 -0.015368022 -0.018773567 4282862189
-0.015245847 -0.015252367 -0.019123282 4281880694
-0.013179205 -0.015919194 -0.018822066 4281421438
-0.011107106 -0.016585574 -0.018521737 4280307598
-0.0090295523 -0.017251477 -0.01822228 4279914133
-0.0073502138 -0.015570603 -0.019871958 4280110993
-0.0055442974 -0.014672205 -0.020870682 4280241809
-0.004023537 -0.012210369 -0.023165286 4279390619
-0.0020910017 -0.012094282 -0.023512963 4279587734
-1.3120472e-05 -0.012759537 -0.023213077 4279194523
0.0019222014 -0.012643032 -0.023561068 4278997919
0.0038575642 -0.012526408 -0.023908969 4278997919
0.0054862797 -0.010847695 -0.025548857 4279063964
0.0081964731 -0.01463525 -0.022667792 4279063198
0.011727087 -0.022324398 -0.016566074 4280504714
0.015311416 -0.030010149 -0.010473894 4281816179
-0.031001113 -0.021653973 -0.019210311 4282536298
-0.033154726 -0.022540666 -0.020689094 4282470764
-0.039376058 -0.024412684 -0.023289775 4282798439
-0.041596204 -0.024483994 -0.02540773 4282863463
-0.043634512 -0.026150182 -0.026230732 4282863463
-0.026727356 -0.021922939 -0.031927824 4282470763
-0.047757514 -0.026319504 -0.027993854 4282272883
-0.013419896 -0.022668123 -0.035512276 4282471019
-0.0500957 -0.024751969 -0.031387284 4278663103
-0.033929639 -0.020338684 -0.041903816 4282602344
-0.056562699 -0.024820089 -0.037672654 4282797418
-0.035941429 -0.024307556 -0.04322483 4281879929
-0.036246307 -0.024197653 -0.045636356 4282470254
-0.017604187 -0.026114613 -0.051330566 4282733414
-0.044656619 -0.026586816 -0.051988218 4282601068
-0.039511524 -0.02212885 -0.056129579 4282928999
-0.043159261 -0.025500186 -0.055337355 4282863974
-0.04129567 -0.02539029 -0.05567421 4282536299
-0.039525852 -0.024452783 -0.056634631 4282798439
-0.030114017 -0.027057998 -0.058206171 4282798438
