# .PCD v0.7 - Point Cloud Data file format
VERSION 0.7
FIELDS x y z rgba
SIZE 4 4 4 4
TYPE F F F U
COUNT 1 1 1 1
WIDTH 975
HEIGHT 1
VIEWPOINT 0 0 0 1 0 0 0
POINTS 975
DATA ascii
-0.047103446 0.027193548 0.033898845 4283796253
-0.044763837 0.024615044 0.036431037 4283796509
-0.042402644 0.022038143 0.038958549 4284317983
-0.053478505 0.015528642 0.044760838 4283721538
-0.052040946 0.019081648 0.040638842 4284185893
-0.050527629 0.02195064 0.037260875 4284120358
-0.048930582 0.024136227 0.034625188 4284121379
-0.047241841 0.025638927 0.03273005 4283991074
-0.044903073 0.023051634 0.035255648 4283924774
-0.042430002 0.019784544 0.038512424 4284184618
-0.053039815 0.0098357499 0.047995634 4283787329
-0.051585395 0.01340073 0.043878265 4283988013
-0.050055403 0.016279545 0.040503293 4283989544
-0.048546445 0.019156877 0.037133008 4283990819
-0.046844076 0.020664845 0.035238177 4284121123
-0.044602726 0.018753469 0.037019476 4284120359
-0.042120058 0.015476219 0.040265627 4284184363
-0.00090349093 0.024042472 0.025087642 4284250664
0.00083885714 0.024863288 0.023944261 4283797528
0.0032821298 0.022968404 0.025682313 4283599904
0.0075335465 0.014288422 0.034611404 4283403299
-0.051033016 0.0070071928 0.047833636 4283987758
-0.04948372 0.009895999 0.044461057 4283989288
-0.047955405 0.012783311 0.041093223 4284121379
-0.046341125 0.014983065 0.038463749 4284120868
-0.044194151 0.013752155 0.039503448 4284186403
-0.042148594 0.013207778 0.039808303 4284184619
-0.039982449 0.011978392 0.040843867 4284379949
-0.003297437 0.023697734 0.02289292 4284316708
-0.0022417568 0.027246021 0.01887344 4284384793
-0.00051797181 0.028067565 0.017735867 4283859494
0.0015532449 0.027526777 0.018036289 4283857964
0.0047039464 0.02290152 0.022642495 4283792683
0.0086187981 0.015556678 0.030109378 4283795233
-0.050878625 0.0033388026 0.048830844 4283987758
-0.049219128 0.0055481754 0.046196267 4284120103
-0.047471169 0.0070679411 0.044297911 4284120359
-0.04573359 0.0085870624 0.042401873 4284186404
-0.044006381 0.010105431 0.040508203 4284186404
-0.042289574 0.011623114 0.038616896 4284120103
-0.04035354 0.011764705 0.038188547 4284250663
-0.0061759688 0.025414811 0.018545261 4284444973
-0.0042788312 0.025554944 0.018126598 4284317728
-0.0027231909 0.027062338 0.016272111 4284321554
-0.0015250631 0.029935827 0.012985272 4283858729
0.00053252652 0.029391836 0.013286997 4283791919
0.0033107847 0.026116332 0.016452303 4283794724
0.006478779 0.021477249 0.021042963 4283797019
0.0095000677 0.017523658 0.024910392 4283732759
0.012553453 0.013572522 0.028770803 4283858728
-0.050922561 0.0010397062 0.048353918 4283987758
-0.049259912 0.0032556877 0.045723677 4284185893
-0.047508989 0.004779987 0.043827944 4284185893
-0.045768443 0.0063035376 0.041934595 4284186404
-0.043928985 0.0071361698 0.040773392 4284120358
-0.042318504 0.0093486086 0.038154893 4284120103
-0.040265273 0.0088004395 0.038454592 4284120359
-0.038558308 0.010321811 0.03656888 4284186149
-0.036381979 0.0090845227 0.037595481 4284120358
-0.034685191 0.010605279 0.035712115 4284184619
-0.0088628866 0.026469678 0.014926344 4284316454
-0.0071419142 0.027295073 0.013792541 4284187168
-0.0049223378 0.026062272 0.014810594 4284252704
-0.0030331872 0.026201868 0.014393736 4284124694
-0.0014904812 0.027712679 0.012545494 4283994644
4.1652471e-05 0.029222792 0.010699656 4283927578
0.0022776499 0.027991511 0.011714321 4283796763
0.0050682612 0.024706138 0.014868535 4283797528
0.0078856312 0.021422822 0.018016903 4283793958
0.010169916 0.020195313 0.019021148 4283726639
0.012464929 0.018968709 0.020023039 4282022729
-0.050966796 -0.0012635402 0.047873855 4284184874
-0.049098764 -0.00042694807 0.046707869 4284251429
-0.047443327 0.0017949939 0.044084251 4284185893
-0.045697156 0.0033232756 0.042192936 4284185894
-0.043961365 0.0048508123 0.040303998 4284120359
-0.042235967 0.0063777044 0.038417377 4284120359
-0.040406544 0.0072118044 0.037260182 4284120359
-0.038699288 0.0087374598 0.035377719 4284120358
-0.036762927 0.0088790916 0.034949318 4284120359
-0.034826335 0.0090208054 0.034520909 4284054568
-0.033014614 0.0098539367 0.033367798 4284315179
-0.031080227 0.0099956319 0.032939993 4284445228
-0.010887567 0.024788985 0.014184114 4284250664
-0.0093263462 0.026305165 0.012334902 4284188189
-0.0076106191 0.027132306 0.011203911 4284188188
-0.0052291192 0.025206575 0.012935106 4284056353
-0.0033427365 0.025345942 0.012518838 4284056098
-0.0018024072 0.026860893 0.010674477 4284056098
7.885322e-05 0.027000044 0.010259464 4283990564
0.0019601956 0.027139267 0.0098444838 4283925029
0.0045659691 0.024529925 0.012278801 4283925028
0.0068256594 0.023296203 0.013284985 4283727403
0.0092825256 0.021376558 0.015000025 4281892934
-0.050913047 -0.0042663515 0.048119634 4284184873
-0.049039591 -0.0034272745 0.046954073 4284186149
-0.04737835 -0.0011984333 0.044334121 4284185893
-0.045732792 0.0010293387 0.041717708 4284120359
-0.04399405 0.0025613606 0.039831437 4283923754
-0.042154115 0.003398262 0.038673498 4284054568
-0.04031926 0.00423491 0.037516691 4283989289
-0.038489472 0.0050712153 0.036361106 4283989033
-0.036545228 0.0052133575 0.035930902 4283989033
-0.034722958 0.006049253 0.03477709 4283989288
-0.03303067 0.0075783134 0.032901436 4284054313
-0.031348836 0.009106718 0.031028097 4284120359
-0.029547211 0.0099413171 0.029879021 4284120359
-0.027617823 0.010082744 0.029452393 4284185639
-0.025823776 0.010916948 0.028305115 4284640813
-0.012754988 0.022417553 0.014158027 4284185128
-0.011504691 0.02532039 0.01087955 4283861533
-0.010113407 0.027531069 0.0083205607 4283861533
-0.0080784895 0.026978532 0.0086219534 4283862043
-0.0055354685 0.024355469 0.011063064 4283733013
-0.0033114254 0.023114353 0.01207342 4283924518
-0.0015952475 0.02394391 0.01094418 4284056099
-5.9850514e-05 0.025462877 0.0091043096 4284056609
0.0016431846 0.026291622 0.0079780966 4283990564
0.0037027299 0.025741374 0.0082744192 4283792683
-0.047417406 -0.0035031438 0.043851487 4284578593
-0.045556623 -0.0026627555 0.042690448 4284316453
-0.044027019 0.00026778877 0.039355755 4283922734
-0.042184319 0.0011070073 0.038198844 4283988779
-0.040460739 0.002642367 0.036319308 4283988523
-0.038514156 0.0027845651 0.035888493 4283988779
-0.0366867 0.0036228821 0.034735113 4283923754
-0.034742299 0.0037650615 0.034304902 4283923499
-0.033171754 0.0059942454 0.03171052 4283923753
-0.031234901 0.0061360262 0.03128209 4283989544
-0.029557873 0.0076684281 0.029413195 4283989289
-0.027891297 0.0092001036 0.027546721 4284120104
-0.026235174 0.010731131 0.025682574 4284315688
-0.024451498 0.011566762 0.024539283 4284381479
-0.015243787 0.022815719 0.011270402 4284315689
-0.013520245 0.023647472 0.010140825 4284187933
-0.012279935 0.026558248 0.0068712123 4283924518
-0.010736823 0.028081739 0.0050326325 4283791919
-0.0085455216 0.026833663 0.006046759 4283858984
-0.0060087144 0.024201453 0.0084824935 4283860768
-0.0037905015 0.022955559 0.0094907563 4283991329
-0.0020795614 0.023786873 0.0083643384 4283990563
-0.00037385151 0.024617871 0.0072391313 4283925283
0.0013265871 0.025448615 0.0061151125 4283794979
-0.044060279 -0.0020298995 0.038876958 4284053803
-0.042103644 -0.0018871725 0.038443767 4283987759
-0.040146749 -0.0017443523 0.038010575 4283791408
-0.038306106 -0.00090303272 0.036855862 4283857964
-0.036589738 0.000636179 0.0349814 4283923753
-0.034883786 0.0021747574 0.033109255 4283923753
-0.033063751 0.003014788 0.03195928 4283989288
-0.031121667 0.0031569004 0.03152965 4283989288
-0.029698689 0.0060888492 0.028225688 4283989544
-0.028164294 0.0083220601 0.025644487 4284054824
-0.026645701 0.010554232 0.023066791 4283988779
-0.024591628 0.0099979192 0.023359926 4283988779
-0.022812989 0.010835387 0.022219462 4283988268
-0.021468971 0.013761926 0.018933257 4283987248
-0.020437736 0.018079508 0.014221715 4284316454
-0.019438323 0.022394877 0.0095172245 4284379438
-0.018017296 0.024620308 0.0069614984 4284251683
-0.015996847 0.024062002 0.0072624367 4284252959
-0.014283877 0.024895115 0.0061368532 4284191504
-0.01305357 0.027813777 0.0028761476 4283992603
-0.011359006 0.028645685 0.0017547458 4283859494
-0.0091762021 0.027392669 0.0027673207 4283860513
-0.0066482835 0.024751121 0.0051982775 4283862043
-0.0044385754 0.023500245 0.0062050335 4283926303
-0.0025630556 0.02363883 0.0057911761 4283990054
-0.0010377504 0.025165675 0.0039602313 4283134273
-0.040175159 -0.0040459409 0.037527479 4284578083
-0.038331773 -0.0032022744 0.036373749 4284186148
-0.036850404 -0.00025775284 0.033063322 4283989288
-0.035025176 0.00058469176 0.031913772 4283989289
-0.033205051 0.0014268458 0.030765412 4283989288
-0.031136099 0.00086911023 0.031053303 4283923753
-0.029709768 0.0038099028 0.027755281 4283923753
-0.028172243 0.0060497895 0.025178386 4283923754
-0.026650514 0.0082886368 0.022605004 4283989033
-0.024594042 0.0077303052 0.022895908 4284054314
-0.022672366 0.0078712702 0.022471065 4284055078
-0.021322329 0.010806877 0.019190231 4283988779
-0.020430323 0.015836306 0.013773924 4283857454
-0.019427169 0.020164851 0.0090787001 4283989544
-0.018153947 0.023095068 0.0058150347 4284121379
-0.01628742 0.023232386 0.0054026935 4284121379
-0.014733326 0.024765125 0.0035682432 4284121634
-0.013507668 0.027692074 0.0003152648 4284059414
-0.011818342 0.028525745 -0.00080331042 4283992348
-0.0096413568 0.02726789 0.00020720437 4283927833
-0.0069527104 0.023920348 0.0033414885 4283927579
-0.0049157776 0.023361553 0.0036374629 4283924518
-0.0030457042 0.023499709 0.0032247864 4283858729
-0.036873024 -0.0025523007 0.032584079 4284185894
-0.035166491 -0.0010051206 0.030718455 4284120104
-0.033222165 -0.0008630231 0.030288199 4283923499
-0.03140438 -1.8849969e-05 0.029142058 4283857964
-0.029721167 0.0015268102 0.027281811 4283923244
-0.028048392 0.0030718297 0.025423901 4283923499
-0.026386071 0.0046161152 0.023568405 4283989033
-0.024596784 0.0054585226 0.02242882 4283989034
-0.022812646 0.0063006878 0.021290397 4283989289
-0.021176409 0.0078433156 0.019440865 4283989288
-0.019986946 0.011487119 0.015458366 4283923753
-0.018823978 0.01512906 0.011481786 4283859749
-0.017687511 0.018769138 0.0075111296 4283858728
-0.016270701 0.021007307 0.0049663875 4283989543
-0.014713649 0.02254454 0.0031346772 4284055588
-0.01364341 0.026180023 -0.00082121044 4284056098
-0.012115415 0.027715275 -0.0026463773 4284056099
-0.01026978 0.027851352 -0.0030538701 4284056099
-0.0077569783 0.025191328 -0.00063306186 4283924519
-0.0057310201 0.024629535 -0.00033636298 4283530033
-0.033239584 -0.0031570047 0.029807879 4284185384
-0.03154562 -0.0016063526 0.027948519 4284053804
-0.029732872 -0.00076034665 0.026805202 4283791409
-0.027925242 8.5361302e-05 0.02566308 4283792173
-0.026391882 0.0023379587 0.023097144 4283923499
-0.024599839 0.0031826906 0.021958595 4283923499
-0.02309275 0.0054335333 0.019398594 4283858474
-0.021316331 0.006277293 0.018263636 4283858728
-0.019690301 0.0078235827 0.016419711 4283858728
-0.018222664 0.01007174 0.013868673 4283858728
-0.016921435 0.013021246 0.010612201 4283858474
-0.015334915 0.014564902 0.0087772068 4283924264
-0.014226604 0.018213861 0.0048212744 4283990819
-0.013144821 0.021860953 0.00087126903 4283924008
-0.01192835 0.024804568 -0.0023662122 4284055844
-0.01040528 0.026343843 -0.0041868864 4283990308
-0.008559633 0.026479973 -0.00459434 4283595824
-0.031560402 -0.0038999394 0.027467767 4284707113
-0.02974489 -0.00305162 0.026325485 4284119084
-0.027934518 -0.0022035837 0.025184406 4283988268
-0.026263636 -0.00065005571 0.02333363 4283792173
-0.024740253 0.0016083121 0.020775018 4283661868
-0.022953276 0.0024548844 0.019639311 4283858219
-0.021171439 0.003301207 0.018504759 4283858218
-0.019394759 0.0041471832 0.017371448 4283923753
-0.017770935 0.0056976452 0.015531449 4283858474
-0.016308006 0.0079520419 0.012986489 4283989289
-0.01470786 0.0095009394 0.01115186 4283923499
-0.01342966 0.012457553 0.0079073086 4283924774
-0.012172632 0.015412703 0.0046675075 4283924774
-0.011258893 0.019773941 2.2536144e-05 4283991838
-0.010049611 0.022725753 -0.0032065827 4283924264
-0.0088615566 0.025676079 -0.0064309528 4281429853
-0.026136089 -0.0036465526 0.023563793 4284312119
-0.024470065 -0.0020890012 0.021717487 4283921713
-0.022674989 -0.001239717 0.020581631 4283792174
-0.020885076 -0.00039071962 0.019446993 4283726894
-0.019390006 0.001872316 0.016899807 4283792429
-0.017763246 0.0034272857 0.015062487 4283857708
-0.016146991 0.0049816221 0.013227528 4283923754
-0.014235552 0.005122114 0.012805166 4283923753
-0.012790505 0.0073817819 0.010269349 4283923753
-0.011361308 0.0096404329 0.0077370685 4283989288
-0.010269664 0.013309922 0.003801709 4283858728
-0.0092045479 0.016977545 -0.00012771413 4283726893
-0.022258487 -0.0056568757 0.022220762 4284705839
-0.020599809 -0.0040954538 0.020379586 4283921714
-0.019096266 -0.0018253326 0.017835544 4283791408
-0.017755877 0.0011528172 0.014590424 4283857708
-0.015986692 0.00200269 0.013462229 4283988779
-0.01437534 0.0035610497 0.011631755 4283924009
-0.012463883 0.0037016049 0.011209436 4283923754
-0.0110262 0.0059672967 0.0086803418 4283924008
-0.0097650513 0.0089400858 0.0054530893 4283858473
-0.0083617903 0.01120346 0.0029316936 4283661103
-0.0071403943 0.014173497 -0.00028663874 4282872899
-0.017454583 -0.0025483631 0.015521321 4283986993
-0.015827123 -0.00098462403 0.013690542 4284054824
-0.0143626 0.0012893081 0.01116039 4284120359
-0.012603715 0.0021407753 0.010036217 4284119848
-0.01100779 0.0037024319 0.0082126688 4284054059
-0.0095828511 0.0059737787 0.0056914296 4283792173
-0.0080106705 0.0075338706 0.0038732681 4283727149
-0.0066148154 0.0098032542 0.0013585966 4282150993
-0.015518662 -0.0046937056 0.014613314 4284576044
-0.014197942 -0.0016995668 0.011386082 4284184618
-0.012433637 -0.0008456111 0.010262409 4284054059
-0.011147294 0.0021461919 0.0070429239 4283857709
-0.0095616244 0.0037114955 0.0052250549 4283792173
-0.0078235902 0.0045638494 0.0041073672 4283726894
-0.0062563382 0.0061279722 0.0022937078 4282149719
-0.011129349 -0.00012465194 0.0065707322 4284117298
-0.0095407479 0.001445163 0.0047555529 4284054058
-0.0079626851 0.0030143373 0.0029427353 4283988268
-0.0062297843 0.0038684979 0.0018279515 4281624930
-0.038919974 -0.02191944 0.029779868 4281961529
-0.037182156 -0.020335857 0.027933819 4282745398
-0.035454739 -0.018752966 0.026090192 4284443954
-0.0079392008 0.00074839965 0.0024728924 4284053294
-0.040140625 -0.029454451 0.034638055 4282803794
-0.038833689 -0.0249754 0.029975252 4281829693
-0.037090275 -0.023387183 0.028131323 4282025788
-0.03535727 -0.021799576 0.026289733 4282679355
-0.033634696 -0.020212684 0.024450561 4283595569
-0.039949853 -0.033256967 0.035520993 4282870603
-0.038748089 -0.028039824 0.030164337 4282024259
-0.036882233 -0.027171191 0.029023746 4281501763
-0.035260472 -0.024854627 0.026482979 4281632323
-0.03353231 -0.023263011 0.024645852 4281763138
-0.032064263 -0.02022459 0.021412047 4282024514
-0.029979777 -0.020805407 0.021677772 4282220609
-0.028019946 -0.020662341 0.021243954 4284116533
-0.039982837 -0.035618443 0.034992583 4282804814
-0.038777191 -0.030385938 0.029646778 4281892679
-0.036908578 -0.029515032 0.028507264 4281567554
-0.035283718 -0.027191754 0.025970763 4281632324
-0.033674601 -0.024869535 0.02343783 4281567299
-0.032081243 -0.022548418 0.020908495 4281828674
-0.030121733 -0.022405509 0.020474644 4281828418
-0.028291997 -0.021536935 0.019344056 4282024514
-0.026202101 -0.022119362 0.019607028 4282416703
-0.038806576 -0.032736119 0.029126143 4281893698
-0.037051711 -0.031134222 0.027289638 4281437759
-0.035426382 -0.02880447 0.024758043 4281306179
-0.033695024 -0.027204078 0.022926843 4281436228
-0.032223012 -0.024148207 0.019705558 4281435973
-0.0301365 -0.024733219 0.01996739 4281567299
-0.028433811 -0.023134615 0.018142769 4281567043
-0.026344229 -0.023719277 0.018404098 4281371203
-0.024519358 -0.022848722 0.017276397 4281567554
-0.022699628 -0.021978486 0.016149955 4282025024
-0.020744625 -0.02183545 0.01571746 4282809913
-0.038381811 -0.038014513 0.031390429 4282089028
-0.037078489 -0.033483971 0.026768615 4281632834
-0.03545006 -0.031147558 0.024241323 4281371203
-0.033715758 -0.029542696 0.022412853 4281435719
-0.031867657 -0.02866872 0.021281349 4281501254
-0.030024651 -0.02779505 0.02015111 4281305158
-0.028316375 -0.026191805 0.01832862 4281501509
-0.026618544 -0.024589177 0.016508477 4281566789
-0.024796251 -0.023716722 0.015383046 4281502019
-0.023116697 -0.022115264 0.013567157 4281763138
-0.021167148 -0.021972667 0.013135832 4282220864
-0.01921742 -0.021829929 0.012704564 4283136314
-0.035117771 -0.035693187 0.025804104 4281760334
-0.033615414 -0.032617975 0.022589328 4281500999
-0.032010045 -0.030276615 0.020072298 4281174088
-0.030166972 -0.029400829 0.018943677 4280912458
-0.028458435 -0.027793262 0.017124461 4281239113
-0.026628274 -0.026918221 0.015998861 4281435463
-0.024803277 -0.026043404 0.01487444 4281501508
-0.023120794 -0.024437446 0.013061224 4281632578
-0.021448802 -0.022832122 0.011250366 4281436738
-0.01964457 -0.021958549 0.010130825 4281828928
-0.032667223 -0.040845308 0.027603211 4282608464
-0.031285215 -0.037026521 0.023703055 4281565514
-0.029929604 -0.033209566 0.019808823 4281042253
-0.028212819 -0.031597082 0.01799106 4281303884
-0.026638348 -0.029251281 0.015486151 4281500489
-0.024945136 -0.027640317 0.013673767 4281435974
-0.023399588 -0.025296409 0.01117542 4281501763
-0.021450285 -0.025153879 0.010744113 4281632323
-0.019928362 -0.022811461 0.0082511064 4281958723
-0.030315626 -0.04528011 0.028690597 4282346069
-0.029440615 -0.038504202 0.022042649 4281237584
-0.027968291 -0.035413686 0.018848108 4281303884
-0.026385386 -0.033060778 0.016346285 4281435208
-0.02481826 -0.030708972 0.013848089 4281435464
-0.023129944 -0.02909397 0.012040196 4281436484
-0.021452118 -0.027479675 0.010234749 4281697858
-0.019784752 -0.025865991 0.0084316675 4281828674
-0.017837923 -0.025723461 0.0080010481 4282874939
-0.026659433 -0.033929553 0.014451547 4281171794
-0.02496038 -0.032309625 0.012644574 4281238604
-0.02327181 -0.030690316 0.010839958 4281370438
-0.021454249 -0.029809501 0.0097223371 4281566534
-0.01964185 -0.028928947 0.0086059514 4281632833
-0.017834608 -0.028048668 0.0074907839 4283397688
-0.024968501 -0.034650344 0.012125375 4280710499
-0.023003783 -0.034506869 0.011690512 4281237839
-0.02145673 -0.03214338 0.009206878 4281238348
-0.019499663 -0.032000262 0.0087738764 4281959488
-0.01783165 -0.030377883 0.0069774315 4283659319
-0.019783426 -0.032854166 0.0068933759 4281432404
-0.017973412 -0.031969424 0.0057808999 4283789114
0.0077185482 -0.019618865 -0.015104751 4283530543
0.0056733266 -0.021311823 -0.015850794 4282679354
0.0075783096 -0.021170791 -0.016270947 4282154563
0.0091104619 -0.019539405 -0.018022612 4282743103
0.032400601 -0.00034464151 -0.039406892 4284638773
0.033551764 0.0020192042 -0.041780174 4284508214
0.005714193 -0.023611095 -0.016351433 4283727914
0.0074381083 -0.022722412 -0.017436903 4281763649
0.0091567598 -0.021833982 -0.01852111 4281763394
0.010870125 -0.020945836 -0.019604072 4281959233
0.012386613 -0.019311059 -0.021348819 4282482238
0.014280967 -0.019170333 -0.021766253 4282940983
0.0053932518 -0.024414737 -0.018182559 4282221628
0.0074813291 -0.025023375 -0.017939512 4281959489
0.0092026852 -0.024132598 -0.019022651 4281828674
0.010918766 -0.023242105 -0.020104541 4281762629
0.012438171 -0.021602783 -0.02184657 4281762628
0.014141001 -0.020713035 -0.022925355 4281763138
0.015838537 -0.019823555 -0.02400288 4283070523
0.017730132 -0.019682813 -0.024419531 4284574514
0.0038823783 -0.028363261 -0.016939882 4284508213
0.0057948492 -0.028221805 -0.017361779 4282940983
0.0075241886 -0.027328376 -0.018445158 4281435208
0.0092482604 -0.02643526 -0.01952723 4281566279
0.010778539 -0.024790991 -0.021268366 4281567044
0.012107003 -0.022396121 -0.023666859 4281762884
0.01380723 -0.021504406 -0.024743389 4281632834
0.015305623 -0.019862112 -0.02647727 4281632834
0.017191742 -0.019721773 -0.026892718 4281828674
0.018472373 -0.017330024 -0.029280249 4283006773
0.02035052 -0.01719005 -0.029693753 4284117809
0.0037419833 -0.029920463 -0.018110126 4284245819
0.0056543127 -0.029779028 -0.018532004 4282678079
0.0075667016 -0.02963746 -0.018953789 4281304649
0.0091078244 -0.027988147 -0.020694111 4281500743
0.010826658 -0.027093161 -0.021773275 4281632324
0.012349229 -0.025445033 -0.023509277 4281632324
0.014054816 -0.024550732 -0.024585366 4281567554
0.015755109 -0.023656745 -0.025660153 4281698369
0.017450094 -0.022763018 -0.026733667 4281501254
0.018736485 -0.020364348 -0.02911751 4281763393
0.020619813 -0.020223979 -0.029532146 4282091323
0.022089217 -0.018579092 -0.031255882 4283856433
0.023757586 -0.017686892 -0.032323178 4284640048
0.0076088496 -0.031950537 -0.019465512 4281237839
0.0091528669 -0.030296709 -0.021203125 4281369164
0.01087442 -0.029399369 -0.022281218 4281435208
0.012209114 -0.02699117 -0.024671001 4281436738
0.013914742 -0.026094694 -0.02574542 4281306433
0.015615083 -0.025198553 -0.026818549 4281370948
0.017310124 -0.024302695 -0.027890418 4281305414
0.018999849 -0.023407083 -0.028961007 4281435973
0.020684239 -0.022511732 -0.030030388 4281501509
0.02236332 -0.021616686 -0.031098455 4281567554
0.024037071 -0.020721916 -0.032165255 4281829183
0.025493385 -0.019073453 -0.03388257 4283071543
0.027153777 -0.018179413 -0.034946296 4284181559
0.029243691 -0.018792856 -0.03470742 4284705073
0.0090122968 -0.031851184 -0.022371205 4280909399
0.010921814 -0.0317096 -0.022792185 4281173833
0.0124502 -0.030052442 -0.024522789 4281306434
0.014161222 -0.029153477 -0.025596691 4281371968
0.015866932 -0.028254788 -0.026669336 4281240388
0.017567337 -0.027356308 -0.027740737 4281174598
0.019262433 -0.026458163 -0.028810853 4281370184
0.020748306 -0.024803568 -0.030531626 4281501508
0.022223521 -0.023149569 -0.03224998 4281567299
0.024106547 -0.023008984 -0.03266437 4281698368
0.025989573 -0.022868279 -0.033078663 4281829949
0.028301708 -0.02423938 -0.032193676 4282222139
0.030407241 -0.02485377 -0.031959943 4283396158
0.032078303 -0.023956563 -0.033024102 4284704819
0.012500148 -0.032362182 -0.025034081 4280514403
0.01382776 -0.029941488 -0.0274122 4281239369
0.015726577 -0.029800329 -0.027830532 4281174088
0.017427027 -0.028899711 -0.028900286 4281173324
0.019323213 -0.028758492 -0.029317847 4281369419
0.020608284 -0.026340481 -0.031686213 4281370438
0.022290114 -0.025440868 -0.032751575 4281436484
0.02375759 -0.023783069 -0.034464754 4281436738
0.026272906 -0.025917534 -0.032932784 4281632068
0.029232912 -0.029566903 -0.030108334 4281371459
0.032653574 -0.034729969 -0.025994921 4281305668
0.034793362 -0.035343882 -0.025770271 4282673489
0.014073297 -0.033010457 -0.027271193 4280906593
0.01597729 -0.032868925 -0.027690675 4280974933
0.017484937 -0.031204309 -0.029409727 4281107279
0.019383637 -0.031062942 -0.029827861 4281369164
0.020875312 -0.029399227 -0.031543255 4281501508
0.02235635 -0.02773625 -0.033256169 4281436484
0.023826722 -0.026073892 -0.034966685 4281306179
0.026343958 -0.02821466 -0.03344015 4281501508
0.029947989 -0.034155551 -0.028685395 4281175109
0.033811424 -0.040853184 -0.023294166 4281500743
0.020246297 -0.03642514 -0.027750403 4281303628
0.021344904 -0.033229645 -0.030759508 4281500998
0.022628181 -0.03079867 -0.033117391 4281436738
0.023895483 -0.028368752 -0.035471655 4281436738
0.026414638 -0.030515831 -0.033950552 4281632834
0.030447524 -0.037998725 -0.02791997 4281370694
0.035183534 -0.04776429 -0.019968651 4281500488
0.023235159 -0.042430643 -0.025467411 4281429344
0.023928169 -0.037695553 -0.029760692 4281631048
0.025214551 -0.035257753 -0.032114141 4281763139
0.026907168 -0.034350682 -0.033176631 4281371459
0.031159671 -0.042619269 -0.02652099 4281240133
0.02736385 -0.045245495 -0.026208762 4282479178
0.029085794 -0.04433408 -0.027276035 4281893444
0.033151679 -0.051857535 -0.021286126 4281305669
0.019163085 0.01824091 0.022780648 4282667368
0.014578722 0.018427171 0.020311045 4280048773
0.015468426 0.028969998 0.0088065714 4279056568
0.011188194 0.021517914 0.014579941 4279656584
0.012710385 0.023032103 0.012739955 4278405043
0.013055392 0.028662585 0.0066462234 4278861238
0.0059512481 0.02450248 0.0092796907 4279852423
0.0082105286 0.023264412 0.010282693 4279194269
0.010462519 0.029053617 0.0037819184 4280829838
0.0033831894 0.024895919 0.006410433 4279721608
0.0054451823 0.024343764 0.0067045949 4278866848
0.0071405359 0.025174322 0.0055819228 4278603689
0.00047697872 0.026691824 0.0021316856 4280443259
0.0023420975 0.026829882 0.0017203093 4279062179
0.0045736097 0.025581034 0.0027225837 4278996389
0.0058867186 0.027799604 0.00019145571 4279519904
0.00148331 0.028090008 -0.0022475095 4278533054
0.0037036538 0.02683598 -0.0012461552 4278270913
0.0053778514 0.027669281 -0.0023608115 4278665909
-0.003871724 0.024766875 -0.0007466767 4279065239
-0.0023618452 0.026301196 -0.0025675287 4278735269
0.0030180812 0.027410762 -0.0044980794 4278337978
0.0054261088 0.025454944 -0.0027975477 4278533563
0.0069096908 0.026987754 -0.0046122605 4283185529
-0.0050399192 0.027453359 -0.0061133467 4278867359
-0.0020621978 0.030527653 -0.0097390506 4279192994
0.00013038889 0.029262807 -0.0087383799 4279193249
0.0026988722 0.026598737 -0.0063361963 4279585439
0.0056592673 0.022536624 -0.0025360351 4280043674
-0.0073566511 0.027218528 -0.0082441848 4278802333
-0.0058623143 0.028760228 -0.010054985 4278407848
-0.0083321668 0.021348875 -0.0047533521 4279983749
-0.006985154 0.023601815 -0.0072672134 4279260059
-0.0058255456 0.026558852 -0.010478463 4278866083
-0.0041646473 0.027399404 -0.011583788 4278538918
0.0016974024 0.02639734 -0.011399321 4278272444
0.0053839162 0.01949143 -0.0048242891 4280959889
-0.0061088502 0.017849624 -0.0042001288 4278997664
-0.0051038824 0.021523863 -0.0081076939 4278472619
-0.0039515086 0.024489094 -0.011310568 4278603944
-0.0028203726 0.027452791 -0.014508649 4278801059
-0.0011725724 0.02829475 -0.01560932 4278603178
0.0015618615 0.024896916 -0.012526821 4278798764
0.0048769899 0.019382004 -0.0073609445 4280239003
0.049857229 0.016259037 -0.010626009 4279848343
0.052983418 0.012892757 -0.0076279361 4279259039
-0.0054032989 0.012781288 -0.0018507764 4278867359
-0.004213009 0.015757807 -0.0050553493 4278932383
-0.0030439608 0.018732894 -0.008255206 4278735523
-0.0020726137 0.022415642 -0.012146817 4278407594
-0.00041139126 0.023260735 -0.013248786 4278669989
0.0019717142 0.021270476 -0.011568071 4279127714
0.0047398023 0.017864406 -0.0085013267 4280436373
0.043942593 0.02584694 -0.022276416 4280240533
0.045291115 0.027393339 -0.024043102 4278602923
0.049713857 0.025558885 -0.022808503 4278338743
-0.0050361678 0.009115275 -0.00091087725 4278932894
-0.0038372129 0.012101103 -0.004110707 4278604963
-0.0024859048 0.014373906 -0.0066102585 4278538918
-0.00079801306 0.015223034 -0.0077165109 4278538918
0.00070571527 0.016782943 -0.0095157828 4278604454
0.0025620237 0.016920324 -0.0099252295 4278342568
0.0042341426 0.017768517 -0.011027746 4279717018
0.0066486783 0.015774332 -0.0093588978 4282596478
0.041003093 0.027032653 -0.025723491 4279323808
0.042346664 0.028582929 -0.027485792 4278405809
0.044505004 0.033093166 -0.032361113 4278996899
0.04681471 0.031817868 -0.03140112 4279128734
0.050656606 0.026310135 -0.026376134 4278603434
-0.004838217 0.0061505921 -0.00067565683 4279654033
-0.0034625381 0.008431565 -0.0031756405 4279062944
-0.0017559752 0.0092840791 -0.0042843763 4278539173
0.00012138486 0.0094228126 -0.0046986295 4278604453
0.0018201061 0.010274976 -0.0058055343 4278538918
0.0031507947 0.012553018 -0.0082952874 4278800549
0.0042814836 0.015542906 -0.01147298 4278931618
0.0059510842 0.016393173 -0.012573186 4278800549
0.0078047849 0.016530629 -0.012981851 4279849108
0.0098506026 0.015955888 -0.012700732 4281026954
0.038324066 0.027528768 -0.02848224 4279783064
0.039425276 0.029791839 -0.030919889 4278538154
0.040995881 0.030636709 -0.031996757 4278798254
0.045675159 0.033169433 -0.035219789 4278800293
0.048997857 0.029058971 -0.031557985 4278342058
0.053376719 0.022120882 -0.025200522 4278275759
-0.004808858 0.0038936958 -0.0011401093 4279653524
-0.0030889995 0.0047492869 -0.002250229 4278866084
-0.0015475601 0.0063204095 -0.0040512793 4278931874
0.00033501536 0.0064595044 -0.0044667004 4278801058
0.001860626 0.0080296472 -0.0062641073 4278735523
0.0033756308 0.0095991492 -0.008059144 4278604198
0.0045123249 0.012598131 -0.011231446 4278473384
0.0060008056 0.014165822 -0.013020434 4278801058
0.0074786618 0.015732881 -0.014807037 4279062943
0.0095214993 0.015155699 -0.014526906 4279194269
0.011764228 0.013864771 -0.013560431 4281879163
0.035896953 0.027328134 -0.030555753 4281287308
0.037001383 0.02959786 -0.032989129 4278735013
0.038569495 0.030444633 -0.034063831 4278275758
0.040132187 0.031291097 -0.035137258 4278602923
0.056374729 0.017206736 -0.023368835 4278407083
-0.0044445172 0.00019589439 -0.00022419449 4281617789
-0.00288691 0.0017724186 -0.0020255484 4279325083
-0.0013398863 0.0033482946 -0.0038245302 4279193758
0.00037224218 0.0042056106 -0.0049310904 4278866594
0.0019007847 0.0057802834 -0.0067257946 4278670243
0.0032377392 0.008071769 -0.0092069246 4278473384
0.0045587644 0.01036213 -0.011684421 4278604453
0.0060501732 0.011934403 -0.013470744 4278669988
0.0075309761 0.013505932 -0.015254616 4278670243
0.0091928132 0.014360167 -0.016349658 4278669733
0.011238042 0.013781093 -0.01607166 4278997153
0.012894619 0.014635142 -0.017165387 4279390619
0.014745567 0.014772777 -0.017573144 4280372369
0.016798873 0.0141946 -0.0172967 4281550979
0.033713117 0.026423711 -0.031947255 4279452839
0.034823451 0.028700236 -0.034376912 4279192738
0.036154706 0.03026242 -0.036126539 4278733483
0.037714902 0.031110777 -0.03719781 4278799018
0.039512023 0.031245945 -0.037592519 4278734248
0.04106405 0.032093875 -0.038661849 4278341548
0.04310599 0.031516552 -0.038381655 4278341548
0.044902835 0.031651974 -0.038776092 4278276013
0.052075528 0.02195679 -0.030151339 4278473129
-0.00234529 -0.0026537105 -0.00042816903 4282664308
-0.0011329316 0.00036773086 -0.0036040712 4279783319
0.00040911511 0.0019476451 -0.0053985361 4279128478
0.0017624646 0.004246667 -0.007878297 4279062944
0.0032806732 0.0058250427 -0.0096673332 4278801059
0.0047883056 0.0074026696 -0.011453927 4278800803
0.0062853247 0.0089796223 -0.013238097 4278801058
0.007771723 0.01055593 -0.015019894 4278604453
0.0094389766 0.011412684 -0.01611441 4278735268
0.010906793 0.012987819 -0.017891949 4278932128
0.012363989 0.014562216 -0.019667029 4278735524
0.014010016 0.015417684 -0.02075664 4279324829
0.016054992 0.014836773 -0.020480074 4279651993
0.017900513 0.014974196 -0.020886496 4281027974
0.032651424 0.027807714 -0.035762377 4278995624
0.035072431 0.031655751 -0.039928775 4278272954
0.041418653 0.029200045 -0.03841516 4278537898
0.043465625 0.028620914 -0.038137693 4278473129
0.045517813 0.028042307 -0.037861347 4278800549
0.048586439 0.024607167 -0.03490074 4278604453
0.053469852 0.01617578 -0.027250666 4278473639
-0.00058151037 -0.0040660538 -0.0020153653 4282598774
0.0021579973 0.00054733083 -0.0069722477 4280830859
0.0033232756 0.0035741776 -0.010130782 4279521433
0.0046505518 0.0058779866 -0.012599654 4279260058
0.005961895 0.0081807263 -0.015064926 4278932129
0.0078231096 0.0083187073 -0.015475271 4278866594
0.0091105625 0.01061983 -0.01793508 4278801058
0.010575987 0.012199108 -0.019708734 4278801058
0.012030784 0.013777643 -0.021479934 4278997408
0.013873484 0.01391466 -0.021885883 4278866593
0.015514266 0.014771994 -0.022972587 4278997153
0.017354328 0.014909025 -0.023377791 4279455899
0.018987121 0.015766017 -0.024462616 4279652759
0.020404648 0.017342288 -0.026225211 4279849109
0.022449313 0.016759593 -0.025949948 4280437648
0.028459478 0.027503829 -0.037425451 4281156239
0.029799491 0.029075008 -0.039170448 4279061669
0.032681271 0.031497449 -0.041979413 4278864299
0.034228377 0.03234908 -0.0430445 4278668969
0.041772466 0.026297731 -0.038174763 4279061414
0.044318967 0.02428323 -0.036558382 4278407593
0.046881381 0.022269979 -0.034945376 4278473383
0.050722674 0.016675878 -0.029987292 4278473639
0.056138091 0.0067877285 -0.021023795 4278604709
0.06291765 -0.0066748224 -0.0087339152 4278604964
0.0039067268 -0.00085263327 -0.0085456464 4281027463
0.0050620697 0.002182208 -0.011695209 4280110994
0.006381873 0.0044920333 -0.01415733 4279456408
0.0078741498 0.0060773604 -0.015933678 4278932129
0.0093557946 0.007662043 -0.017707646 4278604964
0.010826826 0.0092460178 -0.019479139 4278669733
0.012287218 0.010829322 -0.02124827 4278866338
0.013936047 0.011689316 -0.022335142 4279062944
0.01557957 0.01254902 -0.023420766 4278931874
0.017013352 0.014130663 -0.025183791 4278997153
0.01843649 0.015711565 -0.026944352 4279194269
0.020058695 0.016569998 -0.028025037 4279521434
0.021887967 0.016706526 -0.028427629 4279521178
0.023717226 0.016843151 -0.028830146 4280569229
0.025546465 0.016979884 -0.029232575 4281878144
0.026527975 0.025903376 -0.038131274 4282334594
0.027196417 0.029641049 -0.041896008 4278734504
0.028523374 0.031215575 -0.04363478 4278406319
0.03161259 0.032922558 -0.045760751 4279191973
0.033385515 0.03305576 -0.04615026 4279194013
0.035636518 0.031749807 -0.045197677 4278931619
0.038623307 0.028286565 -0.042236138 4278800039
0.041636668 0.024825418 -0.039280362 4278472365
0.044676594 0.021366362 -0.03633035 4278538408
0.048492279 0.015752982 -0.031380117 4278669734
0.05310769 0.0079871267 -0.024434967 4278538919
0.058801875 -0.0026478395 -0.014832663 4278604454
0.064575896 -0.013276663 -0.0052477811 4278604454
0.0068007112 0.00079059973 -0.013259313 4279914899
0.0084894411 0.0016553402 -0.014353675 4279325339
0.0097911544 0.0039704628 -0.016806571 4278997153
0.011270445 0.0055593923 -0.018576588 4278800803
0.012346681 0.0085975565 -0.021701654 4279062943
0.014197122 0.0087351538 -0.022109307 4279194014
0.015644502 0.010321978 -0.023872007 4279128478
0.017081242 0.011908118 -0.025632277 4279062943
0.018300423 0.014217783 -0.028066548 4278997409
0.0199227 0.01507837 -0.029145584 4278866849
0.021964055 0.014491126 -0.028872931 4278604963
0.02358098 0.015351523 -0.029950622 4278866849
0.025192555 0.016211621 -0.031027054 4279260569
0.025697721 0.020687371 -0.035469577 4279259294
0.025948001 0.025883766 -0.040577792 4279390364
0.026386434 0.030354736 -0.045005474 4278669479
0.027477471 0.032655589 -0.047410876 4278407083
0.046020865 0.015556395 -0.03343825 4278473129
0.051098477 0.0063219517 -0.025169451 4278538919
0.056497466 -0.0036279671 -0.016249351 4278669988
0.061206378 -0.011410382 -0.0093430579 4278735524
0.065716282 -0.018467981 -0.0031147571 4280308619
0.010606728 -0.0011889562 -0.014558547 4280962439
0.01171292 0.0018599518 -0.017683595 4279980179
0.01279781 0.0049073957 -0.020803861 4279521179
0.014258772 0.0064994581 -0.022566274 4279521434
0.015709076 0.0080908649 -0.024326306 4279259803
0.017352745 0.0089550056 -0.025408525 4279062944
0.018991094 0.0098188408 -0.026489504 4279062943
0.020414753 0.011408575 -0.02824343 4278997918
0.02225177 0.011545699 -0.028647713 4278866848
0.023659427 0.013134412 -0.030397903 4278670498
0.025273738 0.013996869 -0.031473268 4278801568
0.026002655 0.017760478 -0.035234675 4278801058
0.026704878 0.021522198 -0.03899014 4278341803
0.027801206 0.02976471 -0.047153316 4278604454
0.028651321 0.032795981 -0.050220862 4278800039
0.030180072 0.033652652 -0.051276937 4278930853
0.031703427 0.034509018 -0.052331731 4278865574
0.033937383 0.033193223 -0.051382139 4278669224
0.037388612 0.028259514 -0.047099032 4278800293
0.041853067 0.02043451 -0.040157843 4278538919
0.047116071 0.010443944 -0.031231498 4278538919
0.053201593 -0.0017103739 -0.02032526 4278604454
0.05862163 -0.011688892 -0.011433218 4278604454
0.062333547 -0.016602393 -0.0072069811 4279456918
0.065825328 -0.020790491 -0.0036524059 4281291898
0.01215424 -0.0018522255 -0.016800173 4282664054
0.013051979 0.0019338056 -0.020591108 4280307344
0.014518518 0.0035306327 -0.022351449 4279914389
0.015974425 0.0051267259 -0.024109326 4278997664
0.017623488 0.0059934705 -0.025191102 4278866849
0.018854279 0.0083169155 -0.027617818 4278932129
0.020278208 0.0099109858 -0.029368449 4278932638
0.022115095 0.010048095 -0.02977271 4278801568
0.023737496 0.010913234 -0.030848242 4278736033
0.025354542 0.01177806 -0.031922527 4278997918
0.026526608 0.014097691 -0.034335949 4278669988
0.027682655 0.016416185 -0.036745735 4278669988
0.028597519 0.019460756 -0.039820958 4278736289
0.029035388 0.023957692 -0.044228312 4278276523
0.029671701 0.027725585 -0.047960654 4278538409
0.030281303 0.031491559 -0.051687047 4278997409
0.031807404 0.032350298 -0.052740775 4279062944
0.034520451 0.029578086 -0.050462767 4278669734
0.038460419 0.023177925 -0.044861808 4278277034
0.043911073 0.012427099 -0.035281755 4278539174
0.050180994 -0.00049419701 -0.023726124 4278539174
0.055799358 -0.011232156 -0.014182717 4278867358
0.059986793 -0.017613266 -0.0086357715 4280046733
0.062949784 -0.020366017 -0.0064121457 4280767108
0.066448212 -0.024566475 -0.0028690966 4281356924
0.016640916 0.00069200993 -0.022553338 4280700554
0.018097091 0.0022925921 -0.024307879 4279914898
0.01933633 0.0046231858 -0.026731472 4279194524
0.020768533 0.0062221512 -0.028480524 4278997918
0.022190064 0.0078204237 -0.030227147 4278736033
0.023815183 0.0086879842 -0.031301636 4278670498
0.025434967 0.0095551908 -0.032374829 4278604453
0.027049392 0.010422103 -0.033446766 4278801058
0.028658453 0.011288717 -0.034517445 4278538918
0.029812252 0.013613671 -0.036921658 4278801058
0.030722411 0.016666636 -0.039989054 4278669988
0.031380922 0.020446986 -0.043717891 4278408104
0.032245658 0.023496728 -0.046775162 4278407594
0.040253036 0.015890539 -0.040649056 4278473128
0.046696275 0.0021971166 -0.02844495 4278670499
0.052501902 -0.0093054511 -0.018251112 4278670498
0.056899123 -0.016436499 -0.012048592 4278932894
0.060091566 -0.019926924 -0.0091653513 4280571015
0.063310564 -0.023415301 -0.0062878216 4281619319
0.067069896 -0.028355274 -0.0020953212 4281094274
0.018366119 -0.00068797544 -0.024104677 4282536553
0.019405067 0.0023824014 -0.027194362 4280045968
0.02104893 0.0032532811 -0.028271481 4279063964
0.022476058 0.0048563033 -0.030015973 4278736033
0.024106588 0.0057263635 -0.031089939 4278669988
0.025515011 0.0073282495 -0.032830194 4278604454
0.026912762 0.0089293905 -0.034567975 4278538918
0.028743966 0.0090665221 -0.034970641 4278538918
0.030350393 0.0099352039 -0.03603898 4278604453
0.031724025 0.011534929 -0.03777124 4278932128
0.032856889 0.013864957 -0.040165611 4278538918
0.033740953 0.016924806 -0.043220408 4278539174
0.037825614 0.015735231 -0.042687364 4278670244
0.042764645 0.0063778684 -0.034475483 4278539429
0.049233261 -0.0073546059 -0.022308771 4278670499
0.054326676 -0.016700137 -0.014130627 4278473639
0.057499439 -0.020202924 -0.01125151 4281226619
0.06019596 -0.022244681 -0.0096979309 4281684598
0.063416466 -0.025743652 -0.0068291221 4281946738
0.067690372 -0.032156792 -0.0013310891 4282012528
-0.028382886 -0.037899885 0.015736397 4280309893
0.022972506 0.0011490658 -0.029144041 4280505989
0.024183325 0.0034908168 -0.031551063 4279785104
0.025378136 0.0058314763 -0.033954486 4278997663
0.026776148 0.0074369721 -0.035688963 4278867104
0.028163468 0.0090417713 -0.03742101 4278801568
0.029989174 0.0091785938 -0.037822384 4278735778
0.031587616 0.010049012 -0.038887233 4278539173
0.033180691 0.010919079 -0.039950781 4278866848
0.03453584 0.0125219 -0.041675419 4278801313
0.036115456 0.013391219 -0.042735882 4278736033
0.039116912 0.0098642595 -0.039827824 4278932383
0.044309728 -0.00025257096 -0.030980021 4278866849
0.050306655 -0.012560386 -0.020168433 4278866849
0.054673057 -0.019736994 -0.013992728 4279391893
0.057104439 -0.021054734 -0.013099444 4281553784
0.060048752 -0.023834828 -0.010891864 4281815668
0.063521966 -0.028076086 -0.0073734801 4282078063
0.068053111 -0.035239805 -0.0012335833 4282078063
-0.028782461 -0.038024899 0.013157783 4279587733
-0.027075101 -0.036395904 0.011355547 4279063963
-0.025110696 -0.036252577 0.010920653 4279260569
-0.023146126 -0.036109153 0.0104858 4279851914
0.025457634 0.0035985447 -0.034414269 4279784848
0.026858561 0.0052086115 -0.036146082 4279391893
0.028470492 0.0060819425 -0.037212349 4279062943
0.030301392 0.006219171 -0.037614852 4279194013
0.031905245 0.0070921108 -0.038679168 4278866594
0.033733387 0.0072293393 -0.039080903 4278735778
0.034864455 0.0095723532 -0.041464768 4278670498
0.037154503 0.008239124 -0.040544227 4278670498
0.040405802 0.0039675571 -0.036987685 4278932893
0.045611668 -0.0061784834 -0.02816619 4279063964
0.050892059 -0.016318787 -0.019360963 4279194524
0.054772995 -0.022048067 -0.014518877 4279981199
0.057206493 -0.023369912 -0.013629452 4281553784
0.060403515 -0.026892293 -0.010772297 4281750388
0.063627064 -0.030412551 -0.0079208668 4282012273
-0.028668229 -0.041121293 0.013314076 4279456663
-0.026955295 -0.039487559 0.011513893 4278736289
-0.024985705 -0.039343897 0.011077818 4278998174
-0.023152161 -0.038455609 0.0099615604 4278932894
-0.021740433 -0.03533468 0.0068074856 4279392403
0.028555259 0.0038519129 -0.037671417 4280309383
0.030164545 0.0047273152 -0.038735334 4279456663
0.031768464 0.0056024343 -0.039797977 4278998429
0.033367001 0.0064772442 -0.040859364 4278867103
0.034728006 0.0080891922 -0.042578615 4278802079
0.036782708 0.0074888505 -0.042319849 4279063963
0.04026749 0.0024670139 -0.038114507 4279195034
0.045710556 -0.0084461905 -0.028658448 4279064219
0.050747871 -0.017880131 -0.020533364 4279260824
0.054627068 -0.023626763 -0.01570428 4280505734
0.057556272 -0.026425298 -0.01350688 4281554293
0.061008282 -0.030694146 -0.010003956 4282143599
-0.028682757 -0.043478791 0.012783624 4279128988
-0.027097631 -0.041093517 0.010306323 4278866848
-0.024994794 -0.041696783 0.010549517 4278801058
-0.023294572 -0.040059481 0.0087556392 4278866593
-0.021743502 -0.037676398 0.0062861778 4278931873
-0.020208273 -0.03529432 0.0038202684 4279194524
-0.018400792 -0.034405489 0.0027116835 4279653268
-0.016451817 -0.034262795 0.0022805892 4282471273
0.032084916 0.0026331134 -0.039599307 4279326104
0.033688847 0.0035104789 -0.040660203 4279063964
0.035055459 0.0051271506 -0.042377271 4278998174
0.037115157 0.0045250319 -0.042121269 4278998428
0.040603723 -0.00051154941 -0.03792851 4279260568
0.045809045 -0.010717969 -0.029153759 4279326104
0.051088877 -0.020918671 -0.020395271 4279391383
0.054726399 -0.025943737 -0.016234914 4280964734
0.057905264 -0.029489134 -0.013390584 4281619828
-0.028697629 -0.045840327 0.012250129 4279391128
-0.027239893 -0.042699162 0.0090989806 4279194268
-0.025137383 -0.043304626 0.0093405601 4278931873
-0.023301069 -0.042411838 0.0082269423 4278735778
-0.021608416 -0.040770743 0.0064381901 4278801058
-0.020067398 -0.038381789 0.0039760098 4278998174
-0.018398385 -0.036742199 0.002192663 4279063453
-0.016300399 -0.037347395 0.0024356283 4279653269
-0.014495242 -0.036456365 0.001329381 4279851148
0.035150379 0.0028984733 -0.042838119 4280703103
0.036978003 0.0030359179 -0.043239541 4279784338
0.040939175 -0.0034985505 -0.03774878 4279653269
0.046146888 -0.013734955 -0.028997963 4279653268
0.051671501 -0.024706561 -0.019609941 4279587733
0.0550704 -0.029005442 -0.016115645 4282012528
-0.028329801 -0.050460692 0.013744991 4279653013
-0.027121451 -0.045807336 0.0092449505 4279194268
-0.025146935 -0.045663383 0.0088077411 4279259548
-0.023443554 -0.044017259 0.007019829 4278932383
-0.021750648 -0.042371843 0.0052343644 4278669988
-0.020209212 -0.039976437 0.0027770828 4278801058
-0.018252667 -0.039833348 0.0023441948 4278736033
-0.016442288 -0.038939919 0.0012383666 4278801824
-0.014637079 -0.038046759 0.00013376307 4278343079
-0.012837064 -0.037153866 -0.00096959528 4278932894
-0.011196528 -0.035511542 -0.0027429825 4279719314
0.041510697 -0.0072373971 -0.036922343 4281356923
0.046723459 -0.017503601 -0.028196078 4280177294
0.052010722 -0.027764063 -0.019486075 4280111759
0.055413619 -0.032075588 -0.016002638 4281750643
-0.027708519 -0.056605604 0.016578009 4282602088
-0.026483197 -0.051938105 0.012084235 4281029503
-0.024891231 -0.049532924 0.0096205696 4279718294
-0.023450527 -0.046375591 0.0064867083 4279390619
-0.021892842 -0.043972652 0.0040307567 4279063198
-0.020210166 -0.042323593 0.0022509638 4278801058
-0.01825111 -0.042180341 0.0018175021 4278801058
-0.016291913 -0.042036962 0.0013841037 4278736033
-0.01448134 -0.041141223 0.00027993787 4278473383
-0.012827378 -0.039493795 -0.0014931401 4279063454
-0.011183929 -0.037846979 -0.0032638451 4279260059
-0.0090807639 -0.038455743 -0.0030250167 4279915919
-0.007290978 -0.037561063 -0.0041242251 4280506499
-0.024371427 -0.054926258 0.011769183 4280701829
-0.022916783 -0.051759291 0.0086389221 4279980434
-0.021483269 -0.048593763 0.0055134241 4279784083
-0.019930307 -0.046184625 0.0030636024 4279128479
-0.018249895 -0.044531312 0.0012877453 4278866593
-0.016434077 -0.043633219 0.00018402468 4278473383
-0.014772031 -0.041980978 -0.0015876396 4278604708
-0.012969259 -0.0410836 -0.0026882896 4279063198
-0.011171672 -0.040186483 -0.0037876936 4278866593
-0.0093793012 -0.03928959 -0.0048859017 4278866594
-0.007592123 -0.038393017 -0.0059828376 4279063453
-0.0058101639 -0.037496705 -0.0070785237 4279653268
-0.0040334314 -0.036600646 -0.0081729572 4280374154
-0.02079973 -0.054746564 0.0083230138 4282077554
-0.019651536 -0.050058428 0.0038667116 4280832134
-0.018105958 -0.047643248 0.0014236309 4279325338
-0.016430493 -0.045985896 -0.00034772325 4278801313
-0.014617156 -0.045085724 -0.001449137 4278604453
-0.012809012 -0.044185776 -0.0025493605 4278539429
-0.011159759 -0.042529989 -0.0043146377 4278735778
-0.0092082955 -0.042386752 -0.004745991 4279062943
-0.0077338181 -0.039976086 -0.0071728108 4278866593
-0.0059518069 -0.039077636 -0.0082668504 4279128988
-0.0041750297 -0.038179431 -0.0093596233 4279194524
-0.0022364557 -0.038036648 -0.0097877551 4279719314
-0.00080683827 -0.035628814 -0.012204295 4280048008
-0.017819885 -0.051522683 0.002220327 4280635529
-0.016281728 -0.049101491 -0.00021601841 4279980945
-0.014611188 -0.0474401 -0.001982864 4278931874
-0.012951192 -0.045779306 -0.0037473207 4278604453
-0.011148185 -0.044877518 -0.004844605 4278605219
-0.0095065571 -0.043217886 -0.0066047711 4278801313
-0.0080342963 -0.040800925 -0.0090260869 4278670243
-0.0060934126 -0.040658247 -0.0094549349 4278735778
-0.0041524321 -0.040515419 -0.0098837009 4278998173
-0.002378162 -0.039615143 -0.010974172 4278604453
-0.00077862665 -0.037957963 -0.012724618 4278735779
0.00046606734 -0.034787584 -0.015793772 4279325594
0.0022139437 -0.03388885 -0.016878178 4280046734
0.0037791096 -0.032233868 -0.018620702 4280834684
-0.014457587 -0.050559375 -0.0018553585 4282598009
-0.012942661 -0.04813325 -0.0042813458 4280765323
-0.011443589 -0.045708131 -0.0067037782 4279391639
-0.0096484013 -0.044804651 -0.0077975723 4278997409
-0.0081757084 -0.042381223 -0.010213985 4278997408
-0.0062349737 -0.04223856 -0.010642803 4278932128
-0.0044580996 -0.041336063 -0.011732272 4278997918
-0.0025198348 -0.041193355 -0.012160371 4278473384
-0.00092006102 -0.039531846 -0.013907525 4278473638
0.00084111467 -0.038630132 -0.014993242 4278866848
0.0022478066 -0.036210898 -0.017394474 4279128733
0.003815867 -0.034551356 -0.019134341 4279260314
0.0053733476 -0.032892536 -0.020871744 4279326868
-0.011126067 -0.04958472 -0.0059136115 4280372623
-0.0094786361 -0.047916021 -0.0076684277 4280177040
-0.0080001913 -0.045485709 -0.010081094 4279390619
-0.00637649 -0.043818552 -0.011830433 4278866593
-0.0047633462 -0.042152066 -0.013577367 4278670243
-0.0028278865 -0.042009566 -0.014004837 4278604708
-0.0010614507 -0.041105401 -0.0150902 4278997918
0.00069976971 -0.040201548 -0.016174259 4279063198
0.00245573 -0.039297979 -0.017257085 4278866338
0.0038522743 -0.036872845 -0.019650994 4279062944
0.0055923946 -0.035970192 -0.020730121 4279063199
