# .PCD v0.7 - Point Cloud Data file format
VERSION 0.7
FIELDS x y z rgba
SIZE 4 4 4 4
TYPE F F F U
COUNT 1 1 1 1
WIDTH 965
HEIGHT 1
VIEWPOINT 0 0 0 1 0 0 0
POINTS 965
DATA ascii
-0.0082046017 0.012186833 0.0015454944 4288753709
-0.0065724514 0.013755411 -0.0002223514 4288622638
-0.004367128 0.012437005 0.00079012197 4288819244
-0.0024482347 0.012562249 0.00041251909 4288622639
-0.00068053976 0.01340887 -0.00065849628 4288622384
0.00092788786 0.014976315 -0.0024213558 4288491313
0.0026823282 0.015822314 -0.0034896517 4288556848
0.0042721555 0.017388761 -0.00524869 4288556849
0.0061753765 0.017513499 -0.0056228079 4288556849
0.0079139508 0.01835873 -0.0066877007 4288884013
0.0098146163 0.018483512 -0.0070611574 4289145644
0.01188539 0.017888382 -0.0067447443 4289080108
0.014134321 0.016573869 -0.0057400428 4289341994
0.016218584 0.015979782 -0.0054260846 4289669159
0.018308226 0.015386209 -0.0051131397 4289603623
0.020403249 0.014793091 -0.00480117 4289145643
0.022870608 0.012762114 -0.0031158039 4289145899
0.02442326 0.014327206 -0.0048667798 4289865253
0.026154032 0.015172862 -0.0059294179 4289930788
0.028070951 0.015299655 -0.0063053411 4289080874
0.030764664 0.012552798 -0.0039409036 4289015338
0.033676676 0.0090892166 -0.00089604501 4288950314
0.037214156 0.0034732223 0.0041956892 4289342759
0.041198976 -0.0035755932 0.010646095 4289212199
0.045647211 -0.012056194 0.018451981 4288754218
-0.024543028 0.0029755905 0.010067704 4287905069
-0.02295861 0.0052777305 0.007590252 4287837238
-0.021146748 0.0061282814 0.0065112794 4288164914
-0.019464415 0.0077037364 0.004736322 4288099889
-0.017538618 0.0078285858 0.0043567149 4288099633
-0.015353274 0.0065039173 0.0053693103 4288230703
-0.013289448 0.0059046522 0.0056843339 4288099633
-0.011220131 0.0053058863 0.0059983162 4288295984
-0.0095585249 0.0068805516 0.0042277938 4288361263
-0.0080479234 0.0091787055 0.0017655091 4288492333
-0.0061240122 0.0093040615 0.0013867533 4288557869
-0.0043457635 0.010153361 0.00031511486 4288623148
-0.0022758543 0.0095551088 0.00062941667 4288557358
-0.00065390766 0.011127699 -0.0011329064 4288426289
0.0011112355 0.011976391 -0.0022016959 4288556848
0.0027146041 0.013547949 -0.0039601466 4288556594
0.004466489 0.014396034 -0.0050262073 4288556594
0.0062130876 0.015243843 -0.0060911016 4288426033
0.0079543963 0.016091406 -0.0071548787 4288556848
0.0096903928 0.016938724 -0.0082175322 4288360753
0.011590969 0.017063603 -0.008590892 4288360754
0.013491582 0.017188601 -0.0089641698 4288622384
0.015392233 0.017313689 -0.0093373917 4288753198
0.017470848 0.01671721 -0.0090239476 4288818733
0.01955484 0.016121201 -0.0087114759 4289341993
0.021644209 0.015525647 -0.0083999857 4289341993
0.02336699 0.016372837 -0.0094594732 4289603623
0.025084406 0.017219789 -0.010517815 4289603879
0.027179128 0.016624905 -0.010207126 4289931043
0.030055296 0.013148002 -0.0071636573 4289604134
0.033154964 0.0089525059 -0.0034424113 4290062113
0.036486138 0.0040390417 0.00095495768 4289539364
0.040056884 -0.0015919432 0.00602696 4289146664
0.042851485 -0.0043403506 0.0083652986 4288558124
-0.024667535 0.0013967827 0.0088852542 4288232233
-0.022963922 0.0029777065 0.0071092481 4287968053
-0.021270815 0.0045581087 0.0053353598 4288164914
-0.019339938 0.0046831742 0.0049546557 4288164914
-0.017662596 0.0062626898 0.0031840606 4288099889
-0.015477721 0.0049336329 0.0041933944 4287903539
-0.013414193 0.004332155 0.0045067957 4288165168
-0.011075418 0.002277866 0.0062059229 4288230194
-0.0094082318 0.0038571507 0.0044376543 4288164914
-0.0077516623 0.0054359064 0.0026715128 4288099633
-0.0058198385 0.0055617616 0.0022911849 4288426799
-0.0038878955 0.0056877211 0.0019109184 4288361519
-0.0018075779 0.0050879642 0.0022214903 4288296239
-0.00017469004 0.0066655949 0.00046033692 4288361009
0.001601208 0.007517159 -0.00060890336 4288229938
0.0032155029 0.0090937689 -0.0023662439 4288295474
0.004978165 0.0099446848 -0.0034327218 4288164404
0.0067355298 0.010795355 -0.0044980766 4288164403
0.0084876046 0.011645794 -0.0055622971 4288491569
0.010067314 0.013220578 -0.0073125013 4288556848
0.011636365 0.014794722 -0.0090604853 4288556848
0.013539527 0.014919877 -0.0094342809 4288753198
0.015267644 0.015769154 -0.010493482 4288622384
0.01716819 0.015894346 -0.010866594 4288557104
0.01888831 0.016743362 -0.011924097 4288360754
0.020969337 0.016145051 -0.011612587 4288033844
0.022498304 0.01771725 -0.013352251 4288229938
0.024393527 0.017842509 -0.013723994 4288556848
0.026479902 0.01724492 -0.013413321 4288687919
0.029347023 0.013756543 -0.010376355 4288687663
0.032437444 0.0095474944 -0.0066633178 4289341993
0.035759203 0.0046182275 -0.0022757621 4289341738
0.038714685 0.0011360794 0.00074409693 4288427054
-0.024791997 -0.00018176436 0.0077029997 4287775528
-0.023088146 0.0014034733 0.0059302514 4287904049
-0.021152195 0.0015287474 0.0055484576 4288034863
-0.019340079 0.0023836493 0.0044728359 4287706933
-0.017406497 0.0025089756 0.0040916624 4287903284
-0.015343424 0.0019052178 0.0044033518 4288230193
-0.013274845 0.0013019368 0.0047140373 4288034099
-0.011200767 0.00069909543 0.0050237151 4288033843
-0.0093959793 0.0015540347 0.0039499355 4287837749
-0.0077365078 0.0031372532 0.0021865824 4287968563
-0.0058021359 0.00326325 0.001805733 4288164914
-0.004158508 0.0048456788 4.5622699e-05 4288230448
-0.0020811893 0.0042435899 0.00035506953 4288034354
-0.0001491867 0.0043697581 -2.5060959e-05 4288034099
0.0019363649 0.0037683696 0.00028296746 4288034099
0.0035589226 0.005349867 -0.0014726566 4287903029
0.0054884851 0.0054761916 -0.0018520663 4288033844
0.0074181184 0.0056026429 -0.0022313939 4287968308
0.0091836192 0.0064560995 -0.0032966146 4288099123
0.010776956 0.0080361143 -0.0050461618 4288034099
0.012190081 0.010342054 -0.0074783945 4288229938
0.013931606 0.011194259 -0.0085386569 4288687663
0.0156678 0.012046285 -0.0095978165 4288426288
0.017576251 0.012171999 -0.0099724773 4288491824
0.019124195 0.013749525 -0.011712661 4288426289
0.020844379 0.014600784 -0.01276838 4288229939
0.022744829 0.014726274 -0.013141235 4288295218
0.024456959 0.015577249 -0.014195265 4288099124
0.026545718 0.014977619 -0.013886673 4288033588
0.029027149 0.012928545 -0.012218763 4288426289
0.032113701 0.0087061822 -0.0085149268 4288164148
0.035033353 0.0052107349 -0.0054964432 4288164403
0.037778061 0.0024415925 -0.0031617228 4287512114
-0.021518793 0.001418598 0.0029841224 4287381554
-0.019588176 0.0015435889 0.0026034256 4287315509
-0.017657395 0.0016686991 0.0022227904 4287446068
-0.015468109 0.00033115596 0.0032245954 4287837239
-0.013399836 -0.00027435273 0.003533653 4287706424
-0.011326063 -0.00087938458 0.0038417121 4287968563
-0.009658467 0.00070855021 0.0020799888 4287903284
-0.0078615583 0.0015652478 0.0010094941 4288361263
-0.0059273131 0.0016912222 0.0006286595 4288295728
-0.004138235 0.002547659 -0.00044015981 4288034354
-0.0022064634 0.002673693 -0.00082034431 4287968818
-0.00012398139 0.0020698234 -0.00051346049 4288099633
0.0019639395 0.0014664605 -0.00020760484 4288033843
0.0040572919 0.00086357445 9.7265467e-05 4287837749
0.0058387928 0.0017200261 -0.0009696018 4288099379
0.0077763312 0.0018469766 -0.0013504941 4288033843
0.009385895 0.0034322515 -0.0031000115 4288034099
0.011151504 0.0042880028 -0.0041635009 4288230194
0.012573045 0.0066010281 -0.006592439 4287772469
0.014494706 0.0067273751 -0.0069698724 4287903284
0.016241666 0.0075822249 -0.0080294507 4288230193
0.017983299 0.0084368363 -0.0090878876 4288426288
0.019359399 0.010747306 -0.011507566 4288164659
0.021084981 0.011601076 -0.012562691 4288099123
0.02280521 0.012454621 -0.013616667 4288229938
0.024896333 0.011852898 -0.01331035 4287837238
0.026802003 0.011978962 -0.013684052 4287902774
0.029094646 0.010650814 -0.012700549 4288556848
0.031986505 0.0071425736 -0.0096850293 4288622383
0.03470628 0.0043630227 -0.0073521524 4288165424
-0.010057587 0.00060076267 -0.00047449954 4287840554
-0.0081262924 0.00072641671 -0.0008548554 4287904048
-0.0063372664 0.0015848503 -0.0019220617 4288231214
-0.0045534857 0.0024430603 -0.0029881392 4288034864
-0.0026272126 0.0025687069 -0.0033672601 4287772724
-0.00039997324 0.0012301877 -0.0023756456 4287772469
0.0018380769 -0.00010755658 -0.0013860371 4287903029
0.0039311312 -0.00071264058 -0.0010827761 4287837749
0.0057126619 0.00014596432 -0.0021480005 4287837748
0.0074889027 0.0010043532 -0.0032120887 4287838003
0.0092598386 0.0018625185 -0.004275104 4287838003
0.011025477 0.002720423 -0.0053369459 4287641909
0.012785811 0.0035780966 -0.0063976492 4287314743
0.014540818 0.0044355243 -0.0074572279 4287641909
0.016465049 0.004562147 -0.0078350864 4287706933
0.018389314 0.0046888962 -0.0082128625 4287903284
0.019953754 0.0062762126 -0.0099496637 4287706934
0.021324912 0.008592926 -0.012363252 4287641144
0.023050532 0.00944902 -0.013416675 4287510329
0.024958752 0.0095751509 -0.013790959 4287575864
0.026866963 0.0097013861 -0.014165164 4287837493
0.029161798 0.0083690584 -0.013185409 4288099123
0.031859316 0.005579263 -0.010854908 4288099124
0.034578253 0.0027909875 -0.0085285213 4287904049
-0.0027520545 0.0010037497 -0.0045389812 4288167464
-0.00052530691 -0.00033914298 -0.0035506114 4287970349
0.0015593208 -0.00094711781 -0.0032474119 4287642163
0.0036493801 -0.0015545785 -0.0029452331 4287380533
0.0086428374 0.0024934113 -0.0074931695 4287707444
0.010899492 0.0011531562 -0.006510159 4287576884
0.012997892 0.00054680556 -0.0062091853 4287511093
0.014929991 0.00067383051 -0.0065886807 4287445558
0.016687751 0.0015337244 -0.0076470445 4287576118
0.018440168 0.0023933575 -0.0087042898 4287706678
0.020187255 0.0032527745 -0.0097603891 4287837493
0.021746568 0.0048441812 -0.011492783 4287510583
0.023480276 0.0057029501 -0.012546065 4287510583
0.025396397 0.0058296099 -0.0129219 4287837749
0.027312512 0.0059563667 -0.013297652 4287968564
0.029808033 0.0038887113 -0.011647431 4288230193
0.032123782 0.0025535971 -0.010675063 4288229683
0.034648735 0.00048810989 -0.009030439 4287968564
0.010441206 0.0010570586 -0.0090409722 4286857783
0.012533929 0.00044816732 -0.0087405611 4287445814
0.01446053 0.00057482719 -0.0091189779 4287641653
0.016387161 0.00070160627 -0.0094973128 4287641398
0.018313829 0.00082851201 -0.0098755565 4287641143
0.020060949 0.0016900748 -0.010930007 4287575864
0.021620475 0.0032858476 -0.012659108 4287445559
0.023724055 0.0026783422 -0.012360297 4287706934
0.025645396 0.0028053597 -0.012737151 4287903284
0.027566731 0.0029324666 -0.013113918 4287968563
0.029681021 0.0023259819 -0.012816902 4288230704
0.031800639 0.0017200038 -0.012520889 4288164658
0.033727273 0.0018478185 -0.012898428 4287382319
0.013991792 0.00048487633 -0.011642573 4287054644
0.016086966 -0.00012584776 -0.011344086 4287642418
0.018010803 8.5681677e-07 -0.011721788 4287053624
0.019934665 0.00012768805 -0.012099396 4287380023
0.021676464 0.00099123269 -0.013151091 4287707189
0.023597663 0.0011181086 -0.013528012 4288100144
0.025706299 0.0005088672 -0.013231719 4287772723
0.027630169 0.00063616037 -0.013608972 4287838259
0.029554026 0.0007635504 -0.013986154 4288033843
0.031477869 0.00089107454 -0.014363227 4288099379
0.025017852 0.0011619329 -0.016415173 4286923063
0.027123474 0.00055048615 -0.016119905 4287249718
0.028849227 0.0014155582 -0.017166382 4287380788
0.030569602 0.0022803843 -0.01821173 4287577648
-0.011606727 -0.038419522 -0.0069444566 4287052604
-0.0098982267 -0.036755674 -0.0086579416 4287249209
-0.0083373003 -0.034324706 -0.011030679 4287577139
-0.0065130331 -0.033429608 -0.012078409 4287445813
-0.0046940148 -0.032534696 -0.013124996 4286987324
-0.011602227 -0.040793128 -0.0074844263 4287445049
-0.0098908767 -0.039124794 -0.0091951769 4287838004
-0.0080533214 -0.038226791 -0.010243962 4287773489
-0.0060815401 -0.038098611 -0.010632375 4288100654
-0.0042518117 -0.037200876 -0.011679428 4287511094
-0.0021377169 -0.037841879 -0.01140896 4286987324
-0.00016565993 -0.037713297 -0.011797128 4286725438
0.0013559759 -0.035277821 -0.014156681 4286529089
-0.011729296 -0.04239849 -0.0086866412 4287444538
-0.0098838098 -0.041497953 -0.0097354371 4287771959
-0.00804355 -0.04059761 -0.010783093 4287772468
-0.0059299804 -0.041241072 -0.010514388 4287706933
-0.0040948763 -0.040340833 -0.011560844 4287314489
-0.002120398 -0.040212221 -0.011949597 4287249209
-0.00014583021 -0.04008349 -0.012338264 4287052603
0.0016788282 -0.03918355 -0.013382377 4286856253
0.0033455379 -0.037512876 -0.015080382 4287379514
0.0051569566 -0.036613531 -0.01612168 4287576120
0.0069630928 -0.03571441 -0.017161841 4287445303
0.0087639391 -0.034815505 -0.018200874 4287248698
0.010886211 -0.035457261 -0.017932996 4287248955
0.012847837 -0.03532847 -0.018318426 4286790463
-0.011987414 -0.043229066 -0.010546209 4287575098
-0.010144591 -0.042326532 -0.011592822 4287575608
-0.0081705526 -0.042198367 -0.011981787 4287576118
-0.0061964244 -0.042070068 -0.012370681 4287771958
-0.0042221993 -0.04194162 -0.012759494 4287314488
-0.00224787 -0.041813023 -0.013148209 4287314488
-0.00027345493 -0.041684307 -0.013536857 4287118139
0.0015512146 -0.040782221 -0.014579317 4287118139
0.0036755949 -0.041426502 -0.014313905 4287576118
0.0054950677 -0.040524475 -0.015355134 4287314233
0.0074670874 -0.040395401 -0.015742922 4287511094
0.0092786402 -0.039493658 -0.016782401 4287183419
0.011248093 -0.039364479 -0.017169474 4287379514
0.013051707 -0.038462944 -0.018207235 4287313978
0.015692767 -0.041421823 -0.015992718 4287183419
0.018526491 -0.045151025 -0.013132626 4286724673
-0.012245174 -0.044055022 -0.012402317 4287248954
-0.010404993 -0.043150507 -0.013446743 4287313723
-0.0085700639 -0.04224623 -0.014490062 4287248699
-0.0064624883 -0.042894401 -0.014223492 4287575353
-0.0044910945 -0.042766146 -0.014611749 4287248698
-0.0023753047 -0.043413527 -0.014346609 4287117883
-0.00054802373 -0.04250925 -0.015388025 4286987069
0.0017229207 -0.043931432 -0.014471499 4286921789
0.003852319 -0.044577532 -0.014208725 4287771959
0.0056771524 -0.043673016 -0.015249366 4287510328
0.0074966885 -0.042768694 -0.016288852 4287117883
0.0091505907 -0.041089885 -0.01797737 4287248698
0.01111988 -0.040960737 -0.018364409 4287117883
0.013089217 -0.040831454 -0.01875137 4287771959
0.015563708 -0.043024607 -0.017192466 4287641144
0.018567462 -0.047538735 -0.013692366 4286986813
-0.0089688562 -0.042285085 -0.016991658 4286789188
-0.0046181642 -0.044364162 -0.01580832 4286462788
-0.0025027171 -0.045013733 -0.015544774 4286528323
-0.00082221255 -0.043329529 -0.017235709 4286528579
0.0012960769 -0.043978654 -0.016972525 4286855999
0.0035719387 -0.045404695 -0.016060179 4286855999
0.0053941086 -0.044498213 -0.017098645 4286856253
0.0072109886 -0.043591909 -0.018135944 4286660159
0.0090225749 -0.042685844 -0.019172115 4286987068
0.010828841 -0.04177995 -0.020207191 4287445049
0.012629811 -0.04087434 -0.021241089 4287379514
0.015098285 -0.043074392 -0.01968593 4286921534
0.017924577 -0.046825662 -0.016840966 4287313979
0.020951211 -0.051351033 -0.013355243 4287902518
0.00086994842 -0.044016868 -0.019466883 4286658884
0.0051114447 -0.04531876 -0.018944444 4286267203
0.0069256574 -0.044410489 -0.019979576 4286594369
0.0087345652 -0.043502413 -0.021013616 4287117629
0.010375511 -0.041815698 -0.022692857 4286921534
0.01266719 -0.043244377 -0.021786442 4286725184
0.014801599 -0.043893747 -0.021527344 4286071108
0.044837777 -0.0042082965 0.0079762852 4284182325
0.046403784 -0.0026370063 0.006226779 4282221629
0.047533434 0.00037240237 0.0031199651 4281503294
0.048857048 0.0026612505 0.00069670379 4280523839
0.051473372 0.00063508004 0.0023489026 4280392514
0.055209845 -0.004984118 0.007389036 4279805248
0.042218938 0.0028403252 -0.001381794 4282221628
0.043543078 0.0051355585 -0.003800354 4281178423
0.044638477 0.0081513077 -0.0068937587 4280851514
0.046142928 0.0097230747 -0.0086277062 4281893188
0.048508473 0.0084093735 -0.0076510953 4281370438
0.052208528 0.002770476 -0.0026171803 4279871548
0.057068028 -0.0064696893 0.0057886401 4280653378
-0.040503535 0.00028111041 0.0093682809 4282286143
-0.038666498 0.0011366382 0.0082869874 4282679354
-0.036534917 -0.00020132959 0.0093026394 4283070778
-0.034700144 0.00065423548 0.0082219383 4283658298
-0.032975804 0.0022403598 0.0064447271 4284574768
0.040846817 0.0055969656 -0.0066352054 4282026044
0.041945525 0.008621566 -0.0097227069 4280266288
0.045153987 0.01104904 -0.012504955 4281176638
0.04772611 0.00900691 -0.010854033 4281111614
0.051196098 0.0040732399 -0.0065064668 4280981053
0.05581928 -0.0044729486 0.00120591 4280459323
0.071199469 -0.040341124 0.034100473 4280589628
-0.040626604 -0.0012924597 0.008189504 4281762628
-0.038692456 -0.0011682287 0.0078073563 4281763649
-0.036758121 -0.0010439008 0.0074252384 4281698368
-0.034721177 -0.0016525462 0.0077396138 4281894718
-0.032993909 -6.1966479e-05 0.0059651816 4282418234
-0.031061653 6.2517822e-05 0.005583697 4282940474
-0.029129203 0.00018712133 0.0052022571 4283397434
-0.026970338 -0.001152955 0.0062095514 4283462203
0.038167909 0.0060729608 -0.0094632134 4281829183
0.039683726 0.0076537803 -0.011192924 4281111104
0.041398324 0.0085079893 -0.012245082 4281176893
0.042895269 0.010087773 -0.013970925 4280265269
0.044381417 0.011666954 -0.015694575 4280200499
0.046944827 0.0096178278 -0.014046957 4280721974
0.050405405 0.0046683252 -0.0097091477 4280852279
0.055687174 -0.0060800686 3.5781413e-06 4281113398
0.071514778 -0.043506742 0.034160219 4281439034
-0.040466968 -0.0050730929 0.0091001661 4281435208
-0.038718697 -0.0034771785 0.0073246537 4281370948
-0.036781799 -0.0033527091 0.0069420105 4281371714
-0.034946945 -0.0024928749 0.0058645708 4281436738
-0.033012312 -0.0023683384 0.0054825312 4281698114
-0.0310775 -0.00224372 0.0051005157 4282220609
-0.029252764 -0.0013842285 0.0040253 4282286144
-0.027433205 -0.00052493066 0.0029511536 4281567554
-0.025503207 -0.00040031224 0.0025703227 4281632324
-0.023573037 -0.00027558953 0.0021895384 4281763139
-0.021642696 -0.00015072525 0.0018088119 4281959233
-0.019712206 -2.5771558e-05 0.0014281236 4282416704
-0.017655227 -0.00063445419 0.0017376048 4282874428
-0.01559275 -0.0012426302 0.0020460421 4283787328
0.037631892 0.0059624985 -0.011985875 4281698623
0.039349273 0.0068189427 -0.013036991 4280980034
0.041061249 0.0076750889 -0.014086929 4281306944
0.042767808 0.0085309818 -0.015135727 4281241918
0.044683687 0.0086587369 -0.015510655 4281503294
0.047034353 0.0073311552 -0.014541124 4281437759
0.050716341 0.0016390607 -0.0095435437 4281569594
0.056446236 -0.010596387 0.0014860602 4281374008
0.071829386 -0.046680838 0.034213707 4281504569
-0.040402327 -0.0081285834 0.0093065193 4281304394
-0.03864849 -0.0065279528 0.0075331749 4281239624
-0.036905136 -0.0049279556 0.0057620117 4281370948
-0.034968164 -0.004803434 0.0053793909 4281370948
-0.033135738 -0.0039415061 0.0043041548 4281502019
-0.031201053 -0.003816925 0.0039221393 4281371458
-0.029486377 -0.0022183284 0.002156903 4281371458
-0.027556669 -0.0020938516 0.0017760424 4281371204
-0.025742251 -0.0012326911 0.00070465729 4281240389
-0.023814883 -0.0011081696 0.00032440759 4281370948
-0.022008155 -0.00024729222 -0.00074529275 4281566533
-0.020083141 -0.00012271106 -0.001124911 4281697603
-0.018284153 0.00073786825 -0.0021929312 4281958725
-0.015975017 -0.0013446286 -0.0005081594 4282088264
-0.014175739 -0.00048381835 -0.0015760753 4282546244
0.037096594 0.0058610886 -0.014501835 4281503038
0.038189054 0.0089111924 -0.017568193 4280980288
0.040096886 0.0090381876 -0.017941725 4280981053
0.042216569 0.0084350035 -0.017643496 4280720699
0.044556096 0.0071022585 -0.016675185 4280916538
0.047340795 0.0043104887 -0.014367724 4281438269
0.051686369 -0.0035877898 -0.0073740799 4281438779
0.065961078 -0.036877066 0.022634793 4281438778
0.071915291 -0.049134061 0.033592444 4281373243
-0.040526044 -0.009712182 0.0081201987 4281369674
-0.038675431 -0.0088472515 0.0070427777 4281435719
-0.036829989 -0.0079825148 0.0059663998 4281436229
-0.03488778 -0.0078576729 0.0055827359 4281370948
-0.033049952 -0.0069932863 0.0045080585 4281306179
-0.031324547 -0.0053898394 0.0027439771 4281240898
-0.029609654 -0.003786929 0.00098199584 4281176128
-0.027905282 -0.0021846443 -0.00077778287 4281111104
-0.025865603 -0.0027991906 -0.00046860985 4281305923
-0.023938376 -0.0026747063 -0.00084885582 4281240898
-0.022131596 -0.0018116832 -0.0019169208 4281305668
-0.020330038 -0.00094889849 -0.0029838812 4281436229
-0.018281702 -0.0015624613 -0.0026760902 4281501254
-0.016099218 -0.0029134676 -0.0016830247 4281697094
-0.014299896 -0.0020505115 -0.002749294 4282220354
-0.012371782 -0.0019253045 -0.0031292066 4284706349
0.035452873 0.0027088821 -0.013947949 4283853628
0.036765706 0.0050356686 -0.016339472 4281503294
0.037856057 0.0080942884 -0.019398764 4281176894
0.039343007 0.0096863359 -0.021112725 4280004403
0.041242607 0.0098129213 -0.021484535 4279874354
0.04442852 0.0055460557 -0.017839501 4279159334
0.047863595 0.00054932386 -0.013531698 4279093033
0.052434862 -0.0081042573 -0.0058890982 4281111868
0.066497371 -0.040760644 0.023373418 4281568828
0.072000846 -0.051591352 0.032968163 4281437758
-0.040181179 -0.015007071 0.010391762 4282088008
-0.038606297 -0.011912711 0.0072402796 4281501764
-0.036656398 -0.011787497 0.0068549933 4281631558
-0.034909751 -0.010178603 0.0050898539 4281435718
-0.033069212 -0.0093118399 0.0040162476 4281435973
-0.031340893 -0.0077039227 0.0022548893 4281240644
-0.029623102 -0.0060965642 0.00049569085 4281241409
-0.027690988 -0.0059719905 0.00011430308 4281110848
-0.025873821 -0.0051063374 -0.00095437467 4281306179
-0.02406181 -0.004240945 -0.0020219106 4281175874
-0.022255 -0.0033757761 -0.0030883346 4281306179
-0.020330261 -0.0032512695 -0.0034679491 4281435973
-0.018153746 -0.0046071038 -0.0024771113 4281436228
-0.016094875 -0.0052221194 -0.0021729711 4281631304
-0.014424015 -0.0036168918 -0.0039222967 4282088773
-0.012496021 -0.0034917295 -0.0043022018 4284640559
0.034522161 0.0040877536 -0.017798927 4283657788
0.035824671 0.0064203665 -0.020183425 4281372988
0.036904883 0.0094869807 -0.023234069 4281046588
0.038172472 0.011817444 -0.025611516 4281698114
0.040270083 0.011208519 -0.025312334 4281437758
0.043658286 0.0061934665 -0.021007108 4280005169
0.047517732 -0.00028752536 -0.015374487 4280981818
0.052742779 -0.011169665 -0.005750454 4281437758
0.067257531 -0.045390673 0.024768256 4281634874
0.071858428 -0.053319119 0.03167567 4281699644
-0.037768107 -0.020941116 0.012946527 4282089029
-0.036088232 -0.01858183 0.010489429 4281827143
-0.034424212 -0.016223401 0.0080354987 4281500743
-0.032776039 -0.013865881 0.0055847904 4281500999
-0.031036813 -0.012252949 0.0038245814 4281240644
-0.029417697 -0.0098970979 0.0013797628 4281240644
-0.027589943 -0.0090287775 0.00031059142 4281371203
-0.0258823 -0.0074175671 -0.0014431393 4281240899
-0.023949977 -0.0072927922 -0.0018244227 4281240899
-0.02213778 -0.0064250901 -0.0028903 4281436229
-0.020207819 -0.0063002631 -0.0032709558 4281370949
-0.018277708 -0.0061753169 -0.0036515556 4281632069
-0.016219135 -0.0067925304 -0.0033490239 4281827908
-0.014417071 -0.0059250519 -0.0044125728 4282154564
-0.012486551 -0.0057997555 -0.0047930125 4284574259
0.019449972 4.3459237e-05 -0.014614655 4283591488
0.033592895 0.00548435 -0.021636646 4281633088
0.034885075 0.0078227669 -0.024014127 4281046078
0.036161151 0.010160193 -0.026388321 4279351603
0.037003733 0.013970617 -0.0300938 4281111104
0.039087631 0.013358634 -0.029793579 4281176639
0.042461056 0.0083274543 -0.025497094 4280785978
0.047172241 -0.0011197403 -0.017213741 4280722738
0.053049974 -0.014243446 -0.0056181243 4280788019
0.067566738 -0.048565976 0.024822067 4281309238
0.071261153 -0.053575151 0.02905627 4281829949
0.074072488 -0.055639498 0.030630976 4281762374
-0.030200358 -0.020548142 0.0088096103 4282347343
-0.028994437 -0.01520171 0.0036245016 4281826889
-0.027489524 -0.012093969 0.00050057936 4281435719
-0.025891069 -0.0097328201 -0.0019349931 4281304394
-0.023721326 -0.011098124 -0.00094976556 4281369929
-0.021901067 -0.010227807 -0.0020155525 4281435208
-0.020086002 -0.0093577206 -0.003080233 4281435464
-0.018401626 -0.0077432171 -0.0048257699 4281631815
-0.016215209 -0.0091070682 -0.003843463 4281501763
-0.014410425 -0.0082373247 -0.0049058748 4282090304
0.017405875 -0.0016404316 -0.015403828 4284444463
0.01932409 -0.0015139654 -0.01578033 4282153288
0.021060603 -0.00064649433 -0.016827621 4282153288
0.022607381 0.00096149743 -0.018544108 4283134018
0.024517575 0.001087755 -0.018918779 4283657788
0.032865517 0.0061589628 -0.024793938 4281371714
0.033946913 0.0092428774 -0.02783158 4281046078
0.035212666 0.0115861 -0.030198768 4280394044
0.036253788 0.014667533 -0.033228375 4280133689
0.038751706 0.0125749 -0.031597938 4280460089
0.042121068 0.0075283125 -0.02731229 4280590648
0.047476742 -0.0041631758 -0.017057354 4280786998
0.062439084 -0.04081703 0.015336583 4280786998
0.068099819 -0.052487753 0.025532141 4281503804
0.070664585 -0.053822123 0.026443589 4281829183
0.073010027 -0.05441796 0.026691638 4282281298
-0.027501639 -0.014419965 1.3662502e-06 4281102433
-0.025900152 -0.012052111 -0.0024298737 4280711008
-0.023728203 -0.013421617 -0.0014484255 4280909654
-0.021905232 -0.012548983 -0.0025131023 4280910673
-0.020087462 -0.011676595 -0.0035766838 4281172814
-0.018274892 -0.010804422 -0.0046391422 4281499468
-0.01621158 -0.011425644 -0.0043409383 4281566023
-0.014273446 -0.01129999 -0.004722978 4282025279
0.017280165 -0.0031975508 -0.016569318 4283921969
0.019019376 -0.002327852 -0.017615566 4281631558
0.020753238 -0.0014583766 -0.018660665 4281501508
0.022297531 0.00015380234 -0.020373387 4281370948
0.02401801 0.0010226369 -0.021415673 4281435718
0.025922701 0.0011486709 -0.021789171 4281762119
0.027827376 0.0012748018 -0.022162575 4281827399
0.029537104 0.0021432713 -0.023202494 4282023749
0.031241445 0.0030114874 -0.024241267 4281958469
0.032740101 0.0046213493 -0.025944497 4281500488
0.034025043 0.0069722384 -0.028310534 4281370184
0.035293862 0.0093222335 -0.030673355 4281305414
0.036546551 0.01167123 -0.033032961 4281305924
0.038838156 0.010313556 -0.032071885 4281305924
0.04199513 0.0059928894 -0.028461047 4280719424
0.047780521 -0.0072149411 -0.016907273 4280850494
0.063187793 -0.045457698 0.016726062 4280850494
0.067958638 -0.054201506 0.024250112 4281111103
0.070295826 -0.05480016 0.024498031 4281957194
0.014889922 -0.0033891052 -0.01869642 4284574259
0.017330479 -0.0054999962 -0.01706592 4283071799
0.019072399 -0.004627943 -0.01811103 4281631813
0.020808974 -0.0037561357 -0.019155001 4281501509
0.022540201 -0.0028845668 -0.020197846 4281435973
0.024079338 -0.0012682751 -0.021906139 4281501509
0.02598656 -0.0011420697 -0.022280117 4281436229
0.027701696 -0.00027119368 -0.02331952 4281435973
0.029411454 0.00059942901 -0.024357785 4281371203
0.031115832 0.0014698207 -0.025394903 4281436229
0.032814808 0.0023400113 -0.026430909 4280979013
0.0345084 0.0032099113 -0.027465736 4280979269
0.035991121 0.0048232377 -0.029162303 4280913989
0.037671223 0.0056924969 -0.03019429 4280979268
0.039556742 0.0058181733 -0.030563321 4281305414
0.042723224 0.0014851838 -0.026964303 4281240644
0.0480836 -0.010275118 -0.01676348 4281240644
0.063492 -0.048630275 0.016783282 4281240643
0.067593247 -0.055172525 0.022309124 4281566023
0.069473624 -0.054289006 0.021238543 4282215509
0.01476476 -0.0049412698 -0.019858234 4284640304
0.016852986 -0.0055631101 -0.01956665 4282810169
0.018768083 -0.0054368675 -0.019942554 4281499978
0.020683194 -0.0053105056 -0.020318361 4281500998
0.022414446 -0.0044367611 -0.021359537 4281370694
0.024326887 -0.0043103397 -0.021734636 4281370694
0.026239321 -0.0041837841 -0.022109643 4281305158
0.027959844 -0.0033104047 -0.023148444 4281240134
0.029674981 -0.0024372116 -0.024186136 4281305668
0.031384744 -0.0015642866 -0.025222637 4281240133
0.03308912 -0.00069161505 -0.026257999 4281044293
0.034990713 -0.00056518614 -0.026630417 4281044294
0.036892265 -0.00043866783 -0.027002759 4280913478
0.038377814 0.0011793599 -0.028696489 4281044549
0.040273901 0.0013057515 -0.029067572 4281174598
0.042809911 -0.00080367178 -0.027459443 4281044038
0.048817985 -0.014833979 -0.015307597 4280979013
0.063574135 -0.051066406 0.01617609 4281043529
0.066780135 -0.054649673 0.019056372 4281107789
0.0148126 -0.0072432682 -0.020353882 4284508724
0.016903181 -0.0078671202 -0.02006443 4282875959
0.018642474 -0.0069909394 -0.021105712 4281697859
0.020557439 -0.0068645701 -0.021481486 4281370694
0.022472402 -0.0067381039 -0.02185718 4281370183
0.024573743 -0.0073607564 -0.021569466 4281174598
0.026491381 -0.0072338656 -0.021945491 4281304903
0.028025569 -0.0056090578 -0.023645937 4281305158
0.029743426 -0.0047335625 -0.024682462 4281370949
0.031455889 -0.0038582534 -0.025717868 4281240389
0.033362731 -0.0037315935 -0.026091406 4281109828
0.035269536 -0.0036048219 -0.026464852 4281109828
0.037176296 -0.0034779161 -0.026838182 4281175109
0.038667426 -0.0018552542 -0.028529648 4281175364
0.040358257 -0.00098083913 -0.029560328 4281109828
0.043322556 -0.0045915693 -0.026641455 4281174343
0.049550954 -0.019409932 -0.013864506 4281174343
0.063213557 -0.052012689 0.014252921 4281304649
0.066191986 -0.054860227 0.01646968 4281172303
0.014860112 -0.0095493272 -0.020852569 4284312119
0.016953047 -0.010175176 -0.020565234 4282547263
0.018695049 -0.0092966482 -0.021605387 4281240644
0.020612538 -0.0091701299 -0.021981668 4281305668
0.022346525 -0.0082918778 -0.023020055 4281239879
0.024633722 -0.0096681342 -0.022072244 4281109063
0.026365027 -0.0087898374 -0.023109939 4281238858
0.028090963 -0.0079117641 -0.024146471 4281174343
0.030005747 -0.0077848062 -0.024521746 4281305414
0.031723607 -0.006907016 -0.025556501 4281044804
0.03383524 -0.0075305551 -0.025272012 4280979778
0.035547674 -0.0066528767 -0.026305515 4281045059
0.03725471 -0.0057754517 -0.027337875 4281045059
0.038748711 -0.0041482225 -0.02902662 4281109828
0.040442258 -0.0032714456 -0.030056152 4281305924
0.043621164 -0.0076425001 -0.026489459 4281305668
0.05749822 -0.041854016 0.0029089442 4281435718
0.062853336 -0.052954264 0.012333197 4281434953
0.065380856 -0.054312818 0.013235328 4281888598
0.020486653 -0.010725759 -0.023145959 4280514914
0.022037331 -0.0090915784 -0.024843279 4280713304
0.024135334 -0.0097187832 -0.024558239 4280844629
0.02605 -0.0095920712 -0.024933666 4280976209
0.027964653 -0.0094652548 -0.025309015 4281173324
0.029879292 -0.0093383193 -0.025684267 4281304394
0.031990629 -0.0099641234 -0.025401447 4281175619
0.033907883 -0.0098367706 -0.025777027 4281305923
0.035420947 -0.0082042292 -0.027466308 4281175619
0.036923245 -0.0065722242 -0.029153433 4281240644
0.038829662 -0.0064452291 -0.02952661 4281044803
0.040736027 -0.0063181072 -0.029899675 4281370948
0.044131875 -0.011453696 -0.025688883 4281501508
0.05758018 -0.044261105 0.0023241239 4281435973
0.062272675 -0.053139918 0.0097637745 4281434953
0.064794317 -0.054503135 0.010663697 4282345558
0.028220749 -0.012529284 -0.02515658 4280844374
0.03072221 -0.014667757 -0.023562249 4281172814
0.033436257 -0.017560095 -0.021314617 4281238603
0.035374787 -0.017431326 -0.021694362 4281305668
0.036505658 -0.014283545 -0.024695158 4281632324
0.037819646 -0.011891611 -0.027036894 4281371203
0.039532047 -0.011009373 -0.028066888 4281435718
0.041658908 -0.011635713 -0.0277883 4281304903
0.044854138 -0.016031638 -0.02424467 4281370948
0.040553927 -0.024042808 -0.019058116 4282804558
0.042096756 -0.022399373 -0.020746384 4282217803
0.044048339 -0.022269227 -0.021128297 4281890384
0.047062028 -0.025919825 -0.018252246 4281629263
-0.027402308 -0.017499797 0.00018036924 4280636294
-0.025795083 -0.015125103 -0.0022470327 4279587988
-0.023735363 -0.015749224 -0.0019500954 4279392149
-0.021789905 -0.015623577 -0.0023339419 4279326868
-0.020089198 -0.013999522 -0.0040761707 4279458703
-0.018524174 -0.011627153 -0.0064948695 4279983748
-0.026857298 -0.023595944 0.0030718716 4282274924
-0.025462147 -0.019710124 -0.00071211718 4279390873
-0.023742814 -0.018080838 -0.0024548508 4279128733
-0.02179483 -0.017955028 -0.0028392076 4278801058
-0.020213518 -0.015575223 -0.0052562756 4278735779
-0.018523168 -0.013947472 -0.0069930246 4279326869
-0.016715746 -0.013071232 -0.0080510946 4279589009
-0.014783237 -0.012945972 -0.0084320484 4279916939
-0.012850609 -0.012820587 -0.0088129332 4282274924
-0.026759911 -0.026701294 0.0032318225 4282012273
-0.025472779 -0.022050254 -0.0012226366 4278997918
-0.02375057 -0.020416491 -0.0029626321 4278736034
-0.02191947 -0.01953692 -0.0040239878 4278670499
-0.020215679 -0.017904058 -0.005760204 4278604964
-0.018397655 -0.017025091 -0.0068187914 4279063198
-0.016712334 -0.015393265 -0.0085511655 4279128733
-0.014907423 -0.014514916 -0.0096069928 4279456409
-0.012842115 -0.015142329 -0.009314036 4279784084
-0.010906834 -0.015016668 -0.0096953698 4279915409
-0.0088332668 -0.015643328 -0.0094038732 4279850384
-0.007176768 -0.014012769 -0.011130108 4280178059
-0.0052438341 -0.013886914 -0.011510707 4280636549
-0.0034569986 -0.013009004 -0.012562475 4281816434
-0.0016754307 -0.012131356 -0.013613082 4282406504
-0.026663151 -0.029814981 0.0033854442 4281488504
-0.025369782 -0.025150657 -0.0010602698 4278735523
-0.023991782 -0.02124425 -0.0048242137 4278866849
-0.022163328 -0.020362712 -0.0058833957 4278932384
-0.02046201 -0.018725708 -0.007615821 4278604709
-0.018272799 -0.020111188 -0.0066508241 4278867104
-0.016454633 -0.019229911 -0.0077077518 4279063198
-0.014511708 -0.019104011 -0.0080907885 4279391384
-0.012701299 -0.018223047 -0.0091459639 4279522199
-0.010625485 -0.018851832 -0.0088566542 4279784338
-0.0089581907 -0.017216392 -0.010581799 4279653269
-0.0071608163 -0.016335919 -0.011634137 4279849873
-0.0052253492 -0.016209908 -0.012015245 4280046734
-0.0034358166 -0.015329726 -0.013065862 4279916428
-0.0016515441 -0.014449708 -0.014115381 4280440709
0.00012745336 -0.013569959 -0.015163734 4280964479
0.0022092871 -0.014197521 -0.014874975 4281554039
0.0039830841 -0.013317876 -0.015922125 4282733158
-0.027011294 -0.029903091 0.00083355885 4281291898
-0.025722396 -0.025226049 -0.0036013518 4278867104
-0.024116199 -0.022825517 -0.0060085654 4278736034
-0.022406805 -0.021183804 -0.007739367 4278670499
-0.020464424 -0.021058299 -0.0081225671 4278736034
-0.018273029 -0.022447966 -0.0071613379 4278736034
-0.016452152 -0.021564424 -0.0082171112 4279063198
-0.01476628 -0.019923761 -0.0099429116 4279260314
-0.012826052 -0.019797936 -0.010325335 4279325849
-0.010885712 -0.019671991 -0.010707699 4279456663
-0.0089452453 -0.019545913 -0.011089988 4279784338
-0.0071451738 -0.018663123 -0.012141205 4279522198
-0.005207181 -0.01853697 -0.012522824 4279522199
-0.0032690912 -0.018410683 -0.012904365 4279653269
-0.0014794357 -0.017528199 -0.013953246 4279850128
0.00015373155 -0.015890025 -0.015667945 4280243084
0.0020840354 -0.015763886 -0.016047671 4279915153
0.0038578548 -0.01488208 -0.01709317 4279718803
0.0056263842 -0.014000513 -0.018137533 4279915408
0.0075515248 -0.013874352 -0.018515974 4279980944
0.009476725 -0.01374805 -0.018894318 4279784594
0.011401962 -0.013621636 -0.019272592 4280308619
0.013157301 -0.012740433 -0.020313986 4280833409
0.014907304 -0.011859395 -0.021354258 4280638334
0.017177898 -0.013241634 -0.020406872 4279918979
-0.026804227 -0.033785544 0.0016542925 4282078319
-0.025506426 -0.029095024 -0.0027723992 4279850129
-0.024124313 -0.025166787 -0.006520581 4279129244
-0.022293124 -0.024280779 -0.007577002 4278867359
-0.020588737 -0.022634976 -0.0093034282 4279260059
-0.018522095 -0.023269206 -0.0090159625 4278736033
-0.01657692 -0.023143314 -0.0093995593 4278998173
-0.014761236 -0.02225779 -0.010452606 4279260314
-0.012686174 -0.022891141 -0.010166544 4279260313
-0.010875609 -0.022005707 -0.011218399 4279391384
-0.0089326166 -0.021879487 -0.011601202 4279260314
-0.0071298368 -0.020994358 -0.012651294 4279260314
-0.0053323135 -0.020109467 -0.013700265 4279129244
-0.0033943802 -0.01998321 -0.014081791 4279260314
-0.0017530546 -0.018340349 -0.015794829 4279587988
0.00017970428 -0.018214181 -0.016175143 4279194523
0.001958821 -0.017329954 -0.017220154 4279390873
0.004045438 -0.017961457 -0.016935535 4279325849
0.0055012144 -0.015562274 -0.019306712 4279587478
0.0075879432 -0.016193472 -0.019021966 4279325084
0.0093512423 -0.01530984 -0.020063452 4279128479
0.011443432 -0.015940435 -0.019779585 4278998174
0.013201471 -0.015056908 -0.02081985 4279260824
0.015126634 -0.014930241 -0.021197904 4278998938
0.01687669 -0.014046997 -0.022236425 4279064218
0.018799223 -0.013920255 -0.022613775 4279195544
0.02036079 -0.012281105 -0.024310045 4279721099
0.022277988 -0.012154482 -0.024686176 4279984004
-0.025178041 -0.033739395 -0.0012819627 4281161083
-0.023436297 -0.03208714 -0.0030125761 4280505734
-0.02170511 -0.030435406 -0.004741055 4279522964
-0.019984465 -0.028784283 -0.0064673279 4279587988
-0.018150296 -0.027895652 -0.0075225537 4279325338
-0.016321328 -0.027007304 -0.0085766315 4279128733
-0.014627043 -0.025357537 -0.01029744 4279456664
-0.012546953 -0.025992684 -0.010014076 4279391639
-0.010865789 -0.024343528 -0.011732109 4279195289
-0.0089202709 -0.024217121 -0.012115397 4279194779
-0.0072549544 -0.02256871 -0.013830163 4279063453
-0.0053145848 -0.02244243 -0.014212273 4279260314
-0.0035196245 -0.021555424 -0.015258987 4279325849
-0.0017299391 -0.020668648 -0.016304582 4279521943
0.00020535663 -0.020542324 -0.016685396 4279260059
0.0021407045 -0.02041588 -0.017066143 4279129244
0.0040761344 -0.02028928 -0.017446797 4279194524
0.0056938417 -0.018643118 -0.019151535 4279194525
0.0076240413 -0.018516637 -0.019530971 4278997918
0.0093900487 -0.017630659 -0.02057134 4278867104
0.011651509 -0.019022495 -0.019629072 4278998174
0.013245314 -0.017377384 -0.021328721 4278605218
0.01500072 -0.016491771 -0.022366736 4278670754
0.017100714 -0.017123647 -0.022085775 4278735779
0.019028444 -0.01699657 -0.022464149 4278801314
0.02059558 -0.015352778 -0.024158146 4278932639
0.022152003 -0.013709523 -0.025849994 4279129244
0.023883386 -0.012824841 -0.02688279 4278997663
0.025797749 -0.012698144 -0.027258154 4278866594
0.028667187 -0.016359337 -0.02435464 4279195543
0.031950779 -0.021533489 -0.020145755 4280178824
0.036253676 -0.030491211 -0.012670596 4280506244
-0.017531965 -0.034067564 -0.0047072927 4282798185
-0.015686926 -0.033176012 -0.0057628835 4281749113
-0.013847109 -0.032284617 -0.0068173902 4281356158
-0.012144458 -0.030629873 -0.0085364329 4281747328
-0.010452416 -0.028975673 -0.010253344 4280045969
-0.0089082457 -0.026558779 -0.012632683 4279784083
-0.0072400607 -0.02490586 -0.014344696 4279391639
-0.0054398216 -0.024016507 -0.015390906 4279522710
-0.0034995116 -0.023890108 -0.015772909 4279456664
-0.0017071217 -0.023001008 -0.016817376 4279521944
0.00038137659 -0.023636907 -0.016536672 4278998429
0.0021685734 -0.022747897 -0.017579932 4278801823
0.0042625628 -0.023383215 -0.017300129 4279063709
0.0057271086 -0.020970546 -0.019663054 4278670499
0.0078212209 -0.021605588 -0.019383073 4278736034
0.0094285198 -0.019955538 -0.021082256 4278932639
0.011525415 -0.020590201 -0.020802598 4278670754
0.012949992 -0.018179618 -0.02315731 4278474148
0.014874849 -0.018052988 -0.023535322 4278670243
0.016799729 -0.017926231 -0.023913242 4278604708
0.018902082 -0.01855997 -0.0236343 4278670243
0.020649547 -0.017672338 -0.024668802 4278670754
0.022391662 -0.016784899 -0.025702138 4278801569
0.024128413 -0.015897661 -0.026734374 4278604454
0.026236147 -0.016530611 -0.026456073 4279063199
0.029112583 -0.020202108 -0.0235622 4278866593
0.033563919 -0.029948495 -0.015444578 4278801313
-0.0087594092 -0.029669918 -0.012489957 4282729843
-0.0070856698 -0.028012402 -0.014199731 4280635019
-0.0051375739 -0.027885623 -0.014583368 4280701064
-0.0033345409 -0.026993796 -0.015628368 4280504458
-0.0012411103 -0.027631678 -0.015350405 4279980689
0.00040622056 -0.025975324 -0.017054632 4279390873
0.0023492984 -0.025848374 -0.017436899 4278997663
0.0041365884 -0.024957076 -0.018478416 4278998174
0.0059185848 -0.024066009 -0.019518811 4278605473
0.0080177225 -0.024702884 -0.019241486 4278932894
0.0096305795 -0.023048215 -0.020938408 4278670754
0.011232767 -0.021394052 -0.022633176 4278408614
0.012655046 -0.018977188 -0.024982423 4278801824
0.014920916 -0.020377077 -0.024047513 4278932894
0.017022919 -0.021013148 -0.023770269 4278867359
0.018953022 -0.020885922 -0.024149116 4278605219
0.020703185 -0.01999592 -0.025182478 4278801569
0.022265363 -0.018343695 -0.026868761 4278473894
0.024002137 -0.017454289 -0.027899345 4278604964
0.02629753 -0.018851534 -0.026969615 4278539174
0.029556928 -0.024057597 -0.02277936 4278866593
0.034400534 -0.035355203 -0.013380376 4279194268
0.002682399 -0.029723831 -0.016641844 4282860148
0.0044777282 -0.02882985 -0.017683297 4281747584
0.0061093979 -0.027169831 -0.019380838 4279914899
0.008052513 -0.027042523 -0.01976284 4279718804
0.0096682422 -0.025383338 -0.021457002 4279325339
0.0114397 -0.024490416 -0.02249337 4279194524
0.013036769 -0.022832163 -0.024183713 4278932639
0.014966663 -0.02270519 -0.024562716 4278932128
0.016896594 -0.022578098 -0.024941623 4279194778
0.018649437 -0.021685906 -0.025973953 4279128988
0.020396939 -0.020793945 -0.027005136 4278735523
0.022504006 -0.021431439 -0.026730247 4278998174
0.024431296 -0.021304019 -0.027108248 4278932128
0.026546391 -0.02194076 -0.026834752 4278801314
0.030000251 -0.027925812 -0.02200596 4279128734
0.034655906 -0.038491495 -0.013283299 4279456664
0.008408729 -0.030922659 -0.018977091 4283122798
0.010196224 -0.030026667 -0.020015057 4281158024
0.011978414 -0.029130876 -0.021051865 4280504203
0.014093075 -0.029770695 -0.020780638 4279391639
0.016041555 -0.029642515 -0.021163296 4279587733
0.01781581 -0.028746873 -0.022198256 4279063198
0.019230865 -0.026317097 -0.024535876 4279128989
0.020989092 -0.025422238 -0.025567491 4278932639
0.022559686 -0.023760788 -0.027248845 4278998429
0.024304539 -0.022866569 -0.02827765 4279063453
0.026419302 -0.023505472 -0.028005734 4278997663
0.029871592 -0.029507913 -0.023189921 4279063198
0.03452462 -0.040103972 -0.014489943 4279325593
0.019081082 -0.036480322 -0.018172609 4283058794
0.020694679 -0.034812018 -0.019859236 4281749369
0.021938721 -0.031605922 -0.02284316 4280832898
0.023343462 -0.029170096 -0.02517359 4279719314
0.024547379 -0.025966443 -0.028149407 4279521943
0.026667161 -0.026607178 -0.027880143 4279456408
0.030123224 -0.032626577 -0.023078356 4279391129
0.034778975 -0.043252729 -0.014402105 4280045968
0.024853228 -0.037685424 -0.020523986 4282077553
0.02589716 -0.033700489 -0.024145089 4281815669
0.028038016 -0.034341998 -0.023881622 4281225343
0.031134019 -0.038836159 -0.02038897 4280308364
0.035032645 -0.046409808 -0.014320573 4280767619
0.02446533 -0.051153161 -0.016641101 4283059814
-0.044587266 0.019368868 0.044320472 4285229863
-0.043150481 0.023639601 0.039536897 4285558814
-0.041375767 0.025146913 0.037686694 4285754653
-0.038755346 0.020441879 0.042419814 4285754398
-0.045409437 0.023301017 0.037264325 4285558814
-0.043903504 0.026890691 0.03322541 4285624094
-0.042147275 0.028401058 0.031382188 4285623839
-0.039926704 0.026449006 0.033189066 4285755164
-0.037299309 0.021729227 0.037909135 4285689629
-0.034533855 0.016319945 0.043350354 4285689884
-0.032137293 0.01368095 0.045871057 4285558814
-0.028145995 0.013939444 0.045084089 4285427744
-0.026372071 0.015451502 0.043237731 4285427488
-0.024267521 0.014889482 0.043571245 4285754654
-0.04765645 0.022972278 0.034996435 4285361954
-0.046055239 0.025878161 0.031693626 4285755928
-0.04438575 0.028087858 0.029124063 4285755419
-0.04263996 0.029601838 0.027286198 4285623839
-0.040430713 0.02764244 0.0290903 4285755164
-0.038107712 0.024989843 0.031618636 4285953043
-0.035662908 0.021644466 0.034869697 4285689884
-0.033602368 0.021077022 0.03520998 4285559068
-0.031430747 0.019816201 0.036275037 4285624603
-0.029897239 0.022718292 0.032986034 4285624604
-0.028163265 0.02423203 0.031150892 4285690138
-0.026212718 0.024358496 0.030766416 4285754654
-0.023680899 0.021019209 0.034000672 4285820189
-0.020646531 0.014909778 0.040122546 4285820698
-0.048200753 0.024870791 0.030164272 4285427743
-0.046439152 0.026389979 0.028326433 4285624604
-0.04477727 0.028605599 0.02576337 4285886999
-0.042855393 0.028729562 0.025384046 4285886998
-0.04074404 0.027460165 0.026457384 4285886998
-0.038524467 0.025494937 0.028254461 4285755674
-0.036288578 0.023530878 0.030048326 4285624093
-0.034241702 0.022960328 0.030389603 4285558558
-0.03229456 0.023086298 0.030005582 4285624348
-0.03067122 0.025299985 0.02745048 4285886998
-0.02906375 0.027512733 0.024898574 4285689629
-0.027245421 0.028333444 0.023795143 4285557538
-0.024852034 0.025677148 0.026303336 4285623583
-0.022318322 0.022327166 0.029528901 4285754908
-0.019393425 0.016893987 0.034912385 4285886489
-0.0161773 0.010074049 0.041728482 4285623583
-0.050421093 0.024568394 0.027909964 4285427743
-0.048826974 0.027490996 0.024621755 4285493278
-0.046994757 0.028313987 0.023516648 4285558303
-0.044900414 0.027038898 0.024589889 4285623839
-0.042886857 0.026463717 0.024935763 4285558304
-0.040773269 0.025190063 0.026005279 4285624093
-0.03884298 0.02531467 0.025624372 4285624094
-0.036812652 0.024740752 0.025967143 4285624348
-0.034879219 0.024865713 0.025585733 4285624349
-0.033050735 0.025689017 0.024481721 4285689884
-0.031443056 0.027908113 0.02193471 4285887254
-0.02963021 0.02873056 0.020833898 4285886743
-0.027596142 0.028157275 0.021176234 4285820954
-0.025208917 0.02549186 0.023678936 4285952534
-0.022918623 0.023525309 0.025457457 4285886489
-0.02036963 0.020165499 0.028671697 4285623583
-0.017669711 0.016110484 0.032599606 4285492004
-0.050867926 0.025803443 0.023828983 4285559069
-0.049116787 0.02733041 0.02199978 4285820953
-0.047031146 0.02605034 0.023071267 4285952534
-0.044934552 0.024771001 0.024140686 4285886743
-0.042918582 0.02419376 0.024484377 4285624093
-0.04089703 0.023616944 0.024827022 4285558813
-0.039063785 0.024442405 0.02372355 4285558813
-0.037136029 0.02456687 0.023343164 4285624603
-0.035412651 0.026092574 0.021519847 4285624348
-0.033699792 0.027617712 0.019698612 4285624094
-0.03210507 0.029842447 0.017159142 4285689884
-0.029974539 0.028565951 0.018222291 4285820954
-0.0278331 0.027290251 0.019283358 4285820953
-0.025449354 0.024615873 0.021780036 4285820954
-0.023162346 0.022642516 0.023554213 4285689373
-0.020738039 0.019970942 0.026043024 4285623839
-0.018168379 0.016601663 0.029244889 4286345744
-0.05298641 0.024820644 0.022311836 4285229864
-0.051313307 0.027056132 0.019761276 4285820699
-0.049405847 0.027178787 0.019384503 4285689628
-0.047325987 0.025893945 0.020453751 4285755419
-0.045057673 0.023202602 0.022965901 4285821464
-0.043133412 0.023326561 0.022585981 4285689884
-0.04102071 0.022044066 0.023648925 4285689883
-0.039284151 0.023574755 0.021826178 4285559068
-0.037359182 0.023698986 0.021446295 4285624348
-0.035944644 0.02733713 0.017467197 4285624093
-0.034242239 0.0288659 0.015651334 4285624094
-0.032442849 0.02969161 0.014556424 4285689629
-0.030207951 0.027708087 0.016335651 4285623838
-0.028069641 0.026427787 0.017393958 4285558303
-0.02568936 0.02374446 0.019884616 4285624349
-0.023523871 0.022466056 0.020937741 4285624349
-0.021105718 0.0197854 0.023421027 4285492258
-0.053264309 0.024672247 0.019696284 4285493279
-0.051596146 0.026913922 0.017151624 4285558303
-0.049777355 0.027742315 0.016053978 4285492259
-0.047705945 0.026452538 0.017121524 4285492259
-0.045535032 0.024457682 0.018907845 4285623838
-0.043439057 0.023169648 0.019970663 4285755929
-0.041426074 0.022587795 0.020311624 4285558558
-0.039504122 0.022711698 0.019932237 4285558814
-0.037780475 0.024245977 0.018115357 4285624348
-0.036271255 0.027189523 0.014864207 4285886998
-0.034364689 0.027312674 0.01448804 4285887253
-0.032457914 0.027435925 0.014111902 4285887254
-0.030330952 0.026150402 0.015169066 4285821463
-0.028193083 0.024865691 0.016224094 4285689884
