# .PCD v0.7 - Point Cloud Data file format
VERSION 0.7
FIELDS x y z rgba
SIZE 4 4 4 4
TYPE F F F U
COUNT 1 1 1 1
WIDTH 602
HEIGHT 1
VIEWPOINT 0 0 0 1 0 0 0
POINTS 602
DATA ascii
-0.0086929649 -0.011840455 -0.0073738331 4287181889
-0.0067202374 -0.011715114 -0.007762474 4287116864
-0.0045934804 -0.012340643 -0.007476964 4287443774
-0.0026179254 -0.012214884 -0.0078659849 4287312703
-0.00048300251 -0.012839653 -0.007581898 4287050818
0.0016573332 -0.013463929 -0.0072987722 4287051583
0.0034737512 -0.012587123 -0.0083605619 4287248188
0.0056195408 -0.013210796 -0.008078319 4287509564
0.0076007023 -0.013084024 -0.008467962 4287771958
0.0099272951 -0.014456771 -0.0075166868 4287706679
0.012089249 -0.015079014 -0.007237331 4287444794
0.015146833 -0.019448079 -0.0036121812 4286986559
-0.016155634 -0.016976796 -0.0042873183 4286987324
-0.014593951 -0.014589183 -0.0067037912 4287641399
-0.012475885 -0.01521799 -0.006418583 4288295728
-0.010498129 -0.015092589 -0.0068084123 4288622894
-0.0082234181 -0.01647418 -0.0058510387 4288230193
-0.0063912645 -0.015594795 -0.0069148401 4288099124
-0.0042567886 -0.016222082 -0.0066324333 4288099123
-0.0024298318 -0.015342757 -0.0076950132 4287903029
-0.00028987601 -0.015969433 -0.007413493 4288033589
0.0018554851 -0.01659558 -0.0071329819 4287771704
0.0040062517 -0.01722125 -0.0068534445 4288099378
0.0059952512 -0.017094113 -0.0072447183 4288099633
0.0081541352 -0.017719023 -0.006966589 4288099633
0.010318417 -0.018343486 -0.0066893715 4288034099
0.012663271 -0.019719243 -0.0057448652 4287837493
0.015374623 -0.022597529 -0.0034668352 4287182144
-0.016142283 -0.019361161 -0.0047909115 4286659648
-0.01471781 -0.016210578 -0.0078766663 4287903284
-0.012457155 -0.017597646 -0.0069200005 4288230449
-0.010476887 -0.017472133 -0.0073103546 4288688939
-0.0081999935 -0.018857963 -0.0063566547 4288492079
-0.0060632564 -0.019487374 -0.0060764607 4288230959
-0.0039210841 -0.020116307 -0.0057972353 4288361774
-0.0022423789 -0.018479131 -0.0075301207 4288164913
-0.00041534007 -0.017597534 -0.0085909534 4288099634
0.0015680455 -0.017471038 -0.008981334 4288165423
0.0038801283 -0.018853791 -0.0080340337 4288623404
0.0060359687 -0.019481204 -0.0077570132 4288295728
0.008197207 -0.020108171 -0.0074809138 4288034354
0.010536179 -0.021488823 -0.0065386053 4287837748
0.012885887 -0.022868641 -0.0055983048 4287510329
0.015424032 -0.025001548 -0.0039938223 4286463554
-0.016541429 -0.019473784 -0.0073149554 4287313723
-0.014841639 -0.017831683 -0.0090493318 4287640888
-0.012724221 -0.018464915 -0.0087672528 4287903284
-0.01045594 -0.019855805 -0.0078152064 4288230448
-0.0081768595 -0.021245815 -0.0068652239 4288426799
-0.0061885454 -0.021119513 -0.0072569605 4288099634
-0.0040467083 -0.021750666 -0.0069792997 4288230959
-0.0022117011 -0.020866521 -0.0080401879 4288165423
-0.00022318214 -0.020739831 -0.0084316786 4287772468
0.0016039275 -0.019855909 -0.0094908159 4288034608
0.0037540272 -0.020486034 -0.0092144031 4288034098
0.0059095398 -0.021115638 -0.0089389365 4287903284
0.0080704503 -0.02174484 -0.0086644087 4288034099
0.010408919 -0.023129888 -0.0077252444 4288164403
0.012583259 -0.02375789 -0.0074531827 4287314234
-0.016665399 -0.021098956 -0.0084906053 4287509308
-0.014685631 -0.020973735 -0.008881053 4287902263
-0.01256318 -0.021608882 -0.0086015444 4287902774
-0.010435294 -0.022243492 -0.0083230417 4287837493
-0.0081540383 -0.023637749 -0.0073767472 4287771959
-0.0060125999 -0.024271302 -0.0071006883 4287640888
-0.0040190183 -0.02414456 -0.007493386 4287903029
-0.0021813363 -0.023258008 -0.00855322 4287445048
-0.00019029155 -0.02313114 -0.008945195 4287576884
0.0016394965 -0.022244878 -0.010003241 4287773233
0.0036279596 -0.022117935 -0.010394534 4287248698
0.0056164823 -0.021990843 -0.010785727 4287248444
0.0077743679 -0.022622354 -0.010512261 4287313724
0.010109667 -0.024012037 -0.0095756818 4287444539
0.012281004 -0.024642423 -0.0093046557 4287051839
-0.017063454 -0.021197848 -0.01100464 4287116608
-0.015089199 -0.021072976 -0.011394007 4287313213
-0.012830026 -0.022473283 -0.0104468 4287313724
-0.010560039 -0.023872785 -0.0095015671 4287313723
-0.0084270425 -0.024509154 -0.0092256125 4287313723
-0.0064390488 -0.024382897 -0.0096173044 4287640889
-0.0042978711 -0.025018476 -0.0093427692 4286725184
-0.0024628453 -0.024129964 -0.01040042 4286986558
-0.00031618401 -0.024764933 -0.010126775 4287444028
0.0015136115 -0.023876496 -0.011183197 4287247933
0.003338106 -0.022988252 -0.012238486 4286789698
0.0053237826 -0.022861339 -0.01262912 4286593604
0.0074786693 -0.023495235 -0.012356682 4286658883
0.0098107867 -0.024889491 -0.011422725 4287835709
-0.013238721 -0.022568159 -0.012955265 4286659139
0.0069398582 -0.0038971305 0.036578529 4281094274
0.0076823719 0.0019039214 0.030550227 4280831879
0.017437592 -0.0039447993 0.035249047 4279845539
0.019861996 -0.0052278265 0.036242999 4280175764
0.021390621 -0.0029719025 0.033736877 4279259549
0.022167228 0.0021129251 0.028437719 4278866084
0.02234631 0.0093172565 0.021050379 4279127713
0.026960257 0.0074564293 0.022349946 4278534073
0.040243633 -0.017582104 0.046209466 4279322789
-0.025851388 0.0024319962 0.031515796 4280963203
-0.02445076 0.006126672 0.02757068 4278864044
-0.016953629 -0.0013341457 0.034162443 4280174998
-0.014912065 -0.0012050271 0.033759803 4279651994
-0.012870368 -0.0010757744 0.033357225 4279324828
-0.011533175 0.0026155561 0.029425099 4278734760
-0.010366254 0.0070175305 0.024792939 4279192229
-0.001235038 0.0025483668 0.028129857 4279453859
0.0011107102 0.0012550056 0.02913535 4279258783
0.0028285049 0.0028072968 0.027329855 4278735269
0.0043732859 0.0050699934 0.024824895 4278734759
0.0052418597 0.010175258 0.019518439 4278668203
0.0069116019 0.011724763 0.017722689 4278535348
0.0090818964 0.011142187 0.018029448 4279124143
0.014669085 0.0050071776 0.023533463 4278470579
0.017052788 0.0037171915 0.024532124 4278865318
0.018903835 0.004557468 0.023434766 4278603178
0.020381905 0.0068168417 0.020943549 4278472109
0.021097928 0.011913188 0.015667804 4278865063
0.022533104 0.014170043 0.013185193 4278930343
0.025103334 0.012171112 0.014881256 4279454879
0.033250261 -0.0024551749 0.028686829 4278274484
0.038707484 -0.014368743 0.040086299 4278930344
-0.029677007 -0.0016379207 0.033236705 4281946738
-0.029076498 0.0070813894 0.024332706 4278735015
-0.027686048 0.010786287 0.020397648 4279062689
-0.026197549 0.013773985 0.017175391 4278928814
-0.02409349 0.013183221 0.01749225 4278993839
-0.018807117 0.0062822029 0.023770243 4278864553
-0.016935918 0.0071240291 0.02266911 4278668968
-0.015208017 0.0086803809 0.020864245 4278537898
-0.013631482 0.010950811 0.018357195 4278406318
-0.012070894 0.013220347 0.015853368 4278536624
-0.010380149 0.014774673 0.014056078 4279257508
-0.0081048459 0.013472125 0.015071881 4279192229
-0.0027510114 0.0073006526 0.020605817 4278603434
-0.00042987242 0.0060012937 0.021612875 4278407594
0.0012640022 0.007556431 0.019815337 4278341548
0.0027850382 0.0098241791 0.017319921 4278537133
0.0036305375 0.014943339 0.012029412 4278536369
0.0054439157 0.015782811 0.010940657 4279324319
0.0077626929 0.014483936 0.011948568 4279061414
0.010611001 0.011048146 0.015048482 4278536113
0.013310529 0.0083266422 0.017445654 4278864299
0.015674993 0.0070309862 0.018444888 4278667948
0.017507307 0.0078722462 0.017352831 4278865319
0.018966988 0.010137022 0.014870123 4278340784
0.02183811 0.014663778 0.009914468 4279061413
0.024399634 0.012657747 0.011607316 4278996388
0.027560338 0.0085192993 0.015378487 4278734504
0.031738404 0.00082808733 0.022609655 4278471854
0.03697405 -0.010413334 0.033292979 4278341549
0.042093046 -0.020938486 0.04326741 4278342314
-0.03096861 0.0038724318 0.024951391 4281880439
-0.030154686 0.011180125 0.017485764 4278275759
-0.028541286 0.013458662 0.014975795 4278471599
-0.027068291 0.016454123 0.011763097 4279389088
-0.024980608 0.015860118 0.012081546 4279257763
-0.022497807 0.01311411 0.014513527 4278601903
-0.0180084 0.010495074 0.016549811 4278733993
-0.016299069 0.012054652 0.014751798 4278668203
-0.014600307 0.013613649 0.012956009 4278340018
-0.010942724 0.015297078 0.010774218 4278864044
-0.0089731924 0.015422143 0.010386155 4279126439
-0.0011840165 0.0072086826 0.01761714 4278734248
0.00049934164 0.0087674707 0.015824951 4278930854
0.0018479973 0.011756621 0.012637922 4278602669
0.014833942 0.0082327351 0.01446619 4278668203
0.016474778 0.0097897351 0.012683055 4278799784
0.017921433 0.012060277 0.010207797 4278537643
0.031016458 0.0012897179 0.01932162 4278471344
0.035842054 -0.0085614547 0.028598804 4278996643
0.04134937 -0.020546243 0.039933186 4278931874
-0.031675246 0.0058244839 0.020227693 4282470509
-0.030635182 0.011712611 0.014191416 4278931108
-0.020382699 0.010175459 0.01435442 4278274739
-0.018538237 0.01101993 0.013261785 4278996134
-0.016974468 0.013302557 0.010766902 4278734503
-0.015145812 0.014146253 0.009677547 4278471854
-0.01150424 0.015832968 0.0075021842 4278271934
-0.0043893345 0.01046171 0.01193093 4278537389
-0.0022497587 0.0098699555 0.012238453 4278668713
-0.00074146688 0.012149967 0.0097551728 4278800294
0.00075082108 0.01442907 0.0072751278 4278734248
0.0023916289 0.015989751 0.0054947371 4278406319
0.0094935261 0.011348024 0.0091990633 4278275249
0.011827506 0.010041505 0.010197674 4278865319
0.014172226 0.008735843 0.011194223 4278799783
0.015805222 0.010296732 0.0094158864 4278537898
0.0174275 0.011857077 0.0076396922 4278668969
0.019039076 0.013416819 0.0058657443 4278865318
0.021205898 0.012828223 0.0061688768 4278865318
0.023760762 0.010808557 0.0078533115 4278275249
0.026525708 0.0080744848 0.010225265 4278537899
0.02970547 0.0039111003 0.013973207 4278800549
0.034313045 -0.0052567422 0.022541735 4278800548
0.039596446 -0.016565144 0.0331637 4278604453
0.044556089 -0.026438095 0.042391989 4278473384
-0.030758131 0.010090925 0.013018104 4278669223
-0.02915201 0.012382135 0.010519258 4278930853
-0.027437631 0.013950221 0.0087263221 4278733994
-0.02548008 0.014073618 0.0083399424 4278733995
-0.023133781 0.012031443 0.010058596 4278602923
-0.020771269 0.0099904165 0.01177414 4278799784
-0.018932112 0.010836728 0.010684156 4278734248
-0.01723576 0.012404233 0.0088951951 4278406828
-0.015129264 0.011807524 0.0092070391 4278668713
-0.013303135 0.012653336 0.0081198746 4278864808
-0.011627868 0.014219806 0.0063353619 4278865318
-0.0098149367 0.015065052 0.0052509243 4278734248
-0.0074033849 0.013027906 0.0069573754 4278603434
-0.0049756728 0.010991894 0.0086607235 4278537898
-0.0028444529 0.010397442 0.0089682089 4278603688
-0.0013438277 0.012683526 0.0064913081 4278538153
0.00030247495 0.014248841 0.004713011 4278603433
0.002266854 0.014374234 0.0043264451 4278668969
0.0043983348 0.013780244 0.0046342136 4278734759
0.0065352209 0.013186745 0.0049410136 4278800549
0.0090223253 0.01115533 0.0066332789 4278865318
0.011350453 0.0098440945 0.0076297363 4278472618
0.013689339 0.0085336342 0.0086242268 4278341803
0.015317164 0.010098606 0.0068501094 4278603943
0.017300542 0.010226041 0.0064604217 4278669479
0.019283932 0.010353588 0.006070816 4278537898
0.021267314 0.010481253 0.0056812959 4279061923
0.02325069 0.010609031 0.0052918615 4278930853
0.025427911 0.010019124 0.0055915648 4278996644
0.028593097 0.0058416501 0.0093326131 4278669223
0.032985672 -0.0026382953 0.01719515 4278735524
0.03845197 -0.014700249 0.028482225 4278669989
0.043600205 -0.02532202 0.038377751 4278801059
-0.030881021 0.0084695444 0.011845012 4278997153
-0.029395875 0.011491917 0.008649311 4278472363
-0.027807977 0.013788633 0.0061589899 4278603433
-0.025855925 0.013911657 0.0057736794 4278537898
-0.023515608 0.011862516 0.0074886205 4278472363
-0.021159094 0.0098145455 0.0092004007 4278407083
-0.019055821 0.0092151538 0.0095111215 4278537898
-0.017359268 0.010787047 0.0077253552 4278472363
-0.015393157 0.010911509 0.0073376792 4278668969
-0.013712443 0.012482561 0.0055552395 4278733738
-0.01204234 0.014053114 0.0037749456 4278667949
-0.0054074861 0.01081311 0.0060955631 4278799528
-0.0032819249 0.01021605 0.0064025717 4278472873
-0.001786299 0.012508385 0.0039315289 4278472873
1.63652e-05 0.013355695 0.0028512022 4278669224
0.0021421127 0.012759008 0.0031583691 4278472365
0.0041064061 0.01288452 0.0027719149 4278275249
0.013207149 0.0083405897 0.0060607819 4278537898
0.0150101 0.009188734 0.0049810065 4278276268
0.017173611 0.0085953102 0.0052813673 4278669479
0.01897122 0.0094433576 0.0042028287 4278537898
0.020763468 0.010291167 0.0031254152 4278734248
0.024912873 0.009826161 0.0030362057 4278337468
0.03710752 -0.012093529 0.023131091 4278997408
0.042645738 -0.024188027 0.034376539 4278866339
0.046411317 -0.029804334 0.039441206 4280832388
-0.03088538 0.0061215088 0.011372709 4279062943
-0.029639367 0.01060646 0.0067827264 4278537898
-0.021678079 0.010373853 0.0059353625 4278406574
-0.019583151 0.0097717866 0.0062460536 4278603434
-0.017619975 0.0098959282 0.0058588525 4278603433
-0.015796579 0.010745808 0.0047753742 4278603178
-0.01397844 0.01159551 0.0036929781 4278733993
-0.0034067184 0.00859458 0.0052298652 4278865318
-0.00191072 0.010893501 0.0027636224 4278668969
5.3312629e-05 0.011018746 0.0023770398 4278799528
0.0016893521 0.012592308 0.00060729031 4278406319
0.012903109 0.007433407 0.0041929381 4278865318
0.014703404 0.0082835704 0.0031153103 4278865574
0.016498353 0.0091335103 0.0020388225 4278603688
0.018102476 0.01070597 0.00027605053 4278537644
0.019695889 0.012277819 -0.0014844881 4278733994
0.02166022 0.012404375 -0.0018701768 4278930089
0.023818038 0.011808865 -0.0015699686 4278995879
0.030734904 0.0012352541 0.007929475 4278471343
0.036168244 -0.010903396 0.019167755 4278931618
0.041896865 -0.023757517 0.031071972 4279128479
0.046066687 -0.030834652 0.03749188 4279849618
-0.031363305 0.0066860542 0.0081014456 4279390363
-0.030124452 0.011183634 0.0035226727 4278668714
-0.026858162 0.015072428 -0.00073392503 4278274484
-0.01997504 0.0096137598 0.0036865538 4278603434
-0.018154431 0.010465525 0.0026051486 4278734758
-0.016199294 0.010589257 0.0022196127 4278668458
-0.014528904 0.0121684 0.00044569466 4278537134
-0.01286912 0.013747029 -0.0013260907 4278930343
-0.011367727 0.01605235 -0.0037888214 4279520158
-0.0091300197 0.014721133 -0.0027851192 4278602413
-0.0068815053 0.013390653 -0.0017834222 4278799274
-0.0043105707 0.010607444 0.00059937406 4278537644
-0.0025105998 0.011458836 -0.00047727022 4278799783
-0.00055474788 0.011583559 -0.00086224731 4278799528
0.0028575324 0.014011666 -0.0037004231 4278733484
0.0048055053 0.014136218 -0.0040836064 4278996389
0.0070973039 0.012809388 -0.0030898461 4278995878
0.0097490102 0.010032125 -0.00072229002 4278930344
0.012067666 0.0087072328 0.00026635174 4278471854
0.014037201 0.0088336542 -0.00012070406 4278865574
0.015641525 0.010410361 -0.0018803002 4278669478
0.020390194 0.015137054 -0.007145999 4278734503
0.022918273 0.01308953 -0.0054757772 4278800294
0.026246469 0.0081462339 -0.0010737842 4278931364
0.030009525 0.0017573908 0.0046872469 4278341294
0.035431728 -0.010419182 0.015900034 4278341549
0.040945001 -0.02258978 0.027095091 4278735015
0.045308948 -0.030413158 0.034182809 4279259294
-0.03172202 0.0065327212 0.0055374065 4279652758
-0.028791208 0.012627535 -0.00080720615 4278734503
-0.02710532 0.014211349 -0.0025814464 4278996898
-0.025172267 0.014333218 -0.0029629758 4279127204
-0.022844445 0.012263648 -0.0012602163 4278471599
-0.020634655 0.010925516 -0.00025474932 4278668713
-0.018687818 0.0110486 -0.00063873734 4278537644
-0.016740862 0.011171803 -0.0010226695 4278733993
-0.013281446 0.013607644 -0.0038666977 4278406064
-0.01148982 0.014460191 -0.0049404306 4278996644
-0.009553168 0.014583223 -0.0053219823 4279192739
-0.0031094179 0.012037657 -0.0037083374 4278603178
-0.0013227612 0.012890525 -0.0047807051 4278603178
0.011410713 0.009271346 -0.0029614391 4278341549
0.013372056 0.009397231 -0.0033469005 4278734759
0.014786098 0.011705138 -0.005786459 4278669478
0.016369194 0.013284966 -0.0075385557 4278669479
0.034495085 -0.0091953799 0.011961109 4278734248
0.039994538 -0.02140408 0.023131195 4278669479
0.044552274 -0.029978141 0.030883577 4279587223
-0.032649975 -0.0025391057 0.011721845 4282733158
-0.03231601 0.0078556612 0.0015883083 4278931619
-0.021024775 0.010790147 -0.0027978709 4278537898
-0.019220162 0.01164525 -0.0038728854 4278734504
-0.01756021 0.013232328 -0.0056383675 4278668713
-0.0053356625 0.011044122 -0.0051710261 4278603688
-0.0035490356 0.011899017 -0.0062418086 4278668969
-0.0017677061 0.012753688 -0.0073114582 4278603434
-0.00015518442 0.014338821 -0.0090667978 4278668969
0.0037133433 0.014586046 -0.0098278616 4278340784
0.0058192275 0.013979688 -0.0095230229 4278537899
0.0082789585 0.011913799 -0.0078497445 4278603689
0.010577895 0.010578834 -0.0068636863 4278669479
0.01216919 0.012163378 -0.0086143557 4278735014
0.014114331 0.012288354 -0.008996537 4278538663
0.015504634 0.014601372 -0.011426436 4278603944
0.017629368 0.013996936 -0.01112478 4278734759
0.019569149 0.014121927 -0.011505639 4279062434
0.022087879 0.012060627 -0.0098432777 4278931364
0.025013994 0.008543238 -0.0068229875 4278800293
0.028561901 0.0028423667 -0.0017679334 4278735014
0.033559829 -0.0079536214 0.0080350963 4278735014
0.039045475 -0.020200439 0.019180268 4278735013
0.043796636 -0.029529557 0.027594082 4278735013
-0.032773461 -0.0041721314 0.01054025 4282471274
-0.032672968 0.0077249929 -0.00095942896 4278997154
-0.031693917 0.013731942 -0.0068926299 4278669224
-0.029772129 0.013852835 -0.0072721327 4278668969
-0.027976062 0.014709167 -0.0083442293 4278406573
-0.025928136 0.014094993 -0.0080309659 4278537899
-0.023743514 0.012746416 -0.0070271762 4278800294
-0.021681946 0.012133375 -0.0067164814 4278734758
-0.019751467 0.012255393 -0.0070972769 4278734504
-0.018238574 0.014580779 -0.0095479265 4278799783
-0.0163159 0.014702521 -0.0099270195 4278800039
-0.014248528 0.014090322 -0.0096171144 4278931108
-0.012028426 0.012744673 -0.0086198151 4279062178
-0.0097975023 0.011399783 -0.0076245116 4278865573
-0.0075558014 0.010055751 -0.0066312877 4278800294
-0.0054586083 0.0094459131 -0.0063269166 4278865829
-0.0036719628 0.010302991 -0.0073960787 4278800293
-0.0022119395 0.012625955 -0.0098356251 4278603943
-0.00044124573 0.013482295 -0.010901516 4278865829
0.0014901683 0.013605669 -0.011281533 4278669733
0.0037590452 0.012264036 -0.010293078 4278931364
0.005695913 0.012387998 -0.010673987 4278997408
0.0079809241 0.011047684 -0.0096885813 4278931363
0.010276694 0.0097081289 -0.0087051531 4278800804
0.012224346 0.0098331422 -0.0090879193 4278735269
0.014172021 0.0099582896 -0.0094705848 4278866338
0.015750134 0.011546604 -0.011215239 4278800803
0.017879911 0.010940313 -0.010916187 4278735013
0.019824903 0.01106564 -0.011298074 4278866338
0.022155518 0.0097290501 -0.010320946 4278735269
0.024692308 0.0076625124 -0.0086669615 4278669989
0.027839679 0.0034051165 -0.0049807914 4278801059
0.032625966 -0.006693922 0.0041220626 4278735524
0.037894279 -0.018248565 0.014564983 4278604709
0.043042071 -0.029067449 0.02431443 4278866084
-0.033241849 -0.0035904199 0.0072794044 4282667879
-0.033029187 0.0076033697 -0.0035005445 4279390619
-0.031933974 0.01288978 -0.0087279156 4278538408
-0.029891979 0.012272827 -0.0084152743 4278931618
-0.02809589 0.013131328 -0.00948577 4279062688
-0.026048269 0.012514919 -0.009174088 4279062689
-0.023995157 0.011899032 -0.0088634389 4278735014
-0.021802846 0.010546662 -0.0078643346 4278800549
-0.019872509 0.010668643 -0.0082451208 4278931619
-0.018081129 0.011527374 -0.0093142176 4278800548
-0.016294993 0.012385882 -0.010382196 4278735013
-0.014225245 0.011771634 -0.010074398 4278800548
-0.012297161 0.01189395 -0.010454382 4278866083
-0.0099196248 0.009808518 -0.0087754568 4278735014
-0.0076784007 0.0084600672 -0.0077853957 4278538409
-0.0054263733 0.0071123764 -0.0067973258 4278472874
-0.0036370382 0.0079718456 -0.0078654503 4278603944
-0.002013471 0.0095663145 -0.0096165566 4278538664
-0.00023739412 0.010425143 -0.010681841 4278407594
0.0018650852 0.0098139346 -0.010379779 4278342059
0.0039729662 0.0092031732 -0.010078701 4278603944
0.0059150346 0.0093274564 -0.01046064 4278341548
0.024370993 0.0067864582 -0.010507494 4278473639
0.02731649 0.0032485574 -0.0075071524 4278473639
0.031693507 -0.005416289 0.0002219826 4278669988
0.037151549 -0.017739393 0.01131736 4278604453
0.042082507 -0.027859464 0.020369288 4279127204
-0.033032235 0.0052703544 -0.0039620372 4278800803
-0.031692971 0.0090922713 -0.0077977544 4278341804
-0.029766101 0.0092134476 -0.0081782928 4278276014
-0.026040155 0.010195665 -0.0096280901 4278276014
-0.011977758 0.0080946609 -0.0095446771 4278276269
-0.010041695 0.0082175881 -0.009926158 4278276269
-0.0078009628 0.0068646893 -0.0089392764 4278276524
-0.0036024041 0.0056365654 -0.0083377361 4278276524
-0.0019759871 0.0072356388 -0.010086208 4278472873
0.0045229718 0.0046598986 -0.0085084252 4278276269
0.0064756051 0.0047848597 -0.0088924468 4278276269
0.0084282756 0.0049099401 -0.0092763789 4278407338
0.01020458 0.0057715699 -0.01033964 4278538408
0.012512766 0.0044242367 -0.0093651004 4278538408
0.014649928 0.0038137808 -0.0090709403 4278341803
0.016608022 0.003939718 -0.0094555654 4278473384
0.018566117 0.0040657744 -0.0098401047 4278538918
0.020334415 0.0049275085 -0.010901332 4278735523
0.022289809 0.0050536469 -0.011285152 4278473383
0.024440337 0.0044446662 -0.010993157 4278866593
0.027189674 0.0016309917 -0.0086764656 4278735778
0.031363964 -0.0063254014 -0.0016410612 4279128734
0.03661304 -0.017951362 0.0087536378 4279128734
0.041330203 -0.027368046 0.017110754 4280832389
-0.032918226 0.0021908209 -0.0037370343 4279653013
-0.031572934 0.0060240403 -0.0075658425 4278866594
-0.029518168 0.0054035112 -0.0072590383 4278866084
-0.027708631 0.0062671602 -0.0083289221 4278604198
-0.025776286 0.0063888878 -0.0087103844 4278669733
-0.023713086 0.0057692304 -0.0084049925 4278735268
-0.021511037 0.004408665 -0.0074143517 4278669479
-0.019434206 0.0037901029 -0.0071114842 4278341804
-0.017351907 0.0031719506 -0.0068095624 4278735014
-0.015264157 0.0025543049 -0.0065086726 4278800549
-0.01345912 0.0034185052 -0.0075770481 4278735014
-0.011806127 0.0050230175 -0.0093279704 4278669733
-0.0098648407 0.0051462725 -0.0097104833 4278538663
-0.0076192319 0.0037892535 -0.0087277666 4278669733
-0.0035680942 0.0032972544 -0.0088130124 4278407594
-0.0017786361 0.0041611642 -0.0098777935 4278669733
0.00016835332 0.0042853951 -0.010260977 4278407594
0.0022809096 0.0036704242 -0.0099641606 4278735268
0.0045670569 0.0023167953 -0.0089889057 4278735014
0.0065222196 0.0024419129 -0.0093734264 4278604198
0.0083038695 0.0033059642 -0.0104362 4278604198
0.010080192 0.0041697845 -0.011497837 4278866338
0.01220898 0.0035564825 -0.011203747 4278604198
0.014343143 0.0029436573 -0.010910615 4278735268
0.016666941 0.0015931353 -0.009942174 4278604453
0.018627562 0.0017193556 -0.010327209 4278473638
0.020588178 0.0018456951 -0.01071215 4278604708
0.022356469 0.002709806 -0.011771686 4278604708
0.024509363 0.0020987615 -0.011481736 4278604453
0.027458195 -0.0014608055 -0.008498285 4278867104
0.031435445 -0.0087039471 -0.0021545263 4279325338
0.036278266 -0.018891133 0.006869114 4278932128
0.040578958 -0.026863106 0.013862015 4281816179
-0.032804843 -0.00089716166 -0.00351822 4279652503
-0.031453501 0.0029473826 -0.0073401104 4278735014
-0.029638726 0.0038134009 -0.0084095076 4278997153
-0.027703974 0.0039351583 -0.0087915324 4278538663
-0.025769081 0.0040570349 -0.0091735013 4278604198
-0.023572985 0.0026916042 -0.0081850328 4278473128
-0.021366056 0.0013269112 -0.0071985647 4278800549
-0.019284192 0.00070646405 -0.0068983138 4278735014
-0.017335434 0.00082968175 -0.0072826836 4278472873
-0.015386548 0.00095303357 -0.0076669715 4278538408
-0.013581503 0.001819402 -0.0087337419 4278407338
-0.011635114 0.0019428432 -0.0091173612 4278538663
-0.0096886232 0.0020664185 -0.0095009059 4278735268
-0.0075901076 0.0014477521 -0.0092034042 4278669733
-0.0057954155 0.0023139343 -0.010267783 4278342059
-0.003848698 0.0024378747 -0.010651108 4278669733
-0.0020619109 0.0033038631 -0.011713773 4278669479
4.4923276e-05 0.0026861653 -0.011417508 4278407594
0.0021571554 0.0020690039 -0.011122238 4278997153
0.0046108328 -3.0398369e-05 -0.0094723403 4278735014
0.0065685213 9.4875693e-05 -0.0098573565 4278800549
0.0085262433 0.00022027642 -0.010242295 4278407594
0.010131884 0.0018274784 -0.01197958 4278735269
0.012441762 0.00047148019 -0.01101188 4278538408
0.014580965 -0.00014326721 -0.01072133 4278735269
0.016541436 -1.7173588e-05 -0.011106424 4278866338
0.018128362 0.0015893579 -0.012839705 4278604198
0.020083468 0.0017153472 -0.013223566 4278735524
0.02203856 0.0018414482 -0.013607338 4278604453
0.02457805 -0.00025121123 -0.011973314 4278931874
0.027331065 -0.0030821636 -0.0096703283 4278801314
0.031506594 -0.011086576 -0.0026709484 4279128734
0.035943851 -0.019826181 0.0049880026 4278669733
0.04003429 -0.027083598 0.011293531 4282143598
-0.032926079 -0.0025001168 -0.0046780463 4279455133
-0.031574044 0.0013554022 -0.0084919706 4278734504
-0.029636886 0.0014771894 -0.0088745616 4278800549
-0.027699601 0.0015990809 -0.0092571005 4278866084
-0.025762189 0.0017211065 -0.0096395873 4278866084
-0.023433518 -0.0003945604 -0.0079711601 4278800549
-0.021487806 -0.00027178228 -0.0083551072 4278472873
-0.019406263 -0.00089446455 -0.0080564395 4278669479
-0.017457638 -0.00077124685 -0.0084407702 4278276269
-0.015649993 9.7326934e-05 -0.0095065348 4278538663
-0.013991367 0.0017108098 -0.011252172 4278538663
-0.012196902 0.0025788024 -0.01231515 4278669734
-0.0099603832 0.0012123659 -0.01133728 4278866084
-0.0077130683 -0.0001532957 -0.010361396 4278800804
-0.0057638921 -2.9318035e-05 -0.010745294 4278538408
-0.0038146526 9.4793737e-05 -0.011129115 4278669479
-0.001705531 -0.00052503496 -0.01083507 4278735014
0.00040900335 -0.0011443868 -0.010541987 4278800293
0.0025289468 -0.0017632619 -0.010249872 4278931363
0.0044864491 -0.0016381368 -0.010634948 4279062689
0.0066145174 -0.0022562817 -0.010344215 4278734758
0.0087479725 -0.002873905 -0.010054465 4278866594
0.010535039 -0.0020050332 -0.011114974 4279456154
0.012673892 -0.0026220605 -0.010826107 4279194013
0.014818123 -0.0032386109 -0.010538202 4279259804
0.016783794 -0.0031122044 -0.010924328 4279194014
0.018749462 -0.0029856637 -0.01131035 4278736289
0.020525854 -0.0021168217 -0.012368284 4278669734
0.022680784 -0.0027321801 -0.012082096 4279325339
0.025230318 -0.0048307702 -0.010454934 4278735269
0.027993202 -0.0076698288 -0.0081603788 4278735014
0.0319774 -0.014956258 -0.0018504458 4278669479
0.03581246 -0.021497816 0.0037796935 4279194269
-0.033047248 -0.0041027442 -0.0058376566 4279127968
-0.031575028 -0.00098506361 -0.0089594852 4278668969
-0.029513177 -0.0016117916 -0.0086590089 4278800548
-0.027445819 -0.002238065 -0.0083594695 4278931874
-0.025500517 -0.00211557 -0.0087435283 4279063199
-0.023424882 -0.0027410686 -0.0084455051 4278801059
-0.021742407 -0.0011221841 -0.010192964 4278604709
-0.019663844 -0.0017472953 -0.0098952949 4278735524
-0.017856292 -0.00087662786 -0.010959554 4278604454
-0.015913062 -0.00075364858 -0.011342749 4278670754
-0.013969749 -0.00063055009 -0.011725869 4278605219
-0.012172598 0.00023979694 -0.012787763 4278669734
-0.0097849406 -0.0018778667 -0.011135217 4278669734
-0.0076843835 -0.0025007948 -0.010841377 4278735014
-0.0057326891 -0.0023766831 -0.011225794 4278800804
-0.0037809201 -0.0022524148 -0.011610113 4278735269
-0.0015097968 -0.0036205277 -0.01064194 4278931618
0.00060978532 -0.0042418018 -0.010351442 4278866084
0.0025697574 -0.004116632 -0.010737091 4279062688
0.004697457 -0.0047370866 -0.010448046 4279061923
0.0068305545 -0.0053570643 -0.010159954 4278930854
0.0091420822 -0.0067219883 -0.0091992095 4279194013
0.011112913 -0.0065956488 -0.0095866397 4279456153
0.013440546 -0.0079592466 -0.0086289123 4279455899
0.015597831 -0.0085771605 -0.0083451979 4279783828
0.017576735 -0.0084498972 -0.0087339245 4279653013
0.019555639 -0.0083224848 -0.0091225319 4279128223
0.021723643 -0.0089393184 -0.0088406429 4279194013
0.023897 -0.0095557347 -0.0085596638 4279587224
0.02627014 -0.010915644 -0.0076103183 4279325084
0.028851107 -0.013018623 -0.005994075 4278472873
0.032447182 -0.018838786 -0.001039302 4278537898
0.035883576 -0.023912609 0.0032394165 4280832388
-0.032818396 -0.0079586133 -0.0049478272 4280766854
-0.031337637 -0.0048316717 -0.0080648623 4279062689
-0.029146057 -0.0062109157 -0.0070855282 4278866338
-0.027068328 -0.0068387091 -0.0067897262 4278473128
-0.025112454 -0.0067155659 -0.0071758823 4278735269
-0.02315646 -0.0065922886 -0.0075619672 4279062943
-0.021333065 -0.0057187155 -0.0086278729 4279259804
-0.019379508 -0.0055953562 -0.0090132952 4279390619
-0.017563898 -0.004722029 -0.010077477 4279652504
-0.0156128 -0.0045985505 -0.010462221 4279062688
-0.013518181 -0.0052244514 -0.01016913 4279127968
-0.011564206 -0.0051005557 -0.010554265 4278996899
-0.0093126036 -0.00647486 -0.0095858425 4279455899
-0.0073530972 -0.0063503459 -0.009971872 4279390618
-0.005239401 -0.0069745257 -0.0096821673 4279194014
-0.0032770783 -0.0068495944 -0.010068569 4279718038
-0.00083624944 -0.0089699328 -0.0084310025 4279718038
0.0012963824 -0.0095925108 -0.0081447335 4279848598
-0.032474022 -0.01258073 -0.0033858577 4282733159
-0.030624513 -0.011703901 -0.0044557946 4281881204
-0.028536532 -0.01233343 -0.004163702 4281880949
-0.026443068 -0.012962446 -0.0038726451 4281881203
-0.02459849 -0.012085617 -0.0049413079 4282077044
-0.022629265 -0.011961505 -0.0053299973 4282273138
-0.020659912 -0.011837266 -0.0057186307 4282927469
0.011202231 -0.026502781 -0.015497474 4282928233
0.015051585 -0.027878217 -0.017457904 4281158533
0.01673064 -0.028611951 -0.019681221 4282798438
-0.032670718 -0.024788022 -0.021278555 4282208113
-0.034968745 -0.024949409 -0.023375085 4282077298
-0.011769269 -0.025072515 -0.029130643 4282797928
-0.0096762665 -0.025728785 -0.028859695 4282929254
-0.011891406 -0.026666291 -0.030283442 4282535278
-0.012159616 -0.027475528 -0.03208743 4282666603
