# .PCD v0.7 - Point Cloud Data file format
VERSION 0.7
FIELDS x y z rgba
SIZE 4 4 4 4
TYPE F F F U
COUNT 1 1 1 1
WIDTH 973
HEIGHT 1
VIEWPOINT 0 0 0 1 0 0 0
POINTS 973
DATA ascii
-0.0024796389 0.027974401 -0.00029482972 4283859494
-0.00030740723 0.026730947 0.00071409438 4283794468
0.0013543367 0.027557809 -0.00042758416 4283201848
-0.061241668 0.023531824 0.010731916 4283989034
-0.059853364 0.027157329 0.0066343741 4283925029
-0.058225606 0.02868617 0.0047455756 4283665693
-0.056425769 0.028818108 0.0043264264 4283729698
-0.054531779 0.02825224 0.0046402132 4283995664
-0.052632224 0.027686827 0.0049528088 4283990564
-0.050925437 0.028516937 0.0038006045 4284055843
-0.049121875 0.028649414 0.0033807848 4284056098
-0.047422525 0.029479083 0.0022304645 4283991073
-0.045835335 0.031005364 0.00035149604 4284059923
-0.044368308 0.033227704 -0.0022543031 4283927833
-0.042354811 0.031966276 -0.0012131268 4283927069
-0.040215377 0.030009441 0.00055355579 4283927323
-0.037942041 0.027357705 0.003043985 4283990818
-0.036369581 0.028883262 0.001168713 4283990564
-0.034438383 0.028320918 0.0014744224 4284056353
-0.032627355 0.028454589 0.0010533445 4284056609
-0.030687746 0.027893024 0.0013572164 4284056608
-0.029004645 0.028722227 0.0002112193 4284056609
-0.027059291 0.028161237 0.00051387027 4284056353
-0.025381077 0.028990252 -0.00063085929 4283925794
-0.02370799 0.029818971 -0.0017743399 4283995919
-0.022040028 0.030647421 -0.0029166187 4283731229
-0.019944299 0.029393002 -0.0018938645 4283730463
-0.017837759 0.028139506 -0.00087360758 4283732758
-0.016019639 0.028274439 -0.0012957864 4283990819
-0.014201354 0.028409459 -0.0017179456 4284056353
-0.012382884 0.028544597 -0.0021400708 4283990309
-0.010721866 0.029372988 -0.0032803258 4283992858
-0.0092262439 0.030894076 -0.0051368335 4283929108
-0.0077411421 0.032414515 -0.0069908844 4283861278
-0.0059353895 0.032549039 -0.0074098101 4283861024
-0.0034565814 0.029914094 -0.0049659479 4283993369
-0.00095639005 0.027280811 -0.0025269943 4283926303
0.0008710213 0.027417224 -0.0029507424 4283792939
0.0021699257 0.029629137 -0.0055159759 4283070268
-0.063432649 0.023986153 0.0078629451 4284119849
-0.061955381 0.026922073 0.0045059398 4284057374
-0.060499009 0.029856544 0.0011538602 4283859749
-0.058886837 0.031388532 -0.00072804186 4283858729
-0.057102989 0.03151923 -0.0011435216 4283858729
-0.055037852 0.02954971 0.00063515734 4283859238
-0.053052869 0.028281359 0.0016793096 4283926048
-0.051353928 0.02911301 0.00053057633 4283990563
-0.049558405 0.029244831 0.00011258293 4284056609
-0.047762629 0.029376753 -0.00030541327 4284056354
-0.046073545 0.030207878 -0.0014517014 4283990818
-0.044499088 0.03173767 -0.00332447 4283925539
-0.042373832 0.029773036 -0.0015594391 4283859494
-0.040347312 0.028508235 -0.000524587 4283859493
-0.038427476 0.027942657 -0.00021801423 4284056353
-0.03662229 0.028075704 -0.00063787866 4283990309
-0.034694035 0.027510859 -0.00033310801 4283990564
-0.032760251 0.026946539 -2.9608607e-05 4284056353
-0.030949097 0.027080251 -0.000450694 4284056608
-0.029137727 0.027214067 -0.00087175984 4283990818
-0.027326155 0.027347991 -0.001292808 4283991329
-0.025786649 0.02887596 -0.0031568888 4283926559
-0.024257574 0.030403223 -0.0050184275 4283860513
-0.022456031 0.030536633 -0.0054369713 4283792684
-0.020366114 0.029277397 -0.0044162027 4283794979
-0.018265378 0.028018991 -0.0033978522 4283926813
-0.016452674 0.028153488 -0.0038187969 4283990819
-0.014639806 0.028288079 -0.0042397203 4283991073
-0.012981515 0.029118368 -0.0053777806 4283990819
-0.011170972 0.029252967 -0.005798026 4283990818
-0.010000508 0.03216847 -0.0090820473 4284058904
-0.0082003139 0.032302469 -0.0094997669 4283992859
-0.0063999929 0.032436565 -0.0099174501 4283992603
-0.0037593953 0.029097719 -0.0067646224 4283991329
-0.0012627505 0.026455365 -0.0043313894 4283990818
0.00090859085 0.025203139 -0.0033288114 4283990563
0.0023866482 0.026727818 -0.0051776059 4283792684
-0.063403696 0.021070581 0.0082446812 4284054059
-0.062251922 0.026828034 0.0019637085 4284057373
-0.060885694 0.030473758 -0.0021124617 4283993624
-0.059457507 0.033414945 -0.0054514464 4283861788
-0.057596151 0.032842122 -0.0051334528 4283928088
-0.055448826 0.030162808 -0.0026273169 4283928598
-0.053376149 0.028187254 -0.00085529033 4283992349
-0.051682401 0.029020697 -0.0020012697 4284056353
-0.049892265 0.029152077 -0.0024180459 4284056099
-0.048101906 0.029283542 -0.0028348258 4284056354
-0.046204533 0.028713729 -0.00252487 4284056609
-0.044629786 0.030247875 -0.0043944898 4284056354
-0.042505194 0.028276566 -0.002634224 4283991074
-0.04082324 0.029109528 -0.0037771002 4283925029
-0.039029006 0.029241646 -0.004194506 4283926304
-0.037354548 0.03007425 -0.0053355647 4283929108
-0.035071891 0.027405676 -0.0028603314 4283862554
-0.033018377 0.026138693 -0.0018347823 4283925538
-0.031209987 0.02627217 -0.0022552465 4283990818
-0.029662635 0.027804924 -0.0041180323 4283990818
-0.027992409 0.028637577 -0.0052577648 4283990819
-0.026327286 0.029469933 -0.0063962452 4284061199
-0.024528701 0.029603004 -0.0068141911 4283861533
-0.022588689 0.029037394 -0.0065134466 4283858474
-0.020499256 0.027773676 -0.0054958658 4283858474
-0.01883873 0.028606029 -0.0066330368 4283992094
-0.016884882 0.028041698 -0.0063353134 4283991583
-0.015229318 0.02887385 -0.0074712029 4283990818
-0.01326983 0.028310115 -0.0071746567 4284056353
-0.011304852 0.02774683 -0.0068792794 4284056609
-0.0098140053 0.02927633 -0.0087282406 4283990563
-0.0081711225 0.030107904 -0.0098609179 4283990309
-0.006203074 0.029545147 -0.0095661022 4284056099
-0.0035582446 0.026195612 -0.0064224359 4284055843
-0.00088668987 0.022848167 -0.0032849 4284121634
0.0012921207 0.02159204 -0.0022872877 4283991329
0.0033058748 0.021033064 -0.0020027985 4283859494
0.0053250417 0.02047459 -0.0017194957 4283268148
-0.063375413 0.018146433 0.0086201606 4283921203
-0.062547609 0.026743092 -0.00057208538 4284121124
-0.061356444 0.031809606 -0.0060992059 4283991839
-0.059674244 0.032644033 -0.0072410633 4283992094
-0.057906445 0.03277345 -0.0076528736 4283991583
-0.055671986 0.029380344 -0.0044236691 4283991329
-0.053698566 0.028102264 -0.0033834334 4283990564
-0.051812846 0.027529173 -0.0030726432 4283990564
-0.050022814 0.027660493 -0.003489438 4284056353
-0.048336413 0.028495632 -0.0046319682 4284056608
-0.046441998 0.027923387 -0.0043230481 4284056353
-0.044760387 0.02875834 -0.0054643354 4284056609
-0.042860184 0.028186668 -0.0051566581 4284057118
-0.041297909 0.029724356 -0.007019978 4283925794
-0.039628904 0.030558597 -0.0081581837 4283863829
-0.037725341 0.029987395 -0.0078511145 4283729954
-0.035693798 0.028714329 -0.0068238517 4283730464
-0.03352629 0.026739918 -0.0050782282 4283730973
-0.031725954 0.026872752 -0.0054968558 4284056864
-0.029925417 0.02700568 -0.0059154723 4284056354
-0.028257754 0.027840301 -0.0070530009 4283990818
-0.026730973 0.029376039 -0.0089076543 4284059669
-0.025076192 0.030209877 -0.010042067 4283928089
-0.023285497 0.030342415 -0.010458142 4283993368
-0.021063481 0.028372606 -0.0087247603 4283928343
-0.019118089 0.02780533 -0.0084267966 4284058649
-0.017316226 0.02793896 -0.0088452734 4283990819
-0.015665878 0.028772898 -0.0099783354 4284187424
-0.013403337 0.026806474 -0.0082541546 4284187168
-0.01128168 0.02554113 -0.007246973 4284186914
-0.0094685666 0.025675945 -0.0076678041 4284121633
-0.0074929856 0.025111444 -0.0073764506 4284186913
-0.005346965 0.023848187 -0.0063747214 4284121123
-0.0026872866 0.020488754 -0.0032426859 4284121378
-0.00017118081 0.01783026 -0.00082711782 4284054569
0.0020204224 0.016570676 0.00016424339 4283857454
0.0038715415 0.016708873 -0.00026499294 4283659828
0.0057227723 0.016847186 -0.00069417339 4283266108
-0.062429998 0.023129635 0.00054410659 4284054569
-0.061314758 0.028919483 -0.0057022851 4284121634
-0.059627142 0.029756451 -0.0068438072 4283990563
-0.057763699 0.029179273 -0.0065296516 4283924773
-0.055894684 0.028602576 -0.0062167412 4283925283
-0.054020111 0.028026316 -0.0059050294 4283925029
-0.052238364 0.028156903 -0.0063199839 4283925538
-0.050254304 0.026875291 -0.0052854307 4283991074
-0.048570435 0.027712394 -0.0064257719 4284056609
-0.046785299 0.027843446 -0.0068413559 4284056608
-0.045108926 0.028680142 -0.0079798521 4284056608
-0.043325949 0.028811198 -0.0083948085 4283991328
-0.041885678 0.031057863 -0.010974837 4283926049
-0.040110204 0.031188508 -0.011387944 4283859238
-0.038214911 0.030614467 -0.011080615 4283793194
-0.036069546 0.02863171 -0.0093348306 4283794214
-0.034032952 0.027354654 -0.0083119879 4283794214
-0.0322407 0.027486853 -0.008728764 4283991328
-0.030578453 0.028323147 -0.009863494 4283990563
-0.028921325 0.029159136 -0.010996982 4284056609
-0.027133767 0.029291239 -0.011412479 4284056609
-0.025346022 0.029423431 -0.011827966 4283991329
-0.023558084 0.029555731 -0.012243429 4283991839
-0.021339435 0.027579058 -0.010514188 4283991329
-0.019396987 0.027009331 -0.010217194 4284056864
-0.017300244 0.025737479 -0.0092077656 4284056354
-0.015344184 0.025168948 -0.0089138029 4284121378
-0.012920227 0.022494197 -0.00648377 4284187424
-0.010945234 0.021927197 -0.0061940318 4284253724
-0.0088053383 0.02065891 -0.0051943529 4284187934
-0.0068167783 0.02009315 -0.0049076709 4284187424
-0.004328426 0.017423555 -0.0024923114 4284055078
-0.0019860826 0.015456885 -0.0007911697 4283989033
0.00054242089 0.012790471 0.0016150167 4283922988
0.0024012811 0.012929134 0.0011839038 4283857709
0.004611101 0.011666633 0.0021677855 4283988014
0.0062974319 0.012506343 0.0010286728 4283331133
-0.062066581 0.017374042 0.0038334094 4283856179
-0.061188798 0.025311206 -0.0045846407 4284121378
-0.059580725 0.026860254 -0.0064527574 4284121889
-0.057892743 0.027699461 -0.007592719 4283990818
-0.056209791 0.028538356 -0.0087314639 4283992094
-0.054531883 0.029376956 -0.0098689841 4283797019
-0.052760851 0.029506704 -0.010281486 4283730973
-0.050687026 0.027511494 -0.0085244784 4283994133
-0.048907522 0.02764201 -0.0089388443 4283990819
-0.047127787 0.027772618 -0.0093532046 4283990819
-0.045456592 0.028611088 -0.01048889 4284056354
-0.043901939 0.030156823 -0.012344038 4283991838
-0.042243566 0.030994501 -0.013476631 4283930128
-0.040707041 0.032539107 -0.015327493 4283794978
-0.038703229 0.031254999 -0.014300389 4283794213
-0.036688577 0.029971814 -0.013275798 4283860769
-0.034538385 0.027982861 -0.011536011 4283927834
-0.032881577 0.028820859 -0.012667985 4283990563
-0.03096978 0.028246079 -0.012365869 4283990818
-0.029052485 0.02767184 -0.012065006 4284121889
-0.027129684 0.027098086 -0.011765366 4284121634
-0.025201377 0.026524819 -0.011466946 4284056354
-0.023267578 0.025952008 -0.011169693 4284056099
-0.021184955 0.024674512 -0.0101604 4284056354
-0.018799577 0.021987814 -0.007728158 4284056864
-0.016838681 0.021417316 -0.0074370485 4284122398
-0.01472101 0.020142641 -0.006435656 4284122653
-0.012592558 0.018868905 -0.0054367483 4284121889
-0.010296691 0.016891785 -0.0037300223 4284055588
-0.0081440024 0.015620038 -0.0027365964 4284054824
-0.0061424635 0.015053011 -0.0024545826 4284054823
-0.0038063042 0.013079166 -0.00075700413 4283989288
-0.0016212873 0.011810113 0.00022914074 4283989288
0.00074438751 0.009838663 0.0019200174 4283988523
0.0026084483 0.0099776983 0.0014876863 4283923499
0.0046478547 0.0094139874 0.0017612856 4283792429
0.0063369237 0.010256089 0.00062315911 4283134529
-0.060979169 0.020978197 -0.0027510701 4284054313
-0.059709799 0.025378544 -0.0075172312 4284121379
-0.058111753 0.026931224 -0.0093796887 4283990819
-0.056616765 0.0291944 -0.011963166 4283926304
-0.054851357 0.029323615 -0.012374446 4283858729
-0.053085696 0.029452935 -0.012785722 4283859494
-0.051017832 0.027450616 -0.011032209 4283994133
-0.049140427 0.026870316 -0.010724388 4283925028
-0.047469381 0.027710849 -0.011858495 4283990308
-0.046020646 0.029971067 -0.014430879 4283990563
-0.044365037 0.030810609 -0.015561288 4283990563
-0.042600621 0.030940272 -0.015971951 4284057884
-0.040952537 0.03177942 -0.017100489 4284059159
-0.039071094 0.031199884 -0.016793262 4283992858
-0.036818478 0.028493805 -0.014337277 4284059414
-0.0347935 0.027207023 -0.01331833 4283990818
-0.03288487 0.026629694 -0.013017199 4284056608
-0.031100567 0.026761308 -0.013432126 4284121634
-0.028918583 0.024768364 -0.011704514 4284121378
-0.026720453 0.022776674 -0.0099805389 4284121378
-0.0245062 0.020786256 -0.0082602454 4284186913
-0.022416297 0.019504782 -0.0072560012 4283990053
-0.020315576 0.018224154 -0.0062541673 4283924263
-0.018204074 0.016944461 -0.0052548163 4283792939
-0.016081754 0.015665669 -0.0042578969 4283793448
-0.013948631 0.014387727 -0.0032633776 4283859239
-0.011958499 0.013817348 -0.0029805787 4283858218
-0.0099628679 0.013247482 -0.0026989747 4283923754
-0.0078027137 0.011971828 -0.0017105225 4283924009
-0.0057935156 0.011403162 -0.0014319276 4283924009
-0.0036144741 0.010129143 -0.00044776034 4283923499
-0.001424659 0.0088559836 0.0005340213 4283988779
0.00094560906 0.0068783015 0.0022188732 4283988778
0.0028148703 0.0070176944 0.0017853109 4283857708
0.0048592873 0.0064521022 0.0020561479 4283792684
0.0067314282 0.0065919161 0.0016220715 4283134529
-0.060770985 0.016627755 -0.00093004387 4283656258
-0.060013201 0.025324535 -0.010027732 4284055078
-0.058599878 0.028308302 -0.013330786 4283926558
-0.057022478 0.02986389 -0.015185153 4283925538
-0.055455435 0.031418823 -0.017037101 4283858218
-0.053507503 0.03012114 -0.016004039 4283858218
-0.051448274 0.028111603 -0.01425349 4283924773
-0.049475987 0.026815845 -0.013225988 4283993623
-0.047810156 0.027658135 -0.014357296 4283990308
-0.046257813 0.029212367 -0.016205542 4283990563
-0.04460476 0.030053873 -0.017333753 4284056608
-0.042729367 0.029471491 -0.017026907 4284056099
-0.041081186 0.030312803 -0.018153865 4283990309
-0.039080996 0.029019617 -0.017132549 4283924263
-0.036948312 0.027016038 -0.015398605 4284055844
-0.034799468 0.025013745 -0.013668341 4284121889
-0.032634508 0.023012761 -0.011941817 4284121889
-0.030583035 0.021723632 -0.010932148 4284122654
-0.028388459 0.019725014 -0.0092123765 4284122654
-0.026177753 0.017727625 -0.0074962471 4284122144
-0.023950916 0.01573151 -0.0057838084 4284054824
-0.021707963 0.013736717 -0.0040750951 4283923753
-0.019591812 0.012452811 -0.003080131 4283858474
-0.017464865 0.011169836 -0.0020876494 4283857964
-0.015623603 0.011306249 -0.0025153779 4283858728
-0.013631273 0.010733724 -0.0022348086 4283792939
-0.011787016 0.010870557 -0.002663081 4283858474
-0.0096301772 0.0095901415 -0.0016772174 4283857964
-0.0074625649 0.0083106607 -0.00069382787 4283857964
-0.0054457001 0.0077402964 -0.00041862577 4283923499
-0.0034233816 0.007170476 -0.00014465861 4283923499
-0.0013956167 0.0066011772 0.0001281295 4283989033
0.00097661093 0.0046169981 0.0018076571 4283988779
0.0030205771 0.0040491037 0.0020768372 4283857964
0.0050699711 0.0034816936 0.002344816 4283922989
0.0067698285 0.0043289587 0.0012074299 4282938944
-0.060054708 0.023131758 -0.010367235 4284054058
-0.058907051 0.028271753 -0.015827227 4284057373
-0.057242338 0.029115755 -0.016956937 4283994134
-0.055677649 0.030674851 -0.018805113 4283926303
-0.053830456 0.030087726 -0.018493686 4283926303
-0.05197772 0.029501025 -0.018183457 4283993368
-0.049913611 0.027485285 -0.016438918 4284057118
-0.048044499 0.026899982 -0.016132439 4284055588
-0.04638629 0.027743932 -0.017260313 4284056353
-0.044400517 0.026444979 -0.016239069 4284121889
-0.042630989 0.026574928 -0.01665099 4284121889
-0.040628847 0.025277369 -0.015633486 4284055333
-0.038615901 0.023980677 -0.014618445 4284055333
-0.036470603 0.021971423 -0.012892341 4284121124
-0.034185033 0.019250203 -0.010457085 4284121379
-0.032131631 0.017956741 -0.0094512664 4284120868
-0.030067381 0.016664144 -0.0084478492 4283989544
-0.027992349 0.01537244 -0.007446941 4284054824
-0.02590647 0.014081612 -0.0064484263 4284055333
-0.023672361 0.012079462 -0.0047426359 4284054824
-0.021282051 0.0093665048 -0.0023313374 4283989544
-0.019155789 0.0080789216 -0.0013420149 4283923753
-0.017309498 0.0082155839 -0.0017710007 4283923499
-0.015463028 0.0083523616 -0.0021999567 4283923499
-0.013616402 0.00848924 -0.0026288792 4283858474
-0.011769619 0.0086262189 -0.0030577737 4283858219
-0.0099226795 0.008763317 -0.0034866272 4283792173
-0.0074408762 0.0060578063 -0.0010960829 4283792173
-0.005421672 0.0054854527 -0.00082310848 4283857453
-0.0033970214 0.0049135834 -0.00055133086 4283858219
-0.001366917 0.0043422356 -0.00028074346 4284054314
0.0011765584 0.0016417168 0.0020957896 4283988268
0.0032255165 0.0010719672 0.0023621507 4284053294
0.0054545477 -0.00020679086 0.0033285059 4284118064
0.0073397383 -6.6027045e-05 0.002891385 4283985718
-0.059749212 0.018062174 -0.0078300443 4283789114
-0.059034418 0.026808374 -0.01687856 4284055078
-0.057553846 0.029090097 -0.019444101 4284056609
-0.056088943 0.031370729 -0.022005953 4283992349
-0.054249991 0.030780714 -0.02169423 4284056864
-0.052305419 0.029474039 -0.020666964 4284056099
-0.050041828 0.026017215 -0.017493498 4284121379
-0.048067611 0.024712827 -0.016472973 4284121634
-0.046082567 0.023409337 -0.015454965 4284055843
-0.044197354 0.022823129 -0.015153781 4284055843
-0.042079944 0.020804945 -0.013426301 4284056864
-0.039946396 0.018788036 -0.011702513 4284056863
-0.037915353 0.017488245 -0.010694974 4284055843
-0.035752166 0.015473682 -0.0089779543 4284121379
-0.033696812 0.014175855 -0.0079759462 4284120868
-0.031883847 0.014309384 -0.0083976919 4284055334
-0.029812131 0.013012901 -0.0073993057 4284054569
-0.027861532 0.01243218 -0.0071128318 4284054823
-0.025905434 0.011851959 -0.0068275677 4284054823
-0.023806591 0.010557797 -0.0058353306 4284054569
-0.021417189 0.0078359619 -0.0034303707 4283989033
-0.019148897 0.0058298633 -0.0017372714 4283989289
-0.01744524 0.0066805482 -0.0028732028 4283923754
-0.015451048 0.0061036237 -0.0025964351 4283924009
-0.013601888 0.0062406473 -0.0030259816 4283924009
-0.011599381 0.0056645349 -0.0027509956 4283923499
-0.0095914342 0.0050889105 -0.0024772175 4283857708
-0.0074195303 0.003800869 -0.0015013535 4283727149
-0.0050757118 0.0018011034 0.00017468072 4283792428
-0.003043402 0.0012275577 0.00044307951 4283857708
-0.00083918497 -5.7727098e-05 0.0014116382 4284119338
0.0015449002 -0.0020542294 0.0030785967 4284183598
0.0039450414 -0.0040493906 0.0047418624 4284118319
0.0063612722 -0.0060432926 0.006401523 4284249898
0.050900698 -0.017189302 0.010891027 4284247858
0.054719158 -0.022699386 0.015927557 4283527993
-0.05918565 0.010809656 -0.0031535169 4283656513
-0.058804575 0.022464532 -0.015058851 4284054569
-0.057680655 0.027633514 -0.020490546 4284055334
-0.056026097 0.02848113 -0.021614648 4283990309
-0.054182116 0.027889289 -0.021305803 4284055844
-0.052132849 0.025859091 -0.019567672 4284121633
-0.049964886 0.023110978 -0.017118614 4284187169
-0.047775496 0.020364534 -0.014674546 4284121888
-0.045780305 0.019057326 -0.01366214 4284056098
-0.043663803 0.017032374 -0.011939434 4283924773
-0.041757453 0.016445566 -0.011644769 4283858728
-0.039498162 0.013704546 -0.0092166793 4283924774
-0.037335906 0.011683241 -0.0075044879 4283989798
-0.0352786 0.010381002 -0.0065062414 4283989288
-0.033457968 0.010514971 -0.0069298572 4283989288
-0.031637143 0.010649048 -0.0073534506 4283989289
-0.029687051 0.010065977 -0.0070685791 4283924009
-0.027731452 0.0094833896 -0.0067849332 4283989033
-0.025904711 0.0096181706 -0.0072097019 4283989033
-0.023803722 0.0083196834 -0.0062212143 4283923753
-0.02169193 0.0070221499 -0.0052352073 4283923753
-0.019426983 0.005009193 -0.0035462398 4283988779
-0.01758093 0.0051457807 -0.0039752182 4283989034
-0.015291732 0.0031348541 -0.0022917856 4284054314
-0.013437387 0.0032722391 -0.002722552 4284054314
-0.011276919 0.001978755 -0.001747448 4284054313
-0.0092612989 0.0014014766 -0.0014770967 4284053804
-0.0069236644 -0.00060549751 0.00019542687 4284053804
-0.0047308616 -0.0018962473 0.0011632042 4284313394
0.045944169 -0.016268916 0.0078845443 4284316454
0.048343237 -0.017541505 0.0088066133 4282548794
0.050982997 -0.019522853 0.010411364 4281959743
0.055500582 -0.027178891 0.017487898 4281763393
-0.058487106 0.017380908 -0.012535539 4283657534
-0.057440426 0.023288433 -0.018674742 4284054568
-0.05568077 0.023417007 -0.019084848 4284120614
-0.053629745 0.021380246 -0.0173521 4284055078
-0.051462907 0.018623196 -0.014909437 4284054569
-0.049274605 0.01586774 -0.01247168 4283922733
-0.047274832 0.014556359 -0.011463694 4284054569
-0.045371886 0.013966903 -0.011170023 4284054823
-0.043463398 0.013377935 -0.010877582 4283923499
-0.041323472 0.011348169 -0.0091651799 4283923753
-0.039398622 0.010760572 -0.0088764234 4283989544
-0.03734998 0.0094531812 -0.0078795161 4283923753
-0.035290528 0.0081467293 -0.0068850974 4283923753
-0.033467356 0.0082808472 -0.0073093297 4283923754
-0.031517778 0.0076954179 -0.0070260679 4283923499
-0.029562663 0.0071104877 -0.0067440206 4283923243
-0.02747054 0.0058067441 -0.0057568997 4283923753
-0.025501769 0.005223006 -0.0054778932 4283923499
-0.023527507 0.0046397671 -0.005200089 4283988779
-0.021547746 0.0040570237 -0.004923502 4283923499
-0.019420344 0.002756279 -0.0039442936 4283792173
-0.017426934 0.0021747425 -0.0036707232 4284054059
-0.015133139 0.00015750527 -0.0019932338 4284119338
-0.012973364 -0.0011405051 -0.0010213712 4284184619
-0.010802787 -0.0024376623 -5.189795e-05 4284249644
-0.0087768771 -0.0030163936 0.00021441001 4284576809
0.041470774 -0.016752325 0.006253181 4283528758
0.043853372 -0.018030725 0.0071755955 4282811189
0.046246599 -0.019308232 0.0080956882 4282286653
0.04865044 -0.020584799 0.0090133594 4281893953
0.051294778 -0.022572376 0.010612161 4281501509
0.056280419 -0.031675749 0.01903579 4281370694
-0.057815883 0.0093771257 -0.007169703 4283524679
-0.056835469 0.016028367 -0.014015723 4283791408
-0.055054706 0.016158435 -0.014430784 4283990053
-0.053079989 0.014840603 -0.013420469 4284054823
-0.051094454 0.01352359 -0.012412583 4283989289
-0.049302373 0.013654713 -0.012830112 4283922734
-0.047195639 0.011615697 -0.011115129 4283922734
-0.04528768 0.011024367 -0.010824287 4283988779
-0.043264065 0.0097104721 -0.009825021 4283923499
-0.041342396 0.0091203228 -0.0095372451 4283923754
-0.039415192 0.0085306615 -0.0092506995 4283923499
-0.037482452 0.0079414658 -0.0089653209 4283923754
-0.035544198 0.0073527955 -0.0086812079 4283923754
-0.033600438 0.0067646131 -0.0083983177 4283858219
-0.031525131 0.0054550804 -0.0074107433 4283923499
-0.029439006 0.0041463822 -0.00642558 4283923243
-0.02734207 0.0028386265 -0.0054428997 4283922733
-0.025234308 0.0015317239 -0.0044626263 4283923244
-0.023252387 0.00094683468 -0.0041882521 4283923244
-0.021125678 -0.00035844743 -0.0032122885 4283922989
-0.019130107 -0.00094218552 -0.0029409067 4283988014
-0.016984466 -0.0022458658 -0.0019691926 4284379438
0.032944921 -0.016800374 0.0048312414 4283071799
0.035086662 -0.01737038 0.0050708242 4282417469
0.037020002 -0.017224506 0.0046236701 4281698113
0.039386109 -0.018508762 0.0055464692 4281632324
0.041324779 -0.018362261 0.0050982442 4281435973
0.043928545 -0.020359844 0.006701271 4281566279
0.046323884 -0.02164153 0.0076175788 4281566278
0.048729852 -0.022922345 0.008531549 4281501508
0.051376097 -0.024916314 0.01012498 4281828164
0.056593977 -0.034762107 0.019208685 4281762628
-0.05741417 0.0035142861 -0.0039711385 4283328074
-0.05641621 0.010186497 -0.01080661 4283724598
-0.05471364 0.01104407 -0.011937106 4283791408
-0.052726183 0.0097227469 -0.010933056 4283857709
-0.05092648 0.0098542981 -0.011352456 4283988779
-0.049126539 0.0099859573 -0.011771844 4283988778
-0.047221739 0.0093920939 -0.011481974 4283988778
-0.045204174 0.0080732331 -0.010484666 4283988779
-0.043395568 0.0082057789 -0.010905884 4283923499
-0.041474182 0.007613387 -0.010619693 4283923244
-0.039547298 0.0070214681 -0.010334733 4283923244
-0.03737912 0.0049807243 -0.0086386176 4283988779
-0.035556387 0.0051146448 -0.0090628704 4283988779
-0.033610273 0.0045244098 -0.0087821828 4284054059
-0.031658653 0.0039346777 -0.008502706 4283988524
-0.029444534 0.0018976778 -0.0068170065 4283857964
-0.027083162 -0.00086173043 -0.0044319234 4283857708
-0.024834152 -0.0028959885 -0.0027542119 4284052783
-0.022569034 -0.0049289018 -0.0010802066 4284117553
-0.020566013 -0.0055143759 -0.00081233401 4284248113
0.026408013 -0.01668366 0.0029602889 4283134529
0.028736237 -0.017975733 0.0038881581 4282677824
0.031075157 -0.019266926 0.004813686 4282416703
0.033424728 -0.020557158 0.0057367906 4281698369
0.035152372 -0.019693293 0.004603764 4281437248
0.037301749 -0.020264767 0.0048399866 4281240644
0.039456457 -0.020835698 0.0050750785 4281240133
0.041835334 -0.0221233 0.0059917932 4281239368
0.04400333 -0.022693016 0.0062239757 4281370183
0.046176631 -0.02326221 0.0064550145 4281435973
0.048808876 -0.025263958 0.0080467565 4281632069
0.051915996 -0.028697036 0.010995454 4281566279
0.057138897 -0.038573153 0.020055182 4281501254
-0.056363832 0.0072336309 -0.010459405 4283724343
-0.054749701 0.0088223405 -0.012299703 4283857199
-0.052856531 0.008225143 -0.012008975 4283857709
-0.051156025 0.0090848729 -0.013137277 4283988269
-0.049358834 0.0092163011 -0.013556048 4283988779
-0.047248159 0.007164292 -0.011851776 4283923754
-0.045228425 0.0058412217 -0.010858298 4283923499
-0.043307569 0.0052464679 -0.010573712 4283923499
-0.041493554 0.0053794496 -0.01099616 4283923499
-0.039449256 0.0040583983 -0.010008162 4283923244
-0.037276488 0.0020114183 -0.0083180787 4283858219
-0.035328228 0.001418978 -0.0080395658 4283923499
-0.033497434 0.0015535578 -0.0084656514 4284054568
-0.031540815 0.00096195936 -0.0081889927 4284119848
-0.029450383 -0.00035519898 -0.007211437 4284054058
-0.027087253 -0.0031232722 -0.0048333011 4284184363
-0.024702702 -0.0058896691 -0.0024600765 4284705584
0.023749851 -0.016261257 0.00020183995 4283987758
0.026264254 -0.018279657 0.0018150713 4281632324
0.028794624 -0.0202967 0.0034246482 4281370693
0.03113566 -0.021592125 0.0043464173 4281305414
0.033279344 -0.022166438 0.0045821657 4281175109
0.035007048 -0.021300375 0.0034507532 4281240389
0.036942765 -0.021154322 0.0030030478 4281109064
0.039526433 -0.023166768 0.0046007289 4281304903
0.041907419 -0.02445858 0.0055137044 4281370184
0.044077735 -0.025030315 0.0057437131 4281566024
0.046477322 -0.02632048 0.0066525647 4281631303
0.048887514 -0.027609698 0.0075590042 4281696328
0.052454703 -0.032490715 0.011856654 4281631813
-0.056403141 0.0050031357 -0.010827506 4283921713
-0.05478606 0.0065964684 -0.012665293 4283989033
-0.052794244 0.0052665547 -0.011668796 4283989288
-0.05098943 0.0053984113 -0.012089435 4283923499
-0.048981253 0.0040699169 -0.011096669 4283989034
-0.047066454 0.0034723245 -0.010812451 4284054569
-0.045146111 0.0028751679 -0.010529424 4284055078
-0.043220248 0.0022785626 -0.010247655 4283989544
-0.04140104 0.0024118908 -0.010671338 4284054823
-0.039351966 0.0010868162 -0.009687786 4284185893
-0.037409525 0.00049168244 -0.0094096782 4284447014
-0.035461571 -0.00010299683 -0.0091327466 4284708644
0.024395544 -0.02074293 0.001799576 4283530289
0.026520167 -0.021321237 0.0020378269 4282025533
0.028650157 -0.021899015 0.0022749305 4281370949
0.031195795 -0.023921423 0.0038762083 4281109064
0.033341795 -0.024497762 0.0041097803 4281108808
0.035072215 -0.0236293 0.0029793782 4281174344
0.03722357 -0.024204992 0.0032118922 4281174344
0.03959604 -0.025501966 0.0041234782 4281369928
0.042416021 -0.02824109 0.0063918447 4281565513
0.045036163 -0.030257098 0.0079763932 4281631049
0.048119765 -0.033714123 0.010914049 4281696073
0.051229931 -0.037168995 0.013845681 4281891913
0.054824818 -0.042063259 0.018125515 4281696073
-0.056442749 0.0027685538 -0.011198634 4283986993
-0.054916169 0.0050994456 -0.013740851 4284054058
-0.053020921 0.0044979453 -0.013453913 4283988778
-0.051021408 0.0031642653 -0.012462437 4283923498
-0.049112428 0.0025639534 -0.012178564 4284054824
-0.047197934 0.001964096 -0.011895948 4284185639
-0.04527789 0.0013647042 -0.011614497 4284185893
-0.043242987 3.400445e-05 -0.010631047 4284186148
-0.041421238 0.00016748533 -0.011055348 4284643363
-0.039369997 -0.001161851 -0.01007558 4284708133
0.024054814 -0.021615148 -2.9725954e-05 4283073073
0.026575703 -0.023646161 0.0015721871 4281567554
0.028708015 -0.024226032 0.0018071486 4281370694
0.031050617 -0.025530063 0.0027220016 4281108809
0.032988667 -0.025384076 0.0022735735 4281108808
0.035347268 -0.026686668 0.003184895 4281435463
0.037929449 -0.028712533 0.0047730962 4281435973
0.040958747 -0.032184951 0.0077149151 4281566279
0.044451118 -0.037102811 0.012006666 4281631558
0.047759801 -0.041294113 0.015612521 4281761353
0.051100366 -0.045482896 0.019211084 4281694289
0.054246604 -0.048945993 0.022126231 4281693269
-0.0563921 -0.00020559505 -0.010866759 4283721793
-0.054952968 0.0028674565 -0.014110855 4283988778
-0.053055357 0.0022638552 -0.013826089 4283923499
-0.051053684 0.00092598051 -0.012838427 4283989544
-0.049142357 0.00032358989 -0.012556775 4283988778
-0.047329325 0.00045615062 -0.01297926 4284512295
0.024304841 -0.024665311 0.00018834602 4282877999
0.026630878 -0.02597528 0.0011036145 4281436738
0.028967593 -0.02728425 0.0020164875 4281239369
0.031110216 -0.027865358 0.0022474779 4281108808
0.033258185 -0.028445944 0.0024773376 4281108299
0.035621569 -0.029752605 0.0033843378 4281434699
0.039271936 -0.035416514 0.0083548157 4281434698
0.043610983 -0.043255553 0.015346595 4281630283
0.047572441 -0.049638152 0.020972136 4281890639
-0.056432527 -0.0024507344 -0.011245425 4284443188
-0.05508313 0.0013687648 -0.01518764 4284512039
0.024160963 -0.026264466 -0.00095919054 4282746674
0.026685689 -0.028308421 0.00063207839 4281435463
0.028822619 -0.028892271 0.00086267758 4281042763
0.031169446 -0.030204758 0.0017700223 4280912204
0.032905325 -0.029329427 0.00064315181 4280911184
0.035895094 -0.032827012 0.0035776291 4280777309
-0.012880784 -0.019414634 -0.0044034142 4283461948
-0.011297982 -0.017804347 -0.0062187463 4282808129
-0.0095717646 -0.016929917 -0.0073435083 4283987503
0.021896567 -0.027275816 -0.0023390902 4284246838
0.024213489 -0.028595291 -0.001428348 4282153799
0.026541099 -0.02991391 -0.0005199546 4281171538
-0.019235034 -0.018444233 -0.006971037 4283461439
-0.017217983 -0.01904396 -0.0067177955 4282742849
-0.015341152 -0.018905237 -0.0071540307 4282415938
-0.013167452 -0.020241946 -0.0062148608 4281827654
-0.011285011 -0.020102605 -0.0066522453 4281697094
-0.0094024055 -0.019963138 -0.0070895888 4283857709
-0.023524057 -0.018053614 -0.0092844442 4283331898
-0.021520924 -0.01865685 -0.0090297293 4282873409
-0.019512322 -0.019259535 -0.0087762512 4282154053
-0.017355379 -0.020602033 -0.0078366511 4281893698
-0.015333179 -0.021203496 -0.0075861742 4281893189
-0.013157334 -0.022544429 -0.0066507594 4281175363
-0.011272375 -0.022404931 -0.0070887529 4281370949
-0.0092337839 -0.023004837 -0.0068418295 4281436228
-0.033713382 -0.015823595 -0.012371034 4284640304
-0.03149249 -0.017919593 -0.010731142 4284314413
-0.029508982 -0.018526867 -0.010473866 4282679355
-0.02751999 -0.019133627 -0.010217786 4282024514
-0.025657553 -0.018996552 -0.010651108 4281632578
-0.023525525 -0.020345658 -0.0097091794 4281044803
-0.021520074 -0.020950876 -0.0094566848 4281370949
-0.019509148 -0.021555617 -0.0092054028 4281566533
-0.017350066 -0.022902362 -0.0082695661 4281436228
-0.015180219 -0.024248242 -0.0073361089 4281370693
-0.012999605 -0.025593184 -0.0064051198 4281371203
-0.011260096 -0.024711356 -0.0075282035 4281502019
-0.0092191882 -0.02531331 -0.0072834725 4281959233
-0.035458829 -0.018987454 -0.011663945 4284380713
-0.033483986 -0.019597761 -0.011406442 4282746163
-0.03125586 -0.021699801 -0.0097731948 4282027063
-0.029391255 -0.021562785 -0.010207187 4281828929
-0.027526479 -0.021425672 -0.010641154 4281435973
-0.025529649 -0.022034004 -0.010388415 4281174853
-0.02339283 -0.023387104 -0.0094509078 4280914243
-0.021245245 -0.024739318 -0.0085158376 4281175619
-0.019366492 -0.024600744 -0.0089527359 4281109829
-0.017345089 -0.025206842 -0.0087053953 4281370694
-0.015173119 -0.026556917 -0.0077757398 4281436229
-0.012990374 -0.027906142 -0.0068484796 4281567299
-0.011097711 -0.027766101 -0.0072882818 4281698113
-0.0090518184 -0.028369881 -0.0070463298 4282352190
-0.044332009 -0.024953276 -0.0071552871 4284573494
-0.042574104 -0.02406738 -0.0082807047 4284247858
-0.04093172 -0.022432536 -0.010094818 4283266363
-0.039186653 -0.021547444 -0.011217078 4283004223
-0.037562426 -0.019913681 -0.01302686 4281700919
-0.03547499 -0.021275461 -0.012081541 4281504568
-0.033618871 -0.021139316 -0.012513738 4281177148
-0.031391423 -0.02324798 -0.010885217 4281176638
-0.029653307 -0.02236288 -0.012005473 4281502274
-0.027662303 -0.022973917 -0.011753153 4281371203
-0.025665794 -0.023584478 -0.01150198 4281371459
-0.023395184 -0.02568955 -0.0098831924 4281109829
-0.021519389 -0.025551341 -0.010319515 4281109829
-0.019503798 -0.026160114 -0.010072575 4281109829
-0.017482731 -0.026768446 -0.0098268101 4281174853
-0.015166353 -0.028869703 -0.0082183378 4281240644
-0.013129059 -0.029476605 -0.0079761734 4281501764
-0.011086304 -0.030082949 -0.0077352291 4281762884
-0.0090380944 -0.03068877 -0.0074954694 4282155328
-0.0072955228 -0.029802136 -0.0086158635 4284638773
-0.040184211 -0.029987827 -0.0056962604 4282871114
-0.038982403 -0.025342479 -0.010260859 4282284358
-0.037349943 -0.023703806 -0.012069273 4280980033
-0.035373267 -0.024318501 -0.011815553 4280719678
-0.033632819 -0.023431294 -0.012934904 4281175874
-0.031526949 -0.024795875 -0.011997041 4281306689
-0.029662598 -0.024658926 -0.012431012 4281371458
-0.027798068 -0.024521887 -0.012864958 4281371203
-0.025801878 -0.025134668 -0.012615344 4281371203
-0.023531999 -0.027246378 -0.011001294 4281175109
-0.021382783 -0.028607294 -0.010073087 4281174598
-0.019501638 -0.028468594 -0.010510569 4281173833
-0.017620321 -0.028329752 -0.010948007 4281109829
-0.015449408 -0.029688716 -0.010024653 4281109829
-0.0132677 -0.031046785 -0.0091036661 4281174854
-0.011225279 -0.031655349 -0.0088642845 4281303883
-0.0093300976 -0.03151504 -0.0093046082 4281563473
-0.039990034 -0.03380955 -0.004756981 4282804559
-0.039117377 -0.026889987 -0.01137255 4282022729
-0.037600022 -0.024493642 -0.013863377 4281241153
-0.035626311 -0.025110774 -0.01361061 4281045569
-0.033647109 -0.025727391 -0.013359045 4281044803
-0.031539094 -0.027096257 -0.012424911 4281240644
-0.029672224 -0.026959151 -0.012859481 4281240898
-0.027547929 -0.028326564 -0.011929016 4281304903
-0.025544118 -0.028940983 -0.01168288 4281174854
-0.023534823 -0.029554859 -0.011437927 4281109064
-0.021656636 -0.029416487 -0.011874818 4281107024
-0.019639049 -0.030029595 -0.0116316 4280845393
-0.017615993 -0.030642144 -0.011389605 4280647258
-0.039139781 -0.029192954 -0.01179939 4281892934
-0.037619326 -0.026789807 -0.014286122 4281371714
-0.03552546 -0.02816426 -0.013352144 4281306434
-0.033300314 -0.030292973 -0.011737798 4281175619
-0.031305339 -0.030910544 -0.011491477 4281305668
-0.029179078 -0.032282367 -0.010564784 4281109574
-0.027298901 -0.032144204 -0.011002392 4281108044
-0.025287446 -0.03276024 -0.010759657 4281108044
-0.023537997 -0.031867497 -0.011877488 4280845904
-0.021657284 -0.031728961 -0.012314975 4280384863
-0.038825545 -0.033773676 -0.010180118 4281891658
-0.037179049 -0.032120921 -0.011982098 4281632324
-0.034954797 -0.034256376 -0.010372508 4281567554
-0.032594178 -0.03714788 -0.0080854166 4281436738
-0.030458007 -0.038523421 -0.0071644019 4281305158
-0.028311055 -0.03989806 -0.0062458217 4281370184
-0.026538026 -0.039001636 -0.0073676892 4281172559
-0.025031898 -0.036592409 -0.0098457113 4280777563
-0.036051903 -0.042033181 -0.0056085903 4281761353
-0.033681761 -0.04493285 -0.0033302982 4281565513
-0.031170134 -0.04859034 -0.00037730578 4281761353
-0.026944507 -0.050585248 0.00076161418 4281952093
0.053334683 0.029025983 0.03687723 4279061413
0.056736555 0.030619048 0.034526408 4278730934
0.047589749 0.026315395 0.037791815 4279193503
0.049304258 0.027114924 0.036614735 4278931363
0.05008281 0.030523505 0.03253115 4278341038
0.050599378 0.034582268 0.027727462 4278929579
0.052035835 0.036030948 0.025834046 4279585694
0.05442417 0.034871899 0.026843615 4279453859
0.05876952 0.028501453 0.033646632 4278995880
0.035796534 0.029865926 0.032311499 4280700553
0.037884422 0.035400171 0.025595635 4278337213
0.043029487 0.031755995 0.029080503 4278271934
0.045171734 0.031245755 0.029364299 4278734504
0.046859723 0.032045491 0.02819499 4278669479
0.056920893 0.031462952 0.027428061 4278404024
0.031603038 0.028636001 0.031323481 4279259549
0.032887876 0.030755647 0.028693691 4278472874
0.033729561 0.034190532 0.024611522 4278274228
0.035193428 0.035649508 0.022717956 4278798764
0.036646642 0.037107781 0.020826858 4279454368
0.041987963 0.032790862 0.025034029 4278339509
0.044119269 0.032277599 0.025318719 4278406319
0.045796718 0.033078752 0.024153493 4278603433
0.047236569 0.034536347 0.022265799 4278603433
0.059432156 0.028042156 0.027999591 4278668713
0.021092668 0.028965499 0.029473767 4280242318
0.023705561 0.033220544 0.02421356 4278468284
0.028103482 0.031522028 0.025523316 4279454369
0.029586215 0.032986641 0.023628451 4278472363
0.031058341 0.034450483 0.021736126 4278406828
0.033754632 0.038036238 0.017233141 4278273209
0.035629645 0.038177714 0.016799476 4278732463
0.038168833 0.036339872 0.018539745 4278339509
0.043295152 0.032667972 0.022009462 4278602668
0.045194108 0.032811552 0.021570485 4278865319
0.046860978 0.033614226 0.020409357 4278603434
0.048522502 0.034416534 0.019249566 4278537898
0.050416023 0.034559928 0.018812008 4278865319
0.052789576 0.033386584 0.019815195 4278799784
0.05517371 0.03221415 0.020815946 4278603178
0.057323068 0.031700574 0.021095216 4278537898
0.060221761 0.029214103 0.023528792 4278865319
0.015417125 0.026284199 0.030390188 4281814649
0.01713689 0.027091812 0.029217605 4279913878
0.018275723 0.029891798 0.0258568 4278930854
0.019198775 0.033354282 0.021771766 4278995368
0.020489719 0.035487168 0.019150138 4279453604
0.022364408 0.035628088 0.018716156 4278402493
0.02504934 0.033115432 0.021191623 4278270659
0.02714001 0.032594059 0.021482039 4278537644
0.028820273 0.033399276 0.020318948 4278668969
0.03049526 0.034204125 0.019157182 4278799784
0.033397578 0.037137732 0.015388918 4278599609
0.035051309 0.037941206 0.014232238 4278271934
0.037584491 0.036096279 0.015969038 4278403513
0.040133636 0.034252666 0.017702147 4278340274
0.042245731 0.033733509 0.01798806 4278799784
0.044363119 0.033214882 0.018272765 4278668969
0.046253964 0.033357933 0.017835718 4278800038
0.048379283 0.032840047 0.018118694 4278603689
0.050747067 0.031661794 0.019119892 4278668968
0.053125441 0.030484466 0.020118657 4278668969
0.054786928 0.031289212 0.018960692 4278472108
0.061492402 0.029082859 0.020508524 4278271423
0.0065854229 0.028128821 0.02662693 4282405738
0.0077643767 0.030940218 0.023263074 4279519393
0.0098274089 0.030413911 0.023557689 4279781789
0.011528458 0.031222152 0.02239095 4279389854
0.013037909 0.03269691 0.020496022 4278668969
0.01491487 0.032837681 0.020061277 4278275758
0.018085945 0.035118215 0.017009027 4278993584
0.019561108 0.036590707 0.015122267 4279650719
0.021425053 0.036730804 0.01469076 4278994858
0.024300802 0.033542782 0.01788814 4278273974
0.028470919 0.032494932 0.01846825 4278537643
0.029933009 0.033966817 0.016584795 4278734503
0.030958466 0.036767684 0.013257229 4278538154
0.032609634 0.037573092 0.012102717 4278669224
0.034692135 0.037049316 0.012393619 4278603689
0.037000958 0.035861798 0.013404797 4278799273
0.039320447 0.034675114 0.014413607 4278995879
0.040971611 0.035480842 0.013259332 4279061159
0.043075398 0.034958981 0.013545544 4278864809
0.045647755 0.033110753 0.015268556 4278996134
0.048236072 0.031263769 0.016987979 4278800294
0.05060336 0.030081091 0.017986029 4278407083
0.052501984 0.030224975 0.017547373 4278341548
0.054584332 0.035149924 0.011658822 4278929833
0.056464124 0.035292611 0.011224684 4278996643
0.0026598386 0.026270162 0.02637326 4280045713
0.0033419468 0.031101948 0.020817924 4278602924
0.010837328 0.031662956 0.01908097 4278929834
0.012152914 0.033810601 0.016463164 4278472363
0.014019132 0.033950552 0.016030896 4278668968
0.0258324 0.032789007 0.015608828 4278799273
0.027914517 0.032262683 0.015897952 4278799784
0.029791858 0.032404102 0.015463573 4278668968
0.031030821 0.034546778 0.012864088 4278538154
0.032900222 0.03468775 0.012431663 4278537898
0.034769632 0.034828797 0.011999293 4278603434
0.037080634 0.033636998 0.013006735 4278668203
0.042018466 0.036059633 0.0095523996 4278271168
0.047624666 0.031018598 0.014423878 4278339509
0.049749352 0.030496368 0.014703807 4278407083
0.051161021 0.031969756 0.012835882 4278472874
0.055826634 0.035056543 0.0086748423 4278537389
0.058201082 0.033870451 0.0096682226 4278537644
0.061597079 0.030029105 0.013509152 4278406574
-0.0019235052 0.027103703 0.023194961 4281294703
-0.00087908283 0.030607462 0.019105732 4278866594
0.0019936934 0.03424792 0.014592693 4278930343
0.003497988 0.035730742 0.012705241 4279651738
0.0053477362 0.035869125 0.012276541 4279126949
0.0079202019 0.033320896 0.014757958 4279060904
0.0099641085 0.032788783 0.01505375 4278733229
0.012013458 0.032257162 0.01534835 4278406573
0.013502307 0.033739209 0.013464761 4278865319
0.015171878 0.034549721 0.012308682 4278930343
0.016836211 0.035359882 0.011153919 4278602669
0.018495295 0.03616973 0.010000437 4278733229
0.020547684 0.035638727 0.010294619 4278799020
0.022605453 0.035108201 0.010587613 4278602668
0.025077827 0.033238396 0.012323392 4278864808
0.027151663 0.032709252 0.012612793 4279061669
0.029230855 0.032180585 0.012901007 4278603688
0.030890198 0.032990925 0.011747816 4278669224
0.032759503 0.033131883 0.011315406 4278407083
0.034628816 0.033272933 0.010883064 4278275758
0.036498141 0.033414055 0.010450774 4278471344
0.037920956 0.034892179 0.008583243 4278733229
0.039333098 0.036369618 0.0067181969 4278340784
0.041648898 0.03517402 0.0077214343 4278274229
0.048659995 0.031592615 0.010716709 4278734248
0.049822096 0.033736885 0.0081404978 4278472874
0.051210068 0.035212934 0.0062814392 4278341293
0.063858755 0.027263166 0.013360494 4278341294
-0.0016865991 0.031751782 0.01507338 4278933403
-0.00033876672 0.033914499 0.012457584 4278341804
0.0094587654 0.032585211 0.01249002 4278471854
0.011502497 0.032050893 0.012784303 4278734249
0.01317475 0.032863721 0.011629173 4278341293
0.014841773 0.033676177 0.01047535 4278472363
0.016503546 0.034488335 0.0093228081 4278603178
0.018356491 0.03462749 0.0088937609 4278668713
0.020209495 0.034766741 0.0084647657 4278734504
0.022062551 0.034906063 0.0080358135 4278537643
0.02391566 0.035045475 0.0076069096 4278340018
0.030324809 0.032778267 0.0091946581 4278864809
0.032188691 0.032918811 0.0087635005 4278407083
0.03383486 0.033730526 0.0076151183 4278603689
0.035475694 0.034541957 0.0064679803 4278274739
0.038741391 0.03616377 0.0041776672 4278602924
0.041051354 0.034963392 0.0051789535 4278865573
0.043834031 0.032423697 0.0076063061 4278865319
0.048044994 0.031367436 0.0081685027 4278799784
0.0494413 0.0328485 0.0063107023 4278668969
0.050826918 0.034328781 0.0044554658 4278668969
0.052201811 0.035808384 0.002602729 4278538408
0.054307047 0.035280578 0.0028841775 4278538664
0.056916866 0.033415981 0.0045842528 4279127968
0.059794921 0.030884175 0.0069900611 4279259294
0.062949181 0.027685808 0.010099712 4278800549
0.068448916 0.018477004 0.019575983 4278472873
-0.0023255236 0.032236949 0.011781375 4280574073
-0.001154799 0.035082601 0.008445357 4278997153
0.00068386272 0.035219945 0.0080190646 4278471599
0.0087713525 0.033066593 0.0092091421 4279127459
0.010806795 0.032529481 0.0095036523 4278930853
0.012659404 0.032668352 0.0090744896 4278472363
0.014702998 0.032132007 0.0093672285 4278603433
0.016558439 0.032271266 0.0089375386 4278537898
0.018413942 0.032410592 0.008507886 4278406828
0.020070624 0.033224721 0.0073582744 4278406319
0.021722034 0.034038529 0.0062099388 4278733483
0.031618685 0.032714881 0.0062180879 4278341293
0.033042111 0.034201697 0.0043568416 4278472618
0.040226467 0.035434298 0.0019297944 4278339764
0.047666948 0.03047953 0.0063381921 4278734504
0.049777396 0.029949697 0.0066166343 4278735014
0.051168628 0.031434864 0.0047633415 4278800549
0.053281605 0.030905427 0.005041277 4278931873
0.055399857 0.030376434 0.0053181015 4278669988
0.058271751 0.027835341 0.0077186981 4278538664
0.061164878 0.025295906 0.010114498 4278538664
0.064079203 0.02275816 0.012505467 4278670244
0.069331855 0.014189631 0.021249987 4278604709
-0.0014609434 0.034231309 0.0066216784 4278933913
0.0005470328 0.033689503 0.0069205938 4278407848
0.0023857169 0.033826903 0.0064943414 4278603689
0.0044019185 0.033285886 0.006791479 4278603433
0.0060634352 0.034101978 0.0056419373 4278865319
0.0080851689 0.033561531 0.0059379106 4278669224
0.0097415671 0.034377407 0.0047896793 4278602414
0.011956848 0.03315983 0.0058053918 4278667949
0.013992161 0.032620654 0.0060984073 4278734248
0.016226243 0.031404618 0.0071099373 4278472363
0.017686926 0.032897994 0.0052427882 4278537898
0.019137032 0.034390628 0.0033782003 4278602669
0.020777892 0.035205826 0.0022339327 4278471089
0.022413481 0.036020726 0.0010909559 4279389854
0.024250455 0.036158994 0.00066583883 4278276014
0.026506133 0.034945123 0.0016726982 4278602159
0.028984495 0.033056192 0.0033925362 4278733229
0.031049522 0.032520007 0.0036792373 4278733738
0.032685239 0.033335328 0.0025365381 4278603178
0.034095638 0.034825686 0.00068159215 4278472363
0.035718042 0.035640176 -0.00045789871 4278537134
0.042628951 0.032011159 0.0025307704 4278734503
0.045420431 0.029454635 0.0049430802 4278996643
0.047761258 0.028248003 0.0059309229 4279062433
0.049874052 0.027716203 0.0062071569 4278997154
0.051992115 0.027184879 0.0064822277 4278800548
0.054359384 0.025980555 0.0074641118 4278735014
0.056737252 0.024777081 0.0084436601 4278342314
0.059374955 0.022901401 0.010127558 4278277034
0.062280461 0.020354155 0.012513923 4278408103
0.065207191 0.017808583 0.014895511 4278539429
0.070470415 0.0092122927 0.023616351 4278801058
-0.0017666407 0.033384711 0.004801291 4280705908
0.00041025504 0.03215931 0.0058222935 4278867869
0.0024233758 0.031615749 0.006118427 4278538664
0.0044419356 0.031072687 0.006413362 4278537643
0.005926352 0.032571685 0.004543649 4278537134
0.0090487301 0.03488747 0.0015316047 4278270914
0.01144338 0.032984879 0.0032653473 4278402238
0.015701316 0.031222211 0.0045675682 4278668968
0.016961154 0.033398893 0.0019874396 4278537898
0.018006578 0.036253631 -0.00130582 4278602924
0.023906052 0.035309259 -0.0011457605 4278537389
0.025740296 0.035447408 -0.0015701838 4278274484
0.030910095 0.030978385 0.0025731977 4278864808
0.032545913 0.031795915 0.0014321124 4278734504
0.034176394 0.032613181 0.00029228628 4278603434
0.036024008 0.032752752 -0.00013491698 4278799783
0.038096733 0.03221526 0.00014866982 4278996643
0.040402524 0.03100137 0.0011411123 4279193504
0.042949386 0.029111613 0.002840654 4278866338
0.046211481 0.025193598 0.0066630682 4278800549
0.055435158 0.021033742 0.0098712826 4278276524
0.057825811 0.019826896 0.010844578 4278604199
0.060227036 0.018620931 0.011815487 4278277289
0.063142292 0.016065631 0.014193135 4278473894
0.066078752 0.013512012 0.016565945 4278867104
0.071349889 0.004887756 0.025263716 4279128988
0.0021120124 0.030766683 0.0042979037 4278669989
0.003950607 0.030904114 0.003871697 4278472363
0.0050706752 0.033772632 0.00056723412 4278471599
0.0067165233 0.034591988 -0.00057537854 4278340019
0.0085421242 0.034728687 -0.00099839177 4278669223
0.014984269 0.031730622 0.0013152985 4278537388
0.016040973 0.034594901 -0.001974111 4278603434
0.017473042 0.036094956 -0.0038279942 4278734248
0.019497357 0.03555087 -0.0035354719 4278471854
0.028283078 0.031338368 -0.00024060719 4278406574
0.030770702 0.029437019 0.0014673416 4278996643
