# .PCD v0.7 - Point Cloud Data file format
VERSION 0.7
FIELDS x y z rgba
SIZE 4 4 4 4
TYPE F F F U
COUNT 1 1 1 1
WIDTH 978
HEIGHT 1
VIEWPOINT 0 0 0 1 0 0 0
POINTS 978
DATA ascii
-0.0023280792 0.016403345 0.011573832 4283926304
-0.00029236451 0.015858371 0.011854185 4283925029
0.0013626628 0.016685033 0.010706438 4283990564
0.0026210658 0.018882006 0.0081344787 4283926049
0.0040619262 0.020392762 0.0062784278 4283861789
0.0056932382 0.02121784 0.0051364964 4283661868
0.0081339777 0.019303687 0.0068395277 4283661359
0.011003401 0.016021824 0.0099594258 4283662378
0.014526442 0.010689121 0.015202143 4283597354
0.019785287 -0.00011311471 0.026107226 4283728424
-0.014395289 0.01747359 0.009487519 4284054313
-0.013260894 0.020369407 0.0061919447 4283990563
-0.011793885 0.021885835 0.0043324954 4283993368
-0.0099782981 0.022024002 0.0039054961 4283993368
-0.0077982023 0.020785118 0.0049071992 4283928343
-0.0050528087 0.01748207 0.0080474885 4283928089
-0.0026557632 0.015557498 0.0097554186 4283990818
-0.00081320107 0.01569806 0.0093223304 4284056354
0.00045094267 0.017901953 0.0067538694 4284056609
0.0016992018 0.020104758 0.0041891579 4283925539
0.0035260394 0.020244395 0.003759969 4283930894
0.0051521175 0.021071248 0.002620894 4283600414
0.0073833503 0.019837014 0.0036110645 4283795744
0.0098314025 0.01791691 0.0053075138 4283862298
0.013339411 0.012565505 0.010540648 4283862554
0.019004494 0.0003542155 0.022838257 4283862808
-0.015047848 0.018025804 0.0062446012 4284120869
-0.013920732 0.020929856 0.0029572356 4284056099
-0.012108035 0.021067692 0.0025308325 4283925029
-0.010115877 0.020514658 0.0028178063 4283924774
-0.0079362951 0.01927132 0.0038163336 4283925284
-0.0055613294 0.017338373 0.0055244514 4283991074
-0.0031703115 0.015406687 0.0072289016 4284056354
-0.0013331808 0.015546817 0.0067970799 4284056609
0.00011876598 0.017066995 0.0049448265 4284056609
0.001560159 0.018586425 0.003095177 4283991073
0.0029909872 0.020105122 0.0012480635 4283925538
0.0046118349 0.020933811 0.00011181226 4283861023
0.0068372451 0.01969469 0.0011001066 4283861024
0.0092792436 0.017767573 0.0027930057 4283926559
0.012988783 0.011709318 0.00872113 4283991073
0.018647451 -0.00054200366 0.020990778 4283991073
-0.015356816 0.017203951 0.0044386531 4284121123
-0.014057852 0.01942303 0.0018712932 4283925028
-0.012421735 0.020254212 0.00073252083 4283860768
-0.010432549 0.019698726 0.0010185323 4283861023
-0.0082561411 0.018450787 0.0020144724 4283991584
-0.0060690008 0.017203694 0.0030079829 4283991329
-0.0038711317 0.015957564 0.0039990074 4284056608
-0.0020420849 0.016097071 0.0035690772 4284056353
-0.00059781224 0.017620992 0.0017219412 4284056354
0.0010309853 0.018452244 0.00058536022 4283991328
0.0026545227 0.019283228 -0.00054996053 4283925538
0.0044732168 0.019422304 -0.00097718893 4283859493
0.0064950436 0.018870087 -0.0006981903 4283858983
0.0089336708 0.016936135 0.00099058333 4283924518
0.012430228 0.011548713 0.0062001483 4284056354
0.018712919 -0.0028150231 0.020555172 4284056608
-0.016304731 0.011375427 0.0080524478 4283656003
-0.015836313 0.017082801 0.0019239848 4283989543
-0.014715776 0.020003866 -0.0013487437 4283929109
-0.012911268 0.02014102 -0.0017732638 4283864339
-0.010748766 0.018887477 -0.00077737577 4283665694
-0.0083939433 0.016939698 0.00092554116 4283732249
-0.0062073059 0.01568817 0.0019158879 4283859238
-0.0043837763 0.015827149 0.0014871769 4284056609
-0.0023705959 0.015271645 0.0017661671 4284056354
-0.00092868879 0.016799754 -7.7148317e-05 4283991073
0.00069753081 0.017633041 -0.0012115322 4283925538
0.0023185126 0.018465973 -0.0023445757 4283860769
0.0041344389 0.01860483 -0.0027711587 4283862298
0.0063561499 0.017356627 -0.0017885726 4283926814
0.0089995749 0.014722671 0.00059935823 4283990819
0.012705225 0.0086246058 0.0064988681 4283924773
0.019832239 -0.0085569881 0.023629982 4283990563
-0.017115757 0.012642942 0.0041082003 4283722048
-0.016485699 0.017668955 -0.0012945684 4283991074
-0.015199028 0.019900182 -0.0038491872 4283860259
-0.01375211 0.021432536 -0.0056908689 4283792428
-0.011422008 0.019476138 -0.0039870935 4283794724
-0.0090758651 0.017521055 -0.00228702 4283929108
-0.0065296218 0.0148701 0.00011666445 4283925539
-0.0047088601 0.015008848 -0.00031140959 4283990819
-0.0030773953 0.01584452 -0.0014455467 4283990563
-0.0016431808 0.017376417 -0.0032837833 4283925793
-2.482906e-05 0.018211236 -0.0044146478 4283925794
0.0017855987 0.018349564 -0.0048400201 4283864849
0.0037960894 0.017792037 -0.0045617591 4283797019
0.006014619 0.016539235 -0.0035817537 4283730974
0.0088597871 0.013200611 -0.00049718766 4283995664
0.012979463 0.0056919046 0.0067914622 4283928088
0.020738492 -0.013629995 0.025984779 4283928088
0.032699075 -0.046144616 0.058451869 4283795999
-0.018596746 0.016730867 -0.0026610745 4283989033
-0.017304383 0.018968981 -0.005212205 4284125459
-0.015854642 0.020505827 -0.0070513585 4283860514
-0.01423952 0.02134192 -0.0081803296 4283858474
-0.012272529 0.020778101 -0.0078940596 4283858728
-0.010118924 0.019515159 -0.0069025955 4283992094
-0.0075869001 0.016854372 -0.0045021828 4283993113
-0.0057795495 0.016992079 -0.0049271211 4283991073
-0.0037829317 0.01643086 -0.0046474859 4283990563
-0.0021645911 0.017267801 -0.0057768417 4283860258
-0.00074595958 0.018802986 -0.0076080719 4283796763
0.00085924193 0.019639069 -0.0087341517 4283663144
0.0028587878 0.019078491 -0.0084549719 4283726639
0.0054710768 0.016424449 -0.0060728807 4283860003
0.0083097965 0.013074372 -0.0029949916 4283795489
0.013045128 0.0034482367 0.006377737 4283794213
0.021011438 -0.016632687 0.026225369 4283794213
0.03275457 -0.04855356 0.057917606 4283861024
-0.019403651 0.018043069 -0.0065731294 4283989033
-0.017951071 0.019584358 -0.0084097143 4283925793
-0.016509004 0.021124978 -0.010243804 4283928089
-0.015077442 0.022664862 -0.012075299 4283993369
-0.012943067 0.021395992 -0.011082725 4283993623
-0.010616962 0.019426193 -0.0093877986 4283993113
-0.0082748085 0.017457711 -0.0076965718 4283990563
-0.0066618472 0.018296186 -0.0088231284 4284056354
-0.0048651546 0.018433165 -0.009245499 4283925283
-0.0030683801 0.018570231 -0.0096678268 4283926049
-0.0016601086 0.020109031 -0.011493406 4283601689
-6.5453351e-05 0.020946497 -0.012615374 4283665183
0.0017235428 0.021083267 -0.01303565 4283728168
0.0045238696 0.017719183 -0.0099570155 4283794213
0.0077606589 0.012957226 -0.0054862485 4283860259
0.012695279 0.0025999732 0.0045639882 4283861024
0.020442689 -0.016845625 0.023668263 4283861024
0.032171026 -0.048868518 0.055288579 4283794468
-0.020041384 0.01866813 -0.0097659407 4284120869
-0.018766649 0.020918064 -0.01230317 4284056354
-0.017334923 0.022462226 -0.014131514 4283925028
-0.01556275 0.022596842 -0.014548489 4283924774
-0.013256073 0.020618917 -0.012854035 4283924773
-0.01093334 0.018642265 -0.011163242 4283990564
-0.0087780245 0.017370785 -0.010178737 4284056099
-0.0071702972 0.018211033 -0.011302439 4284056099
-0.0055677965 0.019050984 -0.012424842 4284056608
-0.0035877004 0.018484229 -0.012144597 4283991584
-0.0023785308 0.02073002 -0.014665771 4283860513
-0.00079176202 0.021569062 -0.015784256 4283862299
0.00098913908 0.02170521 -0.016202632 4283928854
0.0037803613 0.018329445 -0.013130069 4283927578
0.0070076361 0.013551414 -0.0086685363 4283992348
0.012138482 0.0024584234 0.002056658 4283991584
0.02008481 -0.017751243 0.021814007 4283991584
0.032226376 -0.051279049 0.054753173 4283927324
-0.020008646 0.016477801 -0.010130195 4284121379
-0.019070692 0.020148579 -0.014071425 4283991074
-0.017468721 0.020990089 -0.015192506 4283859494
-0.01569666 0.021124672 -0.015609472 4283859493
-0.013212763 0.018433679 -0.013217571 4283925283
-0.010888103 0.016450576 -0.011532163 4284056353
-0.0085473955 0.014468789 -0.0098504573 4284056609
-0.0073060803 0.016723311 -0.012374496 4284056609
-0.005892057 0.018271061 -0.014194991 4284056609
-0.0042973831 0.019112729 -0.015313902 4284056353
-0.0025140643 0.019248866 -0.015732994 4283859493
-0.00092721358 0.020090088 -0.016849875 4283859494
0.00085357204 0.020226207 -0.017268237 4283924774
0.0032399632 0.018248597 -0.015596757 4283925029
0.0066648908 0.01275029 -0.01044913 4284056353
0.012411222 -0.00049084798 0.0023373137 4284056354
0.03313129 -0.05650888 0.056991179 4283925029
0.039507519 -0.070421457 0.070373967 4284056353
-0.020310469 0.015702169 -0.011903689 4284121633
-0.018864997 0.017256048 -0.013728868 4283926559
-0.017430045 0.018809177 -0.015551459 4283864593
-0.015480369 0.018235117 -0.015267787 4283666458
-0.01316981 0.016244242 -0.013584066 4283861788
-0.010843217 0.014254749 -0.011904072 4283925029
-0.008866664 0.013682961 -0.011626477 4284056608
-0.0072561204 0.014527828 -0.01274763 4284056609
-0.0058391616 0.016080165 -0.014565555 4284122144
-0.0042417347 0.016924189 -0.015683433 4283991329
-0.0028432347 0.018475372 -0.017496906 4283924774
-0.00086629763 0.017904155 -0.01721907 4283926304
0.00071803108 0.018747475 -0.018333647 4283860514
0.003305342 0.016056417 -0.015971925 4283859493
0.0065268911 0.011247244 -0.011531988 4283925283
0.013304058 -0.0055678748 0.0046930229 4283925283
0.0340342 -0.061760467 0.059213504 4283859493
0.038914949 -0.070775643 0.067718267 4283925283
0.041253664 -0.071318254 0.067911811 4284056354
0.043157205 -0.070449606 0.066722944 4283921204
-0.021572664 0.011236962 -0.0097434605 4283988524
-0.020611838 0.014931284 -0.013673852 4284056099
-0.01933831 0.017200727 -0.016196074 4283862044
-0.017736152 0.018046603 -0.017313942 4283729954
-0.015789464 0.017470092 -0.01703123 4283599138
-0.013304748 0.014761545 -0.014652613 4283666714
-0.011159066 0.013476036 -0.013675774 4283860003
-0.0090026446 0.012191392 -0.012701351 4284056353
-0.0075775236 0.013748664 -0.014518048 4284056353
-0.0057866238 0.013885133 -0.014939107 4284056608
-0.0047589131 0.01686107 -0.018143725 4283990818
-0.0029784963 0.016996939 -0.018562175 4283927324
-0.001394134 0.017842349 -0.019675195 4283928854
0.00078132004 0.016559795 -0.018704847 4283665183
0.0029674657 0.015278116 -0.017736886 4283731995
0.0067971125 0.0083268546 -0.011229099 4283862298
0.013781372 -0.0092494301 0.0056486907 4283862298
0.034298889 -0.06490922 0.05934744 4283731484
0.038537957 -0.071828648 0.065759443 4283862298
0.040873669 -0.072373703 0.065952048 4283990563
0.043214705 -0.072918236 0.066143498 4283789623
-0.022692062 0.014030237 -0.015021678 4283922989
-0.021412857 0.016306579 -0.017540403 4283927069
-0.019980118 0.017868208 -0.019356068 4283793448
-0.018557876 0.01942909 -0.021169152 4283727403
-0.016622126 0.018849546 -0.020885512 4283728423
-0.014326289 0.016844384 -0.01920817 4283794213
-0.012014426 0.014840581 -0.017534569 4283926049
-0.010051809 0.014263373 -0.017257031 4284056608
-0.0082690828 0.014399111 -0.017676249 4284056354
-0.0062983111 0.01382269 -0.017400429 4283991073
-0.0052752309 0.016806994 -0.020597439 4283991074
-0.003886804 0.018366149 -0.022402015 4283861788
-0.0023129955 0.019212922 -0.023510937 4283793449
4.9903989e-05 0.01721368 -0.021848753 4283728679
0.0026300326 0.014504518 -0.01949846 4283666968
0.0070665777 0.0053978898 -0.010932316 4283797019
0.014464065 -0.013654798 0.0072856331 4283797019
0.025561785 -0.044776928 0.037199125 4283730974
0.034562789 -0.068066433 0.05947521 4283798293
0.038161408 -0.07287693 0.063804038 4283861533
0.040276922 -0.072714403 0.063307643 4283924518
0.042612292 -0.073261544 0.063498795 4283723068
-0.023808993 0.01685022 -0.020280585 4283923753
-0.022378735 0.018415885 -0.022092432 4283994389
-0.021128163 0.020696735 -0.0245995 4283796508
-0.019377947 0.020829486 -0.025011461 4283927069
-0.017453134 0.020246906 -0.02472689 4283927069
-0.014814392 0.016803792 -0.021660123 4283927833
-0.012688346 0.015507955 -0.020685192 4283992349
-0.010551583 0.014213052 -0.019712768 4284056353
-0.0089593902 0.015063006 -0.020824682 4283990563
-0.0071846768 0.01519822 -0.021241948 4283991073
-0.0061715394 0.018190546 -0.024430066 4283995920
-0.0047934465 0.019753223 -0.026228916 4283794213
-0.0034259222 0.02131526 -0.028025229 4283792429
-0.0008786656 0.018594721 -0.02567384 4283793449
0.0018909425 0.015162501 -0.022637151 4283794213
0.0067241527 0.0046001263 -0.012710572 4283859748
0.014319748 -0.015225414 0.0061541302 4283859748
0.025826428 -0.047870237 0.037374433 4283793958
0.034402564 -0.069806933 0.058221407 4283793958
0.03778528 -0.073920444 0.061851989 4283859748
0.039464027 -0.072333723 0.059983298 4283990564
0.04201071 -0.073595688 0.060860615 4283723324
-0.025543593 0.01453406 -0.020222712 4283724343
-0.024596184 0.018260015 -0.024125468 4283990308
-0.023009978 0.019110991 -0.025234878 4283991073
-0.021597922 0.020679768 -0.027039159 4283993113
-0.019681506 0.020094192 -0.026754305 4283992348
-0.017585412 0.018791525 -0.025775805 4283927069
-0.015301637 0.016772272 -0.024105467 4283991839
-0.013540603 0.016906125 -0.02451976 4283991074
-0.011597231 0.016323043 -0.024240993 4284056354
-0.0098333433 0.016457325 -0.024655793 4284056354
-0.0080693886 0.016591711 -0.025070541 4283990563
-0.0068759918 0.018875567 -0.027558666 4283795234
-0.0056984499 0.021158276 -0.030042935 4283862554
-0.0039502196 0.021291764 -0.03045376 4283861533
-0.0016073957 0.019277858 -0.028796747 4283861788
0.0017556213 0.013687059 -0.023700166 4283927834
0.0065856688 0.0030915774 -0.013797398 4283993113
0.014793925 -0.018941429 0.007085043 4283927834
0.026090305 -0.050972093 0.037543658 4283862043
0.034453839 -0.0722619 0.057653982 4283862043
0.037409604 -0.074959233 0.059903409 4283993113
0.038652375 -0.071939468 0.056668736 4283989798
0.040971097 -0.072492242 0.056860521 4283722303
-0.025837012 0.013788927 -0.021975875 4283855669
-0.025054827 0.018246332 -0.026565842 4284121889
-0.023473851 0.019099128 -0.027672436 4284056353
-0.022066824 0.020671841 -0.029472236 4284056099
-0.01998464 0.019363623 -0.028493825 4284056354
-0.017891705 0.018056264 -0.027517829 4284056099
-0.015611321 0.016030168 -0.025851615 4284056863
-0.013853058 0.016163813 -0.026265256 4284056354
-0.012094706 0.016297543 -0.026678853 4284056609
-0.010336261 0.016431397 -0.027092386 4284056609
-0.0087651014 0.017284239 -0.028196074 4284056863
-0.0075791813 0.019574048 -0.03067749 4283990818
-0.0062164776 0.021144338 -0.032466237 4283991584
-0.0044736862 0.021277416 -0.032875776 4283992349
-0.001938913 0.018538391 -0.030534551 4283991839
0.0012190714 0.013647549 -0.026137084 4283991584
0.0068538152 0.00014800578 -0.013511144 4283991074
0.015678816 -0.024105247 0.0093782172 4283991584
0.026770614 -0.055516917 0.039077085 4283991839
0.034293488 -0.07400395 0.056399062 4283991839
0.036606517 -0.074559614 0.056590348 4283991074
0.038275145 -0.072964922 0.054730579 4284120358
0.040371619 -0.072803736 0.054238744 4283656258
-0.026290573 0.013771556 -0.024420492 4283855924
-0.025349379 0.017518934 -0.028305497 4284056353
-0.024102777 0.019818991 -0.030796979 4283991074
-0.022366308 0.01995055 -0.031205807 4283992604
-0.020458519 0.019359954 -0.03092226 4283992348
-0.018197559 0.017325697 -0.029256474 4283991074
-0.016097084 0.01601466 -0.028285503 4284056609
-0.014165081 0.015426215 -0.028007425 4284056609
-0.012409501 0.015559729 -0.028420378 4284121889
-0.010469344 0.014972061 -0.028144028 4284121889
-0.009272404 0.017269196 -0.030623253 4284056354
-0.0079015195 0.018844385 -0.032410726 4283990308
-0.0067336485 0.021139471 -0.034882929 4283924774
-0.0044109412 0.019110775 -0.033231094 4283990054
-0.0020722225 0.017083356 -0.031582903 4283990054
0.001685515 0.010016959 -0.025140151 4283990309
0.0075273551 -0.0042437539 -0.011861364 4283990309
0.027657734 -0.060798455 0.041281629 4283990054
0.033922106 -0.075026438 0.054461408 4283990309
0.036018401 -0.074865505 0.053969435 4284056099
0.037898347 -0.073985636 0.052795839 4284120614
0.03977298 -0.073106036 0.051623594 4283655748
-0.026582889 0.013038043 -0.026165366 4283921968
-0.025643475 0.016796149 -0.030041762 4284055844
-0.024399057 0.019102592 -0.032527834 4284059924
-0.022833727 0.019958645 -0.033627421 4283863318
-0.020931557 0.019365361 -0.033344168 4283862298
-0.018676639 0.017324116 -0.03168191 4283994643
-0.016405672 0.015284147 -0.030023318 4283991074
-0.014297664 0.013969395 -0.029057328 4284056354
-0.012542218 0.014102884 -0.029470261 4284056353
-0.01078669 0.014236484 -0.029883131 4284056609
-0.0095919184 0.016539978 -0.032356899 4283925538
-0.0084130168 0.018842408 -0.034826916 4283925794
-0.0070577227 0.020420818 -0.036607355 4283928343
-0.0047383942 0.0183853 -0.034959629 4283928599
-0.0022054985 0.015628606 -0.032631058 4283926813
0.0015500933 0.0085401461 -0.026204165 4283924774
0.0079964139 -0.0079307966 -0.010907383 4283924774
0.02812645 -0.064658463 0.042106468 4283928599
0.033762015 -0.076765612 0.053208552 4283925539
0.035431132 -0.075162247 0.051355116 4283990308
0.037305802 -0.074280545 0.050184343 4284120359
-0.027355358 0.014491633 -0.029981833 4283988268
-0.02626282 0.017532606 -0.0331567 4283924774
-0.024860404 0.019118 -0.03494576 4283861024
-0.023300298 0.01997578 -0.036042456 4283858219
-0.021403767 0.019379914 -0.035759557 4283861279
-0.018981405 0.016605111 -0.03341224 4283996683
-0.016889952 0.015284613 -0.032445706 4283990819
-0.014787771 0.013964981 -0.031481583 4283990819
-0.013400644 0.015549824 -0.033266585 4284056354
-0.01147176 0.014956892 -0.032990865 4283991328
-0.010284491 0.017266402 -0.035458032 4283925794
-0.0087342747 0.01812424 -0.036551796 4283930128
-0.0073813647 0.019706905 -0.038328432 4283731993
-0.0048707016 0.016939657 -0.036001258 4283731229
-0.0021413751 0.013449468 -0.032996118 4283665694
0.0020147935 0.0048902296 -0.025221091 4283666713
0.0082616173 -0.010906566 -0.01064433 4283730464
0.027969999 -0.066359818 0.04088081 4283665694
0.033180654 -0.077057198 0.05059636 4283666713
0.034844697 -0.075449795 0.048747338 4283924518
0.036930084 -0.075289592 0.048258021 4284120359
-0.028915174 0.011452809 -0.029232893 4283656768
-0.027966172 0.01523339 -0.033095293 4283988268
-0.026718296 0.017553121 -0.035572521 4283927068
-0.025155582 0.018413169 -0.036668286 4283925284
-0.023598053 0.019272914 -0.037762761 4283925029
-0.021533899 0.017945755 -0.036793239 4283859239
-0.019112453 0.015162118 -0.034452252 4283990819
-0.017021529 0.013837181 -0.033488885 4283991839
-0.01527705 0.013969712 -0.03389933 4283990564
-0.013894953 0.015558489 -0.035679847 4283990818
-0.012339495 0.016418701 -0.036773361 4283991328
-0.010975823 0.018006332 -0.038549427 4283860258
-0.0094335005 0.018865757 -0.039639704 4283727914
-0.007704556 0.018997636 -0.040046096 4283727404
-0.0051974878 0.016221343 -0.037724629 4283727914
-0.0026691146 0.013446793 -0.035408083 4283729953
0.0012793392 0.0055873655 -0.028331578 4283794469
0.0083235577 -0.013164345 -0.011067519 4283795999
0.027813578 -0.068060845 0.03965538 4283728934
0.032389674 -0.076613724 0.047312528 4283795999
0.034259118 -0.075728253 0.046146192 4283924774
0.036339033 -0.075568438 0.04565816 4284054824
-0.029831961 0.013661884 -0.03372471 4283657278
-0.028895356 0.017452458 -0.037576027 4284055843
-0.027497806 0.019046076 -0.039357506 4283994643
-0.025945641 0.019907493 -0.040449169 4283928853
-0.024230905 0.020037346 -0.04085293 4283927069
-0.022004798 0.017974025 -0.039198682 4283992859
-0.019762665 0.01591206 -0.037548169 4284060179
-0.017680228 0.014582053 -0.036586039 4283991329
-0.015943848 0.014713965 -0.036994584 4284056353
-0.014569446 0.016306553 -0.038770076 4284056354
-0.01320558 0.017898412 -0.040542964 4283925794
-0.01166591 0.0187597 -0.041631073 4283928854
-0.0099424757 0.018891046 -0.042036258 4283728678
-0.0078356564 0.01756357 -0.041079424 4283727404
-0.0057181492 0.016236981 -0.040124983 4283792939
-0.0031960383 0.013453223 -0.037813559 4283793449
0.00074477494 0.0055691227 -0.030753184 4283793959
0.007980559 -0.013968967 -0.012850651 4283794978
0.019048691 -0.046608094 0.017219864 4283793958
0.027657183 -0.069761559 0.038430184 4283793704
0.031389695 -0.075428694 0.043361828 4283794213
0.033674367 -0.075997472 0.043551609 4283925794
0.035748817 -0.075838119 0.043064844 4283988524
-0.03043282 0.014424689 -0.036825437 4283788349
-0.029503293 0.018225636 -0.04066693 4284121634
-0.027951166 0.019089118 -0.041757032 4284056864
-0.026404247 0.019952308 -0.042845838 4283991074
-0.024694942 0.020081732 -0.043248337 4283991584
-0.022474878 0.018011414 -0.041597627 4283991584
-0.020411648 0.016675467 -0.040634323 4283990819
-0.018162183 0.014607586 -0.038990378 4283990563
-0.016609415 0.015471742 -0.040080167 4284056609
-0.01488103 0.015603125 -0.040486768 4284056099
-0.013886534 0.018663757 -0.043618403 4283925028
-0.011982463 0.01806248 -0.043341748 4283927834
-0.010639414 0.01965734 -0.045106314 4283730719
-0.0085410997 0.018324833 -0.044150755 4283795489
-0.0066262037 0.017724665 -0.043876365 4283861278
-0.0039188713 0.014199972 -0.040890582 4283927834
1.1604279e-05 0.0062910542 -0.033845812 4283927579
0.0076379925 -0.014768817 -0.014630421 4283927579
0.019308444 -0.049699333 0.017398223 4283861278
0.027708234 -0.07219243 0.037880916 4283861278
0.030811472 -0.075686216 0.040774159 4283927579
0.03287778 -0.075527608 0.040289216 4283858729
0.035159457 -0.07609868 0.040478162 4283726383
-0.030562185 0.012991473 -0.037858635 4283788604
-0.029472396 0.016067121 -0.041006871 4284120103
-0.027755491 0.016196888 -0.041411333 4283989288
-0.026367873 0.017798539 -0.043183837 4283923753
-0.024656042 0.017928138 -0.043586932 4283923754
-0.022434056 0.015851401 -0.041941583 4283989798
-0.02054137 0.015246496 -0.041664243 4283990053
-0.018818609 0.015377231 -0.042069688 4283990308
-0.017451718 0.016977876 -0.043836966 4284056099
-0.015914723 0.017843116 -0.044921339 4284056354
-0.014382944 0.018708047 -0.046004422 4284056353
-0.012484521 0.018104158 -0.045728073 4284056354
-0.010769308 0.018234856 -0.046131335 4283924519
-0.0088627748 0.017631792 -0.045856737 4283925284
-0.0071447864 0.017762914 -0.046260498 4283925539
-0.0046404712 0.014960259 -0.043957926 4284057119
-0.00052108243 0.0062931925 -0.036252737 4284056609
0.0074977465 -0.016297076 -0.015731469 4284056609
0.019567413 -0.052799013 0.017570429 4283925539
0.027551709 -0.07389468 0.036654606 4283925539
0.030234082 -0.075934574 0.038193036 4284056609
0.03208242 -0.075044125 0.037036575 4284121379
0.034140617 -0.074886009 0.036553629 4284054059
-0.030065291 0.0086037368 -0.036154255 4283789368
-0.028645813 0.010211952 -0.037931163 4284055333
-0.027074978 0.01108123 -0.039022475 4283925283
-0.025509328 0.011950187 -0.040112443 4283859748
-0.024116017 0.013556726 -0.041882955 4283858729
-0.022053957 0.012211837 -0.040926069 4283858219
-0.020153642 0.011605367 -0.040652201 4283924773
-0.018423043 0.011736691 -0.041059494 4283924009
-0.017047912 0.013342261 -0.042825416 4283924519
-0.015683323 0.014947217 -0.044588804 4283924008
-0.014329255 0.01655142 -0.046349607 4283990054
-0.012428507 0.015945498 -0.046075456 4283923243
-0.010522373 0.015340105 -0.045802481 4283857964
-0.0086108521 0.0147352 -0.045530647 4283857964
-0.0070814043 0.015602607 -0.046611272 4283923754
-0.0045753717 0.012791332 -0.044315644 4284056099
-0.00025686622 0.0033625737 -0.035955735 4284056099
0.0081642419 -0.020766113 -0.01413737 4284056099
0.019416945 -0.054437075 0.016390316 4283923754
0.027188225 -0.07486172 0.034756016 4283923754
0.029447911 -0.07543917 0.034946688 4284056099
0.031076014 -0.073812678 0.033122439 4284186149
0.03312343 -0.073655367 0.032642037 4284053548
-0.029569961 0.0041986741 -0.034462366 4283723834
-0.027821593 0.0043306947 -0.034874327 4283922989
-0.026234761 0.0052033067 -0.035967749 4283792683
-0.024653107 0.0060756877 -0.037059903 4283858474
-0.023076646 0.006947726 -0.038150728 4283924264
-0.021166161 0.0063397139 -0.037880979 4283924264
-0.019250244 0.0057321638 -0.037612397 4283858983
-0.017678782 0.0066042021 -0.038701832 4283859238
-0.016290113 0.0082151815 -0.040467676 4283925029
-0.014911965 0.0098254681 -0.042230964 4283925284
-0.013178587 0.0099573135 -0.042638678 4283925283
-0.011445124 0.010089263 -0.043046333 4283860258
-0.0097115934 0.01022134 -0.043453924 4283859493
-0.007977996 0.010353528 -0.043861441 4283925029
-0.0064378567 0.011223942 -0.044942942 4283925284
-0.0041183047 0.009142518 -0.043329515 4283924263
0.00060303509 -0.0017895959 -0.033646557 4283924263
0.0092320964 -0.026727412 -0.011211436 4283859239
0.019878905 -0.058286618 0.017225016 4283859238
0.026618404 -0.075087011 0.03218998 4283859238
0.028662967 -0.074930191 0.031710051 4283924263
0.030495459 -0.074036598 0.030560561 4284054568
0.032537408 -0.073879719 0.03008144 4283854649
-0.027158506 -0.0008338131 -0.032516889 4283922989
-0.025558338 4.1976571e-05 -0.033611827 4283857453
-0.023963347 0.00091749057 -0.03470546 4283792173
-0.022540331 0.0025350451 -0.0364765 4283857709
-0.020619541 0.00192561 -0.036210828 4283923499
-0.018865429 0.0020585731 -0.036623761 4283924264
-0.016936466 0.0014499314 -0.036359802 4283858983
-0.015534274 0.0030663535 -0.038125608 4283859238
-0.013962559 0.0039407462 -0.039213277 4283859238
-0.012396067 0.0048148595 -0.040299635 4283925029
-0.010649472 0.0049478076 -0.040710382 4283924519
-0.009090811 0.0058215857 -0.041794784 4283925284
-0.0073467344 0.0059545711 -0.042204771 4283925283
-0.0057958923 0.0068279281 -0.043287117 4283858983
-0.0032704994 0.0040006414 -0.041009109 4283793704
0.0012623481 -0.0062236153 -0.032024197 4283859238
0.010096293 -0.031975131 -0.0089749061 4283793704
0.020135744 -0.061409559 0.017380461 4283793448
0.025842838 -0.074563876 0.028961193 4283793704
0.027670044 -0.073668629 0.027814478 4283990309
0.029703848 -0.073512509 0.027337164 4284055078
0.031952213 -0.074094906 0.027527377 4283721794
-0.027131803 -0.0030396357 -0.032890961 4283661103
-0.025367647 -0.0029063672 -0.033306595 4283792173
-0.023767292 -0.0020282716 -0.034399871 4283792429
-0.022338681 -0.00040599331 -0.036168933 4283857708
-0.020582147 -0.0002729632 -0.036582526 4283857964
-0.018825501 -0.00013980642 -0.036996055 4283923754
-0.017068766 -6.5453351e-06 -0.037409529 4283923753
-0.015489124 0.00087056309 -0.038497563 4283924264
-0.013914689 0.0017473474 -0.039584246 4283990054
-0.011798006 0.00039396435 -0.038649581 4283990054
-0.010226078 0.0012708306 -0.039735548 4283989799
-0.0084715858 0.0014044791 -0.040148079 4283989799
-0.0069074705 0.0022809245 -0.041231997 4283989798
-0.0049623959 0.0016721487 -0.040972926 4283859238
-0.0026204325 -0.00042068958 -0.039374571 4283858728
0.0021184795 -0.01141702 -0.029744729 4283858729
0.010556348 -0.035760779 -0.0080919852 4283858729
0.020391818 -0.064541027 0.017529834 4283859493
0.025274908 -0.074768692 0.026409913 4283858729
0.027305873 -0.07461293 0.025933154 4283922988
0.02912518 -0.073715985 0.024790019 4283987759
-0.026947036 -0.0059969351 -0.032590613 4283922734
-0.025338776 -0.0051161423 -0.033684254 4283857453
-0.02357199 -0.0049825758 -0.034100439 4283792174
-0.02230417 -0.0026088245 -0.036543049 4283791919
-0.020545118 -0.0024756119 -0.036957234 4283857708
-0.018957622 -0.0015959963 -0.038045615 4283792429
-0.017026693 -0.0022088252 -0.037785444 4283923499
-0.015444323 -0.0013293773 -0.038872451 4283923753
-0.013687544 -0.0011959076 -0.039285786 4283924264
-0.011930671 -0.0010623038 -0.039699044 4283990053
-0.010358684 -0.00018325448 -0.040783394 4283990054
-0.008416716 -0.00079474971 -0.040525369 4283990054
-0.0066596381 -0.00066077709 -0.040938415 4283989798
-0.0047095902 -0.0012713745 -0.040682159 4283924008
-0.0025586337 -0.0026259087 -0.03975844 4283858474
0.0019815676 -0.012910787 -0.030820973 4283858474
0.010613505 -0.038071264 -0.0085530756 4283858474
0.02044359 -0.066937074 0.017006297 4283924263
0.025326345 -0.077195346 0.025863588 4283858474
0.027150976 -0.076295957 0.024720732 4283922733
0.028758824 -0.074653521 0.022914317 4283921713
-0.0285374 -0.0090966076 -0.031878307 4283590214
-0.026921235 -0.0082132071 -0.032972228 4283855413
-0.025149398 -0.0080793872 -0.033389695 4283922988
-0.023377426 -0.0079454333 -0.033807106 4283857454
-0.021771513 -0.0070624575 -0.034898359 4283857454
-0.020170808 -0.0061797425 -0.035988353 4283857454
-0.018575296 -0.0052973442 -0.037076995 4283857708
-0.016810864 -0.0051635019 -0.037492286 4283858218
-0.015046343 -0.0050295591 -0.037907526 4283923499
-0.013461165 -0.004147619 -0.038993493 4283989033
-0.011517048 -0.0047613047 -0.038737807 4284055334
-0.010121752 -0.0031320415 -0.040491924 4284055334
-0.0081748292 -0.0037453026 -0.040236741 4284055334
-0.0062225349 -0.0043580122 -0.039982717 4284055078
-0.0042648688 -0.004970219 -0.039729882 4283989798
-0.0021064766 -0.0063285977 -0.038811136 4283859238
0.002834741 -0.018136609 -0.028564859 4283990308
0.020494992 -0.069337174 0.016479839 4283924263
0.024965463 -0.078134373 0.023985237 4283990308
0.026578844 -0.076487288 0.02218068 4283922734
0.02818164 -0.074840948 0.020378735 4283855158
-0.02882538 -0.0098156258 -0.03361354 4284115258
-0.027053803 -0.0096819326 -0.034031026 4284118574
-0.025282092 -0.0095481202 -0.034448467 4284054058
-0.023346946 -0.01016546 -0.034192894 4284054058
-0.021738313 -0.0092801228 -0.035283174 4284054313
-0.020134889 -0.0083950758 -0.03637214 4284054058
-0.018365383 -0.0082609728 -0.036788724 4284054823
-0.016421862 -0.0088772476 -0.036534797 4283988523
-0.014649518 -0.0087427124 -0.036951885 4284055333
-0.013056315 -0.0078579709 -0.038038101 4284055334
-0.011650238 -0.0062236227 -0.03979164 4284120358
-0.010070149 -0.0053396411 -0.040874593 4284251684
-0.0081209093 -0.0059549026 -0.040621582 4284120358
-0.0061662942 -0.0065696388 -0.040369745 4284120358
-0.0043988228 -0.0064347945 -0.040785182 4284120359
-0.0022409745 -0.0077975765 -0.039869562 4283989543
0.0028946958 -0.020389501 -0.028983738 4283989288
0.020342903 -0.07099314 0.015286823 4283989289
0.024605017 -0.079068691 0.022110302 4283989288
0.026007561 -0.076669574 0.019647211 4283988269
0.027605291 -0.07501924 0.017849728 4283854394
-0.021705478 -0.011501916 -0.035670962 4284706858
-0.020099334 -0.010614492 -0.036758952 4284641578
-0.018327311 -0.010480195 -0.037176121 4284707623
-0.016381472 -0.011098489 -0.036924388 4284642599
-0.014253862 -0.012468725 -0.036005586 4284381479
-0.012652636 -0.011581209 -0.037092067 4284186149
-0.011238325 -0.0099419057 -0.038844232 4284186404
-0.0098345727 -0.0083032362 -0.04059387 4284251684
-0.008067362 -0.0081686452 -0.041009411 4284251174
-0.0064897276 -0.0072824471 -0.042089991 4284120869
-0.0043404326 -0.0086503997 -0.041175738 4283989798
-0.001985535 -0.01076841 -0.039600044 4283858984
0.0031518787 -0.023397315 -0.028742362 4283858984
0.019582102 -0.070397422 0.012108022 4283859238
0.023422722 -0.076997235 0.017593179 4283858984
0.02543712 -0.076842725 0.017120328 4283856688
0.027029777 -0.075188369 0.015327246 4283722559
0.024867507 -0.077006713 0.014599972 4284575788
0.026665786 -0.076100484 0.013469932 4284049723
0.013721865 0.013836101 0.088302277 4280176529
0.0084034204 0.015643086 0.083513387 4282011764
0.0086982623 0.021493485 0.076260455 4278668714
0.0099082291 0.024176264 0.072783537 4278536113
0.011877991 0.024327068 0.072320946 4279387048
0.014837414 0.021315921 0.075616933 4278403003
0.0186258 0.01577818 0.081910916 4278404023
0.021852504 0.012140062 0.08594238 4279192483
0.024493512 0.010399848 0.087716825 4278865318
0.026942009 0.0092924349 0.088738382 4278931619
0.027711436 0.013236906 0.083768837 4278931109
0.028021179 0.018441327 0.077310897 4278732463
0.034431607 0.011809986 0.084586062 4278533563
0.0063797235 0.020327762 0.074784435 4279193504
0.0084109828 0.026980551 0.066341929 4278732974
0.01016701 0.02776471 0.065132998 4279847579
0.012906339 0.025375461 0.067675851 4278929324
0.018855177 0.01933364 0.074244313 4278799018
0.02084117 0.019485869 0.073778056 4278996134
0.022618873 0.020271936 0.072564222 4278602669
0.024876358 0.02564336 0.06566222 4279125928
0.027271248 0.024527615 0.066693135 4279061414
0.0049207248 0.023143983 0.068340577 4278865829
0.017891861 0.020225251 0.070063643 4278996134
0.019867141 0.020376636 0.069599889 4278864808
0.021426169 0.021800129 0.067644112 4278733483
0.026255798 0.025430577 0.06253618 4279060649
0.029525464 0.021769624 0.066538028 4278929579
0.033712938 0.015571233 0.073503904 4278339764
0.0043978654 0.02279214 0.065666191 4278930854
0.0055940114 0.025500149 0.062212158 4278603433
0.0075368769 0.025648771 0.061755802 4278930854
0.0094798356 0.025797455 0.061299462 4278799018
0.012212083 0.023390008 0.063830793 4278602668
0.014765747 0.021623092 0.065610863 4278537643
0.016930208 0.021134753 0.065895863 4278668713
0.018894773 0.021285305 0.065434612 4278406828
0.020651454 0.022074141 0.064228989 4278406828
0.021981634 0.024138698 0.061537039 4278537134
0.0030307174 0.018446749 0.067946605 4280307343
0.0038758814 0.022449287 0.062998332 4278734503
0.012062717 0.021762904 0.062658548 4278471599
0.014016435 0.021912502 0.062199745 4278472363
0.015970215 0.022062158 0.061740968 4278865318
0.017924067 0.022211872 0.061282221 4278603434
0.019670237 0.02300209 0.060080696 4278603433
0.021200715 0.024432231 0.058138229 4278603688
0.022933662 0.025221547 0.056939892 4278865318
0.025308512 0.024091002 0.057965674 4278996388
0.028349211 0.021042464 0.061209902 4278669223
0.033184983 0.012880616 0.070365466 4278734758
0.00251377 0.01810007 0.065274425 4279651993
0.0033547506 0.022115512 0.06033694 4278668969
0.013867039 0.020285534 0.061027609 4278602668
0.015618544 0.021078235 0.059826382 4278799273
0.017364781 0.021870591 0.058626436 4278799784
0.019105747 0.022662638 0.057427723 4278472108
0.024943573 0.023110453 0.056057408 4278336703
0.02819871 0.01940874 0.060033046 4278339253
0.033252604 0.010576431 0.069905944 4278929579
0.00089737773 0.021642735 0.058137242 4279324319
0.0034507774 0.026462954 0.052018978 4279191975
0.0053694807 0.026609652 0.051568236 4279455389
0.0078703612 0.024818705 0.05334577 4278929834
0.010583989 0.022383364 0.055861689 4278732463
0.012920283 0.021240724 0.056889616 4278471599
0.014863279 0.021389518 0.05643335 4278733738
0.016601667 0.022183456 0.055236876 4278602669
0.018334784 0.022977049 0.054041691 4278274484
0.022210518 0.02327428 0.053131886 4278470834
0.033099193 0.0089118406 0.068706863 4278404789
-0.00082615018 0.018583471 0.058918636 4282274668
-0.0001661703 0.023274241 0.053256691 4279455388
0.004649546 0.026956866 0.048191812 4278273974
0.012174346 0.021566082 0.053504452 4278799784
0.01431109 0.021066746 0.053789333 4278930854
0.016044278 0.021862471 0.052595712 4278734249
0.01949485 0.023452934 0.050212275 4278339254
0.021424677 0.023600962 0.04975928 4279651229
0.024215009 0.021163099 0.052250914 4279717018
0.027244437 0.01808067 0.055473112 4279061670
0.032504909 0.0085396133 0.066038102 4278799274
-0.0015150197 0.018920137 0.055525258 4281946483
-0.0012276359 0.024928091 0.048392229 4278537898
0.0001257956 0.027026817 0.045719031 4278275504
0.0095028579 0.021757498 0.050581485 4278799273
0.011429653 0.021904951 0.050128944 4278734249
0.013356529 0.022052485 0.049676441 4278865318
0.0150792 0.022849588 0.048486926 4278537898
-0.0016622804 0.01730963 0.0543648 4281880948
-0.0015559383 0.023990868 0.046505641 4278537898
-0.00020461902 0.02609597 0.043837901 4278537898
0.0013189241 0.027547011 0.041913077 4278603434
0.0039764829 0.025080793 0.044422295 4278865574
0.0068488307 0.021963736 0.04766449 4278472363
0.0091596507 0.020805778 0.048688486 4278668968
0.010884978 0.021605143 0.047499888 4278407083
0.012605034 0.022404209 0.046312526 4278603433
0.014727984 0.021899415 0.046597429 4278407083
0.016236112 0.02334973 0.044676565 4278996389
0.017943051 0.02414795 0.043492474 4278733994
0.019856751 0.024294714 0.043043248 4278602668
0.022629328 0.021837886 0.045525894 4278472109
0.025640586 0.018732049 0.048735905 4278734248
0.031978972 0.0058707409 0.062915318 4278996389
-0.0021693222 0.017010894 0.051725473 4281159044
-0.0020663366 0.023713807 0.04388357 4278734248
0.0063160099 0.021676052 0.045041032 4278534074
0.0090127662 0.01920414 0.047534551 4278734248
0.010738209 0.020005694 0.046347551 4278537898
0.012659606 0.020152776 0.045896314 4278537898
0.014173329 0.021607837 0.043977357 4278668968
0.01567648 0.023062121 0.04206099 4278603433
0.017169025 0.0245157 0.040147118 4278340529
0.019498356 0.023355151 0.041163772 4278930089
0.022052854 0.021542396 0.042909279 4278996388
0.025492033 0.017119201 0.047574077 4278603943
0.032265916 0.0029080994 0.063181832 4278735013
-0.0028551891 0.017379165 0.048354834 4280044949
-0.0022111386 0.022130236 0.042742528 4278668204
-0.0010491349 0.024905765 0.03934893 4278471088
0.00046708807 0.026364956 0.037432414 4279585439
0.0082789063 0.019573037 0.044178315 4278537134
0.010194816 0.019719604 0.043728296 4278734248
0.011909805 0.020522617 0.042545438 4278603178
0.013619538 0.021325286 0.041363861 4278472109
0.018928744 0.023075791 0.038557205 4278270148
0.032771669 -0.00071808323 0.064170569 4278930090
-0.0040783174 0.019741591 0.042784955 4279586968
-0.0015628077 0.024650805 0.036744334 4278732719
-0.00023908168 0.026773617 0.034097809 4279323044
0.0023998283 0.024279509 0.03659163 4278667694
0.0094541386 0.020101361 0.040383659 4278603178
0.011161264 0.020905947 0.039204281 4278799273
0.012456235 0.023026939 0.036564864 4278340018
0.013941385 0.02448866 0.034659233 4278864299
0.015833504 0.024633676 0.034215 4279192994
0.018359981 0.02280546 0.03595721 4279061414
0.025411747 0.013236754 0.045978382 4278406064
0.033056822 -0.0037002377 0.064423025 4278406064
-0.0049403608 0.020805933 0.038703784 4279390364
-0.001891017 0.023742937 0.034879651 4278468793
-0.00038214028 0.025210313 0.032971397 4278272444
0.002065938 0.023368923 0.034726657 4278403769
0.0068149604 0.020351257 0.037495032 4278930853
0.0083188713 0.021818584 0.035588112 4278734249
0.0098122172 0.023285128 0.033683769 4278996134
0.013178982 0.024895292 0.031339537 4278337724
0.015271612 0.024379469 0.031625055 4278799528
0.017580818 0.023204198 0.032636508 4278537389
0.020542394 0.020050475 0.035825245 4278274738
-0.0066250861 0.017755648 0.039480634 4282536553
-0.0059798285 0.022552831 0.033902433 4278538408
-0.0048264042 0.02535394 0.030530453 4278603433
-0.0027720183 0.024832327 0.030822814 4278669224
-0.00089929998 0.024975268 0.030382693 4278734504
0.0017324835 0.022463016 0.032864969 4278472363
0.00400085 0.021279655 0.033882383 4278734503
0.0062799305 0.020097226 0.03489729 4278472618
0.0077788495 0.021568514 0.032994866 4278734503
0.0092671849 0.023039103 0.031094931 4278472363
0.010744952 0.024508916 0.029197585 4278733738
-0.007121779 0.017509319 0.036877453 4282405484
-0.0064805225 0.022321513 0.031311713 4278407338
-0.0053316914 0.025131045 0.027947374 4278276014
0.0012099557 0.022227747 0.030277673 4278537643
0.0032802969 0.021705387 0.030564733 4278472363
0.0051611811 0.021849139 0.030122839 4278341548
0.0068446323 0.022658395 0.028953865 4278603433
0.0087230094 0.022802098 0.028512664 4278603434
0.010398611 0.023610903 0.027345639 4278537898
0.01206895 0.024419375 0.026179902 4278472363
0.014150336 0.023898317 0.026464712 4278931108
0.016447909 0.022713339 0.027472313 4278800294
0.019396622 0.019536631 0.030647628 4278472874
0.024533451 0.0097220242 0.041044388 4278537898
-0.0079696886 0.018610584 0.032819748 4281028484
-0.0073377453 0.023437425 0.027267672 4278472619
0.0029449984 0.020808503 0.02871041 4278406319
0.0048231371 0.020952025 0.028269146 4278734504
0.0067013465 0.021095626 0.027827919 4278734504
0.0085796379 0.021239322 0.02738674 4278668713
0.0098500624 0.023384804 0.024772715 4278996134
0.013175044 0.025005 0.022448257 4278336703
0.01609334 0.02181489 0.025622446 4278862003
0.019464854 0.017294042 0.030234031 4279192484
0.025249003 0.0054478422 0.042769682 4278734504
-0.0086400807 0.019058259 0.029503927 4279783574
-0.0078363046 0.023228688 0.024693206 4278734249
-0.0063396953 0.024712509 0.02280074 4278536879
-0.004485976 0.02485385 0.022364974 4279259038
0.0022265613 0.021256806 0.025409013 4278668714
0.0040966198 0.021399697 0.024969634 4278603688
0.0061638802 0.020872785 0.025254268 4278669224
0.008036755 0.021016048 0.024814349 4278799783
0.0097072423 0.021828862 0.023651738 4278799529
0.010757189 0.024649028 0.020324297 4278337978
0.012616925 0.024791515 0.019887634 4278533819
0.019532692 0.015047289 0.029817365 4278403003
0.025962956 0.0011561476 0.044482436 4278403003
-0.0098361298 0.021540528 0.024015766 4278997154
-0.0049941018 0.024657726 0.019802727 4279062689
-0.0025868788 0.0227801 0.021542761 4278668459
0.0020841584 0.019701181 0.024288148 4278668459
0.00395412 0.019844046 0.023848776 4278930853
0.0058241561 0.019987 0.023409452 4278668969
0.0089577623 0.022288112 0.02036766 4278799274
0.010205325 0.024445077 0.017768897 4279782299
0.012267191 0.0239159 0.018053342 4279651229
0.019387279 0.01346717 0.02867908 4278996389
0.026459783 -0.0024823844 0.045464635 4278996389
-0.010678831 0.022697778 0.019998375 4278473383
0.0011762492 0.020844502 0.020279471 4278864808
0.0030354746 0.020986523 0.019842606 4278734248
0.0048947781 0.021128636 0.019405786 4278668969
0.0061560385 0.023293076 0.016808607 4278275504
0.0094496161 0.024923878 0.014501168 4278602413
0.011917915 0.023044908 0.016222443 4278865319
0.014612224 0.020493999 0.018657647 4278341039
-0.011631254 0.016950049 0.023673855 4282339948
-0.010994177 0.021838648 0.018166356 4278539683
-0.0095047317 0.023334906 0.016285356 4278735780
-0.0073036142 0.022119645 0.017298497 4279587989
-0.0050917342 0.020905247 0.018309217 4279719058
-0.0028691292 0.01969179 0.01931743 4278801058
-0.00082429871 0.019156281 0.019602194 4278735013
0.00084354728 0.019975124 0.018444862 4278603943
0.0027000122 0.020116916 0.018008634 4278407338
0.0043600537 0.020935293 0.016853303 4278407338
0.0058156736 0.022429617 0.014980738 4278537898
0.018246651 0.013008721 0.02354135 4278602923
0.025728796 -0.0043980218 0.041682549 4278602923
0.002558656 0.018573044 0.016896244 4280704889
0.0042187907 0.019393599 0.015742518 4279852933
0.0058736838 0.020213844 0.014590089 4278999959
0.0073216818 0.021712095 0.012722607 4279393168
0.0093719624 0.021175282 0.013004805 4281687914
0.011841487 0.019283256 0.014715887 4281425263
0.014327023 0.017392498 0.016423319 4279851658
0.018314399 0.010760706 0.023123767 4278997918
0.053566374 -0.078191191 0.051487628 4282928743
0.050369933 -0.07721366 0.048023365 4282470508
0.041972175 -0.075359225 0.04160516 4282733414
0.026480349 -0.081321329 0.0019304017 4282207349
0.027459484 -0.079746872 -0.0023072986 4282929254
-0.027344137 -0.010396481 -0.035762236 4284967723
-0.02541475 -0.011016585 -0.035507046 4284968233
-0.027318813 -0.012618527 -0.036148027 4285360679
-0.025387101 -0.013240635 -0.035895012 4285295654
-0.023612894 -0.013106547 -0.036312975 4285295653
-0.021838561 -0.012972333 -0.036730874 4285230373
-0.020232365 -0.012082718 -0.037817247 4285230374
-0.018289611 -0.01270353 -0.037566498 4285361189
-0.016341448 -0.013323832 -0.037316933 4285426469
-0.014211707 -0.01469833 -0.03640186 4285426213
-0.012428954 -0.014562916 -0.036821324 4285361188
-0.011009086 -0.012918781 -0.038571581 4285360933
-0.0097838864 -0.0105213 -0.040984012 4285361188
-0.0083877519 -0.008878734 -0.042728506 4285165348
-0.0066232719 -0.0087442435 -0.043143325 4285165349
-0.0046666339 -0.009363085 -0.042895149 4285165093
-0.0019256175 -0.012994483 -0.039998956 4285099303
0.0032108799 -0.025660556 -0.029168781 4284968998
0.019025251 -0.070540771 0.0095993634 4284968998
0.023063947 -0.07791324 0.015731346 4285035044
-0.027293839 -0.014844686 -0.03653679 4285164074
-0.025199756 -0.016226906 -0.035617143 4285360933
-0.023420371 -0.016092423 -0.03603632 4285426724
-0.021475501 -0.016715553 -0.035787843 4285361188
-0.020029306 -0.015065636 -0.03754146 4285360933
-0.018081591 -0.015688274 -0.037293524 4285360933
-0.016301796 -0.015553314 -0.037712462 4285360934
-0.013817996 -0.018445786 -0.035471018 4285361189
-0.01220604 -0.017553095 -0.036556777 4285361189
-0.010599315 -0.016660694 -0.037641205 4285361189
-0.0095496438 -0.013499707 -0.040713966 4285492004
-0.0077747554 -0.013364524 -0.04113131 4285426723
-0.0061890446 -0.012473375 -0.042210545 4285426723
-0.0044166893 -0.012338184 -0.042627145 4285361188
-0.0016715117 -0.015980165 -0.039740056 4285492769
0.0038611293 -0.030193742 -0.027617875 4285361188
0.018874265 -0.072184786 0.0084149595 4285492769
0.022500457 -0.078069955 0.013214712 4285295399
0.024298746 -0.077161655 0.01208621 4285098028
-0.0269548 -0.018595967 -0.035592765 4285163819
-0.025173023 -0.018461432 -0.036012601 4285426469
-0.023066089 -0.019846935 -0.03509916 4285426468
-0.021443948 -0.018951897 -0.036186136 4285492259
-0.019994847 -0.017297406 -0.03793719 4285426468
-0.018215284 -0.01716258 -0.038356166 4285426468
-0.016262494 -0.017786946 -0.038110919 4285426469
-0.014128551 -0.019169819 -0.037203413 4285426468
-0.012340754 -0.019034024 -0.037624065 4285492003
-0.010733977 -0.018139448 -0.038706888 4285492259
-0.0093161725 -0.016486626 -0.040450051 4285492259
-0.0075361244 -0.016351085 -0.040868632 4285558049
-0.0057560056 -0.016215388 -0.041287124 4285492513
-0.0039758272 -0.016079571 -0.041705534 4285558304
-0.0014181957 -0.018974315 -0.039487354 4285558303
0.0039187782 -0.032471795 -0.028054956 4285492769
0.011946864 -0.055806194 -0.0080923811 4285558303
0.018521007 -0.073071435 0.0065735257 4285492769
0.021937788 -0.078217506 0.010704608 4285361189
0.023730813 -0.077307433 0.0095789665 4285228844
-0.02856075 -0.02173223 -0.034903243 4285032238
-0.027087972 -0.020072106 -0.036656924 4285229864
-0.025306329 -0.019937601 -0.037076745 4285492259
-0.023362249 -0.02056523 -0.036831465 4285492259
-0.02141276 -0.021192338 -0.036587391 4285492259
-0.019960731 -0.019533318 -0.038335834 4285492259
-0.018178657 -0.019398313 -0.038755406 4285492259
-0.0163965 -0.019263189 -0.039174922 4285426469
-0.014087513 -0.021411758 -0.037608653 4285426469
-0.012297213 -0.021275762 -0.038029891 4285492004
-0.010506831 -0.021139663 -0.038451072 4285492259
-0.0088999271 -0.020242777 -0.039532211 4285557794
-0.007112056 -0.020106632 -0.039952625 4285492258
-0.0053241327 -0.019970346 -0.040372964 4285558049
-0.0037276335 -0.019073922 -0.041451398 4285558049
-0.0013597906 -0.021217186 -0.039898288 4285624094
0.0035824552 -0.033234667 -0.029808842 4285623584
0.018168181 -0.07395336 0.0047354898 4285623584
0.021580731 -0.079115048 0.0088561485 4285492003
-0.026750639 -0.023842577 -0.035726815 4285426469
-0.025120661 -0.0229428 -0.03681254 4285361188
-0.023333736 -0.022807796 -0.037233528 4285492259
-0.021711484 -0.021908391 -0.038317267 4285492259
-0.020094424 -0.021009248 -0.039399687 4285492258
-0.018312499 -0.020874266 -0.039819237 4285492259
-0.016357742 -0.021502826 -0.039577771 4285426469
-0.014397599 -0.022130836 -0.039337482 4285426469
-0.012254022 -0.023521658 -0.038438641 4285426468
-0.010641828 -0.022622269 -0.039519534 4285557794
-0.0088515282 -0.022486057 -0.039940611 4285492258
-0.0072471462 -0.021587063 -0.041019443 4285492258
-0.0052707195 -0.022213262 -0.040782541 4285558049
-0.0036715195 -0.021314401 -0.041859966 4285492259
-0.0014957152 -0.022702049 -0.040968169 4285492513
0.0030499622 -0.033231001 -0.032214683 4285557538
0.017210063 -0.072546244 0.00093853264 4285557538
0.021224117 -0.080007866 0.0070110904 4285491749
-0.025787957 -0.03069428 -0.032153461 4285032748
-0.023980089 -0.030557808 -0.032579474 4285164329
-0.022334024 -0.029654536 -0.033667292 4285164073
-0.020693153 -0.028751504 -0.034753826 4285230118
-0.019391932 -0.026316274 -0.037160251 4285360934
-0.017596893 -0.026180286 -0.037582878 4285295399
-0.015629217 -0.026810046 -0.037346087 4285229353
-0.013480984 -0.028204944 -0.036451738 4285360933
-0.011855546 -0.027302537 -0.037534166 4285426979
-0.010235336 -0.026400398 -0.038615275 4285426724
-0.0086203516 -0.025498565 -0.039695065 4285426723
-0.0068248175 -0.025361817 -0.040117275 4285492513
-0.0052176677 -0.024460334 -0.041195054 4285492258
-0.0034246631 -0.024323549 -0.041616488 4285426469
-0.0012441203 -0.025715131 -0.040729102 4285426723
