# .PCD v0.7 - Point Cloud Data file format
VERSION 0.7
FIELDS x y z rgba
SIZE 4 4 4 4
TYPE F F F U
COUNT 1 1 1 1
WIDTH 978
HEIGHT 1
VIEWPOINT 0 0 0 1 0 0 0
POINTS 978
DATA ascii
0.0055918731 0.032692954 -0.0084940149 4289931299
0.0082086548 0.030058395 -0.006049166 4289996578
0.011460822 0.025355507 -0.0014937109 4290389023
0.015579769 0.017896313 0.0058716675 4289996578
0.022487719 0.0014767945 0.022375165 4289996578
-0.013919499 0.027747653 -0.003303451 4289473574
-0.013137288 0.032039367 -0.0079434011 4290389279
-0.011686936 0.033552244 -0.0097386129 4290716188
-0.0098917931 0.03367646 -0.010113617 4290585374
-0.0073750317 0.031025501 -0.0076550068 4290650653
-0.0048368089 0.028376114 -0.0052008159 4290912794
-0.0028343797 0.02780864 -0.0048728641 4290127648
-0.0012034066 0.02862813 -0.0059593688 4289931554
0.00023115054 0.030140387 -0.0077508483 4289669924
0.0014612451 0.032344915 -0.010245654 4289996833
0.0036575384 0.031084871 -0.0092118308 4290062369
0.0056654103 0.030518215 -0.0088846795 4290062114
0.0080822185 0.028567383 -0.0071507534 4289931299
0.010310611 0.027309829 -0.006123432 4290127393
0.013792587 0.021901421 -0.00088143884 4289604133
0.01941558 0.0095784552 0.011374115 4289407783
-0.014044449 0.026259225 -0.0044034622 4288164404
-0.013433415 0.031260617 -0.0097421193 4290192674
-0.011985485 0.032777682 -0.011533516 4290192929
-0.010015592 0.0322055 -0.011200636 4289604133
-0.0078600794 0.030937754 -0.010162007 4289996835
-0.0055109374 0.028975019 -0.0084193638 4290062114
-0.0035168305 0.028404796 -0.0080913277 4289734948
-0.001705572 0.028530454 -0.0084694456 4289342758
0.00010571629 0.028656216 -0.0088474927 4289473573
0.0011426695 0.031562373 -0.012041387 4289342758
0.0033358037 0.030297805 -0.011010257 4289473573
0.0053407177 0.029728713 -0.01068411 4289669923
0.007552579 0.028465616 -0.009656758 4289473319
0.0093665626 0.028592011 -0.010035028 4289931299
0.012008382 0.025941886 -0.0076084938 4290847259
0.016767964 0.016353767 0.0018199242 4290781723
0.024574824 -0.0029418431 0.021033784 4290781723
-0.013492063 0.021975292 -0.0026737533 4286529343
-0.013385147 0.029089028 -0.010123777 4289930789
-0.01193428 0.030610628 -0.011912489 4290127393
-0.01013935 0.030734804 -0.012287463 4290127393
-0.0083443671 0.030859075 -0.01266238 4290127393
-0.0063666329 0.030285388 -0.012332619 4290389279
-0.004383523 0.029712202 -0.012003962 4289996834
-0.0022069775 0.028441856 -0.010972891 4289800483
-0.0002104193 0.027869739 -0.010646859 4289669923
0.001211293 0.029389959 -0.012428995 4290062368
0.0030144751 0.02951533 -0.012805221 4289342758
0.0050164089 0.028943896 -0.012480151 4289539108
0.0070236977 0.028372886 -0.012156087 4289800483
0.0088322219 0.028498899 -0.012533218 4289800483
0.011261055 0.026536012 -0.010811612 4290520093
0.014753185 0.021093532 -0.0055982042 4290127648
0.021045735 0.0066066422 0.0086861914 4290127648
-0.013165396 0.02621235 -0.0098033119 4289276459
-0.012232386 0.029840939 -0.013703794 4289800229
-0.010440242 0.029964915 -0.014078196 4290127393
-0.0090077184 0.031489737 -0.015859582 4290127393
-0.0074033365 0.032313719 -0.01693571 4290912538
-0.0056190789 0.032437418 -0.017308258 4290912794
-0.0030833408 0.029761909 -0.014873371 4290912794
-0.0007167086 0.027787577 -0.013144129 4290650908
0.0010863505 0.02791284 -0.013520401 4289604389
0.0026935302 0.028737467 -0.014596777 4289539108
0.0042953677 0.029561818 -0.015671961 4289473573
0.0056906044 0.031084817 -0.017445058 4290389279
0.0074829683 0.031209702 -0.017818822 4289931298
0.0094819032 0.030636156 -0.017494574 4289015594
0.012323245 0.02726966 -0.014381764 4288884779
0.017098762 0.017621744 -0.0050030146 4289146408
0.025382992 -0.0031883083 0.015500587 4289146408
-0.012774713 0.022623997 -0.0087855179 4287117883
-0.012355782 0.028372949 -0.01478866 4289472553
-0.011094682 0.030605169 -0.017270427 4290323744
-0.0096699335 0.032133844 -0.019046923 4290062369
-0.0082558319 0.033661831 -0.020821081 4289931554
-0.0062973909 0.03308256 -0.020490602 4290062113
-0.0037705153 0.030397693 -0.018060442 4290781979
-0.0014125779 0.028416263 -0.016334405 4289996834
0.00057537854 0.027839275 -0.01600983 4289800483
0.0019815676 0.029367207 -0.017782038 4289931299
0.0035754591 0.03019318 -0.018853908 4289800738
0.004962936 0.031719953 -0.020622028 4290847003
0.006543424 0.032545224 -0.021691006 4290781723
0.008324964 0.032669444 -0.022062443 4289996834
0.0109428 0.029991621 -0.019650714 4289996834
0.014429023 0.02451399 -0.01446251 4289800483
0.020745592 0.0099373497 -0.00025262195 4289800483
-0.012556542 0.019728126 -0.0084792459 4286856253
-0.013001505 0.029020594 -0.017977547 4289603623
-0.012101583 0.032668762 -0.021854477 4290650908
-0.011048898 0.035610396 -0.025025489 4289538854
-0.0091068298 0.03502772 -0.02469332 4288819244
-0.0071593747 0.03444552 -0.024362192 4288819243
-0.0042690709 0.030342719 -0.020539045 4289277223
-0.0021073073 0.029058304 -0.019514738 4290258464
-0.0003205277 0.02918243 -0.019887619 4289865763
0.0010752231 0.030714 -0.021654328 4289473318
0.0026584826 0.031541411 -0.022722324 4289800484
0.0038346611 0.033775091 -0.025180766 4290323743
0.0051983073 0.035304695 -0.026940575 4290389279
0.006757468 0.036130711 -0.028003329 4290454558
0.0095646158 0.032740105 -0.024899999 4290258463
0.012610044 0.028648922 -0.021108584 4290192928
0.017401479 0.018941248 -0.011779474 4290062369
-0.013298228 0.02826705 -0.019757004 4289211179
-0.013106622 0.034754544 -0.026422201 4290585629
-0.012066666 0.037703954 -0.029583888 4290781979
-0.010320231 0.037824921 -0.029948622 4290062113
-0.0080198608 0.03582624 -0.028220657 4289931298
-0.0053287782 0.03241593 -0.025101965 4290454814
-0.003370855 0.031832412 -0.024774503 4290127904
-0.0016002357 0.031955414 -0.025144015 4289931554
0.00017039478 0.032078519 -0.025513448 4289539109
0.0019410364 0.03220173 -0.025882807 4289735204
0.0035109781 0.033030517 -0.026946345 4290192929
0.0048722215 0.034564283 -0.028702283 4290062114
0.00684084 0.033982098 -0.028376682 4289342503
0.0092322119 0.031990539 -0.026667019 4289669669
0.012062356 0.028590742 -0.023576699 4289996578
0.01598949 0.021670213 -0.017034773 4289669669
0.023437764 0.0034838282 0.00054990384 4289669669
-0.01342079 0.02680859 -0.020834835 4288622384
-0.013756916 0.035443749 -0.029578267 4290127393
-0.012903471 0.039110538 -0.03342887 4289473574
-0.010804296 0.037812836 -0.032398377 4289081129
-0.0085099302 0.035807159 -0.030674091 4289473318
-0.0061994977 0.033802725 -0.028953129 4289800483
-0.0044423789 0.033924706 -0.02931989 4289539108
-0.0024927631 0.033338517 -0.028992286 4289539108
-0.00053779408 0.032752842 -0.028665772 4289408294
0.0016203448 0.031459801 -0.027647156 4289669669
0.0031876974 0.032290559 -0.028708445 4289407783
0.004749693 0.033121027 -0.029768554 4289604134
0.0069238581 0.031829379 -0.028753068 4289538598
0.0095257461 0.029124338 -0.026357884 4289669669
0.012360193 0.025713967 -0.023276733 4289800484
0.015862964 0.020185348 -0.01813166 4289669668
0.022873171 0.0033551306 -0.0019675265 4289669668
-0.014053587 0.034723319 -0.031332459 4289407528
-0.012844183 0.036978185 -0.033783548 4289473318
-0.011105996 0.037098568 -0.03414657 4289669669
-0.0088149719 0.035086118 -0.032426558 4289800484
-0.0066948161 0.033785705 -0.03140362 4289277223
-0.0049431622 0.033907302 -0.031769238 4289211944
-0.0026146248 0.031897731 -0.030056847 4288950313
-0.00027003884 0.029889436 -0.028347762 4288884523
0.0018929727 0.028592328 -0.02733344 4289211944
0.0034657456 0.029425636 -0.028394205 4289407784
0.0052361451 0.029549006 -0.028763378 4289408039
0.0074178409 0.028253539 -0.02775277 4289146153
0.0098185632 0.026249578 -0.026054993 4288819243
0.012868317 0.022119535 -0.022294283 4288688428
0.016377499 0.016573962 -0.017163787 4288558123
0.023607487 -0.0010169633 -0.00035249232 4288558123
-0.013645638 0.031152701 -0.030305767 4288949549
-0.012606505 0.034128197 -0.033447459 4289276713
-0.01050026 0.032822229 -0.032425035 4289473574
-0.0081992261 0.030803986 -0.030712131 4289669668
-0.0060688443 0.029499874 -0.029694604 4289277224
-0.004496038 0.030334977 -0.030754007 4289342759
-0.0021601655 0.028319443 -0.029048154 4289211689
-2.9914081e-06 0.027017474 -0.028036004 4288950314
0.0021648668 0.025716407 -0.02702604 4289277223
0.0039431788 0.025840238 -0.02739693 4289734694
0.0057214834 0.025964169 -0.027767742 4289930788
0.0077052452 0.025376543 -0.027450243 4289931044
0.01031878 0.022654906 -0.025070736 4289276713
0.012953682 0.019934865 -0.022695595 4288818989
0.017104421 0.012238611 -0.015518855 4288361518
0.024340315 -0.005406294 0.0012498104 4288361518
0.047409192 -0.06695807 0.060045067 4289015083
-0.013062876 0.026853276 -0.02859579 4289014574
-0.011833876 0.029122544 -0.031041043 4289603624
-0.010077208 0.029244194 -0.031407934 4289996324
-0.0081365928 0.028650573 -0.031083636 4289407784
-0.0060040429 0.02734229 -0.030069925 4288949548
-0.0040500164 0.026749825 -0.02974833 4289015084
-0.0018986985 0.025443004 -0.028738342 4288818733
0.00026331842 0.02413708 -0.027730545 4288753454
0.0022387765 0.023546398 -0.027413199 4289015084
0.0044195317 0.022241917 -0.026409127 4288949548
0.0060031228 0.023080437 -0.027468758 4289734694
0.0077866428 0.023204839 -0.027840577 4289145898
0.010194017 0.021188343 -0.026154155 4289080874
0.013038686 0.017746063 -0.023099963 4288753708
0.017189931 0.010025937 -0.015941525 4288426799
0.047481399 -0.069415346 0.059439745 4288753708
-0.012657236 0.023254687 -0.027589697 4289210158
-0.011419792 0.025531059 -0.030031754 4289799464
-0.0098362528 0.026370956 -0.031090319 4290192163
-0.0080743171 0.026493071 -0.031458233 4289407529
-0.0063123517 0.026615271 -0.031826086 4288883758
-0.0043613091 0.026020421 -0.031505529 4288622384
-0.0022131428 0.02470904 -0.030498186 4288622128
-0.00024869666 0.024115311 -0.030180281 4288949293
0.0019181818 0.02280546 -0.029176744 4289210924
0.0038960017 0.022212878 -0.028861459 4289210924
0.0058791749 0.021620719 -0.028547181 4289145898
0.0078676715 0.021029066 -0.028233984 4289211434
0.01027704 0.019006187 -0.02655294 4288949804
0.012912884 0.016268823 -0.024191234 4289015339
0.017061954 0.0085246265 -0.017050548 4288557358
0.04711096 -0.070446834 0.057468124 4289015339
-0.012428187 0.020363569 -0.027282657 4288752433
-0.011363145 0.023366941 -0.030409917 4289668648
-0.0099577233 0.024929097 -0.032155801 4289668648
-0.0085629709 0.02649066 -0.033899426 4289341738
-0.0068064742 0.026612481 -0.03426614 4289341739
-0.0046721958 0.025295677 -0.033259291 4288752943
-0.0025272146 0.023979755 -0.032254647 4288883759
-0.00037151948 0.022664638 -0.031252116 4288622128
0.0014010817 0.022787986 -0.031621881 4289537834
0.0035728142 0.02147422 -0.030622596 4289472299
0.0053507537 0.021598145 -0.030993318 4289537834
0.007743435 0.019567437 -0.029313788 4289407018
0.010152124 0.017537994 -0.027637562 4289603878
0.012787096 0.014791869 -0.025282299 4289146408
0.016721059 0.0077412538 -0.018841073 4288557358
0.046298988 -0.070039392 0.05413986 4289538853
-0.012550492 0.018908855 -0.028357701 4289015083
-0.011662826 0.02264324 -0.032165814 4289145388
-0.010259829 0.024209579 -0.033907879 4289407018
-0.0086841658 0.025053406 -0.034961477 4289472553
-0.0067417659 0.024453456 -0.034642462 4289341483
-0.0049826913 0.024575559 -0.035009634 4288556339
-0.003032241 0.023976421 -0.034692187 4288359988
-0.00088239461 0.022656599 -0.033691779 4288163638
0.001278162 0.021337563 -0.032693502 4289080109
0.0032500178 0.020740205 -0.03238029 4289145388
0.0050251596 0.020863945 -0.032750428 4289144624
0.0072097443 0.019546937 -0.031756964 4289340974
0.009405015 0.018230729 -0.030765619 4289340974
0.011821015 0.016195379 -0.029095797 4288229174
0.015742289 0.0091221407 -0.022668473 4288163638
0.023379162 -0.010181677 -0.0047000246 4288163638
0.045046609 -0.068179905 0.049464688 4288490803
-0.013023026 0.018903716 -0.030805107 4289276204
-0.011962101 0.0219242 -0.033918269 4289538089
-0.010381054 0.022770433 -0.034971368 4289735203
-0.0088053346 0.023616448 -0.036023311 4289603878
-0.0070490837 0.023738243 -0.036389984 4289276204
-0.0052928068 0.023860145 -0.036756579 4288817204
-0.0031541474 0.022535045 -0.035757188 4288228409
-0.0011986494 0.021934178 -0.035442367 4288358968
0.00056568533 0.022056956 -0.035810411 4288097848
0.0025292076 0.021456845 -0.035497118 4288229173
0.0042962097 0.021580003 -0.03586556 4288031294
0.0060631931 0.021703273 -0.036233917 4288161344
-0.014019664 0.021088136 -0.035299893 4288097594
-0.012616247 0.022663124 -0.03703557 4288949294
-0.010862868 0.022784516 -0.037401795 4288687918
-0.0089264736 0.022179741 -0.037084959 4287705149
-0.015609119 -0.067048267 -0.0069723185 4287967289
-0.016051836 -0.067090213 -0.0094556119 4287771703
-0.016493794 -0.06712319 -0.011932196 4287575609
-0.012320485 0.0072008334 0.091028556 4283656004
-0.01011733 0.006699238 0.091354139 4283656259
-0.0039651431 0.007124763 0.090068832 4283721538
-0.0030767992 0.011763539 0.084381692 4283789113
-0.0020570792 0.015757602 0.079453029 4283988523
-0.0005550459 0.017823335 0.076781549 4283927579
0.0021498837 0.015395131 0.079360381 4283533603
0.0064675584 0.0071934611 0.088675916 4283468578
-0.01903744 0.0070330054 0.088806979 4284052274
-0.018469907 0.013632759 0.080845341 4283923499
-0.017506205 0.018291712 0.075153843 4283797018
-0.015817214 0.019720539 0.073232248 4283795743
-0.013362795 0.017921923 0.075072251 4283927069
-0.010734305 0.015479326 0.077660203 4283990564
-0.0085659176 0.014973208 0.077991433 4284056354
-0.0070449747 0.017046673 0.075320818 4284056609
-0.0053740591 0.018474452 0.073403232 4284058139
-0.0038823448 0.020545999 0.0707388 4283861024
-0.0020640716 0.021328002 0.069574773 4283792684
0.00027076155 0.020177571 0.070655704 4283727403
0.0040293261 0.013877027 0.077713527 4283793958
-0.02206666 0.0091080703 0.083477065 4283985974
-0.021631122 0.016378712 0.074776947 4283990053
-0.02051938 0.020404907 0.069848672 4283925794
-0.01914027 0.023133092 0.066429846 4283858473
-0.01717307 0.023268942 0.066018701 4283858219
-0.014740661 0.021462217 0.067858279 4283925029
-0.011976708 0.018361952 0.071193866 4283991328
-0.0096669309 0.017205095 0.072276525 4284056353
-0.0078354776 0.017990056 0.071111232 4284056354
-0.0063406974 0.020068252 0.068451136 4284056608
-0.0048618689 0.022145437 0.065794364 4283862554
-0.0030568615 0.022928683 0.064634763 4283862298
-0.00073586032 0.021772897 0.065715231 4283796764
0.0024781078 0.017387575 0.070522338 4283862298
0.0071625188 0.0078379363 0.081283249 4283992094
-0.022630218 0.009398412 0.079994708 4283854903
-0.02234488 0.017343102 0.070563272 4284055589
-0.021242794 0.0213817 0.065646961 4284060179
-0.01987372 0.024117893 0.062236857 4283927323
-0.017917279 0.024252966 0.061827932 4283993113
-0.015496209 0.022438863 0.063664868 4283994134
-0.012586445 0.018677289 0.067742601 4283992348
-0.010285139 0.01751544 0.06882368 4284056099
-0.0084615909 0.018301969 0.067661725 4284056353
-0.0068088174 0.019737221 0.065754496 4284056608
-0.0051666424 0.021171754 0.063849568 4284056354
-0.0033641942 0.021956986 0.062692136 4283925538
-0.0012198687 0.021445028 0.063025229 4283925539
0.0014586337 0.018988715 0.065589651 4283859238
0.0046954043 0.014589746 0.070380345 4283924773
0.010875387 -0.00017280132 0.087051563 4284055844
-0.02248133 0.015714519 0.069359615 4284054824
-0.021524824 0.020418743 0.063704379 4284056354
-0.020008471 0.022511201 0.061049413 4283991583
-0.018052097 0.022646235 0.060640465 4283926048
-0.016095582 0.022781329 0.06023154 4283925283
-0.013195015 0.019005928 0.064301237 4283924773
-0.010902185 0.017839137 0.065380692 4284055844
-0.0087612048 0.017324518 0.065712631 4284056099
-0.0071108043 0.018763911 0.063809246 4284056609
-0.0053029731 0.019551624 0.062652305 4284056098
-0.0033297017 0.019688198 0.06224012 4284056099
-0.0013563335 0.019824842 0.061827954 4283925284
0.00061710924 0.019961549 0.061415832 4283927579
0.0033055879 0.017497221 0.063971549 4283861533
0.0081925616 0.0072334148 0.075419545 4283861533
-0.022042699 0.011466604 0.071146488 4284120103
-0.021367129 0.017496265 0.064006299 4284121378
-0.019844942 0.019595642 0.061355066 4284055844
-0.018338636 0.021693984 0.0587072 4283924774
-0.016539343 0.022482974 0.057553466 4283926814
-0.014116693 0.020655856 0.059380088 4283926814
-0.011518072 0.018176148 0.06194761 4283926303
-0.00922288 0.017005173 0.063023269 4283990819
-0.0074123666 0.017795173 0.061867367 4284056353
-0.0054392666 0.017931657 0.061455157 4284056354
-0.0034660622 0.018068206 0.061042968 4284057119
-0.0016659684 0.018857663 0.059889372 4283925028
-4.7035515e-05 0.020299485 0.057995986 4283928854
0.0022755004 0.019130714 0.059066251 4283795489
0.0062398873 0.012092214 0.066792212 4283796508
-0.021031197 0.0045730062 0.075904332 4283722559
-0.020917624 0.013251435 0.065792598 4284120868
-0.019831009 0.017328188 0.060909439 4284056608
-0.018473148 0.020089779 0.057521585 4283926048
-0.016982272 0.022193588 0.054882005 4283862809
-0.014879536 0.021671789 0.055218477 4283730719
-0.011973172 0.017870598 0.059266951 4283797529
-0.0096837729 0.016694788 0.060340527 4283860513
-0.0077135228 0.016830996 0.059928846 4284056864
-0.0059108324 0.017622709 0.058776215 4284056099
-0.0041133985 0.018414076 0.057624772 4283991838
-0.0024942346 0.019860176 0.05573466 4283926814
-0.00088570267 0.021305637 0.053846769 4283792684
0.0014256686 0.020131702 0.05491602 4283727148
0.004653044 0.015686195 0.059673753 4283793448
0.010122664 0.0033917725 0.073274761 4283858983
-0.019735776 -0.0036741048 0.082125075 4283722303
-0.020615581 0.0096482597 0.066822298 4284054059
-0.020114861 0.01637432 0.058974236 4284057119
-0.019061849 0.020461882 0.054108102 4283925284
-0.017732635 0.023230253 0.050732911 4283859748
-0.015954372 0.02402216 0.049586888 4283859493
-0.013224691 0.020864794 0.05288798 4283795234
-0.010630246 0.018367356 0.055443019 4283859749
-0.0085086599 0.017844787 0.055774055 4283991329
-0.0067165643 0.018637929 0.054625288 4284056354
-0.0049297288 0.019430723 0.053477697 4283991329
-0.0034938082 0.02153768 0.050854884 4283928853
-0.0018983707 0.022986591 0.048973039 4283927834
4.2796135e-05 0.023121063 0.048567649 4283928089
0.0030691996 0.019315526 0.052581418 4283927579
0.0075961091 0.010260269 0.062476281 4283928088
-0.020460457 0.0066933557 0.067100212 4283855668
-0.020695403 0.016747238 0.055559158 4284056608
-0.019800626 0.021508293 0.049963392 4283993114
-0.018327538 0.023623955 0.047337405 4283860258
-0.016557209 0.024417464 0.04619468 4283794978
-0.014155064 0.022569235 0.048010595 4283862044
-0.011412881 0.019401846 0.05130079 4283992093
-0.0093022622 0.018876348 0.051632386 4283991074
-0.0075207688 0.019670868 0.050487511 4283990564
-0.0057445467 0.020465141 0.04934375 4283990819
-0.0041462034 0.021918502 0.047464613 4283926303
-0.0023831837 0.022711933 0.046323739 4283927068
-0.00026945025 0.022186963 0.046654925 4283927068
0.0022110641 0.020344645 0.048454843 4283991839
0.0059911758 0.013892688 0.055391811 4284056099
0.011499159 0.0015179403 0.068921663 4284055844
-0.020014632 0.0024029575 0.068852782 4283789623
-0.020978048 0.015806917 0.053633958 4284120869
-0.020235769 0.021246267 0.047310635 4283991074
-0.018767562 0.023368074 0.044690676 4283993114
-0.017002486 0.024163414 0.043550644 4283927578
-0.014606327 0.022308182 0.0453628 4283927069
-0.011870496 0.01912941 0.048645988 4283991074
-0.0097655058 0.018601304 0.048977077 4283990564
-0.0078221411 0.018735642 0.048571013 4284056353
-0.0060484782 0.019531861 0.047429472 4284056353
-0.0039351657 0.01900452 0.047758967 4283990563
-0.002166681 0.019800508 0.046618611 4283925029
-0.00022566319 0.019934939 0.046213232 4283924774
0.0017154068 0.020069439 0.045807883 4283925284
0.0045723841 0.016899562 0.049066156 4283925538
0.0087571125 0.0091066658 0.057444006 4284056609
-0.019133657 -0.0039018951 0.072809346 4283918654
-0.020815689 0.012874726 0.053927191 4283987504
-0.020217527 0.018997243 0.04687798 4284121889
-0.018746182 0.02112582 0.044262275 4283990564
-0.016978312 0.021923468 0.04312335 4283924774
-0.01473901 0.020726586 0.044193912 4283859748
-0.012488879 0.019530475 0.045262303 4283859749
-0.010392178 0.01899959 0.045593444 4283925029
-0.0081230998 0.017804965 0.046657935 4283990819
-0.0061824173 0.017939148 0.046252452 4284056609
-0.0038970821 0.016745735 0.047313698 4284122144
-0.0021258295 0.017544121 0.046174362 4284056353
-0.00035984814 0.018342167 0.045036227 4284056354
0.0010402352 0.020466434 0.042435959 4283929874
0.0035222024 0.018611195 0.044225588 4283928854
0.0069485884 0.013442606 0.049664624 4283862044
0.013431258 -0.0023263767 0.066774331 4283927324
-0.019913986 0.0065954775 0.057897814 4283855414
-0.019898258 0.015409067 0.047914512 4284187169
-0.018571764 0.018212063 0.044566382 4284056863
-0.017110493 0.020346491 0.041957844 4283991584
-0.015189059 0.020479068 0.041556172 4283865359
-0.013267495 0.020611711 0.041154519 4283864594
-0.010853663 0.018744718 0.042953022 4283864849
-0.0085903741 0.017545247 0.044015422 4283991584
-0.0064857155 0.017012844 0.044343323 4284056354
-0.0045477003 0.017146906 0.043938447 4284056354
-0.0029591322 0.01861269 0.042071316 4284057374
-0.001381211 0.020077856 0.040206429 4283925794
0.00018607825 0.021542311 0.038343854 4283859494
0.0021083057 0.021675548 0.037942477 4283793448
0.0055143759 0.016488101 0.0433724 4283860769
0.010656707 0.0053194501 0.055348638 4283861024
-0.018866971 -0.00038417801 0.062580965 4283656769
-0.019429527 0.011138193 0.049676038 4283989544
-0.018857528 0.017298248 0.04266217 4284056609
-0.017554339 0.020108396 0.039325573 4283925283
-0.015955366 0.021578839 0.037459269 4283729954
-0.014044594 0.02171072 0.037059858 4283729954
-0.011642098 0.019836366 0.038855728 4283798294
-0.0092234313 0.017963158 0.040648319 4283925794
-0.0071270689 0.017427979 0.040976275 4283925283
-0.0055409782 0.018897876 0.039112926 4284056099
-0.0039655194 0.020367149 0.037251808 4284056608
-0.0025779419 0.022503562 0.03466405 4283862043
-0.00084650144 0.023303617 0.033536479 4283926559
0.0012448691 0.022768436 0.033865742 4283925538
0.0044533685 0.018229948 0.038557649 4283860258
0.0086392444 0.010358557 0.046875462 4283992348
0.015177123 -0.0055113621 0.063893922 4283992348
-0.019262832 0.0081937686 0.049958829 4283923499
-0.01929586 0.017060712 0.040028963 4283990818
-0.018153027 0.020550767 0.035968173 4283861788
-0.016561817 0.022025058 0.034106754 4283728934
-0.01482017 0.022827495 0.032978326 4283727913
-0.012265325 0.020274779 0.035501733 4283794724
-0.00985533 0.018394444 0.037291087 4283927324
-0.007598225 0.017185848 0.038348161 4283925283
-0.0063606501 0.020000607 0.035032235 4284056098
-0.0047956035 0.021473464 0.033176642 4284056099
-0.0035953522 0.024285775 0.029868621 4284057373
-0.0018772073 0.025087124 0.028745435 4283993114
0.00038293749 0.023879098 0.029802144 4283927323
0.0035793483 0.019324478 0.034484934 4283993624
0.007001074 0.0141032 0.039885089 4283990819
0.01217979 0.0028628893 0.051797282 4284056099
-0.019246932 0.0059148222 0.049504012 4283525699
-0.019886203 0.017506126 0.036671616 4283990054
-0.018906049 0.021680279 0.03189043 4283928089
-0.01732526 0.023158181 0.030034482 4283928088
-0.015272573 0.022615358 0.030368049 4283994134
-0.013050906 0.021399789 0.031429082 4283994389
-0.010486078 0.01883908 0.033943795 4283991073
-0.0082374699 0.017625544 0.034999251 4284056099
-0.0068357326 0.019775856 0.03241837 4284056098
-0.0054499805 0.021925181 0.029840846 4284056098
-0.0040802211 0.024073469 0.027266707 4284056099
-0.002008196 0.023532486 0.027596613 4283990564
0.00025149435 0.022320043 0.028650083 4283990564
0.0028917678 0.019765073 0.031149432 4283991074
0.005928684 0.015868679 0.035091307 4283991073
0.0099491291 0.0086180121 0.042641141 4283990564
-0.019712299 0.014584415 0.036969803 4283989799
-0.019346967 0.021475745 0.029282935 4283991074
-0.01777124 0.022957603 0.0274314 4283925284
-0.015724175 0.022412183 0.027764462 4283924774
-0.013508335 0.021191858 0.02882332 4283924774
-0.011281673 0.019972315 0.029880024 4283990563
-0.00904423 0.018753625 0.030934475 4284122144
-0.0073100366 0.01956016 0.029811114 4284122144
-0.0055811182 0.020366406 0.028688915 4284056609
-0.0040341988 0.02184682 0.026843736 4284056353
-0.0019597597 0.021303775 0.027171522 4283991073
0.00030212849 0.020087151 0.028221153 4283925538
0.0023900457 0.019545225 0.028546188 4283927578
0.0050455891 0.016982641 0.031035755 4283796508
0.0082928501 0.012401082 0.03568482 4283862044
0.014469076 -0.0022776537 0.051137269 4283862044
-0.019386638 0.010975823 0.037989199 4283857708
-0.019166633 0.018567722 0.029589936 4284056864
-0.017743081 0.020732259 0.027014097 4284056609
-0.015854076 0.020862538 0.026619161 4283925283
-0.014128104 0.02167044 0.025498992 4283925794
-0.012075752 0.021123322 0.025829377 4283991584
-0.0098494776 0.019899486 0.026882833 4283928343
-0.0077835619 0.019353418 0.027210547 4283990563
-0.0058860593 0.019484656 0.02681412 4284122399
-0.0036354661 0.018262723 0.027862666 4284056099
-0.0013740845 0.017041562 0.028909054 4284056608
0.00035242736 0.017850088 0.027789142 4283926303
0.001704555 0.020010406 0.025228851 4283861024
0.0039767772 0.01879028 0.026273116 4283794724
0.0070193503 0.01486814 0.030193917 4283794979
0.01221245 0.003517583 0.042018447 4283863830
-0.017843995 0.001910381 0.044806074 4283525189
-0.018522207 0.013610244 0.03206655 4283923499
-0.017557632 0.017822644 0.027318466 4283991329
-0.015983928 0.019313112 0.025474012 4283925284
-0.014583781 0.0214827 0.02290814 4283930128
-0.012702689 0.02161256 0.022514954 4283797019
-0.010316588 0.019704334 0.024289411 4283796254
-0.0079143494 0.017797297 0.026060551 4283927578
-0.0058432892 0.017249504 0.026385533 4284056099
-0.0039431415 0.017380986 0.025988596 4284056099
-0.0020429306 0.017512551 0.025591705 4283990818
-0.00050604716 0.019001137 0.02375537 4283995154
0.0010201968 0.020489018 0.021921361 4283793703
0.0032839179 0.019263929 0.02296407 4283792173
0.0063172653 0.015328024 0.026876885 4283792683
0.010344716 0.0080058947 0.034370501 4283858984
0.01618671 -0.0054098666 0.048304405 4283858984
-0.017879568 0.0086310506 0.034527108 4283725363
-0.017845128 0.016951386 0.025447091 4283991584
-0.016433917 0.019128149 0.022883864 4283860258
-0.015038665 0.021303931 0.020323982 4283793703
-0.012997579 0.020751642 0.020653378 4283792174
-0.010614805 0.018836612 0.02242353 4283795233
-0.008045096 0.016241401 0.024910713 4283860003
-0.0064947456 0.017735031 0.023074694 4283991073
-0.0049550161 0.019227969 0.021241006 4284056098
-0.0032471083 0.020039417 0.020128259 4284055844
-0.001362998 0.020169927 0.019734778 4284123674
0.00033697486 0.020981027 0.018623766 4283861789
0.0027790666 0.019070672 0.020381959 4283796763
0.0058058389 0.015121248 0.024286127 4283795744
0.0088647678 0.011174094 0.028183695 4283795233
0.012150703 0.0065495819 0.032789886 4283990308
0.014881445 0.0039663464 0.035244063 4284184618
0.018434556 -0.0013327338 0.040550653 4284116534
-0.017547835 0.0049995258 0.03552746 4283460673
-0.018132206 0.016084749 0.023579126 4283990309
-0.017202951 0.020320872 0.01885841 4283862044
-0.015492767 0.021134166 0.017746473 4283861789
-0.013457321 0.020579273 0.018075364 4283860003
-0.010744672 0.017289752 0.021280337 4283926558
-0.0085170306 0.016052932 0.022323558 4283993368
-0.0073183402 0.018917343 0.019055592 4284186404
-0.006316945 0.022463569 0.015074546 4284317218
-0.0044490434 0.022592882 0.014684393 4284512549
-0.0022184476 0.021356549 0.015727287 4284445739
2.2888184e-05 0.020121088 0.016767958 4284315179
0.0022749864 0.018886419 0.017806496 4284185128
0.0047271438 0.016970323 0.01955761 4284512295
0.0068113562 0.016419623 0.019876936 4284576298
-0.0169084 -1.8693507e-05 0.037959158 4283460163
-0.018261816 0.014536031 0.022434454 4283857963
-0.017491281 0.019471807 0.017004143 4283991584
-0.015621297 0.019600758 0.016613169 4283862808
-0.013421044 0.018357502 0.017658656 4283861278
-0.011210017 0.017115084 0.018701965 4283926049
-0.0096698999 0.018616566 0.016874673 4284250154
-0.0088328272 0.022859804 0.012183486 4284250154
-0.017763894 0.010231972 0.02416309 4283789113
-0.017141037 0.015872542 0.018024132 4283990309
-0.015263118 0.016002018 0.01763148 4283990054
-0.013385106 0.01613158 0.017238874 4283987758
-0.015835676 0.0081149042 0.023331217 4283790133
-0.014257859 0.0096274279 0.021502465 4283531054
-0.013020057 0.012520406 0.01824601 4283132743
-0.012993358 -0.065069407 0.069579527 4283197513
-0.011028778 -0.064210966 0.068435393 4282739533
-0.0086128488 -0.065492347 0.069395535 4282934864
-0.011322141 -0.065224558 0.066457242 4282412368
-0.0089093968 -0.066510499 0.067414671 4282738513
-0.013720892 -0.066377923 0.064923398 4281821279
-0.011764232 -0.065515727 0.063784204 4282345559
-0.0093573406 -0.066806436 0.064739533 4282607443
-0.0063870512 -0.062423099 0.022373652 4283328583
-0.0063620731 -0.064816222 0.021829581 4282936138
-0.0050069094 -0.06168906 0.018720629 4282086988
-0.0068247505 -0.064965054 0.019270165 4282478923
-0.0051441379 -0.063328087 0.017509239 4282347343
-0.0038096905 -0.06019358 0.014411299 4283197769
-0.0071244016 -0.065856487 0.017386613 4281624673
-0.0056111775 -0.063463897 0.014960877 4282280278
-0.0041138902 -0.061072301 0.012538615 4282542674
-0.006077446 -0.063590735 0.012419215 4282345814
-0.0045851208 -0.061192941 0.010002895 4282870603
-0.0083700567 -0.064601451 0.010966165 4282148444
-0.0067075118 -0.062952697 0.009218852 4282345558
-0.0052227974 -0.060548972 0.006809107 4282544969
-0.0052831471 -0.051347453 -0.0015755375 4284507703
-0.0071720704 -0.063059241 0.0066921813 4281888599
-0.0058593601 -0.059891563 0.0036251757 4282281808
-0.0063279085 -0.059980769 0.0011127542 4282476374
-0.0067957118 -0.060060885 -0.001393029 4282410584
-0.007207334 -0.049258348 -0.011034504 4282738259
-0.0074292459 -0.059367668 -0.0045504994 4282345304
-0.0075081326 -0.050063495 -0.012852088 4282672979
-0.0080616511 -0.058661137 -0.0076980563 4282017884
-0.0081465133 -0.049331296 -0.015978627 4282346069
-0.0091913305 -0.055635195 -0.012801186 4282345304
-0.0089525729 -0.047817301 -0.019749906 4282348619
-0.0099257529 -0.045514885 -0.024161035 4282151504
-0.010779709 -0.033056844 -0.034994077 4283133253
-0.01072865 -0.043963265 -0.027904503 4281955664
-0.011248287 -0.03301641 -0.037407916 4282219334
-0.010352258 -0.047819126 -0.027086549 4281825358
-0.010177795 -0.039940652 -0.033972271 4282218568
-0.0095358863 -0.034389663 -0.038900841 4284245819
-0.0080853961 -0.05155715 -0.026673384 4282150994
-0.013093285 0.0025295317 0.026064813 4279654543
-0.012656085 0.0088963658 0.019243557 4278867105
-0.011769921 -0.0052983388 0.031313736 4279915919
-0.011800133 0.003174603 0.022366844 4278734760
-0.010125555 -0.0060587376 0.029021434 4279455898
-0.0097845495 -0.003492102 0.020616937 4282468468
-0.014007702 -0.069825813 0.062374566 4282209899
-0.012348518 -0.06751506 0.059848372 4282013548
-0.014442872 -0.070100293 0.059712354 4281946994
-0.012788631 -0.067783415 0.057192169 4281816179
-0.014877267 -0.070365712 0.057056874 4281815923
-0.013227962 -0.068042636 0.054542638 4281619573
0.013914775 0.01340903 -0.029196678 4280241044
0.020879397 -0.0037897788 -0.013301116 4280241044
0.04291378 -0.063412249 0.042098656 4280502418
0.048793904 -0.075528115 0.053161092 4280502929
-0.015019752 -0.072079822 0.055789702 4282012529
-0.013518281 -0.069021538 0.052590095 4281750643
-0.0022891797 0.02411858 -0.039912611 4281086369
-0.00014566258 0.022789717 -0.038917433 4279845028
0.001610525 0.022912022 -0.039283697 4279388578
0.0035683997 0.022309411 -0.038970757 4278995368
0.0049185157 0.023881737 -0.040694512 4279454624
0.0064649656 0.024728764 -0.041737955 4278929068
0.0086351465 0.023402274 -0.040747944 4278731443
0.012090255 0.017731173 -0.035698831 4278731954
0.017953638 0.0040986277 -0.023219116 4278797488
0.047975481 -0.075100586 0.049849801 4278731443
0.051226154 -0.078568056 0.052778635 4278338233
-0.015452929 -0.072331503 0.053144395 4282078318
-0.013956219 -0.069264874 0.049952365 4281750643
-0.012179323 -0.067660928 0.048141047 4282340714
-0.014178097 0.012235936 -0.029159369 4282732139
-0.0099615306 0.024385668 -0.041553326 4282597754
-0.0085898153 0.025963074 -0.043278791 4281025678
-0.0066643693 0.025355553 -0.04296118 4280764303
-0.0047335625 0.024748527 -0.042644594 4279717273
-0.0027973801 0.024141913 -0.042329021 4279259038
-0.0010520145 0.024263384 -0.042693093 4279127714
0.00069335848 0.024384929 -0.043057106 4278930598
0.002841711 0.023052268 -0.042066082 4278340274
0.0041840672 0.024628347 -0.043784879 4278930089
0.0074651781 0.025598813 -0.045188166 4278468538
0.010480933 0.021362126 -0.041499648 4278271679
0.024222273 -0.012515895 -0.010547514 4278271679
0.046043783 -0.071031213 0.043183316 4278468538
0.050399769 -0.07813859 0.049470957 4278271679
0.055577442 -0.080739856 0.051271334 4279259039
-0.014541276 -0.068766087 0.046634261 4281750644
-0.012772154 -0.067158371 0.044827908 4281816433
-0.014472604 0.011507176 -0.03092047 4281225853
-0.015309002 0.022598568 -0.041514646 4279193759
-0.014275651 0.025643202 -0.044602223 4278996134
-0.012723833 0.02649392 -0.045644261 4278602414
-0.0075364038 0.026853649 -0.046727296 4278468538
-0.0054259673 0.025513535 -0.045731954 4278470069
-0.0034981295 0.024904227 -0.045416333 4278668458
-0.0017609075 0.025025105 -0.045778722 4278668458
-2.368167e-05 0.025146099 -0.046141028 4278602668
0.0034507401 0.025388392 -0.046865396 4278405299
0.0049812719 0.026238659 -0.047902204 4279127713
0.0067157634 0.026359877 -0.048263624 4278603944
0.0097222421 0.022109542 -0.044583134 4278406319
0.013619464 0.014947861 -0.038216904 4278340784
0.020830335 -0.0031335428 -0.021773785 4278340784
0.049574506 -0.077695653 0.046173181 4278406319
0.052605588 -0.080456629 0.04841353 4278340784
0.054735109 -0.080306813 0.047970563 4278735014
0.057097919 -0.080883965 0.048196882 4280243084
-0.014977474 -0.068989098 0.044011544 4281815923
-0.01306314 -0.068112433 0.042894356 4281685109
-0.014079791 0.0078487694 -0.029956616 4280964224
-0.015428752 0.021173649 -0.042567689 4278603944
-0.013382159 0.027278952 -0.048725288 4278668713
-0.011843618 0.028131073 -0.049762864 4278929833
-0.010125291 0.028250227 -0.050121624 4279192229
-0.0040046349 0.024947824 -0.047817841 4278799528
-0.0022728853 0.02506833 -0.048179086 4278602923
-0.00014421344 0.023725463 -0.047190599 4278668459
0.0015928745 0.023846554 -0.047552794 4278602670
0.0042411163 0.02701371 -0.050969508 4278667949
0.0063857473 0.025672415 -0.049984086 4278734504
0.0087528657 0.023601143 -0.048328742 4278406573
0.048074849 -0.075049713 0.040877629 4278668713
0.054124415 -0.080589771 0.045347791 4278669733
0.056481555 -0.081169531 0.0455737 4278932639
0.058136322 -0.079561397 0.043797508 4282405993
-0.015117895 -0.070677891 0.042763107 4281881458
-0.013503879 -0.068324611 0.04028108 4281815923
-0.012658738 -0.00023709238 -0.024929574 4280243083
-0.014851581 0.016806692 -0.040907647 4278866339
-0.012144301 0.027461072 -0.051477637 4278735014
-0.010243867 0.026845204 -0.051159833 4278735268
-0.0083380565 0.026229762 -0.050843038 4278996644
-0.006046392 0.024145907 -0.049177609 4278602923
-0.0047032908 0.025734674 -0.050886948 4278406573
-0.002784092 0.025120528 -0.050572742 4278734504
-0.0010578111 0.025240755 -0.050932769 4278800039
0.00066845864 0.025361096 -0.051292703 4278603944
0.015148167 0.012165774 -0.040733911 4278669733
0.022855479 -0.0074849464 -0.023047794 4278342058
0.053514495 -0.08086367 0.042731795 4278538919
0.05586594 -0.081445947 0.042957198 4278538919
0.057751276 -0.080565155 0.041850816 4279456919
-0.015258271 -0.072366372 0.041514888 4282405484
-0.013793852 -0.069267154 0.038356103 4281946738
-0.012198009 -0.066908494 0.035882927 4281750388
-0.01427586 0.012422498 -0.039260343 4280570759
-0.014986403 0.022870613 -0.049093347 4278799784
-0.005015336 0.025061976 -0.052600797 4278668968
-0.0030991212 0.024445456 -0.052287623 4278603944
-0.0013756491 0.024565484 -0.052647062 4278735014
0.0003478229 0.024685632 -0.053006411 4278538664
0.001664415 0.026277365 -0.054706633 4278604454
0.0035886243 0.025661755 -0.054394774 4278997154
0.0055181459 0.02504668 -0.054083977 4278997154
0.0076644178 0.023696935 -0.053105414 4278931619
0.01003547 0.021613026 -0.051460713 4278604453
0.013723241 0.015121602 -0.045813177 4278538919
0.020531502 -0.0016508065 -0.030835776 4278538919
0.043958284 -0.066007003 0.027015263 4278997153
0.050564811 -0.08054316 0.039896484 4278997153
0.053135473 -0.08186236 0.040787376 4278538919
0.055483907 -0.082446992 0.041011773 4278669989
0.05736661 -0.081564218 0.03990759 4280832898
0.069684356 -0.085944489 0.042337339 4279783573
-0.015545756 -0.0733127 0.039586306 4282732648
-0.01438304 -0.068721741 0.035074554 4282012018
-0.012642331 -0.067098573 0.033287402 4281356923
-0.010757044 -0.066217184 0.032181405 4282012784
-0.013353866 0.0065412298 -0.036275782 4281030014
-0.014928568 0.020719854 -0.049461655 4278735014
-0.014275182 0.025276966 -0.053865939 4278537898
-0.0068551078 0.02353565 -0.053281128 4278341548
-0.005134441 0.023655277 -0.053640142 4278800804
-0.0030233152 0.022298099 -0.052658036 4278801059
-0.0016930923 0.023894869 -0.054357916 4278801058
0.00022814795 0.023276731 -0.054047287 4278801058
0.001748234 0.024134863 -0.055075377 4279063454
0.0038806982 0.022779601 -0.054097395 4278997663
0.0060238279 0.021425193 -0.053121556 4278670243
0.0081776306 0.020071587 -0.052147821 4278473638
0.010342071 0.018718872 -0.051176265 4278669988
0.013600178 0.013682101 -0.046876449 4278538409
0.019746181 -0.00093016773 -0.033932678 4278538409
0.042690955 -0.064006895 0.022451008 4278539173
0.050189368 -0.081532598 0.037958182 4278539173
0.052756824 -0.082856297 0.038846411 4278538409
0.054869618 -0.08270748 0.03840705 4278604199
0.056982312 -0.082558513 0.037967827 4280963714
-0.01452221 -0.070394322 0.033838116 4282797673
-0.013085887 -0.067279562 0.030698515 4279979923
-0.0112059 -0.06639643 0.029595308 4280963713
-0.012434032 0.00063400716 -0.033310335 4281095293
-0.01451838 0.017081073 -0.048487339 4279914643
-0.014214046 0.023135388 -0.054228123 4278473129
-0.012862302 0.024737339 -0.055929687 4278735268
-0.010783803 0.023373129 -0.0549444 4278997408
-0.0088816173 0.022750961 -0.054631852 4279128989
-0.0065946579 0.020647204 -0.052980263 4278801058
-0.0048687831 0.020767188 -0.053340368 4278735778
-0.0027528182 0.019406004 -0.052362576 4279063453
-0.00082385913 0.018786086 -0.052055243 4278539173
0.0011104159 0.018166689 -0.051748976 4278801314
0.0028469749 0.018287865 -0.05211097 4278735779
0.0049949698 0.016929343 -0.051139526 4278342314
0.0095340237 0.013475299 -0.04853747 4278407848
0.011502929 0.012858812 -0.048237968 4278473639
0.014126375 0.01002536 -0.04594614 4278604709
0.020057438 -0.0038910471 -0.03370015 4278604709
0.042547658 -0.065677643 0.021217054 4278539174
0.049814325 -0.082517341 0.036023352 4278473639
0.052148812 -0.083107412 0.036247253 4278604709
0.054256108 -0.082958952 0.035809062 4278932128
0.056363303 -0.082810357 0.035370994 4282012783
-0.015109673 -0.069828629 0.030571546 4283124584
-0.013376545 -0.068197325 0.028792575 4281160319
-0.011653997 -0.066566646 0.027015897 4281946738
-0.01047546 -0.0097650029 -0.026333556 4281423224
-0.013228476 0.0097087994 -0.044166498 4280570759
-0.013437923 0.018013919 -0.051910754 4278538409
-0.012435596 0.0211087 -0.054952048 4278669988
-0.010349572 0.019740622 -0.053971604 4278473638
-0.008066006 0.01763005 -0.052324388 4278604708
-0.0057663806 0.015520655 -0.050680406 4278277034
-0.0040272772 0.01564157 -0.051043257 4278342569
-0.0018984415 0.014276884 -0.050071418 4278342569
4.3537468e-05 0.013655752 -0.049768493 4278473894
0.0021910518 0.012292642 -0.04880042 4278539173
0.004146371 0.011672657 -0.048500113 4278539173
0.006107036 0.011053104 -0.048200786 4278604964
0.0080730021 0.010434091 -0.047902517 4278408359
0.010044282 0.0098155402 -0.047605287 4278539429
0.012234442 0.008455921 -0.046645638 4278735778
0.01486768 0.0056145191 -0.044362493 4278867104
0.020586846 -0.0076014772 -0.032811619 4278932639
0.042628605 -0.06808883 0.020644518 4278932639
0.049212739 -0.082756773 0.033431325 4278801569
0.051541552 -0.083349422 0.033654828 4278932639
0.053875603 -0.083941534 0.033877291 4279391129
-0.015546735 -0.069997728 0.027990088 4282666349
-0.013818733 -0.068362445 0.026215488 4281684598
-0.012101319 -0.066727713 0.024443155 4281684598
-0.010237195 -0.065841243 0.023346649 4282209389
-0.01176551 0.0015555657 -0.039201684 4281226108
-0.012306318 0.011378594 -0.048271239 4279259548
-0.01110338 0.013737462 -0.050641492 4279063199
-0.0091804825 0.013112277 -0.050336655 4278539173
-0.0070655495 0.011741966 -0.049365461 4278604964
-0.0051292516 0.011117928 -0.049063262 4278605218
-0.0031876005 0.010494389 -0.048762076 4278998429
-0.0014352649 0.010616321 -0.049127616 4278801823
0.00071176142 0.0092486776 -0.048162788 4278736289
0.002869457 0.0078819469 -0.047200136 4279063708
0.00483514 0.0072605126 -0.046903636 4278867104
0.0068061687 0.0066395216 -0.046608124 4278998174
0.0083664358 0.0075072721 -0.047639485 4279063709
0.010342751 0.0068868585 -0.047344912 4278998429
0.012537725 0.0055232979 -0.046389598 4279128733
0.015175439 0.0026734993 -0.044113938 4279128988
0.021333871 -0.012068093 -0.031271834 4278997918
0.042709194 -0.070504054 0.020068988 4279128733
0.04838521 -0.082244411 0.030187041 4279128988
0.050705649 -0.082839757 0.030410595 4278997663
0.053031344 -0.083434626 0.030633166 4279456664
-0.014260169 -0.068518475 0.023645045 4282273903
-0.012393437 -0.067629769 0.022549549 4281684854
-0.010374866 -0.067491084 0.022127124 4281750644
-0.010481618 -0.0058881342 -0.034933709 4280832898
-0.011355732 0.0054613315 -0.045321554 4279653269
-0.010498606 0.0093240961 -0.049023978 4279259549
-0.0085653439 0.0086974502 -0.048722968 4278997663
-0.0066267177 0.0080713034 -0.048422977 4278998174
-0.0044935755 0.0066980198 -0.047458813 4278736289
-0.0027333722 0.0068203919 -0.047826074 4278932894
-0.0011676475 0.007690087 -0.048857309 4278867359
0.00078704581 0.0070655011 -0.048560333 4278801824
0.0029469021 0.0056945644 -0.047601447 4279063708
0.0049149506 0.0050710812 -0.047307044 4278801568
0.0068883114 0.0044481382 -0.047013707 4278736033
0.0084513091 0.0053182021 -0.04804394 4278539684
0.010640472 0.0039497651 -0.047090817 4278867104
0.012840284 0.0025821999 -0.046139814 4278997663
0.01569831 -0.001021646 -0.043212064 4278867104
0.02186089 -0.015806388 -0.030403806 4278867104
0.042341694 -0.071433052 0.0181746 4278997663
0.047785334 -0.082463518 0.027610026 4278867104
0.050329313 -0.083806247 0.028489996 4279194269
0.052420117 -0.083658889 0.028055262 4278866339
-0.012839414 -0.067774951 0.01998855 4281487739
-0.010826334 -0.067636654 0.019567261 4280045968
-0.0089727379 -0.066746458 0.018476339 4280769403
-0.010781091 -0.0066103749 -0.036688548 4279260058
-0.011298709 0.0032706521 -0.04572003 4279390873
-0.010257185 0.0063941889 -0.048749693 4279259803
-0.0083188936 0.0057656877 -0.048451327 4279128733
-0.0061889589 0.0043877736 -0.047489926 4279194268
-0.0042372793 0.0037604682 -0.047194235 4279063709
-0.0024718754 0.0038832165 -0.047562569 4278932383
-0.00090076029 0.0047554262 -0.048593298 4278867359
0.001058951 0.0041290261 -0.048299015 4278736289
0.0028243586 0.0042521209 -0.048667092 4278801823
0.0049943924 0.0028776303 -0.047713496 4278605218
0.0067651197 0.0030013099 -0.048082516 4278670753
0.0087434761 0.002376657 -0.047791783 4278932638
0.010937469 0.0010042414 -0.046842948 4279063453
0.013355117 -0.0011154488 -0.04523766 4279128988
0.016435752 -0.0054775253 -0.041661609 4279260315
0.022823479 -0.021052863 -0.028230334 4278998174
0.042421937 -0.073851988 0.017596342 4279260315
0.047186241 -0.082673609 0.025039751 4278998174
0.049724326 -0.084021017 0.025917608 4279063709
0.051577948 -0.083127305 0.024829362 4281488503
-0.013284616 -0.067911133 0.017434271 4281355904
-0.011433754 -0.06701909 0.016345466 4279455388
-0.0095881447 -0.066127285 0.015257861 4281226873
-0.010904744 -0.0080808327 -0.037775222 4281226364
-0.01124201 0.0010758415 -0.046121486 4279456663
-0.010016467 0.0034557916 -0.048481606 4279390873
-0.007889729 0.002073206 -0.047522917 4279259804
-0.005938381 0.0014435351 -0.047228862 4279194523
-0.004170455 0.0015663505 -0.047597807 4279128988
-0.002593983 0.0024410523 -0.048628118 4279128988
-0.00082870945 0.0025638901 -0.048996359 4278932638
0.0011333637 0.0019354522 -0.048704166 4278998173
0.003100764 0.0013075136 -0.048413061 4278932894
0.0050734915 0.00068008155 -0.048122972 4278671008
0.0072563384 -0.00069768727 -0.047175296 4278867358
0.0092423949 -0.0013240092 -0.046887763 4278801824
0.011443887 -0.0027002394 -0.045943797 4279195034
0.013443222 -0.0033253655 -0.045658905 4279522710
0.016740756 -0.008450456 -0.041436616 4279522708
0.02356606 -0.025570977 -0.026728591 4279522708
0.042278331 -0.075525507 0.016360365 4279522708
0.046587892 -0.082874641 0.022476107 4279522708
0.048891295 -0.083477691 0.022698328 4279064218
0.050968435 -0.083331302 0.022266448 4282341224
-0.013729043 -0.06803827 0.014886665 4281748858
-0.011883508 -0.067144379 0.01380059 4281422204
-0.010043215 -0.066250786 0.012715734 4281488249
-0.011203609 -0.008795958 -0.039524809 4282405739
-0.011185665 -0.0011229962 -0.046525985 4279391639
-0.0097764581 0.00050900504 -0.048219793 4278997918
-0.0076448806 -0.00087764487 -0.047265388 4279129244
-0.0056885257 -0.0015090704 -0.046974052 4278867614
-0.0041039959 -0.00063180551 -0.048004441 4279260568
-0.0023335293 -0.00050870329 -0.048373833 4279522709
-0.00075698644 0.00036822259 -0.049402393 4279587989
0.0014040172 -0.0010157339 -0.048453718 4279195289
0.0031771585 -0.00089209154 -0.048823398 4279260824
0.0055561252 -0.0030279532 -0.047220305 4280309638
0.0077464767 -0.0044095293 -0.04627749 4280244613
0.0097402055 -0.0050374307 -0.045993246 4280899964
-0.014019016 -0.068915024 0.013011686 4282535278
-0.012176119 -0.068019211 0.01192783 4281160318
-0.010497503 -0.066365317 0.010180308 4281029248
-0.01095194 -0.004082974 -0.046272572 4279522709
-0.0095371529 -0.0024462901 -0.047964193 4279456664
-0.0074007548 -0.0038368925 -0.047014132 4279522708
-0.0056251213 -0.0037136823 -0.047384795 4279392149
-0.0036610663 -0.0043466166 -0.047096625 4279850638
-0.0020738095 -0.0034668744 -0.048125844 4279654034
-0.00049188361 -0.0025874041 -0.049153868 4280309639
0.0014775358 -0.0032196157 -0.048866551 4281423224
0.003850475 -0.0053624958 -0.047267225 4282471784
-0.012624517 -0.068128675 0.0093947258 4280044948
-0.010951042 -0.066470757 0.0076515246 4280767109
-0.009126626 -0.065573797 0.0065733846 4281687914
-0.011074003 -0.0055329576 -0.047344085 4280440454
-0.0094787776 -0.0046509653 -0.048373673 4280112269
-0.0075231008 -0.0052869059 -0.048085593 4280702848
-0.0053764991 -0.0066810437 -0.047140822 4281161848
-0.0035956502 -0.006557364 -0.047512487 4282079083
-0.01291614 -0.068991959 0.0075304937 4282273394
-0.011403807 -0.066567197 0.0051294584 4281553274
-0.0094233602 -0.066430941 0.0047151614 4281357689
-0.0082629025 -0.06248292 0.00099827186 4281884263
-0.013363209 -0.069085509 0.0050090682 4282469743
-0.011855811 -0.066654578 0.0026140234 4281684344
-0.010042023 -0.065754041 0.0015413857 4281291643
-0.012781985 -0.064431816 -0.0018700154 4281684089
-0.010820545 -0.064296871 -0.0022803524 4281225599
-0.0098409057 -0.059561733 -0.0066344934 4281360750
-0.013548184 -0.062956184 -0.0056809206 4281946228
-0.012240756 -0.059745874 -0.00871401 4281422459
-0.011118066 -0.055767979 -0.012398289 4281292664
-0.014470845 -0.06069145 -0.01013393 4282273394
-0.013176184 -0.05747335 -0.013157764 4280636804
-0.012229376 -0.052714426 -0.017485291 4280047244
-0.014109768 -0.055178698 -0.017585237 4280505224
-0.013012253 -0.051180895 -0.021247765 4280308874
-0.011112507 -0.051049974 -0.02164503 4281622124
-0.014400482 -0.05596434 -0.019390615 4280701319
-0.013141975 -0.052731242 -0.022393653 4279719059
