# .PCD v0.7 - Point Cloud Data file format
VERSION 0.7
FIELDS x y z rgba
SIZE 4 4 4 4
TYPE F F F U
COUNT 1 1 1 1
WIDTH 960
HEIGHT 1
VIEWPOINT 0 0 0 1 0 0 0
POINTS 960
DATA ascii
0.030433821 0.015454024 -0.0040310435 4288426799
0.032777153 0.014171213 -0.0030647647 4288295729
0.035349239 0.012179852 -0.0014139069 4288426544
0.038158115 0.0094804615 0.00091991294 4288557359
0.040988311 0.0067826807 0.0032492531 4288491823
0.043613676 0.0047954172 0.0048890254 4288099633
-0.02244598 0.015976626 0.00025747716 4288754219
-0.020699855 0.016825624 -0.0008494379 4288557613
-0.018813092 0.016957603 -0.001254526 4288688428
-0.016777691 0.016373158 -0.00095949508 4288688429
-0.014434453 0.014356434 0.00073347334 4288622639
-0.012690462 0.015205674 -0.00037268456 4288818478
-0.010795176 0.015338667 -0.00077928975 4288622384
-0.0090589449 0.016187556 -0.0018836334 4288818479
-0.0068423934 0.014889359 -0.00089515001 4288622384
-0.004615061 0.013591968 9.1129914e-05 4288687664
-0.0023769513 0.012295492 0.0010751467 4288360754
-0.00046780333 0.01242996 0.00066594779 4288884013
0.0014414266 0.012564555 0.00025681965 4288687919
0.0030003339 0.014128603 -0.0015409319 4289146154
0.0047264919 0.014977552 -0.002642612 4288622383
0.0068084709 0.014397569 -0.0023565879 4289015083
0.0088958405 0.013818108 -0.0020716889 4289146154
0.011174481 0.012525231 -0.0010957988 4288622383
0.012898184 0.013374396 -0.0021965792 4288818988
0.014999028 0.012796201 -0.0019143233 4289015594
0.016717453 0.013645202 -0.0030138185 4288819243
0.018627122 0.013780765 -0.0034223245 4288819243
0.020736037 0.013203487 -0.0031415438 4288884523
0.022850305 0.012626678 -0.002861836 4288753453
0.024969924 0.012050312 -0.0025831452 4288688174
0.02668035 0.012899317 -0.003680571 4288753198
0.028595358 0.013035793 -0.0040898146 4288491824
0.030935537 0.011748306 -0.0031262366 4288622383
0.033286355 0.01046171 -0.0021649012 4288426288
0.035647843 0.0091759637 -0.0012057116 4288491824
0.038461167 0.0064681694 0.0011205459 4288426289
0.041295797 0.0037620664 0.0034423033 4288295474
0.044377707 0.0003464371 0.0064431624 4288296494
-0.022015799 0.011548109 0.0019165324 4288885288
-0.020258952 0.01239999 0.00080893934 4288819498
-0.018361639 0.012532707 0.00040158071 4288753963
-0.016315866 0.011946782 0.00069271028 4288688173
-0.014113624 0.010642741 0.0016806712 4288818988
-0.012054257 0.010057978 0.0019690441 4288818733
-0.010145746 0.010191865 0.0015595751 4288753454
-0.0082371235 0.010325879 0.0011501713 4288622383
-0.006490048 0.011177808 4.5227818e-05 4288622383
-0.0040908791 0.0091590136 0.0017215684 4288884269
-0.0020095855 0.0085762441 0.0020056712 4288949803
0.00024679676 0.0072767735 0.0029825205 4288818733
0.0019969046 0.0081293508 0.0018772529 4288491823
0.003916759 0.0082647726 0.0014659101 4288949803
0.0056590103 0.0091169998 0.00036248285 4288753709
0.0075763315 0.0092524588 -4.8154034e-05 4288753709
0.0094937086 0.0093880296 -0.00045872014 4288753709
0.011782523 0.0080915019 0.00051168073 4288688173
0.013705336 0.0082276911 0.00010012556 4288753709
0.015819214 0.007648237 0.00037793536 4288557869
0.017357334 0.0092159063 -0.001411506 4288753964
0.019081179 0.010067575 -0.0025104238 4288688173
0.020998742 0.010203801 -0.0029205428 4288688173
0.023319747 0.0089102015 -0.0019565439 4288753709
0.025447048 0.00833226 -0.0016811816 4288622639
0.027372621 0.0084693879 -0.0020927629 4288426289
0.02950792 0.0078921765 -0.001818913 4288557103
0.031648532 0.0073155016 -0.0015461566 4288230194
0.033579379 0.0074533373 -0.0019586151 4288426288
0.036163419 0.0054497942 -0.00032020081 4288295473
0.038763456 0.0034474581 0.0013149176 4288426288
0.04182563 1.9475818e-05 0.0043116147 4288229683
0.044237189 -0.0012667254 0.0052570561 4288034863
-0.021727186 0.0078238398 0.0028643357 4288494374
-0.019819465 0.0079571456 0.0024546338 4288296239
-0.017766144 0.0073694438 0.0027423995 4288688684
-0.015855487 0.0075031593 0.0023322264 4288622894
-0.013793875 0.0069162548 0.0026183696 4288557103
-0.011726793 0.0063297749 0.0029034605 4288687918
-0.0096542649 0.0057438314 0.0031874152 4288622639
-0.0078939013 0.0065987483 0.0020811772 4288687918
-0.0061387755 0.0074534416 0.00097610056 4288491824
-0.0040605739 0.0068681687 0.0012591192 4288687918
-0.0018101186 0.0055638179 0.0022338564 4288818988
0.00045110285 0.0042602941 0.0032064142 4288622894
0.0022065938 0.0051154196 0.0021015657 4288818988
0.0041316636 0.0052512065 0.0016891072 4288885035
0.0058793053 0.0061059743 0.00058616046 4288819499
0.0078018419 0.0062418133 0.00017441344 4288688173
0.0099072531 0.0056592524 0.00045213569 4288884524
0.012203585 0.004358843 0.0014176527 4288688173
0.014322452 0.0037774667 0.0016926685 4288753709
0.016446691 0.0031965673 0.001966604 4288753709
0.018189263 0.0040516406 0.00086525176 4288492078
0.019926513 0.0049064308 -0.0002348898 4288622893
0.021857293 0.0050436109 -0.00064783264 4288426288
0.023788081 0.0051808953 -0.0010606898 4288557103
0.02592307 0.0046013147 -0.00078862812 4288491824
0.027856521 0.0047390088 -0.001201882 4288426288
0.0299995 0.0041602254 -0.00093136262 4288230194
0.032147799 0.0035819262 -0.00066189934 4288295729
0.033871643 0.0044365376 -0.0017585875 4288230193
0.036242787 0.0031427667 -0.00080806762 4287903029
0.038844772 0.0011340976 0.00082165189 4288034099
0.041685641 -0.0015890151 0.0031289132 4287968053
0.043871105 -0.0021641031 0.003390857 4287904303
-0.021719504 0.0055341199 0.0024087178 4288231978
-0.019951861 0.0063910708 0.0013020765 4288492845
-0.017898854 0.0058011413 0.0015882365 4288426799
-0.015692417 0.0044885576 0.0025685849 4288491823
-0.013625782 0.0038997829 0.0028519752 4288492080
-0.011400416 0.0025887489 0.0038283588 4288360753
-0.0091642253 0.0012785643 0.0048025595 4288557359
-0.0075517595 0.0028587952 0.0030026743 4288426544
-0.0057885647 0.0037161708 0.0018975409 4288557614
-0.003702689 0.0031292886 0.0021772133 4288557614
-0.001611352 0.0025428534 0.002455839 4288688684
0.0004853867 0.0019569546 0.0027333396 4288753963
0.0022436231 0.002814427 0.0016296171 4288557614
0.0043458678 0.0022291243 0.0019060988 4288557614
0.0062762089 0.0023653954 0.0014925878 4288557614
0.0082066171 0.002501756 0.0010791365 4288557614
0.010319725 0.0019175708 0.00135356 4288753708
0.012252901 0.0020543635 0.00093968958 4288622893
0.014374111 0.0014709532 0.0012125336 4288557614
0.01631004 0.0016081631 0.00079823844 4288557614
0.018439323 0.0010255575 0.0010695346 4288622893
0.020181963 0.0018829107 -3.0104071e-05 4288557103
0.022117956 0.0020204633 -0.00044415146 4288491824
0.024053948 0.0021581203 -0.00085812621 4288557104
0.02619395 0.0015767217 -0.00058879331 4288426289
0.02813261 0.0017147958 -0.0010031573 4288622639
0.030071253 0.0018529743 -0.0014174376 4288230193
0.032009877 0.0019912496 -0.0018316396 4288034099
0.03394847 0.0021296591 -0.0022457391 4288099378
0.036321763 0.00083170086 -0.0012989659 4287968564
0.038925719 -0.0011833608 0.00032537431 4288034099
0.041100249 -0.0017615557 0.00058797374 4288098868
0.042378552 0.00053137541 -0.0018651951 4287381300
-0.0233506 0.0016546696 0.0037528304 4288496414
-0.021851908 0.0039661825 0.0012547439 4288362284
-0.019941781 0.0040996075 0.00084449165 4288492588
-0.018031511 0.0042331368 0.0004342841 4288622893
-0.015677806 0.0021908134 0.0021050246 4288426799
-0.013608828 0.0016000196 0.0023862524 4288230193
-0.011534385 0.0010097101 0.0026663868 4288295729
-0.0094544813 0.00041984767 0.0029454688 4288491823
-0.0078444406 0.0020042509 0.0011493899 4288295729
-0.0057616532 0.0014148578 0.001427982 4288557614
-0.003837198 0.0015501305 0.0010152943 4288361263
-0.0015797429 0.00023748726 0.0019819429 4288557869
0.00035023317 0.0003733784 0.001568241 4288819499
0.002108518 0.001233004 0.00046613812 4288557614
0.004210446 0.0006455034 0.0007410422 4288492078
0.0061406456 0.00078174472 0.00032754615 4288557614
0.0082507096 0.00019503385 0.0006008707 4288557614
0.01036616 -0.00039118528 0.00087312981 4288623150
0.012301881 -0.00025421381 0.00045871362 4288295728
0.014237631 -0.00011713058 4.4371933e-05 4288688684
0.016363893 -0.00070224702 0.00031456538 4288557869
0.018688668 -0.0020090118 0.0012676418 4288557614
0.020240881 -0.00042714179 -0.00051487051 4288361009
0.022179406 -0.00028941035 -0.00092946365 4288687918
0.023715626 0.0012915134 -0.0027083308 4288426289
0.026260294 -0.00073502213 -0.0010767505 4288360753
0.028201483 -0.00059676915 -0.0014916584 4288557359
0.030142661 -0.00045840442 -0.0019064732 4288230194
0.031871971 0.00040089339 -0.0030011442 4288230193
0.033810429 0.00053929538 -0.0034152102 4287968563
0.036183208 -0.00076304376 -0.0024716277 4288165169
0.038566615 -0.002064459 -0.0015302654 4287968564
0.040293112 -0.0012049675 -0.0026239585 4287838259
-0.023620274 0.00080871582 0.0018999074 4288561694
-0.022123825 0.0031265765 -0.00059276447 4288296749
-0.020074252 0.002531901 -0.00030927919 4288492844
-0.018164117 0.002665408 -0.00071947835 4288427309
-0.015958685 0.0013439953 0.00025444105 4288296493
-0.013892692 0.00075078011 0.00053463504 4288165935
-0.011821218 0.00015807897 0.00081374869 4288231214
-0.0097443238 -0.00043415278 0.0010917671 4288296238
-0.0079784617 0.00042761862 -1.0743737e-05 4288230704
-0.0058959872 -0.00016398728 0.00026625954 4288623148
-0.0041352473 0.00069764256 -0.00083499029 4288819754
-0.0022135004 0.0008328259 -0.0012470186 4288623658
-0.00029166415 0.00096812844 -0.0016589873 4288688939
0.0012870654 0.0025551766 -0.0034445971 4288558124
0.0033779815 0.0019647032 -0.0031690001 4288558124
0.0054743104 0.0013747513 -0.002894463 4288427053
0.0077556483 5.9962273e-05 -0.0019358285 4288427309
0.0098654367 -0.00052883476 -0.0016640201 4288296494
0.011795674 -0.00039225817 -0.0020772703 4288427818
0.013725948 -0.00025557727 -0.002490446 4288362284
0.016036827 -0.0015677661 -0.0015378296 4288492588
0.017972505 -0.0014304668 -0.0019519851 4288623403
0.019712579 -0.00056894124 -0.0030477773 4288688939
0.021447329 0.00029231608 -0.0041423459 4288165423
0.023377707 0.00042957813 -0.0045551118 4287968819
0.025511719 -0.0001565963 -0.0042877924 4288230959
0.027857369 -0.0014656335 -0.0033420995 4288361773
0.029586764 -0.00060428679 -0.0044351649 4288361773
0.031522442 -0.00046619773 -0.0048487205 4287903283
0.033029467 0.0011175722 -0.0066176238 4287771958
0.035393707 -0.00018967688 -0.0056755543 4288034864
0.037548933 -0.00077366084 -0.0054122545 4287838513
0.039264813 8.7276101e-05 -0.0065020081 4287577649
-0.022255924 0.0015614033 -0.0017447118 4287708973
-0.020348739 0.001694575 -0.0021543745 4287904304
-0.018296678 0.0010979921 -0.0018730126 4287904304
-0.016239133 0.00050188601 -0.0015927497 4287773998
-0.014176119 -9.3758106e-05 -0.0013135355 4287643184
-0.012260381 4.0434301e-05 -0.0017247051 4287905323
-0.010189127 -0.0005543828 -0.0014471412 4287839023
-0.0084285475 0.00030917674 -0.0025468729 4288428074
-0.0065124668 0.00044373423 -0.0029578619 4288755238
-0.0047596991 0.0013070107 -0.0040557962 4288559399
-0.0026800148 0.00071318448 -0.0037796628 4288951589
-0.0011011474 0.0023045167 -0.0055621397 4289345054
0.00063855201 0.0031671673 -0.0066569704 4288363304
0.0025470592 0.0033017397 -0.0070659216 4288494119
0.0049858913 0.0012535155 -0.0054224506 4288233253
0.0069025308 0.0013888776 -0.0058329739 4288429860
0.0091834068 6.9871545e-05 -0.0048775002 4288495138
0.011105493 0.00020585954 -0.005289007 4287971114
0.013215043 -0.00038490444 -0.0050186254 4287971114
0.015329979 -0.00097521394 -0.0047492627 4287971114
0.017064735 -0.00011197478 -0.0058423989 4287644714
-0.0063021369 -0.033761606 -0.010994206 4288033589
-0.004350815 -0.033624649 -0.011412817 4288295219
-0.0023994036 -0.033487558 -0.011831342 4288098868
-0.00061385334 -0.032589287 -0.012911513 4287967289
0.0013350546 -0.032452106 -0.013329296 4287902009
0.0032840297 -0.032314807 -0.013747013 4288295219
0.0054070167 -0.032937825 -0.013504623 4287968053
0.0075353906 -0.033560298 -0.013263333 4288098614
0.0096691437 -0.034182265 -0.013023096 4288098868
0.011990234 -0.03556361 -0.012125607 4287968054
0.014137413 -0.036184356 -0.011888034 4288229939
0.016289953 -0.036804602 -0.01165153 4288360754
0.01825792 -0.036665037 -0.012072611 4287968308
0.020418502 -0.037284456 -0.011837627 4287837748
0.022975005 -0.039421231 -0.010292832 4286855234
-0.0076134242 -0.039315775 -0.0084393583 4286987324
-0.005649019 -0.039178029 -0.0088608637 4288164913
-0.0038449429 -0.038276605 -0.0099435262 4288885289
-0.0015568361 -0.039665475 -0.0090429857 4289016359
7.8983605e-05 -0.038000807 -0.010785002 4288753963
0.0022094883 -0.038625672 -0.010546096 4288360754
0.0040032193 -0.037724465 -0.01162615 4288492333
0.0059654303 -0.037586115 -0.012046616 4288688939
0.0079277046 -0.037447609 -0.012466977 4288164403
0.010069109 -0.038071215 -0.012230034 4287968309
0.012215901 -0.038694292 -0.011994135 4288426798
0.014368057 -0.039316863 -0.011759289 4288688684
0.016338501 -0.039177269 -0.01218101 4288492079
0.018498726 -0.039798997 -0.01194768 4288230194
0.020471878 -0.039658956 -0.012369797 4288491823
0.023420502 -0.043324307 -0.0095226839 4288361009
-0.0075949356 -0.041690201 -0.0089621209 4287183419
-0.0057855956 -0.040786356 -0.010044359 4288099633
-0.0039814897 -0.039882757 -0.011125375 4288688684
-0.0018568151 -0.040510491 -0.010887079 4288885289
0.00010769442 -0.040372357 -0.011308331 4288689194
0.0024087578 -0.041764416 -0.010413677 4288689194
0.0042078421 -0.040860653 -0.011493228 4288557613
0.0061752312 -0.040721923 -0.011914786 4288426798
0.0081426762 -0.040583059 -0.012336265 4288361518
0.010289066 -0.041208491 -0.012102049 4288099633
0.012440845 -0.041833393 -0.011868861 4288557614
0.014598001 -0.042457826 -0.011636689 4288361264
0.016760513 -0.043081701 -0.011405602 4288164913
0.018170115 -0.040650412 -0.013788968 4288361009
0.019755978 -0.038983643 -0.015516017 4288229939
0.022305686 -0.041133843 -0.013979666 4286529343
-0.0078862347 -0.042532116 -0.010806199 4287183419
-0.0060795285 -0.041626319 -0.011886243 4288034099
-0.0042780675 -0.040720686 -0.012965087 4288557869
-0.0021563955 -0.041350842 -0.012727749 4288950824
-0.00019470602 -0.041212909 -0.013148397 4288492844
0.0021031573 -0.042609528 -0.012256354 4288296493
0.004070323 -0.042470962 -0.012677968 4288623148
0.0062109306 -0.043099225 -0.012444347 4288164913
0.0080048367 -0.042193413 -0.013520952 4288034098
0.01015088 -0.042821027 -0.013288293 4288295728
0.012120932 -0.042681716 -0.01371013 4288230449
0.014459122 -0.044074737 -0.012826074 4288034099
0.016434573 -0.043934792 -0.013248876 4287968563
0.017652526 -0.040731326 -0.016278561 4287968309
0.019041223 -0.038294889 -0.018652428 4287182908
0.021387506 -0.039686829 -0.017769709 4286398273
-0.0081771202 -0.043369368 -0.012646839 4287313724
-0.0065302663 -0.041691266 -0.014381696 4287968054
-0.0047341064 -0.040783912 -0.015457738 4288164914
-0.0026181154 -0.0414166 -0.015220884 4288557614
-0.00049671531 -0.04204876 -0.014985073 4287641144
0.0017979629 -0.043449998 -0.014095593 4287444795
0.0037623048 -0.043311626 -0.014516607 4288164404
0.0058999024 -0.043942258 -0.014283981 4287575608
0.0076911636 -0.043034479 -0.015358388 4287182908
0.0096556731 -0.042895705 -0.015779141 4287379259
0.011801425 -0.043525368 -0.015547965 4287444283
0.013952538 -0.044154517 -0.015317824 4287247934
0.016295556 -0.045551419 -0.014438007 4286986303
0.017514098 -0.042339236 -0.017461233 4287182654
0.018903205 -0.039896265 -0.019830257 4286659139
-0.0069802292 -0.041747257 -0.016870484 4287640125
-0.0051893741 -0.040838063 -0.017943796 4287705404
-0.0029166937 -0.042245448 -0.01705309 4288032314
-0.00079830363 -0.042879999 -0.016818289 4286724674
0.0014931783 -0.044285782 -0.015931401 4286659139
0.0036250278 -0.044919163 -0.015699308 4287378238
0.0055892766 -0.044780642 -0.016120195 4286659139
0.052263901 -0.0010978431 0.021203715 4281048883
0.054971952 -0.0030527562 0.02284582 4280525879
0.04759394 0.0048364997 0.012838281 4284118063
0.048407555 0.0084875599 0.0089730108 4281763904
0.051072195 0.0065229759 0.01061947 4281632578
0.055651914 -0.0010526031 0.017763965 4281111613
0.046875976 0.011102304 0.003666156 4281828673
0.049289346 0.0098339617 0.0046245838 4281698624
0.053373739 0.0036403611 0.010383268 4281633088
0.046505049 0.010212123 0.0018067928 4280204834
0.048680902 0.009645313 0.0020775972 4280526643
0.052758113 0.0034315959 0.0078229466 4280591669
0.058321383 -0.0070129186 0.017661408 4280525878
0.046134494 0.0093266517 -4.9171038e-05 4281764413
0.048073214 0.0094657764 -0.00046275835 4281437758
0.051432777 0.0053562671 0.0032207826 4281176384
0.056740209 -0.0044141859 0.01235569 4281306944
0.046458211 0.0063137338 0.00014545117 4281634108
0.04770026 0.0085847378 -0.0023146356 4281307709
0.050819241 0.0051722452 0.0006785905 4281176383
0.05563993 -0.0032090619 0.0084308246 4281502528
0.045856759 0.0061438978 -0.0023892103 4281374263
0.046860166 0.0091337413 -0.0055234255 4279874353
0.049497169 0.0071347356 -0.0038957512 4279548719
0.054302081 -0.0012738109 0.0038400432 4279416883
0.044794288 0.0074132085 -0.0062754313 4281895738
0.046021212 0.0096962303 -0.0087223621 4281632833
0.048413258 0.008404769 -0.0077757584 4281046589
0.052488308 0.0021126717 -0.0020892899 4278375464
0.043184686 0.0042581558 -0.0056710308 4282091579
0.043964051 0.0079831332 -0.0094710616 4280007974
0.045416787 0.0095550865 -0.011234465 4281437504
0.047566947 0.0089756995 -0.010966246 4281502528
0.051393401 0.0033800229 -0.0059683858 4281110848
0.057917818 -0.010093987 0.0064483127 4280784703
0.042134937 0.005550772 -0.0095430557 4281699389
0.042904448 0.0092859268 -0.013332727 4279286834
0.044346772 0.010861471 -0.015090535 4280002874
0.046957634 0.0088410452 -0.013472115 4280328764
0.050300047 0.004665181 -0.0098343249 4280459834
0.056086384 -0.0066950917 0.00053313002 4280850494
0.072599217 -0.043044679 0.033991355 4280849474
0.041542061 0.0054174885 -0.012052207 4281504059
0.042537384 0.0084415972 -0.015158339 4280783429
0.044210292 0.0092998892 -0.016238596 4280587589
0.046349112 0.0087154061 -0.015971284 4281175363
0.049684882 0.0045260489 -0.01234202 4281372734
0.054498661 -0.0039861649 -0.0046872459 4281177149
0.071215734 -0.041170187 0.029366683 4281177149
0.039937902 0.0022594184 -0.011451552 4283265599
0.041404892 0.0038452446 -0.013208172 4281633343
0.042861119 0.00543046 -0.014962449 4281240899
0.044306621 0.0070149601 -0.016714314 4280913988
0.046683267 0.0057050511 -0.015777586 4281240644
0.049546804 0.0029494613 -0.013501033 4281503549
0.053876501 -0.0041428804 -0.0072064102 4281242685
0.070080332 -0.039996162 0.025427628 4281174598
-0.01460902 -0.00020190328 -0.0038465299 4282221118
-0.012546208 -0.00079962611 -0.0035689082 4282416704
-0.010633159 -0.00066551566 -0.0039794277 4283004990
-0.0088778622 0.00019983202 -0.0050763879 4283919418
0.024627823 -0.001143232 -0.008649841 4283006008
0.02655258 -0.0010061413 -0.0090612322 4282024769
0.028268728 -0.00014138222 -0.010148171 4281893954
0.030402042 -0.00073160976 -0.0098837335 4281828418
0.032326736 -0.0005941689 -0.010294845 4281696328
0.034251396 -0.00045662373 -0.010705862 4281500489
0.035956748 0.00040780753 -0.011790149 4281305414
0.03765671 0.001271978 -0.012873191 4281370948
0.039575893 0.0014094785 -0.01328278 4281436738
0.041722294 0.00082087517 -0.013020612 4281044549
0.043414071 0.0016847998 -0.014101658 4280979778
0.045565668 0.0010968 -0.013840441 4281110593
0.04748724 0.0012349188 -0.014250193 4281175874
0.049884647 -7.7776611e-05 -0.013321057 4281436484
0.053495746 -0.0050158352 -0.0090500712 4281435209
0.06006363 -0.018651873 0.0032320125 4281434953
-0.039790098 -0.0020244867 -0.0010532793 4281958214
-0.037887353 -0.0018926263 -0.001462739 4281829694
-0.03598443 -0.0017606169 -0.0018721428 4281699389
-0.033958282 -0.002364248 -0.0015891828 4281895229
-0.032052319 -0.0022318438 -0.0019990932 4281894718
-0.030017827 -0.0028346851 -0.0017177723 4281764159
-0.028370898 -0.0012315065 -0.0035094116 4281829949
-0.026467089 -0.0010989457 -0.0039186198 4281764924
-0.024426769 -0.001701057 -0.0036383104 4281372733
-0.022659007 -0.00083345175 -0.0047369022 4281372478
-0.020754736 -0.00070051849 -0.0051459633 4281371459
-0.01870599 -0.0013017431 -0.0048672296 4281175363
-0.016651753 -0.0019024611 -0.0045895819 4281371459
-0.01459204 -0.0025026873 -0.0043130293 4281371459
-0.012679245 -0.0023687333 -0.0047235973 4281567299
-0.010921355 -0.0015011579 -0.0058195684 4282352188
-0.0090109892 -0.0013671517 -0.0062294398 4283528249
0.024694443 -0.0034515783 -0.0091353003 4282548284
0.026415978 -0.0025843382 -0.010221861 4281567299
0.028132174 -0.0017174184 -0.011307169 4281305668
0.03026516 -0.002309829 -0.011044303 4281502019
0.032617211 -0.0036311448 -0.010109564 4281370948
0.034330659 -0.0027640611 -0.011194009 4281501764
0.036257807 -0.0026262105 -0.011605464 4281175619
0.0377414 -0.0010306463 -0.013359219 4281305668
0.039887529 -0.0016215444 -0.013098728 4281175364
0.041811854 -0.0014835596 -0.013509318 4281305669
0.043965876 -0.0020737126 -0.013250306 4281175108
0.046125155 -0.0026633218 -0.01299236 4281240133
0.048289686 -0.0032524467 -0.012735453 4281305669
0.050221711 -0.0031134337 -0.013147328 4281240133
0.054077115 -0.008793883 -0.0082214549 4281239623
-0.041037854 -0.0088886991 0.0030575795 4282281298
-0.039690997 -0.0050632358 -0.00081817806 4281696329
-0.037900578 -0.0041927472 -0.0019206498 4281305924
-0.035995092 -0.0040605962 -0.0023306273 4281176128
-0.034212295 -0.0031904206 -0.0034312941 4281241919
-0.032183614 -0.0037959665 -0.0031504668 4281307199
-0.030277606 -0.0036634952 -0.0035603382 4281437504
-0.028502267 -0.0027935132 -0.0046591572 4281633343
-0.026732091 -0.0019237846 -0.0057567824 4281045313
-0.024558585 -0.0032653213 -0.0047896467 4281371968
-0.022513088 -0.0038691685 -0.0045120362 4281241663
-0.020462137 -0.0044725463 -0.004235534 4281306944
-0.018694025 -0.0036025345 -0.0053323861 4281437249
-0.016490597 -0.0049415827 -0.0043713078 4281306689
-0.014724907 -0.0040714815 -0.0054675266 4281633089
-0.012660068 -0.004673481 -0.0051936172 4281305924
-0.010899466 -0.003803499 -0.0062885638 4282091579
-0.0091440789 -0.00293383 -0.0073822718 4283789624
0.024557818 -0.0050316826 -0.010297367 4282091579
0.026484959 -0.0048943982 -0.01070925 4281305923
0.028203856 -0.0040250495 -0.011793505 4281306179
0.030128293 -0.0038877428 -0.012204651 4281175364
0.03226627 -0.0044818968 -0.011944372 4281175108
0.034409542 -0.0050755143 -0.011685178 4281044804
0.036339216 -0.0049374849 -0.012097172 4281044804
0.038047291 -0.0040683523 -0.013178624 4281109828
0.039749961 -0.0031994656 -0.014258888 4281175364
0.041901056 -0.0037920997 -0.014000971 4281239623
0.043827839 -0.0036538094 -0.014411993 4281109318
0.046451256 -0.0057060048 -0.01282103 4281174343
0.048385896 -0.0055669174 -0.01323355 4281174343
0.050558019 -0.0061575472 -0.012979813 4281173833
0.054417085 -0.011855118 -0.008067918 4281173833
-0.039592583 -0.0081105083 -0.00058929157 4281565513
-0.037679438 -0.0079779625 -0.0010010144 4280848199
-0.035886098 -0.0071049482 -0.0021024309 4280979779
-0.033852588 -0.0077125281 -0.0018243613 4281045059
-0.031938884 -0.007579647 -0.0022359891 4281109828
-0.030025009 -0.0074466392 -0.0026475629 4281305668
-0.028241631 -0.0065739155 -0.0037465245 4281240389
-0.026330087 -0.0064408481 -0.0041574277 4281370949
-0.024418373 -0.0063076615 -0.0045682844 4281239879
-0.022367869 -0.0069134161 -0.0042933859 4281109828
-0.020453203 -0.0067797899 -0.0047047045 4281240133
-0.018394422 -0.00738471 -0.004431461 4281240388
-0.016476814 -0.0072506741 -0.0048432583 4281240644
-0.014559072 -0.0071165189 -0.0052549876 4281371203
-0.012641218 -0.006982252 -0.0056666732 4281306434
-0.010723252 -0.0068478584 -0.006078294 4281961019
-0.008962471 -0.0059756413 -0.0071715121 4284313139
0.024826586 -0.0080804378 -0.010115284 4281960509
0.026553566 -0.0072084889 -0.011199664 4281371713
0.028483218 -0.0070709139 -0.011612006 4281045059
0.030412851 -0.0069332346 -0.01202425 4281045059
0.032342456 -0.0067954436 -0.012436405 4280914754
0.03427203 -0.006657511 -0.012848452 4281045059
0.036201566 -0.0065194815 -0.013260402 4281110083
0.038131058 -0.0063813254 -0.013672255 4281175364
0.040060494 -0.0062430725 -0.014084015 4281175364
0.042216577 -0.0068374574 -0.013828836 4281174343
0.04437793 -0.0074313581 -0.013574705 4281174343
0.046312515 -0.0072923899 -0.013987295 4281174343
0.048481721 -0.0078854859 -0.013734651 4281304904
0.050656199 -0.0084781349 -0.013483011 4281173833
0.054996353 -0.015656643 -0.0072565502 4281304904
-0.039494846 -0.011166185 -0.00036666635 4281761098
-0.037693638 -0.010290638 -0.0014681863 4281044038
-0.035777766 -0.010157816 -0.0018804399 4281175364
-0.033861715 -0.010024898 -0.0022926619 4281110083
-0.031945478 -0.0098918527 -0.0027048411 4281175364
-0.03002907 -0.0097586885 -0.0031169774 4281370948
-0.02811249 -0.00962542 -0.0035290746 4281370438
-0.026195753 -0.0094920173 -0.0039411141 4281305158
-0.024278853 -0.009358488 -0.0043530995 4281174343
-0.022223342 -0.0099660605 -0.0040809913 4281175109
-0.020444605 -0.0090911016 -0.00517694 4281175109
-0.018527281 -0.0089572147 -0.0055887746 4281175108
-0.016609807 -0.008823216 -0.0060005602 4281175109
-0.014692213 -0.0086890906 -0.0064122793 4281306689
-0.012622692 -0.009295091 -0.0061427415 4281110849
-0.010856654 -0.0084204599 -0.007235535 4282026298
-0.0090958364 -0.007546097 -0.008327134 4284378419
0.024487132 -0.0089275986 -0.011950449 4281306943
0.026416654 -0.0087901577 -0.012362846 4281044549
0.028761826 -0.010125197 -0.011436754 4281044804
0.030696653 -0.0099871308 -0.011850101 4280848964
0.032631449 -0.0098489523 -0.012263347 4280913988
0.03435038 -0.0089749321 -0.013343998 4280979778
0.036282439 -0.008836709 -0.013756481 4281241409
0.038656808 -0.010169037 -0.012836155 4281305923
0.041041814 -0.01150056 -0.011917976 4281371203
0.043210905 -0.012096182 -0.01166723 4281371203
0.045156088 -0.011956543 -0.012082146 4281499979
0.047333047 -0.012551367 -0.011832898 4281499979
0.049280748 -0.012411304 -0.012248174 4281631558
0.051702749 -0.013739578 -0.011337445 4281435973
0.055814326 -0.020204991 -0.005792236 4281239623
-0.039283473 -0.014975399 0.00053737964 4281695818
-0.037591185 -0.013352245 -0.0012513222 4281370438
-0.035789747 -0.012474433 -0.0023511956 4281435973
-0.033748869 -0.01308585 -0.0020780815 4281501764
-0.03170247 -0.013696812 -0.0018060384 4281435718
-0.029778194 -0.013563126 -0.0022198809 4281435463
-0.027853753 -0.013429321 -0.0026336769 4281239113
-0.026062105 -0.012551613 -0.0037310747 4281304393
-0.024140019 -0.012417749 -0.0041441964 4281174343
-0.022356059 -0.011540398 -0.0052397335 4281109319
-0.020436343 -0.011406466 -0.005652179 4280978248
-0.018516477 -0.01127243 -0.0060645761 4280913733
-0.01674277 -0.010395467 -0.0071576545 4281110339
-0.014825296 -0.010261357 -0.007569355 4281109828
-0.012907717 -0.010127135 -0.0079809995 4281044294
-0.011144314 -0.0092505366 -0.0090715997 4282416959
-0.0090722255 -0.0098583177 -0.008804095 4284377908
0.024552699 -0.011247836 -0.012444717 4281240134
0.026484739 -0.011110209 -0.012857647 4280912459
0.02862441 -0.011710942 -0.012602885 4280781644
0.0307694 -0.012311175 -0.012349174 4280586824
0.032706723 -0.012172811 -0.012762965 4280586314
0.034644015 -0.012034334 -0.013176658 4280913223
0.037017915 -0.013371222 -0.012259585 4280979013
0.040065408 -0.016919807 -0.0093504433 4281240389
0.04336318 -0.021203682 -0.0057827141 4281435719
0.045561288 -0.0217994 -0.0055397991 4281566024
0.047535677 -0.021657646 -0.0059609395 4281630540
0.049509995 -0.021515772 -0.0063819718 4281564493
0.051952899 -0.022847004 -0.0054790806 4281303883
0.054406371 -0.024177283 -0.0045783799 4281369673
-0.038388465 -0.023280829 0.0055480534 4282412879
-0.036905508 -0.020157591 0.0023865541 4281500488
-0.034965914 -0.020023197 0.0019691465 4281566279
-0.033026155 -0.019888684 0.001551779 4281501508
-0.030961435 -0.020500533 0.0018181745 4281501764
-0.029146064 -0.019619271 0.00071719475 4281305669
-0.027335871 -0.018738277 -0.00038259849 4281174598
-0.025796395 -0.016365618 -0.0028452156 4281304393
-0.0241373 -0.014739744 -0.0046228962 4281238603
-0.022626821 -0.01236888 -0.0070791179 4280912204
-0.020709898 -0.012235172 -0.007490973 4280846668
-0.018649418 -0.012846544 -0.0072230762 4280717129
-0.016437363 -0.014202446 -0.0062770965 4280717384
-0.01480959 -0.012578145 -0.0080476543 4280912459
-0.013192337 -0.010954499 -0.0098158205 4280716108
-0.011277456 -0.010820366 -0.010226804 4282024004
-0.0090489313 -0.012174606 -0.0092840428 4284115258
0.020551991 -0.013105951 -0.012783007 4284638774
0.024415787 -0.012831084 -0.01360909 4280515424
0.026552467 -0.013434306 -0.013355424 4280123233
0.030631671 -0.013898827 -0.013516677 4280122979
0.032781646 -0.014500782 -0.013265529 4279992674
0.035367839 -0.016582407 -0.011686927 4279926883
-0.026170183 -0.02781035 0.0052574379 4282022473
-0.025531713 -0.020192444 -0.0019688122 4281753959
-0.024405401 -0.015569866 -0.0064643039 4280507518
-0.022759255 -0.013940424 -0.0082358168 4279262098
-0.020701911 -0.014554322 -0.0079689948 4279393169
-0.018639077 -0.015167706 -0.007703261 4279327633
-0.016570773 -0.015780635 -0.0074385698 4279262353
-0.014794189 -0.014898986 -0.0085289413 4279000468
-0.013174061 -0.013270818 -0.010294453 4279000468
-0.011102736 -0.013883159 -0.010030194 4279326869
-0.0090259761 -0.014494985 -0.0097670043 4279915918
-0.0069437698 -0.015106358 -0.0095048556 4279850894
-0.0051799715 -0.014225006 -0.010592033 4279719314
-0.0032568313 -0.01408983 -0.011004441 4280046734
-0.0015008561 -0.013208851 -0.012089734 4280243849
0.00041978434 -0.013073601 -0.012501416 4280440198
0.0023404881 -0.012938239 -0.012913034 4280112779
0.0047870167 -0.015038185 -0.01131085 4279589264
0.0067158528 -0.014902011 -0.01172403 4279785104
0.0091864876 -0.016999952 -0.010126865 4279784848
0.010940176 -0.0161184 -0.011211102 4279784339
0.012874488 -0.015981466 -0.011625168 4280045969
0.014431659 -0.014356032 -0.013375887 4280112014
0.016551945 -0.014963217 -0.013120835 4279719059
0.018483672 -0.014826111 -0.013534081 4279391639
0.020612 -0.01543247 -0.013280553 4279391639
0.02274568 -0.016038351 -0.013028094 4279326103
0.02468276 -0.015900493 -0.013442201 4279130009
0.026824452 -0.016505592 -0.01319122 4278867103
0.028349642 -0.014881521 -0.014934489 4278997918
0.030284025 -0.014743477 -0.015347735 4279063708
0.032430984 -0.015347786 -0.015097638 4278998173
0.035229068 -0.018178493 -0.012860546 4278998428
0.039138164 -0.024718054 -0.0073173661 4278933148
0.043977674 -0.034221709 0.00086182449 4278933914
-0.024402957 -0.017895624 -0.0069457884 4280309128
-0.023029376 -0.014761768 -0.010069947 4278736033
-0.020975012 -0.015378043 -0.0098041417 4279063453
-0.018629055 -0.017492987 -0.0081864092 4278933148
-0.01655842 -0.018107906 -0.0079239272 4278670753
-0.014630731 -0.017973147 -0.0083378684 4278802078
-0.013005041 -0.016340211 -0.010101314 4278802079
-0.010928713 -0.016954422 -0.009839749 4278539173
-0.0090033337 -0.01681947 -0.010252925 4278866849
-0.0069187991 -0.017432801 -0.0099929646 4278866848
-0.0049905665 -0.017297409 -0.010406571 4278473384
-0.0030622371 -0.017161869 -0.0108201 4278931873
-0.0013008863 -0.016278341 -0.011904889 4278866593
0.0004551895 -0.015395023 -0.012988505 4278932129
0.0022060238 -0.014511988 -0.014070866 4279195034
0.0046518408 -0.016618505 -0.01247348 4278801823
0.0065805279 -0.016482338 -0.012886622 4278866594
0.0088700615 -0.017839909 -0.011962717 4278800803
0.010621112 -0.016956389 -0.013044757 4278866848
0.012552608 -0.016819656 -0.013458219 4278801313
0.014107332 -0.015190065 -0.015205138 4278735523
0.016224619 -0.015799627 -0.014951088 4278801058
0.01834726 -0.016408697 -0.014698093 4278801058
0.020475252 -0.017017283 -0.014446159 4278604453
0.022409515 -0.016879737 -0.014859748 4278932128
0.024545521 -0.017487489 -0.014609331 4278867104
0.026482452 -0.017349504 -0.015023308 4278473639
0.028419368 -0.017211415 -0.015437191 4278539684
0.030146522 -0.01632832 -0.016513163 4278670753
0.032293141 -0.01693482 -0.016264638 4278540193
0.03509032 -0.01977428 -0.014033942 4278604964
0.0392153 -0.027077794 -0.0078446995 4278539684
-0.024535697 -0.019473113 -0.0081069041 4280177039
-0.022886444 -0.017834768 -0.0098725706 4278669988
-0.020827066 -0.01845289 -0.0096094999 4278866848
-0.018762242 -0.019070566 -0.0093474817 4278736033
-0.016837474 -0.018936127 -0.0097608883 4278867103
-0.01476438 -0.019552939 -0.0095005017 4278801568
-0.012836706 -0.019418076 -0.0099143591 4278670498
-0.010755379 -0.020034075 -0.0096555594 4278539428
-0.008824829 -0.019898765 -0.010069853 4278473383
-0.006894175 -0.019763328 -0.010484075 4278801058
-0.0049634166 -0.019627757 -0.010898219 4278407848
-0.002868358 -0.020242304 -0.010641998 4278669988
-0.0011016391 -0.019356228 -0.011726296 4278801058
0.00082936883 -0.019220278 -0.012140227 4278801058
0.0024160258 -0.017584831 -0.013891243 4278473894
0.0046915822 -0.018947996 -0.012967849 4278604453
0.0064452402 -0.018062361 -0.014048988 4278539429
0.0085540414 -0.018675208 -0.01379515 4278473894
0.010302458 -0.017789699 -0.014874982 4278801314
0.01223113 -0.017653167 -0.015287841 4278539174
0.013971627 -0.016767949 -0.016365768 4278473639
0.016088571 -0.017379731 -0.016113313 4278670244
0.018210873 -0.017990999 -0.015861893 4278473639
0.020534746 -0.019349754 -0.014948079 4278539429
0.022670422 -0.019959874 -0.014699301 4278539429
0.024609871 -0.019821838 -0.015113907 4278539429
0.026345085 -0.018936194 -0.016190177 4278343079
0.028281849 -0.018798098 -0.016604019 4278670243
0.030218598 -0.018659882 -0.017017765 4278539173
0.032367557 -0.019268431 -0.016771348 4278605219
0.034736697 -0.02062308 -0.015866546 4278408359
0.038856957 -0.027948663 -0.0096927825 4278670754
0.044131663 -0.039001688 -0.00023865979 4279063709
-0.024533715 -0.021804795 -0.0085928328 4279587478
-0.02301893 -0.019407645 -0.01103026 4278473129
-0.021099914 -0.019273832 -0.011442609 4278538408
-0.019038063 -0.01989387 -0.011181645 4278539174
-0.016825397 -0.021267168 -0.010249028 4278604964
-0.014897984 -0.021132454 -0.010662926 4278670499
-0.012819778 -0.021750972 -0.010405203 4278604453
-0.01104283 -0.020862639 -0.011490529 4278473383
-0.008803051 -0.022233516 -0.010563398 4278604454
-0.0068698637 -0.022097901 -0.010978172 4278538918
-0.004775241 -0.022714816 -0.010723615 4278538918
-0.0028392151 -0.022578754 -0.01113881 4278669988
-0.0010697879 -0.021690324 -0.012222042 4278669988
0.00069437921 -0.020802148 -0.013304068 4278735523
0.0026253015 -0.020666085 -0.013717892 4278473894
0.0047309883 -0.02128157 -0.013465224 4278539174
0.0068420544 -0.021896571 -0.013213633 4278473639
0.0085984655 -0.021008432 -0.014293613 4278604709
0.010349594 -0.020120554 -0.015372364 4278538919
0.012095425 -0.019232929 -0.016449897 4278866339
0.014212001 -0.019847013 -0.016199088 4278538919
0.016143247 -0.019710071 -0.016612327 4278408104
0.018461242 -0.021073706 -0.015700644 4278670244
0.020593897 -0.02168633 -0.015452949 4278736034
0.022533193 -0.021548443 -0.01586763 4278539429
0.024673849 -0.022160195 -0.015621493 4278604964
0.026411783 -0.02127225 -0.016696667 4278670499
0.028351057 -0.021133974 -0.017111046 4278670244
0.030499693 -0.021744795 -0.016866336 4278408614
0.03265363 -0.022355095 -0.016622661 4278736034
0.035027575 -0.023713738 -0.01572218 4278605219
0.03893375 -0.030312128 -0.010222848 4278801569
-0.024532054 -0.024140537 -0.0090817511 4279653013
-0.023014192 -0.021736667 -0.011514906 4278669478
-0.021092657 -0.021602727 -0.011927823 4278538919
-0.019170973 -0.021468647 -0.012340674 4278604709
-0.016958822 -0.022846356 -0.011411259 4278539174
-0.015031558 -0.02271165 -0.011825124 4278801058
-0.012953687 -0.02333238 -0.011568991 4278801058
-0.011023525 -0.023197226 -0.0119833 4278604453
-0.0089374296 -0.023817137 -0.011728736 4278604454
-0.0068458989 -0.024436556 -0.011475263 4278473128
-0.0050712787 -0.023545846 -0.012558164 4278473128
-0.0028103925 -0.024919294 -0.011638565 4278407849
-0.0010382757 -0.02402845 -0.012720769 4278538918
0.0010669418 -0.024646468 -0.012469826 4278539429
0.0028338693 -0.023755752 -0.01355073 4278408359
0.0049445555 -0.024373122 -0.013300756 4278539429
0.0068834536 -0.024236239 -0.013716092 4278670244
0.0086425543 -0.023345731 -0.014795063 4278473894
0.01039638 -0.022455469 -0.015872737 4278472873
0.012330081 -0.022318587 -0.016286684 4278735523
0.014451653 -0.022934541 -0.016038617 4278604453
0.0165786 -0.023549989 -0.015791545 4278538918
0.018517718 -0.023412339 -0.016206359 4278538918
0.020652689 -0.02402693 -0.015960848 4278539429
0.022793006 -0.024641022 -0.015716398 4278605219
0.025139827 -0.026006564 -0.014813891 4278605219
0.026681952 -0.024364077 -0.016547645 4278473638
0.028626416 -0.024225436 -0.01696313 4278605219
0.030989211 -0.025589466 -0.016063752 4278669988
0.033362664 -0.026952662 -0.015166512 4279062943
0.035746746 -0.028314933 -0.014271496 4278866594
0.03922737 -0.033430576 -0.010100207 4278998173
-0.024396386 -0.027239218 -0.0089019071 4279849364
-0.023146767 -0.023311116 -0.012673767 4278473384
-0.020946052 -0.024694204 -0.011745373 4278735523
-0.019019198 -0.024559788 -0.012159349 4278604964
-0.016802225 -0.025941446 -0.011234293 4278735779
-0.015017431 -0.025048472 -0.012318196 4278866338
-0.013087545 -0.02491349 -0.012732564 4278931364
-0.011157531 -0.024778366 -0.013146846 4278997154
-0.0090717711 -0.025400475 -0.012893876 4278931364
-0.0071389042 -0.025264919 -0.013308601 4278669479
-0.0050449446 -0.025886215 -0.0130572 4278866084
-0.002945561 -0.026507057 -0.012806831 4278931618
-0.0011734143 -0.02561406 -0.013887411 4279062944
0.00076247752 -0.025477789 -0.014302401 4278932128
0.0026984252 -0.025341392 -0.014717313 4279194268
0.0048087686 -0.025960945 -0.01446891 4279063199
0.0069244988 -0.026579961 -0.014221603 4279194013
0.0086863078 -0.025687128 -0.015299464 4278997408
0.010807466 -0.026305482 -0.015053121 4279062689
0.012749013 -0.026168063 -0.015468752 4278931618
0.015065894 -0.027540728 -0.014563629 4278997408
0.016822521 -0.026647739 -0.015639985 4279127713
0.018959802 -0.027264461 -0.015396712 4279193758
0.021102432 -0.027880669 -0.015154494 4279128479
0.023250414 -0.028496429 -0.014913278 4279128478
0.025604704 -0.029865794 -0.014015662 4279325338
0.027562359 -0.029726326 -0.014434061 4279063453
0.029313684 -0.028832942 -0.015508695 4279063198
0.031686611 -0.030200601 -0.014614786 4279325083
0.033858549 -0.030813999 -0.014378197 4279522198
0.036678735 -0.033686489 -0.012178789 4279326104
0.039954223 -0.038063444 -0.0086756162 4279588243
-0.024127249 -0.031107411 -0.0080580767 4280373644
-0.022595253 -0.028689556 -0.010484403 4278998173
-0.020521197 -0.029315442 -0.010231083 4278997919
-0.018299546 -0.030701265 -0.0093104411 4278866848
-0.016211908 -0.031325907 -0.0090598902 4278801058
-0.014413748 -0.030429855 -0.010145034 4279128478
-0.012470696 -0.030293956 -0.010562229 4279849108
-0.010527503 -0.030157901 -0.010979342 4279586459
-0.0087396801 -0.029262215 -0.012061994 4279193503
-0.0067989603 -0.029126108 -0.012478407 4279193249
-0.0048581436 -0.028989859 -0.012894745 4279848599
-0.0027537681 -0.029612489 -0.01264714 4279651484
-0.0011423789 -0.027958199 -0.014390489 4279979158
0.00079602003 -0.027821764 -0.01480603 4279586713
0.0027344897 -0.027685188 -0.015221478 4279717783
0.0050212741 -0.029064961 -0.014313686 4280438159
0.0069651976 -0.028927729 -0.014730101 4280306833
0.0090886317 -0.029548265 -0.014486018 4280372623
0.011217445 -0.030168265 -0.014242969 4280503948
0.013351645 -0.030787826 -0.014000944 4280766089
0.015491199 -0.031406812 -0.013760007 4280568973
0.017445985 -0.031268179 -0.014178268 4280830604
0.01940079 -0.031129427 -0.014596443 4281222538
0.021942016 -0.033260763 -0.013043436 4280764048
0.024301104 -0.034634247 -0.012150227 4280502928
0.027072467 -0.037519589 -0.0099474257 4280110739
0.029051296 -0.037378609 -0.010370343 4282468978
0.031442378 -0.038749434 -0.0094836913 4282206838
0.033426516 -0.038607806 -0.0099075399 4282994534
-0.013517309 -0.03735736 -0.0066562626 4282993768
0.021554329 -0.046819188 -0.019374732 4282337654
0.023188204 -0.047516525 -0.021624625 4282667369
-0.047387604 0.017862577 0.032751668 4285425958
-0.031875696 0.018942136 0.029417042 4285491748
-0.029809173 0.018383402 0.029723257 4285819934
-0.027091172 0.014355514 0.033640426 4285885213
-0.052366767 0.022982109 0.025134321 4285558814
-0.050754886 0.025209084 0.022541877 4285755163
-0.048954058 0.026039105 0.02140592 4285623839
-0.046528306 0.022682119 0.024626881 4285689883
-0.04418331 0.020024676 0.027116742 4285821208
-0.041927096 0.018066268 0.028877173 4285624348
-0.039993633 0.018200736 0.028461464 4285559069
-0.038175616 0.019032337 0.027322102 4285559324
-0.036481049 0.020560507 0.025460809 4285624603
-0.035159957 0.024178129 0.021434207 4285689629
-0.033494305 0.025704447 0.01957925 4285689628
-0.031460103 0.025141243 0.019890722 4285623583
-0.02890433 0.021794017 0.023084275 4285754908
-0.026321676 0.018448751 0.026272114 4285689374
-0.023712154 0.015105445 0.029454242 4285623838
-0.021075722 0.011764076 0.032630723 4285558049
-0.053176146 0.02631304 0.018893983 4285755929
-0.051383492 0.027144548 0.017761342 4285754909
-0.049493756 0.027275626 0.017354768 4285557793
-0.047289316 0.025306854 0.019121204 4285623584
-0.045176122 0.024039049 0.020160493 4285755418
-0.043052036 0.022772115 0.021197449 4285689883
-0.041029874 0.022205438 0.021509506 4285558558
-0.039233107 0.023037691 0.020376332 4285624349
-0.037441459 0.023869675 0.019244321 4285624349
-0.036017392 0.026798002 0.015950728 4285886744
-0.034243997 0.027628873 0.014822763 4285623583
-0.032097269 0.026363999 0.015855219 4285557793
-0.029810842 0.024401616 0.017604623 4285689373
-0.027376723 0.02174234 0.020069223 4285886489
-0.024921071 0.019084644 0.022529256 4285623584
-0.022307049 0.015730791 0.025702186 4285425194
-0.055104245 0.023921899 0.018879764 4285230373
-0.05369297 0.02756675 0.014849742 4285624603
-0.051811572 0.027697124 0.014444866 4285887509
-0.049827952 0.027125224 0.014763282 4285886998
-0.047629494 0.025149416 0.016526058 4285887254
-0.045414802 0.023174804 0.01828539 4285821719
-0.043513786 0.023306835 0.017876521 4285624348
-0.041612539 0.023438971 0.017467666 4285559068
-0.039941657 0.024974089 0.01561791 4285559069
-0.038163256 0.02580728 0.014490369 4285558813
-0.036510635 0.027341302 0.012644664 4285821718
-0.03474516 0.028173756 0.01152002 4285886998
-0.032480929 0.026203148 0.013269131 4285886999
-0.030329149 0.024934307 0.014297226 4285886998
-0.027772572 0.021565337 0.017474066 4285689884
-0.025457088 0.019598562 0.019212358 4285623839
-0.022715475 0.015533201 0.023094784 4285491238
-0.055422101 0.023772992 0.01628511 4285295909
-0.053918865 0.026723463 0.012987117 4285559069
-0.052040223 0.026853584 0.012582787 4285624094
-0.050059546 0.026279259 0.012900158 4285558303
-0.047968868 0.02500103 0.013937489 4285624094
-0.045760151 0.023019414 0.015693106 4285624094
-0.043864567 0.023151021 0.01528537 4285558814
-0.041968737 0.023282733 0.014877646 4285559068
-0.040302943 0.024821762 0.013032296 4285559069
-0.038647588 0.026360203 0.011189216 4285558814
-0.036761787 0.026491459 0.010783833 4285624094
-0.03499889 0.02732588 0.0096613718 4285623839
-0.032863799 0.026051376 0.010689639 4285623838
-0.030589368 0.024074998 0.012431639 4285623838
-0.028298732 0.022099823 0.014170212 4285624349
-0.025858123 0.019423552 0.016620178 4285558558
-0.023395997 0.016748868 0.019065592 4285557283
-0.055645514 0.022925861 0.014418832 4285296164
-0.054240581 0.026591957 0.010406627 4285559069
-0.052268427 0.026014693 0.010724119 4285624094
-0.050392304 0.026144668 0.010320351 4285623838
-0.048203144 0.024155069 0.012075081 4285689629
-0.045997743 0.022166636 0.013826421 4285689629
-0.043885734 0.020885635 0.014855937 4285624093
-0.041987356 0.021017466 0.014447623 4285624603
-0.040318605 0.022561025 0.012604919 4285624860
-0.038660321 0.024103995 0.010764486 4285624349
-0.036892232 0.024940815 0.0096424585 4285624093
-0.035252195 0.026482638 0.0078061176 4285689628
-0.033120241 0.025203519 0.0088317273 4285755419
-0.030977409 0.023925211 0.0098551149 4285689629
-0.028561842 0.021238338 0.012303748 4285624093
-0.026124757 0.018553104 0.014747784 4285624350
-0.023802418 0.016573746 0.01647469 4285492258
-0.055868473 0.022083316 0.012555984 4285295909
-0.054369289 0.025050852 0.0092720231 4285558813
-0.052594934 0.025889598 0.0081497757 4285755673
-0.050724242 0.026019145 0.007747137 4285952788
-0.048645128 0.024731249 0.0087803127 4285952533
-0.046448398 0.022735666 0.010528474 4285821208
-0.044235427 0.02074125 0.012273249 4285689884
-0.042230409 0.020164479 0.012582234 4285624604
-0.040449318 0.021004181 0.011458912 4285624349
-0.038908187 0.023259293 0.0089066764 4285690139
-0.037382837 0.025513362 0.0063579502 4285689883
-0.035627801 0.026351549 0.0052403761 4285952534
-0.033627067 0.025774863 0.0055506518 4285886743
-0.031236563 0.023077432 0.0079979105 4285952534
-0.02908602 0.021795344 0.0090163676 4285821208
-0.026524361 0.01839399 0.012167281 4285624093
-0.02434412 0.017114192 0.013179443 4285492004
-0.056184206 0.021957103 0.0099779805 4285230118
-0.054689731 0.024932958 0.0067015914 4285689883
-0.052723471 0.024350863 0.0070169223 4285821208
-0.050852884 0.024480354 0.0066142706 4285689629
-0.048982058 0.024609935 0.0062116245 4285820954
-0.046897862 0.023318078 0.0072404305 4285886998
-0.044802781 0.02202709 0.00826691 4285689884
-0.042696815 0.020736936 0.0092911059 4285624349
-0.040809091 0.020868022 0.0088850735 4285624349
-0.039272834 0.023129262 0.0063388711 4285689884
-0.037752394 0.025389519 0.0037960792 4285689883
-0.03588004 0.025519799 0.0033935579 4285689373
-0.034007508 0.025650177 0.0029910607 4285492004
-0.03175107 0.023652799 0.0047219442 4285689374
-0.029478464 0.021656685 0.0064493818 4285755164
-0.026923168 0.018243905 0.0095934113 4285755164
-0.02461284 0.016250607 0.011312892 4285492004
-0.056592222 0.022553798 0.0066896034 4285229864
-0.055009361 0.024824105 0.0041378001 4285755929
-0.053147111 0.024952888 0.0037368415 4285623838
-0.051284607 0.025081769 0.0033358978 4285557794
-0.049318153 0.024497621 0.0036496175 4285623584
-0.047346156 0.023913931 0.0039621992 4285755419
-0.045368586 0.023330715 0.004273654 4285755674
-0.043385472 0.022747975 0.0045839781 4285624349
-0.041625556 0.02359049 0.0034684567 4285624349
-0.03987078 0.024432715 0.0023540864 4285690139
-0.03836054 0.026698768 -0.00018157065 4285821463
-0.036376592 0.026116371 0.0001288699 4285558048
-0.034512158 0.026246153 -0.00027190614 4285426469
-0.032392126 0.024953108 0.00074632186 4285558048
-0.030130845 0.022949588 0.0024712505 4285886489
-0.027587276 0.019525096 0.0056094611 4285689373
-0.05709191 0.023879968 0.0026957458 4285164074
-0.055519272 0.026156045 0.00015105493 4285624604
-0.053667765 0.026284046 -0.00024761632 4285887253
-0.051715162 0.025696628 6.7332759e-05 4285886998
-0.049756993 0.025109682 0.00038114842 4285887254
-0.047793258 0.024523206 0.00069383252 4285755928
-0.045823973 0.023937151 0.0010054242 4285624349
-0.043849152 0.023351599 0.0013158396 4285558813
-0.042097162 0.024195693 0.00020363927 4285624349
-0.040350299 0.025039569 -0.00090743415 4285624349
-0.038608577 0.025883123 -0.0020172978 4285821719
-0.036871973 0.026726402 -0.0031259954 4285887254
-0.034890804 0.02614174 -0.002816611 4285755929
-0.033031639 0.026271205 -0.003216221 4285887254
-0.030651491 0.02354686 -0.00078653358 4285754908
-0.028249819 0.020824082 0.0016385894 4285623839
-0.025691133 0.017389819 0.0047653345 4285425193
-0.057404671 0.023787387 0.00014245976 4285032748
-0.055836912 0.026069656 -0.0023963032 4285493790
-0.054088864 0.026915107 -0.003506422 4285558813
-0.052245218 0.027042601 -0.0039033741 4285689883
-0.050194647 0.025735155 -0.0028774636 4285624349
-0.048133183 0.024428517 -0.0018537818 4285559068
-0.04595216 0.022405557 -0.0001221057 4285559068
-0.04420032 0.023251735 -0.0012327647 4285559068
