# .PCD v0.7 - Point Cloud Data file format
VERSION 0.7
FIELDS x y z rgba
SIZE 4 4 4 4
TYPE F F F U
COUNT 1 1 1 1
WIDTH 518
HEIGHT 1
VIEWPOINT 0 0 0 1 0 0 0
POINTS 518
DATA ascii
-0.014103301 -0.019577593 -0.015837532 4286986303
-0.014205702 -0.021153793 -0.01704663 4286987579
0.0056570992 -0.0088372454 0.057943095 4281815924
0.0018506497 -0.0012830421 0.047901634 4281553529
0.0028315037 0.0053122565 0.041300353 4279256743
0.0079952516 -0.00023110211 0.046224557 4278533819
0.012055695 -0.010922059 0.05633631 4278534838
-0.011115555 -0.0014460683 0.046485871 4281551488
-0.0089263394 -0.0020602793 0.046857748 4280371348
-0.0067315958 -0.0026741326 0.047228891 4281355903
-0.0049809813 -0.00039446354 0.044810511 4279587224
-0.0030162483 0.00043818355 0.043788254 4278801059
-0.0012924373 0.0027166456 0.041374236 4278866083
5.3714961e-05 0.0071628615 0.036875125 4278800038
0.0014907457 0.010884799 0.033076633 4278666419
0.0035304092 0.010992639 0.03275774 4278731189
0.014742469 -0.01612404 0.058165696 4279060903
-0.019177586 -0.0064548105 0.049306229 4282535279
-0.017853767 -0.0005351305 0.043393727 4279521944
-0.0067737363 0.0088221356 0.033100795 4278734759
-0.0047345422 0.0089295059 0.032781627 4278734759
-0.0028129257 0.0097621754 0.031767834 4278733994
0.00064514577 0.013601482 0.027661573 4279126439
0.0029200055 0.012258977 0.028732058 4278930853
0.0055911615 0.0087434575 0.031879842 4278799529
0.0093387812 -0.00056602061 0.040563941 4278799274
0.013424447 -0.011320196 0.050621416 4278603179
0.017318051 -0.020621695 0.059282888 4278472109
-0.02049797 0.0013416484 0.038962509 4279848853
-0.019208267 0.0072767586 0.033068772 4278603943
-0.017468482 0.0095681623 0.030661773 4278603688
-0.015744776 0.011858888 0.028257322 4278472619
-0.013933104 0.013420798 0.026550625 4279062178
-0.01191866 0.013526544 0.026235081 4278799019
-0.0096852705 0.012176931 0.02730814 4278799274
-0.0076652206 0.012283169 0.026991878 4278799783
-0.0056450628 0.012389533 0.026675683 4278865318
-0.0036248192 0.012495987 0.026359558 4278733993
0.008574076 0.0014044195 0.035834424 4278340019
0.012242757 -0.0072035491 0.043797705 4278537899
0.016249182 -0.017260619 0.053131063 4278931619
-0.020883836 0.0018870682 0.035613742 4280373898
-0.01979281 0.0093002543 0.028345041 4278734758
-0.016456917 0.014624186 0.022853889 4278536878
-0.014557406 0.015459396 0.021846525 4278733739
-0.012450017 0.014834367 0.022226129 4278274483
-0.0078827739 0.011396199 0.025059614 4278668969
-0.005980134 0.012231998 0.024052087 4278930854
-0.0042001978 0.013797112 0.022354081 4278668713
-0.002190806 0.013903089 0.022039726 4278864808
-0.00030411407 0.014738373 0.021034945 4278930344
0.001828216 0.014115401 0.021411229 4278799018
0.0044787601 0.010577224 0.024545413 4279061414
0.0074181557 0.0055830553 0.02905396 4278930343
0.010796193 -0.0015948266 0.035623107 4278472363
0.014909761 -0.012412041 0.045625895 4278800293
0.018965403 -0.022496551 0.054928135 4278865829
-0.020711131 -0.0019516051 0.036436122 4281028229
-0.01989767 0.0076818392 0.02710351 4279259548
-0.01856418 0.012915947 0.021937933 4278537644
-0.01022353 0.011139996 0.022755351 4278472109
-0.0083236992 0.01197771 0.021749794 4278603434
-0.0063146129 0.012083441 0.021435302 4278734504
-0.0044226833 0.012920909 0.020431191 4278472363
-0.002416119 0.013026737 0.020117275 4278668713
-0.00040948763 0.013132669 0.019803423 4278799783
0.0015972182 0.013238713 0.019489646 4278734504
0.0038600788 0.011882715 0.02055198 4278798764
0.0096194074 0.0025959089 0.028856207 4278602924
0.013709087 -0.0082549378 0.038837571 4278668713
0.01774098 -0.018370859 0.048119999 4278603179
0.021282323 -0.025561251 0.054647114 4280438668
-0.020353623 -0.0072731078 0.038632486 4282208368
-0.019811474 0.0045938492 0.027245075 4279456919
-0.01866816 0.011312924 0.020708233 4278537898
-0.017068774 0.014356367 0.017631959 4278669479
-0.015076451 0.014460765 0.017319743 4278865319
-0.013190325 0.015299648 0.016317874 4279127204
-0.010655478 0.011733048 0.019452754 4278930853
-0.0085403286 0.011104293 0.019827928 4278734758
-0.0064196736 0.010475948 0.020202324 4278800039
-0.0045277365 0.011315562 0.019199893 4278603944
-0.0022817105 0.0099540204 0.020261224 4278537898
-0.00039232522 0.010793768 0.019259319 4278602924
0.0014917403 0.011633292 0.01825837 4278537389
0.016934985 -0.01640819 0.043392576 4278864809
0.020744059 -0.025085904 0.051273718 4279388323
-0.019997433 -0.012615904 0.040812507 4282733158
-0.0197258 0.0014975592 0.027380187 4281356924
-0.018772073 0.0097102001 0.019478749 4278735013
-0.017172277 0.012762234 0.016409095 4278407338
-0.015283559 0.013603278 0.015408407 4278668713
-0.0066389628 0.0096048191 0.018282764 4278799528
-0.0045158118 0.0089745298 0.018655159 4278603943
-0.0025068223 0.0090804622 0.018340845 4278603688
-0.00062013045 0.0099221542 0.017341059 4278733993
0.0008860454 0.012970276 0.014286849 4278537134
0.0027539767 0.013811193 0.013290179 4278667183
0.0048774779 0.013181493 0.013662959 4278732718
0.01543761 -0.010749519 0.035266906 4278668204
0.019359086 -0.0201893 0.04381502 4278930598
0.022918897 -0.027421668 0.05030575 4282404973
0.025652738 -0.030244753 0.052697729 4282337653
-0.019457549 -0.019458786 0.044353288 4282601834
-0.01945018 -0.0030855909 0.028885134 4281553528
-0.01858218 0.0058904365 0.020312555 4278800803
-0.017074477 0.0096905157 0.016560975 4278341803
-0.015283681 0.011272781 0.014874271 4278603179
-0.0048545711 0.0088438168 0.016053211 4278472618
-0.003090173 0.010425411 0.014371117 4278603178
-0.0013364963 0.012006484 0.012690828 4278799528
0.0021386519 0.015167333 0.0093355002 4279519904
0.0042510703 0.014534876 0.0097083272 4278930598
0.006901022 0.010953806 0.012809171 4279126693
0.01012091 0.0044258237 0.018632971 4278471854
0.013943128 -0.0050473511 0.027174648 4278406319
0.017976709 -0.015253499 0.036386378 4278996644
0.022085933 -0.02545549 0.045586407 4278931109
0.024805538 -0.028287962 0.047973864 4282470509
-0.019175641 -0.0076857135 0.030377056 4281815669
-0.01878421 0.0050231144 0.018392477 4279194269
-0.01747961 0.010316007 0.013278457 4278407594
-0.015799958 0.012643144 0.010911125 4278340529
-0.01381873 0.01274702 0.010600685 4279126948
-0.012054555 0.014332406 0.0089216782 4278865063
-0.0097446814 0.012214586 0.010663939 4278930344
-0.0075324923 0.010838099 0.011720299 4278537134
-0.0053094216 0.0094623417 0.012775003 4278733994
-0.0037917346 0.01252804 0.0097322268 4278472618
-0.0020514131 0.014112704 0.0080573717 4278603434
0.012589797 -4.0821731e-05 0.019795433 4278669223
0.016455948 -0.0095395148 0.028308537 4278538663
0.020967059 -0.021989733 0.039526168 4278407593
0.024252553 -0.027786613 0.044623662 4281816179
-0.018712267 -0.0137899 0.033225536 4281881203
-0.018595345 0.0011866763 0.019213486 4281487993
-0.017883863 0.010954797 0.010006065 4278865318
-0.0058799237 0.010836549 0.0088255694 4278799528
-0.0042533688 0.01316797 0.0064721415 4278603434
-0.0025210157 0.014756553 0.0048018396 4278603433
-0.00055011362 0.014860667 0.0044936277 4278733993
0.0014208443 0.014964871 0.0041854773 4279061923
0.0036519393 0.013585754 0.0052360548 4279061924
0.0060266033 0.01146581 0.0069638556 4278799783
0.0085529536 0.0086053535 0.0093676904 4278603688
0.011515349 0.0035223067 0.013802371 4278735013
0.015360592 -0.0060054734 0.022296909 4278866594
0.019993741 -0.019234367 0.034166515 4278735523
0.023407977 -0.025790289 0.03993012 4282078063
-0.018440146 -0.018428266 0.034688111 4282012018
-0.018504787 -0.0019167736 0.019342039 4281749878
-0.017986629 0.0093704909 0.0087907193 4278931108
-0.016829006 0.015436605 0.0030252561 4278472363
-0.014764044 0.014794119 0.0033997148 4278603179
-0.012693588 0.014152065 0.0037733419 4278406319
-0.010395642 0.012020685 0.0055073826 4278471854
-0.0081951022 0.010634951 0.0065588327 4278865318
-0.006100066 0.0099945441 0.00692889 4278996644
-0.0042377487 0.010843404 0.0059395125 4278800293
-0.0023807511 0.011692084 0.0049510607 4278538408
-0.00040458888 0.011796467 0.0046420181 4278735014
0.0016988143 0.011156939 0.005011105 4278734504
0.0036777854 0.011261694 0.0047017979 4278472363
0.0056568012 0.011366554 0.0043925783 4278734248
0.007771153 0.010727964 0.0047602309 4278274738
0.010580897 0.0063725486 0.0085090334 4278864808
0.01440794 -0.0031841695 0.016984608 4279061670
0.01902217 -0.016452819 0.028827012 4278931619
0.023003144 -0.026001118 0.037278745 4279193759
0.025863972 -0.029602557 0.040322043 4282536808
0.039305761 -0.031886123 0.041019123 4282667623
-0.018263739 -0.022335708 0.035456199 4282733414
-0.018220011 -0.0065240934 0.020826332 4281684088
-0.017989285 0.0070389137 0.0082562426 4280439178
-0.016725216 0.012374915 0.0031838538 4278472873
-0.014866065 0.013225175 0.0021962011 4278538408
-0.012795892 0.012580939 0.0025681807 4278472873
-0.010831077 0.012684137 0.0022604605 4278996389
-0.0087526068 0.01204057 0.0026313262 4278538153
-0.0066686682 0.011397392 0.003001417 4278341803
-0.0044602789 0.010007985 0.0040484508 4278669478
-0.0024843328 0.010112233 0.0037393486 4278473129
-0.00038396567 0.0094702914 0.0041071521 4278669224
0.0015947968 0.0095748976 0.0037977742 4278472365
0.0034438744 0.010425657 0.002812502 4278668714
0.0096482038 0.0092489645 0.0032358458 4278271934
0.017909091 -0.012899749 0.022833735 4278471344
0.022015102 -0.023222275 0.031940375 4278800039
0.025602104 -0.030560523 0.038343158 4281422203
0.036563702 -0.031479813 0.03802732 4282667623
-0.017741859 -0.012648173 0.02365645 4281684089
-0.017592493 0.0017042905 0.010434612 4280963458
-0.016621962 0.0093049332 0.0033360152 4278604454
-0.014968041 0.01165653 0.00099291187 4278407338
-0.013006177 0.011759438 0.00068554934 4278472618
-0.0027093999 0.0092813447 0.0018522432 4278668713
-0.00086044893 0.010134012 0.00086847413 4278930853
0.0011100769 0.010238193 0.00056039263 4278602924
0.0030806549 0.010342471 0.00025237631 4278340019
0.0046543665 0.012691028 -0.0020772447 4279192484
0.006481912 0.013543054 -0.0030573537 4278931108
0.016511817 -0.0078211799 0.015519385 4278669223
0.021174602 -0.021164544 0.027293924 4278866085
0.025192037 -0.030766629 0.035696425 4279390364
0.027767595 -0.032894455 0.03737846 4282405739
-0.01736242 -0.018045716 0.025789186 4282011253
-0.017396618 -0.0021478012 0.011242027 4280635530
-0.016621698 0.0069783777 0.0028048782 4279128224
-0.015175164 0.010839857 -0.00088665355 4278538153
-0.013431892 0.012445562 -0.002545685 4278734503
-0.0075704232 0.012753665 -0.0034634997 4278272444
-0.0030555166 0.0092057958 -0.00070523936 4278668713
-0.0014601052 0.01156161 -0.0030335607 4278930854
0.00024594367 0.013166167 -0.0046861363 4278471599
0.0061087832 0.013476796 -0.005602241 4278733484
0.0084758326 0.011330806 -0.0038931714 4278405809
0.015260099 -0.0034530535 0.0089056427 4278472108
0.01989856 -0.016836427 0.020653781 4278735014
0.024189107 -0.027966447 0.030377656 4278866084
0.027352136 -0.033098422 0.034734532 4280635784
0.029169071 -0.031486697 0.033065561 4282863209
-0.017002262 -0.0075206384 0.013391078 4280373134
-0.016621679 0.0046477839 0.0022707125 4279260569
-0.015381981 0.010027744 -0.0027626501 4278669223
-0.013856739 0.013144925 -0.0057667685 4278668203
-0.012242537 0.015507549 -0.0080934223 4279258019
-0.010191917 0.014856033 -0.0077232537 4279323554
-0.0080199912 0.013451703 -0.0066807312 4278995880
-0.0054815821 0.0097888187 -0.0036216537 4278799274
-0.0035222732 0.0098921582 -0.003928178 4278668458
-0.0020586066 0.013006732 -0.0069220816 4278865319
-0.00036322325 0.014615051 -0.0085696876 4278996134
0.014296345 -0.00055372715 0.00365646 4278930598
0.018624827 -0.012473479 0.014040359 4278472873
0.023039702 -0.024388544 0.024410922 4278669478
0.026484506 -0.03103932 0.030094493 4279390618
-0.01660927 -0.012914754 0.015523803 4281028229
-0.016519707 0.0015571192 0.0024069939 4280963968
-0.015693359 0.0099761859 -0.0053082788 4278865829
-0.0038670525 0.0098366141 -0.0064703086 4278537898
-0.0021607988 0.011449642 -0.0081163133 4278472108
-0.00059176609 0.013817064 -0.01043037 4278603178
0.0012195036 0.014674418 -0.011403034 4278734249
0.0032891743 0.014022559 -0.011036899 4278996134
0.0053642839 0.013371103 -0.010671526 4278930343
0.0077193901 0.011211582 -0.0089706453 4278865319
0.010230694 0.008298941 -0.006604542 4278734504
0.01304896 0.0038797185 -0.0029071881 4278603943
0.016917281 -0.0058143213 0.0054531265 4278604454
0.021596167 -0.019272782 0.017134719 4278604454
0.025467549 -0.028204806 0.024805203 4278604454
0.028022436 -0.030352958 0.026475474 4282537063
-0.016316988 -0.01757174 0.016967874 4282731629
-0.016316194 -0.0023001358 0.0032088663 4281029759
-0.015794627 0.0084173754 -0.00650403 4279062689
-0.014703777 0.014583297 -0.012178462 4278930854
-0.012995064 0.016200177 -0.01382195 4278603179
-0.010958508 0.015543602 -0.013452947 4278275249
-0.0088009275 0.014129892 -0.012414901 4278406318
-0.0063959658 0.011202089 -0.010039617 4278734504
-0.004211247 0.0097900108 -0.0090055848 4278800039
-0.0025102533 0.011407085 -0.010647469 4278668969
-0.00069365278 0.012266733 -0.011619394 4278668968
0.0011176057 0.013126224 -0.012590388 4278406828
0.0034504682 0.010958865 -0.010891308 4278537898
0.0052618049 0.011818595 -0.011862126 4278472363
0.0073420517 0.011165395 -0.011499126 4278406828
0.00928789 0.011268832 -0.011802913 4278602924
0.011946421 0.0075918809 -0.0087785395 4278406829
0.015648603 -0.0013752505 -0.0011019241 4278407593
0.020451091 -0.015629493 0.011218053 4278604198
0.024753608 -0.026855446 0.020864721 4278735013
0.027910432 -0.032032751 0.025187485 4281357434
-0.016011551 -0.0069304034 0.0046713371 4281029758
-0.015791252 0.0060986131 -0.0070297094 4279456408
-0.014804039 0.013042025 -0.013360735 4278538408
-0.012985181 0.013903216 -0.014331907 4278538664
-0.010833506 0.012484796 -0.013296371 4278407338
-0.0090171732 0.013346069 -0.014266971 4278472873
-0.0069699548 0.012688145 -0.013901128 4278930853
-0.0046756528 0.010511778 -0.012201373 4278735014
-0.0026121065 0.0098549351 -0.011837916 4278538408
-0.00066931546 0.0099576041 -0.012141702 4278341548
0.0011446327 0.010819368 -0.013111451 4278472618
0.0033480227 0.0094045028 -0.012083364 4278471853
0.0051593557 0.010266371 -0.013052513 4278602668
0.011130691 0.0098179877 -0.013298576 4278337468
0.014672425 0.0015823692 -0.006303193 4278271934
0.023739852 -0.023972876 0.015612348 4278929068
0.027492061 -0.032196842 0.022575162 4279455389
-0.015606221 -0.012340136 0.0067894356 4282076789
-0.015474681 0.0014885888 -0.0055538174 4280111503
-0.014475565 0.0084519461 -0.011871637 4278472873
-0.012645919 0.0093158484 -0.012842818 4278341548
-0.010709021 0.0094176084 -0.01314615 4278341039
-0.001023408 0.0099282563 -0.014661561 4278668969
0.00078512728 0.010791935 -0.015628833 4278537898
0.0028512366 0.010133378 -0.015267137 4278602669
0.0063154697 0.012621105 -0.017861817 4278864299
0.0082448088 0.012723669 -0.018163025 4279651229
0.010600924 0.010545097 -0.016477201 4278733483
0.018019389 -0.0074913502 -0.0012065419 4278536113
0.022276804 -0.018784143 0.008396917 4278995878
0.026615161 -0.030072488 0.01798784 4278996643
0.029477034 -0.033759452 0.020964235 4282536809
-0.015405525 -0.016241662 0.0075572589 4282469743
-0.015263539 -0.002373755 -0.0047574919 4280242318
-0.014362253 0.0053738132 -0.011727826 4279718804
-0.012746688 0.0077686682 -0.014029606 4278341293
-0.010809936 0.0078704059 -0.014332923 4278603179
-0.0076431483 0.012657434 -0.018926021 4278405553
-0.0013769157 0.009907864 -0.017174631 4278668458
0.00042622536 0.010773346 -0.018139344 4278930854
0.0022240058 0.011638649 -0.01910314 4278668203
0.0053933598 0.015657395 -0.023012411 4278471599
0.0074457601 0.014996372 -0.022650011 4279258274
0.0099299103 0.012048043 -0.020306379 4279061668
0.013014885 0.0060512796 -0.015325082 4278800039
0.02066615 -0.012794189 0.00055207405 4278275759
0.025128115 -0.024878286 0.010781421 4278735014
0.028431617 -0.03086286 0.015729044 4278867104
0.030986793 -0.033036508 0.017379384 4282406249
-0.014844798 -0.0077822432 -0.0026409873 4281225088
-0.014356356 0.0030538663 -0.01225484 4280635783
-0.013176199 0.0085211024 -0.017208375 4278407338
-0.0098940358 0.012554601 -0.021128427 4278930088
-0.0080965348 0.013421424 -0.022090975 4279323298
-0.0061839856 0.013522252 -0.022390224 4279258018
-0.0040252209 0.012091756 -0.021365508 4278799528
-0.0017298236 0.0098963454 -0.01968082 4278340784
-6.057322e-05 0.011529163 -0.02130416 4278930854
0.0017291121 0.012396187 -0.022265017 4278734248
0.015006918 0.0038351044 -0.016163671 4278800294
0.018908335 -0.0059965253 -0.0079172011 4278604198
0.023643665 -0.019644976 0.003604982 4278866338
0.027543399 -0.028704129 0.011170789 4278866849
-0.014635533 -0.011674143 -0.0018673418 4281684344
-0.014457468 0.0014986843 -0.013447804 4281225854
-0.013714299 0.010055363 -0.021039385 4279128479
-0.010568142 0.014866754 -0.025609329 4278340019
-0.0086665973 0.014966846 -0.025906969 4279061413
-0.0067649893 0.015067101 -0.0262045 4278668204
-0.0022077784 0.010661528 -0.022840079 4278799528
-0.00041815266 0.011530571 -0.023799345 4278603433
0.0013661198 0.012399465 -0.024757672 4278669224
0.0028775744 0.014802836 -0.027032319 4278669223
0.0045093112 0.016438253 -0.028646138 4278931364
0.0062693842 0.017306261 -0.029600453 4278865829
0.0087332018 0.014339685 -0.027267039 4278866084
0.011363134 0.010607652 -0.024279974 4278866083
0.014167268 0.0061105341 -0.020640504 4278800803
0.017903257 -0.0029833391 -0.01306949 4278473383
0.022619668 -0.016671471 -0.0015744525 4278735779
0.026967254 -0.028055809 0.0079397922 4278801314
0.029815663 -0.031775527 0.010893277 4282798694
-0.014531001 -0.014807709 -0.0017649522 4282273393
-0.014238711 -0.0023688301 -0.012657022 4280963969
-0.013923291 0.009294875 -0.022874691 4278538408
-0.013016649 0.016330846 -0.029117607 4278341293
-0.0025593638 0.010669991 -0.025330946 4278865829
-0.00064695254 0.010771148 -0.025629908 4278603943
0.0011346042 0.011642091 -0.026586171 4278603943
0.00277723 0.013282262 -0.02819844 4278800804
0.0046816617 0.013383366 -0.028495859 4279062689
0.006447129 0.014253758 -0.029449303 4278735268
0.0089156218 0.011278853 -0.027123306 4278866083
0.011261314 0.0090741143 -0.025455914 4278604199
0.01377029 0.0061015785 -0.023136057 4278407848
0.017049696 -0.00071264803 -0.017547274 4278342314
0.021597411 -0.013671845 -0.0067338524 4278539174
0.02654716 -0.028162591 0.0053725764 4278539174
-0.014426995 -0.017949529 -0.001668978 4282600304
-0.014020752 -0.006249018 -0.011875885 4281095039
-0.013913646 0.0069932193 -0.023388259 4279980943
-0.013115048 0.01482144 -0.030275397 4278603944
-0.011568367 0.017238691 -0.032546185 4278931109
-0.009451475 0.015792824 -0.031525105 4278996643
-0.0072037764 0.013575353 -0.02984827 4278931364
-0.0049398355 0.01135882 -0.028173849 4278931364
-0.0026596524 0.0091432855 -0.026501853 4279128224
-0.00074740127 0.0092444345 -0.026800785 4278669733
0.001164902 0.0093457177 -0.027099628 4278407849
0.0030772388 0.0094471201 -0.027398385 4278473129
0.0049896054 0.0095486343 -0.027697053 4278407594
0.0069020018 0.0096503124 -0.027995605 4278276524
0.0090974793 0.0082097203 -0.026986014 4278276779
0.014108565 0.0022470355 -0.022358699 4278408104
0.017244989 -0.0038154349 -0.017438808 4278670499
0.021338522 -0.014499106 -0.0086113727 4279391639
0.026127659 -0.028260477 0.0028121769 4279785359
0.029436667 -0.034313254 0.0077054566 4282405483
-0.013803605 -0.010141753 -0.011104452 4281815669
-0.01368618 0.0031374171 -0.022589987 4281422203
-0.012878247 0.010987587 -0.029461846 4279128989
-0.011323199 0.013411716 -0.031728923 4278997408
-0.0093157738 0.012736611 -0.031368621 4278604199
-0.0070632584 0.010512903 -0.029697523 4278801059
-0.0047945008 0.0082902387 -0.028028913 4278473384
-0.0026347153 0.0068426952 -0.027017616 4278342569
-0.00059200451 0.0061699226 -0.026662461 4278342569
0.0014561415 0.0054975823 -0.026308052 4278408104
0.0033764094 0.0055994242 -0.026608035 4278604454
0.005432725 0.0049276948 -0.026254676 4278735523
0.0074944459 0.0042564347 -0.025902089 4278538918
0.0097029693 0.0028122738 -0.024897873 4278669988
0.011922304 0.0013687462 -0.023895212 4278670243
0.014152419 -7.4021518e-05 -0.022894161 4278736033
0.017439727 -0.0069264546 -0.017336739 4279129498
0.021536481 -0.017639987 -0.0085332245 4279260569
0.025863618 -0.029121958 0.00090890657 4281159808
-0.013693467 -0.013269857 -0.010998907 4282077553
-0.013459533 -0.00073096156 -0.021801431 4281225853
-0.012419086 0.0055870116 -0.027347237 4279062689
-0.010850284 0.0080182776 -0.029611457 4278342059
-0.0088296719 0.0073417202 -0.029254887 4278407849
-0.0069232732 0.0074421838 -0.029553201 4278669989
-0.0047720671 0.0059897602 -0.028544024 4278735779
-0.002359882 0.0029853657 -0.026229892 4278670244
-0.00043714792 0.0030870512 -0.026530478 4278801058
0.0017465614 0.0016367882 -0.025526106 4278801058
0.0036747642 0.0017390177 -0.025827352 4278735523
0.0056030042 0.0018413812 -0.026128501 4278669988
0.0075312704 0.0019438863 -0.026429538 4278735523
0.0096007958 0.0012710169 -0.026079755 4278866848
0.011819687 -0.00017680973 -0.025080357 4279128988
0.014489301 -0.0039495304 -0.022132872 4278998684
0.017783247 -0.010820918 -0.016591538 4279326103
0.021733889 -0.020789251 -0.0084614195 4279653013
0.025599889 -0.029978916 -0.0009908122 4281815158
-0.013689917 -0.015626714 -0.01155433 4283058283
-0.013233691 -0.0046119764 -0.0210225 4281159809
-0.012072742 0.00094439834 -0.02590264 4279325593
-0.01060703 0.0041617453 -0.028816875 4278931873
-0.0086954646 0.0042623505 -0.029116094 4278997408
-0.0066642947 0.003584303 -0.028762773 4278997408
-0.0046276674 0.002906695 -0.028410193 4278735268
-0.002460666 0.001450941 -0.027406722 4278866338
-0.00041046739 0.00077427179 -0.027056094 4278997408
0.0017754957 -0.0006801784 -0.026055433 4278669988
0.0037062429 -0.00057780743 -0.02635707 4278866593
0.0055013113 0.00030261278 -0.027308539 4278932128
0.0074294172 0.00040509552 -0.027609561 4278801058
0.0096397549 -0.0010475591 -0.026612319 4278866848
0.011860896 -0.002499558 -0.02561662 4279128733
0.014385831 -0.0055055693 -0.023326026 4279129244
0.017678332 -0.012396313 -0.017799519 4279391384
0.021626944 -0.022392653 -0.0096908323 4279719059
0.025181882 -0.030054294 -0.0035339487 4282471274
-0.013225898 -0.0069426 -0.021558302 4281618808
-0.012061421 -0.0013710335 -0.026427288 4279390874
-0.01059261 0.0018550381 -0.029335327 4279063454
-0.0086784996 0.00195577 -0.029634945 4278539173
-0.0065255389 0.00049480051 -0.028632864 4278669988
-0.0044838041 -0.00018476695 -0.028282735 4278800803
-0.0023118556 -0.0016444921 -0.027283419 4278866338
-0.00025656074 -0.0023230538 -0.026935264 4278735268
0.0019343607 -0.0037815571 -0.025938679 4278669733
0.0038703457 -0.0036789104 -0.026241131 4278997408
0.0058063567 -0.0035761371 -0.026543487 4278866593
0.0076041222 -0.0026932582 -0.027493648 4278670498
0.0099603757 -0.0049297735 -0.025853049 4278736033
0.012189161 -0.0063856542 -0.024861891 4278604708
0.014867814 -0.010179341 -0.021932539 4278932128
0.018020591 -0.016309477 -0.01706874 4279325338
0.02152002 -0.023995735 -0.010919999 4279521943
0.024918899 -0.030899815 -0.005424981 4282536298
-0.013218347 -0.0092772916 -0.022097148 4281815158
-0.012161523 -0.0029069856 -0.027605452 4279456663
-0.010578442 -0.00045569241 -0.029856864 4278802333
-0.0085452348 -0.001138024 -0.029507302 4278932383
-0.0063873045 -0.0026030913 -0.0285093 4278801568
-0.0043404922 -0.0032844767 -0.028161675 4278670498
-0.002412878 -0.0031826496 -0.028463118 4278997918
-0.00023053586 -0.0046459958 -0.027468681 4279062943
0.0020926744 -0.0068912134 -0.025828335 4279128733
0.0042993613 -0.008353062 -0.024837472 4279259803
0.0063814335 -0.009031944 -0.02449486 4279456408
0.0084689111 -0.0097104162 -0.024152994 4279456663
0.01084346 -0.0119524 -0.02252027 4279653268
0.013234183 -0.014193319 -0.020889994 4280700809
0.015933534 -0.017996617 -0.017972223 4281684599
0.018957667 -0.023361385 -0.013769463 4282143853
-0.013211049 -0.011615954 -0.022639114 4282273648
-0.012039542 -0.0060139522 -0.027485833 4279457428
-0.010337081 -0.0043414906 -0.029084738 4278802078
-0.0080632418 -0.0065963119 -0.027442198 4278670498
-0.0060113966 -0.0072797611 -0.02709711 4278997409
-0.0039540976 -0.0079627335 -0.026752792 4278866849
-0.001766853 -0.0094302297 -0.025762565 4279129499
0.00043122843 -0.010897093 -0.024773907 4279456664
0.0026401281 -0.012363218 -0.023786876 4279783828
0.0049924478 -0.014613166 -0.022155974 4280045968
0.007090386 -0.015293367 -0.021817531 4281552254
0.0093317293 -0.016757362 -0.020835254 4282272374
0.011865236 -0.019788884 -0.018566262 4282732138
-0.01309583 -0.014746562 -0.022536613 4282208113
-0.011696324 -0.010704897 -0.026078317 4280570759
-0.0098693781 -0.0098152384 -0.027028881 4279129498
-0.0074663647 -0.012863405 -0.024747085 4279128989
-0.005398646 -0.013548099 -0.024406172 4279063199
-0.0033254735 -0.01423239 -0.024066016 4279914134
-0.0011224858 -0.015703402 -0.02308156 4280438923
0.0010913163 -0.01717367 -0.022098735 4281617788
0.0034457073 -0.019430079 -0.020473287 4282337909
0.0058162957 -0.021685474 -0.018850323 4282863464
-0.0091761723 -0.016889833 -0.02369919 4282928999
-0.032767646 -0.022031769 -0.0217648 4282732649
-0.035137258 -0.020502843 -0.0252381 4282601579
-0.011852417 -0.025549352 -0.031207714 4282666348
-0.028278507 -0.021473356 -0.035051133 4282405228
-0.010226026 -0.025393836 -0.033974696 4282667623
-0.014542416 -0.024728753 -0.036453631 4282536298
-0.014856536 -0.024655461 -0.038901336 4279192739
-0.015170086 -0.024573296 -0.041342311 4281683834
-0.037509486 -0.021271408 -0.048471533 4282010488
-0.03775923 -0.021140151 -0.050886832 4282339184
-0.018526185 -0.024952345 -0.052526217 4282274414
-0.018727794 -0.025643796 -0.05430913 4280439179
