# .PCD v0.7 - Point Cloud Data file format
VERSION 0.7
FIELDS x y z rgba
SIZE 4 4 4 4
TYPE F F F U
COUNT 1 1 1 1
WIDTH 970
HEIGHT 1
VIEWPOINT 0 0 0 1 0 0 0
POINTS 970
DATA ascii
0.047830474 -0.0092991963 0.030635448 4282021708
0.050894167 -0.013544552 0.034411348 4281890384
0.05538632 -0.023595847 0.043644451 4281890384
0.060485631 -0.03582035 0.054912686 4281890128
0.022422288 0.013510793 0.0086077675 4281962549
0.024215918 0.014345817 0.0076126605 4281569594
0.026151553 0.014451019 0.0073039625 4281372479
0.028687479 0.01163841 0.0097353384 4281045823
0.031703327 0.0066390932 0.014217085 4281241664
0.034601487 0.0023711696 0.018008731 4281307199
0.037532032 -0.0018948838 0.021795291 4281372478
0.040173218 -0.0047013164 0.024210239 4281501509
0.043326695 -0.0096926764 0.028670406 4281499468
0.045686573 -0.011038885 0.029712506 4281890893
0.048395149 -0.013841286 0.032116994 4282152524
0.051296942 -0.017370686 0.035199687 4282086989
0.05579498 -0.027451813 0.044408366 4282086733
0.060545601 -0.038256653 0.054285817 4282217038
0.0223176 0.011958495 0.0074192677 4283401769
0.024255779 0.012063712 0.0071100742 4284450583
0.026341196 0.011437275 0.0074847266 4281505333
0.029031731 0.0078846812 0.010591988 4281242683
0.032207135 0.0021391883 0.015743788 4281307199
0.0352704 -0.0028724596 0.020206273 4281241409
0.038055405 -0.0064195693 0.023298737 4281240644
0.040706664 -0.0092340559 0.025705375 4281565258
0.043379493 -0.012047254 0.02810866 4281759568
0.045907769 -0.014128424 0.029827846 4281889618
0.049127474 -0.019130968 0.034265853 4282020689
0.052727964 -0.025592253 0.040057786 4282020943
0.056725435 -0.033511415 0.04720106 4282085968
0.02997423 0.0011831298 0.014165656 4282813229
0.033014745 -0.0038449988 0.018619969 4281831225
0.036093049 -0.0088709518 0.023068352 4281698369
0.038577616 -0.010961249 0.024789168 4281239368
0.040757213 -0.011584155 0.02514757 4281760844
0.043595284 -0.015138924 0.028223354 4281825614
0.0466263 -0.01942502 0.0319741 4282020943
0.050701693 -0.028105773 0.039791808 4282020943
0.0543277 -0.034585059 0.045564577 4281889618
0.057828169 -0.040329069 0.050651915 4281888854
-0.017073255 0.010470875 0.0077917408 4284644639
0.030914705 -0.0055484474 0.017716413 4283792683
0.03366828 -0.0091190189 0.020796934 4282482749
0.03629382 -0.011952363 0.023194067 4282024514
0.038625475 -0.013313361 0.024230339 4281566024
0.041128345 -0.015409045 0.025943341 4281826634
0.044136763 -0.019709378 0.029687474 4281956939
0.04800668 -0.027683228 0.036813878 4281956173
0.052104443 -0.036388591 0.044607893 4281955153
0.055582047 -0.042151183 0.049685366 4282083928
-0.015612479 0.011998124 0.0035520811 4284385559
-0.013700601 0.01209987 0.0032454822 4284576299
0.031255212 -0.0093574896 0.018530712 4283724599
0.034016006 -0.012938447 0.021601684 4282545733
0.03649402 -0.015042134 0.02331339 4282218568
0.039145805 -0.017882533 0.025699725 4281631048
0.042139735 -0.022196732 0.029436067 4281760843
0.045491975 -0.027983725 0.034519747 4281694798
0.049550086 -0.036717236 0.042299911 4281823573
-0.015803169 0.011210337 0.0016928911 4284445994
-0.013801452 0.010568544 0.002072552 4284386068
0.031445503 -0.012438886 0.018658554 4283593274
0.033906754 -0.014550097 0.020367859 4282480199
0.03638418 -0.016660273 0.022074619 4281891659
0.039192669 -0.020249151 0.025129795 4281696328
0.042988937 -0.028274611 0.032230847 4281826889
0.046844549 -0.036296651 0.039322495 4281760334
0.050593965 -0.043575957 0.045730643 4282018649
-0.012180988 0.010630004 -0.00077412848 4284713488
0.031336859 -0.014043741 0.017429894 4283069503
0.033797517 -0.016161464 0.019134248 4282217803
0.036274359 -0.018278129 0.020836076 4281890639
0.039396547 -0.023361824 0.025230605 4281694034
0.043196443 -0.031410702 0.032312579 4281298273
0.031228226 -0.015648313 0.016201464 4282741573
0.033536553 -0.017028071 0.017227897 4282086478
0.03570123 -0.017662756 0.017580131 4281693268
-0.0087702535 0.0092793331 -0.0050824606 4284256274
-0.0068691857 0.0093808472 -0.0053870552 4284315944
0.030821819 -0.015759073 0.01362975 4281755489
-0.0089709498 0.008509241 -0.0069257678 4283861788
-0.0071756132 0.0093620047 -0.0079073999 4281253138
-0.0053855665 0.010214545 -0.0088880565 4283401003
-0.0036007948 0.011066921 -0.0098677836 4284641834
-0.0093714483 0.009251155 -0.010118015 4283466539
-0.0073786862 0.008598499 -0.0097450893 4281768238
-0.0055913217 0.0094530508 -0.010723639 4281766963
-0.003701102 0.0095541552 -0.011026364 4282550834
-0.0096711405 0.0092504099 -0.012625538 4282812208
-0.0077866502 0.0093509853 -0.012927521 4281636149
-0.0055861436 0.007185027 -0.011208329 4280851768
-0.003477335 0.0057754144 -0.010164893 4281177404
-0.001468353 0.0051218048 -0.0097959815 4281373755
0.00054610521 0.00446859 -0.0094278594 4284251428
-0.01165488 0.0076421648 -0.013478387 4284573749
-0.0099702142 0.0092586353 -0.015126271 4282031399
-0.0078863241 0.0078431442 -0.014082387 4281179954
-0.0055812038 0.0049129874 -0.011696101 4280916284
-0.0032544173 0.0019840598 -0.0093131503 4281045568
-0.00090594962 -0.00094360113 -0.0069335932 4281241408
0.0012376755 -0.002355434 -0.0058989073 4281961784
-0.011851173 0.0068950057 -0.015304782 4284313139
-0.010169055 0.0085155815 -0.016948886 4282353463
-0.0079859458 0.0063356087 -0.015237027 4281570105
-0.005471494 0.0018770322 -0.011516511 4281308729
-0.0029245727 -0.0025797039 -0.0078011057 4281565768
-0.00056604668 -0.0055154264 -0.0054298542 4281435209
0.0015879199 -0.0069309771 -0.0044002347 4282088519
-0.011950348 0.0053899363 -0.016457591 4284248114
-0.010069091 0.0054901913 -0.016759165 4282354228
-0.0074724145 0.00025532395 -0.012376371 4281504569
-0.0050476752 -0.0034533367 -0.009337089 4281307199
-0.0025958531 -0.0071604401 -0.0063020494 4281369673
-0.00022725761 -0.010104232 -0.0039391201 4281631049
0.0019370578 -0.011523522 -0.002914509 4281696839
0.003996592 -0.012180716 -0.0025585128 4283787329
-0.0095722638 -0.00060147047 -0.013903934 4282157878
-0.0070626102 -0.0050862208 -0.01020284 4281371714
-0.0047299676 -0.0080407932 -0.0078410488 4281370438
-0.0024831146 -0.010230005 -0.006149333 4281695819
-0.00033010542 -0.01165437 -0.0051263142 4281892168
0.0018337779 -0.013077997 -0.0041049812 4282351423
0.0038930178 -0.013737366 -0.0037506283 4284050999
-0.013372686 -0.003087841 -0.01379067 4284507958
-0.011086922 -0.0060538426 -0.011428326 4283265598
-0.0089779086 -0.0074853003 -0.010402033 4282480963
-0.0066541918 -0.010449044 -0.008045597 4281892423
-0.0046225898 -0.011112496 -0.0076889116 4281826634
-0.0024781972 -0.012541749 -0.0066679665 4281695308
-0.00043291599 -0.013204217 -0.0063132816 4281957194
0.0017305203 -0.014632173 -0.0052952417 4282481728
0.0037894696 -0.015293717 -0.0049425238 4283984699
-0.013191577 -0.0069142804 -0.012957836 4283135294
-0.010898445 -0.0098885074 -0.010603392 4282414918
-0.0086827017 -0.012092665 -0.0089169722 4282153289
-0.0065524317 -0.013527192 -0.0078973472 4281826634
-0.0045157336 -0.014192544 -0.0075431117 4281694288
-0.00258068 -0.014089108 -0.0078530628 4281628498
-0.00053569674 -0.014753759 -0.0075000175 4281891149
0.0016273074 -0.016186036 -0.0064852559 4282348873
0.0038011931 -0.017617673 -0.0054721078 4283655749
-0.019697238 -0.0025702342 -0.01852948 4284706093
-0.017547231 -0.0047847703 -0.016837951 4283790389
-0.015380938 -0.0069983751 -0.015148908 4282614584
-0.013198342 -0.0092109963 -0.013462398 4282220609
-0.010903221 -0.012193702 -0.011114959 4281825869
-0.0086853616 -0.014404155 -0.0094339494 4281629518
-0.0065528266 -0.015842907 -0.0084180031 4281694798
-0.0045137294 -0.016510256 -0.0080658738 4281694034
-0.0024691299 -0.017177202 -0.0077145426 4281693779
-0.00041904673 -0.017843716 -0.007363989 4281627733
-0.019625325 -0.0056257024 -0.018357534 4284443953
-0.017470483 -0.0078464746 -0.016671769 4282284869
-0.015390072 -0.0092927143 -0.015651211 4281892934
-0.013205353 -0.011511676 -0.013970062 4281631814
-0.01110043 -0.012956381 -0.012953261 4281303119
-0.0088858269 -0.015173502 -0.011276721 4281629774
-0.0068579055 -0.015843734 -0.010924577 4281694544
-0.004616145 -0.018059187 -0.0092522046 4281562963
-0.0025718361 -0.018728293 -0.0089025004 4281431128
-0.023664769 -0.0057851896 -0.020233957 4283658043
-0.021779764 -0.0056854859 -0.020536719 4282611523
-0.019639108 -0.0079135373 -0.018853832 4282349128
-0.017570015 -0.0093648434 -0.017834876 4281957194
-0.015308905 -0.012366772 -0.01549555 4281760844
-0.013212625 -0.013816357 -0.014480812 4281695563
-0.011105437 -0.015265301 -0.013467689 4281433169
-0.0090859868 -0.015938245 -0.013115956 4281236818
-0.0069597177 -0.017385878 -0.012105747 4281432403
-0.027458172 -0.0082701221 -0.020120995 4284705073
-0.025570903 -0.0081705451 -0.020424312 4284181304
-0.023683492 -0.0080708414 -0.020727558 4282480963
-0.021713596 -0.0087492689 -0.020370092 4282284614
-0.019568112 -0.010983549 -0.01869297 4282218568
-0.017494056 -0.012438856 -0.01767819 4281891659
-0.015409093 -0.013893485 -0.016665019 4281957450
-0.013313238 -0.015347399 -0.015653569 4281760589
-0.011206482 -0.016800657 -0.014643726 4281497938
-0.0091873221 -0.017475776 -0.014293625 4281170518
-0.007162679 -0.018150494 -0.013944327 4280840803
-0.027333993 -0.012121744 -0.019296221 4284116278
-0.025515605 -0.011241026 -0.020260714 4283003714
-0.023622949 -0.011141062 -0.020564817 4282088008
-0.021812346 -0.010260567 -0.021527849 4282022984
-0.019667413 -0.012501329 -0.019855656 4282088008
-0.017506208 -0.014741063 -0.018186031 4281891403
-0.015328716 -0.016979858 -0.016518876 4281891404
-0.013413835 -0.016878143 -0.016826095 4281694543
-0.028757196 -0.020001911 -0.014879792 4283068739
-0.027210657 -0.015985973 -0.018481161 4282610248
-0.025537509 -0.013537057 -0.020761687 4282152523
-0.023721669 -0.01265423 -0.02172403 4281826124
-0.021664884 -0.014119305 -0.020713311 4281891913
-0.019512471 -0.016366072 -0.019047389 4281891913
-0.017343733 -0.018611893 -0.017383942 4281891913
-0.015248861 -0.020074628 -0.016379084 4281694799
-0.013421569 -0.019190609 -0.017342815 4281299804
-0.027088095 -0.019862868 -0.017675752 4282609228
-0.025483143 -0.016622059 -0.020609219 4282153034
-0.023582678 -0.0165217 -0.020914584 4282022474
-0.021436345 -0.018775403 -0.019252762 4281761864
-0.01927371 -0.021028057 -0.017593496 4281630793
-0.017269377 -0.021710955 -0.017246386 4281695309
-0.025123734 -0.022864021 -0.017843444 4282283338
-0.023207251 -0.02276282 -0.018151388 4281891658
-0.020963561 -0.02580899 -0.01584303 4281891404
-0.018782649 -0.028067164 -0.014191672 4281824849
-0.022675622 -0.030607857 -0.014102057 4282412878
-0.020492706 -0.032872476 -0.012456127 4282216273
-0.018377852 -0.034347229 -0.011464745 4282148443
0.047381058 -0.040939651 0.040731095 4280901238
0.050974257 -0.04749842 0.046448544 4282472294
0.038814139 -0.022761978 0.021964356 4280572289
0.042764019 -0.031579122 0.029701196 4280637823
0.047266245 -0.042624146 0.039441623 4280702593
0.05069273 -0.048458651 0.04447338 4281291643
0.033275895 -0.017889991 0.01532506 4280246653
0.035437584 -0.018527053 0.015676124 4279065238
0.038703613 -0.024387844 0.020719707 4280177294
0.042811271 -0.033977039 0.029106792 4280308364
0.046989053 -0.043562286 0.037482798 4281029248
0.030862277 -0.018107601 0.013075207 4281031288
0.03301556 -0.018747352 0.013425798 4280113034
0.035482552 -0.020883948 0.015114151 4278932893
0.039063655 -0.028258838 0.021481793 4279260059
0.043017793 -0.037127294 0.029177707 4280308618
0.046712179 -0.044495806 0.035527527 4281226364
0.031051066 -0.021211214 0.013186042 4280243339
0.033360764 -0.022603787 0.014202212 4280046478
0.035989255 -0.025497191 0.016551953 4278997409
0.039422832 -0.032142468 0.022234201 4279456663
0.04322375 -0.040285923 0.029242281 4280439433
0.046597704 -0.046175011 0.034242108 4281880948
0.026785478 -0.022281401 0.011929312 4280767873
0.029226989 -0.024432644 0.013611403 4280440198
0.031387765 -0.025076412 0.013957352 4280374409
0.033856273 -0.027225949 0.015635323 4280112014
0.036187094 -0.028621495 0.016644835 4278931874
0.03962459 -0.035285898 0.022311389 4279522198
0.043110624 -0.041947521 0.027970308 4280243339
0.046321284 -0.047101356 0.032292247 4282339439
0.024112318 -0.02096983 0.00835595 4281751408
0.026534338 -0.023128726 0.010036011 4280505223
0.029263794 -0.026797645 0.013044756 4280439433
0.031723604 -0.02895423 0.014718994 4280243083
0.034350611 -0.031864993 0.01705543 4280177038
0.036691785 -0.033264332 0.018059973 4279521689
0.039982185 -0.039192624 0.023046114 4279521689
0.042997517 -0.043608822 0.026698569 4281095038
0.046045184 -0.04802312 0.030345982 4282667879
0.019480001 -0.019746728 0.0051090652 4281029759
0.02173702 -0.021155693 0.0061231004 4280701828
0.024004858 -0.022563897 0.0071354704 4280504969
0.026569057 -0.025487088 0.0094749667 4280439433
0.029154859 -0.028408974 0.011811119 4280635783
0.031910416 -0.032087095 0.014807437 4280701319
0.034692947 -0.035763659 0.017799523 4280701063
0.037348889 -0.038681366 0.020124786 4280766853
0.040338915 -0.043111943 0.023771131 4282341224
0.017259564 -0.020678446 0.0035474682 4281684598
0.019642543 -0.022852726 0.0052234125 4279522454
0.021904506 -0.024265669 0.0062332791 4280112013
0.024177294 -0.025677942 0.0072415471 4280242828
0.02674615 -0.028609462 0.0095736086 4280373898
0.029481931 -0.032299556 0.012564592 4280373899
0.032392718 -0.036747731 0.016213227 4280701319
0.035034426 -0.03967493 0.018533953 4280963713
0.037851129 -0.043360218 0.021512354 4282208879
0.012689847 -0.019422635 0.00031343196 4280833154
0.015045177 -0.021605097 0.0019885867 4280439433
0.017285038 -0.023023777 0.0029984345 4279914899
0.019670129 -0.025204398 0.004669026 4278866084
0.022071436 -0.027383991 0.0063371365 4279849618
0.024628744 -0.030324869 0.0086642429 4280242573
0.027350137 -0.034026615 0.011649046 4280373899
0.030098516 -0.037726752 0.014629655 4281488249
0.010616425 -0.021102369 -0.00057701685 4281750898
0.012836866 -0.022526704 0.00043242495 4280374409
0.015068144 -0.023950279 0.001440194 4280177293
0.017310262 -0.025373176 0.0024463688 4280045968
0.019697454 -0.027560078 0.0041115624 4279521434
0.022237808 -0.030510597 0.006434571 4279390619
0.024939414 -0.034224264 0.0094140805 4280242574
0.027668003 -0.037936367 0.012389361 4280767109
0.030568622 -0.042411037 0.016019484 4282141814
0.0085434057 -0.022781625 -0.0014671788 4281160829
0.010757957 -0.024210684 -0.00046022929 4280570758
0.012857322 -0.024871685 -0.00011531217 4280177293
0.014962133 -0.025532246 0.0002288376 4280112013
0.01733521 -0.027726531 0.0018911997 4280177549
0.019724507 -0.029919744 0.0035510436 4280177294
0.022403628 -0.033645548 0.0065257135 4281223814
0.0017489158 -0.019280091 -0.0063533327 4280835959
0.0039277487 -0.020715706 -0.005344375 4280833153
0.0062352307 -0.022920571 -0.0036770173 4280570759
0.0085589513 -0.025124423 -0.0020122188 4278932384
0.010652568 -0.025788032 -0.00166811 4279653013
0.012625761 -0.025681712 -0.001983508 4280046733
0.014984716 -0.027883269 -0.00032404042 4280308873
0.017491166 -0.03085307 0.0019907951 4280439688
0.02015318 -0.034590617 0.0049596797 4280963459
0.0017577298 -0.021610051 -0.0068870177 4280309894
0.004053764 -0.023822121 -0.0052229683 4280308873
0.0062484033 -0.025261067 -0.0042197923 4280242828
0.0084538944 -0.026699297 -0.0032182445 4279783829
0.01054721 -0.027365081 -0.0028757637 4279062688
0.012645975 -0.028030418 -0.0025341061 4279784083
0.015007041 -0.030238338 -0.00087995082 4280570759
0.017646566 -0.033987992 0.0020840501 4281290879
0.020446911 -0.038507223 0.0056996001 4282860914
-0.00267452 -0.020279087 -0.010090235 4280309639
-0.00029677525 -0.02327399 -0.0077689807 4280308619
0.0017662831 -0.023944013 -0.0074237841 4280112014
0.0039496236 -0.02538804 -0.0064221951 4280111758
0.0061438195 -0.026831292 -0.0054222825 4280111503
0.0082286745 -0.027499765 -0.0050802673 4280307854
0.010441884 -0.028941818 -0.0040831752 4280307344
0.012665931 -0.030383117 -0.003087759 4280372879
-0.0050286539 -0.019601896 -0.012938612 4279850639
-0.0027771741 -0.021829613 -0.011277757 4279849363
-0.00040015206 -0.024833135 -0.0089630811 4280177040
0.0017745756 -0.026281998 -0.007963609 4280046223
0.004074838 -0.028506719 -0.0063102655 4280111758
0.0061566196 -0.029177636 -0.0059695393 4280177039
0.0084839799 -0.031400643 -0.0043203309 4280635273
0.010582075 -0.032070443 -0.003982015 4281290624
0.012936506 -0.034291767 -0.0023369645 4282598263
-0.0092886426 -0.019013025 -0.015471085 4280375174
-0.0070621856 -0.021248706 -0.013811463 4280111758
-0.0050269477 -0.021924928 -0.013465392 4279980179
-0.0027733557 -0.024158932 -0.01180994 4279783064
-0.00050349906 -0.026391976 -0.010156952 4279324319
0.001894448 -0.029402845 -0.0078522153 4279717529
0.004314024 -0.032412432 -0.0055508539 4280700808
0.0065208077 -0.033863626 -0.0045596622 4281028739
0.008738447 -0.03531415 -0.0035700691 4281814649
-0.011408504 -0.019870527 -0.016995145 4280112524
-0.0092917122 -0.021331668 -0.015993554 4280373899
-0.0070631467 -0.023573749 -0.014339264 4280177040
-0.0050255097 -0.024251945 -0.013995293 4279979924
-0.002769798 -0.026492327 -0.012345169 4279914643
-0.00049782917 -0.028731652 -0.010697585 4279849109
0.0019020848 -0.031750999 -0.0083998442 4279848853
0.0043236278 -0.034769066 -0.0061054868 4280961928
0.0066497289 -0.037005164 -0.0044662249 4282533749
-0.011509459 -0.021405049 -0.018170541 4279915153
-0.0094911866 -0.022086672 -0.017825343 4280111248
-0.0072658844 -0.024335288 -0.016175568 4279914899
-0.0050243251 -0.026582994 -0.014528282 4280111248
-0.0026603453 -0.029613093 -0.012231681 4280177039
-0.00027472153 -0.03264191 -0.0099384561 4280308108
0.002132535 -0.035669468 -0.0076486063 4280504715
0.0044471957 -0.037912689 -0.0060126674 4283122543
-0.015180614 -0.025502577 -0.016771447 4279719058
-0.013530347 -0.023041353 -0.019037759 4279587479
-0.0116104 -0.022939272 -0.019345718 4279783574
-0.0094944872 -0.024409063 -0.018350691 4279718039
-0.007166449 -0.027449921 -0.016055211 4279849109
-0.0049200766 -0.029703781 -0.014413703 4280045713
-0.0024454184 -0.033527799 -0.011474382 4280766853
-0.00016114861 -0.035779335 -0.0098387906 4282141813
0.02527244 -0.044695191 -0.0052312664 4282862444
-0.016600151 -0.032666385 -0.013081174 4281096569
-0.015012506 -0.029408753 -0.015998039 4280112779
-0.013353895 -0.026940592 -0.018260714 4279128478
-0.01142602 -0.026838101 -0.018569954 4279521433
-0.0093024559 -0.028311826 -0.017579447 4279587223
-0.006967064 -0.031360887 -0.015291851 4279521434
-0.0046100281 -0.034408607 -0.013007656 4279980179
-0.0022313297 -0.037455097 -0.010726792 4280700298
0.029314421 -0.046861783 -0.0064516715 4282010999
-0.013178263 -0.030852512 -0.017493304 4279521434
-0.011337426 -0.029959165 -0.018452417 4279587224
-0.0090136267 -0.033017538 -0.016169742 4280504204
-0.0064674951 -0.037654944 -0.012594958 4281814394
-0.012819227 -0.036362566 -0.015440826 4282011509
-0.01105975 -0.034673758 -0.017047372 4280373644
-0.0088233985 -0.036947675 -0.01541954 4280701574
0.0027019493 -0.044156455 -0.020795675 4283189609
-0.011475954 -0.043236807 -0.022352414 4282535534
0.0025981106 -0.045718707 -0.0219921 4282993769
-0.013797436 -0.042476565 -0.025142672 4282075514
0.0022686906 -0.045671619 -0.024456432 4282796653
-0.016025845 -0.044862255 -0.027835673 4282733414
-0.00021898001 -0.046463974 -0.02842292 4279781788
0.0057285018 -0.046959616 -0.028725835 4282536299
-0.00043156371 -0.04720331 -0.030239938 4281355905
-0.00064383447 -0.047938131 -0.032053418 4282405484
0.0071550868 0.010247901 0.027118821 4285492004
0.0092524514 0.0096340403 0.027500868 4285492513
0.0030973926 0.0084516332 0.026538048 4284966959
0.0047266744 0.01072596 0.024130261 4285820188
0.0066946186 0.010831788 0.023815531 4285754653
0.0089045689 0.009492889 0.024893582 4285886234
0.01087809 0.0095992163 0.024578113 4285362208
-0.00063738599 0.0044802353 0.028048282 4285164073
0.000686232 0.0089376122 0.023552179 4285493279
0.0022029988 0.011943325 0.02045331 4285624348
0.0041599199 0.012048431 0.020140247 4285623838
0.0062350519 0.01142893 0.02052239 4285624094
0.0084364936 0.010085203 0.021598466 4285689629
0.010648809 0.0087421909 0.022672843 4285624094
0.012493368 0.0095727593 0.021664053 4285493534
0.014461514 0.0096789971 0.021349601 4285297949
-0.0034576841 0.0078777 0.022278903 4285230119
-0.0018146373 0.010165356 0.019878715 4285559069
3.2078475e-05 0.010997564 0.018870773 4285624603
0.0018735044 0.011829577 0.017863749 4285886998
0.0037096366 0.01266142 0.016857654 4285820953
0.0057764016 0.012039296 0.01723944 4285755163
0.0078486502 0.011417568 0.017620422 4285886489
0.01017312 0.0093429908 0.019385878 4285755419
0.012135666 0.0094488189 0.019072238 4285493789
0.01422704 0.0088284239 0.019450404 4285428254
-0.006136138 0.010577984 0.017221332 4285426724
-0.0041880086 0.010682181 0.016909333 4285558303
-0.0023468025 0.011516176 0.015903814 4285558813
-0.00051086396 0.012349926 0.014899254 4285624349
0.0013197809 0.013183519 0.013895627 4285755929
0.0031451285 0.014016904 0.012892909 4285886998
0.0052008256 0.013392024 0.013274778 4285886999
0.0073825233 0.012038611 0.014347225 4285755929
0.0098215528 0.0092283264 0.016799979 4285558813
0.011778563 0.0093338415 0.016487213 4285559068
0.013607025 0.010167927 0.015484411 4285559068
0.015167508 0.012458526 0.013103183 4285493279
0.017247926 0.011835545 0.013481623 4285427743
-0.0098467655 0.0066119209 0.018730843 4285361189
-0.0083849169 0.010377489 0.01495146 4285755418
-0.0066454001 0.011945419 0.013254754 4285885978
-0.0046040155 0.011317082 0.013636818 4286017303
-0.0025571212 0.010689124 0.01401807 4285755418
-0.00061428547 0.010793231 0.013707066 4285623838
0.0012163743 0.011628956 0.012705103 4285558558
0.0029267557 0.013195895 0.011013424 4285558558
0.0049794763 0.012568623 0.011394106 4285558558
0.0071580559 0.011210717 0.012463685 4285558814
0.0095936805 0.0083916411 0.014910262 4285558814
0.01154786 0.0084969774 0.01459793 4285624603
0.013116676 0.010794379 0.012220319 4285624859
0.01466937 0.013090961 0.009845404 4285820953
0.016473658 0.013926141 0.0088482592 4285886488
0.018545747 0.01330065 0.0092264283 4285493534
0.020623274 0.012675636 0.0096037854 4284970528
-0.035186436 0.024416327 0.0017748142 4285360934
-0.033507165 0.026723765 -0.00061726721 4285820188
-0.031085011 0.020934712 0.0046526166 4285819934
-0.028189439 0.010733075 0.01409081 4285885724
-0.012278777 0.0078793466 0.015074404 4285099049
-0.010621864 0.01018662 0.012686785 4285558813
-0.0089809932 0.012493178 0.010301771 4285623584
-0.0071534924 0.013330445 0.0093016457 4285623838
-0.0049150921 0.011231139 0.01106512 4285755419
-0.0027671084 0.009866707 0.012135863 4285755419
-0.00093654543 0.01070445 0.011135494 4285689628
0.0011130124 0.010074683 0.011514798 4285558814
0.0029383861 0.010912351 0.010515414 4285558814
0.0051110648 0.0095497146 0.011582499 4285558813
0.0071743913 0.0089210123 0.011959843 4285559069
0.0094890594 0.0068264604 0.013711712 4285558813
0.011191845 0.0083976761 0.012024974 4285690394
0.012627237 0.011434048 0.0089664198 4285690138
0.014303155 0.013004065 0.0072840974 4285755164
0.016369518 0.012376048 0.0076613706 4285820444
0.018577762 0.011016034 0.0087233894 4285952279
0.020657703 0.010388963 0.0090986639 4285362209
-0.039039832 0.0227127 0.0012250021 4285230118
-0.037587557 0.027981445 -0.003948526 4285689628
-0.035855491 0.029556252 -0.0056384513 4285754909
-0.034001734 0.029653996 -0.0059364308 4285623838
-0.031941209 0.027537439 -0.0041504144 4285689373
-0.029506627 0.021731876 0.0011040913 4285886489
-0.026583325 0.01150161 0.010514384 4285755164
-0.0164457 0.0075885504 0.013121394 4284902443
-0.01495884 0.011376619 0.009354502 4285296418
-0.013033245 0.011479147 0.0090457425 4285559324
-0.011107486 0.011581771 0.0087370388 4285887509
-0.0093786083 0.013157673 0.0070486087 4285755674
-0.0074579827 0.013260238 0.006740883 4285624094
-0.0053294264 0.011890322 0.0078112744 4285755674
-0.0029767677 0.009048894 0.010257181 4285821718
-0.0010395944 0.0091526508 0.0099470504 4285624349
0.0011216775 0.0077848658 0.01101242 4285559069
0.0029497594 0.0086248145 0.010014273 4285558813
0.0051247142 0.0072579831 0.011077618 4285559068
0.0070703663 0.0073626116 0.010766456 4285559069
0.0091389082 0.0067320913 0.011141418 4285558813
0.010710955 0.0090424493 0.0087732524 4285690138
0.012138691 0.012087017 0.0057226308 4285689628
0.013806675 0.013660848 0.0040449593 4285558049
0.015998241 0.012295559 0.0051061567 4285558048
0.018336941 0.010196403 0.0068495832 4285624094
0.020413902 0.009567 0.0072236415 4285690138
0.022212941 0.010406472 0.006230982 4285362208
0.024439733 0.0090435296 0.0072868951 4285231903
-0.041401442 0.026295524 -0.0044925166 4285361698
-0.039716776 0.028615829 -0.0068756589 4285689629
-0.03810871 0.031676099 -0.0099504432 4285886489
-0.03633203 0.032513577 -0.010940142 4285623583
-0.034494538 0.032610431 -0.011235531 4285557793
-0.03238203 0.029746212 -0.0087589119 4285689374
-0.030104969 0.025402959 -0.0049006119 4285755418
-0.027647194 0.019581448 0.00033679674 4285689883
-0.025299702 0.015242107 0.0041839243 4285493279
-0.022840183 0.010164812 0.0087171923 4285361699
-0.020507131 0.0065688193 0.01186278 4284967724
-0.015421439 0.012790576 0.0054147523 4285362210
-0.013506752 0.012892492 0.005107725 4285493534
-0.011496257 0.012255661 0.0054894052 4285624603
-0.0097753219 0.013835363 0.0038056169 4285952533
-0.0077618547 0.013198905 0.004186986 4285821463
-0.005535353 0.011085935 0.0059423055 4285755928
-0.0031860992 0.0082357302 0.0083819814 4285624604
-0.0013609082 0.0090774521 0.0073858015 4285558813
0.00057084113 0.0091810152 0.0070766099 4285624349
0.0022735968 0.010760367 0.0053962171 4285624349
0.004434634 0.0093884692 0.0064584273 4285624349
0.0063666627 0.0094923601 0.0061494443 4285624349
0.0084214173 0.0088589638 0.006524866 4285624350
0.010105621 0.010437764 0.0048477892 4285624348
0.011523008 0.013490371 0.0018055178 4285952788
0.013311081 0.014330953 0.00081593939 4285952534
0.01562757 0.012224011 0.0025577843 4285821463
0.018096428 0.0093814284 0.0049792617 4285887509
0.020586919 0.0065400749 0.0073974142 4285624349
0.022674445 0.0059091598 0.0077682408 4285493278
0.025200073 0.0030699819 0.010180916 4285231138
0.027894251 -0.00050405413 0.013270727 4284968488
-0.043513265 0.026937816 -0.0074169976 4285493024
-0.041773427 0.02852127 -0.0091016777 4285558814
-0.040044148 0.03010428 -0.010784647 4285624349
-0.038385917 0.032429714 -0.01315846 4285821209
-0.036743645 0.03475434 -0.015529602 4285952279
-0.032821376 0.031976853 -0.013350667 4285886999
-0.030487489 0.026877582 -0.0088092415 4285821463
-0.028411511 0.024749041 -0.0070356848 4285624093
-0.026472505 0.024105545 -0.0066447724 4285558813
-0.024448562 0.022720564 -0.0055650836 4285493788
-0.022249598 0.019852746 -0.0031087177 4285427998
-0.019859437 0.015502959 0.00072174356 4285362208
-0.017611627 0.012637988 0.0031703915 4285628684
-0.01178861 0.012201719 0.0029389504 4285428254
-0.009974692 0.013044603 0.0019458644 4285493533
-0.007863272 0.011665039 0.0030121896 4285559069
-0.0056373365 0.0095455721 0.0047625583 4285493279
-0.0032887906 0.0066866875 0.0071956189 4285558814
-0.0013545752 0.006790258 0.0068859356 4285624603
0.00013290718 0.0098545402 0.0038387012 4285690138
0.0018277206 0.011437804 0.0021628812 4285886998
0.0037460327 0.011540845 0.0018559955 4285887253
0.005904045 0.010164514 0.0029154457 4285821208
0.0079504214 0.0095285103 0.0032905224 4285689629
0.0096266717 0.011111207 0.0016180128 4285623838
0.011164304 0.013432689 -0.00073445949 4285624349
0.013077591 0.013535999 -0.0010401196 4285624348
0.015124209 0.012900427 -0.00066475006 4285624603
0.017856244 0.0085710138 0.003112515 4285624859
0.020620704 0.004243426 0.0068847248 4285493534
0.023276191 0.00065629929 0.0099721393 4285427489
0.025814593 -0.002190806 0.012376069 4285427233
0.028521404 -0.0057749599 0.01545552 4284900914
-0.047589649 0.029735114 -0.012116825 4285754399
-0.045706753 0.029085558 -0.011719301 4285951513
-0.043713715 0.026945446 -0.0099380268 4285820443
-0.041924138 0.027787618 -0.01092675 4285689629
-0.040197369 0.02937473 -0.012605939 4285624093
-0.038541544 0.031706449 -0.014974369 4285624094
-0.03683861 0.033292498 -0.016649574 4285755419
-0.035014812 0.033388581 -0.016942803 4285689628
-0.032917138 0.030506294 -0.014477273 4285624348
-0.03065547 0.026136335 -0.01063667 4285558558
-0.028730366 0.025489822 -0.010245302 4285558814
-0.02702922 0.027076229 -0.011919871 4285558814
-0.025180262 0.027174115 -0.012216777 4285559068
-0.023167361 0.025784314 -0.011138615 4285623839
-0.020805139 0.021420144 -0.0073137982 4285558304
-0.018235806 0.015570555 -0.0021207905 4285100323
-0.011984963 0.011413589 0.0010806322 4285298203
-0.010173727 0.012258403 8.9678913e-05 4285428254
-0.0081662051 0.011617281 0.00046861544 4285559323
-0.0059462227 0.0094910264 0.0022148842 4285559068
-0.0037099384 0.0073657408 0.0039586271 4285559068
-0.0017839558 0.0074688494 0.0036502476 4285624603
-0.00019256398 0.0097990558 0.0012936459 4285755929
0.0013827384 0.012128502 -0.0010603033 4285689628
0.0032928251 0.012231082 -0.0013658889 4285820953
0.0053226538 0.011591859 -0.00098989718 4285952788
0.0073579587 0.010953091 -0.00061473448 4285689883
0.0091486312 0.011797883 -0.0016015563 4285624349
0.011061717 0.011901066 -0.0019072704 4285558814
0.013235755 0.010521762 -0.00085345667 4285558813
0.015553799 0.0084019825 0.00087807118 4285493533
0.018295612 0.004060179 0.0046437001 4285493534
0.021208398 -0.0010206625 0.0090827169 4285493534
0.024017747 -0.0053585619 0.012837756 4285361444
0.02657162 -0.0082134977 0.015232531 4285294888
0.029000456 -0.010326661 0.01694677 4285097773
-0.051184837 0.025080621 -0.009883278 4285164073
-0.049561519 0.028917275 -0.013639932 4285689628
-0.047824685 0.030508839 -0.015317682 4285820444
-0.045900661 0.029108919 -0.01422947 4285885723
-0.043965664 0.027709622 -0.013142911 4285952279
-0.042074505 0.027058497 -0.012748284 4285755419
-0.040350284 0.028649755 -0.01442373 4285624093
-0.038636614 0.03024058 -0.016097458 4285624349
-0.036870632 0.03108386 -0.017080482 4285558558
-0.034978677 0.030433133 -0.016685702 4285558559
-0.033012841 0.029036 -0.015603682 4285558559
-0.030823123 0.025399663 -0.012460601 4285558814
-0.02904832 0.02624378 -0.013444751 4285558813
-0.027355101 0.027834084 -0.01511476 4285624348
-0.02575155 0.030170131 -0.017469265 4285886233
-0.023918729 0.030267231 -0.017763525 4285951514
-0.021663483 0.026634797 -0.014630548 4285951769
-0.019119691 0.020766664 -0.009446918 4285755164
-0.016532604 0.014900882 -0.004270114 4285362209
-0.014272403 0.012019463 -0.0018367041 4284906268
-0.010274496 0.010731623 -0.0010797252 4285166878
-0.0083678849 0.010833368 -0.0013852605 4285296674
-0.0063578226 0.010190293 -0.0010083581 4285493789
-0.0043422394 0.0095476061 -0.00063218758 4285428253
-0.0023211576 0.0089053586 -0.00025686092 4285755674
-0.00074027106 0.011241436 -0.0026067719 4285755929
0.0011668913 0.011343732 -0.0029119831 4285557794
0.003190957 0.010701969 -0.0025368892 4285557793
0.0053400248 0.0093165413 -0.0014827235 4285624349
0.0071333237 0.010163508 -0.002468385 4285690138
0.008921288 0.011010341 -0.0034531523 4285559068
0.010959152 0.010369718 -0.0030798728 4285559068
0.013523687 0.0067556873 4.935544e-06 4285559069
0.016248249 0.0023999214 0.00376317 4285493534
0.019005243 -0.0019539818 0.0075163087 4285493278
0.021656252 -0.0055629835 0.010587577 4285294634
0.024334289 -0.0091704726 0.013654659 4285163563
0.026607934 -0.010548107 0.014689675 4285032493
0.029038895 -0.012667671 0.016398581 4284901169
-0.053238716 0.02575757 -0.012792449 4285558559
-0.051527221 0.028104436 -0.015160308 4285690138
-0.049787734 0.029700324 -0.016835222 4285689374
-0.048012201 0.030545693 -0.017818546 4285557794
-0.046143238 0.02989104 -0.017422184 4285557794
-0.044164743 0.027737241 -0.015648715 4285689374
-0.042279225 0.027083594 -0.015254839 4285755418
-0.040445473 0.02717986 -0.015549934 4285624093
-0.038671579 0.028025638 -0.016532684 4285624349
-0.036777373 0.027372707 -0.016139999 4285559068
-0.034812119 0.025971156 -0.015061378 4285559068
-0.03290407 0.025319189 -0.014670816 4285558813
-0.031061281 0.025416411 -0.01496699 4285558813
-0.02929185 0.026262362 -0.015948627 4285624348
-0.027680073 0.028605171 -0.018299524 4285755419
-0.026005384 0.030198839 -0.019963095 4285623583
-0.024178091 0.030295607 -0.020256495 4285558048
-0.022097681 0.028148256 -0.01849849 4285755419
-0.019739944 0.023758095 -0.014693026 4285886999
-0.017439421 0.020117525 -0.011575609 4285493533
-0.01520418 0.017226152 -0.0091449171 4285428253
-0.012757052 0.012841046 -0.0053535514 4285036829
-0.006768506 0.010902785 -0.004221404 4285165858
-0.0048671849 0.011004426 -0.0045259409 4285427999
-0.0028571859 0.010359421 -0.0041505359 4285624604
-0.0011755079 0.011954702 -0.0058142636 4285952788
0.00060945377 0.012803078 -0.006797215 4285821464
0.0027391165 0.011412174 -0.0057434123 4285821464
0.0049990229 0.0092758164 -0.0040131472 4285887509
0.0071531348 0.0078864321 -0.0029630796 4285755929
0.0093181022 0.0064978078 -0.0019146972 4285558813
0.01162139 0.0043640807 -0.00019106339 4285493278
0.014201246 0.00074010342 0.0028829062 4285493534
0.016940989 -0.0036277547 0.0066286479 4285361188
0.019713163 -0.007993795 0.010369346 4285360678
0.022102978 -0.010122351 0.01207947 4285229099
0.024509024 -0.012249939 0.013787145 4285097518
0.026643977 -0.012886755 0.014143722 4285032239
0.029077051 -0.015012644 0.015847275 4284901168
-0.055239413 0.025695972 -0.015004149 4285164074
-0.053525161 0.028049272 -0.017367477 4285493279
-0.051785726 0.029649381 -0.019039171 4285755418
-0.049969289 0.029744286 -0.019331833 4285952533
-0.048292037 0.032095917 -0.021688998 4285820953
-0.046434101 0.031438507 -0.021292556 4285886744
-0.04451872 0.030029558 -0.020209635 4285952534
-0.042537849 0.027869429 -0.0184415 4285755419
-0.040655058 0.027213588 -0.018048855 4285624094
-0.038826611 0.027309649 -0.018343041 4285624349
-0.036935341 0.026654437 -0.017951619 4285559068
-0.035103817 0.026750837 -0.018246165 4285624858
-0.033272106 0.026847333 -0.018540666 4285624348
-0.031369511 0.026192971 -0.01815079 4285624349
-0.02968153 0.027791455 -0.019813366 4285689883
-0.028080229 0.030140102 -0.022157524 4285953044
-0.026573736 0.033238541 -0.025182065 4285689374
-0.024681251 0.032584067 -0.024790309 4285623584
-0.02261487 0.030429494 -0.023035105 4285623838
-0.020271596 0.026025627 -0.019237397 4285755929
-0.01825406 0.024623394 -0.018169859 4285559068
-0.016133342 0.022472005 -0.01642314 4285493788
-0.013711471 0.01807262 -0.012637804 4285493534
-0.010964159 0.011426523 -0.0068176873 4285100324
-0.0051794834 0.010980673 -0.0070489328 4285296929
-0.0033920258 0.011831053 -0.0080307592 4285493534
-0.0016098507 0.012681268 -0.0090116393 4285690138
0.00028085709 0.012782656 -0.009314239 4285756184
0.0022881702 0.012135677 -0.0089398306 4285690393
0.0048970915 0.0077472702 -0.0051836898 4285624604
0.0072946101 0.0048571527 -0.0027847781 4285493278
0.009838406 0.0012202412 0.0002863938 4285559069
0.01202729 -0.000171341 0.0013277258 4285624603
0.014487062 -0.003057763 0.0037169554 4285360678
0.017101169 -0.0066905394 0.0067771506 4285228843
0.019877717 -0.011069201 0.010507049 4285163053
0.022272352 -0.013204001 0.012211407 4285163054
-0.055226799 0.021964233 -0.014063433 4285229609
-0.053657148 0.027343601 -0.019174447 4285427489
-0.052002128 0.030457146 -0.022217194 4285558813
-0.050281134 0.032060649 -0.023882519 4285755928
-0.048478063 0.032154899 -0.024172995 4285821208
-0.046576742 0.030740742 -0.023091219 4285820954
-0.044612739 0.028573211 -0.021325517 4285755419
-0.042686772 0.027160533 -0.020247566 4285624094
-0.040806953 0.026502352 -0.019856149 4285624093
-0.039100859 0.028105561 -0.02151862 4285624093
-0.037280414 0.028201252 -0.02181148 4285689884
-0.035524953 0.029050481 -0.022787819 4285689629
-0.033571091 0.027639721 -0.021713993 4285689629
-0.031747404 0.027735878 -0.022007143 4285689629
-0.030070048 0.029338084 -0.023664681 4285624093
-0.02847923 0.031692594 -0.026002154 4285952789
-0.026747148 0.032541066 -0.026974363 4285952789
-0.02493896 0.032636784 -0.027264731 4285887509
-0.022878524 0.030475426 -0.025513608 4285953043
-0.020715054 0.027562782 -0.023085007 4285821719
-0.018529873 0.024651393 -0.020659806 4285558813
-0.016322996 0.021741264 -0.018238008 4285558814
-0.01380999 0.01657695 -0.013783425 4285558813
-0.011259113 0.011414722 -0.0093347803 4285427490
-0.0019323044 0.012670085 -0.011522707 4285362719
6.6552311e-05 0.012020364 -0.011148721 4285427998
0.0021872744 0.010620393 -0.010100247 4285493534
0.0049142726 0.0054684654 -0.0056791292 4285427998
0.0076791048 0.00031872839 -0.0012640069 4285427743
0.010357305 -0.0040786639 0.0024712184 4285427234
0.012686413 -0.0062238872 0.0041806088 4285492258
0.015031774 -0.0083681569 0.0058875401 4285426724
0.017393358 -0.010511376 0.0075919274 4285228843
0.020041719 -0.014152996 0.010638403 4285163309
0.02244116 -0.016293935 0.012336941 4285097519
-0.053598251 0.022857778 -0.017547056 4285426724
-0.052054424 0.028250903 -0.022642137 4285493278
-0.050374072 0.030615475 -0.024989916 4285558814
-0.048617277 0.031466223 -0.025965264 4285624604
-0.046767909 0.030804012 -0.02557084 4285558559
-0.044809829 0.028629649 -0.023809196 4285558558
-0.042889643 0.027212366 -0.022733739 4285624349
-0.041072402 0.027307689 -0.023026235 4285689884
-0.039493527 0.030426443 -0.026049556 4285821464
-0.037748989 0.031277057 -0.027022526 4285952533
-0.035879601 0.030616444 -0.026630899 4285952533
-0.033869203 0.028445378 -0.024877248 4285886743
-0.031983297 0.027785819 -0.024488127 4285755419
-0.030311171 0.029391978 -0.02614145 4285558559
-0.028649639 0.030997727 -0.027793029 4285558559
-0.026998732 0.03260297 -0.029442778 4285624093
-0.02511486 0.031943686 -0.029053034 4285558303
-0.023057681 0.029775672 -0.027306443 4285558558
-0.020724434 0.025345441 -0.023527259 4285558814
-0.018447984 0.021671273 -0.020431163 4285558813
-0.016052451 0.017244507 -0.016661773 4285625113
-0.01371913 0.013573587 -0.013574629 4285756183
-0.011456069 0.010658026 -0.0111684 4284966958
-0.001810763 0.0096553937 -0.011329003 4285298459
0.00019319355 0.0090037882 -0.010957519 4285297184
0.0024351366 0.0068469271 -0.0092395293 4285428253
0.0052880123 0.00092762709 -0.004158075 4285624604
0.0079408474 -0.0034841076 -0.00042897975 4285690394
0.010501787 -0.0071416199 0.0026226735 4285360933
0.012581654 -0.0077885836 0.0029824618 4285294633
0.01492643 -0.0099393427 0.0046844501 4285360678
0.017287437 -0.012089051 0.0063839047 4285164073
0.019799795 -0.014989622 0.0087514939 4285097773
0.022333778 -0.017888911 0.011115731 4285097519
-0.053350549 0.014559332 -0.012510025 4285228844
-0.051862981 0.021486741 -0.018965673 4285426723
-0.050336886 0.02689404 -0.024046129 4285493278
-0.048618037 0.028506048 -0.025704397 4285559068
-0.046861012 0.029359009 -0.026678069 4285624604
-0.044903461 0.02717815 -0.02492138 4285559068
-0.043037783 0.026514791 -0.024531143 4285689883
-0.041336957 0.028126169 -0.026186187 4285689883
-0.039706226 0.0304951 -0.028520551 4285886998
-0.03796706 0.031347577 -0.029490996 4285623583
-0.035973538 0.029169098 -0.027739784 4285754909
-0.033963669 0.026991524 -0.025991095 4286084114
-0.032148305 0.027087186 -0.026282953 4285755419
-0.030478712 0.028697491 -0.027932525 4285558558
-0.028668385 0.028793085 -0.028223418 4285559068
-0.026857916 0.028888792 -0.028514253 4285559068
-0.024885181 0.027470913 -0.027449863 4285558813
-0.022817764 0.025296975 -0.025709955 4285493278
-0.020388287 0.020097777 -0.021265697 4285427743
-0.018010046 0.015657067 -0.017503681 4285426723
-0.015599344 0.011218227 -0.013746835 4285426213
-0.013345215 0.0082934797 -0.011345971 4285294378
0.0030304417 0.00079585612 -0.0063726092 4285033769
0.0057794154 -0.0043850094 -0.0019784733 4285360933
0.0082017556 -0.0072996244 0.00039634306 4285360679
0.010645725 -0.010212921 0.0027677435 4285294888
0.012857586 -0.011616193 0.0037953276 4285229099
0.015209865 -0.013772957 0.0054910458 4285294634
0.017446104 -0.015174665 0.0065149269 4285295144
-0.053105269 0.0062223449 -0.0075025405 4285032494
-0.051592346 0.013170384 -0.013947227 4285360169
-0.050084408 0.019354977 -0.01970203 4285360424
-0.048573401 0.024776634 -0.024768332 4285427233
-0.046905477 0.027153585 -0.027103955 4285493278
-0.045150895 0.028008625 -0.028075512 4285624860
-0.043293554 0.027342658 -0.027685625 4285689883
-0.041600648 0.0289579 -0.029336061 4285821208
-0.039977673 0.03133285 -0.031664167 4285623583
-0.038184512 0.031427033 -0.031952698 4285557538
-0.036196914 0.029241722 -0.03020554 4285557793
-0.034192983 0.027057372 -0.028460933 4285689373
-0.032383125 0.027152728 -0.028751913 4285755419
-0.030573104 0.027248174 -0.029042859 4285558558
-0.028687391 0.02658445 -0.028656945 4285559068
-0.026796121 0.025921132 -0.028271841 4285559069
-0.02465659 0.022981163 -0.025859708 4285559069
-0.022411738 0.019283589 -0.022775475 4285690393
-0.019880902 0.013311356 -0.017670261 4285624603
-0.017662782 0.010375865 -0.015270497 4285492259
-0.015331265 0.006683208 -0.012199924 4285294634
-0.013444599 0.0067835525 -0.012502524 4285228843
0.0035081133 -0.0045236424 -0.004195591 4284967724
0.0059134662 -0.0074479133 -0.0018248725 4285163819
0.0082191266 -0.0096140578 -0.00012697093 4285229353
0.010541037 -0.011779144 0.0015683935 4285163564
0.012752451 -0.013186753 0.0025926805 4285163309
0.015363023 -0.016862862 0.0056198253 4285228843
0.017472081 -0.017512299 0.005971794 4285229099
-0.051324155 0.0048154965 -0.0089583136 4285229098
-0.049791019 0.011018567 -0.014703805 4285228589
-0.048300702 0.017219525 -0.020442376 4285360424
-0.04680476 0.022655502 -0.025494482 4285559069
-0.045192856 0.025801413 -0.028503297 4285559069
-0.043440755 0.026658539 -0.029472725 4285559068
-0.041863445 0.029802818 -0.032475837 4286018834
-0.040189024 0.031421464 -0.034119889 4285952534
-0.038463276 0.032277483 -0.035084866 4285689629
-0.036548909 0.030847307 -0.034018278 4285755163
-0.03448898 0.027894028 -0.031600449 4285886744
-0.032547344 0.026465461 -0.030538114 4285755929
-0.030594755 0.025037542 -0.029477408 4285559069
-0.028555851 0.022848856 -0.027743235 4285624860
-0.026344467 0.019138541 -0.02466218 4285559068
-0.024105985 0.015429765 -0.021585383 4285493024
-0.021923881 0.012483537 -0.019186711 4285294633
-0.019633938 0.0087776855 -0.016118035 4285294379
-0.01740573 0.005834125 -0.013726595 4285228844
-0.015247378 0.003652446 -0.012011145 4285228843
-0.013543952 0.0052739233 -0.013658849 4285163819
0.0060469843 -0.010519199 -0.001677612 4285098284
0.0082362518 -0.011932477 -0.00065334723 4285098028
0.010560274 -0.014103971 0.0010366789 4285163563
0.012773942 -0.015515707 0.0020572222 4285097518
-0.0512194 -0.00051616877 -0.0067155054 4285163564
-0.049543004 0.0034089312 -0.01041388 4285163054
-0.048030172 0.0096281916 -0.01614265 4285228589
-0.046560172 0.015845362 -0.021864487 4285228843
-0.045133021 0.022060364 -0.027579371 4285294634
-0.043533947 0.025214259 -0.030579375 4285427488
-0.042068962 0.029896319 -0.034928925 4285624604
-0.040458854 0.032283448 -0.037244946 4285821464
-0.03874116 0.03314117 -0.038206972 4285821463
-0.036770795 0.030942012 -0.036467128 4285755929
-0.034649778 0.027215771 -0.03338024 4285624348
-0.032501679 0.023491058 -0.030297628 4285558813
-0.030398998 0.020531621 -0.027893223 4285493278
-0.028199393 0.01680981 -0.024818741 4285493024
-0.026050616 0.013852995 -0.022421602 4285624349
-0.023960765 0.011660792 -0.020700525 4285492258
-0.021854598 0.0094695017 -0.018981956 4285294124
-0.019560095 0.0057531372 -0.015922386 4285228589
-0.017415915 0.0035640821 -0.014209752 4285228844
-0.01525544 0.0013760552 -0.012499678 4285163309
-0.013737362 0.0045271739 -0.015485429 4285163564
0.0061799474 -0.013598755 -0.0015367628 4285031983
0.0082531162 -0.014254935 -0.0011828081 4285097773
0.010579251 -0.01643277 0.00050184247 4285097773
-0.049468335 -0.0011651218 -0.008858338 4285097519
-0.047852781 0.0035372898 -0.013222427 4285163054
-0.046317462 0.0090053454 -0.018257473 4285294379
-0.044921365 0.016005576 -0.024637917 4285359914
-0.043466371 0.021469571 -0.029659841 4285558559
-0.042048868 0.02693174 -0.034675702 4285558814
-0.040492024 0.03009212 -0.037662059 4285558813
-0.038771618 0.030952167 -0.038622893 4285558814
-0.036734771 0.027980346 -0.036214851 4285493023
-0.034542169 0.023477416 -0.032463931 4285492768
-0.032247368 0.018210221 -0.028045401 4285493278
-0.029987108 0.013711028 -0.024305219 4285624859
-0.02776948 0.0099794194 -0.021242008 4285690393
-0.025758114 0.0085461661 -0.020197326 4285492003
-0.023816343 0.0078791231 -0.019825324 4285360423
-0.021785837 0.0064471364 -0.018783581 4285228589
-0.019572649 0.0034854487 -0.016403241 4285228589
-0.017426338 0.0012900382 -0.014695981 4285163053
-0.015354987 -0.00013944507 -0.013660542 4285294379
-0.013554614 0.00072601438 -0.014633226 4285163053
-0.011566203 6.2085688e-05 -0.0142682 4284901168
0.0061941557 -0.01592318 -0.0020672218 4284900913
-0.047813054 -0.0002708137 -0.012346682 4285228589
-0.046172749 0.0036740676 -0.016022436 4285294378
-0.044609863 0.0083867833 -0.020367859 4285294633
-0.043185908 0.014636047 -0.026055394 4285294633
-0.041860942 0.021652047 -0.032409184 4285425959
-0.040407818 0.026359294 -0.036736712 4285361444
-0.038617808 0.026453231 -0.037024796 4285427998
-0.036570866 0.02347333 -0.034625083 4285427998
-0.034234691 0.017421298 -0.029542774 4285427744
-0.03192484 0.012139872 -0.025138445 4285360934
-0.029721674 0.008396633 -0.022081383 4285360679
-0.027566362 0.0054228529 -0.019698776 4285360169
-0.025622312 0.0047536418 -0.019328915 4285294888
-0.023672711 0.0040847957 -0.018959817 4285294889
-0.021717589 0.0034163818 -0.018591572 4285294888
-0.017525438 -0.00022085756 -0.015853345 4285163054
-0.015363391 -0.0024217591 -0.014153554 4285163309
-0.046077255 -0.00090700388 -0.014476573 4285228843
-0.044401716 0.0022765025 -0.017468937 4285294634
-0.042854045 0.0070013925 -0.021801798 4285228589
-0.041506436 0.014037866 -0.028144211 4285294633
-0.040089715 0.01953008 -0.03313642 4285492259
-0.03828099 0.019624975 -0.033427536 4285361188
-0.036215898 0.016637411 -0.031037467 4285295908
-0.033995602 0.012110136 -0.027311103 4285426724
-0.031812269 0.0083549842 -0.024259323 4285360679
-0.029601861 0.0046013892 -0.021211792 4285294378
-0.027513985 0.0023894235 -0.019505642 4285228843
-0.025564808 0.0017183349 -0.019138273 4285294634
-0.023690317 0.0018173978 -0.019439414 4285294633
-0.021732766 0.0011469796 -0.019073227 4285295398
-0.019684095 -0.0002925992 -0.018040998 4285295144
-0.017536212 -0.0025007948 -0.0163441 4285097774
-0.015463013 -0.0039388388 -0.015315637 4285033004
-0.042577539 0.00010585785 -0.018244801 4285163053
-0.041154098 0.0063894987 -0.023905441 4285163054
-0.037946094 0.012766853 -0.029853243 4285360679
-0.035990667 0.011317194 -0.028810043 4285360933
-0.033824485 0.0075503066 -0.025763955 4285294633
-0.031769786 0.0053300038 -0.024057686 4285294379
-0.029698793 0.003110595 -0.022353929 4285228844
-0.027611475 0.00089214742 -0.020652721 4285228844
-0.025585201 -0.00055320561 -0.019620551 4285228844
-0.023628082 -0.0012259334 -0.019256065 4285228843
-0.021748189 -0.0011264682 -0.019557985 4285229098
-0.042620953 -0.0021664426 -0.018723017 4285031983
-0.040971052 0.0010330528 -0.02169775 4285163054
-0.035830554 0.0067506358 -0.027265918 4285294889
-0.033720892 0.0037483796 -0.024896372 4285360169
-0.031727832 0.0022966042 -0.023862416 4285294634
-0.029580157 -0.00070349872 -0.021498786 4285294379
-0.027634393 -0.0013792142 -0.021134345 4285228843
-0.025605854 -0.0028287545 -0.020105893 4285163308
-0.023726236 -0.0027294457 -0.020407869 4285228589
-0.021681231 -0.0041779354 -0.019381849 4285098283
-0.037708621 0.0044015571 -0.027433671 4285228588
-0.03586242 0.0044984594 -0.027730785 4285228844
-0.033817071 0.0022646412 -0.026033163 4285294378
-0.031686407 -0.00074508041 -0.023673585 4285294634
