# .PCD v0.7 - Point Cloud Data file format
VERSION 0.7
FIELDS x y z rgba
SIZE 4 4 4 4
TYPE F F F U
COUNT 1 1 1 1
WIDTH 977
HEIGHT 1
VIEWPOINT 0 0 0 1 0 0 0
POINTS 977
DATA ascii
0.024387524 0.0019062199 0.041178077 4289409824
0.025763007 0.0040456168 0.038551308 4289605918
0.027336014 0.0055203848 0.036652066 4289346839
0.015815953 0.0077962205 0.032633558 4289733419
0.018805198 0.0046088137 0.035811 4289798953
0.022026476 0.00075707585 0.039706573 4289341738
0.024655785 -0.0010936819 0.041424453 4289145388
0.02624774 0.00038680807 0.039524153 4289407528
0.028042387 0.0012007579 0.03834866 4289407274
0.029831713 0.0020144135 0.037174441 4290454559
0.032271698 0.00083158165 0.038164794 4290323999
0.034501009 0.00031480938 0.0384323 4290324509
0.035839625 0.0024584942 0.035819069 4291961354
0.023676423 -9.1765076e-05 0.037333041 4287050563
0.026099902 -0.001280468 0.038323656 4289079088
0.028107788 -0.0011323057 0.037870497 4289798954
0.029899869 -0.00031625107 0.036697283 4289473064
0.032123562 -0.00083570927 0.036964372 4289277224
0.03479486 -0.002689559 0.038668163 4289800484
0.03658691 -0.0018732473 0.037495159 4289277224
0.039053008 -0.0030582957 0.038476527 4288886054
0.042904586 -0.0082434416 0.043758281 4289477144
0.048653223 -0.018758312 0.05476255 4289607959
0.029105209 2.899766e-05 0.03334301 4289273908
0.031538889 -0.0011631213 0.034328289 4289472044
0.034425102 -0.0036936291 0.036745846 4289603369
0.037556235 -0.0068918914 0.039875373 4289734694
0.040940277 -0.010757312 0.043715082 4289735204
0.045500994 -0.017965473 0.051125221 4289015593
0.050583541 -0.026506901 0.059952073 4288688429
0.030736927 -0.00080938265 0.030982388 4288424248
0.033834994 -0.004021164 0.034111127 4289799209
0.03807677 -0.010589108 0.040809564 4290061093
0.042597935 -0.017824501 0.048210599 4289341739
0.047406442 -0.025726661 0.056312352 4288949549
0.051816091 -0.032281965 0.062973171 4287379768
0.034348451 -0.0077098981 0.035053693 4288752178
0.039042577 -0.015647084 0.043161459 4289210413
0.043800674 -0.023579493 0.051254921 4289145133
0.048165612 -0.030160114 0.057909332 4288883503
0.040675491 -0.022755161 0.047633462 4288883504
0.045226753 -0.030036673 0.0549917 4289014573
0.048694864 -0.033935323 0.058783054 4287837239
0.03713312 -0.020554245 0.042598277 4287508799
0.042082444 -0.029220097 0.051369831 4288491314
0.046199106 -0.035168365 0.057286851 4288557103
0.04899478 -0.03704562 0.05893822 4286659903
0.038301378 -0.026341781 0.045628034 4287771449
0.043486647 -0.035715684 0.055084065 4287705913
0.046944216 -0.039641619 0.058858134 4286398018
0.043998405 -0.039511159 0.055947594 4287836474
0.011046916 -0.063782461 -0.011679583 4288032568
0.0081592835 -0.062531568 -0.015049946 4287638849
0.010518387 -0.063905366 -0.014179074 4287836474
0.034201257 0.0018687025 0.075462349 4284573493
0.0095498897 -0.056109279 0.0034035295 4282935884
0.011746906 -0.056701906 0.003623683 4282608464
0.011409644 -0.05762168 0.0017549507 4282345049
-0.0040072352 -0.042344123 -0.018325888 4283461693
-0.00046106055 -0.048947714 -0.01273692 4282675018
0.0018579997 -0.050303109 -0.0118411 4282541653
-0.0078175701 -0.036561824 -0.025730649 4283788093
-0.0041472502 -0.043940857 -0.01947603 4282481473
-0.0011408515 -0.048309438 -0.015905071 4282217804
0.00080576912 -0.048166938 -0.016345263 4282149719
-0.0079554655 -0.038136221 -0.026864748 4282155328
-0.0046401136 -0.044029243 -0.021959823 4282023493
-0.0021776743 -0.046149932 -0.020396192 4282086223
0.00011902303 -0.047515698 -0.01950188 4281690463
-0.01033875 -0.038336091 -0.028901026 4284183089
-0.0073989518 -0.042735957 -0.025334753 4282743869
-0.004427176 -0.047133371 -0.021775641 4281695818
-0.002317965 -0.04774826 -0.02154744 4282215508
-0.0087686069 -0.04749345 -0.02338168 4282809149
-0.0041106157 0.01679359 0.028312454 4282667368
-0.003243167 0.020932544 0.023483293 4279127204
-0.00077379122 0.019075897 0.025241593 4279584674
0.003185302 0.01189455 0.032840639 4279256744
0.0086980797 -0.00060670078 0.046265893 4280436374
0.011658777 -0.0037855953 0.049457684 4282994023
-0.0086195953 0.024401858 0.01735135 4280373644
-0.0067786425 0.03203243 0.0084591061 4278337468
-0.004179243 0.029497212 0.010953648 4278271169
0.0036972202 0.015083153 0.026125105 4279321513
0.0071555376 0.0098853782 0.031507812 4280568208
0.0098885633 0.0073602758 0.03397239 4281288328
-0.0113433 0.025366563 0.013721788 4279782299
-0.010663088 0.030201657 0.0081855264 4278930089
-0.0096684359 0.033692583 0.0041160714 4278470834
-0.0081648827 0.035169959 0.0022383388 4279126949
-0.0026161186 0.028740356 0.0086730067 4278339253
0.00094429031 0.022848725 0.014788331 4279192230
0.0037961863 0.019639809 0.017988293 4279061925
0.0064830147 0.017102506 0.020456744 4279062433
0.0082188547 0.017913751 0.019295743 4280829583
0.0095551275 0.020063091 0.016687306 4283316343
-0.013708528 0.025003834 0.011559052 4282798694
-0.013013832 0.029855231 0.0060309507 4278865573
-0.01050669 0.034839422 9.3013048e-05 4278273463
-0.0088352263 0.035647646 -0.0010521729 4278471854
-0.00031287596 0.02529905 0.0092975646 4278798764
0.0019551031 0.02409384 0.010319524 4278800039
0.0038505979 0.024233062 0.0098912455 4278930598
0.0049690269 0.027058763 0.0065696482 4279454879
0.0062631406 0.029211534 0.0039756764 4279190954
0.0085393563 0.028007252 0.0049960148 4279713704
0.012444522 0.021435779 0.01178629 4280237728
0.016812939 0.013526674 0.020006469 4278269893
0.020830151 0.0069636181 0.026771562 4280107423
0.024059583 0.0030862466 0.03064576 4281942658
-0.016061924 0.024651082 0.0094005093 4282405228
-0.015185341 0.028843077 0.0046082921 4278735014
-0.013830319 0.031006141 0.0020048171 4278603688
-0.0013815723 0.027101776 0.00454963 4278733738
0.00068384036 0.02656533 0.0048484802 4278733738
0.0019889735 0.028725378 0.0022567604 4278603179
0.0030840971 0.031558156 -0.0010530241 4278406319
0.017574169 0.015422437 0.014814256 4279650718
0.021392588 0.0095109269 0.020842357 4279978138
0.025259001 0.0036030374 0.026859688 4280828564
0.028311759 0.00038773566 0.029998517 4282659973
-0.018009055 0.030548798 0.00028065778 4279652504
-0.016491774 0.03204003 -0.0015906822 4278341039
-0.014475323 0.03149721 -0.0012828391 4278341039
-0.012453407 0.030954825 -0.00097613037 4278734504
-0.010776531 0.031767778 -0.0021193884 4278603433
-0.0091048703 0.032580379 -0.0032613687 4278734503
-0.0068967491 0.031361662 -0.0022325963 4278668968
-0.0044946633 0.029467059 -0.00048367679 4278603178
-0.0020764954 0.027573673 0.0012617037 4278734249
-0.00039648637 0.028387217 0.00011808239 4278864808
0.00089579821 0.030552907 -0.0024658293 4278471088
0.0019782744 0.033393532 -0.0057662185 4278602413
0.0036291368 0.034205176 -0.0069030747 4279520924
0.0058723874 0.032989651 -0.0058818609 4279521179
0.0091357827 0.0283978 -0.0012712143 4278996133
0.012231972 0.024484046 0.0026132725 4279126693
0.015774632 0.019222643 0.0079249088 4279061158
0.019779734 0.01261479 0.014660036 4279192228
0.024688372 0.0033123717 0.024246963 4279454624
0.028380368 -0.0019377582 0.029525092 4280371603
0.031025596 -0.0038133897 0.031219969 4282991473
-0.019833516 0.028195558 0.00031786785 4279586459
-0.010911379 0.030232303 -0.0032253489 4278930344
-0.0088842101 0.029688245 -0.0029213596 4278668969
-0.0068516247 0.029144717 -0.0026185717 4278603433
-0.0049966574 0.029280672 -0.0030379109 4278603433
-0.0031416006 0.029416716 -0.0034572054 4278537898
-0.0016632043 0.030910123 -0.0053160125 4278734249
0.0029047877 0.034708075 -0.010159653 4278403513
0.015427429 0.018317711 0.0060701147 4278471854
0.020685932 0.0076251961 0.017079616 4278668458
0.025605049 -0.0017072298 0.026641248 4278669224
0.029093673 -0.0062974319 0.031189905 4279260058
0.031748854 -0.0081788823 0.032877587 4282599538
-0.02166329 0.025837904 0.00035328045 4282143343
-0.021098848 0.031435601 -0.0058605429 4278471344
-0.019920137 0.034299869 -0.0091702566 4278732974
-0.018095221 0.034433115 -0.0095831789 4279716509
-0.015931156 0.033202045 -0.0085513201 4278273974
-0.013239779 0.02992581 -0.0053564506 4278274229
-0.010871325 0.028015232 -0.0036099227 4278602668
-0.0086642951 0.026787559 -0.0025875885 4278603178
-0.0069870241 0.027605003 -0.0037275366 4278537898
-0.0054978356 0.029103417 -0.0055856407 4278668968
-0.0040192157 0.030601099 -0.0074412497 4278407083
-0.0025511831 0.032098085 -0.0092944046 4278996134
-0.00071207806 0.032233119 -0.0097099803 4278995879
0.00093358383 0.033048715 -0.010842508 4279323298
0.0025739782 0.033863965 -0.01197374 4278339764
0.0076523684 0.029374829 -0.0077959765 4278406064
0.011546664 0.022714678 -0.0010687094 4278668458
0.016735256 0.011981748 0.0099303052 4278930854
0.022847159 -0.0014619157 0.023763603 4278865829
0.027368419 -0.0094649941 0.031870797 4278800293
0.030020246 -0.011353403 0.033554316 4280570248
-0.023810375 0.024846604 -0.0010606982 4282405738
-0.023225997 0.030463224 -0.0072660232 4278537898
-0.020544726 0.034839343 -0.012427584 4278862004
-0.018894542 0.035656571 -0.013560086 4278995114
-0.016572308 0.033735868 -0.011808205 4278798509
-0.0093316808 0.027297424 -0.0058549615 4278668203
-0.007482335 0.027432837 -0.0062731244 4278799784
-0.0061808228 0.029618653 -0.0088445591 4278602668
-0.0032496043 0.032620996 -0.012543352 4278403513
-0.001418598 0.032755408 -0.012957113 4278403004
0.00060577318 0.032207277 -0.012655447 4278799020
0.0026355274 0.031659618 -0.012354942 4278668458
0.0048693009 0.030430144 -0.011341383 4278603433
0.0079189688 0.026473297 -0.0074759377 4278538154
0.012836356 0.016382035 0.0027990453 4278603689
0.018866908 0.0028883182 0.016617889 4278669479
0.025004085 -0.010597393 0.030412687 4278669479
0.028280426 -0.014537171 0.03422723 4279194268
0.030515624 -0.01506909 0.034481883 4281946484
-0.025658619 0.030871261 -0.010113744 4278735013
-0.024309721 0.033066384 -0.012691617 4278603943
-0.012013439 0.028372271 -0.0094141765 4278733738
-0.0098207258 0.02713472 -0.0083951829 4278733738
-0.0081565939 0.027955564 -0.0095289107 4278471599
-0.0070450641 0.030833082 -0.012809976 4278536879
-0.0041345917 0.03384266 -0.016497551 4278534074
0.0028924942 0.028766381 -0.012025947 4278668969
0.005329527 0.026848435 -0.010304227 4278603433
0.0095925555 0.018773168 -0.0021782462 4278407083
0.015345965 0.005914133 0.010912951 4278407083
0.021820001 -0.0089890361 0.026113668 4278341548
0.026320329 -0.017046534 0.034186289 4278669478
0.028766964 -0.018264219 0.035148807 4280177038
0.031438701 -0.020164348 0.036817998 4281553784
0.035211917 -0.025478661 0.042025447 4282404973
-0.02746189 0.028534153 -0.010070463 4279587478
-0.026568878 0.032805994 -0.014807887 4278669478
-0.024916273 0.033627473 -0.015937906 4278472618
-0.023107897 0.033759259 -0.016347274 4278995879
-0.021135788 0.033201918 -0.016037798 4278799020
-0.019324508 0.033334084 -0.016447702 4278864554
-0.017175224 0.032088645 -0.01542232 4278799018
-0.015015181 0.030844118 -0.014399353 4278799273
-0.012670111 0.028911989 -0.012662316 4278799784
-0.010662809 0.028357645 -0.012360489 4278799273
-0.008829657 0.028491847 -0.012775011 4278668203
-0.0060877129 0.032198865 -0.017173888 4279126948
-0.0044552311 0.03301983 -0.018298643 4279061923
-0.0020670146 0.031091388 -0.016570967 4278602924
0.00033724308 0.029164249 -0.014846899 4278930089
0.002953127 0.026551463 -0.012414766 4278340784
0.0061851218 0.021880254 -0.0078544244 4278537898
0.011262637 0.011033494 0.0030909665 4278735013
0.018054077 -0.0052973032 0.019695407 4278735013
0.023736047 -0.017501973 0.032015972 4278800549
0.02742493 -0.022840433 0.037229165 4278670243
0.029675482 -0.02337566 0.037476972 4281488504
0.032788314 -0.026652455 0.040553123 4282078064
0.036795396 -0.032668442 0.046450458 4282863463
-0.029570658 0.027577471 -0.011469408 4280438413
-0.027632553 0.035455056 -0.020204911 4278533564
-0.025363494 0.033510242 -0.018455992 4278336448
-0.023239072 0.03225835 -0.017428517 4278601393
-0.020940427 0.030315876 -0.015686156 4278734248
-0.01895785 0.029757153 -0.01538065 4278668969
-0.016969819 0.02919893 -0.015076304 4278668968
-0.015319142 0.030022878 -0.016203942 4278472618
-0.013151489 0.028774543 -0.015185877 4278734503
-0.011503283 0.029598529 -0.016312869 4278341548
-0.0096809082 0.029731918 -0.016724972 4278733738
-0.0067748018 0.032758497 -0.020398658 4278404789
-0.0049628392 0.032891408 -0.020808192 4279323044
0.0078309663 0.014134713 -0.0025828537 4278734248
0.013932809 -0.00018925592 0.011875644 4278603944
0.020146618 -0.014504872 0.026308937 4278669479
0.024617983 -0.022617288 0.034348704 4278866084
0.02748367 -0.025219984 0.036718242 4279980688
0.030582065 -0.028508931 0.039789401 4281356668
0.033921152 -0.032483518 0.043560408 4282208623
0.037725635 -0.03783071 0.048734657 4282863208
-0.030302119 0.028842168 -0.015434643 4279061670
-0.028072949 0.035353944 -0.022712909 4278599098
-0.021072235 0.028808545 -0.016772004 4278799273
-0.018924076 0.027554136 -0.015753068 4278472363
-0.017102215 0.027687119 -0.016165327 4278734503
-0.015451465 0.02851324 -0.017291365 4278472618
-0.01380593 0.029339079 -0.018416153 4278734759
-0.012342166 0.030857325 -0.020252351 4278538409
-0.010530561 0.030989911 -0.020662028 4278799784
-0.0070916116 0.031947453 -0.022192046 4278271679
0.0040492825 0.018652566 -0.0096593546 4278603178
0.0094733387 0.0063495822 0.002660282 4278603178
0.01579546 -0.0087099522 0.017787149 4278930853
0.021218954 -0.020307168 0.029354626 4278800293
0.024880456 -0.025682896 0.034547746 4279915154
0.028167587 -0.029674701 0.038320504 4281553528
0.031486705 -0.033664048 0.042086117 4281815413
0.034837827 -0.037650943 0.045844644 4282012273
-0.033192199 0.022890974 -0.01138779 4281618809
-0.032392967 0.02790286 -0.016825754 4278668968
-0.029991563 0.033738963 -0.023377467 4279322534
-0.028512511 0.035261981 -0.025214395 4279389853
-0.026413176 0.033999301 -0.024187844 4278733738
-0.023821954 0.030649368 -0.021019766 4278733229
-0.021530028 0.028693203 -0.019285791 4278340019
-0.019387688 0.027433923 -0.018268775 4278799784
-0.017571282 0.027566466 -0.018679831 4278734248
-0.016267799 0.029784964 -0.021227548 4278537898
-0.01498019 0.032002348 -0.023771562 4278668968
-0.013179444 0.032134026 -0.024178868 4278930344
-0.011199597 0.031571131 -0.023875706 4279060903
-0.0095776729 0.032397684 -0.024993334 4278668713
-0.0077766664 0.032529652 -0.025400497 4278800038
-0.0056015924 0.03127354 -0.024390381 4278603689
-0.0026571304 0.027242662 -0.020550558 4278734504
0.00089634955 0.021133073 -0.014595652 4278800039
0.005862806 0.010172457 -0.003703828 4278603433
0.012100514 -0.0049416684 0.011405997 4278537898
0.017854558 -0.017967761 0.024372647 4278734759
0.021883003 -0.02474986 0.030971417 4279194779
0.02493651 -0.028064281 0.034036204 4280767618
0.028433317 -0.032761693 0.038502626 4281553784
0.032389417 -0.03884095 0.044367142 4282077553
0.035325255 -0.041455835 0.046707913 4282208879
-0.034621861 0.027668182 -0.018931285 4279718804
-0.033404764 0.030596055 -0.022204464 4278931364
-0.021987002 0.028586932 -0.021792978 4278471599
-0.020015988 0.028020713 -0.021489814 4278733738
-0.018375825 0.028850324 -0.022610281 4278602923
-0.016911708 0.03037712 -0.024440132 4278602669
-0.013838988 0.032731634 -0.027383082 4278336959
-0.0075398199 0.029642887 -0.025061112 4278472108
-0.0053599142 0.028382724 -0.024055369 4278472618
-0.0022219345 0.023642797 -0.019519828 4278603178
0.0019140802 0.01542611 -0.011463551 4278603433
0.0078672618 0.00095270202 0.0029252749 4278603433
0.014129877 -0.014207944 0.017993523 4278734503
0.018708628 -0.023101836 0.026699232 4278668968
0.021937136 -0.027124509 0.030465437 4280636549
0.025197655 -0.031144738 0.034224495 4281553784
0.029114544 -0.037246749 0.040083051 4281946739
0.032657839 -0.041956037 0.044527657 4282208879
0.035384633 -0.043884993 0.046159856 4282666859
-0.036838893 0.027443532 -0.021032678 4279783829
-0.035903987 0.031783782 -0.025730897 4278603688
-0.034267534 0.032614581 -0.026849438 4278668713
-0.032486912 0.032743841 -0.027252901 4278406574
-0.02682953 0.03173095 -0.027038947 4278274739
-0.024563063 0.02975959 -0.025309071 4278602668
-0.022443142 0.02848975 -0.024293628 4278734249
-0.020477753 0.027920904 -0.023990838 4278864808
-0.01884285 0.028752305 -0.025108501 4278602668
-0.01789568 0.032382235 -0.029061157 4278602159
-0.016455155 0.033911765 -0.030882349 4278338743
-0.014673278 0.034042034 -0.031285413 4278275249
-0.0073037036 0.026747538 -0.024727911 4278799528
-0.0047457553 0.024086256 -0.022315646 4278668713
-0.0010307804 0.017236665 -0.015679166 4278537898
0.0040811226 0.0055041537 -0.0041250279 4278537898
0.010451272 -0.010409214 0.011630461 4278603433
0.015563169 -0.0214293 0.022437165 4278603433
0.019160897 -0.026862606 0.027605226 4278735780
0.021990912 -0.029503301 0.029956477 4280373389
0.025458064 -0.034233779 0.034406669 4280832134
0.028962523 -0.038961366 0.038848467 4281946483
0.032293729 -0.042989373 0.042581961 4282863464
-0.0376742 0.029470999 -0.025678774 4278996899
-0.036463942 0.03241574 -0.028937398 4278733994
-0.034542423 0.031840853 -0.028626794 4278274229
-0.032764573 0.031969901 -0.029029634 4278668458
-0.030834768 0.031395786 -0.028720781 4278734503
-0.029208418 0.032228276 -0.029835233 4278407083
-0.027115885 0.030951886 -0.028817056 4278669224
-0.025012564 0.029676333 -0.027801208 4278537643
-0.022898469 0.028401703 -0.026787773 4278865319
-0.021268938 0.029234793 -0.02790267 4278733994
-0.019644599 0.0300676 -0.029016316 4278471344
-0.016757783 0.033135779 -0.0326536 4278667948
-0.014978681 0.033265829 -0.033056043 4279324318
-0.012664221 0.031292051 -0.031341519 4278800039
-0.0099714994 0.027917229 -0.028220393 4278602923
-0.0072520748 0.024544492 -0.025105283 4278537389
-0.0037602782 0.018370874 -0.01918076 4278603178
0.00053585321 0.0093987808 -0.010454076 4278734248
0.0062435381 -0.0044705905 0.0031755511 4278537898
0.011474587 -0.016231522 0.014674997 4278472363
0.01561386 -0.023786053 0.021945482 4278538153
0.01881309 -0.027837366 0.025698585 4279194268
0.022246739 -0.032585785 0.030144809 4280635784
0.025717704 -0.037331313 0.034582645 4280307088
0.029018262 -0.041374817 0.038313128 4281159809
-0.039864559 0.029273119 -0.02776771 4279192993
-0.031114955 0.030624064 -0.030495159 4278472363
-0.029028382 0.029342733 -0.029478986 4278538154
-0.027087953 0.028767355 -0.029174063 4278538154
-0.025142062 0.028192423 -0.02887026 4278276013
-0.023352969 0.028322708 -0.029275335 4278734503
-0.021893594 0.029862124 -0.031094529 4278472108
-0.020612333 0.032105118 -0.03361769 4278930343
-0.0070172511 0.021634206 -0.024782849 4278275249
-0.0025908798 0.011926387 -0.015362561 4278668458
0.0032323413 -0.0026950911 -0.001047492 4278537898
0.0085928552 -0.015200593 0.011139199 4278537898
0.012495615 -0.022080101 0.017700678 4278865828
0.015664198 -0.026146926 0.021450823 4280112014
0.019064335 -0.030913308 0.025893087 4280308619
0.022704002 -0.036378533 0.031025598 4281618809
0.025976604 -0.040437415 0.034752533 4281881203
-0.041365821 0.025541134 -0.026291918 4279848854
-0.040544968 0.030630955 -0.031677894 4278733994
-0.037580181 0.033720262 -0.035321325 4278930853
-0.033318568 0.030436046 -0.032573104 4278273974
-0.031243276 0.029149355 -0.031557683 4278667949
-0.02915721 0.027863583 -0.030544687 4278799784
-0.027530562 0.028700525 -0.0316559 4278734504
-0.025590297 0.028123008 -0.03135252 4278538154
-0.024130773 0.02966666 -0.033168525 4278669224
-0.022681784 0.031209681 -0.034982122 4278734248
-0.021243323 0.032751977 -0.036793225 4278603434
-0.019305248 0.032174684 -0.036489062 4278864808
-0.017534468 0.032303989 -0.036889724 4278799018
-0.015763588 0.032433398 -0.037290335 4278667949
-0.013636537 0.031151423 -0.036285933 4278602923
-0.010595258 0.026342677 -0.031774599 4278799783
-0.0064164251 0.017304655 -0.023064028 4278799783
-0.00068005547 0.0026306733 -0.0087637678 4278537898
0.0053569414 -0.012740009 0.0062113479 4278537898
0.0097890198 -0.021759145 0.014864912 4278472363
0.012738254 -0.025136568 0.017912028 4279455643
0.015910855 -0.029216275 0.021651452 4281291388
0.019314826 -0.033997729 0.026081404 4281619319
0.023160141 -0.040184252 0.031897105 4281946738
0.026030065 -0.042848244 0.034219794 4282339439
-0.043679301 0.0260626 -0.029088654 4281619319
-0.04257625 0.0297464 -0.03304486 4278668203
-0.039746519 0.033555266 -0.037392505 4278603434
-0.038136501 0.034392715 -0.038498677 4279062433
-0.036093954 0.033099093 -0.037479311 4278799018
-0.031522777 0.028384777 -0.033326931 4278405809
-0.02943987 0.027094362 -0.032316498 4278602923
-0.027659263 0.02722379 -0.032719832 4278603178
-0.026196931 0.028771916 -0.034533292 4278537898
-0.024745118 0.030319417 -0.036344338 4278275504
-0.019603614 0.031415157 -0.038249251 4278406573
-0.017663088 0.030835932 -0.037947211 4278472363
-0.015717153 0.030257184 -0.037646346 4278603433
-0.013232261 0.027555091 -0.035243973 4278603433
-0.0098234527 0.021315925 -0.029344983 4278669224
-0.0047180951 0.0087124072 -0.0171597 4278603689
0.0012265407 -0.0067134015 -0.0021997318 4278603689
0.0067229383 -0.020009026 0.010638369 4278603689
0.01021786 -0.025520481 0.015777135 4278473384
0.013173979 -0.028908379 0.018814525 4281290879
0.016156783 -0.032294206 0.021845965 4281487228
0.019763725 -0.037797093 0.026959671 4281749879
0.023009688 -0.041884355 0.03067288 4282208369
-0.04460137 0.02886709 -0.034409642 4278735269
-0.0432433 0.031134257 -0.036936425 4278603434
-0.040153343 0.033526838 -0.039855856 4278338743
-0.031952877 0.028336996 -0.035798162 4278602668
-0.030029479 0.027753636 -0.035494406 4278864808
-0.028256964 0.027882468 -0.035895906 4278734249
-0.02696136 0.030145885 -0.038407877 4278865319
-0.017447021 0.027947033 -0.037603509 4278668458
-0.015321083 0.026656104 -0.036605537 4278602923
-0.012473807 0.02252546 -0.032812756 4278472619
-0.008151982 0.012717612 -0.023437642 4278538154
-0.0024746843 -0.002053 -0.0091927014 4278472618
0.002943255 -0.015396155 0.0036320128 4278472618
0.0073326528 -0.024475574 0.012252646 4278538408
0.013414931 -0.031984128 0.01901198 4280503948
0.016598249 -0.036089428 0.022729406 4279848088
0.019614616 -0.039483637 0.025745181 4281225089
0.022254404 -0.041458972 0.027367251 4282273138
-0.045842994 0.02369801 -0.031520966 4278735014
-0.044727791 0.02740447 -0.035463702 4278735268
-0.043099489 0.028247284 -0.036571 4278406828
-0.041751426 0.030520357 -0.039090581 4278930853
-0.040278945 0.032077342 -0.040900368 4278733993
-0.038816933 0.033633612 -0.042707667 4278799529
-0.036783356 0.032330506 -0.041692846 4278668203
-0.034738977 0.031028252 -0.040680349 4278733738
-0.032382142 0.028298283 -0.038262799 4278602923
-0.030617874 0.028426381 -0.038662534 4278799273
-0.028853465 0.028554594 -0.039062224 4278471599
-0.027565386 0.030824075 -0.041567642 4278471599
-0.026293162 0.033092491 -0.044069398 4278995114
-0.024544347 0.033219859 -0.044465341 4279585438
-0.019860107 0.028484298 -0.040360522 4278470578
-0.017575946 0.026475085 -0.038663812 4278602669
-0.015100934 0.023754641 -0.03627241 4278537388
-0.011184864 0.015336961 -0.028304126 4278472363
-0.0059439838 0.0019389577 -0.015470572 4278472363
-0.00023627281 -0.012875512 -0.0012668371 4278472363
0.0040997937 -0.021987461 0.0073445272 4278472873
0.0073765218 -0.02682475 0.011768529 4278473639
0.013655152 -0.035068423 0.019203356 4279979923
0.016646389 -0.038475573 0.022216542 4280634763
0.019465541 -0.041169859 0.024530916 4281290624
0.045129299 -0.063215181 0.04308518 4282536553
-0.045193989 0.017916426 -0.028341042 4282142578
-0.044194017 0.022352856 -0.032985803 4278866084
-0.04268704 0.023916494 -0.034800313 4278735013
-0.041190516 0.025479427 -0.036612339 4278865829
-0.039984468 0.028476274 -0.039831039 4278997153
-0.038514223 0.030037485 -0.041636974 4279062689
-0.036909144 0.030881187 -0.042737175 4278800293
-0.03501324 0.030291177 -0.042430576 4278603433
-0.033262517 0.030418169 -0.042827331 4278537898
-0.031358365 0.029828977 -0.042522512 4278799784
-0.026742194 0.033074439 -0.046513092 4278930344
-0.02516279 0.033916898 -0.047606945 4279193503
-0.023088742 0.032613106 -0.046603993 4278865064
-0.014008511 0.017270789 -0.032461856 4278406574
-0.009189941 0.005255159 -0.021036291 4278406574
-0.0037409998 -0.0088968202 -0.0075446498 4278472363
0.0010841824 -0.020184182 0.0031433515 4278407338
0.0043273941 -0.025039427 0.0075634401 4278866849
0.0076079629 -0.029891826 0.011975184 4280702339
0.010544714 -0.033314176 0.01499234 4281357178
0.01370139 -0.037447833 0.018696046 4281553784
0.016694169 -0.040865824 0.021700719 4282142833
0.044972487 -0.064974003 0.041819014 4282405484
-0.04467639 0.012828883 -0.025885366 4281355394
-0.043530237 0.016559422 -0.029818846 4278931873
-0.04187255 0.017408684 -0.030929599 4278932129
-0.040494297 0.01969704 -0.03344626 4278276524
-0.039271664 0.022703812 -0.036662221 4278276269
-0.036309171 0.025836652 -0.0402725 4278603943
-0.03484368 0.027402112 -0.042074017 4278669734
-0.033539128 0.0296856 -0.044573616 4278668969
-0.031944167 0.030530991 -0.045669645 4278865318
-0.030354399 0.031376094 -0.04676443 4278996134
-0.017490182 0.022097722 -0.039392397 4278603434
-0.012569938 0.0093224384 -0.027283117 4278603434
-0.006845478 -0.0063128099 -0.012417363 4278734504
-0.0020821877 -0.017639898 -0.0017415881 4278538409
0.0013072304 -0.023229636 0.0033684727 4278538663
0.0041841529 -0.026667558 0.0063908156 4279981708
0.0072754957 -0.030819409 0.01009931 4281357434
0.010589238 -0.035684608 0.014492193 4281750389
0.013747264 -0.039831333 0.018185785 4281881204
0.041814569 -0.064035162 0.038292035 4282601833
0.04459336 -0.066019066 0.039868787 4282405483
-0.044418585 0.0091644339 -0.024852959 4281815158
-0.043131996 0.012184296 -0.028077118 4279914388
-0.04146358 0.013036486 -0.029188696 4279063453
-0.039800312 0.013888411 -0.030299028 4278669989
-0.038561065 0.016905133 -0.033512242 4278735524
-0.037200648 0.019198928 -0.036019847 4278604198
-0.035856042 0.021491673 -0.038523793 4278538918
-0.034379628 0.023062252 -0.040324487 4278603943
-0.033364486 0.026794907 -0.044219621 4278472618
-0.031764146 0.027642846 -0.045315258 4278997154
-0.03032456 0.029211076 -0.047107436 4279127969
-0.028737266 0.030058274 -0.048199967 4278996899
-0.027316045 0.031625316 -0.049987797 4278865573
-0.025741812 0.032471813 -0.051077262 4278800038
-0.023674104 0.031158699 -0.050079398 4278406828
-0.020920079 0.02696828 -0.046304975 4278341548
-0.016761605 0.017025385 -0.036984608 4278472618
-0.010960586 0.00061549991 -0.021439251 4278472618
-0.0055676512 -0.013628371 -0.0080003431 4278538408
-0.0016839802 -0.021395378 -0.00081639551 4278604708
0.0009829402 -0.024127848 0.0015122574 4280767109
0.0038560927 -0.02757702 0.0045272745 4281356923
0.0067559406 -0.031024121 0.0075363535 4281619064
0.010443229 -0.037341155 0.013299176 4281815668
0.013599943 -0.041501142 0.016983258 4282340203
0.038463011 -0.062360667 0.03408929 4282602343
0.041439258 -0.065068677 0.036349356 4282471018
-0.044419464 0.0069363862 -0.025234297 4282077808
-0.042998124 0.0092407577 -0.027751122 4279653014
-0.041190203 0.009371236 -0.028161332 4279391129
-0.039518896 0.010225907 -0.02927188 4279194269
-0.038131583 0.012528062 -0.031780727 4278670244
-0.036617976 0.014105525 -0.033586804 4278670244
-0.035114858 0.015682284 -0.035390381 4278538663
-0.033769649 0.017981727 -0.03788951 4278735014
-0.032440241 0.020280119 -0.040384986 4278538664
-0.029673506 0.024151009 -0.044668749 4278406829
-0.028388921 0.026446395 -0.047153812 4278538154
-0.026798766 0.027296117 -0.048245341 4278800294
-0.025213812 0.028145513 -0.04933558 4279062434
-0.023135956 0.026828744 -0.048343286 4278735014
-0.020035181 0.021182332 -0.043194506 4278538409
-0.015178129 0.0083234236 -0.031129777 4278472873
-0.0095290802 -0.0074138865 -0.016318893 4278472873
-0.0048229061 -0.018815458 -0.0056824954 4278538408
-0.0016455799 -0.023721777 -0.0012820195 4279587733
0.0010230877 -0.02646289 0.0010397006 4281160319
0.0038977899 -0.029922917 0.0040461998 4281619064
0.0067991912 -0.033380874 0.007046761 4281684598
0.01029725 -0.038997397 0.012106379 4282012529
0.03830833 -0.064098611 0.032838069 4282340203
0.041064348 -0.066097394 0.034410045 4282405739
-0.042996209 0.0070152804 -0.028131252 4279587224
-0.041319679 0.0078724436 -0.02924148 4279128733
-0.039511707 0.0080030002 -0.029651649 4279390874
-0.038121294 0.010311913 -0.032156333 4278932128
-0.036462855 0.011168022 -0.033262193 4278932128
-0.034954164 0.012749586 -0.035063837 4278735268
-0.033455949 0.014330443 -0.036862981 4279063199
-0.031818356 0.015185371 -0.037963949 4278735014
-0.030185927 0.01603999 -0.039063618 4278407338
-0.028869111 0.018344171 -0.041551176 4278472618
-0.026122425 0.022224922 -0.045821965 4278407339
-0.024687301 0.023801841 -0.04760642 4278341804
-0.022599306 0.022481412 -0.046619698 4278668968
-0.018815536 0.013922248 -0.038719747 4278931364
-0.013598464 -0.00042235106 -0.025306517 4279127968
-0.0082748346 -0.014759108 -0.011917269 4279127968
-0.0046095438 -0.021854095 -0.0054496443 4278931873
-0.0019658245 -0.024605922 -0.0031288993 4281356923
0.00069926307 -0.027356073 -0.00081290118 4281684854
0.0035701953 -0.030827366 0.0021862667 4281816179
0.0066549554 -0.035019137 0.005866861 4282209134
0.035200596 -0.063108876 0.029334942 4282143599
0.037937257 -0.065115824 0.030906333 4282143854
0.040251702 -0.065680929 0.031113939 4282668134
-0.042994615 0.004785724 -0.028514408 4279849364
-0.04118162 0.0049165264 -0.028925803 4278931618
-0.039641235 0.0065044388 -0.030731609 4278931874
-0.037972275 0.0073633641 -0.031838324 4278932128
-0.036450181 0.0089500993 -0.033639792 4279128734
-0.034794178 0.0098082833 -0.034743421 4278669733
-0.033143375 0.010666255 -0.035845831 4278800549
-0.031348046 0.010796368 -0.036252782 4278997153
-0.029704917 0.011653934 -0.037353262 4278800803
-0.028221983 0.013238341 -0.039145477 4278800548
-0.026749562 0.014822144 -0.040935263 4278538663
-0.025287662 0.016405247 -0.042722553 4278341804
-0.023836304 0.017987717 -0.044507422 4278473128
-0.021567214 0.01593766 -0.042836912 4278669479
-0.017430622 0.0059010014 -0.033580247 4278538408
-0.012022614 -0.0092119724 -0.019514769 4278800038
-0.0073709041 -0.020687707 -0.0089184074 4278865573
-0.0045731962 -0.024175644 -0.0059110848 4280045714
-0.0021066889 -0.026210748 -0.0042848382 4281619318
0.00092071295 -0.030420132 -0.0006012693 4281815924
0.0037958585 -0.033902057 0.002388807 4282012529
0.0068846457 -0.038106732 0.0060587265 4282798694
0.035046902 -0.064837337 0.028090501 4282143344
0.037782822 -0.066850916 0.029657172 4282340203
-0.042993341 0.0025520511 -0.028900534 4280964223
-0.041311365 0.0034138747 -0.030008744 4279456664
-0.039770726 0.0050061643 -0.031811364 4278866338
-0.038101692 0.0058672465 -0.03291649 4278801059
-0.036437813 0.0067280754 -0.034020364 4278800803
-0.034634922 0.0068585202 -0.034429193 4278931619
-0.032978717 0.0077189915 -0.035531171 4279062688
-0.03117818 0.0078494661 -0.035939313 4279062943
-0.029681835 0.0094391555 -0.037731439 4279063198
-0.028195996 0.011028137 -0.039521061 4278931873
-0.026720662 0.012616519 -0.041308258 4278735524
-0.025095705 0.013475228 -0.042402782 4278669734
-0.023313168 0.013604932 -0.042806454 4278538663
-0.020868678 0.010820456 -0.040454105 4278538663
-0.016553495 2.5518239e-05 -0.030534297 4278669733
-0.011475269 -0.013676204 -0.017881339 4278669733
-0.0071630143 -0.023730546 -0.0086870762 4278866338
-0.0047132969 -0.025773518 -0.007062057 4280243339
-0.0020687506 -0.028542839 -0.0047545731 4281422203
0.0007785894 -0.032037877 -0.0017664768 4282012784
0.031963319 -0.063818745 0.024602087 4282274413
0.035106599 -0.067290545 0.02752444 4282732904
-0.037953708 0.0029059835 -0.032607581 4280966009
-0.03628445 0.0037694015 -0.033711113 4279326104
-0.034332369 0.0031678565 -0.03342887 4279194524
-0.032668125 0.004031118 -0.034531102 4278997663
-0.030859757 0.0041621439 -0.034941033 4278866593
-0.029355157 0.0057567507 -0.036731731 4279194778
-0.027861077 0.0073506869 -0.038519982 4278867359
-0.026377518 0.0089440197 -0.040305801 4278801314
-0.024744522 0.009805508 -0.041400515 4278604709
-0.022954125 0.0099357553 -0.041805975 4278670244
-0.020337295 0.0064122453 -0.038774393 4278605219
-0.016182415 -0.0036844164 -0.029567562 4278997918
-0.011270583 -0.016697057 -0.017632732 4278866848
-0.0073023513 -0.025321484 -0.0098330993 4278735779
-0.0052051619 -0.025911123 -0.0095827878 4279456663
-0.002209723 -0.030149259 -0.0059116669 4280374664
0.00099897385 -0.035114564 -0.0015638638 4282340458
0.028902944 -0.062780462 0.021121809 4282470763
0.032021128 -0.066265181 0.024041591 4282274158
-0.034318518 0.00093332678 -0.033819169 4281292409
-0.032505084 0.0010646023 -0.034230337 4279718549
-0.030989755 0.0026642717 -0.036020346 4279260059
-0.029484916 0.0042632483 -0.037807859 4278801824
-0.027990576 0.0058615729 -0.039592907 4278997918
-0.026349667 0.0067257397 -0.040687926 4278866849
-0.024713945 0.0075895898 -0.041781642 4278736289
-0.022758614 0.0069868378 -0.041501291 4278604709
-0.020302627 0.0041856617 -0.039164614 4278604709
-0.016147915 -0.0059416816 -0.029980592 4278605219
-0.011748213 -0.016796038 -0.020128764 4278801824
-0.0076147057 -0.026179694 -0.01166294 4278867103
-0.0051690824 -0.028236173 -0.010046756 4280374153
-0.0019939058 -0.033219345 -0.0057029333 4280898944
0.001037579 -0.037467904 -0.0020496156 4281423223
0.025660777 -0.060992472 0.016972905 4282340203
0.028751206 -0.064490296 0.019890701 4282273904
0.031868257 -0.067986034 0.022802589 4282535789
-0.029463034 0.002033893 -0.03819656 4281881714
-0.027811546 0.0029008389 -0.039292395 4280243339
-0.02632216 0.0045032762 -0.041072991 4279325594
-0.024683718 0.0053695478 -0.042165749 4278997918
-0.022888269 0.0055001266 -0.042572387 4278670754
-0.020103414 0.0012197234 -0.038873561 4278801824
-0.016113758 -0.0082030594 -0.030396594 4279063453
-0.011544213 -0.019825116 -0.019886095 4278997918
-0.0077537671 -0.027767807 -0.012806935 4279391129
-0.0049578249 -0.031299725 -0.0098318793 4281291899
-0.0017788149 -0.036297984 -0.0055002933 4282078319
0.02285181 -0.060644865 0.014185717 4281684598
0.025510209 -0.062690929 0.015749941 4280831878
0.028599501 -0.066199802 0.018659839 4282274159
0.031715415 -0.069706567 0.021563826 4282928999
-0.026294973 0.0022767521 -0.041461073 4281292153
-0.024813201 0.0038831383 -0.043236665 4279784848
-0.022855844 0.0032760873 -0.042960003 4278998173
-0.020069633 -0.0010173097 -0.039271325 4279194778
-0.016247287 -0.0097313747 -0.03149759 4279129243
-0.011850987 -0.02065172 -0.021693887 4278932638
-0.0075474344 -0.030829243 -0.012589021 4279456664
-0.0043966286 -0.035844989 -0.0082626259 4281161084
0.022702012 -0.062336393 0.012967704 4282012273
0.025564266 -0.065123536 0.015200811 4281749878
0.02865508 -0.06864322 0.018102223 4282404973
-0.016213618 -0.011998817 -0.031917896 4282144618
-0.011478059 -0.02443032 -0.020778906 4282079083
-0.0071693771 -0.034638144 -0.011698047 4281685618
0.020110419 -0.062704042 0.010864915 4282209388
0.022753999 -0.06476447 0.012422604 4282012273
0.025822377 -0.068296887 0.015320824 4282797929
0.016745705 -0.060103826 0.0060773045 4282341734
0.019961229 -0.064390503 0.0096505042 4282209133
0.022604063 -0.066457547 0.01120347 4282273904
0.013995755 -0.059699871 0.0033155344 4282144874
0.01679391 -0.062518381 0.0055432636 4282143343
0.019812072 -0.066076614 0.0084363464 4282404973
0.022454165 -0.068150297 0.0099845808 4282666859
0.013848703 -0.061365835 0.0021157973 4281094784
0.016645916 -0.064193152 0.0043372232 4281553018
0.019265952 -0.066275127 0.0058854613 4282536044
0.011117045 -0.060940064 -0.00063486025 4282079594
0.013508696 -0.062285215 0.00024821423 4282012274
0.016302314 -0.065121554 0.0024639312 4282011764
0.0074655786 -0.056755297 -0.0067178989 4281883498
0.010590546 -0.061101496 -0.0031636246 4281685364
0.013169117 -0.063199915 -0.0016159955 4282078064
0.015763674 -0.065296978 -7.1918592e-05 4282536299
0.0069465153 -0.056893975 -0.0092318738 4280310658
0.010254782 -0.062004678 -0.0050203213 4281488759
0.012829941 -0.064109832 -0.0034768414 4282470508
0.015421106 -0.066213764 -0.0019368473 4283254634
0.0027952679 -0.05038739 -0.017279565 4279786889
0.0066153482 -0.057776816 -0.011074712 4279784338
0.0097296908 -0.062150024 -0.0075375782 4282340203
0.0028377362 -0.052754574 -0.017776702 4279522454
0.0064714886 -0.059410341 -0.012251195 4279980434
-0.0019220747 -0.051620908 -0.020708956 4281163123
1.8764287e-05 -0.05147887 -0.021147862 4279981709
0.0028798468 -0.055125803 -0.01827677 4279849619
0.0059542768 -0.059528343 -0.014750202 4282994279
0.00060254335 -0.056124084 -0.0196594 4282667879
0.0031054541 -0.058261223 -0.01811938 4281880949
0.021214137 -0.072676547 -0.016045881 4281945464
0.034777749 0.0064970776 0.069801204 4285754909
0.036845461 0.0066497214 0.069334596 4285819933
0.040681429 0.0016919747 0.074790113 4285885468
0.030279854 0.0051152073 0.068756066 4284901934
0.031280652 0.0084755942 0.064587638 4285559069
0.032470271 0.011192665 0.061165139 4285623584
0.034293063 0.011984542 0.059965305 4285623584
0.037214682 0.0095710233 0.062459998 4285689118
0.041722171 0.0026733018 0.070116401 4285754909
0.046514485 -0.0048606098 0.07849703 4285689629
0.028447999 0.0085512698 0.061604537 4285296164
0.029853625 0.010633513 0.058926657 4285820954
0.031458564 0.012070976 0.056990728 4285952024
0.033270806 0.012864284 0.055794917 4285820698
0.035739616 0.011727571 0.056811549 4285820954
0.039335623 0.0073764473 0.061508156 4285886744
0.042968951 0.0030281916 0.06619636 4285689629
0.045953669 0.00061067939 0.068670444 4285624604
0.047803145 0.0014070608 0.067466475 4285558814
0.049179271 0.003487628 0.064795621 4285493024
0.051485915 0.0029988475 0.065062277 4285623838
0.055951662 -0.0032662414 0.071923524 4285819934
0.025632722 0.0086417124 0.058627553 4285426978
0.027248621 0.010084253 0.056692339 4285558559
0.029066309 0.010880038 0.055496849 4285624094
0.030878665 0.011675496 0.05430261 4285689373
0.033121232 0.011179332 0.054581739 4285820953
0.035589568 0.010038182 0.055595197 4285755418
0.038737897 0.006962087 0.058810905 4285624093
0.041235551 0.0058231875 0.059817865 4285624349
0.043286957 0.0059749037 0.05935514 4285624348
0.044413861 0.0087053478 0.055960201 4285755419
0.045986935 0.010145355 0.054035053 4285689628
0.048495084 0.0090074986 0.055039845 4285689118
0.052209411 0.0046501569 0.059698552 4285754909
0.057169918 -0.0029237792 0.068002231 4285886233
0.024448361 0.010193616 0.053725235 4285754908
0.026679965 0.0096942 0.054005109 4285951769
0.028704667 0.0098435469 0.053548105 4285886489
0.030944288 0.0093448982 0.053826213 4285689375
0.033189252 0.0088467076 0.054103173 4285624094
0.035439536 0.0083489791 0.054378979 4285624349
0.037918068 0.007204216 0.055386938 4285624349
0.040181659 0.0067076012 0.055659845 4285624349
0.041765805 0.0081527121 0.05373539 4285624348
0.042877432 0.010890812 0.050350517 4285820953
0.044668399 0.011687398 0.049163051 4285952533
0.046926491 0.011190612 0.049437441 4285689118
0.050384432 0.0074628666 0.053358957 4285689373
0.054357484 0.0024453402 0.058731474 4285755164
0.059350122 -0.0051525123 0.067008242 4285820953
0.022073595 0.0090155788 0.05223605 4285558304
0.023265988 0.01176789 0.048839025 4285886234
0.025483957 0.011265296 0.049120277 4285886488
0.027919343 0.010112662 0.050134495 4286018069
0.03100954 0.0070100613 0.053346768 4285754909
0.033474263 0.0058597662 0.054354422 4285624093
0.035509564 0.0060101002 0.053895183 4285624349
0.037322134 0.0068101883 0.052704327 4285624348
0.03912935 0.0076099411 0.051514737 4285624349
0.040475089 0.009707991 0.048865438 4285624094
0.041804802 0.011804886 0.046219848 4285623838
0.04405199 0.011305083 0.046494976 4285821208
0.046540514 0.01015703 0.047497615 4285886999
0.049755804 0.0070643015 0.050682142 4285886999
0.053480472 0.0026769638 0.055315666 4285821209
0.058706723 -0.0055962056 0.06430202 4285558813
0.019302415 0.0091496632 0.049279206 4285295908
0.020701995 0.011257626 0.046622254 4285820698
0.022085601 0.013364516 0.043968916 4285557283
0.024708325 0.011552915 0.045717806 4285557283
0.027347064 0.0097425953 0.047463089 4285754654
0.030859895 0.0053234808 0.052132398 4285754908
0.03288978 0.005473353 0.051674336 4285689629
0.034919661 0.0056232885 0.051216319 4285624349
0.036281966 0.0077290311 0.048568107 4285690139
0.037853435 0.0091819242 0.04665307 4285689883
0.039642066 0.0099825859 0.045469373 4285820699
0.041886352 0.009480305 0.045743465 4285755164
0.044135936 0.0089784823 0.046016417 4285623583
0.04639079 0.0084771253 0.046288237 4285558048
0.049366493 0.0060240477 0.04873836 4285558558
0.053810585 -0.00033053756 0.055538937 4285558814
0.060502648 -0.012534082 0.068854988 4285493534
0.017341945 0.0066749044 0.04926414 4285032748
0.018350681 0.010101635 0.045142911 4285427489
0.019740082 0.01221548 0.04249312 4286214928
0.021113515 0.014328226 0.039846994 4286148629
0.023515914 0.013164267 0.040862031 4286148884
0.026352299 0.010691371 0.043336488 4286018069
0.029638672 0.0069107041 0.047266744 4285886489
0.032089099 0.0057505593 0.048271067 4285624093
0.033891238 0.0065542124 0.047085799 4285624348
0.03546571 0.0080116615 0.045173317 4285755419
0.03680449 0.010122355 0.042535387 4285886998
0.03858256 0.010924455 0.041355722 4285952533
0.041276537 0.0091121234 0.043083996 4286018068
0.044219479 0.0066476688 0.045534842 4285886744
0.046948042 0.0048380047 0.047255471 4285624349
0.050169192 0.0017237328 0.050422303 4285559324
0.055344872 -0.0066104494 0.059377395 4285427998
0.020967517 0.012679763 0.038659997 4285754398
0.023160644 0.012168702 0.038941987 4285754908
0.025570571 0.011001002 0.039952047 4285754909
0.028633554 0.0078633688 0.043145865 4285689883
0.031072829 0.0066980012 0.044149429 4285689629
0.032864407 0.0075030811 0.042968191 4285689629
0.034428515 0.0089641809 0.041061342 4285820699
0.035757128 0.011080723 0.038430624 4285689118
0.037752096 0.011228312 0.037980653 4285689374
0.040437408 0.0094087049 0.039706022 4285820698
0.043837048 0.0056237318 0.043601274 4285820698
0.047268637 0.0018411875 0.047489375 4285689884
0.051446557 -0.0039043911 0.053540185 4285559068
0.057839543 -0.015540965 0.066084377 4285559069
0.023222975 0.0098586939 0.038481854 4285492003
0.02500131 0.010664772 0.037305079 4285689374
0.027630022 0.0088339709 0.039037913 4285624348
0.03005816 0.0076633394 0.040040754 4285624348
0.031839162 0.0084698908 0.038863502 4285689118
0.033392902 0.0099346153 0.036962263 4286280974
0.03471135 0.012057025 0.034338772 4286149139
0.036922831 0.011545632 0.03461536 4285689119
0.039599448 0.0097188391 0.036337741 4285689119
0.043455012 0.0046044253 0.041671053 4285886744
0.047823712 -0.0018218793 0.048439376 4285820954
0.053911202 -0.012845777 0.06024757 4285558558
0.029477857 0.0073243491 0.037394747 4285490984
0.031472702 0.0074717142 0.036944658 4285557283
0.033245809 0.0082799159 0.03577093 4285557029
0.034340359 0.01106954 0.032429159 4286017049
0.036775943 0.0098953657 0.033427268 4286017049
0.03968161 0.0074017532 0.035866767 4286017558
0.043770567 0.0016098544 0.041908048 4285820954
0.049082793 -0.0074773356 0.051542029 4285493023
0.056133755 -0.021176048 0.066199921 4285427489
0.034418166 0.0087611414 0.031965882 4285556774
0.036855929 0.007582739 0.032960229 4285557539
0.039763391 0.0050804317 0.035392828 4285623584
0.04501415 -0.0040421821 0.045017675 4285558558
0.050809242 -0.014483169 0.056063943 4285558559
-0.042861272 -0.0026632138 -0.028988078 4285163564
-0.041304354 -0.0010611564 -0.030787988 4285294888
-0.042730879 -0.0056491718 -0.028692707 4285228843
-0.040902417 -0.0055173524 -0.029107686 4285425959
-0.039209422 -0.0046481304 -0.030213479 4285492004
-0.037659872 -0.0030420758 -0.032008264 4285426468
-0.035979856 -0.0021735504 -0.033111006 4285360424
-0.034304988 -0.0013053231 -0.034212444 4285360424
-0.042471018 -0.0093835369 -0.027712964 4285294634
-0.040767509 -0.008511506 -0.028819608 4285360424
-0.038933706 -0.0083792359 -0.029235752 4285426214
-0.037375931 -0.0067681894 -0.031029202 4285426724
-0.03568786 -0.0058969446 -0.032132104 4285426468
-0.0342918 -0.0035480969 -0.034608703 4285360679
-0.032473315 -0.0034165122 -0.035021059 4285229354
-0.030952152 -0.0018077455 -0.036805857 4285164073
-0.040500727 -0.012256019 -0.02784944 4285360934
-0.038659077 -0.01212319 -0.028267371 4285360678
-0.037093062 -0.010507256 -0.03005942 4285492003
-0.035396967 -0.0096332654 -0.031162525 4285492259
-0.033992488 -0.0072772652 -0.03363616 4285426723
-0.032312039 -0.0064042062 -0.034735564 4285426724
-0.030933853 -0.0040498935 -0.037203077 4285492003
-0.029269081 -0.0031777471 -0.038298771 4285492004
-0.027455639 -0.0030462109 -0.038709745 4285360678
-0.025955107 -0.0014341995 -0.040486407 4285294889
-0.024465088 0.0001771003 -0.042260583 4285164073
-0.040499832 -0.014525287 -0.028261978 4285491749
-0.038655657 -0.014392309 -0.028680503 4285426214
-0.03694902 -0.013515502 -0.029784473 4285426468
-0.035247546 -0.012638956 -0.030887187 4285426469
-0.033980343 -0.00953269 -0.034041539 4285426978
-0.03229719 -0.0086572617 -0.035139948 4285426978
-0.030915905 -0.0062961727 -0.037603281 4285492259
-0.029097404 -0.0061643943 -0.038015492 4285492258
-0.027278777 -0.0060325004 -0.038427658 4285426469
-0.025616344 -0.0051581301 -0.039521039 4285360678
-0.024118114 -0.0035418645 -0.041293815 4285426468
-0.022630397 -0.0019262061 -0.043064173 4285229353
-0.020167384 -0.0047619455 -0.040755216 4284966703
-0.040102627 -0.019037567 -0.026622131 4285294889
-0.038517687 -0.017411657 -0.028412055 4285425958
-0.036805678 -0.016532302 -0.029515635 4285492514
-0.035379212 -0.014161736 -0.03198459 4285492768
-0.033682857 -0.013283297 -0.033084456 4285426978
-0.032137152 -0.011659749 -0.034865201 4285426978
-0.0307501 -0.0092917383 -0.037324924 4285492003
-0.029077243 -0.0084146634 -0.038419213 4285492259
-0.027256098 -0.0082826018 -0.038831957 4285492259
-0.025434826 -0.0081504211 -0.039244652 4285426213
-0.023931023 -0.0065293424 -0.041015483 4285492003
-0.022437733 -0.0049089715 -0.042783819 4285492259
-0.019970309 -0.0077531487 -0.040482379 4285360678
-0.01614733 -0.016545944 -0.032767478 4285361188
-0.011243839 -0.02979558 -0.021006847 4285229863
-0.0069328584 -0.040064491 -0.011972143 4284966704
-0.035230841 -0.01718007 -0.031718373 4285360679
-0.03367174 -0.015551344 -0.03349895 4285426724
-0.032123152 -0.013923265 -0.035277061 4285426723
-0.030585054 -0.012295797 -0.037052762 4285426723
-0.028906811 -0.011416152 -0.038146645 4285492259
-0.02708048 -0.011283726 -0.038560569 4285492003
-0.025565919 -0.0096576735 -0.040330648 4285557539
-0.023903269 -0.0087787807 -0.041420791 4285426468
-0.022407081 -0.0071538389 -0.043186534 4285426214
-0.019937899 -0.010006644 -0.04089202 4285426723
-0.016114708 -0.018825665 -0.03319671 4285426979
-0.011381391 -0.031368949 -0.022140272 4285295143
-0.032948684 -0.021573126 -0.03051874 4285228844
-0.031674143 -0.018440031 -0.033655167 4285294888
-0.029977378 -0.017556988 -0.034751724 4285294888
-0.02858666 -0.015175529 -0.037202444 4285426724
-0.026905593 -0.014293358 -0.038295321 4285492259
-0.025541212 -0.01191359 -0.040739924 4285557539
-0.024034265 -0.010283567 -0.042504974 4285492259
-0.022215705 -0.010151371 -0.042916898 4285426213
-0.019414637 -0.014509402 -0.039280448 4285492259
-0.015749641 -0.022605889 -0.032280654 4285426723
-0.011518914 -0.032942019 -0.023273494 4285294888
-0.028117392 -0.019699328 -0.035591487 4285098028
-0.026578527 -0.018062912 -0.03736065 4285229353
-0.025361296 -0.014924772 -0.040477239 4285360933
-0.023848768 -0.013290033 -0.042240262 4285492258
-0.02202503 -0.013157487 -0.042653374 4285491749
-0.019383494 -0.016777709 -0.039700773 4285492004
-0.015551902 -0.025648616 -0.032046467 4285557283
-0.011994094 -0.033014409 -0.025750333 4285491749
-0.024715994 -0.020204581 -0.038200632 4285163563
-0.023347963 -0.017811336 -0.040636204 4285360934
-0.021513734 -0.017678037 -0.041051704 4285360933
-0.019026008 -0.02055569 -0.038780984 4285360933
-0.015520878 -0.027947299 -0.0324893 4285491749
