# .PCD v0.7 - Point Cloud Data file format
VERSION 0.7
FIELDS x y z rgba
SIZE 4 4 4 4
TYPE F F F U
COUNT 1 1 1 1
WIDTH 290
HEIGHT 1
VIEWPOINT 0 0 0 1 0 0 0
POINTS 290
DATA ascii
0.00039833039 -0.0013452694 0.030727832 4287051073
-0.0026721917 0.0011857226 0.025749216 4288360754
-0.00090363622 0.0027767196 0.023949707 4289537579
0.0017464869 -3.7625432e-06 0.026303818 4289733164
0.0045695119 -0.0035110041 0.029345045 4289536048
-0.0050055757 8.9749694e-05 0.024243144 4287639869
-0.0035206191 0.0031471923 0.021063501 4288753454
-0.001619406 0.0040107965 0.019960752 4290256933
0.00087064877 0.0019515157 0.021620331 4289406763
0.0036792718 -0.001567632 0.024656283 4289798953
0.0060531422 -0.0028939322 0.025619289 4288752433
0.0085943379 -0.0049495175 0.027268855 4288163638
0.010833241 -0.0055440292 0.027539024 4289931553
0.012915663 -0.00540822 0.027120559 4288490549
-0.0059797242 0.0027990565 0.018874167 4289015339
-0.004224278 0.0043977425 0.017083729 4289800483
-0.0026251078 0.0067289472 0.014606239 4289277223
-0.00030012056 0.0053948313 0.015575631 4289081129
0.0023377389 0.0025961474 0.017919233 4289342758
0.0053045042 -0.0016660541 0.021633854 4289735203
0.0078343339 -0.0037290007 0.023280835 4289408549
0.010380302 -0.0057907328 0.02492463 4289408548
0.012295481 -0.0049232915 0.023821259 4289211943
0.013876561 -0.0025923848 0.021348065 4288752689
0.015942901 -0.0024573728 0.020933012 4287051329
0.018688351 -0.0052481592 0.023255656 4287116353
0.021627694 -0.0087687373 0.026257934 4287181634
-0.0084269643 0.0024608672 0.016689351 4288556083
-0.0066714585 0.0040637851 0.014902061 4289408548
-0.0049265288 0.0056662038 0.013116958 4290194204
-0.0031921752 0.0072680041 0.011334106 4290128414
-0.001023896 0.0066640526 0.01161479 4289735714
0.0017532632 0.0031209588 0.01464075 4290062623
0.0045572817 -0.00042025 0.017661413 4289932063
0.0072319433 -0.0032250509 0.019991277 4289277989
0.0092925727 -0.0030908063 0.019577088 4289539873
0.011191711 -0.00222224 0.018478556 4289605409
0.012592856 0.0008482039 0.015329519 4289669924
0.014807221 0.00024811178 0.015601581 4289734439
0.017535761 -0.0025525242 0.017921099 4289406509
0.02045802 -0.0060851574 0.020918651 4290517798
0.022882264 -0.0074158758 0.021865716 4286528323
-0.010727722 0.0013945252 0.015197216 4287444539
-0.0092440844 0.0044778362 0.012037179 4289604899
-0.0072217956 0.0046086982 0.011630034 4289212708
-0.0053420402 0.0054773092 0.010536369 4289408548
-0.0034675188 0.0063457489 0.0094438195 4289474084
-0.0011542216 0.0050020888 0.010409009 4289016104
0.0013205633 0.0029221624 0.012057079 4289735713
0.0041182116 -0.00063042343 0.015070861 4289408548
0.006474603 -0.0019708648 0.016027616 4289343524
0.0085243732 -0.0018373281 0.015615603 4289278244
0.0099286623 0.0012419373 0.012472352 4289735714
0.011475686 0.0035836771 0.010015808 4289408293
0.0138404 0.0022442937 0.010971278 4288819499
0.016554702 -0.00056605041 0.013287121 4289473318
0.019290462 -0.0033748746 0.015598746 4289800228
0.021872908 -0.005446583 0.017225994 4288687663
0.024648897 -0.0082524866 0.019529754 4289210413
0.027086087 -0.0095865428 0.020471195 4287443774
-0.011530232 0.0034258962 0.010552131 4289080108
-0.0097851679 0.0050367936 0.008773312 4290258464
-0.0074914433 0.0036870837 0.0097388793 4290062369
-0.0054718442 0.003817901 0.0093323626 4289343013
-0.0034521483 0.0039488375 0.0089259259 4289212198
-0.0012845099 0.003340438 0.0092034452 4289604899
0.0010390952 0.0019932389 0.010163356 4289539620
0.0035266876 -9.2297792e-05 0.011804055 4289277734
0.005718682 -0.00069876015 0.012076953 4289539618
0.007599052 0.00017282367 0.010985348 4289539874
0.0091517158 0.0025214106 0.0085324198 4290062369
0.010524508 0.0056074783 0.0054021068 4290127904
0.012708787 0.0050009936 0.0056769885 4289015849
0.015236933 0.0029189289 0.0073100664 4289343014
0.018296953 -0.0013757497 0.010977298 4289473573
0.021214515 -0.0049304366 0.013959581 4289341739
0.023981623 -0.0077456683 0.016258603 4289341229
-0.013678614 0.0016365051 0.0097549949 4288296493
-0.012196712 0.0047370344 0.0066082291 4290389279
-0.010188229 0.0048668534 0.0062037408 4289931298
-0.0079003274 0.003512457 0.0071671978 4290651164
-0.0056016184 0.0021588206 0.0081285946 4290454813
-0.0035820641 0.0022897273 0.0077221654 4289342759
-0.0014147535 0.0016791224 0.0079981275 4289343013
0.00045734271 0.002551958 0.0069095232 4289081384
0.0027832128 0.0012006238 0.007865794 4289343013
0.0048085004 0.0013323948 0.0074585713 4289408549
0.0068338774 0.0014643222 0.0070514493 4289146663
0.008376196 0.0038187876 0.0046054758 4289604389
0.0097388327 0.0069128871 0.0014837533 4289800483
0.011745676 0.0070439726 0.0010806248 4289081129
0.014428828 0.0042141378 0.0033896454 4289539109
0.017820425 -0.0015746057 0.0084044486 4290193184
0.020906024 -0.0058805421 0.012056811 4289082148
0.023669597 -0.0087047666 0.014350018 4287118393
-0.016084056 0.0013377964 0.0075890981 4287117884
-0.014596406 0.0044472963 0.0044475719 4289014574
-0.01286177 0.0060660541 0.0026772879 4289212198
-0.01086412 0.0061951727 0.0022749864 4288950313
-0.0084479563 0.004091233 0.0039198026 4289277479
-0.0061577745 0.0027326941 0.004879605 4289538853
-0.0040015876 0.002119042 0.0051560774 4289866018
-0.0021349154 0.0029935688 0.0040700957 4289604643
0.00017697737 0.0016368479 0.0050258227 4289735714
0.002194006 0.0017679483 0.0046201684 4289604643
0.0042111129 0.0018991902 0.004214596 4289212199
0.0060701072 0.002773717 0.0031305216 4289015594
0.0080846921 0.0029050484 0.0027256422 4289473318
0.0096087344 0.0052649379 0.00028835237 4289473318
0.011615422 0.0053960234 -0.00011473522 4288753964
0.014128834 0.0032998547 0.0015115179 4289473574
0.017516203 -0.0025066733 0.0065141246 4289800228
0.020772167 -0.0075680912 0.010832848 4288295219
-0.018855397 0.0032913685 0.0033773556 4286266948
-0.017241415 0.005662024 0.00092564896 4288622639
-0.015380818 0.0065376163 -0.00015810132 4290061858
-0.013525415 0.0074129775 -0.0012406558 4289408294
-0.011538621 0.0075413734 -0.0016407892 4288754219
-0.0092731006 0.0061767027 -0.00067932904 4289015849
-0.0068548098 0.0040664971 0.00096020848 4290454814
-0.0045650117 0.0027036518 0.0019169599 4289604643
-0.0022643991 0.0013416708 0.0028716028 4289932064
-0.00010298193 0.00072640181 0.0031455643 4289670434
0.0016058758 0.0023487359 0.0013843738 4289343013
0.0033041127 0.0039705411 -0.00037463754 4290650908
0.0054657906 0.0033556223 -0.0001004003 4290716443
0.0077935793 0.0019960552 0.00084925443 4290585629
0.0098053962 0.0021273196 0.00044501573 4289473574
0.01181728 0.002258718 4.0862709e-05 4289538853
0.01450409 -0.0005884096 0.0023361556 4289538343
0.017726529 -0.0056674704 0.0066501033 4289276459
0.020812411 -0.0099996775 0.010282902 4286006339
-0.019611713 0.0053969398 -0.0012239702 4289013298
-0.017882314 0.0070238411 -0.0029868782 4289275693
-0.015901271 0.0071516037 -0.003386043 4289734694
-0.014187645 0.0087777749 -0.0051456392 4290323999
-0.012075249 0.0081564933 -0.0048639178 4289539109
-0.0098182522 0.0067869052 -0.0039040074 4289931298
-0.007408645 0.0046695247 -0.0022675693 4290193438
-0.0049828887 0.0025533736 -0.00063433126 4289800738
-0.0026881211 0.0011865944 0.000318259 4289604899
-0.00053238869 0.00056874752 0.00059172511 4289801249
0.00086631253 0.0036909431 -0.0025181435 4289800994
0.0027092136 0.0045686588 -0.0035958216 4289996833
0.0048625357 0.0039510429 -0.0033215843 4289669668
0.0075028352 0.0010917485 -0.0010237508 4290323998
0.0098382123 -0.00027158111 -7.8801066e-05 4289539109
0.012184352 -0.0016341358 0.00086412206 4289473575
0.014878336 -0.0044895336 0.0031514596 4289472553
0.017936211 -0.008836776 0.0067799706 4288752944
-0.019738358 0.0037656352 -0.0024078302 4287836474
-0.018008757 0.0053968877 -0.0041675456 4288752689
-0.016027872 0.0055246204 -0.0045666918 4288818988
-0.01444767 0.0079064518 -0.0070017204 4289277223
-0.012338247 0.0072828159 -0.0067210197 4288950314
-0.010223385 0.006659627 -0.0064413399 4289473574
-0.0078197978 0.0045353174 -0.0048085749 4289670179
-0.0054000393 0.0024121478 -0.0031789765 4289670178
-0.0032581054 0.0017910898 -0.0029044673 4289408548
-0.0012603663 0.0019208044 -0.0033063516 4290193694
-2.4151057e-05 0.0058011562 -0.0070825368 4289866529
0.0018053986 0.0066801757 -0.0081559047 4289342758
0.0039450116 0.0060594752 -0.0078805573 4289408294
0.0067314319 0.0024409443 -0.0049131215 4289866019
0.0095446706 -0.0011757612 -0.0019509904 4289538853
0.012219019 -0.0040413141 0.00033367611 4289407528
0.01541993 -0.0091525167 0.0046290513 4289146154
0.018145207 -0.012014493 0.0069036838 4286398273
-0.019990373 0.0028886274 -0.0042701475 4287705404
-0.018135186 0.0037702322 -0.005347997 4287967543
-0.016154427 0.0038979352 -0.0057471283 4288491823
-0.014307003 0.0047793537 -0.0068232566 4288622894
-0.012328666 0.0049071461 -0.0072217211 4288688684
-0.010211442 0.0042818785 -0.006944105 4289081128
-0.0080887489 0.0036571473 -0.0066675283 4289211943
-0.0061047338 0.0037856922 -0.0070668571 4289539108
-0.0041206144 0.0039143637 -0.0074661076 4290258974
-0.002136413 0.0040431768 -0.0078652874 4289539108
-0.000760708 0.0071813166 -0.01095752 4290586139
0.001058165 0.0080618411 -0.012027115 4289604389
0.0030292533 0.0081901699 -0.012423374 4289473574
0.0058012791 0.0045597628 -0.0094611943 4289931298
0.0089258067 -0.00057198107 -0.0051620724 4289669414
0.01192233 -0.0049497634 -0.0015409198 4289538853
0.015119191 -0.010076508 0.0027438793 4289276969
0.017840933 -0.012947455 0.0050127115 4286005828
-0.019991513 0.00050389767 -0.0047749253 4287574333
-0.018261548 0.0021438897 -0.006528222 4288098869
-0.01601978 0.00075983256 -0.0055753598 4288033589
-0.01416697 0.0016437098 -0.0066509219 4288033843
-0.012319382 0.0025273561 -0.0077253468 4288557614
-0.010477025 0.003410846 -0.0087986663 4288818988
-0.0083573274 0.002783671 -0.0085230805 4288884779
-0.0066640563 0.0044220835 -0.010268472 4288950313
-0.0048347525 0.0053050518 -0.011338852 4289407783
-0.0030106865 0.0061878264 -0.012408059 4289800483
-0.001191888 0.0070703626 -0.013476126 4289539109
0.00077629462 0.0071983784 -0.013871893 4289015594
0.0027445592 0.0073265284 -0.014267582 4289604389
0.005512882 0.0036849529 -0.011312798 4289799973
0.0086333714 -0.0014623553 -0.0070242593 4289145643
0.011956714 -0.0073607117 -0.0020740982 4289473319
0.015154865 -0.012502685 0.002199037 4286398528
-0.020118047 -0.0011265203 -0.0059581483 4287443263
-0.01826014 -0.00024037808 -0.0070332969 4287967034
-0.016146604 -0.00087060034 -0.0067585269 4287837239
-0.014160689 -0.00074246526 -0.0071586268 4287902518
-0.012310397 0.00014354289 -0.0082319686 4288164405
-0.010465343 0.0010293275 -0.0093041742 4288229683
-0.0084844269 0.0011575371 -0.009702974 4287902773
-0.0067909546 0.0028003305 -0.011445157 4288230193
-0.0051080845 0.004442513 -0.013185069 4288623403
-0.003137555 0.0045704097 -0.013581514 4288688684
-0.0013187416 0.0054551214 -0.014647961 4288819498
0.00080376491 0.0048266202 -0.014374148 4288688684
0.0027745478 0.0049549341 -0.014770336 4289277224
0.0055445246 0.001302518 -0.011824042 4289407018
0.0086663105 -0.0038599819 -0.0075471485 4289014319
0.011990778 -0.0097757429 -0.002610242 4286528834
-0.019994717 -0.0042778701 -0.0057933489 4287575353
-0.018131439 -0.0033891648 -0.0068679983 4287705659
-0.016273391 -0.0025007576 -0.0079414891 4287902263
-0.014420535 -0.0016125366 -0.0090138251 4287836984
-0.012437318 -0.0014844462 -0.0094132842 4287902518
-0.010592248 -0.00059647858 -0.010483869 4288098869
-0.008470539 -0.001227878 -0.010212009 4288033333
-0.0066306032 -0.00033999979 -0.011281379 4288033843
-0.0047959276 0.00054772198 -0.01234962 4288230449
-0.0031154417 0.0021942258 -0.014085717 4288361519
-0.0012939312 0.0030813068 -0.01515108 4288688429
0.00083091483 0.0024507642 -0.014879368 4288950314
0.0028042085 0.0025792271 -0.015276074 4289146409
0.0055758469 -0.0010839775 -0.012338241 4288687409
0.0086989403 -0.0062617362 -0.0080729621 4287706423
-0.020246234 -0.0051492006 -0.0076516354 4287575098
-0.018130805 -0.0057838485 -0.0073805572 4287705148
-0.016400132 -0.004130587 -0.0091242241 4287705404
-0.014414515 -0.0040024817 -0.0095242718 4287901753
-0.012428787 -0.0038742498 -0.0099242562 4287902008
-0.010442939 -0.0037458614 -0.010324159 4287968054
-0.0085977353 -0.0028555915 -0.011393056 4287902518
-0.0067577846 -0.0019655377 -0.012460814 4288033845
-0.0049230792 -0.0010756403 -0.013527439 4287641143
-0.0029448457 -0.00094724447 -0.013925427 4288099378
-0.0011179782 -5.7645142e-05 -0.014990255 4288230193
0.00085775927 7.084012e-05 -0.015387558 4288230193
0.0028335713 0.00019945949 -0.015784774 4288230194
0.0054473691 -0.002714023 -0.013520696 4287968053
0.0085690953 -0.0079071224 -0.0092665078 4286724928
-0.016786661 -0.004230842 -0.011645992 4287574079
-0.014673959 -0.0048675612 -0.01137586 4287443263
-0.012555797 -0.0055038109 -0.011106727 4287509054
-0.010570105 -0.0053754523 -0.011506611 4287836728
-0.0087249018 -0.0044830069 -0.012573888 4287902263
-0.0068849288 -0.0035907775 -0.013640021 4287902773
-0.0049042739 -0.0034623742 -0.014038612 4286398273
-0.0029235147 -0.003333807 -0.01443711 4286006083
-0.00094266608 -0.0032051206 -0.014835534 4286660158
0.00088428333 -0.0023131818 -0.015898705 4287576120
0.0030192472 -0.0029473603 -0.015632153 4287706679
0.0056375489 -0.0058692768 -0.013375485 4288033589
0.0087632388 -0.011077374 -0.009133542 4287313723
-0.013358187 -0.0033005774 -0.01562379 4287639359
-0.011110511 -0.0047057346 -0.01468812 4287770429
-0.0092732869 -0.0038116425 -0.015752178 4287640634
-0.007155139 -0.0044496879 -0.01548439 4287640633
-0.0050315373 -0.005087316 -0.015217577 4287510329
-0.0029024966 -0.0057244226 -0.014951805 4285940804
-0.00091913715 -0.0055955797 -0.015350738 4286267713
0.00091050193 -0.0047013164 -0.016412778 4286856253
0.00320426 -0.0061025918 -0.015485712 4287117629
0.0058270544 -0.0090329498 -0.013236457 4287182909
-0.0053043775 -0.0059439391 -0.017059578 4287050818
-0.0031783395 -0.0065834671 -0.016794788 4287051328
-0.0011978112 -0.0064548105 -0.017193159 4286986303
0.00078278407 -0.0063260198 -0.017591456 4286725183
0.003076043 -0.0077316761 -0.016667528 4286790209
0.0053800605 -0.0091365874 -0.015745657 4287051328
-0.0014761277 -0.0073093176 -0.019032227 4287116354
0.00050164387 -0.0071807057 -0.019429946 4287443774
0.0026356168 -0.0078215152 -0.019168081 4287770429
0.0049337707 -0.009231098 -0.01824831 4287574079
0.02732881 -0.010144643 0.032712579 4282469744
0.022034671 -0.01115647 -0.016319664 4282863209
0.02372342 -0.011899114 -0.018566178 4282731884
-0.0039114244 -0.006046243 -0.032744724 4283125094
-0.0040365569 -0.0076404065 -0.033901293 4282994279
-0.0041616745 -0.0092343315 -0.035057679 4282994278
-0.007651981 -0.0078053027 -0.043296196 4282011764
-0.0079216883 -0.0085865483 -0.045082755 4282405228
