# .PCD v0.7 - Point Cloud Data file format
VERSION 0.7
FIELDS x y z rgba
SIZE 4 4 4 4
TYPE F F F U
COUNT 1 1 1 1
WIDTH 808
HEIGHT 1
VIEWPOINT 0 0 0 1 0 0 0
POINTS 808
DATA ascii
0.02965741 -0.03896793 0.0093644094 4286267204
0.024563918 -0.037959449 0.0066230367 4287183418
0.026782539 -0.038539745 0.0067454721 4286593604
0.02148699 -0.036756538 0.0033608931 4286071618
0.024158394 -0.038852833 0.0047791 4286333249
0.016472239 -0.035705067 0.00062617986 4287182909
0.018661037 -0.036292695 0.00075291796 4286332739
0.013896964 -0.035984479 -0.0013308679 4286332484
0.01652709 -0.038097814 8.8068657e-05 4286790719
0.0082999431 -0.032602645 -0.005998489 4286397508
0.011333555 -0.036253773 -0.0032840713 4286332739
0.013727657 -0.037611187 -0.0025114501 4286201923
0.0059819669 -0.033615693 -0.0072993976 4287379003
0.0085655116 -0.035746485 -0.0058782962 4286529089
0.011164896 -0.037875779 -0.0044613006 4286267459
0.0038811229 -0.035392471 -0.0079536783 4286855234
0.0060286485 -0.035993092 -0.007823051 4287640634
0.0083977282 -0.037361629 -0.0070505897 4286593858
-0.00035839155 -0.036565013 -0.0087387199 4287247424
0.0017806962 -0.037168764 -0.0086077387 4287445559
0.0037143715 -0.037000693 -0.0091210613 4288230959
0.0056481175 -0.036832504 -0.0096343132 4286986304
0.0011983477 -0.037229441 -0.011059158 4287445559
0.0031266063 -0.037061848 -0.011571047 4289080364
0.0050549321 -0.03689412 -0.01208285 4286724673
-0.015086081 0.015271708 0.012167813 4282416959
-0.013392445 0.016153358 0.010977402 4284445739
0.047713071 -0.024103299 0.040663004 4282607953
-0.019020181 0.013372175 0.012028011 4282477903
-0.019006509 0.020746209 0.0046376777 4280524603
-0.016956922 0.020186089 0.0048315027 4280724778
-0.014516924 0.018185213 0.0063989726 4281187859
-0.011865858 0.015465409 0.0086490717 4284054569
-0.021249343 0.012359954 0.010698348 4281241919
-0.021025624 0.019034319 0.0040056282 4280982328
-0.019914169 0.02208817 0.00076204771 4280719423
-0.017685827 0.020801798 0.0016437178 4280720953
-0.015062276 0.018070817 0.0038943724 4279616294
-0.012417521 0.015341721 0.0061395061 4281700919
-0.010739245 0.016226575 0.0049566147 4282553129
-0.0092662908 0.017833225 0.003091373 4284249899
-0.024187822 0.014257804 0.0066194576 4281568574
-0.023407299 0.018774815 0.0019996078 4280655673
-0.022105802 0.021112032 -0.000552624 4281047353
-0.020819958 0.023447998 -0.003100619 4281437248
-0.018602718 0.022156298 -0.0022193189 4281176383
-0.015990738 0.019415535 2.7813483e-05 4281242683
-0.013162877 0.015951909 0.0029529785 4280983859
-0.011097804 0.015389062 0.0031395913 4281636404
-0.0094272234 0.016275495 0.0019604531 4282224178
-0.027739506 0.010918692 0.0078567751 4282085203
-0.027097229 0.016180381 0.0025497344 4281437758
-0.025777068 0.018525511 -2.6761554e-06 4281177659
-0.024109978 0.019413061 -0.0011798083 4280133688
-0.022631895 0.021028187 -0.0030403 4279612724
-0.021350775 0.023370266 -0.0055820877 4280655419
-0.019328583 0.022801179 -0.0053860042 4280525368
-0.016725544 0.020050921 -0.0031431313 4279221553
-0.013712395 0.015848599 0.00045819208 4281112379
-0.011455845 0.014556229 0.0013259505 4280981818
-0.0097878166 0.015444659 0.00014909916 4281308474
-0.0079225786 0.015606381 -0.00034635887 4281897014
-0.0062622242 0.016494296 -0.0015209708 4282615859
-0.031137984 0.015044056 0.001726341 4281044548
-0.029977586 0.018127665 -0.0015108469 4281110084
-0.028310712 0.019017123 -0.0026864461 4280980289
-0.026292097 0.018445127 -0.0024913917 4281177403
-0.024630163 0.019334398 -0.0036655045 4281046078
-0.02334075 0.021683574 -0.0062046419 4280524858
-0.021880653 0.023301639 -0.0080570225 4280264249
-0.020053033 0.023459531 -0.0085429139 4280720189
-0.01726732 0.019970313 -0.0056231539 4280916539
-0.014455151 0.016483523 -0.0027103852 4281177403
-0.012403965 0.015915073 -0.0025234334 4280981818
-0.01094586 0.017533496 -0.0043748785 4281503548
-0.0092960633 0.018422559 -0.0055451239 4280916793
-0.0070371293 0.017126359 -0.004681062 4280596768
-0.0051823668 0.017287381 -0.0051735863 4282752539
-0.0035375431 0.018176384 -0.0063423007 4284643364
-0.033484269 0.014806613 -0.00027471781 4280848454
-0.032828908 0.020099632 -0.0055622752 4280000579
-0.031172637 0.02099029 -0.0067335372 4279676474
-0.026449781 0.016908303 -0.0036074927 4281111359
-0.024606917 0.017067179 -0.0040976908 4280916539
-0.023314316 0.019423157 -0.0066327252 4281046589
-0.021851253 0.021045752 -0.0084825596 4280849728
-0.020021137 0.021203849 -0.0089691328 4280915518
-0.017616797 0.019167185 -0.0074171205 4281046588
-0.015002538 0.016400553 -0.0051904246 4281046843
-0.013153594 0.016560607 -0.0056817457 4280786489
-0.011902329 0.018913612 -0.008205248 4280460088
-0.010464873 0.020534687 -0.010047833 4279286834
-0.0082197078 0.019232936 -0.0091834273 4280331824
-0.0057567507 0.017201997 -0.0076465025 4279943968
-0.0039072968 0.017362654 -0.0081375372 4284319258
-0.036362875 0.0085305646 0.0037034168 4281499724
-0.035983425 0.015315384 -0.0029568747 4281045569
-0.034981396 0.019152835 -0.0068676979 4280784703
-0.033495266 0.020781122 -0.008720859 4280979269
-0.031674068 0.020937804 -0.009205549 4280719933
-0.029151347 0.018153809 -0.0069616991 4280719679
-0.02678537 0.01610671 -0.0054048244 4280850494
-0.024945285 0.016265333 -0.0058943033 4281112124
-0.023288283 0.01715862 -0.0070637972 4280981308
-0.021636408 0.018051535 -0.0082318047 4280915518
-0.019989643 0.018944107 -0.0093983803 4280980798
-0.018156897 0.019102514 -0.0098855831 4280981819
-0.016130242 0.018527456 -0.009695515 4280851003
-0.01449101 0.019419707 -0.010859836 4280525368
-0.013055976 0.021044794 -0.012698563 4280785724
-0.011429701 0.021936148 -0.013859272 4281111104
-0.0089913532 0.019896388 -0.012320815 4280915773
-0.0065371059 0.017858103 -0.010786504 4280199733
-0.0040669702 0.015821368 -0.0092563722 4281307454
-0.0022175722 0.015982114 -0.0097473208 4281701174
-0.00036809221 0.016142979 -0.010238202 4282682159
-0.038861919 0.0090333894 0.0010166964 4281565004
-0.038141076 0.014362179 -0.0042654602 4280718658
-0.036963101 0.017473027 -0.0074877632 4280328253
-0.035973225 0.021320228 -0.011387069 4280523585
-0.03449991 0.022951752 -0.01323352 4281306179
-0.032519516 0.02236966 -0.013033466 4280589374
-0.029658113 0.018101186 -0.0094321268 4279808054
-0.027120482 0.01530984 -0.0071988003 4280394809
-0.025283139 0.015468225 -0.0076875528 4281177404
-0.02344567 0.015626684 -0.0081762848 4280981564
-0.021793682 0.016521759 -0.0093426788 4280916028
-0.02014685 0.0174165 -0.010507634 4280916538
-0.018505123 0.018310905 -0.011671133 4280981819
-0.017062116 0.019940808 -0.013508851 4280981564
-0.015237141 0.020098746 -0.013993833 4280134198
-0.013610873 0.020992156 -0.015152974 4279808308
-0.011989772 0.021885205 -0.016310671 4280980289
-0.0099656694 0.021308172 -0.016121265 4281111104
-0.0071093552 0.017793074 -0.013244659 4280589884
-0.0042266063 0.014280386 -0.010374986 4280329784
-0.0017413944 0.012238488 -0.0088536944 4281242939
0.00011585653 0.012400024 -0.0093466397 4281504569
0.0030594245 0.0088929608 -0.0064928555 4281961528
0.0064691752 0.0039213076 -0.002308731 4284119085
-0.039337877 0.0089685991 -0.0014731963 4281631304
-0.038620848 0.014312215 -0.00674274 4281370948
-0.037447359 0.017431334 -0.0099572651 4280717894
-0.036461744 0.021289039 -0.013847176 4280001853
-0.034823749 0.022184424 -0.015008695 4279806778
-0.03267407 0.020860083 -0.014129891 4279741753
-0.03033882 0.018797129 -0.012574885 4280328764
-0.027810108 0.015996315 -0.010345807 4280981309
-0.025980797 0.016153969 -0.010832449 4281112379
-0.024151351 0.016311735 -0.011319045 4281242428
-0.022692602 0.017947003 -0.013157895 4281112123
-0.021056194 0.018842995 -0.014318436 4281242684
-0.019234236 0.019000441 -0.014802795 4281176893
-0.017605472 0.019896001 -0.015961125 4281111358
-0.015981864 0.02079121 -0.017118013 4280784959
-0.014363404 0.021686129 -0.018273491 4279677239
-0.01254889 0.021843378 -0.018755535 4280003129
-0.010326557 0.020526558 -0.017895022 4280328764
-0.0074741542 0.017000228 -0.015025657 4280133179
-0.0041770823 0.012003072 -0.010823568 4280980289
-0.0012665503 0.0084820315 -0.0079694539 4280717638
0.0012416318 0.0064357296 -0.0064591304 4281174854
0.0041997284 0.0029190406 -0.0036174739 4281959489
0.0071842372 -0.00059522688 -0.00078273891 4283070268
0.010195155 -0.004107058 0.0020450936 4284574004
-0.038700711 0.0037109032 0.00081433076 4281761609
-0.038130585 0.0098138675 -0.0051283822 4281174343
-0.037109952 0.013685308 -0.0090194587 4281369929
-0.036448997 0.019039556 -0.014262401 4281109573
-0.035147067 0.021421768 -0.016780496 4281044803
-0.033172648 0.020834789 -0.016582182 4280980034
-0.030843463 0.018764824 -0.01503057 4280849728
-0.02849834 0.016696282 -0.01348309 4280720188
-0.026677053 0.016853221 -0.013967615 4280785723
-0.025220748 0.018492453 -0.015802564 4280069683
-0.024145234 0.021612663 -0.018983779 4279352368
-0.021963689 0.020287327 -0.018116295 4279092014
-0.019581009 0.01822257 -0.016578384 4278374954
-0.017568614 0.017639704 -0.016389532 4281045824
-0.016333733 0.020017251 -0.018889019 4280849728
-0.014916163 0.021653809 -0.02071316 4280915008
-0.012906056 0.021071084 -0.02052344 4281045058
-0.010483332 0.019010343 -0.018995756 4281175363
-0.0072196797 0.013994955 -0.014796445 4281175618
-0.0037101656 0.0082440227 -0.0099385921 4281175109
-0.00015842542 0.0024968758 -0.0050918637 4280848198
0.0023647174 0.00044536591 -0.0035905309 4281435464
0.0051205456 -0.0023427829 -0.0014271266 4282089029
0.0074586608 -0.0036532283 -0.00060014939 4283395904
0.010251496 -0.0064379275 0.0015536123 4284573749
-0.038224366 -0.00082311034 0.002406186 4282086479
-0.037642058 0.0052982643 -0.003526571 4281566278
-0.036773834 0.0099264458 -0.0080910521 4281175109
-0.035770442 0.013807364 -0.011969199 4280847944
-0.034454819 0.016197264 -0.014485992 4280783173
-0.032639395 0.016353369 -0.014969207 4280914499
-0.030998264 0.017253593 -0.016128171 4280784704
-0.029008087 0.016665921 -0.015935529 4280720443
-0.027551617 0.018309422 -0.017767364 4280655164
-0.025740843 0.018465556 -0.018249016 4280198969
-0.02466983 0.021594062 -0.021422431 4280589628
-0.022306513 0.019520976 -0.01988443 4280067898
-0.019927289 0.017449386 -0.018350575 4278504239
-0.017725009 0.0161217 -0.017491752 4280784959
-0.016489591 0.018505812 -0.019986426 4280719423
-0.01467545 0.018662885 -0.020468479 4280784703
-0.012258906 0.016594969 -0.018944202 4281177148
-0.0094196685 0.013045624 -0.01608797 4281372733
-0.0063479729 0.0087574497 -0.012571322 4281438269
-0.0028272457 0.0029900968 -0.0077296747 4281437249
0.00052439421 -0.0020327047 -0.0035650949 4281369929
0.0030572526 -0.0040898845 -0.0020712945 4281695819
0.0051728673 -0.0046649873 -0.0019106846 4282348618
0.0077321976 -0.0067196339 -0.00042373501 4283919929
-0.037749771 -0.0053744018 0.0039854855 4281759823
-0.036833156 -0.00072918832 -0.00058201281 4281369673
-0.035620537 0.0024193227 -0.0037871702 4281631814
-0.034761418 0.00705982 -0.0083391899 4281828419
-0.033764761 0.010951109 -0.012207229 4281304903
-0.032451075 0.013347499 -0.014718521 4281110340
-0.03097878 0.014996439 -0.016551385 4280914243
-0.029340032 0.015898719 -0.017707998 4280980799
-0.028065357 0.018292025 -0.020208625 4280068154
-0.026442092 0.019193135 -0.021360913 4281046079
-0.025193457 0.021584455 -0.023854487 4281111104
-0.023023602 0.020249389 -0.022990521 4280915008
-0.020653088 0.018170506 -0.021459317 4280980799
-0.01807401 0.015348546 -0.019263012 4280459068
-0.016450118 0.01625026 -0.020415047 4280850238
-0.014435593 0.01566343 -0.020229921 4280718659
-0.011613518 0.012101591 -0.017377496 4280522563
-0.0085618533 0.0077985227 -0.013865536 4281177404
-0.0054784976 0.0034983084 -0.010361915 4281241154
-0.0021549985 -0.0015422702 -0.0062015164 4281237583
0.0012054406 -0.0065795258 -0.0020508524 4281432403
0.0035343021 -0.0078996718 -0.0012282636 4281759824
0.005657427 -0.0084762573 -0.0010713432 4282414408
0.0080048703 -0.009794578 -0.00025344826 4283918909
-0.037909742 -0.0069440603 0.0028451779 4281890639
-0.036509383 -0.0045342147 0.0003154669 4281435209
-0.035288107 -0.0013762712 -0.0028853971 4281565769
-0.033921603 0.0010309219 -0.0054059839 4281304648
-0.032739442 0.0041856989 -0.0085962815 4281305668
-0.031749498 0.0080873668 -0.012454191 4280913988
-0.030785736 0.011986889 -0.016305057 4281176128
-0.029671494 0.015136145 -0.019477036 4281176385
-0.028757412 0.019031614 -0.023314513 4279937848
-0.027141947 0.019934215 -0.024463084 4280003384
-0.025716152 0.021583967 -0.026280001 4280980798
-0.023552146 0.02024398 -0.025417756 4280915773
-0.021187689 0.018158041 -0.023889907 4280198969
-0.01842251 0.014580064 -0.021030894 4280263994
-0.016020987 0.012497604 -0.019512769 4281046334
-0.013405871 0.0096702874 -0.017332485 4281176384
-0.010168646 0.0046066418 -0.013161027 4281500999
-0.0073003657 0.0010380447 -0.010329059 4281174089
-0.0044056587 -0.0025281236 -0.0075040064 4281435719
-0.001484517 -0.0060918778 -0.0046858843 4281826889
0.0010413416 -0.0081629008 -0.0032002106 4281891404
0.0033695959 -0.0094874427 -0.0023807641 4281890639
0.0057084523 -0.010810949 -0.0015640431 4282021453
0.0080579259 -0.012133442 -0.00074999267 4283787073
-0.037437696 -0.011521079 0.0044057663 4282086223
-0.036347512 -0.0076003745 0.00052909181 4281696584
-0.034793716 -0.0059362054 -0.001319224 4281631303
-0.033416148 -0.0035215616 -0.0038378143 4281631049
-0.032054197 -0.0011081174 -0.0063521429 4281565768
-0.031050127 0.002805613 -0.010205581 4281434954
-0.030245971 0.0074677393 -0.014722932 4281240134
-0.029826049 0.013627939 -0.02057242 4281239879
-0.028910968 0.01753433 -0.02440192 4281045058
-0.027840409 0.02068872 -0.027555507 4280328253
-0.026422177 0.022342116 -0.029367073 4280329018
-0.024266656 0.020997081 -0.028505938 4280524348
-0.021721359 0.018154681 -0.026313968 4280590903
-0.018578332 0.013067305 -0.022129321 4281111104
-0.01559316 0.0087320358 -0.018619796 4281566534
-0.012773734 0.0051481053 -0.015783289 4281566279
-0.009327624 -0.0006782636 -0.010961771 4281760844
-0.0068528913 -0.0027605668 -0.0094677974 4281563984
-0.0039515682 -0.0063370541 -0.0066527855 4281499978
-0.0016477592 -0.0076683611 -0.0058302972 4281565513
0.0010878853 -0.010493331 -0.0036881885 4282022474
0.0032049231 -0.011074938 -0.0035330711 4281760333
0.0055431761 -0.01240284 -0.0027194903 4281890639
0.0078920461 -0.013729736 -0.0019085878 4282869583
-0.035865698 -0.012182795 0.0020823251 4281563474
-0.03479014 -0.0082524195 -0.0017821454 4281761609
-0.033243764 -0.0065843984 -0.0036251582 4281761863
-0.031876002 -0.0041640252 -0.0061360616 4281761864
-0.030352939 -0.0024977773 -0.0079726875 4281500489
-0.029707972 0.0029313192 -0.013153351 4281239114
-0.029099684 0.0083574355 -0.018324193 4280979269
-0.02870686 0.014532737 -0.024153128 4281305414
-0.027630288 0.017696328 -0.027301725 4281240643
-0.026206482 0.019354567 -0.029111527 4281307453
-0.023859564 0.017253935 -0.027589034 4281308218
-0.020928767 0.012900673 -0.024075165 4281111870
-0.017582323 0.0070479512 -0.019240638 4281306944
-0.01438826 0.0019499362 -0.015081074 4281371459
-0.011551682 -0.0016433671 -0.012257377 4281435973
-0.0086886622 -0.005234316 -0.0094405841 4281499724
-0.0064067245 -0.0065720826 -0.0086158384 4281563218
-0.0037039034 -0.0094088539 -0.0064718146 4281629774
-0.0013954453 -0.01074408 -0.0056539238 4281368654
0.00071324781 -0.011328742 -0.0054982849 4281695309
0.0030402951 -0.012662105 -0.0046851435 4281890893
0.0053779483 -0.013994403 -0.0038747105 4281693013
-0.03413577 -0.013596088 0.00043431437 4281955409
-0.033072207 -0.0096557811 -0.0034186302 4281891659
-0.031698648 -0.007228367 -0.0059261825 4281826123
-0.030340713 -0.0048021749 -0.0084294938 4281760588
-0.029171702 -0.0016223118 -0.011596285 4281499978
-0.02837551 0.0030653104 -0.016091688 4281565769
-0.027432147 0.006995827 -0.019912228 4281631814
-0.026696164 0.011678457 -0.024391398 4281240389
-0.025256258 0.013342366 -0.026202148 4281371204
-0.023267332 0.012744121 -0.026017211 4281239114
-0.019949269 0.0068714842 -0.021188485 4281435464
-0.016588982 0.001002565 -0.016370866 4281630795
-0.013769578 -0.0026032403 -0.013550971 4281957194
-0.011317745 -0.0047008544 -0.012060976 4281891148
-0.0086503886 -0.0075496361 -0.0099143293 4281825358
-0.0063664094 -0.008891575 -0.009093428 4281760334
-0.0040718056 -0.010232516 -0.0082752109 4281694543
-0.0019741096 -0.010820404 -0.0081184562 4281629264
0.00054926053 -0.012911208 -0.0066470006 4280907359
-0.032901492 -0.012735583 -0.0032183123 4282279514
-0.031689983 -0.0095436051 -0.0063900594 4281956174
-0.030328866 -0.0071106926 -0.0088892244 4281564493
-0.028810304 -0.0054360777 -0.010717999 4281695308
-0.027653541 -0.0022484586 -0.013874903 4281630793
-0.026517678 0.0009374246 -0.017026125 4281762118
-0.025583718 0.0048781484 -0.020835867 4281631813
-0.023941461 0.0057917982 -0.021984918 4280847944
-0.021745589 0.0044371262 -0.021144401 4281239624
-0.018783551 6.0491264e-05 -0.017658662 4281239114
-0.015789803 -0.0043132976 -0.014181267 4281303374
-0.01315267 -0.0071736351 -0.012033386 4281826378
-0.010887902 -0.0085218698 -0.01121082 4281760333
-0.0088119246 -0.0091141835 -0.011050228 4281890639
-0.0063265152 -0.01121515 -0.009573983 4281825614
-0.0042345412 -0.01180587 -0.0094174109 4281760078
-0.0021372251 -0.012395971 -0.0092622135 4281629264
-0.030843649 -0.015661806 -0.0035268206 4282803794
-0.029976953 -0.010942303 -0.0080213677 4281694798
-0.028623026 -0.0085033849 -0.010513594 4281695564
-0.027460258 -0.0053065866 -0.013665512 4281761353
-0.02578399 -0.0043880716 -0.014822146 4281761353
-0.02465513 -0.0011939779 -0.017964873 4281500489
-0.022996996 -0.00027678162 -0.019116495 4281435209
-0.020785931 -0.0016344488 -0.018283373 4281631049
-0.018375557 -0.00374908 -0.016792556 4281696074
-0.015758004 -0.0066198632 -0.01464621 4281695818
-0.013507102 -0.0079737827 -0.013823368 4281956683
-0.011049028 -0.010083899 -0.012344945 4281956683
-0.0085750595 -0.012192488 -0.010870704 4281890893
-0.0064888336 -0.012785971 -0.010714399 4281693779
-0.0043972395 -0.013378926 -0.010559395 4281167203
-0.028091345 -0.013102196 -0.0089893434 4282217803
-0.02709258 -0.0091344342 -0.012800014 4281761864
-0.025764134 -0.0066909939 -0.015280357 4281761864
-0.024270806 -0.0050095618 -0.017095571 4281500744
-0.022604708 -0.0040895045 -0.018247668 4281500489
-0.020572137 -0.0046905428 -0.018079314 4281630793
-0.018157315 -0.006811291 -0.01659463 4281630793
-0.015917663 -0.0081705973 -0.015772231 4281630793
-0.013473678 -0.010288604 -0.014295131 4281891659
-0.011406433 -0.01088614 -0.014135621 4281891148
-0.0089359209 -0.013001613 -0.012665384 4281890639
-0.026551124 -0.013738617 -0.011283102 4282348364
-0.025567006 -0.0097612292 -0.015081516 4281891914
-0.024248417 -0.0073120072 -0.017554196 4281761353
-0.022579599 -0.0063895434 -0.01870543 4281761609
-0.020730335 -0.0062299892 -0.01919724 4281761098
-0.018316332 -0.0083573461 -0.017717302 4281891659
-0.015504781 -0.012007393 -0.014928456 4281695053
-0.013053712 -0.0141313 -0.013458181 4281499214
-0.011175055 -0.013968728 -0.013957456 4281431638
-0.025370728 -0.012839995 -0.014888808 4282150484
-0.024226431 -0.0096185282 -0.01801585 4281630794
-0.0225549 -0.0086937174 -0.019166118 4281369928
-0.020703148 -0.008533977 -0.019658608 4281826379
-0.017911378 -0.012196705 -0.016872842 4281891149
-0.015093181 -0.015857019 -0.014094003 4281759569
-0.012828317 -0.01722274 -0.01328485 4281497938
-0.023305546 -0.015766107 -0.015199743 4282281043
-0.021800634 -0.014070615 -0.017008036 4281696074
-0.019750755 -0.014676675 -0.016849242 4281826633
-0.016944487 -0.018349014 -0.014075593 4281825360
-0.014492545 -0.020486005 -0.012615563 4281693269
-0.018061433 -0.023921899 -0.011446115 4282412623
-0.015605185 -0.026065134 -0.0099922605 4282347089
0.05183062 -0.02962479 0.045493703 4280571269
0.039157148 -0.0081072822 0.023180857 4282013548
0.042929981 -0.012939021 0.02735105 4280177293
0.047514863 -0.019912072 0.033521608 4279456409
0.052935533 -0.029024407 0.041686274 4278473384
0.057633698 -0.035987258 0.047827024 4279587733
0.037466262 -0.0054547936 0.017962873 4281095038
0.040454939 -0.0081512854 0.020118771 4278603944
0.044497319 -0.013714172 0.02494284 4278735268
0.050668228 -0.025008269 0.035097681 4278866338
0.056396581 -0.034861535 0.043896232 4278932384
0.036536135 -0.0049348846 0.014768904 4279062689
0.039515842 -0.007640861 0.016920563 4278735523
0.043806259 -0.013941377 0.022400862 4278735524
0.04970748 -0.024551995 0.031865481 4278604453
0.055424538 -0.034436733 0.040643852 4278604708
0.036869571 -0.0080113336 0.014917903 4279981454
0.040108539 -0.011447378 0.017727742 4278801568
0.044404645 -0.01776696 0.023191661 4279587989
0.050049827 -0.0276886 0.031965796 4279587988
0.054979853 -0.035440505 0.038728978 4280439689
0.058905393 -0.040303968 0.042824339 4281881713
0.037706479 -0.012544528 0.016390759 4280374664
0.040699869 -0.015266694 0.018525567 4279456919
0.045001652 -0.02160538 0.023973085 4279849874
0.049610943 -0.028663225 0.030071078 4280308108
0.05427292 -0.03571634 0.036155291 4280504459
0.035559792 -0.014362969 0.015719995 4281226363
0.038289621 -0.01636865 0.017187726 4280636549
0.04103525 -0.018372811 0.018651366 4280374153
0.04534008 -0.024730794 0.024083201 4280439433
0.049692314 -0.031084485 0.02950258 4280504968
0.053829424 -0.036708429 0.034248825 4280439179
0.035636321 -0.01673653 0.015189372 4279522963
0.038367931 -0.018748514 0.016651634 4280308874
0.041369721 -0.021487355 0.018770982 4280570759
0.045163587 -0.026408508 0.022866227 4280636294
0.049773231 -0.033509798 0.028931072 4280832388
0.053648703 -0.038423456 0.033004884 4280635784
0.030780168 -0.01653567 0.013054483 4280964479
0.033241007 -0.017825373 0.013856463 4280767619
0.035712399 -0.019114099 0.014655761 4279128733
0.038445804 -0.021132462 0.016112581 4279981199
0.041957445 -0.0253409 0.019544058 4280308873
0.046270996 -0.031737268 0.024943823 4280570504
0.050891351 -0.038859375 0.030989291 4280504714
0.0539921 -0.041597836 0.03307613 4282274669
0.028640179 -0.018347897 0.012386233 4282471784
0.031095136 -0.019642599 0.013186358 4280636293
0.033314645 -0.020202905 0.013323773 4280636294
0.035788044 -0.021495752 0.014119193 4279325338
0.039025806 -0.024986364 0.016887948 4279849874
0.042797722 -0.029940002 0.020965766 4280374408
0.046863023 -0.035622694 0.025691157 4280374153
0.050452121 -0.039837122 0.029092399 4282471528
0.025786921 -0.017950751 0.009736523 4282078573
0.028228093 -0.01925119 0.010536935 4281095294
0.031166093 -0.02202221 0.012652971 4280571014
0.033879384 -0.024055645 0.014105007 4280439944
0.037105307 -0.027558289 0.016868532 4279653014
0.040608626 -0.031793691 0.020282269 4279390873
0.044143524 -0.036026157 0.0236877 4280833409
0.047453705 -0.039521001 0.026429219 4282340458
0.020069657 -0.014753595 0.0049683726 4281750133
0.022951212 -0.017538629 0.0070924661 4281094783
0.02537857 -0.018844709 0.0078930892 4280635783
0.028056774 -0.020888016 0.0093493275 4280636294
0.030993698 -0.02366785 0.011459019 4280505734
0.034442786 -0.027921267 0.014876965 4280636804
0.038171664 -0.032909319 0.018942822 4280636549
0.041686613 -0.037156723 0.02234357 4280373643
0.020133026 -0.01711148 0.0044539473 4280701829
0.023016145 -0.019905083 0.0065710139 4280570759
0.025682958 -0.021956019 0.0080252215 4280570504
0.028365567 -0.024005435 0.0094752684 4280373898
0.031792045 -0.028274 0.012889199 4280636549
0.035495464 -0.033279665 0.016950179 4280898689
0.038987797 -0.037542202 0.020346852 4281684599
0.014943227 -0.015350781 0.0010171994 4280440199
0.017332397 -0.016669281 0.0018210462 4279522454
0.019964069 -0.018730074 0.0032794219 4280374409
0.022846116 -0.021532483 0.0053901454 4280374409
0.025512083 -0.023590036 0.0068396037 4280570759
0.028673494 -0.027131341 0.0095951334 4280832388
0.032346152 -0.032155015 0.013652533 4281356158
0.036055706 -0.037175365 0.017700316 4283058029
0.012621541 -0.016380362 -0.00029497873 4280964989
0.015002161 -0.017704077 0.00050773192 4280243594
0.017622422 -0.019772522 0.0019640666 4279194268
0.020490207 -0.022584982 0.0040718806 4279850128
0.023379086 -0.025395475 0.0061741886 4280439689
0.026052095 -0.027458884 0.0076167849 4280832389
0.02922011 -0.031010464 0.010362312 4281355904
0.0079444908 -0.016074575 -0.0024094721 4281031544
0.010305971 -0.017404556 -0.0016051782 4280571523
0.012678038 -0.018733539 -0.00080355536 4280308874
0.015060686 -0.020061426 -4.674308e-06 4280242573
0.017911561 -0.022884168 0.0021009189 4280045969
0.020783536 -0.025704972 0.0042009917 4279259294
0.023910698 -0.029271252 0.0069488878 4280308109
0.0052127466 -0.015585691 -0.0050297147 4280244613
0.0073423423 -0.016170338 -0.0048810011 4280243594
0.0099186338 -0.018256001 -0.0034232577 4280243339
0.012510788 -0.020340212 -0.0019695861 4280177803
0.015344758 -0.023173258 0.00013378309 4280177293
0.018428419 -0.026754476 0.0028847498 4280308363
0.021769669 -0.031083159 0.0062812152 4280504203
0.024440981 -0.033159934 0.0077142934 4281681793
0.00017536804 -0.013739407 -0.0084519377 4280836468
0.0027111545 -0.015835546 -0.0069886474 4280179079
0.0050475895 -0.017176658 -0.0061845025 4279260823
0.0073946305 -0.018516771 -0.005383051 4279784848
0.0097522587 -0.019855775 -0.0045843301 4279785104
0.012566678 -0.022699364 -0.002482492 4279850383
0.015627936 -0.026293524 0.00026605651 4280308874
0.018943941 -0.030637614 0.0036592665 4281160064
0.02182956 -0.033474542 0.0057424749 4282730353
-0.00250737 -0.013214886 -0.011061259 4280770423
0.00022141263 -0.016075231 -0.0089437691 4280243594
0.002546642 -0.017421782 -0.0081400527 4280177804
0.0053124279 -0.02027867 -0.0060322015 4280112014
0.0074465163 -0.020867258 -0.0058880369 4278997664
0.010026406 -0.022965692 -0.004441123 4279521943
0.012845021 -0.025817581 -0.0023469888 4280439689
0.016135748 -0.030177005 0.0010428685 4281290879
-0.0043556802 -0.015710458 -0.01104655 4280703614
-0.0022564828 -0.016304724 -0.010895154 4280571269
0.00026702508 -0.018415101 -0.0094386144 4280308364
0.0028063916 -0.020523906 -0.0079862205 4280308618
0.0055763759 -0.023389123 -0.0058860886 4280439433
0.0081501082 -0.025494762 -0.0044426024 4280046224
0.010739703 -0.02759885 -0.0030031987 4279914388
0.013567764 -0.030458577 -0.00091823563 4281158788
-0.0070147142 -0.01516559 -0.013648345 4280374663
-0.0043145344 -0.018046029 -0.011536657 4280439943
-0.0020064525 -0.019403085 -0.010735157 4280243594
0.00052147731 -0.021519542 -0.0092847897 4280374154
0.0028533973 -0.022874266 -0.0084894225 4280570249
0.0056249425 -0.025747977 -0.0063963458 4280570503
0.0082004778 -0.027859941 -0.004958272 4281356159
-0.0094576664 -0.015369423 -0.015591718 4279983239
-0.0071766973 -0.016733371 -0.014786555 4279915154
-0.004273802 -0.020385727 -0.012029747 4280112013
-0.0015509054 -0.023272783 -0.0099306144 4279981199
0.00077506527 -0.024632506 -0.0091370754 4280374153
0.0033232942 -0.026753582 -0.0076969489 4280898178
0.0056730993 -0.028110959 -0.0069095343 4281356159
0.0084673427 -0.030991308 -0.0048289485 4283122288
-0.011301823 -0.01786115 -0.015575478 4279982474
-0.0096189938 -0.016932465 -0.016726553 4279719314
-0.0073386282 -0.018300816 -0.015924532 4279783828
-0.0044370294 -0.021964177 -0.013175659 4279128989
-0.0015090182 -0.025625125 -0.0104337 4279521943
0.0012365729 -0.028518744 -0.0083470866 4280242574
-0.013703499 -0.025900848 -0.010497861 4281228658
-0.012380093 -0.02343107 -0.012956575 4280309638
-0.011658605 -0.0186579 -0.017362097 4279718804
-0.0099783503 -0.017727286 -0.018510848 4279194524
-0.0075005293 -0.019867994 -0.01706231 4279850385
-0.0041935779 -0.025077425 -0.013024796 4279784338
-0.00084971637 -0.030283444 -0.0089970157 4280439178
0.0016967766 -0.032417886 -0.0075663892 4281617534
-0.011579596 -0.028859839 -0.010853261 4282012274
-0.010648571 -0.024842821 -0.014603939 4279784338
-0.0089524351 -0.02390866 -0.015755262 4279784083
-0.0064596571 -0.026054636 -0.014315601 4279849874
-0.0035448335 -0.029738545 -0.011586744 4281028739
-0.00060361251 -0.033420034 -0.0088647828 4281944954
0.025120679 -0.039838053 -0.0079817297 4282403443
-0.0083243959 -0.028571285 -0.014311478 4281749369
-0.0060221553 -0.029950745 -0.013525162 4281487993
-0.0031007305 -0.033644952 -0.010806303 4282404464
0.00029211864 -0.041969232 -0.024755759 4282667623
-0.0073971972 -0.036925383 -0.030064559 4280896648
-0.00028951094 -0.041971348 -0.027162878 4282602089
-0.0079600774 -0.036901794 -0.032458365 4281880439
0.013386216 0.0094161481 0.035953023 4285229864
0.01713952 0.0040007532 0.040985066 4285229354
0.0084246136 0.010238811 0.033026647 4284901425
0.0081983432 0.017418995 0.025568416 4285689884
0.0099055171 0.018287726 0.024363695 4285820698
0.013170701 0.014252283 0.028008403 4285951768
0.01895305 0.0025163516 0.039255276 4285951768
0.005026143 0.01265993 0.028198825 4285033258
0.0061035529 0.015642285 0.02491218 4285493534
0.0067243278 0.020029306 0.020246468 4285492768
0.0084157847 0.020898819 0.019047551 4285557793
0.010994378 0.018957019 0.020613985 4285689118
0.015620358 0.010694139 0.028388666 4285754909
0.020538056 0.0017345697 0.03683624 4285558303
0.02506238 -0.0058147758 0.043887928 4285361954
0.0018721297 0.01440452 0.024074884 4285493534
0.0033722222 0.015983574 0.022179659 4285493789
0.0046468936 0.018267475 0.019595787 4285755929
0.0059058554 0.020550087 0.017016215 4285886998
0.0075894929 0.021421131 0.01582098 4285755418
0.010159362 0.019472018 0.017384738 4285755674
0.013647087 0.014705576 0.021699026 4285821464
0.017399926 0.0092379376 0.02669158 4285689883
0.020502705 0.0058868825 0.029611183 4285493533
0.02409872 0.0011301637 0.033897039 4285427743
0.027731689 -0.0036231726 0.038173139 4285296163
0.032117642 -0.010483854 0.044495072 4284901424
-0.0033681877 0.016716667 0.019774947 4285164074
-0.0018732511 0.018299401 0.017884234 4285689629
0.00065845996 0.016339935 0.0194527 4285624604
0.0027819313 0.015798062 0.019635897 4285624604
0.0042666234 0.017380215 0.01774814 4285624350
0.0055234879 0.019669205 0.015174033 4285690139
0.0072046071 0.020542175 0.013981171 4285755673
0.0093257613 0.02000051 0.01416529 4285755929
0.012578595 0.015924811 0.017783489 4285624348
0.015635211 0.012558699 0.020706957 4285558813
0.017796103 0.012020834 0.020880787 4285624603
0.019262776 0.013602205 0.018998332 4285558814
0.021426393 0.013064735 0.019171644 4285493024
0.02526444 0.0075875744 0.024128621 4285295398
0.030832352 -0.0028245524 0.033854742 4285032238
0.037210554 -0.015345529 0.045606486 4285032238
-0.0062465146 0.017803319 0.016358577 4285361188
-0.0055724047 0.022233646 0.011708112 4285885978
-0.0032771826 0.020975638 0.012589091 4286017304
-0.00034366548 0.017587148 0.01553636 4285886233
0.0026163235 0.01420109 0.018476695 4285689628
0.0041013397 0.015787616 0.016592154 4285624348
0.005358763 0.018083178 0.014022864 4285558814
0.007259734 0.018248752 0.013518486 4285558814
0.0093831904 0.017705053 0.013700373 4285558813
0.012412105 0.014325514 0.016622813 4285558814
0.014784429 0.013075046 0.01748397 4285624604
0.016246129 0.014660195 0.015606113 4285689884
0.01676552 0.01907827 0.010997545 4285821463
0.021759238 0.015871041 0.013399571 4285951513
0.026804917 0.0068381503 0.021748966 4285951513
0.032406162 -0.0036035925 0.031441431 4285885724
0.038086537 -0.014038354 0.041113053 4285426214
-0.0088344403 0.010894164 0.021058276 4285032494
-0.0079108365 0.014628194 0.017094897 4285427489
-0.0074156076 0.019786805 0.011758167 4285558558
-0.0063460097 0.022802897 0.0084997565 4285623583
-0.004265625 0.022252679 0.0086908899 4285754908
-0.0013439171 0.018852264 0.011633001 4285886488
0.0020275116 0.014029302 0.01594295 4285689628
0.003936097 0.014195293 0.015436368 4285624349
0.0054109804 0.015785411 0.013557915 4285558814
0.0073144622 0.015951179 0.013052853 4285559069
0.0094401799 0.015405543 0.01323244 4285559068
0.012245659 0.012726516 0.015462346 4285559068
0.013935056 0.013604887 0.014270771 4285558813
0.015389174 0.015193723 0.012398232 4285755674
0.015669186 0.020334907 0.0071196002 4285623583
0.020402413 0.017824963 0.0088389181 4285689118
0.024709903 0.010892116 0.01513201 4285688863
0.028826879 0.0046736822 0.020732215 4285623328
0.033729039 -0.0036688969 0.028354825 4285426724
0.039688632 -0.014842719 0.03867111 4285360933
-0.010564085 0.015024029 0.014377892 4285362209
-0.0094623268 0.018051393 0.011117384 4285755928
-0.0081806742 0.020361476 0.0085510965 4285821209
-0.0069146864 0.022670254 0.0059890957 4285558048
-0.0046338141 0.021402244 0.0068672323 4285689374
-0.0017160065 0.017990567 0.0098020807 4285755163
0.0014396645 0.013866626 0.013415806 4285821209
0.0035568811 0.013317727 0.013595736 4285624349
0.005246114 0.014197767 0.012405556 4285558813
0.0071494617 0.01436352 0.011900531 4285559324
0.0092748217 0.013815656 0.012078542 4285559323
0.01140552 0.013268374 0.012255229 4285559069
0.012632683 0.015574783 0.0097042155 4285558813
0.013844091 0.017879888 0.0071575106 4285821463
0.014807228 0.020896576 0.0039348477 4285755674
0.016924921 0.020348579 0.0041153044 4285492004
0.019523449 0.018376417 0.0056520463 4285689629
0.023099396 0.013557278 0.0098970123 4285755418
0.026712293 0.0087414384 0.014132317 4285820954
0.030853439 0.0025056303 0.019711306 4285624093
0.035786971 -0.0058601871 0.027305769 4285493278
0.041536614 -0.016353957 0.036909491 4285296163
0.046858195 -0.025418743 0.045143157 4284901423
-0.011313252 0.015598215 0.011165183 4285100579
-0.0098226257 0.017197609 0.009288568 4285493534
-0.008743681 0.020231806 0.0060408139 4285888018
-0.0074824281 0.022546731 0.0034849797 4285887509
-0.0054132976 0.021991134 0.0036757574 4285821718
-0.0025046617 0.018567719 0.006604793 4285755928
0.00043042749 0.015146755 0.0095268451 4285624349
0.0027505383 0.013878085 0.010391474 4285624348
0.0042155348 0.015476026 0.0085222553 4285624349
0.0056700446 0.017073192 0.0066558351 4285624093
0.0075575188 0.017237671 0.0061551002 4285558558
0.010118097 0.015255101 0.0076965098 4285558558
0.011559613 0.016851477 0.0058338013 4285558814
0.012990657 0.018446997 0.0039739967 4285558814
0.014178917 0.020756751 0.0014384263 4285887254
0.016760774 0.018776484 0.0029745311 4285821464
0.019120939 0.017512307 0.0038292934 4285821463
0.022692524 0.012677491 0.0080638658 4285755673
0.025815424 0.0092742443 0.010937124 4285558814
0.029701015 0.0037317872 0.015828783 4285493024
0.033380713 -0.0010931864 0.02003492 4285427488
0.038350895 -0.0094818398 0.027599944 4285559068
0.042877637 -0.016438462 0.033802267 4285164328
-0.010577954 0.017788954 0.0060909507 4285362719
-0.0091053285 0.019391254 0.0042225034 4285428253
-0.0078461617 0.021712516 0.0016721771 4285559069
-0.005368676 0.019715421 0.0032300954 4285558559
-0.0026669875 0.017000526 0.0054671462 4285558559
5.5879354e-05 0.014287636 0.007698623 4285558558
0.0019456185 0.014451966 0.007197021 4285624348
0.0027543902 0.01820939 0.00328951 4285689883
0.0041934215 0.019809514 0.0014305511 4285887253
0.0062864274 0.019254453 0.0016138223 4285953044
0.0088330097 0.01726412 0.0031539728 4285821464
0.01071519 0.017428346 0.0026547951 4285558558
0.012138624 0.019027598 0.00080026733 4285558559
0.013783604 0.019908786 -0.00037436141 4285558559
0.016362 0.017921671 0.0011576847 4285493023
0.019430846 0.01450257 0.0040368107 4285558559
0.023005947 0.009652853 0.008258814 4285558814
0.026617981 0.0048064366 0.012471156 4285493278
0.030021723 0.00067947805 0.01600028 4285493534
0.032961406 -0.0020129606 0.018175488 4285426468
-0.0078037865 0.019439124 0.0012289477 4285362974
-0.0055299141 0.018157341 0.0020990134 4285428253
-0.0032454208 0.016876623 0.0029662861 4285493789
-0.0009502843 0.015596896 0.0038308674 4285493533
0.00092878565 0.01576028 0.0033320826 4285624603
0.0017280057 0.0195278 -0.00056466414 4285689883
0.0033754297 0.020410821 -0.0017387192 4285623839
0.0054601654 0.019852862 -0.0015549115 4285689883
0.0082219094 0.017135121 0.00066006789 4285887254
0.010551739 0.015859075 0.0015159422 4285624604
0.012204681 0.016743034 0.00034077279 4285559069
0.014315981 0.016187824 0.00051786564 4285559068
0.0171359 0.013475627 0.0027177646 4285493788
0.020451073 0.0093274936 0.0062601506 4285493533
0.024037607 0.0044635385 0.010467539 4285427744
0.027903423 -0.0011156127 0.01533786 4285295398
0.030831501 -0.0038178787 0.017509447 4285228843
-0.0075592063 0.016437463 0.0014642649 4285168663
-0.0054858848 0.01587566 0.0016489313 4285297184
-0.0036150441 0.01603809 0.0011521545 4285493789
-0.0017441027 0.016200647 0.00065544061 4285493789
-0.00029932335 0.017809786 -0.0011986471 4285887763
0.0011350103 0.019418083 -0.0030498314 4285689884
0.0027772561 0.020302825 -0.0042208578 4285426723
0.0052984022 0.018297136 -0.0026840284 4285492513
0.0080590993 0.015570581 -0.00047540292 4285558303
0.010614637 0.013568074 0.0010525188 4285624603
0.012270305 0.014454439 -0.000121722 4285559069
0.015310153 0.011010781 0.0027483455 4285559324
0.018142201 0.008290939 0.0049384194 4285493533
0.021942716 0.0026884675 0.0098125767 4285493788
0.02506702 -0.0007474944 0.012660574 4285361189
0.028701909 -0.0056223497 0.016843639 4285228843
-0.0046070367 0.017381884 -0.0026941276 4284904229
-0.0029570311 0.018269129 -0.0038658171 4285231648
-0.0010993108 0.018430643 -0.0043589487 4285559324
0.00054295734 0.019317448 -0.0055284104 4285888274
0.0023981966 0.019478947 -0.0060207243 4285822483
0.0044742934 0.018915854 -0.005837956 4285756183
0.0074494667 0.015455328 -0.0029592682 4285756438
0.010451041 0.011997223 -8.7490305e-05 4285624858
0.012564205 0.011437699 8.5697975e-05 4285493534
0.015839394 0.0072596595 0.0036186832 4285361699
0.019146238 0.0030845478 0.0071433173 4285427234
0.022957973 -0.002534382 0.012001324 4285361188
0.025854895 -0.005257003 0.014167696 4285294634
0.030978514 -0.0085284784 0.016477888 4285097519
-0.0018978976 0.019065008 -0.0075095142 4285362974
-4.8141927e-05 0.019225918 -0.0080004614 4285428254
0.0018016845 0.019386947 -0.0084913336 4285558814
0.0040927343 0.018094227 -0.0076352763 4285493278
0.0072871894 0.013895772 -0.0040911268 4285493278
0.010739159 0.0089737475 0.00011672778 4285493279
0.01354266 0.0062337443 0.0023009344 4285493534
0.016598392 0.0027697161 0.0051502497 4285427743
0.020148017 -0.0021434799 0.0093325172 4285360933
0.023498181 -0.0063277557 0.012835825 4285229099
0.026162943 -0.0083332062 0.014325298 4285097774
0.028843539 -0.010337159 0.015810663 4285097774
0.031051371 -0.010889865 0.015957644 4285097773
0.033511396 -0.012166612 0.016769746 4285097774
-0.0022701882 0.018253215 -0.0093024336 4284970273
-0.00063827634 0.019143447 -0.010465857 4285165858
0.0014238544 0.018574655 -0.010282792 4285362719
0.0039320104 0.016548164 -0.0087573864 4285428254
0.0075709075 0.010878772 -0.0038805252 4285493789
0.011252031 0.0052131042 0.00098525267 4285493278
0.014518868 0.0010081604 0.0045004697 4285426724
0.017355606 -0.0017375425 0.0066693225 4285163563
0.020446986 -0.0052092373 0.0095009934 4285098029
0.023564743 -0.0086785033 0.012325764 4285032238
0.026231311 -0.010690339 0.013809783 4285032239
0.0019164346 0.014840849 -0.0093871392 4285035043
0.0050919987 0.010614514 -0.0058579189 4285362719
0.0089675039 0.0041977838 -0.00032841507 4285362208
0.012439705 -0.00075294822 0.0038509057 4285361444
0.015720848 -0.0049697831 0.0073524253 4285294888
0.018341679 -0.0069924518 0.0088432971 4285228843
0.020978365 -0.0090136752 0.010330088 4285097773
0.023866819 -0.011763312 0.012478804 4284966704
0.026299257 -0.013051525 0.013291329 4284966704
0.0099158883 -0.0010470524 0.0018657115 4285361443
0.012949221 -0.004545927 0.0046959617 4285360679
0.015325576 -0.0058439001 0.0055196662 4285294634
0.01794295 -0.0078734532 0.0070065218 4285229099
0.020576173 -0.0099015087 0.0084892716 4285031983
0.023460925 -0.012660168 0.010632357 4284966449
0.013232466 -0.0076164752 0.0048660128 4285360424
0.015613504 -0.0089184418 0.0056852004 4285294379
0.018235311 -0.010954149 0.0071659177 4285228589
0.013290156 -0.0099580958 0.0043659075 4285360423
0.015445877 -0.010526992 0.0045178621 4285294634
0.013347413 -0.012303762 0.0038627959 4284966449
