# .PCD v0.7 - Point Cloud Data file format
VERSION 0.7
FIELDS x y z rgba
SIZE 4 4 4 4
TYPE F F F U
COUNT 1 1 1 1
WIDTH 967
HEIGHT 1
VIEWPOINT 0 0 0 1 0 0 0
POINTS 967
DATA ascii
-0.00029461458 0.0034207478 0.036338933 4289013809
0.0010649413 0.0063367188 0.033068273 4288817968
0.0022422485 0.0099461265 0.029088903 4288818224
0.0037201829 0.01216457 0.026540481 4289734949
0.0053484701 0.013687566 0.024707556 4290127648
0.0074731335 0.013127089 0.025011636 4289604134
0.0099465325 0.011178967 0.026736595 4289277224
0.01208739 0.010619778 0.027037438 4289866019
0.013702609 0.01214226 0.025207523 4289931298
0.015486874 0.012970544 0.024089254 4289277224
0.016901098 0.015185285 0.021554604 4289146409
0.018854454 0.015319522 0.021148019 4289277224
0.020807832 0.015453834 0.020741478 4288950058
0.023142044 0.014202632 0.021749228 4289146153
0.02529389 0.013644911 0.022048246 4289276968
0.027451109 0.01308766 0.022346228 4289538853
0.029018421 0.014607567 0.020526901 4289342504
0.030575011 0.016126882 0.018709835 4289277224
0.031713344 0.019029286 0.015486461 4288037414
-0.010817144 0.003200613 0.035069343 4286528833
-0.009701632 0.0075241178 0.030365534 4289275949
-0.0080284365 0.0090538822 0.028526042 4290322979
-0.0062157139 0.0098852292 0.027402688 4290454048
-0.0039499402 0.008623682 0.028420344 4290388769
-0.0019841939 0.0087576918 0.028010361 4289800228
-0.00017645583 0.0095889866 0.026888266 4289211689
0.0011437014 0.012511086 0.023632482 4289342248
0.0026060231 0.014734946 0.021092292 4289604389
0.0043846332 0.015564576 0.019976433 4290650654
0.0066644214 0.0143045 0.020991631 4290258463
0.0091264583 0.012349036 0.022714 4290389279
0.011430472 0.0110908 0.023724288 4290520093
0.013214752 0.011921167 0.022607595 4289342759
0.014993723 0.012751315 0.02149203 4289081129
0.016403042 0.014972214 0.018963389 4289342759
0.018350922 0.015106048 0.018557921 4289277224
0.02048637 0.014544826 0.018858559 4289211689
0.023007628 0.012594048 0.020569138 4289669413
0.024966288 0.01272893 0.020161659 4289669413
0.026924964 0.012863901 0.019754238 4289800228
0.028685406 0.013693441 0.01864304 4290258209
0.030440491 0.014522661 0.017533068 4290454558
0.031783048 0.016739752 0.015018906 4290979604
-0.019147221 0.0024349093 0.034097396 4289537068
-0.017570984 0.0046720356 0.031537596 4288425779
-0.015874099 0.0062073693 0.029696144 4288687408
-0.014048528 0.0070413724 0.028571468 4288687409
-0.012511913 0.0092761256 0.026020102 4288818224
-0.011135738 0.012210138 0.022758827 4289864998
-0.0093391128 0.013042517 0.021640364 4289342504
-0.0075477362 0.013874575 0.020523101 4289277223
-0.0049986653 0.011207599 0.022965364 4289538853
-0.0028938353 0.010640915 0.023269843 4289735204
-0.00094148517 0.010774095 0.022862714 4289538853
0.00052918866 0.013004959 0.020325638 4289866020
0.0021471791 0.01453587 0.018501371 4289538599
0.0039205179 0.015367281 0.017388307 4289734949
0.0063630976 0.013403762 0.019109722 4289211689
0.0088217892 0.011441495 0.020827822 4289604133
0.010948665 0.010876998 0.021128215 4289800483
0.012727652 0.011709172 0.02001426 4289342759
0.014322024 0.013238993 0.018195383 4289081129
0.016269743 0.013372723 0.017789874 4289342759
0.018032826 0.014204103 0.016679458 4289669925
0.020165298 0.013640475 0.016979054 4289146409
0.022113118 0.01377451 0.016573749 4289342504
0.024446368 0.012514628 0.017575119 4289538598
0.026399571 0.012649227 0.017168839 4290061858
0.028352786 0.012783919 0.016762637 4290127394
0.030305993 0.012918714 0.016356502 4289538598
0.031852387 0.014446121 0.014548282 4290389278
0.03276981 0.01806115 0.010640741 4289214239
-0.026073333 0.0053361207 0.029130641 4286855488
-0.024617556 0.0082836226 0.025858786 4289603114
-0.022797938 0.0091190189 0.024736695 4289799463
-0.020983506 0.009954147 0.023615751 4290192928
-0.019040544 0.010085817 0.023209929 4289931298
-0.017097432 0.010217581 0.022804134 4289408038
-0.015293192 0.011052344 0.021685489 4289604389
-0.013494138 0.011886798 0.020568036 4289276969
-0.011989009 0.014125984 0.018028289 4290454559
-0.010205705 0.014959592 0.016914222 4290192928
-0.0082779042 0.01509079 0.016511977 4290127649
-0.0057403743 0.012414258 0.018950026 4290389279
-0.0036465488 0.011844624 0.019255139 4290650909
-0.0017050095 0.011977036 0.018850245 4289538598
-8.4191561e-05 0.013512347 0.017028641 4289669159
0.0018522143 0.013644602 0.016624961 4289538344
0.0037887059 0.013776962 0.016221341 4289669159
0.0062306114 0.011806827 0.017937932 4289800228
0.0083464086 0.011239287 0.01823891 4289604133
0.010293838 0.011372689 0.017833229 4289538853
0.012064863 0.012206495 0.016722579 4289669925
0.014009736 0.012339916 0.016317576 4290258464
0.015954658 0.012473442 0.015912648 4290062113
0.017715115 0.013306852 0.014804366 4289277224
0.019657448 0.013440404 0.014400127 4289146409
0.021599796 0.013574053 0.013995952 4289211689
0.023734692 0.013008561 0.014293588 4289734949
0.025679752 0.013142589 0.013889001 4289865764
0.027624816 0.01327673 0.013484492 4289342504
0.029770426 0.012712311 0.013780079 4289146153
0.031921372 0.012148373 0.014074638 4289015594
0.033254061 0.014378022 0.011572451 4289408548
0.033944968 0.018700935 0.0069786189 4289280284
-0.030355852 0.0048754737 0.027336515 4289216534
-0.029003974 0.0085389055 0.02335256 4288360499
-0.027678605 0.012200635 0.019374203 4289473063
-0.026003305 0.013742764 0.017543577 4289145898
-0.024082202 0.013872724 0.017142147 4289146408
-0.022030089 0.013297196 0.017453652 4289669925
-0.019972462 0.012722138 0.01776408 4289538853
-0.017909307 0.012147512 0.018073466 4289538853
-0.016118366 0.012983512 0.01695922 4289277224
-0.014332611 0.013819229 0.015846178 4289146409
-0.012552049 0.01465467 0.014734286 4289604389
-0.010776691 0.015489869 0.013623557 4289669668
-0.0085579455 0.014211837 0.014640993 4290127393
-0.0063283704 0.012934599 0.015656285 4290389279
-0.0043977536 0.013066147 0.015253576 4289669413
-0.0023094714 0.012494016 0.015558242 4289407529
-0.0003759563 0.012625959 0.015155082 4289603623
0.0017205589 0.012054596 0.015458184 4289603623
0.0036569275 0.012186933 0.015054579 4289799974
0.0057616457 0.011616327 0.015356123 4289407783
0.0077008605 0.011749059 0.014952074 4289996578
0.0096401311 0.011881877 0.014548074 4289800483
0.01157948 0.012014821 0.014144151 4290520093
0.013518881 0.012147862 0.013740289 4290454814
0.015639961 0.011578869 0.014038793 4290716444
0.017213512 0.013116188 0.012230999 4289996834
0.019150365 0.01324936 0.011827896 4289277224
0.020897582 0.014084198 0.010724212 4289146408
0.022831805 0.01421738 0.010321799 4289538598
0.024766039 0.014350668 0.0099194655 4290519839
0.026700281 0.014484059 0.0095172068 4289865764
0.029235601 0.012515023 0.011210266 4289277224
0.031583935 0.011247817 0.012202251 4289604389
0.033120092 0.012783419 0.010402805 4289212198
0.034228768 0.015718892 0.0072121965 4289017124
-0.032011505 0.012484048 0.016875386 4289019419
-0.030093741 0.012613475 0.016474422 4289277733
-0.028421063 0.014159713 0.0146475 4289996834
-0.026758868 0.01570528 0.012822882 4289996834
-0.024851236 0.015834298 0.012424241 4289473574
-0.022682127 0.014547851 0.013448226 4289996834
-0.020502161 0.013262168 0.014470047 4290454814
-0.018311348 0.011977371 0.015489633 4289538853
-0.016664337 0.013522383 0.013668544 4289211688
-0.014886554 0.014359746 0.012558742 4289276968
-0.013113957 0.015196819 0.011450148 4289276968
-0.010906488 0.01391349 0.012466594 4289146153
-0.0086882263 0.012631033 0.01348081 4289342504
-0.0069152229 0.013468418 0.012372348 4289604134
-0.004992757 0.013599377 0.011971318 4289669413
-0.002912797 0.01302449 0.01227606 4289734438
-0.0006673187 0.011744242 0.013284943 4289865510
0.0015889518 0.010464866 0.01429161 4289669159
0.0035252012 0.010597181 0.013888015 4289538599
0.0052934587 0.011434827 0.012780982 4289342503
0.0068856776 0.012977328 0.010972171 4289669668
0.0088141412 0.013109397 0.010570415 4290062369
0.010918774 0.012536857 0.010870595 4289276969
0.013028793 0.011964817 0.011169675 4289211689
0.015144225 0.011393253 0.011467711 4289734949
0.016896792 0.012230445 0.010364412 4289669668
0.018644042 0.013067365 0.0092623001 4289669413
0.020196483 0.014607839 0.0074622976 4289604133
0.021738257 0.016147632 0.0056646308 4289604133
0.023658995 0.016279984 0.0052651009 4289734948
0.025579736 0.016412452 0.0048656547 4289538598
0.028501365 0.013029791 0.0079503385 4289604389
0.031044021 0.011054832 0.0096370121 4289408038
0.033397201 0.0097836889 0.010624769 4289015593
0.03472003 0.012025893 0.0081346324 4288820264
0.036026791 0.01426702 0.0056479378 4289150490
-0.03082123 0.01459134 0.011758015 4289540129
-0.028916743 0.014719926 0.011359868 4289734948
-0.027137216 0.015558995 0.010250905 4290323744
-0.025235038 0.015687607 0.0098533714 4290454558
-0.023332682 0.015816331 0.0094558829 4290127393
-0.02116387 0.01452551 0.010476722 4289604389
-0.018848415 0.012525935 0.012203882 4289473574
-0.016932223 0.012655865 0.011803704 4289342759
-0.015157025 0.013495166 0.010696121 4289538598
-0.01338705 0.014334213 0.0095896972 4289473319
-0.011182748 0.013046321 0.010603442 4289342504
-0.0091168061 0.012467928 0.010909266 4289669413
-0.0073491111 0.013307154 0.0098034954 4289604134
-0.0055866204 0.01414609 0.0086989319 4290519839
-0.003357783 0.012860216 0.009707897 4290519839
-0.0011181422 0.011575226 0.010714645 4290389023
0.0011322945 0.010291029 0.011719256 4290389279
0.0030630715 0.010422941 0.011316787 4289342759
0.0048260279 0.011262443 0.010212454 4289211688
0.0064131506 0.012808897 0.0084080277 4289735204
0.0081628934 0.013647664 0.0073066568 4290520093
0.010259185 0.013072386 0.0076068668 4290323999
0.012003694 0.013910998 0.0065067364 4289538598
0.014286704 0.012629785 0.0075050546 4289407783
0.016028628 0.013468415 0.0064056171 4290389024
0.018138472 0.012894481 0.0067033125 4289538599
0.019875109 0.013732962 0.0056051323 4289865764
0.021606419 0.014571171 0.0045081368 4289538598
0.023721669 0.01399792 0.0048049418 4289407783
0.025842279 0.013425149 0.0051007168 4289146154
0.028768212 0.010031875 0.0081762662 4289277224
0.031112887 0.0087556876 0.0091624176 4289342504
0.033262894 0.0081852451 0.0094523085 4289080873
0.035002194 0.0090246312 0.0083541228 4288688428
0.036736105 0.0098637901 0.0072570918 4288951078
-0.031307649 0.015165608 0.0084785102 4290197264
-0.029411297 0.015293609 0.0080820369 4289342758
-0.027389806 0.014709182 0.0083947824 4289407783
-0.025490414 0.014837567 0.0079978062 4289145643
-0.023590859 0.014966063 0.0076008728 4289407783
-0.02169114 0.015094653 0.0072039654 4289473318
-0.019384336 0.013087887 0.0089280279 4289211688
-0.017199669 0.011793971 0.0099423276 4289211688
-0.015286122 0.011923797 0.009542753 4289342504
-0.013516065 0.012764998 0.0084379418 4289407783
-0.011458579 0.012183771 0.0087437434 4289603879
-0.0095446073 0.012313932 0.0083443159 4289734949
-0.007782191 0.013154913 0.0072413264 4290192673
-0.0061793476 0.014706187 0.0054364493 4289735204
-0.0041160323 0.014125757 0.0057413438 4289342759
-0.001887586 0.012835614 0.0067471033 4289996834
0.00051403418 0.010836281 0.0084521184 4289996834
0.0024366602 0.01096762 0.0080513367 4289538853
0.0040239394 0.012518376 0.0062500415 4289604644
0.0056006052 0.014068469 0.004451083 4289735203
0.0073397085 0.014908671 0.0033535631 4289931299
0.0094249919 0.014330458 0.0036544157 4289931299
0.011515673 0.013752706 0.0039542085 4290192419
0.01361176 0.013175443 0.0042529665 4290257698
0.015713245 0.012598593 0.0045507131 4289342249
0.017820109 0.012022279 0.0048473859 4289080363
0.019932345 0.011446424 0.0051430119 4288950059
0.021666378 0.012287006 0.0040470958 4288950058
0.023978457 0.011003941 0.0050364556 4288819244
0.025906973 0.011136934 0.0046353871 4288557358
0.028834533 0.0077328607 0.0077023571 4288687919
0.031181389 0.0064524636 0.0086847646 4288753709
0.033744071 0.0044659004 0.010357467 4288557358
0.035491455 0.005308032 0.0092592528 4288295729
0.037443962 0.0054432154 0.0088535948 4288165933
-0.029782612 0.015165821 0.0055221999 4289409568
-0.027641993 0.013864014 0.0065420689 4289408293
-0.025617946 0.013277642 0.0068526817 4289146408
-0.023978721 0.014834836 0.0050428221 4289473574
-0.022084448 0.014963038 0.0046470361 4290062369
-0.020054583 0.014377341 0.004956645 4290323999
-0.017604809 0.011650585 0.0073795794 4290258209
-0.015555937 0.011066366 0.0076853642 4289865509
-0.013501566 0.010482624 0.0079900743 4289015083
-0.011880133 0.012039199 0.0061843721 4289799973
-0.0099716522 0.012168948 0.0057860641 4289538598
-0.0083660111 0.013724688 0.003983764 4290519838
-0.0064626187 0.013854306 0.0035866741 4290193184
-0.004559122 0.013984021 0.0031896373 4289538853
-0.0023364983 0.012689058 0.0041933497 4289473318
-0.0002652742 0.012107175 0.0044950852 4289538853
0.0016465299 0.012237765 0.0040965499 4289669668
0.0032233596 0.013792116 0.0023007607 4289604644
0.0051299781 0.013922568 0.0019034687 4289997089
0.0070366636 0.014053117 0.0015062317 4289800484
0.0092945136 0.012761224 0.0025030263 4289211433
0.01120666 0.012892354 0.0021048058 4289472808
0.013480667 0.011601783 0.0030983957 4289472808
0.015581839 0.011022739 0.0033945637 4289407529
0.017688386 0.010444202 0.0036896421 4288818989
0.020367097 0.0077350289 0.0060663177 4288688173
0.022300813 0.0078681782 0.0056640105 4288622894
0.024623092 0.006581448 0.0066479528 4288557358
0.026759125 0.0060053691 0.0069372198 4288622639
0.029299766 0.0040104836 0.0086094467 4288295729
0.031654138 0.0027262941 0.0095869554 4288230194
0.034019202 0.0014429018 0.010562371 4288165168
0.035771988 0.0022876039 0.0094646858 4288165423
0.037519384 0.0031320751 0.0083681559 4288689958
-0.030153129 0.015047044 0.0029690415 4289870354
-0.02776916 0.012306586 0.0053987382 4289474593
-0.025872681 0.012434717 0.0050023263 4289670179
-0.024235893 0.013996124 0.0031962004 4289539108
-0.022477012 0.014840502 0.002096694 4290258464
-0.020452779 0.014252204 0.0024058027 4290258464
-0.018147152 0.0122323 0.0041202456 4290519839
-0.016106594 0.011645306 0.0044260956 4290519584
-0.014347117 0.012490101 0.0033267485 4289473064
-0.012592856 0.013334658 0.0022285758 4289538343
-0.010695174 0.013463657 0.0018325094 4289604134
-0.0089486875 0.014307886 0.00073610898 4289931299
-0.0072074272 0.015151888 -0.00035917386 4290520093
-0.0053147525 0.015280858 -0.00075396337 4290192928
-0.0032626428 0.014695309 -0.00044994801 4289996834
-0.00088108331 0.012681521 0.0012492929 4290258463
0.0010225698 0.012811542 0.00085244142 4289734948
0.0029263049 0.01294167 0.00045565516 4289669669
0.0048301257 0.013071917 5.893223e-05 4289408038
0.0070794076 0.011774912 0.0010541687 4289015338
0.0095148087 0.009765327 0.0027425801 4288884269
0.011788279 0.0084702 0.0037329448 4288884269
0.013711046 0.0086021572 0.0033325916 4288884524
0.01600064 0.0073083937 0.0043197172 4288688173
0.01811491 0.0067281649 0.0046115844 4288230448
0.020612024 0.0047233477 0.0062875459 4288099634
0.022742376 0.0041444749 0.0065761814 4288295729
0.024878103 0.0035660565 0.0068638334 4288230194
0.027019165 0.0029881373 0.0071504032 4288295730
0.029365025 0.0016988888 0.0081263101 4288164658
0.031923696 -0.00030118972 0.0097899167 4288099378
0.034088805 -0.0008771196 0.01007174 4288165168
0.035844322 -3.003329e-05 0.0089751435 4288100399
0.03759446 0.00081676245 0.0078797387 4288428838
-0.028393891 0.013625957 0.0014381222 4289806093
-0.026508223 0.013753332 0.0010439493 4289408548
-0.024881881 0.01531833 -0.00075667351 4289735458
-0.023001213 0.015445545 -0.00114966 4289146408
-0.021120388 0.015572879 -0.0015426036 4288950314
-0.018963885 0.014263883 -0.00053237099 4289342504
-0.016936984 0.013673775 -0.00022532325 4289473064
-0.01504771 0.013801966 -0.00061981194 4289734438
-0.013304073 0.014647953 -0.001714142 4289604134
-0.011417214 0.014776193 -0.0021079667 4289800484
-0.0095302351 0.014904536 -0.0025017448 4289996578
-0.0074893385 0.014315885 -0.0021972377 4289996578
-0.0055994615 0.014444642 -0.0025914563 4288950058
-0.0033911802 0.013139941 -0.0015913695 4289473063
-0.0013339408 0.012552697 -0.0012900457 4289604134
0.00072873384 0.011965923 -0.00098978356 4289734693
0.0031311847 0.0099471807 0.00070035737 4289080874
0.0052100495 0.0093617328 0.00099741202 4288884269
0.007639382 0.0073450282 0.0026821038 4288753453
0.0100848 0.0053295642 0.0043634707 4288753198
0.012190606 0.0047462434 0.0046552019 4288818734
0.01412126 0.0048787445 0.0042532003 4288557103
0.016235173 0.0042962506 0.0045433743 4288557103
0.018354464 0.0037142113 0.0048324978 4288361008
0.021044817 0.00098838657 0.0071935644 4288230193
0.023374107 -0.00030668825 0.0081693819 4288034099
0.025326297 -0.00017217547 0.0077633029 4288034099
0.027475066 -0.00075174123 0.0080466205 4288164658
0.029429935 -0.00061681122 0.0076401616 4288164658
0.032192521 -0.0033371076 0.0099866232 4288164914
0.033953462 -0.0024875924 0.0088904658 4288361519
0.035501748 -0.00092487037 0.0071084229 4288100399
0.037249252 -7.6010823e-05 0.0060151787 4287970605
-0.027269181 0.015810911 -0.0036035385 4289474339
-0.025396813 0.01593744 -0.0039948896 4290062369
-0.023656514 0.016784862 -0.0050872676 4289996834
-0.021516677 0.015470251 -0.00407694 4289538598
-0.019641172 0.015597284 -0.0044687213 4289538598
-0.017485004 0.014283944 -0.0034616082 4290389024
-0.015603859 0.014411572 -0.0038544103 4289734949
-0.013577003 0.013819449 -0.0035488741 4289996578
-0.011544656 0.013227798 -0.0032444037 4289604134
-0.0095068589 0.012636621 -0.0029409993 4289604134
-0.0076172128 0.01276524 -0.003335265 4289734948
-0.0055711754 0.01217483 -0.0030334173 4288819243
-0.0036786534 0.012303852 -0.003428129 4288950058
-0.0014627501 0.010995395 -0.0024328576 4288818989
0.00092824921 0.0089692026 -0.00074536819 4288949804
0.0035023354 0.0062258318 0.0016326094 4288884013
0.0057585835 0.0049204603 0.0026197201 4288753198
0.008197926 0.002897881 0.0042973654 4288753454
0.010303356 0.0023122877 0.0045874035 4288622639
0.012591861 0.0010094866 0.0055679893 4288491824
0.014530405 0.0011425167 0.0051643392 4288687918
0.016835056 -0.00015899539 0.0061417716 4288361008
0.01896473 -0.00074250251 0.0064270822 4288230193
0.021099776 -0.0013255179 0.0067113684 4287968564
0.023431238 -0.0026248097 0.0076834289 4288230194
0.025579698 -0.0032067224 0.0079651279 4287968564
0.027733501 -0.003788121 0.0082457578 4288230193
0.029693581 -0.0036528334 0.0078382147 4288098868
0.031855401 -0.0042334422 0.0081173489 4288033845
0.033613712 -0.0033819154 0.0070233913 4288033843
0.035159551 -0.001814954 0.0052451128 4287642928
-0.027774844 0.016444027 -0.006833584 4290787079
-0.02591062 0.016569979 -0.0072232569 4289277478
-0.02391414 0.01597305 -0.0069133677 4289865508
-0.021912184 0.015376624 -0.0066046044 4289604134
-0.019904744 0.01478067 -0.0062969085 4289734949
-0.017751735 0.013462767 -0.0052924943 4289538598
-0.015730646 0.012867916 -0.0049874424 4289146154
-0.01355866 0.011551507 -0.0039868369 4289211689
-0.011523966 0.010957804 -0.0036845324 4289015594
-0.0093330182 0.0096428543 -0.0026876777 4288884268
-0.0072847232 0.0090502985 -0.0023880405 4288688174
-0.0049187467 0.0070155114 -0.00070053246 4288622894
-0.0030129887 0.0071454123 -0.0010980172 4288295473
-0.00078422204 0.0058335066 -0.00010877568 4288687919
0.0012911931 0.0052432194 0.00018552039 4288491568
0.0038724542 0.0024915859 0.00255547 4288491314
0.0061362237 0.0011823326 0.0035376903 4288491825
0.0084107481 -0.00012599677 0.0045177331 4288295474
0.010521203 -0.0007134527 0.0048050536 4288361008
0.01263706 -0.0013004169 0.0050913477 4288164914
0.014758326 -0.0018869415 0.0053766398 4288230193
0.017067812 -0.003192462 0.0063497191 4288033843
0.019202508 -0.0037777945 0.0066323346 4288361009
0.021342587 -0.0043626428 0.0069139218 4288099379
0.023297161 -0.0042280629 0.006507271 4288230193
0.02525175 -0.0040933713 0.0061007096 4288165168
0.027206346 -0.0039585754 0.0056942189 4288099124
0.029160943 -0.0038236678 0.005287814 4287903028
0.0313171 -0.0044068918 0.0055665271 4287838004
0.033274349 -0.0042715669 0.0051597441 4287184439
-0.02603564 0.015039928 -0.0083464673 4289802268
-0.024039466 0.014440764 -0.0080381911 4289538599
-0.022037815 0.013842106 -0.0077310288 4289146153
-0.020030674 0.013243932 -0.007424938 4289080874
-0.017878149 0.011921622 -0.0064237309 4289276968
-0.015714813 0.010600097 -0.0054246602 4288950058
-0.013395395 0.0085552074 -0.003732753 4288950058
-0.011207744 0.0072355494 -0.0027386015 4288818988
-0.0090092868 0.0059167668 -0.0017466685 4288557358
-0.0069532692 0.0053224936 -0.001450262 4288557359
-0.004579965 0.0032816902 0.00023071747 4288361009
-0.002349101 0.0019653961 0.0012161778 4288230193
-0.00026874244 0.0013731495 0.0015077135 4288295474
0.0018170476 0.00078137964 0.0017981883 4288033589
0.0042415187 -0.0012555271 0.0034688786 4288295219
0.0065128021 -0.0025685802 0.0044461992 4288099124
0.0086228773 -0.0031583533 0.004731874 4288099379
0.010563716 -0.0030254051 0.0043275617 4288230193
0.012681939 -0.003614448 0.004611752 4288230194
0.01462556 -0.0034810752 0.0042070337 4288034099
0.016934548 -0.0047909766 0.0051769326 4288099378
0.019068919 -0.0053785294 0.0054579573 4288229683
0.021020662 -0.0052442625 0.0050518112 4287902773
0.022781745 -0.0043887421 0.0039601494 4287903283
0.024924204 -0.004975386 0.0042397603 4288231214
0.026679959 -0.0041199997 0.0031493846 4287838004
0.028827775 -0.0047060549 0.0034280457 4287577395
-0.023769643 0.010726713 -0.0070740753 4288688173
-0.021894652 0.010853536 -0.0074658836 4288557104
-0.019745421 0.0095264688 -0.0064673326 4288688174
-0.017725091 0.0089270845 -0.0061655836 4288753709
-0.015556891 0.0076015517 -0.005170879 4288557359
-0.013232794 0.0055503845 -0.0034848591 4288295728
-0.011188027 0.0049529821 -0.0031879647 4288295729
-0.0088369809 0.0029038414 -0.0015074154 4288492080
-0.0066228695 0.0015818551 -0.00052197557 4288426544
-0.0042422079 -0.00046502054 0.0011525732 4288426289
-0.0021622553 -0.0010596141 0.0014424436 4288230194
-7.686764e-05 -0.001653716 0.0017312672 4288230194
0.0020139553 -0.0022473782 0.0020190794 4288164658
0.0042766482 -0.0035654902 0.0029948112 4288230194
0.0063809827 -0.0041579679 0.0032799337 4288164914
0.0083189569 -0.0040253252 0.002876142 4288098868
0.010431442 -0.004617013 0.0031597391 4288164404
0.012549341 -0.0052082688 0.0034423359 4288165168
0.014492825 -0.0050749108 0.003037652 4288296750
0.01643635 -0.0049414411 0.0026330333 4288099889
0.018565055 -0.0055315644 0.002913598 4287904048
-0.023763854 0.0084588677 -0.0075086923 4288361519
-0.021752123 0.007856451 -0.0072069196 4288491568
-0.019461188 0.0057962015 -0.0055192141 4288295729
-0.017293606 0.0044661015 -0.0045277281 4288295729
-0.014973003 0.0024080649 -0.0028460594 4288230193
-0.012925994 0.0018084571 -0.0025513349 4287968563
-0.010873508 0.0012093782 -0.0022577159 4288164914
-0.0088155866 0.0006107688 -0.0019651558 4288491823
-0.0065992922 -0.000715442 -0.00098347291 4288426544
-0.0043722056 -0.0020408481 -3.9152801e-06 4288426289
-0.0022925772 -0.0026376471 0.00028436817 4288426288
-0.00020750612 -0.0032339618 0.00057160296 4288295730
0.00221017 -0.0052845553 0.0022337232 4288230194
0.0043114498 -0.0058795288 0.0025177542 4288165168
0.0059113428 -0.0042930469 0.00074023567 4288099378
0.0076722242 -0.0034339875 -0.00034870021 4288099378
0.0096020959 -0.0033018216 -0.00075074658 4288165423
0.011885919 -0.0046223998 0.0002176296 4288623913
0.013821244 -0.0044896081 -0.00018536486 4288363049
-0.023627039 0.0054551661 -0.0072532492 4288625953
-0.0217443 0.0055824742 -0.0076467087 4288426544
-0.019451354 0.0035158023 -0.0059643718 4288426544
-0.017281596 0.0021814629 -0.0049766558 4288360753
-0.014958989 0.00011696666 -0.0033003092 4288230193
-0.012909617 -0.00048462301 -0.0030077733 4288033843
-0.010707419 -0.0018164068 -0.002026638 4287968564
-0.0086444542 -0.0024168566 -0.0017367769 4288034099
-0.0062705949 -0.0044774264 -7.0797279e-05 4288164914
-0.0041913874 -0.0050765574 0.00021583028 4288295729
-0.002264794 -0.0049452931 -0.00018604659 4288426544
-0.00033810735 -0.004813917 -0.0005878564 4288426544
0.0017520823 -0.00541199 -0.00030320883 4288231214
0.0035155304 -0.0045507774 -0.0013912618 4288035373
0.0052737109 -0.0036898553 -0.002478091 4288298789
-0.023622062 0.0031769499 -0.0076954952 4288298278
-0.02160294 0.0025706664 -0.0073986459 4288492078
-0.019305315 0.00049770623 -0.0057221907 4288099378
-0.017269891 -0.00010725856 -0.0054285838 4287968563
-0.014945287 -0.0021781772 -0.0037576128 4288099378
-0.013038088 -0.0020487979 -0.0041558668 4288034099
-0.010836374 -0.0033849627 -0.0031779185 4288033843
-0.0089236014 -0.0032550022 -0.0035771746 4287902773
-0.00685817 -0.0038573742 -0.0032894071 4287903028
-0.0049424991 -0.0037269741 -0.0036890991 4288295983
-0.0028688461 -0.0043286085 -0.0034028366 4288165423
-0.00062921271 -0.0056616366 -0.0024323799 4288035373
0.0012947544 -0.0055303425 -0.0028335452 4287644714
-0.023617391 0.00089464337 -0.0081407521 4288036649
-0.021595906 0.00028633326 -0.0078460481 4288295729
-0.019568931 -0.00032156706 -0.007552376 4288165168
-0.017397497 -0.001664497 -0.0065716561 4287903283
-0.015215229 -0.0030066147 -0.0055930689 4288034354
-0.013166498 -0.0036126673 -0.0053037405 4287903028
-0.011112303 -0.0042182207 -0.0050154515 4287838004
-0.0093520172 -0.0033536032 -0.0061000418 4287838004
-0.007444609 -0.0032239109 -0.0064981133 4288231214
-0.0055370964 -0.0030940771 -0.0068961084 4287904559
-0.02361301 -0.0013917536 -0.0085890237 4288167208
-0.021455694 -0.0027402788 -0.0076087844 4287838258
-0.019696008 -0.0018740892 -0.0086920299 4287904049
-0.017386246 -0.0039591864 -0.0070279837 4287642674
-0.015484784 -0.0038303658 -0.0074251629 4287643185
-0.013439026 -0.0044388324 -0.0071368068 4287315763
-0.023870211 -0.0022012517 -0.010413487 4287906089
-0.02184936 -0.0028140172 -0.010121986 4287446323
-0.019959006 -0.0026861653 -0.010517016 4287184949
0.012348659 -0.039019831 -0.0079660127 4286855233
0.014672905 -0.040402882 -0.0070553324 4287117628
0.017187435 -0.042544015 -0.005486784 4287575863
0.020446952 -0.047718845 -0.0012838226 4287641143
0.0058058947 -0.038750939 -0.0099011818 4286920004
0.008274138 -0.040902309 -0.0083283279 4287183419
0.010415714 -0.041529097 -0.008078808 4287052604
0.012736727 -0.042916901 -0.007170809 4287314233
0.014891751 -0.043542504 -0.0069238856 4287576118
0.017590292 -0.04645095 -0.0047028866 4287838004
0.020310231 -0.049357772 -0.0024862234 4287969329
-0.00068617985 -0.038464122 -0.011835919 4287510328
0.0017491169 -0.040624596 -0.010261443 4287511094
0.0038741566 -0.041255124 -0.010010378 4287445049
0.0063362904 -0.043413505 -0.0084413048 4288164914
0.0084774718 -0.04404261 -0.0081934426 4288034609
0.010795239 -0.045435116 -0.0072881449 4287838258
0.012949869 -0.046063073 -0.0070429053 4287641653
0.015286423 -0.047454014 -0.006141318 4287706933
0.017633688 -0.048844054 -0.00524191 4287576374
0.020355403 -0.051759444 -0.0030321795 4287117629
-0.0048774518 -0.039561622 -0.012854916 4287379258
-0.0024616905 -0.041730218 -0.011281433 4287772724
-0.0003451556 -0.042363726 -0.011030471 4287903794
0.0019371286 -0.043763526 -0.010121459 4287772979
0.0040671565 -0.044395857 -0.0098731201 4287641653
0.0063682571 -0.045794047 -0.0089678708 4287510839
0.0085117742 -0.046425246 -0.008722106 4287838004
0.010831684 -0.047821902 -0.0078205783 4287772468
0.012988642 -0.048451863 -0.0075774547 4287903284
0.015327338 -0.049846999 -0.0066796006 4287575864
0.017676745 -0.051241226 -0.0057839104 4287641144
0.020036869 -0.052634649 -0.0048903213 4286985793
-0.010860171 -0.041555293 -0.012804983 4286854468
-0.0087630264 -0.042192854 -0.012551969 4288033078
-0.006660454 -0.042829864 -0.012300024 4287771959
-0.0047045872 -0.042696916 -0.012708241 4287772724
-0.0022841766 -0.04487174 -0.011140665 4287773489
-0.0001626499 -0.045507081 -0.010892397 4287838769
0.0018041395 -0.045373 -0.011302596 4287772469
0.0037710145 -0.045238785 -0.011712713 4287575863
0.0059034377 -0.045872994 -0.011466419 4287379514
0.0082094222 -0.047275059 -0.010565361 4287445049
0.010355316 -0.04790815 -0.010321641 4287445049
0.012506597 -0.048540667 -0.010078976 4287640634
0.015015591 -0.050708383 -0.0085290689 4287378238
0.017182972 -0.051339529 -0.0082895514 4287573568
-0.0125173 -0.045600615 -0.011589894 4287183674
-0.010703184 -0.044695713 -0.012658054 4287314999
-0.0088942982 -0.043791018 -0.013725007 4288688938
-0.006792061 -0.044430234 -0.013474641 4288688429
-0.0046843849 -0.045068957 -0.013225315 4287838004
-0.0022620149 -0.047250174 -0.011663085 4287968819
-0.0002954416 -0.047116242 -0.012073336 4287837748
0.0016711876 -0.046982177 -0.012483509 4287510329
0.0036378987 -0.046847962 -0.012893593 4287444793
0.0057699829 -0.047484376 -0.012648879 4287313723
0.0077394918 -0.047349714 -0.013059346 4287182398
0.0097090602 -0.047214918 -0.013469728 4287051584
0.01167867 -0.047080018 -0.013880035 4287116609
-0.014744844 -0.046560653 -0.013015671 4286724673
-0.012789693 -0.046428271 -0.01342413 4286921533
-0.010978226 -0.045521401 -0.0144901 4287445049
-0.0093184486 -0.04384049 -0.016211944 4288491823
-0.0069236234 -0.046030328 -0.014649058 4287838004
-0.0049680695 -0.045897402 -0.015057208 4287706679
-0.0023946129 -0.048859037 -0.012843845 4287510329
-0.00058533251 -0.047951631 -0.013908865 4287706423
0.001538258 -0.048591055 -0.01366421 4287444539
0.0033423528 -0.047683761 -0.014727952 4287378238
0.0054714307 -0.048322551 -0.014484243 4287705149
0.0072703138 -0.047415338 -0.015546696 4286920259
-0.013061713 -0.047251292 -0.015254958 4286791229
-0.010965683 -0.047895521 -0.015006768 4287117885
-0.0093030147 -0.046210073 -0.016725929 4287640633
-0.0072041117 -0.046853922 -0.016478116 4287444283
-0.0050997734 -0.047497213 -0.016231371 4287705659
-0.0028357506 -0.048915841 -0.015331922 4287378239
-0.00087483972 -0.048782296 -0.015740996 4287638848
-0.011383731 -0.04793746 -0.017489603 4286854723
-0.0094340183 -0.047805212 -0.017896743 4287247423
-0.0074842088 -0.047672808 -0.018303799 4287574333
-0.0053828768 -0.048318557 -0.018058049 4286985283
0.041238539 -0.0021236837 0.0047110049 4284640049
0.043413527 -0.0027027279 0.0049878964 4283921458
0.045814268 -0.0039960071 0.0059464788 4282483769
0.048895061 -0.0074320957 0.0089494223 4282024769
0.053583205 -0.015866727 0.016718149 4282024514
0.036979176 -0.0032828972 0.0036630929 4284573238
0.039145932 -0.0038649514 0.0039399359 4283463733
0.041532908 -0.005163759 0.0048979251 4282549813
0.043712929 -0.0057446137 0.0051721437 4281961273
0.045898248 -0.0063250363 0.0054453881 4281763138
0.048980653 -0.0097718909 0.0084397746 4281632069
0.053669091 -0.018232606 0.016188651 4281565768
0.035096511 -0.0057413355 0.0035756901 4282808639
0.03705357 -0.005605787 0.0031691287 4282286144
0.039222669 -0.0061898008 0.0034438018 4281566533
0.041397069 -0.0067733154 0.0037174728 4281501763
0.043576766 -0.0073563755 0.0039901081 4281306179
0.045761764 -0.0079389885 0.004261788 4281435973
0.048843104 -0.011396796 0.0072481697 4281632068
0.053980064 -0.021321341 0.016334575 4281631558
0.02421071 -0.0044064075 0.0010153949 4283268149
0.026154332 -0.0042723641 0.00061118975 4282679098
0.028296474 -0.0048609823 0.00088939071 4282351934
0.030645151 -0.0061717257 0.0018483307 4281893698
0.032800641 -0.0067591816 0.0021239426 4281762883
0.035168007 -0.0080684349 0.0030792169 4281566789
0.037127603 -0.0079327151 0.0026721321 4281435719
0.039510936 -0.00924059 0.0036242176 4281435719
0.041690368 -0.0098259896 0.0038952352 4281435973
0.043875091 -0.010410853 0.0041651996 4281370949
0.045845196 -0.010273941 0.0037562763 4281370694
0.049373299 -0.01518476 0.0080887498 4281305668
0.054966062 -0.026581317 0.018504601 4281305668
0.024077304 -0.0060000047 -0.00015364029 4282091834
0.026412115 -0.007316269 0.00080473535 4281829949
0.028360941 -0.0071817562 0.00039953552 4281828418
0.030309767 -0.0070471093 -5.5730343e-06 4281631813
0.032462258 -0.0076369643 0.00026901066 4281566534
0.035032794 -0.0096752122 0.0019007036 4281370694
0.037410304 -0.01098796 0.0028506266 4281566278
0.039798491 -0.012299888 0.0037984708 4281435973
0.041982934 -0.012887068 0.0040667569 4281435973
0.044172674 -0.013473742 0.0043340521 4281500998
0.046587437 -0.014783494 0.0052766325 4281435973
0.05034719 -0.020432197 0.010271394 4281500998
0.056175265 -0.032586031 0.021333952 4281305923
0.022000588 -0.0077271983 -0.00091821142 4283858218
0.023943923 -0.007593289 -0.0013224371 4281437759
0.02627822 -0.008913964 -0.00036726519 4281306944
0.02842506 -0.009506613 -9.3325041e-05 4281436484
0.030577242 -0.010098778 0.00017958786 4281566278
0.032531254 -0.009963654 -0.00022650417 4281435974
0.034897603 -0.011281691 0.00072239991 4281370694
0.037274599 -0.012598813 0.0016691564 4281500743
0.039873786 -0.014641382 0.0032901363 4281500998
0.04248897 -0.016682722 0.0049078921 4281566023
0.045336999 -0.019448683 0.007197638 4281632324
0.048425898 -0.022938736 0.010157705 4281436228
0.052652501 -0.030054338 0.016482912 4281566533
0.022057325 -0.010050088 -0.0014076615 4283660594
0.023810569 -0.0091862753 -0.0024910234 4281370949
0.02633965 -0.011240885 -0.00086098444 4281502273
0.028686818 -0.012564935 8.8370405e-05 4281567044
0.031044655 -0.013888098 0.001035546 4281501254
0.033006541 -0.013752446 0.0006278092 4281500998
0.035380393 -0.015074305 0.0015718723 4281566278
0.03839089 -0.018581159 0.004539636 4281501763
0.041216746 -0.021357618 0.0068272287 4281696838
0.044705957 -0.026317202 0.011132981 4281695818
0.047582507 -0.02908989 0.013410232 4281762118
0.051138423 -0.034044608 0.017702311 4281827908
0.055175755 -0.040452026 0.023331769 4281958214
0.019978248 -0.011778899 -0.0021728361 4284507958
0.022113718 -0.012377046 -0.0019000983 4282939963
0.024062112 -0.012242779 -0.0023053726 4281893444
0.026595857 -0.014303632 -0.00068118703 4281435973
0.028947841 -0.015631691 0.00026381109 4281370184
0.031510983 -0.017690271 0.0018820735 4281435719
0.033683874 -0.018285222 0.002147493 4281631813
0.036685307 -0.021803714 0.0051088342 4281565769
0.040755827 -0.028974302 0.011433101 4281695563
0.044457473 -0.034679838 0.016400129 4281956684
0.047987998 -0.039651789 0.020685788 4282478669
0.051122919 -0.043160565 0.023619816 4282869584
0.020031959 -0.014107928 -0.0026661372 4284639794
0.022169776 -0.014708072 -0.0023955172 4282808894
0.024120696 -0.014573656 -0.0028013317 4281762374
0.026656415 -0.016640894 -0.0011824844 4281304138
0.029208172 -0.018706933 0.00043310318 4281173068
0.031375401 -0.019304581 0.0006979676 4280976973
0.034156807 -0.022101864 0.0029813796 4281106513
0.03839891 -0.030029893 0.0099687902 4281041233
0.043324657 -0.040152773 0.018960312 4281168734
-0.013711166 -0.0052602813 -0.0089664981 4283656003
-0.011956256 -0.0043918416 -0.010046799 4283855413
0.019711882 -0.014967687 -0.0045122197 4284443699
0.022036094 -0.016306706 -0.0035682758 4282482749
0.02437102 -0.017644919 -0.0026264442 4281171029
-0.02412701 -0.0030061007 -0.01223455 4284508724
-0.022109147 -0.0036212578 -0.011944074 4282676804
-0.020221587 -0.0034936145 -0.012338534 4282350913
-0.018056963 -0.0048501715 -0.011366259 4281959234
-0.016022664 -0.0054638907 -0.011078967 4281959489
-0.014270496 -0.0045935586 -0.012157129 4281959234
-0.012230616 -0.0052066818 -0.011870837 4283596079
-0.010185275 -0.0058192983 -0.011585588 4284574003
-0.028146837 -0.0040601715 -0.013265254 4284708134
-0.026265208 -0.0039332807 -0.01365874 4282744123
-0.024253134 -0.0045511425 -0.013368798 4282221119
-0.022368517 -0.0044238269 -0.01376274 4281762373
-0.020076919 -0.0065299496 -0.012109775 4281893444
-0.018184025 -0.0064018667 -0.012505285 4281762884
-0.016009089 -0.007761918 -0.011538414 4281632578
-0.014254216 -0.0068892613 -0.012615519 4281893954
-0.012065697 -0.0082482025 -0.011651337 4283792684
-0.03239328 -0.0036126748 -0.015662694 4284118829
-0.0302759 -0.0049818233 -0.014687644 4282941494
-0.028147701 -0.0063500777 -0.013714813 4282091068
-0.026263531 -0.0062230378 -0.014108846 4281239879
-0.024379198 -0.0060958713 -0.014502831 4281305669
-0.02236196 -0.0067154616 -0.014215535 4281501763
-0.020068366 -0.0088279918 -0.012567928 4281567043
-0.01789673 -0.010192774 -0.011603762 4281567554
-0.015714277 -0.011556737 -0.010641725 4281501508
-0.013951357 -0.010681368 -0.011718883 4281697859
-0.011755321 -0.012044162 -0.010759559 4281960764
-0.042198461 -0.0035242215 -0.016885664 4284575024
-0.040442865 -0.0026485696 -0.017960772 4283595313
-0.038581159 -0.0025236979 -0.018350597 4282158134
-0.036491465 -0.003899388 -0.01737329 4282026553
-0.034624081 -0.0037739202 -0.017764147 4281764668
-0.032398801 -0.0058982223 -0.016107744 4281698113
-0.030279253 -0.0072715878 -0.015136449 4281566789
-0.02802429 -0.0093936697 -0.013486087 4281370694
-0.026134912 -0.009266302 -0.013881229 4281371203
-0.024245378 -0.0091388002 -0.014276305 4281567300
-0.022223119 -0.0097602904 -0.013991678 4281436484
-0.01992486 -0.011879005 -0.012350033 4281501763
-0.017748382 -0.01324787 -0.011390139 4281501508
-0.0157017 -0.013867311 -0.011110394 4281435973
-0.013649542 -0.014486283 -0.010831713 4281697859
-0.011591922 -0.015104756 -0.010554078 4282024769
-0.043464448 -0.010450214 -0.012828615 4284182324
-0.042110551 -0.0065589026 -0.016640974 4282678078
-0.04045796 -0.0049279109 -0.018398568 4282156093
-0.038482647 -0.0055555776 -0.018106466 4281634874
-0.036388118 -0.0069352537 -0.017133513 4281373244
-0.034399133 -0.0075617954 -0.016844125 4281306689
-0.032285582 -0.0089400485 -0.015874958 4281567300
-0.030161176 -0.010317408 -0.014908018 4281435973
-0.028274756 -0.01019036 -0.015302626 4281435719
-0.026261117 -0.010814801 -0.015018065 4281305158
-0.024371717 -0.010687329 -0.015413133 4281500998
-0.022217359 -0.012062274 -0.014452077 4281305668
-0.020052198 -0.01343634 -0.013493245 4281305923
-0.017876204 -0.014809601 -0.012536553 4281435973
-0.015970256 -0.01468055 -0.012934727 4281369928
-0.013921093 -0.015301906 -0.012657071 4281631558
-0.011866484 -0.015922777 -0.012380469 4282220609
-0.043074626 -0.015770875 -0.01054938 4282153033
-0.042023305 -0.0096020475 -0.016402505 4282284359
-0.040473368 -0.0072112978 -0.018839421 4281566788
-0.038384821 -0.0085958615 -0.017868599 4281567554
-0.036285426 -0.0099796429 -0.016899927 4281175618
-0.034291413 -0.01060804 -0.016613245 4281110339
-0.032291893 -0.011235945 -0.016327623 4281109318
-0.030286882 -0.011863388 -0.016043082 4281044039
-0.028152134 -0.013244346 -0.015081472 4281173833
-0.026260365 -0.013116851 -0.01547714 4281108299
-0.024238881 -0.013742842 -0.015195788 4281238603
-0.022211913 -0.014368355 -0.014915497 4281239369
-0.020179469 -0.014993362 -0.014636253 4280978248
-0.018279139 -0.01486484 -0.015033369 4280912459
-0.016238403 -0.015489109 -0.014755645 4280975953
-0.014192242 -0.016112871 -0.01447902 4280975188
-0.01214062 -0.016736127 -0.014203432 4281167970
-0.042891923 -0.01959791 -0.0096478704 4282543693
-0.042042073 -0.01189626 -0.016850583 4281957194
-0.040489081 -0.0094987825 -0.019283287 4281631559
-0.038398344 -0.010887556 -0.018316217 4281632069
-0.036296774 -0.012275577 -0.017351307 4281306179
-0.034300398 -0.012905993 -0.017066769 4281110339
-0.032417241 -0.012779422 -0.017460898 4281109829
-0.030291144 -0.014165394 -0.016500898 4281044548
-0.02840234 -0.014038235 -0.016896047 4281174344
-0.026386645 -0.014666952 -0.016615167 4281173324
-0.024365496 -0.015295155 -0.016335405 4281238094
-0.022338834 -0.015922874 -0.016056698 4281172814
-0.020171996 -0.01730559 -0.015104765 4280714834
-0.018131737 -0.017932162 -0.014828731 4280452694
-0.042061169 -0.014194556 -0.017301731 4281891659
-0.040397238 -0.012549765 -0.019051939 4281633088
-0.03830165 -0.013942659 -0.018089157 4281567809
-0.03619523 -0.015334643 -0.017128587 4281371204
-0.034309696 -0.015208028 -0.017523296 4281435973
-0.032068398 -0.017357476 -0.015889972 4281371458
-0.030053344 -0.017988622 -0.015610844 4281043784
-0.028032791 -0.018619277 -0.015332764 4280976973
-0.026259828 -0.017733112 -0.016404377 4280515168
-0.04208057 -0.016496919 -0.017755888 4281891913
-0.040306058 -0.015609287 -0.018826779 4281502273
-0.037984896 -0.01852905 -0.01651619 4281763649
-0.035755288 -0.020685963 -0.014885556 4281567298
-0.033740859 -0.021319605 -0.014608061 4281369163
-0.031484235 -0.023474507 -0.012982925 4281565259
-0.029453482 -0.024106778 -0.012708722 4281432914
-0.041261498 -0.024915241 -0.012808423 4282218569
-0.039355423 -0.024787612 -0.013207713 4281697603
-0.037008453 -0.027714349 -0.010909097 4281698113
-0.034752827 -0.029876135 -0.0092888214 4281696839
-0.03259654 -0.031273387 -0.0083451904 4282804559
0.028678101 -0.018846802 -0.0020945771 4279918214
0.031039752 -0.020182811 -0.0011580214 4279720078
0.034425884 -0.025195748 0.0031342357 4279326869
0.039492898 -0.036089025 0.012786998 4279457684
0.022091653 -0.018643685 -0.0040680724 4280835703
0.024620626 -0.020724602 -0.0024577901 4280114819
0.026581947 -0.020589314 -0.0028656609 4279589519
0.028346032 -0.019715808 -0.0039445194 4279326869
0.030704483 -0.021056332 -0.0030106269 4279195289
0.034289092 -0.02682256 0.0019409992 4279064218
0.039763696 -0.039223857 0.012908543 4279063964
0.019818351 -0.019637309 -0.0055073122 4281619319
0.022146888 -0.020984791 -0.0045708115 4279719314
0.024486113 -0.022331364 -0.0036364789 4279653778
0.026641659 -0.022936583 -0.0033743009 4279391639
0.028605498 -0.022801019 -0.0037826151 4279129499
0.030769065 -0.023405485 -0.0035218745 4278998429
0.034557119 -0.02992899 0.0020847246 4279063964
0.03982871 -0.041627355 0.012356068 4279260569
0.01135746 -0.019538909 -0.0070723626 4282012019
0.013655961 -0.020893268 -0.0061333138 4280505478
0.015784349 -0.02150315 -0.0058676 4279587733
0.017918117 -0.022112556 -0.0056029218 4279193758
0.020057265 -0.022721492 -0.0053392053 4278866338
0.022390623 -0.024072953 -0.004407037 4279128733
0.024543151 -0.024680674 -0.0041459687 4279325848
0.026701041 -0.025287971 -0.0038858913 4279129499
0.028864268 -0.025894724 -0.0036268644 4279195034
0.031232368 -0.027243279 -0.0027015395 4279063964
0.034824416 -0.033043809 0.0022222316 4279195034
0.03968849 -0.043292932 0.01113443 4279587734
0.0048975348 -0.019288369 -0.0090429299 4282471273
0.0068313852 -0.019156098 -0.0094459346 4281226363
0.00911057 -0.020516373 -0.0085063428 4280374663
0.011225194 -0.02112966 -0.0082395375 4279849874
0.013523173 -0.022488408 -0.0073036812 4279391128
0.015651233 -0.023100503 -0.007039547 4279128989
0.017967995 -0.02445776 -0.0061073638 4278866084
0.020295471 -0.025814079 -0.0051773414 4278800549
0.022256311 -0.025679089 -0.0055853017 4279325339
0.024025824 -0.024798937 -0.0066605583 4279128989
0.026372042 -0.026153587 -0.0057341568 4279195034
0.028925631 -0.028252132 -0.0041435924 4279260569
0.031495247 -0.030349441 -0.0025562681 4279195034
0.035293035 -0.036911435 0.003018721 4279195034
0.039548293 -0.044958211 0.0099130226 4279653014
-0.003906399 -0.016902171 -0.01263046 4282471018
-0.001829911 -0.017520949 -0.01235796 4281422204
0.00057555735 -0.019637801 -0.010742712 4279784083
0.0026682168 -0.020255238 -0.010473415 4279587734
0.0049334131 -0.021621078 -0.0095343776 4279456408
0.0068697818 -0.021488637 -0.0099379085 4279259804
0.0089786649 -0.022104613 -0.0096717179 4279259803
0.01109295 -0.022720106 -0.0094064996 4279063198
0.013212621 -0.023335084 -0.0091423541 4279063199
0.015879091 -0.026193537 -0.0068752505 4278932128
0.018017534 -0.026806958 -0.0066148192 4278604708
0.020347156 -0.028167494 -0.0056885448 4278539173
0.021933544 -0.0265375 -0.0074296668 4279194524
0.024273887 -0.027897038 -0.006505426 4279063964
0.026624929 -0.029255785 -0.0055832868 4278998173
0.029379658 -0.03210739 -0.0033339602 4279260058
0.032354925 -0.035704084 -0.00042489264 4279063964
0.035962407 -0.041538291 0.0044693444 4279587733
0.039612629 -0.047369473 0.0093548419 4280177804
-0.0078701004 -0.01873339 -0.01298288 4281685618
-0.0059530586 -0.018603019 -0.013382939 4279587989
-0.0040359199 -0.018472515 -0.013782938 4279850130
-0.0019597597 -0.019093506 -0.013512023 4279129499
0.000445012 -0.021216929 -0.011901557 4279194269
0.0027016066 -0.022587836 -0.010964122 4279194269
0.0049689561 -0.023957871 -0.010028824 4279325339
0.0069078468 -0.02382528 -0.010432888 4279391129
0.0088467896 -0.023692541 -0.010836873 4279063454
0.010960747 -0.024310268 -0.010573238 4278997918
0.013080079 -0.02492743 -0.010310665 4278997664
0.015565369 -0.02704443 -0.0087163635 4278801059
0.01806673 -0.029160239 -0.0071252626 4278866594
0.020398512 -0.030525051 -0.0062026945 4279063198
0.022364389 -0.030389696 -0.0066116978 4278998173
0.024903197 -0.03250251 -0.0050281514 4279063964
0.027458046 -0.034614138 -0.0034478055 4279129499
0.03061787 -0.0389717 0.0001184484 4279195034
0.033610754 -0.042578042 0.0030156393 4279391639
0.037033662 -0.047679834 0.0072312923 4280898434
-0.014463004 -0.016919143 -0.016297523 4279722629
-0.01241437 -0.017544806 -0.016022978 4279457684
-0.010064162 -0.019679017 -0.014406556 4279588244
-0.0078485571 -0.021057725 -0.013464268 4279653779
-0.0057755858 -0.021681361 -0.013194527 4279063964
-0.0040093251 -0.02079653 -0.014265392 4278670498
-0.0019308366 -0.02141954 -0.01399662 4278801313
0.00031450018 -0.022795737 -0.013060171 4278735269
0.0027346723 -0.024924479 -0.011457812 4278997664
0.0048374236 -0.02554547 -0.011193808 4279194524
0.0071150139 -0.026919082 -0.010263804 4279194524
0.009231247 -0.027538888 -0.010002416 4279194524
0.011352867 -0.028158225 -0.0097420737 4279325593
0.013302438 -0.02802451 -0.010148074 4279194268
0.015792381 -0.030147769 -0.0085596256 4278866594
0.018481154 -0.033021964 -0.006310225 4279062944
0.021005865 -0.035142533 -0.0047288621 4279521689
0.023734756 -0.038013682 -0.0024875896 4280177039
0.026675813 -0.041634865 0.00041188113 4280701319
-0.022729453 -0.015961505 -0.018544093 4279589519
-0.020568457 -0.017348945 -0.017594282 4278999193
-0.018396642 -0.01873558 -0.016646592 4279064218
-0.016214032 -0.020121299 -0.015701111 4279063199
-0.014305715 -0.019992016 -0.016099729 4278669734
-0.012252074 -0.020619519 -0.015827876 4278932129
-0.010045089 -0.022003271 -0.014887163 4278931874
-0.0078273341 -0.023386151 -0.013948672 4278866594
-0.0057520233 -0.024011813 -0.013681065 4278932129
-0.0039830655 -0.023124635 -0.014750861 4279063199
-0.0019022338 -0.023749672 -0.014484223 4278997664
0.00034526363 -0.025130063 -0.013551507 4278735524
0.0027674101 -0.027265199 -0.011954483 4278866594
0.0050390773 -0.028643698 -0.011026625 4278997919
0.0073214844 -0.030021302 -0.010100953 4279063453
0.009614639 -0.03139808 -0.0091773868 4279194524
0.011569347 -0.031264164 -0.0095845684 4279587989
0.013701361 -0.031884819 -0.0093279267 4279783828
0.016198609 -0.034014091 -0.0077459263 4279718294
0.019259702 -0.038405195 -0.0041793408 4280372369
0.022538133 -0.043548115 4.2734668e-05 4281093508
0.025478106 -0.047180362 0.0029341262 4282537319
-0.026260022 -0.020047374 -0.016872501 4280050049
-0.024618562 -0.018398918 -0.018614024 4279391894
-0.022855926 -0.017511085 -0.019681677 4278932894
-0.020695437 -0.018902913 -0.018735044 4279063454
-0.018250074 -0.021813191 -0.016449597 4278735779
-0.016062628 -0.023202956 -0.015508419 4278604453
-0.014006745 -0.023832671 -0.015238738 4278539173
-0.012090456 -0.023702733 -0.015638934 4278604453
-0.0098786503 -0.025090463 -0.014702562 4278866339
-0.0078064315 -0.025718652 -0.014436059 4279062944
-0.0057287775 -0.026346385 -0.014170557 4278931874
-0.0039571263 -0.025456786 -0.015239306 4279128733
-0.0017155632 -0.02684208 -0.014308751 4278866849
0.00037568808 -0.02746848 -0.014045842 4278866849
0.0027998202 -0.029610045 -0.012454115 4278735268
0.005073633 -0.030992694 -0.011530031 4279062688
0.007527262 -0.033132009 -0.009944276 4279128223
0.0098252334 -0.034512766 -0.0090250233 4279456409
0.012133937 -0.03589271 -0.0081078941 4279980179
0.014276296 -0.036514826 -0.0078550549 4281681793
-0.028614018 -0.031776696 -0.0084811673 4281031034
-0.027421337 -0.027070202 -0.012915745 4280112268
-0.026134346 -0.023128279 -0.016672475 4279849619
-0.024616193 -0.020712733 -0.019082475 4278997664
-0.022982392 -0.019060373 -0.020819049 4278801059
