# .PCD v0.7 - Point Cloud Data file format
VERSION 0.7
FIELDS x y z rgba
SIZE 4 4 4 4
TYPE F F F U
COUNT 1 1 1 1
WIDTH 795
HEIGHT 1
VIEWPOINT 0 0 0 1 0 0 0
POINTS 795
DATA ascii
-0.014760375 -0.035978474 -0.013585052 4287574333
-0.015174039 -0.036043122 -0.016107345 4287639868
-0.015030526 -0.039190955 -0.015994981 4287835709
0.003434822 0.0013602972 0.065963455 4281893699
0.0058480799 0.00014897436 0.066975489 4280264249
-0.0030031204 -0.00078934431 0.065993115 4282609229
-0.0021017417 0.0048080683 0.059755534 4281631558
-0.0015473366 0.011765115 0.052078128 4281503549
-0.00011725724 0.014632061 0.048754983 4280916284
0.0023941994 0.012731314 0.050499335 4280849984
0.0065237507 0.0040246919 0.059467643 4280133179
-0.015364245 0.0056734234 0.057452478 4281437504
-0.014118247 0.0099236667 0.05266504 4280588354
-0.011656694 0.0080124065 0.054414295 4280588864
-0.0093202032 0.006786488 0.055435278 4280784959
-0.00754866 0.0082974881 0.053556241 4281633854
-0.0062275603 0.011859268 0.049507856 4281438523
-0.0044851229 0.013368361 0.047635056 4281178424
-0.0033611692 0.017610598 0.042873465 4281308218
-0.0016505644 0.019117687 0.041007407 4281893699
0.00067881122 0.017891739 0.04203023 4281372223
0.0042990819 0.011203527 0.048819549 4281306943
0.0095998049 -0.0023079216 0.06280303 4281372479
-0.01975657 0.0043925345 0.056325704 4281828419
-0.018871762 0.010719046 0.049365081 4281176383
-0.017635643 0.014981508 0.044589669 4280850494
-0.015888423 0.016494889 0.042718858 4281437249
-0.013459608 0.014574759 0.044469938 4280460343
-0.010873482 0.011969462 0.046941042 4280981308
-0.0088408813 0.012110516 0.046516486 4281177403
-0.0072474442 0.014309704 0.043925218 4281046843
-0.0055207945 0.015822005 0.042059049 4280590903
-0.003804706 0.017333686 0.040195093 4279417393
-0.0022536367 0.019530129 0.037612904 4280069174
-8.9913607e-05 0.018984515 0.03791409 4279938103
0.0028783903 0.015014 0.041811459 4279742774
0.007666409 0.0035120025 0.053610012 4280003128
-0.020918667 0.0082281306 0.049269147 4281696839
-0.020053677 0.014572747 0.042327709 4279808054
-0.018439271 0.016779426 0.039736796 4280525368
-0.0165696 0.017607264 0.038594868 4280916284
-0.014152125 0.015679803 0.040343255 4280135474
-0.011577528 0.013064995 0.042810045 4280005679
-0.0092685558 0.011828542 0.043830037 4281047353
-0.007680025 0.014033809 0.041244827 4281046843
-0.0058095232 0.014862105 0.040103041 4281111869
-0.0042474344 0.017065704 0.037523482 4280850238
-0.0025469959 0.018580694 0.03566619 4280720189
-0.00054318458 0.018720124 0.035247941 4280589118
0.0019396469 0.016797844 0.036983185 4280784193
0.0057371333 0.0093802363 0.044453137 4280718914
0.010913529 -0.0035283044 0.057644494 4280783428
-0.020804122 0.0051821768 0.04946778 4281889363
-0.020322338 0.013621211 0.040372968 4280785468
-0.018842869 0.016525526 0.037065711 4280264249
-0.01697845 0.017355096 0.035926577 4279807798
-0.014843091 0.016802546 0.036229853 4280394808
-0.012139313 0.013487488 0.039412394 4280785978
-0.0098388232 0.012246013 0.040430814 4281111869
-0.0078196339 0.012386151 0.040009066 4281046843
-0.0062465519 0.014596954 0.037432119 4280850493
-0.0043865219 0.01542671 0.036294278 4280980798
-0.0026858076 0.016946036 0.03444026 4280980799
-0.00052532554 0.016395763 0.034738775 4281045314
0.0016406178 0.015845999 0.035036173 4280784448
0.0046226494 0.011850432 0.03891059 4280850238
0.0089553222 0.0023446381 0.048498854 4281046334
-0.020181566 -0.00064761937 0.052544996 4282280533
-0.020071171 0.0098996311 0.041304424 4280914754
-0.018848099 0.014200151 0.036561746 4281046589
-0.016980916 0.015032038 0.035423677 4280980799
-0.015118904 0.015863653 0.034286752 4281111358
-0.012980998 0.015309159 0.034587856 4281177149
-0.010407925 0.012676895 0.037041552 4281241918
-0.0082509816 0.012123883 0.037338812 4280981564
-0.0065342262 0.013648421 0.035484683 4280916028
-0.0046767816 0.014480129 0.034349035 4281046078
-0.0026706457 0.014619574 0.033930186 4280850238
-0.00066437572 0.014759123 0.033511382 4280785214
0.0011827275 0.015590418 0.032378044 4279221553
0.0036723837 0.013655633 0.034101836 4279938868
0.0073304996 0.0068833381 0.040816285 4279612213
0.013217025 -0.0088689625 0.056786887 4279612213
-0.01969137 0.0054693669 0.042945281 4281238604
-0.018853605 0.011870623 0.036054723 4280849728
-0.017253704 0.014095798 0.033481833 4280981564
-0.015394285 0.014929369 0.032347102 4278831148
-0.013540052 0.015762661 0.031213507 4278961453
-0.010975868 0.013121106 0.033662293 4278700843
-0.0086815059 0.011870556 0.034675311 4280134198
-0.006821461 0.012704507 0.033540703 4281177149
-0.004815571 0.012843817 0.033121817 4281177149
-0.0029632822 0.013677433 0.031988915 4280916283
-0.0011162013 0.014510743 0.03085722 4280459833
0.0005665645 0.016037576 0.029013783 4281372223
0.0028857626 0.014789306 0.030021969 4281763394
0.0060379282 0.01007469 0.034586955 4281046844
0.010564484 -0.00018316507 0.044833988 4281176894
-0.019183464 0.00032389164 0.045290619 4281564748
-0.018727265 0.00883919 0.036261406 4280719168
-0.017391227 0.012466535 0.032259725 4280916539
-0.015806742 0.014697202 0.029695123 4280655674
-0.014238134 0.016926814 0.027133942 4281242429
-0.011828315 0.014972851 0.028863806 4279418158
-0.0094022974 0.013020054 0.030590389 4280916539
-0.0074046776 0.013158679 0.030173142 4281046588
-0.0055577755 0.013993949 0.029043008 4281177149
-0.0037161037 0.01482892 0.027914014 4280916029
-0.0020358823 0.016359843 0.026074331 4279678768
-0.00020733476 0.017194092 0.024948224 4280460088
0.0019391216 0.01663648 0.025244672 4280655929
0.0049122386 0.012601271 0.029090818 4280330804
0.0085852593 0.005786635 0.035768736 4280200499
0.013329439 -0.0051955432 0.046689712 4280981308
-0.018677339 -0.0048431307 0.047619782 4282476373
-0.018997498 0.0078993365 0.0343161 4281175618
-0.018336535 0.015036538 0.02674986 4280460599
-0.016767651 0.017272584 0.024193499 4281242429
-0.01479467 0.017409205 0.023781169 4281243448
-0.012393542 0.015448075 0.025507849 4280917558
-0.009976197 0.013488188 0.027231164 4280331824
-0.0079867207 0.01362621 0.02681559 4281243704
-0.0061477683 0.014463067 0.025688764 4281374010
-0.0044674054 0.015998166 0.023852345 4281243194
-0.0026415922 0.016834322 0.02272835 4280982329
-0.00066227838 0.016972002 0.022315182 4280916793
0.00163991 0.0157138 0.023320235 4281113143
0.0041169599 0.013758637 0.0250316 4281700919
0.0069436282 0.010409504 0.028155576 4282027574
0.010135941 0.0056675076 0.032688804 4282092599
0.015947085 -0.0095303357 0.047816947 4282027318
-0.019135505 0.0062619075 0.03308782 4281567298
-0.018741734 0.014824927 0.024111852 4280721973
-0.017177746 0.017067064 0.021561559 4280202284
-0.015210226 0.017203268 0.021150339 4280658988
-0.012957584 0.015936684 0.022161853 4280593963
-0.010694098 0.014670923 0.023171153 4280853809
-0.0087154321 0.01480817 0.022757813 4281308473
-0.0068871118 0.015646417 0.021634851 4281374519
-0.0049108304 0.015783694 0.021222159 4281439798
-0.0029344223 0.015921053 0.020809505 4281439544
-0.00079938397 0.015358172 0.021104887 4281635128
0.0015023202 0.014095567 0.022106677 4282223923
0.0036509447 0.013533823 0.022399358 4283202613
0.0061381198 0.01157295 0.024103656 4284117554
0.0089798793 0.0082141012 0.027216166 4284248624
0.013739355 -0.0028363466 0.038080413 4284183343
-0.018878654 0.0025116205 0.033995539 4281564749
-0.018877596 0.013213858 0.02290336 4280981818
-0.017450124 0.016166545 0.01964711 4281243448
-0.015206128 0.014894858 0.020657029 4281505334
-0.013235874 0.015031308 0.020245288 4281831990
-0.010975558 0.013760969 0.021251876 4282028594
-0.0089996494 0.013898 0.020839103 4282158898
-0.0068733208 0.013332047 0.021134391 4282093873
-0.004741475 0.01276654 0.02142866 4282095148
-0.0024485178 0.011498831 0.022428721 4282486828
-0.00046141818 0.01163701 0.022013888 4283531308
0.0016867965 0.011072941 0.022304896 4284643873
-0.018622816 -0.0012515187 0.034893688 4282672724
-0.018611096 0.0094839334 0.02382436 4282353974
-0.017311737 0.013152041 0.019863777 4282684199
-0.015481196 0.013994358 0.018743381 4284385303
-0.018368013 -0.0050274655 0.035782211 4282672724
-0.018613465 0.0071583316 0.023319464 4284443443
-0.017852128 -0.010238029 0.03807519 4282411093
0.0080802441 0.010756671 -0.0092976931 4283409164
0.010540862 0.0087163225 -0.0076477956 4282623253
0.014460482 0.00087874383 -0.0005342178 4282163998
0.021001501 -0.017099403 0.016126648 4282293794
0.027676219 -0.035068035 0.032759681 4282293794
0.03222404 -0.044336185 0.041184574 4281244214
-0.0085445195 0.013216466 -0.012067834 4283856688
-0.0063242093 0.011891603 -0.011092842 4283398709
-0.0042519048 0.011296056 -0.010806223 4283137589
-0.0024970807 0.012157574 -0.011891926 4282485808
-0.00058338419 0.012290724 -0.012291368 4282093619
0.0013304055 0.012424007 -0.012690742 4281766453
0.0034137443 0.011829659 -0.012406096 4281701939
0.0049860328 0.013418429 -0.014172696 4281311023
0.0068973489 0.013551846 -0.014571313 4280594219
0.0091637224 0.012231059 -0.013605269 4280593708
0.013062455 0.004368186 -0.0065056644 4280658479
0.019031404 -0.011485286 0.008074753 4280201518
0.025674587 -0.029510207 0.024672598 4280201518
0.030757688 -0.04098779 0.035122056 4281112123
0.034399394 -0.046649367 0.040117703 4281762373
-0.012787428 0.01286152 -0.013809271 4283272994
-0.011186231 0.014455758 -0.015579244 4282358054
-0.0095956288 0.016049393 -0.017346971 4281246253
-0.0073918439 0.014718994 -0.016371842 4280723504
-0.0047014393 0.011197515 -0.013345201 4280006188
-0.0024680719 0.0098694339 -0.012376124 4281700153
-0.0005518347 0.010002755 -0.012776105 4281504823
0.0011978634 0.010866284 -0.013858909 4281373755
0.0026036948 0.013189346 -0.016305193 4280853043
0.0041655228 0.014781743 -0.018066328 4281309239
0.0057167187 0.016373456 -0.019825123 4281634363
0.0079665482 0.01504717 -0.018858977 4281568828
0.011487067 0.0086175799 -0.013134196 4281177914
0.016699739 -0.0043693408 -0.0013033897 4281242939
0.023120703 -0.02172213 0.014581401 4281242939
0.028917978 -0.036151439 0.027725819 4281307198
0.033487387 -0.045474157 0.03610282 4281372224
0.036386106 -0.048237853 0.038369548 4282021198
-0.014301665 -0.0014273152 -0.0025087502 4283852863
-0.014095046 0.0075124875 -0.01114463 4281830458
-0.012918245 0.011312962 -0.014970813 4281243448
-0.011768062 0.01511167 -0.018791374 4281047609
-0.010338295 0.01744223 -0.021238156 4281046588
-0.0083014555 0.016839776 -0.020947564 4281112124
-0.0056254715 0.013306461 -0.01792627 4279809839
-0.003083773 0.010507762 -0.015592866 4281112379
-0.0011756867 0.010640502 -0.015991163 4281307708
0.00056604668 0.011505626 -0.01707064 4281177148
0.0017951541 0.014566757 -0.020191079 4280981818
0.0031747334 0.016894639 -0.022626834 4279743793
0.0047128052 0.018489745 -0.024379563 4280589628
0.0069487654 0.017158158 -0.023413872 4280524603
0.010094505 0.012170695 -0.0190579 4280133688
0.014372565 0.0027991086 -0.010642174 4280133943
0.020016242 -0.011684328 0.0025007538 4280655163
0.026705984 -0.029813997 0.019005496 4280655163
0.032576907 -0.044281229 0.032101221 4281111869
0.035850383 -0.048515223 0.035715099 4281437758
-0.01372423 -0.0066930726 -0.00027454272 4283852609
-0.014226601 0.0059533715 -0.012314127 4281894463
-0.013491683 0.011971898 -0.018182743 4281308983
-0.012198489 0.015045345 -0.021310486 4280851769
-0.010926552 0.018117443 -0.024433697 4281698624
-0.008898057 0.017512232 -0.024143046 4281307453
-0.006389387 0.014702462 -0.02180952 4280981818
-0.0038592406 0.011894301 -0.019480387 4280786743
-0.0017983913 0.011291645 -0.019196246 4281242429
-6.4633787e-05 0.012158364 -0.0202724 4281177404
0.001325991 0.014493376 -0.022705553 4281046333
0.0028722547 0.016093273 -0.024456732 4280720443
0.0044078752 0.017692558 -0.026205663 4280655163
0.0068176091 0.015622698 -0.024565207 4280915773
0.0092434324 0.013554066 -0.022928022 4280785724
0.012779079 0.0070867017 -0.017236376 4281045569
0.01765763 -0.0045091286 -0.006824553 4281045823
0.024685772 -0.024161376 0.010996491 4281045823
0.031287335 -0.041605055 0.026763696 4281111359
0.034929462 -0.047318377 0.031719264 4281176383
-0.014502808 0.0051326454 -0.014165864 4282217038
-0.013916604 0.011906281 -0.02070282 4280981564
-0.012628153 0.01498805 -0.023822902 4279221554
-0.011208236 0.01733087 -0.02625763 4279417648
-0.0093381107 0.017460618 -0.02664827 4280330293
-0.0071517713 0.016116142 -0.025679508 4280330293
-0.0046331957 0.013298512 -0.023354655 4281046588
-0.0025833584 0.012692936 -0.023069883 4280915518
-0.00086024404 0.013561055 -0.024142161 4281045823
0.0010263436 0.013692491 -0.024535818 4280784703
0.0025701746 0.015296534 -0.026283156 4280915774
0.0042774491 0.01616393 -0.027351914 4281176128
0.0063329674 0.015559245 -0.02706787 4281110848
0.0083938688 0.014955096 -0.026784895 4281175873
0.011188589 0.011409424 -0.023804318 4281176128
0.015488304 0.001983203 -0.015436388 4281241153
0.022669317 -0.01846493 0.0030203406 4281241153
0.02961977 -0.037432559 0.020099971 4281306433
0.033817269 -0.045369051 0.027064305 4281306179
0.03650979 -0.047424741 0.02864141 4281434699
-0.014056019 0.00061515719 -0.012609954 4282150229
-0.014046364 0.010369465 -0.021855572 4280980033
-0.012907177 0.014199786 -0.02564883 4280850238
-0.01133699 0.015809204 -0.02739894 4281046588
-0.0093117952 0.0151994 -0.027110968 4281242430
-0.0074390285 0.015329428 -0.027502086 4281176893
-0.0052450895 0.013981253 -0.026538175 4281111614
-0.003203582 0.013372868 -0.026253309 4281111103
-0.0011566617 0.012765005 -0.025969537 4280980543
0.000895679 0.012157656 -0.025686797 4280784959
0.0027821921 0.012289204 -0.026080349 4281046079
0.0044948645 0.013159074 -0.027148532 4281046334
0.0062022507 0.014028706 -0.02821552 4281046589
0.0079043284 0.014898121 -0.029281352 4279352115
0.010146875 0.013554193 -0.028326841 4279743028
0.013692293 0.0070487261 -0.02266719 4279220788
0.020469349 -0.011987366 -0.0055949241 4279220788
0.027575351 -0.031750724 0.012119874 4279351349
0.03232174 -0.041923791 0.02108426 4279806013
0.035385415 -0.045460828 0.024000917 4281435464
-0.013322011 -0.0054043159 -0.009708479 4282804049
-0.013735078 0.0066061094 -0.020972146 4281371203
-0.012886435 0.01193203 -0.026115121 4280980543
-0.011313349 0.013545938 -0.027862517 4281241919
-0.0095958337 0.014417529 -0.028930645 4281307198
-0.0077258795 0.014547355 -0.029321184 4281307198
-0.0056954697 0.013935961 -0.029035807 4281176639
-0.0036596358 0.013325058 -0.028751474 4281045568
-0.001452677 0.011973627 -0.027793419 4281045569
0.00076503679 0.010623127 -0.026837545 4281045568
0.002651412 0.010754645 -0.027231084 4281111104
0.0043641403 0.011626691 -0.028297603 4280785213
0.00554239 0.014719151 -0.031380504 4280916539
0.007057447 0.016330156 -0.033114914 4279417393
0.0091070496 0.015720993 -0.03283285 4280524858
0.012452871 0.0099347085 -0.027855933 4279873079
0.018086448 -0.0047222227 -0.014844332 4279351349
0.02496543 -0.023807235 0.0021634009 4279351349
0.030636443 -0.037708707 0.01445815 4278373934
0.034653135 -0.044952676 0.020714238 4281307198
0.037536655 -0.047760434 0.022950936 4281698623
-0.013278015 0.0020855814 -0.019421283 4281891914
-0.012716535 0.0089159161 -0.025907964 4281308473
-0.011290036 0.011278637 -0.02832913 4281244213
-0.0095698014 0.01215256 -0.029396165 4281177404
-0.0081698298 0.014513649 -0.031811632 4278768164
-0.006145075 0.013899647 -0.031526707 4279288108
-0.0039520711 0.012542851 -0.030569207 4279156529
-0.0017482899 0.011186928 -0.029613867 4280719679
0.0002980642 0.010574766 -0.029333189 4281045568
0.0020080842 0.011448704 -0.030397616 4281045568
0.0035393015 0.013064913 -0.032132249 4280785469
0.0050598942 0.014680512 -0.033864569 4280590904
0.0065698177 0.016295493 -0.035594638 4281306688
0.0087953135 0.01494173 -0.034643255 4281371969
0.011584178 0.011363328 -0.03168641 4281111359
0.015894931 0.0018537715 -0.023385806 4280980033
0.021981269 -0.014323995 -0.0090866396 4280980033
0.028377434 -0.031234659 0.0058556627 4281112123
0.03333725 -0.042207852 0.015436549 4281177404
0.036796585 -0.047248147 0.019669414 4281958978
0.039091796 -0.047841378 0.019899312 4282673233
-0.012675747 -0.0031986311 -0.017207852 4282476374
-0.012696613 0.0066378862 -0.026381968 4281566788
-0.011571005 0.010499723 -0.030147323 4281179444
-0.010008037 0.01212167 -0.031885866 4281112378
-0.0086129941 0.014488891 -0.034295298 4280200498
-0.0067539066 0.014618047 -0.034683496 4280850749
-0.0022088215 0.011150137 -0.032102268 4280002873
-0.00033615157 0.011280566 -0.032493047 4280915773
0.0013659149 0.012156062 -0.033554111 4280980798
0.0028893352 0.013776071 -0.035283834 4281046334
0.0044021308 0.01539544 -0.037011199 4279613999
0.0060829781 0.016269784 -0.038067579 4280720444
0.0083025992 0.014911316 -0.037118353 4281241664
0.01071699 0.012809679 -0.035503663 4280980799
0.014267672 0.0062463582 -0.029890066 4280656439
0.019192107 -0.0055188835 -0.019621119 4280591158
0.025546424 -0.022482157 -0.0047084596 4280459323
0.031828932 -0.038693428 0.0095133446 4280915264
0.036255069 -0.0474656 0.017062757 4281436484
0.038944714 -0.049547143 0.018620651 4281696329
-0.011928815 -0.0092530549 -0.01433675 4282476374
-0.012527924 0.0036071837 -0.02618584 4281565259
-0.012003355 0.01047387 -0.032634683 4280982839
-0.010754436 0.013596244 -0.035713028 4280591414
-0.00921252 0.015221186 -0.037443802 4281371969
-0.0072017834 0.014601901 -0.03715935 4281371713
-0.0050231367 0.01323542 -0.036205489 4281045824
-0.0028337352 0.011869848 -0.03525383 4280525114
-0.00096922368 0.011999689 -0.035642922 4280981309
0.00089535862 0.012129672 -0.036031924 4280915775
0.00224052 0.014500536 -0.038425379 4280719679
0.0039213523 0.01537697 -0.039480213 4280459579
0.0055968985 0.016253099 -0.040533826 4280068408
0.0078106746 0.014889859 -0.039586678 4280198204
0.010219008 0.012781359 -0.037975766 4280393533
0.013016447 0.0091820806 -0.035037294 4280262209
0.01678659 0.001855731 -0.028780043 4280717894
0.022912525 -0.014414124 -0.014562462 4280717894
0.029934181 -0.033657372 0.0022857022 4280717894
0.035319906 -0.046183534 0.01313648 4280848454
0.038198031 -0.049017452 0.015354391 4281305158
-0.011330314 -0.014582291 -0.012157102 4281692503
-0.012806725 0.0028203875 -0.028010696 4281760333
-0.012738146 0.011958197 -0.03645736 4280916284
-0.011499319 0.015088484 -0.039526939 4279547188
-0.0098108985 0.015966766 -0.040582269 4280263738
-0.0079681128 0.016094767 -0.040967081 4280328764
-0.0058006756 0.014723204 -0.040014274 4279938103
-0.0034575053 0.012602814 -0.038395371 4280068408
-0.0016011372 0.012732111 -0.038782749 4280850238
0.00042559206 0.012112223 -0.038502961 4280915775
0.0021117702 0.012991019 -0.039557301 4280784448
0.0039683059 0.013120674 -0.039944448 4280980033
0.0056465566 0.013999201 -0.040996991 4281240899
0.0076815002 0.013380326 -0.040718518 4281175874
0.010089137 0.011265293 -0.03911246 4281240389
0.012885496 0.0076551363 -0.036182109 4281240388
0.015897606 0.0032989681 -0.032593984 4280848198
0.021625256 -0.011523858 -0.019735258 4280848198
0.028820217 -0.031572305 -0.0022639651 4280848198
0.034583278 -0.045631155 0.0098850094 4280847688
0.038051568 -0.05071602 0.014081113 4281370184
-0.012490097 -0.00097354501 -0.027152289 4282346069
-0.012865722 0.010449134 -0.037589245 4281045059
-0.011934504 0.015093267 -0.041989964 4280458048
-0.010251381 0.015973322 -0.043042533 4280980289
-0.0080951974 0.0145965 -0.042090762 4280980034
-0.0059282631 0.013220586 -0.041141182 4280849729
-0.0035857819 0.011093669 -0.039527141 4280980033
-0.0017295629 0.011222944 -0.039914496 4281045314
0.00046695024 0.0098494217 -0.038970836 4281110083
0.0023286343 0.0099793077 -0.039359152 4281109829
0.0043658242 0.0093582273 -0.039083034 4281240389
0.0060521439 0.01023943 -0.040135562 4281370948
0.0082755797 0.0088682175 -0.039197102 4281240133
0.010693192 0.0067474097 -0.037598133 4281109573
0.013126872 0.004627794 -0.036002383 4281109319
0.015954234 0.0010091513 -0.033086725 4281239623
0.021297697 -0.012357019 -0.021583132 4281174598
0.028096465 -0.03096474 -0.0054761823 4281108298
0.033847801 -0.045065425 0.0066435598 4281238859
0.037506104 -0.050915457 0.011489321 4281434188
-0.012025952 -0.0055353194 -0.025635131 4282411094
-0.012539543 0.0066756085 -0.036717668 4281825613
-0.011907157 0.01284273 -0.042444613 4280979524
-0.010221336 0.013725169 -0.043496124 4281175108
-0.0082222484 0.01309853 -0.043214221 4281305668
-0.0058938973 0.010964081 -0.041602358 4281240644
-0.0033848509 0.0080768168 -0.039328776 4281371204
-0.001356177 0.0074526295 -0.039052822 4281110595
0.00050797686 0.0075825602 -0.039441757 4281175874
0.0027174093 0.0062057003 -0.038503986 4280914499
0.0049375556 0.0048297644 -0.037568394 4280914244
0.0069904923 0.0042077303 -0.037297148 4281305668
0.0090488158 0.0035861731 -0.037026875 4281174088
0.011295792 0.0022124499 -0.036096614 4281173578
0.013739452 8.7067485e-05 -0.034507934 4281500999
0.016576421 -0.0035417005 -0.031602614 4281304138
0.021544443 -0.015441939 -0.02144935 4281304138
0.028149759 -0.033351623 -0.0060430076 4281369164
0.033703417 -0.046741612 0.0053870194 4281369164
0.037160747 -0.051857479 0.0095620491 4281499724
-0.011118062 -0.012385972 -0.022130739 4282345559
-0.011912301 0.0013751313 -0.034523349 4282215764
-0.011265241 0.0075605139 -0.040240042 4281696329
-0.0095660239 0.0084460303 -0.041292697 4281566534
-0.0075539052 0.0078181401 -0.041015182 4281305668
-0.0050511546 0.0049216971 -0.038747035 4281370949
-0.0026913881 0.0027830526 -0.037146654 4281370695
-0.0006496869 0.0021576136 -0.036875088 4281305158
0.0013974309 0.0015326217 -0.036604524 4281435974
0.0031050891 0.0024194196 -0.037658397 4281435973
0.0053327419 0.0010396317 -0.036727671 4281435463
0.0072155967 0.0011712164 -0.037120234 4281435463
0.0094593503 -0.00020716339 -0.036192726 4281566023
0.011713836 -0.0015847087 -0.035267312 4281435463
0.014164787 -0.0037160218 -0.033685207 4281435208
0.016820237 -0.0066006109 -0.031447984 4281369164
0.021790486 -0.018535249 -0.021321803 4281434444
0.027621349 -0.033480205 -0.0085844789 4281500234
0.032969687 -0.046155743 0.0021607429 4281434953
0.036019266 -0.04977984 0.0050138645 4281565514
-0.011135954 -0.0047060624 -0.031680562 4282346323
-0.010625117 0.0022569075 -0.038051531 4281630540
-0.0089125 0.003145434 -0.039105296 4281370439
-0.0068873726 0.0025163218 -0.03883221 4281435974
-0.004533723 0.00037066638 -0.037235644 4281370694
-0.002328191 -0.0010154694 -0.036304016 4281435973
-0.00011191145 -0.0024006888 -0.035374574 4281501253
0.001606416 -0.0015111491 -0.036429066 4281435973
0.003663931 -0.0021374151 -0.03616228 4281435719
0.0053770281 -0.0012480095 -0.037215497 4281501254
0.0076175518 -0.0026310533 -0.036290742 4281697094
0.009508308 -0.0024987981 -0.036684856 4281566278
0.011582024 -0.0031234846 -0.036421038 4281566023
0.013846681 -0.0045044869 -0.035501041 4281500489
0.017063357 -0.0096679404 -0.031299602 4281500234
0.021844868 -0.020880438 -0.021856712 4281435209
0.027480913 -0.035112344 -0.0098080402 4281369418
0.03223709 -0.045556463 -0.001055561 4281369418
-0.010813881 -0.0085286051 -0.030845756 4281694034
-0.0099867918 -0.0030681342 -0.03587909 4281825869
-0.0082607903 -0.0021765083 -0.036933977 4281369673
-0.0062226467 -0.0028069019 -0.036665291 4281305159
-0.0041790791 -0.0034367591 -0.036397636 4281435719
-0.0021300986 -0.0040661618 -0.036131039 4281435719
-7.5709075e-05 -0.0046950355 -0.035865456 4281435463
0.0019840933 -0.0053234622 -0.035600871 4281566534
0.0038772337 -0.0051914081 -0.035995774 4281631304
0.0055956915 -0.0042994395 -0.037048489 4281761353
0.0076636598 -0.0049269274 -0.036785327 4281631048
0.0097369999 -0.0055538788 -0.036523227 4281696328
0.011632975 -0.0054211468 -0.03691835 4281630793
0.013899777 -0.0068063065 -0.036002122 4281369164
0.017117664 -0.011984788 -0.031812601 4281239369
0.022280391 -0.024746969 -0.021085573 4281173834
0.027533913 -0.037502609 -0.010377395 4281369164
0.031897821 -0.04646042 -0.0029550157 4281303628
-0.01064337 -0.011600345 -0.030681722 4281757784
-0.0099629872 -0.0053608641 -0.036365468 4281761353
-0.0082342811 -0.0044669211 -0.037419267 4281435974
-0.0063523129 -0.0043362677 -0.037812315 4281044548
-0.0043090768 -0.0049683079 -0.037546255 4281109318
-0.0024242848 -0.0048372075 -0.037939698 4281370183
-0.00020637736 -0.0062309504 -0.037017271 4281435464
0.0018530935 -0.0068615749 -0.036754295 4281696583
0.0040898137 -0.0082537606 -0.035835601 4281696073
0.0061627254 -0.0088831484 -0.035575286 4281826888
0.0084182397 -0.010273822 -0.034660272 4281761609
0.010504585 -0.010902032 -0.034402564 4281499468
0.012596309 -0.011529736 -0.034145877 4281565258
0.014878623 -0.012918174 -0.033236176 4281369674
0.018298954 -0.018871658 -0.028407935 4281369418
0.023095937 -0.030147828 -0.019018201 4281238604
0.02797303 -0.041418187 -0.0096450737 4281238604
0.031558946 -0.047359712 -0.0048509873 4281303374
-0.010924533 -0.012383111 -0.032502845 4281690208
-0.010092508 -0.0068920776 -0.037513953 4281500234
-0.0083637647 -0.0059959665 -0.03856609 4281370438
-0.0063236132 -0.0066305399 -0.038301166 4281174853
-0.0042780451 -0.0072646067 -0.038037285 4281305159
-0.0022270605 -0.0078981668 -0.037774429 4281434953
-4.3213367e-06 -0.0092959404 -0.036856297 4281565769
0.0023981705 -0.011457317 -0.035284616 4281892678
0.0048167333 -0.013617374 -0.033716209 4281892678
0.0076000616 -0.017304465 -0.030841839 4281761609
0.010056105 -0.019461714 -0.029281028 4281565004
0.012528196 -0.021617733 -0.027723471 4281303119
0.014833979 -0.023008913 -0.026822126 4281629519
0.017520539 -0.025925942 -0.024618125 4281564494
0.020603869 -0.030367695 -0.021114862 4281630283
0.024290379 -0.037096031 -0.015664343 4282283594
0.028217997 -0.044583611 -0.0095730154 4283000654
-0.0096107312 -0.011494018 -0.036032435 4281696329
-0.0077158101 -0.011362605 -0.036428299 4281567554
-0.0058207884 -0.011231035 -0.036824074 4281239879
-0.0034432337 -0.013400979 -0.035252456 4281434953
-0.0012130812 -0.01480262 -0.034339346 4281761609
0.0011939779 -0.016970277 -0.032773703 4281826634
0.0036171079 -0.019136637 -0.031211361 4281890639
0.006570816 -0.023601197 -0.027691608 4281955409
0.0097307637 -0.028829612 -0.023525516 4282020689
-0.0080620125 -0.021502517 -0.029973073 4281691483
-0.0061378703 -0.02136907 -0.030375039 4281827909
-0.0040556751 -0.022005074 -0.030122185 4281501509
-0.0018074363 -0.023409903 -0.029216284 4281564748
0.00061486289 -0.025583081 -0.027658904 4282283084
0.0032192096 -0.028523959 -0.025451818 4281699644
0.0055077001 -0.029925682 -0.024554001 4282349638
-0.016302936 -0.023584746 0.045427859 4282275433
-0.015532076 -0.030303396 0.049070157 4281684343
-0.015154675 -0.034893364 0.05058831 4282143088
-0.014129184 -0.033844382 0.043386564 4281750643
-0.015328564 -0.041504309 0.048109591 4281881204
-0.013875306 -0.037728556 0.044191763 4281815669
-0.015732452 -0.041770875 0.045428805 4282143089
-0.014019221 -0.039440967 0.042907126 4281880949
-0.013536252 -0.030560292 0.034153044 4282471273
-0.016006127 -0.042758979 0.043447144 4282733158
-0.014295176 -0.040422723 0.040930882 4282143344
-0.013139069 -0.035166934 0.035653129 4282012529
-0.014438793 -0.042132333 0.039648328 4282470508
-0.013012424 -0.038325965 0.035761189 4281881203
-0.013289593 -0.039289966 0.033799056 4281880948
-0.012576919 -0.031803116 0.026489262 4282209134
-0.01370053 -0.039512619 0.031154111 4281881204
-0.012444042 -0.034950338 0.026604805 4281815668
-0.014378726 -0.038248569 0.027146466 4282142833
-0.012721892 -0.035889998 0.024661649 4281684599
-0.014653891 -0.039189883 0.025201332 4282928998
-0.01286282 -0.037565812 0.023404483 4281618809
-0.011917338 -0.031498507 0.0175182 4281618809
0.046931606 -0.048399903 0.025153 4282732904
-0.013140023 -0.03849832 0.021466684 4281094019
-0.011917889 -0.033899508 0.016954683 4280897414
-0.013144508 -0.040916502 0.020890858 4280961928
-0.011502355 -0.038539447 0.018424153 4281356668
-0.013421237 -0.041844018 0.018956777 4282666094
-0.011919968 -0.038713507 0.015818473 4281684599
-0.010863796 -0.033343427 0.010655221 4281881203
-0.012336798 -0.038878597 0.013219535 4281750134
-0.010861501 -0.035741128 0.010093432 4281619319
-0.010557689 -0.026613228 0.0015772972 4282013548
-0.013167635 -0.036780104 0.0086059235 4282142834
-0.011141382 -0.036640212 0.0081821401 4281750134
-0.010407388 -0.029739909 0.0017042104 4281881969
-0.01344429 -0.037674271 0.0066975038 4283190118
-0.01142085 -0.037534587 0.0062742997 4282208369
-0.0099709481 -0.034381531 0.0031669009 4281684599
-0.011699911 -0.038424365 0.0043699872 4282208113
-0.0099656321 -0.036773831 0.0026085656 4279848599
-0.010284554 -0.024549663 -0.0085148346 4281752939
-0.011978563 -0.039309494 0.0024691503 4282076534
-0.010246746 -0.03765478 0.00071152858 4279718038
-0.0099826679 -0.028426014 -0.0077162106 4281751664
-0.012537196 -0.038669914 -0.00076168589 4282534513
-0.011098906 -0.035491809 -0.0038466956 4281749879
-0.010263987 -0.029276527 -0.0095896106 4281423224
-0.01323472 -0.037254848 -0.0046476293 4283190119
-0.012091886 -0.032544851 -0.0090529602 4281684344
-0.010835607 -0.028598733 -0.01278753 4281488249
-0.012655128 -0.031864025 -0.012250727 4281946229
-0.011406101 -0.02790764 -0.01597547 4281028994
-0.011070687 -0.019370221 -0.023665389 4280637058
-0.013217226 -0.031169914 -0.015438469 4282075769
-0.011975445 -0.027203262 -0.019153381 4279980688
-0.011498515 -0.019408509 -0.026163526 4280770934
-0.012398846 -0.027253821 -0.02166223 4280177293
-0.011630621 -0.02097407 -0.027337858 4279653524
-0.010454588 -0.017000929 -0.031030566 4281687913
-0.012532242 -0.028836422 -0.022849379 4280570248
-0.011026248 -0.026390843 -0.02522734 4279390874
-0.0095361732 -0.023946188 -0.027601926 4280704124
-0.010423668 -0.03182897 -0.023132859 4282141813
-0.0083207488 -0.032466032 -0.022886341 4282469998
0.0031857342 0.013317965 0.019773893 4285820953
0.0053341463 0.012754098 0.02006501 4285886234
0.0079951249 0.010085359 0.022467472 4285886233
0.012394711 0.00040224195 0.031901237 4285820443
0.018961934 -0.017692439 0.049755573 4285820444
-0.013655871 0.014836445 0.017624091 4284969763
-0.01169093 0.01497259 0.017213508 4285492769
-0.0094309188 0.013697922 0.018216915 4285623839
-0.0070099644 0.011718854 0.019924473 4285558304
-0.0048784316 0.011151135 0.020217109 4285428254
-0.0028969198 0.011288814 0.019803353 4285428253
-0.00091528893 0.011426583 0.019389641 4285493789
0.0009056218 0.01226902 0.018271789 4285558813
0.0023942888 0.014519796 0.015747931 4285820954
0.0045317076 0.013952978 0.016039651 4285755163
0.0073499754 0.010570787 0.019140296 4285886743
0.011395764 0.0022640973 0.027149007 4285952024
0.016725227 -0.010963127 0.040054008 4285558303
-0.017447203 0.011545829 0.018658936 4285100069
-0.015755862 0.013098501 0.016833134 4285427999
-0.014075041 0.014650501 0.015009653 4285624858
-0.012260169 0.015494045 0.013894312 4285820444
-0.0097141229 0.012799188 0.016306765 4285951768
-0.0072965063 0.01081337 0.018009983 4285886488
-0.0051679723 0.010243289 0.018301509 4285493788
-0.0033445396 0.011087805 0.017184667 4285493789
-0.0015263297 0.01193206 0.01606901 4285559069
-3.4675002e-05 0.014189459 0.01354941 4285821718
0.0016043782 0.015739314 0.011735231 4285689373
0.0037307926 0.015169553 0.012027565 4285557794
0.0065373071 0.011775695 0.01512228 4285689373
0.010227356 0.004854016 0.021712992 4285689628
0.014841072 -0.0055927113 0.031791359 4285755419
0.020771915 -0.020972759 0.046747304 4285493279
-0.01758261 0.009939909 0.017454304 4285296164
-0.016586371 0.015048727 0.01210494 4285624603
-0.014776908 0.01589394 0.010992311 4285558049
-0.012828246 0.016028907 0.010585088 4285557539
-0.010291077 0.013324715 0.012992665 4285623583
-0.0078821592 0.011331744 0.014692716 4285689883
-0.0059143789 0.011468314 0.014281709 4285624348
-0.0042566806 0.013023533 0.012466706 4285559069
-0.0026095733 0.014578059 0.010654021 4285558813
-0.00081260502 0.015423115 0.0095444731 4285821718
0.001142256 0.015559178 0.0091364719 4285821718
0.0034288317 0.0142783 0.010128114 4285886998
0.0062316172 0.010873325 0.013215229 4285821463
0.0092323944 0.0067621991 0.01699549 4285821208
0.013134494 -0.00088637322 0.024259705 4285624348
0.018684039 -0.01490055 0.037789647 4285624349
0.024878185 -0.03102991 0.053388342 4285493534
-0.017854154 0.0090469792 0.015545577 4285164584
-0.017137185 0.015595887 0.0088007636 4285690393
-0.015335694 0.016442735 0.0076914076 4285886999
-0.013250925 0.01586489 0.0079885069 4285755418
-0.010573067 0.012439616 0.011092722 4285886999
-0.0083170682 0.011151724 0.012086902 4285887509
-0.0063547567 0.01128789 0.011677023 4285624349
-0.0045472383 0.012135588 0.010566819 4285558814
-0.0027449504 0.012983017 0.0094577819 4285559069
-0.00078763813 0.013119139 0.0090491809 4285558558
0.001169771 0.013255365 0.008640632 4285558558
0.0036241375 0.011259653 0.010326561 4285623838
0.005926352 0.0099756196 0.011311661 4285623839
0.0084102973 0.0079821721 0.012991574 4285558558
0.011604946 0.0031493679 0.017454144 4285559069
0.01642397 -0.0080701411 0.028172217 4285493278
0.022939596 -0.025671408 0.045130782 4285493278
-0.017409444 0.014727011 0.0069107208 4285427743
-0.015751928 0.016290288 0.0051020626 4285690138
-0.013528779 0.014995575 0.0060995892 4285690138
-0.011148065 0.012987502 0.0077953804 4285755419
-0.0089005828 0.011694655 0.0087879598 4285558558
-0.0069464073 0.01183024 0.0083797704 4285558558
-0.004837364 0.011252277 0.0086703971 4285558813
-0.003037706 0.012101717 0.0075635295 4285559069
-0.00092309341 0.011524349 0.0078531578 4285559068
0.0011969581 0.010947503 0.0081416871 4285624349
0.0034878775 0.009658277 0.0091256648 4285624349
0.0056214854 0.0090825185 0.0094115511 4285689884
0.0075897276 0.009219788 0.0090009719 4285821209
0.010251869 0.0065079555 0.011369776 4285754908
0.014520682 -0.0026113987 0.019982796 4285754908
0.02100477 -0.020269029 0.036906119 4285754908
0.0268967 -0.035070151 0.051028907 4285689374
-0.017127216 0.010995105 0.0078260545 4285362208
-0.015602633 0.013280019 0.0053190608 4285558813
-0.013662338 0.013414316 0.0049135182 4285558558
-0.011575371 0.012832344 0.0052068532 4285623838
-0.0094829351 0.012250893 0.0054990686 4285624093
-0.0073850155 0.011669926 0.0057902243 4285689629
-0.0049725175 0.00965783 0.0074745659 4285624349
-0.0030155629 0.0097937807 0.0070659257 4285624349
-0.00073869899 0.0084990337 0.0080493297 4285624348
0.00122381 0.0086355731 0.0076396894 4285624349
0.0033516623 0.0080571845 0.0079249777 4285689883
0.0049811862 0.009623833 0.006126266 4285821209
0.0069412738 0.0097605065 0.0057173632 4285821464
0.0092479847 0.0084683374 0.0066949259 4285820698
0.012797084 0.0021769032 0.012518901 4285886489
0.018537832 -0.012680426 0.026638053 4285886489
0.024934843 -0.029671542 0.042808436 4285886489
-0.016569339 0.0058122799 0.010129433 4285296674
-0.015453994 0.01026126 0.0055297539 4285493788
-0.013652161 0.01111459 0.0044253971 4285624603
-0.012001883 0.01268623 0.0026250146 4285821208
-0.010213148 0.013538852 0.0015235487 4285952534
-0.0081262402 0.012954935 0.0018153135 4285887253
-0.005570747 0.010217585 0.0041924734 4285886999
-0.0034648925 0.0096351802 0.0044804383 4285689628
-0.0013535917 0.0090532452 0.0047673341 4285624349
0.00060077757 0.0091892034 0.0043593813 4285624348
0.002225101 0.010759704 0.0025650095 4285886998
0.003838826 0.012329556 0.00077292882 4285623839
0.0056123212 0.013181984 -0.00032477267 4285492259
0.0080729052 0.011167437 0.0013450552 4285492514
0.011428405 0.0055717453 0.0064666923 4285492768
0.016075775 -0.0050348863 0.016412668 4285493024
0.022252304 -0.021364644 0.031861227 4285493024
0.028368114 -0.036969751 0.046594895 4285493024
-0.016151398 0.0013292208 0.011719499 4285032749
-0.015306033 0.0072341412 0.0057340953 4285361954
-0.013785794 0.0095317364 0.0032381099 4285624603
-0.012427609 0.012549073 4.9974769e-05 4285755163
-0.010793008 0.014124021 -0.0017437395 4285689374
-0.0088659376 0.014257655 -0.0021463223 4285689373
-0.0063219927 0.011510819 0.00022654608 4285821464
-0.0040702894 0.010205463 0.0012084413 4285624348
-0.0019673109 0.0096207857 0.0014953967 4285624349
-0.00034551322 0.011195362 -0.00029523112 4285624349
0.001265686 0.012769252 -0.0020835418 4285755928
0.0026987195 0.015061758 -0.0045606401 4285887508
0.0044562519 0.015915193 -0.0056532938 4285755674
0.0069000982 0.013892964 -0.0039850045 4285887508
0.0098867789 0.0097160339 -0.00025186501 4285952788
0.01379684 0.0019491091 0.0069187842 4285558814
0.019394102 -0.012278169 0.020271726 4285427488
0.026567135 -0.032242566 0.039104108 4285427488
-0.015861958 0.0078147575 0.0024570916 4285362463
-0.014635935 0.011564456 -0.0014212336 4285756183
-0.013144515 0.013866678 -0.0039061494 4285624093
-0.011371687 0.014722481 -0.005000988 4285426469
-0.0094527751 0.014855541 -0.0054018777 4285492513
-0.0069177188 0.012099393 -0.0030338615 4285689884
-0.0046745278 0.010789163 -0.0020535793 4285689883
-0.0028985851 0.011645585 -0.0031487532 4285558558
-0.0011278801 0.012501769 -0.0042427443 4285624349
0.00014346838 0.01552242 -0.0074055288 4285493278
0.0017282553 0.017098948 -0.0091849454 4285559579
0.0034724697 0.01795359 -0.010273169 4285625369
0.0062476918 0.014481865 -0.0072303656 4285625114
0.0090497211 0.011012122 -0.0041930676 4285493534
0.012412731 0.0053823963 0.00090032257 4285427999
0.017445199 -0.0067283586 0.0121646 4285362463
0.024402725 -0.026035309 0.030270766 4285362463
0.030574262 -0.04173167 0.044919342 4285362209
-0.016135812 0.0069579557 0.00057679601 4285230119
-0.015484184 0.013619274 -0.0060640723 4285625113
-0.014005698 0.015927017 -0.0085412599 4285821973
-0.01239467 0.017508954 -0.010323385 4285821974
-0.010189608 0.01619146 -0.0093386229 4285887763
-0.0075122938 0.012701362 -0.0062843058 4285822228
-0.005121123 0.010661848 -0.004615549 4285493534
-0.0033504739 0.011520103 -0.005707996 4285559069
-0.0017469004 0.01310198 -0.0074881315 4285624603
-0.00031845272 0.015407018 -0.0099543519 4285559069
0.0014284179 0.016263902 -0.011041541 4285428254
0.0033398718 0.016397141 -0.011440335 4285427999
0.0059415102 0.013637707 -0.0090923347 4285427999
0.0085645951 0.010879859 -0.0067487378 4285297949
0.011387002 0.0074008107 -0.0037239771 4285232414
0.015680604 -0.0018573478 0.0047753397 4284969253
0.022608899 -0.021224782 0.022842482 4284969253
0.029123927 -0.038415268 0.038827989 4285035044
-0.016268969 0.0053781569 -0.00060825795 4285361953
-0.016044654 0.014241248 -0.0093079451 4285427998
-0.014719382 0.017282195 -0.012469208 4285493789
-0.012822215 0.017413594 -0.01286567 4285558813
-0.010321073 0.014637657 -0.010504039 4285493278
-0.0079520792 0.012590028 -0.0088358019 4285493279
-0.005723238 0.011270054 -0.0078591965 4285559069
-0.0039605498 0.012129851 -0.0089482851 4285493534
-0.0022031181 0.012989454 -0.01003623 4285493789
-0.00045093149 0.013848744 -0.011122953 4285427998
0.0014629811 0.013982028 -0.01152236 4285297439
0.0033769682 0.01411543 -0.011921685 4285430039
0.0058080703 0.012072816 -0.010265794 4285168408
-0.015747383 0.010499075 -0.0084045604 4285296673
-0.014704376 0.01500804 -0.012938932 4285428255
-0.012952764 0.01586879 -0.014024379 4285231138
-0.010754053 0.014542229 -0.013045032 4285100069
-0.015308611 0.0060123205 -0.0068228133 4285033769
-0.014399178 0.011266626 -0.012036966 4284974354
