# .PCD v0.7 - Point Cloud Data file format
VERSION 0.7
FIELDS x y z rgba
SIZE 4 4 4 4
TYPE F F F U
COUNT 1 1 1 1
WIDTH 669
HEIGHT 1
VIEWPOINT 0 0 0 1 0 0 0
POINTS 669
DATA ascii
-0.010576811 0.0080673918 0.03691791 4284573238
0.0026299469 0.018632993 -0.0038904431 4284708899
0.0047250316 0.01805377 -0.0036418862 4282876724
0.0070341025 0.01675313 -0.0027142144 4282418744
0.011255512 0.0089581236 0.0043275259 4282156859
0.01788903 -0.0067688525 0.018824968 4282156859
0.026155962 -0.027535908 0.038044449 4282156859
0.031507276 -0.038195781 0.047739785 4281699133
0.034718975 -0.041640528 0.050645255 4282024769
-0.0050677173 0.016505286 -0.0032995453 4284709664
-0.0031788945 0.016647696 -0.0037320738 4283858984
-0.0014878139 0.017515108 -0.0048455684 4283269934
0.00079933926 0.016208142 -0.0039164927 4282420529
0.0020815916 0.018524617 -0.0063889078 4282354739
0.0037594661 0.01939135 -0.0074991356 4279812388
0.0058489107 0.018809639 -0.0072508524 4280201009
0.009843586 0.011713319 -0.00090164319 4280460598
0.015815303 -0.0018920153 0.01153202 4280460598
0.023835897 -0.022001028 0.030033723 4279873843
0.029814679 -0.03486573 0.041739672 4279222573
0.033671811 -0.040492095 0.046668094 4281241663
-0.016892631 0.015553854 -0.0032103488 4283662124
-0.015009683 0.015695117 -0.0036420578 4282879529
-0.012945008 0.015108183 -0.0033905597 4282093363
-0.011427835 0.016706124 -0.0051877438 4279946264
-0.009734273 0.017575428 -0.0063005178 4280855084
-0.0078563467 0.017716773 -0.0067307348 4280658989
-0.0055938028 0.016403258 -0.0057995743 4281569593
-0.0035155006 0.01581791 -0.0055507831 4281307708
-0.0016294308 0.015960209 -0.0059826039 4281242428
0.00025668368 0.016102619 -0.0064143534 4281046334
0.0015340745 0.018425234 -0.0088807233 4280589628
0.0027955286 0.020746775 -0.011343343 4281306688
0.0048740096 0.020162001 -0.01109416 4281436993
0.008223189 0.015221268 -0.0067877714 4280720189
0.013531663 0.0037504509 0.0035923547 4280329274
0.021087432 -0.014970601 0.020704892 4280329018
0.027906036 -0.030779138 0.035087623 4280329018
0.032626294 -0.039325848 0.042704038 4281110848
0.035616767 -0.042066902 0.04491904 4281694543
-0.016328428 0.011078045 -0.0016148947 4282091833
-0.015328869 0.014873534 -0.0054595359 4281766198
-0.01381151 0.016475655 -0.0072535216 4281505078
-0.012488812 0.018807426 -0.0097259209 4280851513
-0.010808479 0.019677915 -0.010834008 4281112123
-0.0083757341 0.017628565 -0.0092221331 4279158568
-0.0059269816 0.015580557 -0.0076138917 4280592179
-0.0040464178 0.015722327 -0.0080445446 4281242428
-0.0025605932 0.017322764 -0.0098307896 4281111103
-0.00088531896 0.018193439 -0.010937288 4281111104
0.00037923828 0.020521615 -0.013395771 4279025203
0.0020386167 0.021391302 -0.014498474 4280589118
0.003692694 0.022260718 -0.015599871 4281110848
0.006816335 0.018031895 -0.011976408 4280589628
0.011038698 0.010165215 -0.0049892329 4280133688
0.017479766 -0.0049757212 0.0087205004 4280133688
0.024907252 -0.023018748 0.025096625 4279938103
0.031361066 -0.037414216 0.038080659 4280915263
0.035233267 -0.043074146 0.042979348 4281566534
0.037108101 -0.042187147 0.041828122 4282153289
-0.016293522 0.0087842047 -0.0020753634 4282154308
-0.016183365 0.016255282 -0.0093151182 4281374008
-0.015038859 0.019326314 -0.012463203 4280981818
-0.013915554 0.022395913 -0.015606381 4281437760
-0.011880666 0.021802638 -0.015351245 4281241153
-0.0094619542 0.019745678 -0.013741115 4281176639
-0.0068353601 0.016958222 -0.011457153 4280459323
-0.004965581 0.017099157 -0.011885352 4281045824
-0.0032929331 0.017971694 -0.012989687 4280915009
-0.0018254332 0.019575201 -0.014768366 4280915009
-0.00016602129 0.020446964 -0.015869504 4280262973
0.0012829155 0.022049356 -0.017643791 4279676729
0.0031369105 0.022189666 -0.018067943 4280459834
0.005622413 0.020138673 -0.016472405 4280394554
0.0096159726 0.012977123 -0.010172358 4280589373
0.014741808 0.0021693632 -0.00052450504 4281176385
0.021695254 -0.014471173 0.014476163 4281176385
0.029434461 -0.03329131 0.031461254 4281176385
0.034402613 -0.042617753 0.039702829 4281241154
0.037175324 -0.044646174 0.041233227 4281631558
-0.016083267 0.0057510734 -0.0018593506 4282543439
-0.016857844 0.016919754 -0.012478735 4280980798
-0.015901703 0.02073383 -0.016296878 4279548464
-0.014604684 0.023076717 -0.018753512 4280329274
-0.012578107 0.022480626 -0.018498126 4280524093
-0.0099791028 0.019682214 -0.016214494 4279742264
-0.0071670711 0.016151458 -0.013259823 4280132668
-0.0051057525 0.01555834 -0.013012134 4280915009
-0.0038270392 0.017900355 -0.015464108 4280914754
-0.0023646094 0.019507885 -0.017238358 4280914753
-0.00071045756 0.020381417 -0.018336657 4280914498
0.00093840808 0.02125467 -0.019433655 4280980289
0.0027896017 0.021394785 -0.019857151 4281110849
0.0050613992 0.020069689 -0.018937415 4281241409
0.0081956759 0.015815623 -0.01533604 4281241153
0.012224328 0.0086350739 -0.0090604164 4281175873
0.018707184 -0.0065939575 0.0045705629 4281175873
0.027511103 -0.029132992 0.024867732 4281175873
0.033349581 -0.041416205 0.035767585 4281306434
0.036563411 -0.044914961 0.038631547 4281371204
-0.015873756 0.0027094707 -0.0016495483 4282608719
-0.016996544 0.015385903 -0.013600662 4281241153
-0.016401242 0.020685077 -0.018764155 4280981564
-0.014925573 0.022297222 -0.020538624 4280459834
-0.012901999 0.02169871 -0.020284215 4280524349
-0.010495398 0.019627772 -0.01868121 4280524349
-0.0078813061 0.016821899 -0.016407548 4281045313
-0.0058283024 0.016225964 -0.016159609 4280980289
-0.0039667226 0.016366385 -0.016585847 4281045313
-0.0025040358 0.017978266 -0.018356873 4281045314
-0.00084982067 0.018853985 -0.019453533 4280914753
0.0010038726 0.018994167 -0.019877695 4280914753
0.002857592 0.019134477 -0.020301776 4281045313
0.004921414 0.01854004 -0.020055793 4281111359
0.007416077 0.016476788 -0.018472156 4280720699
0.010572936 0.012211539 -0.014885785 4280590394
0.0163786 -0.00086221099 -0.0032886334 4280916284
0.024928803 -0.02273719 0.016297428 4280916284
0.031628005 -0.037995234 0.029844534 4280981309
0.035726264 -0.044440925 0.035370167 4281371968
0.038271382 -0.0457488 0.036224827 4282150738
-0.014963675 -0.0032992437 0.0012593274 4282411348
-0.016601264 0.011634 -0.012695324 4281564493
-0.016538657 0.019166835 -0.019874627 4281046079
-0.014879435 0.020044301 -0.020971399 4281111358
-0.012853537 0.019443773 -0.020719176 4281176383
-0.010633629 0.018105097 -0.019794807 4281241664
-0.0085943118 0.017505825 -0.019545479 4281306688
-0.006549634 0.016907066 -0.019297294 4281306433
-0.0043029748 0.015570752 -0.018378789 4281241408
-0.002444163 0.015711069 -0.018804314 4281045824
-0.00098915771 0.017326854 -0.020570189 4281241919
0.0010689683 0.016729578 -0.020324728 4281111614
0.0027179718 0.017607316 -0.021418365 4281046078
0.0043616667 0.018484756 -0.022510717 4279808819
0.0060000494 0.019361898 -0.023601761 4279418414
0.0089243967 0.015818924 -0.020688483 4279613743
0.014054058 0.004913643 -0.011115576 4279613743
0.022130406 -0.015556559 0.0070966291 4279613743
0.029462894 -0.033071183 0.022613486 4279808818
0.034212805 -0.041745976 0.030124433 4279547189
0.037426926 -0.0452663 0.032971952 4281500234
-0.015673745 0.0056442916 -0.0097770384 4281367378
-0.016134705 0.015424527 -0.018964434 4281045313
-0.015016757 0.018528506 -0.022080043 4281047099
-0.01280544 0.017184757 -0.021157127 4280916284
-0.011337094 0.018805258 -0.022923175 4280525368
-0.0094971769 0.018943816 -0.023344629 4279092014
-0.0074634701 0.018342055 -0.023095576 4280069428
-0.0048351996 0.015520066 -0.020838179 4280981054
-0.0027827919 0.014919952 -0.020593233 4281241664
-0.0011284649 0.015800022 -0.021686625 4281241664
0.00052057579 0.016679801 -0.022778727 4281176639
0.0021643154 0.017559305 -0.02386952 4280850494
0.0035930462 0.019177802 -0.025625831 4280785979
0.0054358654 0.019317508 -0.026047247 4281241408
0.007923726 0.017240807 -0.024471847 4280525114
0.012168899 0.0092564076 -0.017580342 4279287088
0.01911654 -0.0075846314 -0.0027298592 4278505513
0.026855461 -0.026630953 0.014084017 4278505513
0.032927435 -0.039762393 0.025561303 4278960179
0.03704033 -0.046246007 0.031054016 4281370184
0.039353304 -0.046824872 0.031240515 4282018903
-0.014926169 0.00037245452 -0.0075502926 4281629263
-0.01573189 0.011669397 -0.018063622 4281436994
-0.014788229 0.01552619 -0.021845927 4281113144
-0.013128817 0.016408116 -0.022939375 4281112888
-0.010207534 0.019656815 -0.026461305 4280134198
-0.0079885982 0.018309571 -0.025543142 4279287599
-0.0053665824 0.015478402 -0.023290897 4279287599
-0.0029221214 0.013391234 -0.021711087 4281046334
-0.0014692545 0.015015498 -0.023469858 4281242174
0.00017717853 0.015897267 -0.024559708 4281176384
0.0014046431 0.018262036 -0.026979869 4279808054
0.0028256662 0.019884251 -0.028731076 4281045824
0.0044482015 0.0207646 -0.029815244 4281371458
0.0071394909 0.017939493 -0.027578233 4281175874
0.010504464 0.012893632 -0.02335589 4281111104
0.016107934 0.00044456124 -0.012514486 4280980799
0.023361329 -0.017180525 0.0029414291 4280980799
0.030967759 -0.035535917 0.019029785 4280850494
0.036197938 -0.045740947 0.027817648 4280849984
0.038733348 -0.047062442 0.028664771 4281435208
-0.014180534 -0.0049209818 -0.0053393468 4282281299
-0.015510291 0.0086472854 -0.017842516 4281892678
-0.015291285 0.015497848 -0.024296666 4280916028
-0.013822503 0.017126963 -0.026056314 4280396084
-0.012364294 0.018755421 -0.027813504 4281045569
-0.010725975 0.019638158 -0.028900307 4281306689
-0.0087062381 0.019030996 -0.028651351 4280719933
-0.0060931444 0.016190447 -0.02640366 4280915519
-0.0036573969 0.014096051 -0.024826756 4281045824
-0.0020109415 0.014979914 -0.025915103 4281241665
-0.00057374686 0.016607463 -0.027666898 4281110593
0.00064620376 0.018978186 -0.030080395 4280393278
0.0020595044 0.020604156 -0.031826556 4279481398
0.003886085 0.020742644 -0.032244243 4280067898
0.0065711103 0.017908365 -0.030012384 4280394044
0.009711938 0.013589814 -0.026461791 4280002874
0.013764368 0.0063025355 -0.020273797 4280329274
0.020095844 -0.0084066764 -0.0074923672 4280654144
0.028110342 -0.028304465 0.0098843668 4280654144
0.034445174 -0.042253643 0.021953832 4281045314
0.037653089 -0.045806915 0.024778184 4281565004
-0.013614025 -0.0094877928 -0.0038134719 4282149719
-0.015289437 0.0056166947 -0.017627614 4282150994
-0.015611004 0.014730774 -0.026072709 4280847944
-0.014700126 0.018606901 -0.029830916 4279350073
-0.013064463 0.019491479 -0.030915555 4280393789
-0.011243582 0.019628577 -0.031332672 4280980033
-0.009229511 0.019018799 -0.031084074 4280524093
-0.0068184771 0.016915925 -0.029506596 4280002874
-0.0043914504 0.014814347 -0.027932646 4280849729
-0.0029540174 0.016446158 -0.029681278 4280980034
-0.0013234392 0.017331101 -0.030764265 4280980034
9.5427036e-05 0.01896172 -0.032508492 4280849473
0.0015036762 0.02059168 -0.034250185 4281045313
0.0033247955 0.020729728 -0.034666643 4280914753
0.00600354 0.017886326 -0.032439969 4281175618
0.0089206323 0.01429943 -0.029557874 4280980033
0.012523489 0.0084796473 -0.024703098 4280979778
0.017725553 -0.0025503635 -0.015245374 4281045059
0.025707889 -0.022509336 0.0020943047 4281045059
0.032695241 -0.038735285 0.016112637 4281045058
0.036804825 -0.04527773 0.021561764 4281109573
0.038865048 -0.045120448 0.021091454 4281955664
-0.01234109 -0.017073408 0.00037050899 4282017373
-0.014530379 0.00032702088 -0.015417665 4282151248
-0.015930295 0.013968341 -0.027845362 4281175109
-0.015391167 0.01935482 -0.032926664 4280916029
-0.014138684 0.021740217 -0.035338372 4280459323
-0.01195066 0.020377468 -0.034423105 4280329274
-0.0099449009 0.019764878 -0.034174256 4280328764
-0.0069557764 0.015407816 -0.030609431 4280849984
-0.0049260072 0.014797233 -0.03036586 4281110083
-0.0032927357 0.015684456 -0.031447895 4281110339
-0.0016647503 0.016571321 -0.032528605 4281110594
-4.2051077e-05 0.017457932 -0.033607997 4281110594
0.0015753396 0.018344261 -0.034686085 4281306434
0.0038220696 0.016986936 -0.033783589 4281371204
0.0062936507 0.014882915 -0.032224223 4281305923
0.0089980438 0.012032837 -0.030009868 4281174853
0.011943223 0.0084373206 -0.027142335 4281305923
0.016914625 -0.0018789396 -0.018364685 4281371204
0.024883393 -0.021897629 -0.0010663546 4281371204
0.032085676 -0.038918935 0.013574757 4281110339
0.036187969 -0.045481473 0.019010756 4280979269
0.038242713 -0.045324624 0.018541686 4281498704
-0.011424866 -0.023188576 0.0031970018 4281886559
-0.013593808 -0.005736649 -0.012557982 4281824084
-0.015520707 0.010201856 -0.026955159 4280912458
-0.015711434 0.018612191 -0.034684047 4280980798
-0.014461156 0.021003928 -0.037090313 4281371969
-0.012086246 0.018885009 -0.035514571 4281175874
-0.0096953399 0.01676739 -0.03394242 4281307453
-0.0068976395 0.013148777 -0.031050196 4281240898
-0.0048655607 0.012536243 -0.03080884 4281370693
-0.0030288585 0.012674987 -0.031229232 4281305669
-0.0013954975 0.013564453 -0.032309506 4281306179
0.00043860078 0.013703272 -0.0327291 4281371713
0.0026900955 0.01234185 -0.031831067 4281306943
0.0045295283 0.01248128 -0.032251716 4281241153
0.0070110001 0.010371506 -0.030699542 4281175619
0.0090750717 0.0097622424 -0.030464856 4281240133
0.012021756 0.0061559603 -0.027605915 4281239369
0.016770869 -0.0034415796 -0.019506959 4281239368
0.024509395 -0.022770368 -0.0029069646 4281239368
0.031704225 -0.039842203 0.011698004 4281238604
0.03580188 -0.046424657 0.017120235 4281368399
0.038086429 -0.047016412 0.01730518 4282149719
-0.01283884 -0.011071667 -0.010381196 4281888344
-0.014930349 0.0056681484 -0.025411045 4282151504
-0.015477564 0.015611678 -0.034450088 4280848453
-0.014034286 0.017256349 -0.036190659 4280848453
-0.011652138 0.015131466 -0.034621514 4281240388
-0.0092540085 0.013007931 -0.033055995 4281305668
-0.0066446774 0.010132305 -0.030833783 4281305668
-0.0044097789 0.0087648034 -0.029935608 4281240644
-0.0025652424 0.0089041516 -0.030357787 4281044549
-0.00051749498 0.0082908124 -0.030121444 4281175619
0.0015355796 0.0076780617 -0.029886257 4281371968
0.0035939738 0.0070658177 -0.029652221 4281502529
0.0054465532 0.0072062612 -0.030075869 4281240644
0.007512942 0.0065948814 -0.029843446 4281305924
0.010017585 0.0044804513 -0.028301423 4281305414
0.012538161 0.0023673624 -0.026762949 4281239369
0.01729247 -0.0072579905 -0.018686622 4281369419
0.024360267 -0.02438961 -0.0040905788 4281369419
0.031550303 -0.041511804 0.01047764 4281238348
0.035416231 -0.047363192 0.015233219 4281041743
0.037697747 -0.047957316 0.015417147 4282345558
-0.012622997 -0.014157966 -0.010207053 4282214744
-0.014341548 0.0011171922 -0.02387953 4282411094
-0.014691327 0.010333613 -0.032239124 4281827144
-0.013234511 0.011983626 -0.03397952 4280913733
-0.011029515 0.010609165 -0.033078052 4281044549
-0.0084291436 0.0077240467 -0.030860476 4280914754
-0.0061974749 0.0063517839 -0.029964909 4281044548
-0.0039551444 0.0049804896 -0.029071731 4280979269
-0.0021027848 0.0051204264 -0.029495696 4281240644
-4.7422945e-05 0.0045055598 -0.02926277 4281305924
0.002013281 0.0038911328 -0.029030956 4281305668
0.0042875968 0.0025227517 -0.028144719 4281436484
0.0059397109 0.0034183636 -0.029225713 4281436228
0.007800119 0.0035595223 -0.029651066 4281435974
0.010309309 0.0014389679 -0.028115055 4281435209
0.013053369 -0.0014340356 -0.025929408 4281369419
0.0178129 -0.011087269 -0.017875616 4281238604
0.024435414 -0.026761934 -0.0046219993 4281238604
0.030942615 -0.041674793 0.0079548657 4281173068
0.034801453 -0.047544077 0.012698907 4281238604
-0.01375429 -0.0034509301 -0.022360586 4282410838
-0.013722859 0.0042753667 -0.02938446 4281694543
-0.012623522 0.0074476749 -0.032442998 4281369928
-0.010408439 0.0060696155 -0.031547144 4281174344
-0.0079905279 0.0039344877 -0.029995985 4281108808
-0.0057514422 0.0025584847 -0.029105444 4281239368
-0.0035016797 0.0011833608 -0.028217213 4281174088
-0.0018416122 0.0020812303 -0.029298771 4281369928
0.00042149052 0.00070741773 -0.028413439 4281304903
0.0022843741 0.00084839016 -0.028839635 4281239623
0.0043553673 0.00023275614 -0.028611761 4281500743
0.0062209368 0.00037419051 -0.02903837 4281500743
0.0082999095 -0.00024057925 -0.028812123 4281434699
0.010816334 -0.0023671314 -0.027282653 4281434699
0.013348693 -0.0044923574 -0.025756743 4281434699
0.01788938 -0.013417862 -0.018375892 4281369164
0.02406209 -0.02762717 -0.0064571258 4281303883
0.030335763 -0.041828692 0.0054387343 4281303883
0.033958152 -0.046960756 0.0095220692 4281759823
-0.013349909 -0.0072752908 -0.021512724 4281888088
-0.013308682 0.00047345459 -0.028522409 4281694289
-0.012200724 0.0036550984 -0.031576343 4281369419
-0.010356799 0.0037939027 -0.031998754 4281304138
-0.0079369769 0.0016523898 -0.030452972 4281304649
-0.0055011697 -0.00048775971 -0.028910743 4281369673
-0.0032466501 -0.0018668398 -0.028026938 4281369673
-0.0013813004 -0.0017259121 -0.028453875 4281304138
0.00048407167 -0.0015848577 -0.028880723 4281238603
0.0025546923 -0.0022028238 -0.028654503 4281173323
0.0046306625 -0.0028202832 -0.028429361 4281369419
0.0067119375 -0.0034371987 -0.028205391 4281434699
0.0087985341 -0.0040535629 -0.027982539 4281435719
0.011538036 -0.0069444031 -0.025809092 4281434954
0.014298785 -0.0098335221 -0.02364043 4281499724
0.018850194 -0.018784247 -0.016281756 4281434443
0.024584543 -0.031518675 -0.0056938175 4281434443
0.029729728 -0.041973501 0.0029291776 4281433678
0.03311608 -0.04636398 0.0063550626 4282085968
-0.013308924 -0.0095863044 -0.021987941 4281625949
-0.013446998 -0.0010525435 -0.029638495 4281629519
-0.012151945 0.0013750717 -0.032030314 4281499978
-0.010116424 0.00075156987 -0.031798258 4281238858
-0.0075002871 -0.0021584481 -0.029604042 4281304649
-0.0052516684 -0.0035424232 -0.028722268 4281434954
-0.0029923767 -0.0049255267 -0.027842799 4281434699
-0.00072243437 -0.0063076466 -0.026965721 4281238093
0.0013557896 -0.0069273189 -0.026742974 4281303373
0.0036443919 -0.0083078295 -0.025869932 4281238349
0.0061513111 -0.010448456 -0.024348481 4281172303
0.0084638521 -0.011826903 -0.023480723 4281433678
0.01078701 -0.013204366 -0.022615338 4281825613
0.013336468 -0.015341453 -0.021103296 4281759569
0.016120177 -0.018237479 -0.018946428 4281693523
0.020471957 -0.026452556 -0.012260118 4281431894
0.025105812 -0.035422981 -0.0049398751 4281430874
0.029577112 -0.043628678 0.0017193449 4281887069
-0.013449229 -0.01113604 -0.023121435 4281690973
-0.013401687 -0.0033434033 -0.030099683 4281695309
-0.011731077 -0.0024388134 -0.031179246 4281630793
-0.0094990321 -0.0038286746 -0.030297106 4281630794
-0.0066816695 -0.0075111389 -0.027458854 4281762629
-0.0042261072 -0.0096627921 -0.025931053 4281435973
-0.0015577041 -0.012577266 -0.023755176 4281434699
0.00073295459 -0.013962232 -0.022886094 4281368398
0.0036407895 -0.017637335 -0.020068154 4281629518
0.0061655529 -0.019783311 -0.018555777 4281629263
0.0093287341 -0.024217844 -0.015099419 4281629008
0.011683214 -0.025597401 -0.014244581 4281954898
0.014261147 -0.027738944 -0.01274406 4282020179
0.01663954 -0.029116437 -0.0118945 4282477904
-0.011889692 -0.011776641 -0.025339417 4281626713
-0.010009084 -0.011635207 -0.025770333 4281760589
-0.0073736422 -0.014561236 -0.02359378 4281824593
-0.0049082451 -0.01671885 -0.022073228 4282020944
-0.0022328533 -0.019641623 -0.019905629 4282674509
0.00046382472 -0.022562645 -0.017742796 4282804558
0.0031817891 -0.025481947 -0.01558475 4282738768
-0.0098316744 -0.022557467 -0.018653283 4281951839
-0.0073618181 -0.024721488 -0.017138867 4282149208
-0.0048759766 -0.026884146 -0.015628068 4282214488
-0.017212722 -0.011523329 0.052285485 4279783573
-0.018307131 0.0020764545 0.038452268 4280505733
-0.017969314 -0.019753389 0.057848714 4281815158
-0.018175069 -0.0096571669 0.047541022 4279325083
-0.017963286 -0.022169851 0.05730357 4282404719
-0.017677922 -0.014179744 0.04912024 4279521689
-0.018603142 -0.0012089014 0.036048897 4281357178
-0.01669706 -0.020863228 0.052784458 4278603434
-0.017435834 -0.0085658357 0.040436357 4282208369
-0.015395816 -0.029010572 0.057821609 4280241808
-0.015614819 -0.018823661 0.047586292 4280374153
-0.014904823 -0.033602439 0.059350029 4281749623
-0.0142905 -0.02697771 0.052611761 4281553784
-0.015059937 -0.035327129 0.058088273 4282273904
-0.013624918 -0.0322873 0.054833446 4281881204
-0.015375946 -0.036328211 0.056133963 4282340204
-0.013779324 -0.034002937 0.053578343 4281750389
-0.0156915 -0.03732457 0.05418307 4282536809
-0.014260527 -0.034267627 0.050942283 4281815669
-0.01368105 -0.027586602 0.044256624 4282208878
-0.014740873 -0.034523249 0.048312929 4281815669
-0.013335697 -0.031459413 0.045084748 4282012018
-0.015057344 -0.035499416 0.046377536 4282273904
-0.013488509 -0.033156589 0.043843176 4282077554
0.040513895 -0.043920502 0.04597412 4282014058
-0.01521055 -0.037202798 0.045131367 4282666349
-0.013641268 -0.034853414 0.042601842 4281815669
-0.013096668 -0.028116152 0.035968743 4282077553
-0.015201073 -0.03963998 0.044569623 4282863464
-0.014124554 -0.035082154 0.03999361 4281619063
-0.013079803 -0.030526616 0.035425026 4281619318
-0.014937166 -0.033829682 0.036028147 4281946994
-0.013398774 -0.031469449 0.033515666 4281488249
-0.01272824 -0.025431886 0.027603231 4282732904
-0.015583262 -0.033297643 0.032756113 4282339439
-0.01405241 -0.030931413 0.030250262 4280439689
-0.012877796 -0.027090564 0.026389878 4281487993
-0.014370099 -0.031860471 0.02835096 4280635274
-0.01268727 -0.030229047 0.02653183 4281422204
-0.014353033 -0.034269691 0.027808152 4281487484
-0.012667317 -0.032633692 0.025991645 4281553274
-0.011854481 -0.027288146 0.020801032 4282471528
-0.014837209 -0.034449086 0.025237609 4282339183
-0.012986932 -0.033553571 0.024099855 4281619063
-0.011658702 -0.030425616 0.020942243 4281750134
-0.015320536 -0.034619361 0.022673661 4282797418
-0.013644956 -0.032975465 0.020866042 4281880693
-0.012151983 -0.030585781 0.018388798 4281553529
-0.014132526 -0.033132717 0.018313183 4282666859
-0.012816299 -0.029988334 0.015171519 4280570248
-0.012044847 -0.024600103 0.010025067 4281030013
-0.014450241 -0.034031913 0.016436504 4283190374
-0.012964357 -0.031629786 0.013970779 4281159808
-0.011668663 -0.028478101 0.010840451 4281226873
-0.012940887 -0.034023911 0.013437552 4281750134
-0.011293616 -0.032368839 0.011646429 4281619318
-0.013260338 -0.034911774 0.011569962 4282077553
-0.011615489 -0.033252552 0.0097826738 4280898689
-0.011040781 -0.027065337 0.0040109963 4280898943
-0.014092635 -0.033522859 0.0077134571 4282273394
-0.012631908 -0.031102896 0.0052683628 4281094784
-0.01171625 -0.026413158 0.00083835656 4281357179
-0.01381987 -0.028171726 0.00010838918 4281881203
-0.012566719 -0.024988353 -0.0029857731 4281422968
-0.014658723 -0.026737064 -0.0037116015 4281880948
-0.013415553 -0.023545757 -0.0067968941 4281029759
-0.013265543 -0.015789092 -0.013831694 4281426539
-0.015322812 -0.026048303 -0.0068598627 4282928233
-0.014086973 -0.022848867 -0.009936912 4280373898
-0.013586175 -0.016597643 -0.015638892 4280374664
-0.014581557 -0.022904322 -0.012410609 4280635784
-0.014084648 -0.016635992 -0.018098591 4279719059
-0.014899906 -0.02371864 -0.014222821 4280832134
-0.013870012 -0.019736134 -0.017934507 4279129498
-0.012866601 -0.015755482 -0.021640034 4281295213
-0.014516961 -0.027608573 -0.013418486 4281880693
-0.01312251 -0.025154337 -0.01581859 4280178058
-0.011563409 -0.023470797 -0.017562931 4280769149
-0.015028004 -0.038686514 -0.01908849 4282469999
-0.019380685 -0.038828887 -0.030817166 4280373134
-0.0060441457 -0.037826896 -0.033873819 4281750133
-0.020032529 -0.038004957 -0.033866584 4281618043
-0.02385335 -0.035593472 -0.042526748 4282274668
0.0038437918 0.0093512312 0.036337763 4285164329
0.0054376014 0.010898769 0.034480564 4285754908
0.007821586 0.0096514225 0.03542709 4285885724
0.01204199 0.0021198019 0.042668581 4285885469
-0.0085939504 0.0082162544 0.036463369 4285557029
-0.0060669146 0.0062587932 0.038117781 4285491494
-0.0042598993 0.0071104169 0.036959164 4285230118
-0.0026447959 0.0086635053 0.035100069 4285230629
-0.0012296177 0.010917477 0.032542303 4285427488
0.00016965345 0.013170347 0.02998824 4285493279
0.0013583563 0.01612328 0.026738003 4285624094
0.0031178258 0.016971827 0.025590658 4285623584
0.0054720081 0.015717819 0.026540734 4285623584
0.0090528242 0.010261476 0.031676982 4285886234
0.014729483 -0.0021950528 0.043778479 4285623583
-0.016054127 0.011774324 0.030999307 4285492768
-0.014785629 0.014741138 0.02773675 4285689629
-0.013186615 0.016296998 0.025884293 4285754908
-0.01088414 0.015033916 0.026842285 4285755163
-0.0082085952 0.012363046 0.029200613 4285886999
-0.0062469617 0.012510508 0.028751079 4285558558
-0.0046582185 0.014065988 0.026901275 4285559068
-0.0030800216 0.015620753 0.025054019 4285559069
-0.0015124269 0.01717484 0.023209216 4285755928
4.4602901e-05 0.018728212 0.021366958 4285755928
0.0019853003 0.018874601 0.020922603 4285623584
0.0045254417 0.016912237 0.022569632 4285624093
0.0078914165 0.012140237 0.026998997 4285755164
0.012115192 0.0045609176 0.034203477 4285755673
0.018475387 -0.010037251 0.04834732 4285624604
-0.017993599 0.0093008801 0.030967597 4284900913
-0.017222207 0.014399409 0.025601767 4285690138
-0.015796009 0.016666614 0.023050943 4285689884
-0.014034394 0.017518848 0.021905774 4285558048
-0.012099683 0.017664067 0.021462243 4285558048
-0.0094410442 0.014983222 0.023817779 4285689373
-0.0073118657 0.014423072 0.024071105 4285689883
-0.005736161 0.015981928 0.022227578 4285558813
-0.0039820634 0.01683411 0.021084519 4285558813
-0.002424825 0.018391743 0.019245431 4285624603
-0.00068391487 0.019243188 0.018105505 4285821463
0.0010517426 0.020094287 0.016966913 4285821719
0.003380917 0.018829651 0.017916093 4285887254
0.0069343038 0.013336316 0.023032166 4285755929
0.010325423 0.0085509866 0.027444329 4285558814
0.015206907 -0.0011631772 0.036703683 4285558558
0.021424409 -0.015097626 0.050104391 4285427489
-0.018809631 0.010518953 0.026977055 4285164074
-0.018217724 0.01634156 0.020924332 4285362208
-0.016631577 0.017904997 0.019081371 4285821464
-0.014880534 0.01875861 0.017940274 4285887253
-0.0126004 0.017485112 0.018896701 4285887253
-0.0099479854 0.01479502 0.021247087 4285887509
-0.007641051 0.01352375 0.022197535 4285690393
-0.0058816373 0.014378399 0.021054819 4285558813
-0.00450496 0.016649023 0.018520756 4285559068
-0.0027613826 0.017502733 0.017381785 4285559069
-0.0010230429 0.018356122 0.016244149 4285558814
0.00090675056 0.018501662 0.015802266 4285558558
0.003235396 0.017232612 0.016748261 4285624349
0.0061808974 0.013843074 0.019771695 4285558813
0.0091530494 0.010455668 0.022789115 4285559069
0.013188753 0.0035366863 0.02926081 4285427998
0.018327938 -0.0069108531 0.039177649 4285427998
0.026737586 -0.027947269 0.059438974 4285427998
-0.018787701 0.0081951991 0.026497565 4285032749
-0.018361595 0.014747262 0.019758115 4285296163
-0.016947765 0.017026596 0.017220011 4285558813
-0.015199311 0.017882168 0.016081134 4285624349
-0.013100259 0.017315194 0.016337832 4285624093
-0.010815229 0.016037799 0.01728991 4285624094
-0.0083362274 0.014050536 0.018935574 4285558813
-0.00658473 0.014906749 0.01779631 4285558813
-0.0048384853 0.015762739 0.016658301 4285559069
-0.0029062741 0.015908241 0.016215706 4285559069
-0.00078011677 0.01534389 0.016466711 4285559069
0.00095833465 0.016199596 0.015330719 4285558813
0.0028907098 0.016345441 0.014888333 4285624348
0.0050250031 0.015782014 0.015137719 4285689883
0.0077781901 0.013091773 0.017459085 4285755674
0.011588607 0.0068585351 0.023227951 4285690394
0.016706025 -0.0036233962 0.033125043 4285493533
0.023603333 -0.019767411 0.048517793 4285493279
-0.018505421 0.01315327 0.018592106 4285164329
-0.017263502 0.016152874 0.01536206 4285427998
-0.015517645 0.017010465 0.014225377 4285558558
-0.013421576 0.016441017 0.014481133 4285558559
-0.011320092 0.015872136 0.014735689 4285558559
-0.0090301819 0.014590822 0.015683405 4285624348
-0.0069152229 0.014023162 0.015935032 4285624348
-0.0047948472 0.013455972 0.016185546 4285624604
-0.0028601065 0.013601661 0.015742363 4285624604
-0.00073163584 0.013035342 0.01599114 4285559069
0.0010095611 0.013893381 0.014856206 4285624603
0.0023474805 0.016174622 0.012341192 4285755674
0.0040727966 0.017031685 0.011210065 4285755673
0.0064057708 0.015754484 0.012148568 4285755673
0.0099913049 0.010211378 0.017217828 4285952279
0.015296575 -0.0010157973 0.027783308 4285952024
0.021748561 -0.01579009 0.041767582 4285952024
0.028527305 -0.031266309 0.05641339 4285624094
-0.017234426 0.013851978 0.014897842 4285427999
-0.015310984 0.013996169 0.01445676 4285559068
-0.013387434 0.014140472 0.01401573 4285624348
-0.012004294 0.0164309 0.011494728 4285952789
-0.009905722 0.015859701 0.011748364 4285952534
-0.0076162331 0.014574066 0.012693001 4285821208
-0.0051278956 0.012574643 0.01432671 4285690139
-0.0031959452 0.012720115 0.013884166 4285558813
-0.0012639351 0.012865692 0.01344168 4285558813
0.00047200173 0.013725504 0.012309598 4285690138
0.0018050782 0.016012877 0.0098006818 4285624093
0.0033236817 0.017585486 0.0079839136 4285492514
0.00544402 0.017016783 0.0082332119 4285492514
0.0088103935 0.012168616 0.012604868 4285689373
0.013680136 0.0023315325 0.021774493 4285755164
0.019684922 -0.011064425 0.034357261 4285558559
0.02686467 -0.028016217 0.050344072 4285558559
0.031780496 -0.037120469 0.058768898 4285361699
-0.017205704 0.011546999 0.014430625 4285362208
-0.015629016 0.0131272 0.012603063 4285624858
-0.014062881 0.014706746 0.010777948 4285689883
-0.012507286 0.016285576 0.0089553855 4285689628
-0.010596979 0.016429089 0.0085175466 4285755163
-0.0081307404 0.014421336 0.010151265 4285952534
-0.0060243383 0.013848715 0.010401661 4285690139
-0.0042937845 0.014710121 0.0092722494 4285558814
-0.0025684759 0.015571207 0.0081441682 4285559069
-0.00084844604 0.016431995 0.0070173726 4285624604
0.00066771731 0.018008649 0.005204367 4285821718
0.002374541 0.018868662 0.0040807617 4285689629
0.0044839047 0.018296957 0.0043309205 4285624349
0.0074249469 0.014863625 0.0073225484 4285624858
0.011229564 0.0085712224 0.013048196 4285755928
0.01677732 -0.0034384429 0.024238385 4285493023
0.024132082 -0.021160491 0.040878475 4285493023
0.030316554 -0.034584008 0.053388957 4285427233
0.033963516 -0.039425552 0.057685278 4285361699
-0.017520893 0.010678537 0.012576504 4285164328
-0.016469952 0.014423274 0.0086787194 4285559323
-0.015091311 0.0167263 0.0061685541 4285755674
-0.013548747 0.018308491 0.0043522608 4285492514
-0.011834323 0.019170523 0.0032279347 4285492258
-0.0095698424 0.017874271 0.0041716849 4285624094
-0.0071069114 0.015859827 0.005801287 4285624604
-0.0051991753 0.016003467 0.0053642788 4285493533
-0.0036775209 0.017584622 0.0035531842 4285493789
-0.0021664575 0.019165099 0.0017446061 4285493533
-0.00046760216 0.020026617 0.00062434794 4285691158
0.0014270358 0.02016969 0.0001906571 4285822229
0.003729146 0.018877015 0.0011263494 4285822484
0.0064546801 0.016149849 0.0034277425 4285756948
0.0096196029 0.011989392 0.0070911697 4285558813
0.014086686 0.0035275668 0.014844298 4285493024
0.02140433 -0.014251746 0.031451553 4285493024
0.028855031 -0.032020837 0.04802848 4285361954
0.033582911 -0.040462546 0.055722237 4285361954
-0.017835639 0.009814769 0.010725809 4285098284
-0.017483518 0.01645951 0.004077707 4285493533
-0.016294613 0.019490212 0.00088629732 4285821973
-0.014588188 0.020353705 -0.00023462763 4285887254
-0.012704756 0.020495161 -0.00066633476 4285887763
-0.010266561 0.018472172 0.00096394541 4285888019
-0.0078123361 0.016450502 0.0025906381 4285493533
-0.0059127137 0.016593516 0.0021554758 4285493789
-0.0043987893 0.018178478 0.00034940476 4285493789
-0.0028954409 0.019762725 -0.0014541126 4285428253
-0.0012044869 0.020625778 -0.0025708727 4285493788
0.00088288262 0.020047933 -0.0023190673 4285493533
0.0029756092 0.019470595 -0.0020684055 4285493534
0.0054860562 0.017453939 -0.00045400066 4285427744
0.0080124717 0.015438631 0.0011567865 4285362209
0.012246877 0.0076685399 0.0082137529 4285164839
0.019323915 -0.0094479322 0.024105215 4285164839
0.027179154 -0.028711952 0.042007554 4285164839
0.032544274 -0.039338104 0.051724479 4284902189
-0.018146951 0.017068982 0.00086920382 4285362464
-0.016965363 0.020107821 -0.0023139431 4285493788
-0.015266839 0.020972848 -0.0034313735 4285625114
-0.013027463 0.019665882 -0.0024886313 4285493788
-0.010777347 0.018359795 -0.0015482209 4285427999
-0.0081418231 0.01560761 0.0007599704 4285362719
-0.006435018 0.016473748 -0.00035906537 4285362463
-0.0049261376 0.018062651 -0.00216064 4285362464
-0.0034278594 0.019650891 -0.0039597522 4285231393
-0.0015441738 0.019793034 -0.0043910141 4285100834
0.00054021552 0.01921273 -0.0041401363 4284904484
-0.017766006 0.013331667 0.0017897584 4285361699
-0.017105334 0.018559381 -0.0034465562 4285428254
-0.015048396 0.017973989 -0.0031917593 4285362209
-0.012804221 0.01666297 -0.0022533792 4285231393
-0.010733824 0.016078815 -0.0020014974 4285166368
-0.0086580291 0.015495166 -0.0017507728 4285166114
-0.0067666657 0.015637532 -0.0021840595 4284903973
-0.017386213 0.0095815212 0.0027008611 4285033513
