# .PCD v0.7 - Point Cloud Data file format
VERSION 0.7
FIELDS x y z rgba
SIZE 4 4 4 4
TYPE F F F U
COUNT 1 1 1 1
WIDTH 979
HEIGHT 1
VIEWPOINT 0 0 0 1 0 0 0
POINTS 979
DATA ascii
0.015331913 0.035505675 0.034288757 4289604389
0.017629888 0.034364894 0.035342619 4289800739
0.020546969 0.031302311 0.038626201 4290716699
0.023285292 0.028882461 0.041160263 4290847769
0.025420595 0.028385771 0.041460957 4290127903
0.027139679 0.029170113 0.040276036 4289931809
0.028213074 0.031874433 0.036867537 4290455068
0.029913545 0.032657508 0.035686977 4290258973
0.032265056 0.03152116 0.036728807 4290389788
0.034848697 0.029746136 0.038508046 4290455069
0.036551833 0.030529585 0.037327003 4290193184
0.038476415 0.030673591 0.036885768 4290323744
0.041089322 0.028900968 0.038658377 4290127393
0.045807268 0.021381227 0.047063392 4290323744
0.05176305 0.010673851 0.059137359 4290258464
0.057809424 -2.6706606e-05 0.07119064 4290061603
0.060824875 -0.0024250597 0.073661737 4289407783
0.0081607364 0.031426761 0.03713613 4288818479
0.009687528 0.032856707 0.035207674 4289931043
0.011203736 0.03428597 0.033281647 4290454814
0.01290397 0.035070755 0.032102428 4290912794
0.014796216 0.035211697 0.031668127 4290716444
0.017288327 0.033422753 0.033463102 4290978329
0.019999068 0.030991994 0.035996847 4290978328
0.022731192 0.028562851 0.038525775 4290455068
0.025068831 0.027420778 0.039567385 4290127904
0.026364181 0.029492192 0.036903396 4290389789
0.027217049 0.032847103 0.032763101 4290323998
0.028691061 0.034273703 0.030847196 4291109143
0.031465948 0.031848088 0.03336649 4291109143
0.034483444 0.028782334 0.036619198 4291108889
0.03663189 0.028284773 0.036915503 4290716444
0.038559064 0.028428975 0.036473673 4290062114
0.041861728 0.024726514 0.040449988 4290454304
0.047515549 0.014617227 0.051776454 4290454304
0.054662105 0.00067008287 0.067494132 4290257698
0.059553418 -0.0068630055 0.07583987 4289864743
0.059950247 -0.0022250265 0.070226736 4288163893
0.0080193058 0.029839395 0.035998195 4288753198
0.0093573295 0.031920105 0.033328958 4289800228
0.01048772 0.034645826 0.029920109 4290062114
0.012180086 0.03543222 0.028744318 4290192928
0.01406426 0.035572547 0.028311864 4290127904
0.016947176 0.032485273 0.031586848 4290585628
0.019249599 0.031336028 0.032633163 4290716443
0.021562725 0.030187687 0.033677027 4290455069
0.023678826 0.029685142 0.033978838 4290127904
0.025379509 0.03047251 0.032801405 4290651419
0.026435694 0.033193178 0.029409945 4290520604
0.027902033 0.034623619 0.027499072 4289866273
0.03023128 0.033476785 0.028539464 4289277734
0.033455428 0.029754994 0.03252387 4290258463
0.036264114 0.027323171 0.035029005 4289669668
0.039320488 0.024249461 0.038264655 4290192928
0.04331971 0.018604426 0.044433288 4290323488
0.049684066 0.0065316036 0.057932466 4289930534
0.056618433 -0.0068194456 0.072875522 4289734183
0.060346011 -0.011163644 0.077532068 4289537578
0.0084365532 0.026305946 0.037089244 4288295474
0.0094053447 0.029690973 0.032938294 4289212454
0.010539114 0.032425746 0.029535204 4289408548
0.012040053 0.03386271 0.027619243 4289997344
0.014121018 0.033355076 0.027927287 4290323998
0.016606465 0.031552371 0.029713944 4290520093
0.018703539 0.031046063 0.030018385 4290454814
0.020601135 0.031187568 0.029582977 4290585628
0.022498775 0.031329133 0.02914761 4290455069
0.023976054 0.03276467 0.0272374 4290127903
0.025442686 0.034199513 0.025329638 4291174678
0.027114214 0.03498704 0.024160624 4290651164
0.029435007 0.03383512 0.025199726 4290062113
0.032870732 0.029453292 0.029911384 4290193184
0.036343787 0.025074277 0.034614574 4290454814
0.040306512 0.019406611 0.040776812 4290454559
0.045461461 0.010514777 0.050593931 4290192419
0.052080121 -0.0022435859 0.064789332 4290061604
0.058336988 -0.013703588 0.077496484 4289799464
0.060900148 -0.014836859 0.078480318 4287836984
0.0088526458 0.022759419 0.038170837 4288164403
0.0098303407 0.026156111 0.034026004 4288623403
0.011164173 0.028249722 0.031367615 4289278244
0.012482084 0.030342262 0.028712884 4290258973
0.0143741 0.030483145 0.028278604 4290128158
0.016465519 0.029974135 0.028582651 4290847514
0.018360324 0.030115349 0.028147824 4290323998
0.020050507 0.030906208 0.026975971 4290193184
0.021528061 0.032346144 0.025068879 4290193184
0.022995003 0.033785317 0.023164317 4290323998
0.024451304 0.035223752 0.021262236 4290782234
0.026327617 0.035363916 0.020831894 4290978074
0.028639924 0.034206998 0.021869622 4290651419
0.032507516 0.028512236 0.028038837 4290650908
0.036869712 0.021524785 0.035662685 4290585629
0.042420499 0.01130183 0.046934132 4290520093
0.048285197 0.00043754652 0.058917634 4289538344
0.054240473 -0.010419849 0.070880391 4289537833
0.05864843 -0.016738705 0.077709973 4288229684
0.0090817995 0.019852903 0.038503297 4287902773
0.010254208 0.022608072 0.035104338 4288295219
0.011787679 0.024056178 0.033187386 4289343013
0.013116766 0.026156101 0.030535027 4290193949
0.015019368 0.026297765 0.030098315 4290063389
0.016722891 0.027091671 0.028924927 4289409058
0.018622942 0.027233273 0.028488889 4289736224
0.020114098 0.028678557 0.026581895 4289866783
0.021594644 0.030123079 0.024677426 4289801503
0.02285476 0.0322183 0.022041149 4290324508
0.024098907 0.034312405 0.01940858 4290324254
0.026187614 0.033801325 0.019711941 4290062624
0.028935026 0.031338371 0.022211347 4290193439
0.033247009 0.024322808 0.029828709 4290520093
0.038510099 0.014710121 0.040357478 4290651164
0.044756293 0.0025026537 0.053790361 4290323743
0.050418384 -0.0077471659 0.065010153 4289996068
0.055703476 -0.016690902 0.07475169 4289669159
0.059192866 -0.020432122 0.078646056 4286136899
0.0087533407 0.018903928 0.036614973 4288229939
0.010112066 0.02101256 0.033960558 4288687664
0.011645857 0.022465078 0.032046791 4289342759
0.013169069 0.023916829 0.030135538 4289931808
0.014877971 0.024713274 0.0289625 4290455068
0.016581614 0.025509385 0.027790714 4290455578
0.018683184 0.024996758 0.028089184 4289670688
0.020177323 0.026446667 0.026184775 4289801759
0.021660849 0.027895804 0.024282888 4289866783
0.022924136 0.029997882 0.021650787 4290389788
0.024383742 0.031445373 0.019754488 4290128413
0.026477493 0.030932508 0.020055011 4289800738
0.029229369 0.028461032 0.022546895 4290127904
0.033984918 0.020115824 0.031606 4290127393
0.040147308 0.0078601465 0.045026965 4290127393
0.046862129 -0.0056927204 0.059882753 4290323743
0.051862821 -0.014019378 0.068885811 4290061859
0.055778168 -0.019080646 0.074234143 4288687663
0.008425314 0.017959641 0.034729932 4288687664
0.0097819008 0.020074669 0.032080952 4289080364
0.011504073 0.020874176 0.030906331 4289734948
0.013027597 0.022330347 0.028998271 4289342503
0.014736619 0.023128984 0.027826827 4289865508
0.016440369 0.023927294 0.026656643 4289800229
0.018541653 0.023412431 0.026953533 4289342248
0.020240188 0.024210494 0.025784653 4289604389
0.022140164 0.024352212 0.025348727 4289669924
0.023411956 0.026461517 0.022719577 4289931809
0.025303997 0.02660278 0.022285573 4289801248
0.027196057 0.026744105 0.021851607 4289866783
0.030392505 0.022954084 0.02579318 4290324764
0.035601493 0.013271157 0.036285229 4290062879
0.042226791 -0.00033479556 0.051127188 4290062879
0.048062433 -0.011313733 0.063033871 4290062113
0.052164204 -0.017050266 0.069105387 4288164658
0.0075420551 0.018999502 0.030643255 4288098869
0.009452153 0.019141454 0.03020462 4288753198
0.011171784 0.019942924 0.029032256 4289932063
0.012692947 0.021403307 0.027127992 4290390553
0.01420353 0.022863017 0.025226172 4289865254
0.016100597 0.02300429 0.024790742 4289930533
0.018198952 0.022486953 0.025086708 4289538088
0.020302672 0.021970129 0.025381453 4289211179
0.021998689 0.022770278 0.024214834 4289211179
0.023480196 0.024228182 0.02231995 4289473063
0.025586681 0.023711782 0.022614222 4289669924
0.027698524 0.023195818 0.022907365 4290192929
0.03133608 0.018078169 0.028292887 4290192929
0.036555327 0.0083629079 0.03875808 4290192674
0.042967141 -0.0046315528 0.052837148 4290127138
0.048359573 -0.014333669 0.063262701 4289799974
0.05223693 -0.019433111 0.068593517 4287313978
0.01235874 0.020480916 0.025261041 4289407273
0.014062632 0.021283586 0.024093974 4289602859
0.015761279 0.022085898 0.022928212 4289014319
0.018057685 0.020905267 0.023952942 4289341739
0.019957446 0.021046873 0.023516998 4289341739
0.022269916 0.019867631 0.024538103 4289014829
0.023966072 0.020670045 0.023373131 4289276203
0.0258686 0.020812079 0.022936713 4289603624
0.027771143 0.020954201 0.022500355 4289668904
0.031409692 0.015818954 0.027872603 4289603370
0.03684818 0.0054111816 0.03903877 4289799464
0.043261252 -0.0076272562 0.053084828 4289995558
0.048655942 -0.017362289 0.063485391 4289799464
0.052536923 -0.022479035 0.068802245 4288948529
0.011446498 0.021554254 0.021207467 4287898948
0.013335332 0.0216948 0.020773839 4288227389
0.01562053 0.020508878 0.021797765 4288555063
0.017916452 0.019323796 0.022819329 4288948019
0.020019595 0.018802509 0.023110922 4289013808
0.021921966 0.018944368 0.022674423 4289668139
0.023615569 0.0197488 0.02151167 4289538089
0.025726801 0.019228339 0.021801576 4289538088
0.028057519 0.018046271 0.022815391 4289734439
0.031699713 0.012893677 0.028173726 4289733928
0.036701333 0.0037741847 0.037865538 4289603113
0.042888198 -0.0086471289 0.051156592 4289733928
0.048277125 -0.0184156 0.061533891 4289798954
0.02116254 0.019355617 0.019363388 4288292669
0.023474082 0.018167509 0.020378258 4289014574
0.025373757 0.018309325 0.019942492 4289473064
0.027701315 0.017122611 0.02095376 4289865763
0.031555764 0.011287961 0.027022891 4289603624
0.036773764 0.0014735125 0.037414744 4289603113
0.043181352 -0.011653498 0.051396709 4289537834
0.048347935 -0.020791329 0.061027929 4289013554
0.051998273 -0.02528026 0.065598972 4286593603
0.024598971 0.018728454 0.016641684 4289145134
0.027131796 0.016870137 0.018373568 4289080109
0.031195432 0.010348801 0.025150929 4289145644
0.036626749 -0.00016525015 0.036240254 4288948528
0.043030262 -0.013336603 0.05019046 4288686898
0.04819395 -0.022505485 0.059799455 4288228154
-0.014032934 0.025249438 0.01204403 4289930023
-0.01153389 0.022695901 0.014547008 4289865254
-0.0090133958 0.020144025 0.017045114 4290977053
-0.0063032173 0.016921699 0.020269051 4290845984
-0.018172298 0.024789399 0.01032647 4287444538
-0.017432649 0.029651072 0.0047818152 4289670178
-0.015929703 0.031135539 0.0029005483 4290454558
-0.013786297 0.02992036 0.0039432077 4289931298
-0.01113588 0.026682504 0.0071726451 4290847514
-0.0084587224 0.023446701 0.010395984 4290847768
-0.0064377002 0.02290949 0.01069915 4288950313
-0.0047580302 0.02372062 0.0095453365 4288425524
-0.020756472 0.025831295 0.0067257294 4287377474
-0.020007718 0.030708946 0.0011903429 4289538089
-0.018824395 0.033551965 -0.0021465141 4290192418
-0.017502334 0.035716373 -0.004749082 4289015593
-0.015058283 0.033141088 -0.0022465838 4289015083
-0.012592789 0.030567469 0.00025104545 4289342759
-0.0096022524 0.025965901 0.0049263993 4289932064
-0.0075975023 0.025425216 0.0052316925 4290128669
-0.0054141358 0.024208913 0.0062620612 4289473318
-0.0039233901 0.025697269 0.0043872297 4289145134
-0.02301925 0.025532605 0.0045934832 4286921278
-0.021801006 0.028386807 0.0012549739 4289342759
-0.020449486 0.03055981 -0.0013496056 4289996579
-0.019584861 0.034770332 -0.0061356691 4290781724
-0.018272948 0.036940556 -0.0087310309 4290650653
-0.016002763 0.035034738 -0.0069596032 4290650908
-0.013056431 0.030414388 -0.0022856025 4290781979
-0.010575708 0.027833136 0.00020202715 4290651163
-0.0084142275 0.026610656 0.0012341226 4289800993
-0.0064149834 0.026067464 0.0015390487 4289802013
-0.0047616102 0.026881071 0.00039456505 4290325274
-0.0032917894 0.028372377 -0.0014721984 4289931298
-0.0012895353 0.027829608 -0.0011677379 4290257444
0.0010854118 0.025932224 0.00058003981 4289799209
0.0038490556 0.02268132 0.0037675435 4289995303
0.0058835149 0.022141227 0.0040647415 4289275694
-0.024343815 0.029472023 -0.002325397 4289211688
-0.022540119 0.029604848 -0.0027405024 4289211433
-0.021198761 0.031783663 -0.0053378725 4289800483
-0.020030033 0.034643147 -0.0086583532 4290062369
-0.018563446 0.036137991 -0.010521492 4289669925
-0.01613446 0.033543926 -0.0080286413 4290062113
-0.013519231 0.030270355 -0.0048156967 4290258464
-0.011044722 0.027679816 -0.0023331949 4290193438
-0.0090591945 0.027133299 -0.002026828 4289932319
-0.0072410293 0.027267829 -0.0024447879 4290128413
-0.0055982098 0.02808284 -0.0035852259 4289997344
-0.0043168627 0.030257938 -0.0061682644 4290193184
-0.0023282357 0.029711971 -0.0058623734 4290257699
0.00021616369 0.027127093 -0.0033955742 4289865253
0.0031541921 0.023184679 0.00050656684 4290127394
0.0057466812 0.020603588 0.0029624039 4290585628
0.0079776831 0.019382501 0.003975736 4289015084
-0.026717383 0.029892165 -0.0051701171 4288950059
-0.02492192 0.030024279 -0.0055834083 4289539363
-0.022974964 0.029472077 -0.0052701961 4289538853
-0.021330502 0.030288776 -0.0064099273 4289800739
-0.020161103 0.033157066 -0.009724061 4290062369
-0.018216338 0.032604937 -0.0094101774 4289669668
-0.016266111 0.03205334 -0.0090975268 4289866020
-0.013651948 0.028768668 -0.0058925184 4290127904
-0.011680167 0.028218815 -0.0055847121 4289604388
-0.0097029395 0.02766946 -0.0052780919 4289931809
-0.0080654621 0.028486164 -0.006415749 4289800995
-0.0066084526 0.029985154 -0.00827308 4290324254
-0.0053399317 0.032165892 -0.010848285 4290520093
-0.0033649132 0.031616691 -0.010540915 4289538853
-0.0012012161 0.030385941 -0.0095155891 4288950058
0.0020887144 0.025065217 -0.0041817217 4289277223
0.0046669953 0.02247425 -0.001729168 4289343270
0.007457912 0.019203512 0.0014358461 4289735969
0.0096938126 0.017978465 0.0024448391 4289670178
0.011547294 0.018116372 0.002019329 4289277479
-0.029073361 0.03032716 -0.0080087464 4289471789
-0.027723555 0.03251949 -0.010598494 4290454558
-0.025647249 0.03127683 -0.0095571931 4290585884
-0.023560103 0.030035019 -0.0085182739 4291108888
-0.021769729 0.030166879 -0.0089303022 4290912538
-0.020135645 0.030985011 -0.010065937 4289800483
-0.018347632 0.031116851 -0.01047731 4289735204
-0.016235944 0.029877214 -0.0094438419 4289604134
-0.01411346 0.028638409 -0.0084127542 4289473318
-0.012314375 0.028771309 -0.0088264905 4289800739
-0.010684934 0.029589551 -0.0099607985 4289996578
-0.0088882633 0.029722456 -0.010373843 4290062114
-0.0076166838 0.031909861 -0.01294489 4290323999
-0.0063609853 0.034096219 -0.015512267 4290847259
-0.0045799762 0.034228206 -0.015921535 4290454814
-0.0018835887 0.030939173 -0.01274318 4290520093
0.001210954 0.026284132 -0.0081370641 4290389788
0.0043428503 0.02163199 -0.003539511 4290586139
0.0078941807 0.01561543 0.0024809223 4290193438
0.010912396 0.011652831 0.0063451687 4289735969
0.012588035 0.01247533 0.0052009402 4289343269
-0.03085063 0.028018745 -0.0079384884 4288229173
-0.02977578 0.031597108 -0.011976147 4289341739
-0.028581727 0.034484435 -0.015283172 4290258463
-0.026667472 0.033925317 -0.014965866 4289343013
-0.024445858 0.031989068 -0.013203187 4290323999
-0.022054549 0.02936548 -0.010721519 4290323999
-0.020266775 0.029497191 -0.011132915 4289800738
-0.018319953 0.028940801 -0.010822855 4289604388
-0.016529236 0.029072896 -0.011234807 4289538854
-0.014574144 0.028517276 -0.010926529 4289800739
-0.013114262 0.030024985 -0.01277821 4289997089
-0.011325803 0.030157158 -0.013189462 4289800484
-0.0095372312 0.030289439 -0.013600664 4289931299
-0.0080982931 0.031795889 -0.015447391 4289800483
-0.0066698864 0.03330161 -0.017291583 4290716444
-0.0047114491 0.03274674 -0.016983701 4290454814
-0.0023818612 0.030819468 -0.015245114 4289996834
0.00089138001 0.025462311 -0.0099336132 4289996834
0.0043954961 0.019422339 -0.0039171097 4289735204
0.0090927072 0.0092709213 0.006373032 4289734948
0.012515273 0.003925126 0.011650438 4289866019
0.013430279 0.0074933991 0.007650814 4286334013
-0.033182908 0.028473899 -0.010768983 4288294710
-0.032102052 0.032063577 -0.014799953 4289735714
-0.030904841 0.034959815 -0.018101264 4290716444
-0.029874135 0.038545974 -0.022120563 4289669668
-0.027833354 0.037291791 -0.021077618 4289146408
-0.025480326 0.034656487 -0.018593743 4289473574
-0.022799086 0.03064123 -0.014672615 4290323999
-0.020553913 0.028700287 -0.012920209 4290455069
-0.018610042 0.028141405 -0.01261108 4290062368
-0.016822081 0.028273266 -0.013022423 4289734948
-0.015526082 0.030475328 -0.015589619 4290193439
-0.014079217 0.031986453 -0.017435061 4289800483
-0.012134824 0.031427979 -0.017125852 4289866019
-0.010012966 0.030180581 -0.016101044 4289473318
-0.0082297064 0.03031252 -0.016510988 4289931298
-0.0068010166 0.031822637 -0.018351998 4290127649
-0.0048428737 0.031265534 -0.018045688 4289734948
-0.0021486618 0.027954305 -0.014883189 4289538598
0.0016842186 0.020514384 -0.0074443538 4289996835
0.0063276812 0.010325909 0.0028335117 4290062114
0.011432398 -0.0012326203 0.014518092 4290062114
0.014114648 -0.003842175 0.016927317 4289669414
0.014270585 0.0024896041 0.010085012 4286137153
-0.034136254 0.031156508 -0.01617137 4289277224
-0.032930586 0.034062032 -0.019468199 4289996578
-0.031460863 0.035578452 -0.021316212 4290716699
-0.030292053 0.038481437 -0.024604432 4290716699
-0.02840497 0.037915852 -0.024284182 4290912794
-0.026060808 0.03527106 -0.021804824 4290781723
-0.0232356 0.030548884 -0.017171906 4290782234
-0.021152291 0.029293647 -0.01614186 4289931553
-0.019216705 0.028731963 -0.015832528 4289669923
-0.017436836 0.028863207 -0.016242027 4289866020
-0.01614834 0.031071289 -0.018802617 4289997089
-0.014875669 0.033278249 -0.021359459 4290913049
-0.012773063 0.032024913 -0.020333577 4290847258
-0.01031604 0.029389126 -0.017879676 4290978328
-0.0081865899 0.028137943 -0.016859839 4290978328
-0.0065778159 0.028961405 -0.017984306 4289931553
-0.0044348463 0.027711347 -0.016967408 4289866274
-0.0015512742 0.02369877 -0.013101915 4290062369
0.0030304901 0.013472632 -0.0028344337 4290127393
0.0080677792 0.0018715486 0.0088378368 4290127393
0.01319566 -0.0097227171 0.020489376 4290061859
0.014551818 -0.0075086169 0.017913975 4288556848
-0.034401979 0.030383829 -0.017946707 4288621873
-0.03305858 0.032601759 -0.020515628 4289866018
-0.031873312 0.03551463 -0.023801189 4290454814
-0.0304191 0.037034351 -0.025642339 4290127648
-0.0285323 0.036466517 -0.02532368 4289669923
-0.026189011 0.033812836 -0.022850672 4290258974
-0.023671281 0.030465599 -0.019664636 4290193439
-0.021749455 0.029900588 -0.019353855 4290258974
-0.019822147 0.029336073 -0.019044267 4289931809
-0.017889377 0.028772 -0.01873583 4290128159
-0.016769353 0.031680748 -0.022005875 4290127903
-0.015337911 0.033199504 -0.023841333 4290323999
-0.013241109 0.031941272 -0.022817351 4289866529
-0.010618683 0.028602341 -0.019654967 4289866529
-0.0084923916 0.027346512 -0.01863768 4290913304
-0.0067092441 0.027478492 -0.019047562 4289539363
-0.0042075627 0.024837459 -0.016610276 4289931809
-0.00022632629 0.016653463 -0.0084884819 4290062114
0.0049284697 0.0043170117 0.0038819984 4290062114
0.010366764 -0.0087049119 0.016940445 4289996835
0.014193986 -0.015486822 0.023591731 4289931810
0.014987838 -0.011188064 0.018891308 4286398784
-0.033846144 0.025424095 -0.015398788 4288229683
-0.032628473 0.028348021 -0.018685374 4288819753
-0.031431902 0.03127047 -0.02196705 4289081638
-0.030111592 0.033493429 -0.024525661 4289997088
-0.028217118 0.032923885 -0.024210379 4289800994
-0.026167031 0.031657226 -0.023179427 4290193694
-0.024106126 0.030391419 -0.022150846 4290259230
-0.022189911 0.029823771 -0.021840425 4289931809
-0.020426352 0.029953655 -0.022246279 4289931809
-0.018662658 0.030083651 -0.022652093 4289931809
-0.017389167 0.032303758 -0.025199488 4290782234
-0.015965406 0.033826284 -0.027029883 4289539364
-0.014045868 0.033259321 -0.026719902 4289146663
-0.011606593 0.030604592 -0.024275009 4289212198
-0.0091459267 0.027951522 -0.021834973 4289277734
-0.0064871199 0.024604451 -0.018688995 4290128158
-0.0030839443 0.01847749 -0.01270831 4289735714
0.0016417317 0.0074871518 -0.0017715413 4289670178
0.0070068911 -0.0055820681 0.011272631 4289670178
0.011536282 -0.015169196 0.020751838 4289473318
0.014619827 -0.019193113 0.024552032 4288753963
-0.033292163 0.020442486 -0.012866573 4288034099
-0.032060537 0.023376184 -0.016149882 4288558123
-0.030991983 0.027008858 -0.020145439 4288755749
-0.029805187 0.029939432 -0.023418296 4289410334
-0.02819762 0.030768368 -0.024538357 4289671963
-0.026295315 0.030197296 -0.024226516 4289736733
-0.024540137 0.030326365 -0.024630591 4289932829
-0.022784811 0.030455545 -0.025034631 4290193949
-0.021187279 0.031284079 -0.026152134 4290259484
-0.019594919 0.032112312 -0.02726838 4290062878
-0.018171001 0.033639181 -0.029095676 4290717208
-0.016591687 0.034466639 -0.030208785 4290913559
-0.014849003 0.034595318 -0.030609593 4290651418
-0.012421269 0.031930916 -0.028168593 4290782489
-0.0094504617 0.027173925 -0.023602981 4290782489
-0.0059126243 0.020326037 -0.016918182 4290389533
-0.0016046055 0.010691419 -0.0074111777 4290193183
0.0036874078 -0.0024251044 0.0056187129 4289931553
0.0083424859 -0.012744784 0.015795887 4289473574
0.012328696 -0.02026999 0.023127671 4289080619
0.014854647 -0.022215456 0.024796829 4286136898
-0.033149462 0.017548185 -0.012500506 4287903538
-0.031772714 0.019788194 -0.015062461 4288427563
-0.030553538 0.022729816 -0.018336343 4289279774
-0.029355448 0.025669981 -0.021605298 4289672474
-0.027884256 0.027204117 -0.023440586 4290064663
-0.026273783 0.028035553 -0.024559695 4289868313
-0.024516057 0.028164791 -0.02496437 4289344798
-0.023068342 0.029697461 -0.026794061 4289605919
-0.02163111 0.031229487 -0.028621312 4289736478
-0.020364773 0.033462077 -0.03115733 4289866783
-0.018788155 0.034291416 -0.032268275 4290063133
-0.017216746 0.035120513 -0.033378001 4289801248
-0.015313763 0.034547836 -0.033067461 4289735969
-0.012892257 0.031874217 -0.030631609 4290128159
-0.0092334561 0.024300035 -0.023242846 4290128159
-0.0049869418 0.014629982 -0.013744629 4290389534
0.00022928044 0.0014659837 -0.00072839018 4290389534
0.0051833615 -0.010291006 0.010851857 4290062114
0.0091219582 -0.017844029 0.018176556 4289276968
0.012184162 -0.021896005 0.021961931 4287053114
-0.033416267 0.01676105 -0.014286265 4287904049
-0.032041717 0.019007487 -0.016842894 4288363813
-0.03068294 0.021252813 -0.019395787 4289214239
-0.029195677 0.022792455 -0.021231633 4289803544
-0.027865801 0.02503583 -0.023777746 4289541403
-0.025953468 0.02446104 -0.023471519 4290130709
-0.024492312 0.02599898 -0.025301125 4289541658
-0.023041654 0.027536288 -0.027128287 4289279774
-0.021759029 0.029776586 -0.029663291 4289803033
-0.020332027 0.031312279 -0.031484839 4289803034
-0.018752661 0.032143991 -0.032594804 4289409824
-0.017012972 0.032272324 -0.032995019 4289736478
-0.01510499 0.031697847 -0.032687318 4289670688
-0.012337368 0.027610281 -0.028844465 4289801249
-0.0084966831 0.019310024 -0.020768933 4289866019
-0.0035350733 0.0068006739 -0.0084717693 4289800739
0.0017012544 -0.0064036101 0.0045088436 4289734948
0.0057684071 -0.014686819 0.012532529 4289276713
0.009162914 -0.020158201 0.017724708 4286660413
-0.033546541 0.015271135 -0.015355041 4288100908
-0.032171529 0.017524166 -0.017906912 4288756768
-0.030812275 0.019776078 -0.020455051 4289215004
-0.029324751 0.021320084 -0.022287738 4289869333
-0.027700964 0.02215671 -0.02340671 4289672729
-0.02578361 0.021580065 -0.023103289 4289672984
-0.024468895 0.023829067 -0.025640901 4289476634
-0.022860605 0.024664817 -0.026756112 4289084188
-0.021414842 0.02620621 -0.028578844 4288953373
-0.019979578 0.02774689 -0.030399043 4289476379
-0.018554825 0.029286923 -0.032216802 4289018144
-0.016809929 0.029415609 -0.032618232 4289540894
-0.014560971 0.027429003 -0.030900724 4289801759
-0.011613343 0.022624006 -0.026364144 4289997599
-0.0072418973 0.012183961 -0.016195457 4289670433
-0.0020866767 -0.0010681823 -0.0032272697 4289408293
0.0026338585 -0.012199704 0.0076061683 4289343014
0.0059893429 -0.017691717 0.012794231 4288689449
-0.035467688 0.013650436 -0.016010853 4287116609
-0.034084413 0.015910529 -0.018559832 4288494374
-0.032301273 0.016041085 -0.018970765 4288691233
-0.031082746 0.019008882 -0.022224963 4289804054
-0.029597599 0.020557078 -0.024053864 4289542169
-0.027976412 0.02139567 -0.025170639 4289672728
-0.02591284 0.020107875 -0.024159214 4289804053
-0.024445813 0.021654984 -0.02598368 4289738774
-0.022680301 0.021784795 -0.02639015 4289411609
-0.021228936 0.023330932 -0.028210882 4289345818
-0.019468453 0.02346055 -0.028616063 4289280539
-0.017870326 0.024298036 -0.029727165 4289672728
-0.016277369 0.025135204 -0.030836955 4290130709
-0.014186244 0.023850048 -0.029831339 4289998618
-0.010891225 0.017615892 -0.023899496 4289932574
-0.006163314 0.0057297647 -0.012350683 4289867038
-0.0011690781 -0.0068562888 -0.00011974201 4289867038
0.0028504394 -0.015195884 0.0078756521 4289342758
0.0060284473 -0.019998834 0.012348139 4287445814
-0.030929748 0.016111881 -0.021863826 4289805074
-0.029582676 0.018376151 -0.0243994 4289673748
-0.02795874 0.019217113 -0.025515195 4290066194
-0.026190985 0.01934688 -0.025922336 4289804309
-0.024574708 0.020187454 -0.027036238 4289477399
-0.022809301 0.020317232 -0.027442701 4289281049
-0.020886797 0.019736784 -0.027143572 4289215514
-0.019278068 0.020577101 -0.028255519 4289477144
-0.017512251 0.020707184 -0.028661869 4289542168
-0.016076174 0.022256842 -0.030475635 4290523663
-0.013645064 0.019548612 -0.028068203 4289541148
-0.010341275 0.013295256 -0.022153029 4289933849
-0.0056061745 0.0013723187 -0.010633588 4289802013
-0.00095609203 -0.0098348297 0.00016378704 4289933084
0.0028880425 -0.017491825 0.0074382918 4289539618
0.0058863126 -0.021601528 0.011199028 4286660668
-0.030141961 0.019045113 -0.02757607 4288889369
-0.028379787 0.019174354 -0.027982011 4289477654
-0.026617464 0.019303681 -0.02838793 4289215513
-0.024703536 0.018720211 -0.028088603 4289084699
-0.022784147 0.018137218 -0.027790476 4289215514
-0.021016058 0.018267257 -0.028197512 4289215513
-0.019088406 0.017685072 -0.027901132 4289476888
-0.017479476 0.018527666 -0.029011443 4289673239
-0.015875731 0.019369969 -0.030120496 4289607703
-0.01360758 0.017364956 -0.028422114 4289410844
-0.0099628903 0.0096687861 -0.021119956 4289279774
-0.0052232444 -0.0022911578 -0.0096292775 4289213474
-0.00074382499 -0.012821957 0.00044122152 4289279009
0.0027472638 -0.019080937 0.0062988782 4288885544
0.0059249215 -0.02391468 0.010748603 4286334014
-0.020988692 0.016083248 -0.028548874 4289150489
-0.019377161 0.016928112 -0.029658247 4289673748
-0.017770801 0.017772691 -0.030766349 4289804309
-0.015840549 0.017188674 -0.030472074 4289804309
-0.013403255 0.014463231 -0.028079104 4289345818
-0.0095856376 0.0060293265 -0.020096205 4289214238
-0.0048414618 -0.0059675835 -0.008634327 4289214238
-0.00053231046 -0.01581759 0.0007124776 4289410078
0.0027843527 -0.021382928 0.0058571687 4288689704
-0.021743532 0.01747985 -0.032407261 4289348369
-0.019983526 0.017609352 -0.03281239 4289150743
-0.018061686 0.017022396 -0.032517903 4289934868
-0.01597007 0.015719581 -0.031525608 4289869333
-0.013366658 0.012269124 -0.028440595 4289869333
-0.0095488541 0.0038088709 -0.020477306 4289672984
-0.0049777925 -0.0075096488 -0.0097400909 4289476634
-0.00049650297 -0.018106237 0.00028111879 4289344799
0.0024658255 -0.022258274 0.0040206667 4288101674
-0.013330411 0.010070864 -0.028805066 4288889878
-0.0096818767 0.0023024529 -0.021557551 4289150233
-0.0049419329 -0.009769462 -0.010150066 4289084698
-0.00046106055 -0.02039896 -0.00015324261 4289215259
0.0026800781 -0.025281668 0.0042705424 4287840299
9.7848475e-05 -0.024855837 0.0014895536 4290067723
0.0030708574 -0.029033437 0.0052070869 4289673748
0.0094916672 -0.07123927 -0.015173525 4289473064
0.012371972 -0.074931197 -0.012346592 4286136898
0.0070380457 -0.071458004 -0.017192069 4287771448
0.0093483813 -0.072853327 -0.016330734 4288361264
0.0086555183 -0.072151393 -0.019444961 4286724673
0.013722207 0.013115518 0.0015206141 4284442679
0.015785061 0.012569118 0.0018050447 4283987758
0.019894883 0.0051746964 0.0091986982 4283791919
0.025511101 -0.0070079044 0.021551963 4283791919
0.031432703 -0.019867681 0.03459312 4283527994
0.017659649 0.0041464418 0.0077945879 4284312374
0.022405706 -0.0053316168 0.017293051 4284185128
0.027432978 -0.015490852 0.027483303 4283924008
0.032330878 -0.024957389 0.036947064 4283924008
0.036455557 -0.031672336 0.043563325 4283528759
0.019530315 -0.0043202676 0.013752564 4284313649
0.024300117 -0.013827343 0.023222722 4284185129
0.028731648 -0.021950603 0.031261347 4284118828
0.03280893 -0.028691195 0.03787208 4283789368
0.025987033 -0.021675594 0.028414577 4284181558
0.029202644 -0.025675826 0.032194674 4283986228
0.032868031 -0.031055793 0.037377637 4283656769
0.026856942 -0.02678854 0.030759327 4284115513
0.029672496 -0.029414065 0.033118732 4283788348
0.033344157 -0.034811161 0.038287193 4283590724
0.027318567 -0.030531503 0.031682227 4284050234
0.030141192 -0.033165321 0.034033466 4283853884
0.034027617 -0.039275043 0.039889317 4283590468
0.031019995 -0.038325392 0.036340702 4283854393
0.034501217 -0.043058552 0.040778629 4283853629
0.028899094 -0.042540796 0.035093378 4283590214
0.02331873 -0.039589055 0.029930953 4283657788
0.026323996 -0.04296454 0.032957256 4283724343
0.028951138 -0.044928297 0.034583934 4283789879
0.031594299 -0.046890818 0.036207058 4284180539
0.02336696 -0.041963406 0.029432438 4283722304
0.026174232 -0.044642538 0.031754415 4283657278
0.029002825 -0.047319926 0.034071535 4283853883
-0.039080467 0.019114966 -0.026256017 4283919928
-0.037587505 0.020672105 -0.028080504 4283988013
-0.035833988 0.020800345 -0.028484724 4284444464
0.023414824 -0.044341803 0.028930955 4283590213
-0.040584307 0.015373681 -0.024772182 4283986993
-0.039597947 0.019802805 -0.029430661 4283927578
-0.037980024 0.020647198 -0.030542195 4283795999
-0.036231931 0.020775001 -0.030945193 4283731229
-0.034345698 0.020186815 -0.030641478 4283794213
-0.032313351 0.018883197 -0.0296329 4284055079
-0.030556772 0.019011909 -0.030037645 4284384283
-0.041602213 0.018938761 -0.030778669 4284054314
-0.040373791 0.021941943 -0.03400949 4283927069
-0.038636629 0.022068838 -0.034410052 4283857963
-0.036764156 0.021477329 -0.034104884 4283729699
-0.034748416 0.020167986 -0.033095825 4283860514
-0.033002745 0.020295771 -0.033498149 4284056098
-0.03125691 0.020423664 -0.03390044 4284055333
-0.02921943 0.019116152 -0.032896142 4284185383
-0.027467955 0.019244641 -0.033299591 4284445738
-0.043227423 0.015915476 -0.030004829 4283923244
-0.041982617 0.018928515 -0.033233002 4283991329
-0.040629227 0.021218969 -0.035750862 4283924008
-0.039027091 0.022066573 -0.036855597 4283857709
-0.037160221 0.0214724 -0.036550734 4283924264
-0.035150308 0.020158211 -0.035543617 4283925029
-0.033269826 0.019565245 -0.035241812 4284057373
-0.031526763 0.019692903 -0.035643484 4284120868
-0.029637996 0.01910072 -0.035343457 4284121378
-0.027891953 0.019228781 -0.03574568 4284252449
-0.02614576 0.019356968 -0.036147851 4284251684
-0.024399433 0.019485237 -0.036550004 4284184874
-0.022496779 0.018894415 -0.036252841 4284252193
-0.045592252 0.017226441 -0.033468328 4284055078
-0.044346984 0.020248165 -0.036690183 4284122398
-0.042488929 0.019650856 -0.036385141 4283994133
-0.041143049 0.02194735 -0.038896453 4283992604
-0.039416719 0.022073377 -0.039294571 4283925283
-0.037690211 0.02219953 -0.039692648 4283992094
-0.035551373 0.020157536 -0.037984885 4284124694
-0.033676524 0.019561933 -0.037683431 4284122143
-0.031653475 0.018244492 -0.036682472 4284186659
-0.030055728 0.019094365 -0.037784196 4284187168
-0.028759163 0.021387899 -0.040283665 4284186914
-0.02732772 0.022958573 -0.04208051 4283990819
-0.025446784 0.022363894 -0.041780099 4283795998
-0.023404408 0.021048298 -0.040783197 4284056608
-0.021192644 0.019012472 -0.039091706 4284054569
-0.019126076 0.01769885 -0.038100224 4284118573
-0.016556878 0.014223795 -0.035023723 4284512803
0.015470862 -0.046438046 0.020694852 4283655749
-0.046985012 0.012746617 -0.031286731 4283854139
-0.045839284 0.016504692 -0.035211183 4284121124
-0.04447208 0.018809104 -0.037722692 4284055844
-0.042867471 0.019661009 -0.038824864 4283991073
-0.04139721 0.021238137 -0.040627971 4283992858
-0.039805535 0.02208931 -0.041727077 4283992858
-0.038218979 0.022940164 -0.04282489 4284124184
-0.036226001 0.021615874 -0.041820366 4284121889
-0.034222234 0.020292506 -0.040818315 4284121378
-0.032207649 0.018969985 -0.039818637 4284121888
-0.030472625 0.019097099 -0.04021842 4284122143
-0.029033098 0.020672679 -0.042014007 4284056354
-0.027604047 0.022247544 -0.043807063 4283728678
-0.025726084 0.021650428 -0.043507621 4283596079
-0.023686875 0.020330233 -0.0425133 4283665949
-0.021795359 0.019734265 -0.042216793 4283863064
-0.019576188 0.017692475 -0.040531833 4284054314
-0.017340939 0.015651945 -0.038850445 4284186148
-0.01392464 0.0085530989 -0.032317378 4284250919
-0.0096096359 -0.0021547154 -0.022331443 4284185128
-0.0041842833 -0.017190993 -0.0082093878 4284250663
0.00030642375 -0.027885623 0.0017362945 4284250919
0.0032834373 -0.032076105 0.0054431232 4284185129
0.0057533123 -0.034098692 0.0070710173 4283788603
0.0087863691 -0.038284779 0.010765146 4283656258
0.012036461 -0.043189853 0.015141382 4283655749
-0.045480531 0.01214603 -0.033438496 4283988778
-0.044349667 0.015914038 -0.037351336 4284054313
-0.042866055 0.017496446 -0.039154403 4284120868
-0.041650955 0.020533647 -0.042356186 4284055844
-0.039798457 0.01993164 -0.04205304 4284056099
-0.038343515 0.021512242 -0.043849289 4284121889
-0.03621402 0.019456364 -0.042149168 4284121634
-0.0344874 0.019582648 -0.042547178 4284121633
-0.032476012 0.018255526 -0.041550081 4284121378
-0.030888725 0.019108966 -0.042646181 4284056864
-0.029306609 0.019962134 -0.043741006 4283925538
-0.02787995 0.021541232 -0.045530315 4283792174
-0.026004959 0.020941636 -0.045231789 4283791408
-0.024124507 0.020342598 -0.044934485 4283925794
-0.02208038 0.019018453 -0.0439445 4283990819
-0.020025473 0.01769517 -0.04295687 4284056354
-0.017305527 0.013472009 -0.039201085 4284186913
-0.013556179 0.0049012192 -0.031300336 4284186913
-0.0087295659 -0.0080135949 -0.019265676 4284186913
-0.0032925084 -0.023095042 -0.0051805559 4284186914
0.00051426888 -0.030923992 0.001976952 4284120614
0.003318429 -0.03440313 0.0049835099 4284054058
0.0057902224 -0.036432117 0.0066060247 4283855923
0.0086424313 -0.039907485 0.0096016927 4283722558
0.011891019 -0.044828042 0.013966865 4283655749
-0.044881489 0.0063089691 -0.030276574 4283988269
-0.043486793 0.0086284578 -0.032784648 4283923243
-0.042234037 0.011677038 -0.0359887 4283923243
-0.041260023 0.016184092 -0.040585894 4284121889
-0.039660204 0.017040141 -0.041683622 4284056099
-0.038199682 0.018625477 -0.043477871 4284055843
-0.03633919 0.01802207 -0.043178122 4284187424
-0.034891624 0.019606674 -0.044969294 4284187424
-0.033028144 0.019003632 -0.044670049 4284055843
-0.03144877 0.019858716 -0.045762751 4284057373
-0.02957968 0.019256288 -0.045464646 4283993878
-0.028155413 0.020839563 -0.04725017 4283794469
-0.026436124 0.020965775 -0.047646143 4283792429
-0.024561327 0.020364089 -0.047349188 4283924518
-0.022523005 0.01903508 -0.046361089 4283992094
-0.020152491 0.016251776 -0.043992046 4284056863
-0.017107081 0.010560486 -0.038863592 4284121378
-0.012524698 -0.0016724356 -0.027530815 4284187168
-0.0075144246 -0.015352637 -0.014839069 4284187168
-0.0027457252 -0.027571648 -0.0035489593 4284187168
0.00019931793 -0.031790949 0.00014558434 4283987758
0.0029997118 -0.035281353 0.0031448519 4283789368
0.0058267824 -0.03876967 0.0061380779 4283723323
0.0088625289 -0.042981952 0.009812071 4283657533
0.011745613 -0.046465889 0.012792598 4283656768
-0.044164013 -0.00028706715 -0.026434161 4283855159
-0.042750273 0.0020403862 -0.028941814 4283922223
-0.041352291 0.0043667816 -0.031445775 4283923243
-0.040355984 0.0088885538 -0.036038321 4283924009
-0.038866159 0.010480274 -0.037836172 4283792684
-0.037520725 0.012803126 -0.040327791 4283858218
-0.035917845 0.013661765 -0.041424476 4283989288
-0.034598652 0.015982885 -0.043909911 4284121124
-0.033153307 0.017571734 -0.04569722 4284121889
-0.031718429 0.019159963 -0.047482092 4284056863
-0.029999558 0.019285927 -0.047878135 4284058394
-0.028880116 0.022334371 -0.051044315 4283993623
-0.026866492 0.020998945 -0.05005395 4283992858
-0.024997305 0.020394651 -0.049757328 4283992858
-0.022333343 0.016140807 -0.046008371 4284058139
-0.019476835 0.011159588 -0.041576572 4284187934
-0.015603889 0.0018035285 -0.033016395 4284121379
-0.010666672 -0.011923842 -0.020338852 4284121379
-0.0057968348 -0.024914436 -0.008372752 4284121379
-0.0023716092 -0.031336576 -0.002617443 4284120613
0.00023246557 -0.034110911 -0.00030826125 4283790388
0.0028579123 -0.036883503 0.0019960506 4283525699
0.0058630072 -0.04111135 0.0056672255 4283525444
0.0090818778 -0.046064898 0.01001629 4283656259
0.011600252 -0.048103422 0.011618542 4283787583
-0.04381061 -0.0047088861 -0.024706814 4283789624
-0.04226267 -0.0031088069 -0.026515089 4283922989
-0.040725153 -0.0015094504 -0.028320856 4283923244
-0.039198052 8.9302659e-05 -0.030124184 4283857709
-0.037812512 0.0024214908 -0.032620221 4283857454
-0.036442738 0.0047526695 -0.035112593 4283792429
-0.035225149 0.0078165568 -0.038295276 4283858983
-0.034028631 0.010878995 -0.041473027 4284057374
-0.032994937 0.014673378 -0.04533862 4284056099
-0.031554487 0.016266327 -0.047121502 4284122144
-0.030124519 0.017858656 -0.048901927 4284056354
-0.028854717 0.020183071 -0.051370773 4283990053
-0.027296033 0.021041263 -0.052455273 4283990308
-0.025277454 0.019701896 -0.051469233 4284055334
-0.02230208 0.013970155 -0.046350859 4284121634
-0.018642742 0.0053136125 -0.038488206 4284121378
-0.014104549 -0.0069972873 -0.02720065 4284121378
-0.0091445856 -0.020764641 -0.014559271 4284121633
-0.0052616261 -0.029404424 -0.0067477897 4284186403
-0.0023405664 -0.033651963 -0.0030673747 4283790643
9.1634691e-05 -0.035703927 -0.0014505545 4283657279
0.0030687265 -0.03994707 0.0022171596 4283524933
0.0060778111 -0.044187739 0.0058776131 4283525189
0.0091188848 -0.048425928 0.0095307911 4283656514
-0.04381961 -0.0069366544 -0.025080305 4283789623
-0.042268757 -0.0053320192 -0.026886027 4283922734
-0.040477086 -0.0052015632 -0.027299467 4283857454
-0.038685236 -0.0050710067 -0.027712885 4283857454
-0.037155043 -0.0034676231 -0.029513575 4283857454
-0.035768878 -0.0011287108 -0.032004874 4283857709
-0.034534704 0.0019451417 -0.035184886 4283857199
-0.0333216 0.0050175004 -0.038359925 4283924009
-0.031988058 0.0073528774 -0.040838864 4283924263
-0.03081448 0.010422584 -0.04400469 4283859493
-0.029515158 0.012755655 -0.046475593 4283924008
-0.028381143 0.01582266 -0.049632154 4284056099
-0.026963916 0.01741858 -0.051406216 4284056098
-0.024937887 0.016075406 -0.050425198 4284186658
-0.02148376 0.0081232972 -0.043258663 4284252449
-0.017010231 -0.0042297393 -0.03198396 4284252449
-0.012120653 -0.01804404 -0.019357381 4284252449
-0.0081226863 -0.027447753 -0.010868259 4284185639
-0.0052322708 -0.031710856 -0.0071905893 4283789368
-0.0026513934 -0.034504585 -0.0048892 4283656259
-0.043828938 -0.0091685653 -0.025456779 4283855414
-0.042275127 -0.0075593926 -0.027259897 4283922989
-0.040606361 -0.0066897869 -0.028367277 4283922989
-0.038558487 -0.0080368221 -0.027395278 4283922479
-0.037022728 -0.0064286254 -0.029194053 4283922734
-0.035497408 -0.004821144 -0.030990321 4283923244
-0.034118589 -0.0024761148 -0.033474989 4283923243
-0.032478143 -0.001608137 -0.034575433 4283989289
-0.031125542 0.00073520094 -0.037053894 4283989544
-0.029788721 0.0030774325 -0.039528601 4283990309
-0.028614361 0.006156031 -0.042688046 4283859493
-0.027311791 0.0084959976 -0.045154762 4283859493
-0.026176993 0.01157191 -0.048304934 4283990564
-0.023980897 0.0094886236 -0.046644133 4284187679
-0.02035315 0.00077698007 -0.038813304 4284252703
-0.0155419 -0.01308484 -0.02619968 4284251938
-0.010954779 -0.025466621 -0.01497875 4284185638
-0.007929761 -0.030481301 -0.010619774 4283921204
-0.0053711794 -0.033285566 -0.008319851 4283656769
-0.0027912185 -0.036088131 -0.0060247509 4283590468
-0.0001899004 -0.038889021 -0.0037344964 4283524679
-0.043958504 -0.010663066 -0.026529163 4283921459
-0.042404439 -0.0090495124 -0.028329108 4283988523
-0.040735584 -0.0081777461 -0.029434901 4283922989
-0.038816091 -0.0087882504 -0.029157154 4283988269
-0.037021656 -0.008657448 -0.029571123 4283922734
-0.035626616 -0.0063047819 -0.032054741 4283922989
-0.03397565 -0.005433958 -0.033156075 4283923243
-0.03246833 -0.0038231872 -0.03494484 4283923243
-0.030830298 -0.0029531159 -0.036043044 4283989289
-0.029341254 -0.0013435073 -0.037827402 4283924009
-0.028009158 0.0010050796 -0.040296122 4283924264
-0.026543718 0.0026131421 -0.042074896 4283858219
-0.024936993 0.0034813844 -0.043165617 4283858473
-0.022563267 0.00065420195 -0.040830061 4284055588
-0.018754315 -0.0088207908 -0.032339942 4284055588
-0.014237162 -0.021245137 -0.021130593 4284055589
-0.010279175 -0.030708909 -0.012674659 4284055078
-0.0079026371 -0.03278508 -0.011059974 4283855159
-0.0053423196 -0.035598002 -0.0087669669 4283656513
-0.0029310063 -0.037671372 -0.0071600964 4283590469
0.017703373 -0.057156309 0.0082709575 4282871368
-0.040739719 -0.01040883 -0.029812168 4284446758
-0.038817901 -0.011021338 -0.029536638 4284184873
-0.037151273 -0.010147404 -0.030640118 4284054313
-0.035489786 -0.0092737116 -0.03174239 4283988268
-0.034104731 -0.0069151483 -0.034218717 4284054059
-0.03232054 -0.0067848265 -0.034630127 4283988523
-0.030677143 -0.00591214 -0.035727996 4284054314
-0.029182527 -0.0042977668 -0.037510391 4283922988
-0.027698386 -0.0026840605 -0.039290313 4283858219
-0.026075799 -0.001812581 -0.040383145 4283924264
-0.024306793 -0.0016828403 -0.040790662 4283924264
-0.021612193 -0.0060003921 -0.037097637 4283924009
-0.017787289 -0.015502691 -0.028632324 4283989544
-0.01357409 -0.026481472 -0.018818522 4283989544
-0.010092113 -0.033751041 -0.012430877 4283988779
-0.0077109821 -0.035833448 -0.010822122 4283790644
-0.0053137951 -0.037914537 -0.0092170304 4283658808
-0.0027303733 -0.040734403 -0.0069357632 4283657278
-0.00029842928 -0.042812712 -0.0053384355 4283983424
0.017556958 -0.058801152 0.0070917839 4283000654
-0.037020531 -0.01312742 -0.030334264 4284381734
-0.035486456 -0.011506207 -0.032122828 4284054059
-0.033962857 -0.0098856352 -0.033908959 4283989034
-0.032449719 -0.0082657598 -0.035692558 4284054059
-0.030665468 -0.0081353374 -0.036103904 4283989033
-0.02902453 -0.0072605535 -0.037199516 4283922988
-0.027534816 -0.0056420825 -0.038977474 4283857709
-0.026055571 -0.0040242709 -0.040752947 4283858219
-0.02413265 -0.0046379678 -0.040478617 4283858218
-0.021279987 -0.0097117461 -0.036114495 4283858219
-0.017606471 -0.018498935 -0.028352775 4283989288
-0.01355036 -0.028767362 -0.019244475 4283989288
-0.01022983 -0.035315968 -0.013553218 4283922733
-0.0076847412 -0.038147666 -0.011269809 4283592253
-0.0051182956 -0.040977679 -0.0089912424 4283723068
-0.0025304779 -0.043806002 -0.0067174989 4284115514
-0.032440897 -0.010493219 -0.036070887 4284250918
-0.030654136 -0.010362629 -0.036482833 4284054313
-0.028867234 -0.010231923 -0.036894727 4283989034
-0.027371962 -0.0086086467 -0.038670786 4283922479
-0.025738616 -0.0077320747 -0.039762828 4283857709
-0.023959253 -0.0076016076 -0.040172759 4283923243
-0.0212566 -0.011944856 -0.036501098 4283923244
-0.017739404 -0.020012826 -0.0294386 4283989034
-0.013686139 -0.030312143 -0.020352406 4283989034
-0.010367502 -0.036880605 -0.014675352 4283988268
-0.0074943788 -0.04121083 -0.01104265 4283855158
-0.0050906651 -0.043304637 -0.0094487872 4283918654
0.012741551 -0.060154393 0.0036262209 4282738259
-0.030643146 -0.012594052 -0.036864728 4284576808
-0.028996762 -0.011714589 -0.037958339 4284316709
-0.027355533 -0.010835364 -0.039050665 4283988014
-0.025422756 -0.011452861 -0.038781952 4283922989
-0.023635563 -0.01132182 -0.039193686 4283923244
-0.02123357 -0.014182039 -0.0368907 4283989034
-0.0178723 -0.021526448 -0.030524228 4284054314
-0.013980862 -0.031109184 -0.022137567 4284054314
-0.010505129 -0.038444921 -0.015797265 4283922734
-0.0077975988 -0.042041346 -0.012850244 4283854904
-0.0052303262 -0.044888839 -0.010584874 4284180284
0.010255873 -0.060446665 0.0015622163 4283393863
0.012225069 -0.060300656 0.0011097612 4282738514
-0.023765434 -0.012804274 -0.04025704 4284119848
-0.021517824 -0.014923293 -0.038637429 4283988268
-0.018161286 -0.022289947 -0.032286119 4283857709
-0.014275145 -0.031901523 -0.023919357 4283857709
-0.010642711 -0.04000897 -0.01691898 4283790899
-0.0079362988 -0.043616444 -0.013979837 4283788858
0.0076019801 -0.05998072 -0.0011686711 4283066953
0.0095629729 -0.059835464 -0.0016193492 4282152268
0.011894733 -0.061185434 -0.00073045399 4282346068
-0.0214951 -0.01716432 -0.039029792 4284511274
-0.01798204 -0.025304854 -0.032019977 4284249898
-0.013934653 -0.035696551 -0.023000684 4284315689
-0.010619026 -0.042324372 -0.017366825 4284183598
-0.0080749616 -0.045191213 -0.015109219 4284312118
0.0070982613 -0.060105726 -0.0036729937 4282869583
0.0090537816 -0.059960887 -0.0041224202 4282542419
0.011379678 -0.061315671 -0.0032354286 4282083418
0.0087277032 -0.060829401 -0.005951765 4282541653
0.0020301789 -0.059860848 -0.0084354607 4283264578
0.0043255426 -0.061227083 -0.0075481972 4282477393
0.0066316016 -0.062592357 -0.0066633555 4282672723
-0.00056746602 -0.059340999 -0.011142286 4283264068
0.0013661012 -0.059198171 -0.011586959 4282869838
0.003652934 -0.060569383 -0.010701033 4282149719
0.0063089989 -0.063453503 -0.008488141 4281755998
-0.0038213283 -0.055766746 -0.016505243 4283463988
-0.0013933256 -0.057904527 -0.014950926 4282805833
0.00035571679 -0.057003029 -0.016057417 4282607189
-0.0075316131 -0.049871683 -0.023848074 4284117044
-0.0042977445 -0.055829138 -0.018970858 4282743358
-0.0018757954 -0.057973921 -0.017420024 4282609483
-0.00030558929 -0.056308918 -0.019186448 4282476374
-0.010859016 -0.045457557 -0.029844187 4283921458
-0.0080002099 -0.049906969 -0.026295803 4282547519
-0.004941415 -0.055118121 -0.02209235 4282152779
-0.0030402727 -0.054977842 -0.02252968 4282280789
-0.012701388 -0.047908306 -0.029860962 4284247348
-0.010670017 -0.048537664 -0.029629149 4282875448
-0.007972423 -0.052233174 -0.026752841 4282154819
-0.0052481741 -0.055926621 -0.023882587 4281891148
-0.0035203435 -0.055020273 -0.024979442 4281821024
-0.0096699931 -0.055471554 -0.026118044 4282740043
-0.0074499585 -0.056870133 -0.025233332 4282349129
-0.0053868517 -0.057499081 -0.025010243 4282151248
0.066361241 -0.010051835 0.075366661 4283189608
0.0043964535 0.021240771 0.025537644 4279387303
0.0062903799 0.021381427 0.025102649 4279320494
0.0012855045 0.023511378 0.020443935 4279191718
0.0029810928 0.024315208 0.019280173 4278535094
0.0048562922 0.024454458 0.01884947 4279254449
0.0074815378 0.02193749 0.021343578 4280303518
0.0093675628 0.022077689 0.020910494 4281481874
-0.00073092803 0.021808824 0.019754507 4280897669
0.0019324832 0.026087543 0.014506766 4278271934
0.0080879666 0.024504194 0.015410931 4279192229
0.01053587 0.022645537 0.017166752 4279585949
0.014885958 0.020928614 0.018485952 4279445443
0.061526146 -0.034090824 0.074230999 4282274669
-0.0025732256 0.019437144 0.019796327 4280962693
-0.0015754402 0.022922989 0.015711948 4278799018
-0.00024595857 0.025068754 0.013093428 4279192230
0.0014311858 0.025875563 0.011937124 4279324574
0.0053311028 0.02548275 0.011812356 4278470834
0.007380072 0.024952572 0.012112857 4278471089
0.0096268654 0.023754794 0.013138917 4278864809
0.011689287 0.023225812 0.013436397 4278996134
0.013954867 0.022029554 0.014458311 4279258019
0.016030733 0.021501729 0.014752821 4280109718
0.018111974 0.020974377 0.015046152 4282139264
0.061837673 -0.037181422 0.07440336 4282143598
-0.0037535243 0.021902429 0.014297268 4280830604
-0.0022420883 0.023383604 0.012411133 4278928813
