# .PCD v0.7 - Point Cloud Data file format
VERSION 0.7
FIELDS x y z rgba
SIZE 4 4 4 4
TYPE F F F U
COUNT 1 1 1 1
WIDTH 958
HEIGHT 1
VIEWPOINT 0 0 0 1 0 0 0
POINTS 958
DATA ascii
-0.01618683 0.023510573 0.00041984022 4288492844
-0.013882555 0.021569915 0.0022021895 4288754474
-0.011865772 0.021006513 0.0025377981 4288754474
-0.0099980421 0.021131385 0.0021511726 4288296749
-0.043920394 0.030648617 -0.0062376522 4288693273
-0.042887028 0.035618879 -0.011713215 4289148449
-0.041433986 0.037815895 -0.014269512 4290324508
-0.039529186 0.037241735 -0.013913155 4290127905
-0.037379716 0.035283256 -0.012104318 4289800484
-0.035214026 0.033325925 -0.010298789 4289669669
-0.03315701 0.032061812 -0.009222257 4289538853
-0.030961562 0.030106617 -0.0074227802 4289277223
-0.028749909 0.028152624 -0.0056266482 4289211943
-0.026522022 0.026199736 -0.0038337801 4289081128
-0.02454916 0.02563066 -0.0034911139 4288492588
-0.022570793 0.025062039 -0.0031495262 4288623403
-0.020445969 0.023802871 -0.0020866487 4288688938
-0.01802304 0.021162998 0.00041759759 4288558123
-0.015871201 0.019905858 0.0014749719 4288754474
-0.013708517 0.018649474 0.0025301967 4288296493
-0.011686679 0.018084191 0.0028631063 4288558124
-0.0099680275 0.018899448 0.0017558243 4288231469
-0.040981326 0.032864265 -0.011706511 4288756258
-0.038830016 0.030899195 -0.0099030528 4289800993
-0.03654306 0.028240709 -0.0073777353 4289146919
-0.034600746 0.027666962 -0.0070307059 4288623403
-0.032528166 0.026399447 -0.0059607024 4288754474
-0.030572128 0.025826728 -0.0056163548 4288558123
-0.028350387 0.023866778 -0.0038272375 4288492844
-0.02637798 0.023295358 -0.0034862021 4288492589
-0.0242646 0.022030842 -0.0024243658 4288558124
-0.022278514 0.021460503 -0.0020860368 4288688939
-0.020286914 0.020890616 -0.0017487854 4288427053
-0.018002901 0.018935189 2.7783215e-05 4288296238
-0.015994977 0.018366575 0.00036178716 4288296238
-0.013683949 0.01641313 0.0021328935 4288295983
-0.011811201 0.016538214 0.0017451402 4288295728
-0.010400817 0.0187402 -0.00079650711 4288035118
-0.040416505 0.027193658 -0.0084346533 4288560164
-0.038366299 0.025919946 -0.0073634367 4288951334
-0.036305252 0.024647063 -0.006294467 4288623403
-0.034233298 0.023374954 -0.0052276454 4288754474
-0.032275032 0.022800107 -0.0048855264 4288623659
-0.03031126 0.022225711 -0.0045444872 4288688939
-0.028212052 0.020955652 -0.0034831371 4288688939
-0.026234571 0.020382348 -0.0031448016 4288623403
-0.024116326 0.01911376 -0.0020873193 4288754219
-0.022263091 0.019237071 -0.0024713892 4288688939
-0.020128485 0.01796972 -0.0014171079 4288361774
-0.01798306 0.016703214 -0.00036505517 4288492334
-0.015972745 0.016132541 -3.3197924e-05 4288558124
-0.013808314 0.01486744 0.001015096 4288099633
-0.011784378 0.014297847 0.0013442608 4288361264
-0.010524876 0.01720107 -0.0019095028 4288035628
-0.040081102 0.022895494 -0.0066279452 4288560163
-0.038137037 0.022317182 -0.0062846788 4288623913
-0.036187451 0.021739364 -0.0059425435 4288558379
-0.03423233 0.021161996 -0.0056014904 4288492589
-0.032147292 0.019886438 -0.0045406669 4288361773
-0.030178446 0.019310109 -0.0042022942 4288819754
-0.028074365 0.018035997 -0.0031452905 4288623403
-0.025959413 0.0167627 -0.0020904634 4288557869
-0.023833599 0.015490167 -0.0010377867 4288492844
-0.021972451 0.015613966 -0.0014235191 4288558123
-0.019970726 0.015040297 -0.0010916786 4288558379
-0.018106621 0.015164483 -0.001477886 4288427309
-0.016096588 0.014591549 -0.0011476334 4288099889
-0.014081091 0.014019035 -0.00081839878 4288034864
-0.012362383 0.014840763 -0.0019209599 4287904304
-0.039974067 0.019983035 -0.0062767989 4288559654
-0.038141143 0.020104233 -0.0066572218 4288689958
-0.036189165 0.01952434 -0.0063172397 4288362539
-0.034231652 0.018944889 -0.0059783547 4288361773
-0.032268617 0.018365897 -0.0056405426 4288427053
-0.030046295 0.016385999 -0.0038663391 4288296238
-0.027937319 0.015107781 -0.0028136438 4288558123
-0.025817472 0.013830345 -0.0017630775 4288492844
-0.023686778 0.012553751 -0.00071474724 4288754473
-0.021957982 0.013377819 -0.0018180814 4288427564
-0.02009413 0.013501868 -0.0022043251 4288035119
-0.018230136 0.013626002 -0.0025905408 4288166443
-0.016366001 0.013750255 -0.0029767025 4288035118
-0.014353462 0.013175368 -0.0026485473 4287774509
-0.04020771 0.019173279 -0.0080915894 4288560164
-0.038261551 0.018590689 -0.0077521224 4288362029
-0.036191169 0.017305139 -0.0066949702 4288362028
-0.034231279 0.016723622 -0.0063582328 4288558124
-0.032141801 0.015439473 -0.0053048632 4288427308
-0.030041482 0.014156174 -0.0042537227 4288362283
-0.028059673 0.013576381 -0.0039213272 4288296749
-0.026072342 0.012996987 -0.0035899775 4288362539
-0.023944799 0.011715766 -0.0025442764 4288297514
-0.022081207 0.011839673 -0.0029305601 4287906343
0.037778288 -0.0097461939 0.011454438 4287378494
0.038879782 -0.0068250149 0.0082545942 4287446324
-0.040327761 0.017662264 -0.0091847042 4287840299
-0.038381893 0.017077409 -0.0088468436 4288231469
-0.036193449 0.015081808 -0.0070757014 4288492844
-0.034352351 0.015203644 -0.0074577504 4288427564
-0.032387201 0.014620297 -0.0071236487 4288428074
-0.030416545 0.014037434 -0.0067906692 4288363304
-0.028440367 0.013455037 -0.006458764 4288101673
-0.026326817 0.012168378 -0.0054135192 4287513390
0.031148631 -0.009663865 0.0094002774 4286920003
0.033722416 -0.011630453 0.011094158 4287705403
0.03631223 -0.013595834 0.012784804 4287706169
0.038069502 -0.012762651 0.011680868 4287706423
0.039391767 -0.01053147 0.0091836369 4288494373
-0.040560756 0.016859703 -0.010994392 4287775273
-0.038502146 0.01556439 -0.0099413954 4288035373
-0.036314357 0.013562124 -0.0081750406 4287969838
-0.034473363 0.013683923 -0.0085570896 4287905324
-0.032508511 0.013098322 -0.008224586 4288233254
0.022816699 -0.010398224 0.0084482199 4287509053
0.025156492 -0.011671722 0.0094451671 4287771449
0.027507 -0.012944438 0.010440025 4287706169
0.029666942 -0.013514027 0.01073428 4287902773
0.031832218 -0.014083132 0.011027518 4287772469
0.034209438 -0.015353709 0.012017109 4287837748
0.036597315 -0.016623423 0.013004531 4288033845
0.038360003 -0.015787698 0.011901165 4288033843
0.018789753 -0.012267545 0.0080916164 4287443775
0.020927973 -0.012841217 0.0083884122 4287836729
0.023264594 -0.014119431 0.0093826661 4288033589
0.025416221 -0.014692023 0.0096769007 4287968054
0.027374795 -0.014559448 0.0092726788 4288033333
0.029534426 -0.015131235 0.0095653711 4287771958
0.031699397 -0.015702561 0.0098570501 4287837749
0.034076117 -0.016977556 0.010843477 4287903028
0.03625441 -0.017547756 0.011132565 4287968309
0.038014475 -0.016710013 0.010031371 4287968564
0.0077017099 -0.0095698684 0.0040375376 4288231468
0.009984158 -0.010856815 0.0050392831 4287838004
0.012277346 -0.012142882 0.0060388474 4287641143
0.014399122 -0.012720175 0.0063371742 4288099634
0.016711116 -0.014004812 0.0073330486 4287968564
0.019033836 -0.015288562 0.0083267493 4287968309
0.021177094 -0.015864097 0.0086208666 4287902773
0.023518592 -0.017146401 0.0096109072 4287902773
0.025284167 -0.016306736 0.0085097337 4288033843
0.027242608 -0.016174175 0.0081055379 4288033843
0.029401928 -0.016748175 0.0083966637 4288033843
0.031566583 -0.017321706 0.0086867763 4287903028
0.033942819 -0.018601112 0.0096700536 4288099634
0.036120791 -0.019173525 0.0099575752 4287968564
0.037880912 -0.018333569 0.0088580223 4287772468
0.003546901 -0.010707915 0.0029852474 4287904814
0.0058153681 -0.012000404 0.0039864602 4287642673
0.0080945902 -0.013292037 0.004985475 4288100143
0.010561198 -0.015293375 0.0066810111 4288034098
0.01250599 -0.015162498 0.0062790671 4288099633
0.014450822 -0.015031502 0.0058772052 4288033843
0.016580336 -0.015610382 0.0061723562 4287968564
0.018902564 -0.016898558 0.007162896 4287968564
0.021235529 -0.018185936 0.0081513571 4288033843
0.023386508 -0.018763036 0.0084423209 4288033843
0.025347494 -0.018630415 0.0080375178 4288033843
0.027110443 -0.017788611 0.0069386112 4288099379
0.029269449 -0.018364817 0.0072281761 4288164658
0.031027026 -0.01752317 0.0061305342 4287771958
0.033397403 -0.018807314 0.0071117105 4287837495
0.035360985 -0.018673956 0.0067067882 4287707189
0.037324529 -0.018540487 0.006301959 4287642928
-0.0021980666 -0.013396308 0.0037329355 4287775273
-0.00026985258 -0.013267204 0.0033339271 4288231724
0.0018242002 -0.013851486 0.0036342451 4288035119
0.0037552491 -0.01372198 0.0032348102 4287904048
0.0061996616 -0.015731573 0.0049298303 4288034864
0.0083126463 -0.016314179 0.0052264584 4288100398
0.010783937 -0.018321797 0.0069161272 4288034610
0.01237569 -0.01676552 0.0051201517 4288230704
0.014502186 -0.017346904 0.0054142186 4287903283
0.016634066 -0.017927811 0.0057072574 4288034099
0.019145634 -0.019932248 0.0073889429 4288230193
0.021483434 -0.021223657 0.0083730808 4288230193
0.023254454 -0.02037935 0.0072739692 4288034099
0.02502013 -0.019535281 0.0061760424 4287968564
0.026582589 -0.017980158 0.0043866513 4287968819
0.028535403 -0.017847858 0.0039837072 4287772469
0.0304882 -0.017715454 0.0035808468 4287445305
-0.01138347 -0.0090503842 -0.0021285219 4287578669
-0.0091754384 -0.010356478 -0.0011219168 4288035374
-0.0066468418 -0.013094433 0.0012822496 4288231469
-0.004411865 -0.014398471 0.0022833934 4288165678
-0.0021660887 -0.015701719 0.0032824324 4288296494
-0.00023533776 -0.015572466 0.0028828802 4288427053
0.0018610805 -0.01615873 0.0031810431 4288492589
0.0037946627 -0.016029075 0.0027810633 4287969328
0.0062410831 -0.018045105 0.0044707851 4288165679
0.0083564296 -0.018629819 0.0047653085 4288034864
0.010653444 -0.019928917 0.0057542017 4288165679
0.012424365 -0.019082978 0.0046563195 4288230958
0.014371596 -0.018951863 0.0042539323 4288165168
0.016503166 -0.019534983 0.0045454027 4288164914
0.018453136 -0.019403428 0.0041426318 4288033843
0.020782419 -0.020699792 0.0051252721 4288164914
0.022353139 -0.01913999 0.0033373283 4288034610
0.024303146 -0.019008115 0.0029347902 4287772979
0.026253156 -0.01887612 0.0025323369 4287119159
-0.015028175 -0.012311697 -0.0010736687 4288036903
-0.012972884 -0.012903683 -0.00076920446 4287839024
-0.01106149 -0.012776285 -0.0011651618 4287838513
-0.0088459291 -0.014086232 -0.00016343314 4287904304
-0.006619554 -0.015395388 0.00083618704 4288100398
-0.0043823943 -0.016703688 0.0018336028 4288165678
-0.0021344312 -0.018011183 0.0028289193 4288296238
-0.00020113587 -0.017881781 0.0024288334 4288295983
0.0018976294 -0.018470086 0.0027248636 4288165168
0.004001826 -0.01905793 0.0030198572 4287969328
0.006452933 -0.021080285 0.0047037369 4288034864
0.0085733011 -0.02166681 0.0049955538 4287904049
0.010522984 -0.021535747 0.0045924922 4288165678
0.012115184 -0.019970685 0.0028029419 4288099889
0.013878155 -0.019122943 0.0017083697 4288295729
0.015819937 -0.018992066 0.0013071969 4288230704
0.017948546 -0.019577518 0.0015977696 4288296494
0.020082515 -0.020162441 0.0018872842 4288296748
0.021645419 -0.018598743 0.0001041647 4286989363
-0.021286387 -0.012099385 -0.0031265011 4287513134
-0.01910935 -0.013416879 -0.0021204138 4287838768
-0.016780335 -0.015455149 -0.0004171012 4287968564
-0.015010469 -0.014606372 -0.0015125973 4287838004
-0.012952823 -0.015200399 -0.0012102621 4287968819
-0.010740522 -0.016515121 -0.00021116622 4288099889
-0.0086692795 -0.017108038 8.8512897e-05 4288230449
-0.0065925717 -0.017700471 0.00038713962 4288099634
-0.0046676211 -0.017571859 -1.1397526e-05 4287968819
-0.0024228282 -0.018883966 0.00098129921 4288295983
-0.00016726181 -0.020195201 0.0019717999 4288164914
0.001933869 -0.020785563 0.0022657067 4288034353
0.0038725287 -0.020655587 0.0018646643 4287968564
0.005981829 -0.021245159 0.0021570567 4287903283
0.0082697794 -0.022553816 0.0031412384 4287838259
0.010216646 -0.022422954 0.0027387515 4287970604
0.011806384 -0.020853631 0.00095292926 4287970858
-0.021275904 -0.014389783 -0.003560395 4287774509
-0.019096691 -0.015711538 -0.0025580414 4288165168
-0.01704761 -0.016308568 -0.0022557378 4287902773
-0.015136722 -0.016181469 -0.0026517808 4287903028
-0.013079394 -0.016777731 -0.0023510288 4288034098
-0.010718577 -0.018820204 -0.0006589219 4288099633
-0.008644972 -0.01941517 -0.00036137924 4288426799
-0.0065659098 -0.020009652 -6.4875931e-05 4288099378
-0.0046384223 -0.019880883 -0.00046395138 4288230704
-0.0025511347 -0.020474643 -0.0001689475 4288099379
-0.00062078983 -0.020345457 -0.00056844205 4288034098
0.001309637 -0.020216152 -0.00096786395 4288230194
0.0030724145 -0.019364625 -0.0020595752 4288230193
0.005341094 -0.020679079 -0.0010747537 4288165423
0.0074474551 -0.021270961 -0.0007833261 4288429349
-0.021130253 -0.01741074 -0.0032998715 4287905069
-0.019084301 -0.018010318 -0.0029986557 4288231214
-0.01703288 -0.018609405 -0.0026984829 4288230704
-0.014975976 -0.019208014 -0.0023993608 4287838259
-0.012913596 -0.019806214 -0.0021012686 4288034610
-0.010696944 -0.021129392 -0.0011096597 4288164913
-0.0089239553 -0.020275727 -0.0022023171 4288164914
-0.0070020556 -0.020147458 -0.0026003253 4288165679
-0.0052368939 -0.019294098 -0.0036912076 4288100143
-0.0033174716 -0.019165777 -0.0040885396 4288034863
-0.0012357645 -0.019761935 -0.0037939679 4288231979
0.0006864965 -0.019633196 -0.0041917153 4288430369
-0.02139112 -0.018254362 -0.0051328596 4287904559
-0.019210201 -0.019584775 -0.0041374527 4287969329
-0.017440345 -0.018729582 -0.0052281842 4287969584
-0.015102495 -0.020786934 -0.0035413243 4287969584
-0.013186399 -0.020659402 -0.0039383937 4287904049
-0.011121545 -0.021259531 -0.0036423653 4287904303
-0.0095051937 -0.019676454 -0.0054247957 4288035119
-0.0075914524 -0.019548759 -0.0058211293 4288231724
-0.0058342665 -0.018693745 -0.0069087353 4287840044
-0.021651585 -0.01909323 -0.0069625005 4287904559
-0.019473825 -0.0204283 -0.0059696697 4287838513
-0.017706584 -0.019571103 -0.0070582274 4287904559
-0.015515205 -0.020905003 -0.0060681105 4287838768
-0.013458807 -0.021507956 -0.0057720896 4287838768
-0.011545409 -0.021380506 -0.0061685201 4287643183
-0.02191164 -0.019927442 -0.0087886974 4287709229
-0.019874651 -0.020534232 -0.0084905475 4287512114
0.019305859 -0.05706732 -0.0037320768 4286593604
0.017000966 -0.058086812 -0.0051711979 4287575864
0.019908097 -0.061710827 -0.0022508353 4287641143
0.023028571 -0.0660844 0.0013297573 4286921278
0.0075556785 -0.054218486 -0.010048653 4287312958
0.010040697 -0.056349993 -0.0084547438 4287444028
0.012717523 -0.059234686 -0.0061977799 4287640888
0.015058964 -0.06060946 -0.0052765082 4288362029
0.017411111 -0.061983362 -0.0043574125 4288296238
0.020141464 -0.064864032 -0.0021112002 4287968563
0.023079615 -0.068496779 0.00079471245 4287575608
0.0036583506 -0.056856051 -0.0097375168 4287837493
0.0057941303 -0.057481185 -0.0094783753 4287575864
0.0077651143 -0.057348907 -0.009886004 4287445048
0.010254789 -0.059486724 -0.0082979016 4287576118
0.012936085 -0.062379837 -0.0060483478 4287510838
0.015282337 -0.063758641 -0.0051313862 4288296493
0.017458413 -0.0643804 -0.0048800819 4288492079
0.019823439 -0.065757699 -0.0039667375 4287837494
0.022385379 -0.067889929 -0.0023931153 4286855998
-0.0072199106 -0.054570064 -0.012879218 4287050818
-0.0048061796 -0.056720406 -0.011280938 4287640123
-0.0023763441 -0.058869556 -0.0096859038 4287640889
-0.00024911016 -0.059497833 -0.0094269067 4287641144
0.0020455532 -0.060885265 -0.0085031204 4287903284
0.0038569085 -0.059993461 -0.0095772631 4288230193
0.0058303438 -0.059861138 -0.0099854954 4288034099
0.0078038387 -0.059728712 -0.010393646 4287706933
0.010122787 -0.06111405 -0.0094744563 4287706933
0.012452461 -0.062498443 -0.0085574016 4287707189
0.014970902 -0.064640611 -0.0069799162 4288099634
0.017505392 -0.066781506 -0.0054056873 4288165423
0.01968918 -0.067404829 -0.0051574525 4287575608
-0.010668352 -0.059486583 -0.010561023 4286463809
-0.0087063238 -0.059355974 -0.010967582 4286987579
-0.0067441911 -0.059225231 -0.011374079 4287640888
-0.0046281293 -0.059856728 -0.011114538 4288229939
-0.0025066473 -0.060487702 -0.010856073 4288295219
-0.00053891912 -0.060356185 -0.011263426 4287968819
0.0019144006 -0.062510021 -0.0096779875 4287837748
0.0037257709 -0.061616033 -0.010750514 4288034099
0.0058662258 -0.062245242 -0.010495607 4288034099
0.0076723769 -0.061351344 -0.011566848 4287575864
0.009818282 -0.061979905 -0.011312861 4287903284
0.012144774 -0.063368939 -0.010398358 4287771959
0.014659848 -0.065517873 -0.0088250451 4288033334
0.017010434 -0.066904977 -0.0079153776 4288099634
0.019188531 -0.067530833 -0.0076676314 4287967033
-0.010360692 -0.063395292 -0.0097299628 4287249718
-0.008687444 -0.061734319 -0.011468984 4287707188
-0.0068737939 -0.06083861 -0.012540888 4288164914
-0.0047580674 -0.061472356 -0.01228293 4287903284
-0.0029495806 -0.060576737 -0.013353571 4288557614
-0.00066935644 -0.061974049 -0.012433346 4288492078
0.0016216151 -0.063370436 -0.011515278 4287837748
0.0037590005 -0.064002156 -0.011261448 4287968309
0.0057347901 -0.0638697 -0.011670172 4288229683
0.0075409524 -0.062973633 -0.012739815 4287575098
0.0095141716 -0.062841102 -0.013147824 4287117118
0.01166245 -0.063471548 -0.012895849 4287377983
-0.010635961 -0.064247668 -0.011565767 4287445048
-0.0089651793 -0.062582448 -0.013301071 4287838004
-0.0071541853 -0.061684795 -0.01437078 4289146408
-0.0050414652 -0.062320888 -0.014113858 4288426798
-0.0030794665 -0.062189877 -0.014520127 4288034354
-0.00095857307 -0.062825195 -0.014264666 4288230449
0.0013292171 -0.06422618 -0.01334919 4287903029
0.0034635887 -0.064860299 -0.01309637 4287313723
0.00526971 -0.063962162 -0.014164466 4287575354
0.00707056 -0.063064277 -0.015231382 4287443263
-0.011201438 -0.063556366 -0.014723837 4287445048
-0.0092425384 -0.063425958 -0.015129752 4287772214
-0.0072835498 -0.063295431 -0.015535597 4289342249
-0.0051711649 -0.063933715 -0.015280236 4289276714
-0.0033653043 -0.063033968 -0.016347054 4287903029
-0.001088772 -0.064440258 -0.015432566 4287380278
0.00071456283 -0.063540384 -0.016498718 4288492843
0.0030045845 -0.064945489 -0.015586812 4286593603
-0.0098150969 -0.062721744 -0.018276393 4286789698
-0.0078642666 -0.062591754 -0.018680546 4287444283
-0.0056070872 -0.064003974 -0.017765488 4289144623
-0.0033391602 -0.065415278 -0.016852595 4287181889
-0.007257171 0.023862666 0.018748824 4284250918
-0.0053565018 0.023990005 0.018355578 4283794979
-0.0036168359 0.024789426 0.017231118 4282870858
-0.00627473 0.025791934 0.013569274 4283794213
-0.0045483634 0.026592648 0.012449193 4283661359
-0.0070330314 0.026939597 0.0095277103 4284577574
-0.0049957819 0.026388919 0.0098675312 4284054568
-0.0036068186 0.028543681 0.007296334 4283331644
-0.0056030117 0.026872871 0.00656603 4284315433
-0.0040583946 0.02835528 0.0047271391 4283727914
-0.0060487315 0.026689505 0.0039990777 4284118829
-0.0043461248 0.027495241 0.0028888313 4283858474
-0.0024830289 0.027620217 0.0025034705 4283331388
-0.0068141334 0.027881352 -7.7988952e-06 4284055588
-0.0047963671 0.027322786 0.00033115223 4283730463
-0.0026075654 0.026081929 0.0013912218 4283532328
-0.00074448809 0.026206972 0.0010059197 4283199808
-0.0072579682 0.027720541 -0.0025583841 4284055844
-0.0054085553 0.02784447 -0.0029410077 4283729699
-0.0028974563 0.025228808 -0.00044138543 4283538703
-0.0012052469 0.026038412 -0.0015461594 4283727404
0.00031094998 0.027532279 -0.0033691535 4281691483
-0.059269775 0.024146998 0.0055917026 4283857199
-0.057869289 0.027729396 0.0015344657 4283794978
-0.056224149 0.029233793 -0.00031380076 4283730208
-0.05431037 0.028661804 4.1867606e-05 4283858728
-0.052103911 0.026014978 0.0025965199 4284185384
-0.0077010579 0.027568851 -0.0051024524 4284052783
-0.0058571063 0.027692396 -0.0054839584 4283857454
-0.003517393 0.025754629 -0.0037085563 4283858728
-0.0014973395 0.025191963 -0.0033732392 4283859748
1.6424805e-05 0.02669004 -0.0051924796 4283397434
-0.062907845 0.020994589 0.0067258542 4283722304
-0.061557237 0.02528473 0.0019354094 4283922734
-0.059899006 0.026794221 8.7497756e-05 4283860514
-0.05833872 0.028997587 -0.0024916101 4283859239
-0.056613814 0.029811338 -0.003601619 4283666713
-0.054708306 0.02923655 -0.0032459106 4283860259
-0.052606169 0.027274264 -0.0014277501 4284252449
-0.050389584 0.024619333 0.0011182763 4284445993
-0.0083030686 0.028115889 -0.0083583677 4284054314
-0.0064672492 0.028238876 -0.0087382039 4283991839
-0.0043012612 0.026983287 -0.0076833093 4283926559
-0.0021244735 0.025728485 -0.0066305283 4283926558
-0.00044811144 0.026541483 -0.0077287103 4283924518
0.001222983 0.027354179 -0.0088256877 4283793194
-0.064871386 0.019348837 0.0060058096 4283920949
-0.063742101 0.025744794 -0.00097890384 4283924773
-0.062168542 0.027955417 -0.0035560178 4283926048
-0.060526062 0.029468171 -0.005397385 4283924774
-0.058719318 0.029586939 -0.0057728924 4283857963
-0.056822326 0.029009277 -0.0054171383 4283858218
-0.054919753 0.028432064 -0.0050624837 4283991584
-0.053011592 0.027855279 -0.0047089392 4284187169
-0.050803822 0.025190946 -0.0021676458 4284252193
-0.0087444559 0.027984593 -0.010887699 4284123164
-0.0069140978 0.028107192 -0.011266422 4283992094
-0.0047539249 0.026846761 -0.010213562 4283926303
-0.0022478886 0.024204424 -0.0077324808 4283990819
-6.0800463e-05 0.022946045 -0.00668508 4283990309
0.001964163 0.022379451 -0.0063539473 4283857963
0.0038189851 0.022504155 -0.0067373849 4283398199
-0.064991429 0.017824348 0.0049026711 4283788859
-0.06393984 0.024939513 -0.0027995836 4283990563
-0.062450346 0.027855758 -0.0061027128 4283928344
-0.060897436 0.030071625 -0.0086706243 4283861278
-0.059098799 0.030189805 -0.0090444908 4283927324
-0.057120237 0.02891059 -0.0079589738 4283928853
-0.055130754 0.027632214 -0.0068757161 4283995919
-0.053320717 0.027751368 -0.0072517861 4284186658
-0.051412616 0.027172411 -0.0068998444 4284317728
-0.049197372 0.024499817 -0.0043666139 4284251428
-0.0085477605 0.025085846 -0.010549374 4284120614
-0.0065501481 0.024514858 -0.010214487 4283990818
-0.0043824241 0.02325058 -0.0091665033 4284121889
-0.001869183 0.02059992 -0.006693461 4283990818
0.00049550086 0.018644199 -0.0049378229 4284121889
0.0027035922 0.017382897 -0.003897991 4283793448
0.0047470741 0.016815402 -0.0035722051 4283596079
-0.063979164 0.022735627 -0.0031563397 4283923243
-0.062813014 0.028466655 -0.0093726497 4283925538
-0.061183374 0.029987236 -0.011204902 4283993879
-0.059303168 0.029403908 -0.010849052 4283860769
-0.057417374 0.028821012 -0.010494312 4283927323
-0.055341352 0.026837027 -0.0086855888 4283925793
-0.053724084 0.028357128 -0.010515098 4284121123
-0.051726576 0.027074946 -0.009436653 4284056099
-0.04971816 0.025793606 -0.0083604623 4284121378
-0.047492821 0.023112927 -0.005835834 4284316708
-0.0092536099 0.017876402 -0.0055510015 4284639028
-0.0077151172 0.01939328 -0.0073626023 4284119593
-0.0055399202 0.018124998 -0.0063195187 4284055333
-0.0035184287 0.017553441 -0.0059911082 4283990308
-0.0011571571 0.015590824 -0.0042398004 4283990564
0.0013901182 0.012933761 -0.0017802594 4283924773
0.0034412667 0.012364525 -0.0014578113 4284054823
0.0053226165 0.012490984 -0.001846754 4283463733
0.0072040223 0.012617536 -0.0022356398 4281756253
-0.06362468 0.017008383 0.00012739468 4283856434
-0.062767178 0.025572663 -0.0089920601 4283990564
-0.061216075 0.027801475 -0.011549878 4284056609
-0.059420276 0.02791936 -0.011923232 4283990818
-0.057624239 0.028037345 -0.012296573 4283924773
-0.055735823 0.027452456 -0.011943992 4283924519
-0.054031465 0.028273566 -0.013043252 4283924774
-0.052234743 0.028391814 -0.013416576 4283859239
-0.050237466 0.0271053 -0.012341373 4283990564
-0.048126433 0.025117287 -0.010544631 4284251938
-0.0087519549 0.013549551 -0.003808314 4284315179
-0.0067255907 0.012975924 -0.0034826985 4284119848
-0.0046937838 0.012402792 -0.0031581828 4283923754
-0.0028208606 0.012528289 -0.0035456726 4283990053
-0.00078086182 0.011955906 -0.0032227077 4283989544
0.0017735995 0.0092905164 -0.00077120215 4283989289
0.0036601201 0.009417206 -0.0011613024 4283989033
0.0055467039 0.0095440224 -0.0015513236 4283463224
-0.062559322 0.021258406 -0.0071646506 4284055588
-0.061249044 0.025611527 -0.011897895 4284056609
-0.05953731 0.02643506 -0.012997248 4284056609
-0.057830695 0.027258314 -0.014095495 4283991074
-0.056129161 0.028081361 -0.015192665 4283863574
-0.054432746 0.028904093 -0.016288675 4283863573
-0.05254681 0.028316949 -0.015937136 4283405084
-0.050655302 0.027730213 -0.015586644 4283730208
-0.048552912 0.025735052 -0.01379308 4284055588
-0.016780403 0.013615262 -0.0055156397 4284641069
-0.014773514 0.013037775 -0.0051879678 4284248878
-0.012610383 0.011759482 -0.0041492283 4284184364
-0.010436427 0.010481961 -0.0031126197 4283988013
-0.0082516782 0.0092053041 -0.0020782137 4283857454
-0.0063737147 0.0093309283 -0.0024669077 4283988524
-0.0043341815 0.0087561011 -0.0021456387 4283988524
-0.002617497 0.0095824897 -0.0032441346 4283988779
-0.00040561333 0.0083079934 -0.0022150148 4283922733
0.0016475432 0.0077343881 -0.0018963339 4283857709
0.0037061162 0.0071612261 -0.0015787128 4283988013
0.0054204054 0.007987842 -0.0026764264 4283330878
-0.06210934 0.014802493 -0.0031749038 4283526463
-0.061198469 0.022709504 -0.011524492 4284055588
-0.059740741 0.025658708 -0.014794949 4283991328
-0.058125835 0.027191535 -0.016614381 4283990819
-0.05652139 0.028723691 -0.018431554 4283861279
-0.054832902 0.029548062 -0.019524315 4283793703
-0.052955236 0.028958138 -0.019172717 4283927834
-0.050972205 0.027661815 -0.018101152 4283730719
-0.049080748 0.027072962 -0.017752301 4284252449
-0.046973433 0.025071535 -0.015964583 4284251429
-0.020620544 0.011834145 -0.0058545899 4284313903
-0.018619563 0.01125386 -0.0055274842 4284118574
-0.016758319 0.011377867 -0.0059130844 4284315689
-0.014749058 0.010798316 -0.0055875564 4284119848
-0.012282532 0.0081087798 -0.0031314427 4284054058
-0.0099477544 0.0061240643 -0.0013896935 4283922988
-0.0079087205 0.0055467933 -0.001070112 4283922988
-0.0060228482 0.0056729391 -0.0014604516 4283988779
-0.0041368827 0.0057991743 -0.001850741 4283922733
-0.0022508316 0.0059255213 -0.0022409745 4283922733
-0.00036469102 0.0060519576 -0.0026311604 4283922988
0.0018601567 0.0047740713 -0.0016079666 4283791918
0.003751792 0.0049010888 -0.0019991295 4283922479
0.0056434833 0.0050282106 -0.0023902319 4283265344
-0.06106488 0.019088842 -0.01043456 4283924008
-0.059943747 0.02488707 -0.016589332 4283990309
-0.05850919 0.027843518 -0.019848378 4283926558
-0.056912493 0.029379552 -0.021660747 4283858984
-0.055137623 0.029496146 -0.022029687 4283858218
-0.053168613 0.028194362 -0.020958513 4283858218
-0.051288325 0.027602457 -0.02060906 4283924518
-0.049402494 0.02701099 -0.020260708 4284122144
-0.047301147 0.025002539 -0.018476684 4284186403
-0.045075912 0.022286735 -0.015978159 4284382754
-0.024593975 0.010760657 -0.0069054989 4284249644
-0.022738632 0.010883953 -0.0072901184 4284053039
-0.020603705 0.0095945299 -0.0062523428 4283923244
-0.018600333 0.0090121776 -0.0059273848 4284054313
-0.016736548 0.0091363266 -0.0063135335 4284119848
-0.014429409 0.0071429722 -0.0045711156 4284120359
-0.012106109 0.0051508248 -0.0028320244 4284120359
-0.0097666383 0.0031598248 -0.0010961555 4284055334
-0.0078783222 0.0032860078 -0.001487093 4283989543
-0.0059899017 0.0034122914 -0.0018779822 4283989034
-0.0037791543 0.0021287575 -0.00085536391 4283988524
-0.0018851981 0.0022556111 -0.0012472486 4283922734
8.8401139e-06 0.0023825765 -0.0016390719 4283857199
0.0020721033 0.0018051788 -0.001325733 4283857199
0.0041407831 0.0012282878 -0.0010134773 4283856944
0.0062148646 0.0006518811 -0.00070225634 4283660084
-0.060598414 0.012605939 -0.0064691198 4283592509
-0.060060207 0.023407921 -0.017659664 4284055334
-0.058891427 0.028509021 -0.023072671 4283992604
-0.057302479 0.030048845 -0.024880162 4283993878
-0.055441599 0.029453268 -0.024528459 4283992858
-0.053478356 0.028146714 -0.023459425 4283992858
-0.051404756 0.026129663 -0.021674678 4284124694
-0.049723472 0.026958095 -0.022762567 4284056353
-0.047628094 0.024942677 -0.020982265 4284056609
-0.045408998 0.022217657 -0.018489018 4284186914
-0.042948071 0.018073041 -0.014568876 4284317983
-0.034594331 0.01216447 -0.0096562458 4284183344
-0.032629747 0.011576615 -0.0093253478 4284183344
-0.030659664 0.010989279 -0.0089955516 4284118574
-0.028684076 0.010402389 -0.0086668385 4284053804
-0.026702996 0.0098159537 -0.0083391974 4284054059
-0.024716388 0.0092299879 -0.0080126273 4284054823
-0.022724275 0.0086444356 -0.0076870825 4283923499
-0.020726699 0.0080593899 -0.0073626447 4284054314
-0.018439177 0.0060579143 -0.0056212251 4283989033
-0.016425293 0.0054741502 -0.0053000222 4284054314
-0.014110792 0.0034747124 -0.0035640951 4284120359
-0.012080584 0.0028921813 -0.0032460857 4284120359
-0.0098920166 0.0016024634 -0.0022223769 4284120869
-0.0078482367 0.0010210797 -0.0019070711 4284054824
-0.0056407377 -0.00026722252 -0.0008870922 4284054314
-0.0035833754 -0.00084747747 -0.0005744407 4284054059
-0.0013569742 -0.0021342635 0.00044173375 4283988013
0.00054764375 -0.0020066127 4.770793e-05 4283857453
0.0027902611 -0.0032921433 0.0010607336 4283922479
0.0047003664 -0.0031639114 0.00066572614 4283921713
0.0067848563 -0.0037418343 0.00097315293 4283920694
0.0090517215 -0.0050253943 0.0019813413 4283198278
-0.059967767 0.0046633966 -0.0010866364 4283525444
-0.059918728 0.019785982 -0.016572632 4283923754
-0.058918063 0.026331337 -0.023413196 4283990563
-0.057417486 0.028589679 -0.025936006 4283990819
-0.055556882 0.027991848 -0.025585908 4284056864
-0.053594079 0.026680842 -0.024520069 4283990308
-0.051521111 0.024657119 -0.022740122 4283990053
-0.049737792 0.024774436 -0.023110695 4284055333
-0.04764038 0.022752538 -0.021335742 4284056098
-0.045312118 0.019305855 -0.018134778 4284056099
-0.042846967 0.015148338 -0.014225314 4284186403
-0.040687528 0.013130754 -0.012463001 4284119338
-0.038627189 0.011826754 -0.011416993 4284053038
-0.036555979 0.010523561 -0.010373174 4284118319
-0.034715209 0.010645274 -0.010755227 4283987504
-0.032627601 0.0093433149 -0.0097146295 4283987759
-0.030655149 0.0087538995 -0.0093869874 4283988013
-0.028677184 0.0081649385 -0.0090604257 4283988779
-0.026693698 0.0075764582 -0.0087349247 4283988778
-0.024704713 0.0069883764 -0.0084104594 4283989033
-0.022573549 0.0056898259 -0.0073785824 4283989034
-0.020570908 0.0051028877 -0.0070568486 4283989033
-0.018562783 0.0045163706 -0.0067361356 4283988523
-0.016259756 0.0025094785 -0.0050028069 4284054059
-0.013940554 0.0005037114 -0.0032727169 4284054824
-0.01190532 -8.0633909e-05 -0.0029574288 4284054823
-0.010017358 4.536286e-05 -0.0033484101 4284120614
-0.0078184642 -0.0012479648 -0.0023300331 4284120104
-0.0054506846 -0.0032500923 -0.00060971174 4283923243
-0.0030667521 -0.0052510127 0.0011073621 4283922734
-0.00083013251 -0.0065415204 0.002118147 4284052274
0.0012511574 -0.0071221851 0.0024243575 4284377909
0.051059738 -0.021757558 0.010562542 4284313649
0.056038454 -0.030782744 0.019113343 4284314158
-0.059349332 0.012568362 -0.01190766 4283525444
-0.058591206 0.021284025 -0.020889074 4283988779
-0.057350215 0.025698395 -0.025558975 4284121634
-0.055390757 0.024382653 -0.024495803 4284055079
-0.053420398 0.023067664 -0.023434788 4284054823
-0.051240917 0.020322174 -0.020946601 4284055079
-0.049447026 0.020440135 -0.02131941 4284120869
-0.047235098 0.017696936 -0.018837845 4284121379
-0.045001592 0.014955297 -0.016360734 4284056098
-0.042636734 0.011500102 -0.013175498 4284055844
-0.040694851 0.010905981 -0.012843504 4283989034
-0.038632315 0.0095977224 -0.011801237 4283988779
-0.036558885 0.0082902238 -0.010761118 4283988779
-0.034715567 0.0084120631 -0.011143733 4284054314
-0.032748912 0.0078199394 -0.010816611 4284053804
-0.030776735 0.0072282925 -0.010490562 4284053803
-0.028799061 0.0066370927 -0.010165589 4283989033
-0.02681588 0.0060463585 -0.0098416861 4283989033
-0.024827193 0.0054560415 -0.0095188078 4284054569
-0.022696506 0.0041530393 -0.0084901173 4283989033
-0.020415772 0.0021378212 -0.0067571858 4283988779
-0.018402617 0.00154946 -0.0064392099 4284054313
-0.016094882 -0.00046376884 -0.0047117285 4283988524
-0.014065411 -0.0010508224 -0.0043969722 4284054059
-0.012030475 -0.0016374327 -0.0040832823 4284119083
-0.0098375268 -0.0029356778 -0.0030670362 4284250409
-0.007478524 -0.0049450621 -0.0013498636 4284249899
-0.0049454793 -0.0076650456 0.0010665301 4284248879
-0.0027121045 -0.0089602768 0.0020746337 4284574513
0.045178201 -0.018005565 0.0046835495 4284119339
0.048040587 -0.020700581 0.0070339618 4283072308
0.051834136 -0.026222311 0.012132629 4282679609
-0.058611427 0.0038782991 -0.0058362833 4283590469
-0.058177728 0.015496328 -0.017665373 4283789879
-0.05691978 0.019924965 -0.022329088 4284187169
-0.054944765 0.018605776 -0.021272399 4284122144
-0.052862581 0.016569398 -0.019504307 4284122399
-0.050764147 0.014534127 -0.017739482 4284121889
-0.048751127 0.013217736 -0.016690547 4284122144
-0.046727207 0.011902094 -0.01564377 4284122144
-0.044478487 0.0091526024 -0.013176334 4283989798
-0.042537089 0.0085561275 -0.012845969 4283989799
-0.040477876 0.0072431304 -0.011806366 4283989288
-0.038522739 0.0066477135 -0.01147867 4283923754
-0.036679726 0.0067694113 -0.011861315 4283923244
-0.0347162 0.0061747618 -0.011535274 4283988524
-0.03287014 0.0062968619 -0.011918396 4284054314
-0.030772615 0.0049868748 -0.010886391 4284054314
-0.028664235 0.0036776327 -0.0098565379 4283989289
-0.026545007 0.0023692772 -0.0088288896 4283989288
-0.024414938 0.0010616779 -0.0078033879 4283989289
-0.022410374 0.0004703328 -0.0074854279 4284120359
-0.020122278 -0.001550965 -0.0057589794 4284054313
-0.01810139 -0.0021410584 -0.0054442016 4283988268
-0.015786309 -0.0041603595 -0.0037231958 4284053548
-0.013896156 -0.0040344447 -0.004114802 4284118829
-0.01185618 -0.0046229139 -0.0038037971 4284183854
-0.0096583515 -0.0059252791 -0.0027917968 4284445484
0.03501939 -0.019581966 0.0048466278 4284312628
0.037191354 -0.020159043 0.0051322235 4283266109
0.038940817 -0.019315287 0.0040382268 4281893444
0.041118037 -0.019891784 0.0043229079 4281632324
0.043300539 -0.020467818 0.0046065794 4281959744
0.045710273 -0.021753043 0.0055769226 4281828673
0.048355214 -0.023746818 0.0072322199 4281763648
0.052379791 -0.029995084 0.013003628 4281697348
-0.057590071 0.0082409717 -0.013033242 4283724089
-0.056491371 0.014125306 -0.019118121 4283922733
-0.054500785 0.012802772 -0.018067993 4283990054
-0.052403215 0.010760739 -0.016307978 4283989799
-0.050289419 0.0087199025 -0.014551318 4283989288
-0.048362259 0.0081199594 -0.014219807 4283989544
-0.046429556 0.007520508 -0.013889422 4284054824
-0.044384535 0.0062019788 -0.012850292 4283989544
-0.042438094 0.005603604 -0.012522636 4283923754
-0.040486116 0.0050056577 -0.012196016 4283857964
-0.038413811 0.0036891885 -0.011162354 4283923499
-0.036565561 0.0038112104 -0.011546096 4283923499
-0.034717124 0.0039333329 -0.011929814 4283989033
-0.032868531 0.0040555708 -0.012313487 4284054568
-0.03064331 0.0020229556 -0.010579241 4284120358
-0.028530072 0.00070967153 -0.0095537174 4284054823
-0.026405957 -0.00060281157 -0.0085303197 4284120358
-0.024271023 -0.0019144565 -0.0075091487 4284120104
-0.021989081 -0.0039429069 -0.0057863672 4283987758
-0.019690957 -0.0059701428 -0.0040669069 4284314669
-0.017376658 -0.0079962276 -0.0023506787 4284313648
-0.015334558 -0.0085869879 -0.0020419182 4284574003
0.032925904 -0.021331199 0.0040829694 4282546499
0.034886539 -0.021198019 0.0036786692 4282220098
0.037269227 -0.022489861 0.0046509625 4281828163
0.039021414 -0.021643728 0.003558035 4281239879
0.041200988 -0.022222243 0.0038406113 4280782153
0.043385871 -0.022800319 0.004122219 4281109829
0.045797765 -0.024089724 0.0050888294 4281370949
0.048444711 -0.026089974 0.0067388816 4281435719
0.052924365 -0.033780828 0.013865328 4281500743
-0.057268891 0.0031195283 -0.0105628 4283656258
-0.056064967 0.0082995333 -0.015926139 4283922480
-0.054338615 0.0091414377 -0.017015582 4283988779
-0.05223367 0.0070933178 -0.015262063 4283988779
-0.050211076 0.0057685822 -0.01422171 4284054569
-0.048177611 0.0044446923 -0.0131836 4284055079
-0.046341132 0.0045654401 -0.013565271 4284055079
-0.044397835 0.0039645471 -0.013238681 4284054569
-0.042449009 0.0033640638 -0.012913131 4283923244
-0.040382694 0.0020426996 -0.011881577 4283923499
-0.038420144 0.00144336 -0.011558776 4283923245
-0.036569338 0.0015655085 -0.011943084 4283923499
-0.034598392 0.000966914 -0.011621881 4283989289
-0.03274456 0.0010894611 -0.01200667 4284054824
-0.030639958 -0.00022893399 -0.01098266 4284055078
-0.028524514 -0.0015464723 -0.0099608665 4284120359
-0.026136916 -0.0043035373 -0.0075347177 4284185893
-0.023994442 -0.005619131 -0.0065183421 4284119338
-0.021569144 -0.0083734468 -0.0040999046 4284380458
0.025529116 -0.018335968 -0.00069744885 4283198533
0.027871296 -0.019635431 0.00027965009 4282415429
0.03042699 -0.021649316 0.0019429065 4281957703
0.032587692 -0.02223181 0.0022274442 4281827398
0.035170078 -0.024243653 0.0038853688 4281892934
0.037557632 -0.025539592 0.0048534432 4281566023
0.03952875 -0.025405459 0.0044471612 4281174344
0.041283607 -0.024556831 0.0033553997 4280978249
0.04347083 -0.025136888 0.0036348673 4280782664
0.045884896 -0.026430503 0.0045977784 4280978503
0.048309602 -0.02772335 0.0055586221 4281174089
0.053240929 -0.036865756 0.014034311 4281239623
-0.056949351 -0.0020236596 -0.0081081148 4283590214
-0.055911835 0.0046225563 -0.014883038 4283856178
-0.054177422 0.0054671802 -0.015972601 4283922734
-0.052256595 0.004862193 -0.015643213 4283988524
-0.050330225 0.0042576902 -0.015314962 4283989033
-0.048398312 0.0036536418 -0.0149878 4283988778
-0.046357084 0.0023259334 -0.013954522 4283988778
-0.044411417 0.0017229244 -0.013630039 4283924008
-0.042460199 0.0011204332 -0.013306676 4283923499
-0.040503461 0.0005183816 -0.012984402 4283923244
-0.038541187 -8.3189458e-05 -0.012663188 4283988779
-0.036456276 -0.0014076084 -0.011638601 4283923754
-0.034480292 -0.0020080842 -0.011320096 4284054569
-0.032621253 -0.0018852241 -0.01170599 4284251683
-0.03076202 -0.0017622486 -0.012091841 4284643108
0.02345641 -0.020067409 -0.0014532078 4283136568
0.025792744 -0.021371767 -0.00047824904 4281958979
0.028339747 -0.023392938 0.0011818204 4281435719
0.030902794 -0.025412932 0.0028387168 4281305158
0.03307119 -0.025997035 0.0031200098 4281370694
0.035244919 -0.026580699 0.0034003286 4281239623
0.037423946 -0.027163848 0.0036795968 4281304903
0.039394926 -0.027029723 0.0032733446 4281239368
0.041581884 -0.02761209 0.0035511544 4281109064
0.043774135 -0.028193995 0.0038279546 4280913223
0.046193067 -0.029491708 0.0047866544 4280978248
0.049070723 -0.032220677 0.0071078865 4281369928
0.054236975 -0.042106934 0.016242508 4281304138
-0.05706938 -0.0035517104 -0.0092139021 4283656258
-0.056030411 0.0031142905 -0.015974484 4283987504
-0.054295938 0.0039610639 -0.017062467 4283988523
-0.052279811 0.0026269779 -0.016027406 4283989033
-0.050351065 0.0020204112 -0.015701303 4283988778
-0.048315842 0.00068779662 -0.014670135 4283989034
-0.046373334 8.2269311e-05 -0.014346718 4284054058
-0.044425275 -0.00052274764 -0.014024419 4284054569
-0.042580616 -0.00040134415 -0.014407703 4284120104
-0.040512566 -0.0017314404 -0.013383082 4284054059
-0.038547914 -0.0023350753 -0.013064019 4284119594
-0.036460806 -0.0036637522 -0.012043164 4284448034
-0.034602065 -0.0035410449 -0.012429091 4284708899
0.02157579 -0.022518903 -0.0015213508 4284705328
0.023714487 -0.023107655 -0.0012358911 4283006263
0.025858536 -0.023695946 -0.00095146894 4282024514
0.028207727 -0.025003642 1.7624348e-05 4281762884
0.030567612 -0.026310556 0.00098463614 4281501508
0.032938164 -0.027616575 0.0019495031 4281435719
0.035111569 -0.028202444 0.002228261 4281370184
0.037500776 -0.029506966 0.0031894511 4281370184
0.039900638 -0.030810654 0.0041485215 4281174088
0.042527005 -0.032832332 0.0057879156 4281174089
0.045387879 -0.035571441 0.0081059141 4280978248
0.048270091 -0.038308993 0.010419606 4280783173
0.051621348 -0.042481482 0.014090435 4280914244
0.056137353 -0.050242096 0.021155663 4281436228
-0.057101939 -0.0058091171 -0.0096121319 4283722304
-0.055968788 0.00014746189 -0.015652198 4283856689
-0.054321643 0.0017259382 -0.017445879 4284054313
-0.052398715 0.0011166744 -0.017120285 4284120104
-0.05037218 -0.00022101402 -0.016090661 4284120104
-0.048435498 -0.00082919002 -0.01576779 4284054824
-0.046286445 -0.0028940104 -0.014037944 4283988523
-0.044333342 -0.0035009272 -0.013718356 4284054059
-0.04248346 -0.0033792108 -0.014102749 4284250919
-0.040633392 -0.0032573938 -0.014487107 4284381223
-0.038783122 -0.0031354651 -0.01487144 4284511784
0.023777585 -0.025433928 -0.0017099753 4282483259
0.025923984 -0.026024237 -0.0014276654 4281567809
0.027876103 -0.025891967 -0.0018304549 4281435463
0.030435108 -0.027925387 -0.00018250104 4281370694
0.032805152 -0.029235825 0.00077921059 4281436229
0.035393525 -0.03126701 0.002421285 4281304903
0.038208224 -0.034018382 0.0047420254 4281174344
0.041470256 -0.038210556 0.0084211184 4281369929
0.045195669 -0.043842494 0.013455306 4281435208
0.048527118 -0.048029706 0.017120272 4281500489
0.051890582 -0.0522146 0.020778745 4281695308
0.055062391 -0.055676788 0.023751616 4282478413
-0.05608758 -0.0013646893 -0.016746474 4283856178
-0.054440204 0.00021814555 -0.018536977 4283922989
-0.052517567 -0.00039336458 -0.018212978 4284120359
-0.050491486 -0.0017354935 -0.017186541 4284185893
-0.048454527 -0.0030768663 -0.016162254 4284186148
0.024034441 -0.028488949 -0.0015034126 4282156349
0.025989097 -0.028356619 -0.001906815 4281567300
0.027943745 -0.028224163 -0.0023101149 4281238603
0.030100508 -0.028815791 -0.0020313608 4281108044
0.032672167 -0.030854747 -0.00039085094 4281304138
0.036089711 -0.035787642 0.0039698919 4281173068
0.040175073 -0.042888612 0.010363881 4281238604
0.04452667 -0.050709203 0.017426703 4281434699
0.048506074 -0.057079256 0.023119111 4281695819
-0.0561166 -0.0036103576 -0.017136963 4283921203
-0.054558713 -0.0012893677 -0.019627882 4284119338
-0.052636344 -0.0019031167 -0.019305481 4284642344
0.023902774 -0.030098721 -0.0026670108 4281959489
0.026053879 -0.030693151 -0.0023888843 4281303883
0.028011059 -0.030560523 -0.0027927058 4281040469
0.030372093 -0.031880438 -0.0018357309 4280581469
-0.01387642 -0.021619499 -0.0082927532 4283265854
-0.011968512 -0.021492437 -0.0086880717 4282677568
-0.010211449 -0.02063331 -0.0097725783 4284314413
0.024158608 -0.033166386 -0.0024695108 4281498959
0.026511129 -0.034491509 -0.0015142234 4280582998
0.028476181 -0.034358352 -0.0019196728 4280123743
-0.0182379 -0.021240011 -0.010708194 4282939964
-0.01591007 -0.023317844 -0.0090339296 4282286144
-0.013711523 -0.024659932 -0.0080517307 4282023238
-0.011946522 -0.023798212 -0.0091363527 4282089028
-0.0098851882 -0.024405032 -0.0088444818 4282547519
-0.028617356 -0.019006148 -0.014016654 4284509233
-0.02634697 -0.021094881 -0.012335826 4283790644
-0.024192307 -0.022444881 -0.011348171 4282351169
-0.022161406 -0.023056604 -0.011052128 4281958723
-0.02026229 -0.022930615 -0.011445988 4281828418
-0.018223111 -0.023541562 -0.011151489 4281436228
-0.015893269 -0.025625825 -0.0094825216 4281567043
-0.013692554 -0.026972175 -0.0085040499 4281501763
-0.011776913 -0.026844628 -0.0089009907 4281893954
-0.0097105317 -0.027453348 -0.008611748 4282548028
-0.03062309 -0.020681426 -0.014747836 4283989543
-0.028740715 -0.020557001 -0.015138555 4282680119
-0.026341919 -0.023392372 -0.012773521 4282156093
-0.024316814 -0.024006791 -0.012478 4281632578
-0.022151817 -0.025360346 -0.011495721 4281436228
-0.020387243 -0.02449479 -0.012577377 4281436483
-0.018208612 -0.025847241 -0.011597702 4281697603
-0.016019192 -0.027198844 -0.010620244 4281762883
-0.013673883 -0.029288553 -0.0089593017 4281828419
-0.011755709 -0.029160857 -0.0093567753 4281828419
-0.0096869916 -0.029771581 -0.0090696933 4282352953
-0.034273881 -0.023966111 -0.013708876 4284314923
-0.032144833 -0.025327042 -0.012722779 4282614839
-0.030375611 -0.024459504 -0.013804231 4282352444
-0.028359126 -0.025076963 -0.013508687 4281764158
-0.026337165 -0.025693923 -0.013214244 4281437503
-0.024309698 -0.026310384 -0.012920842 4281632833
-0.022276763 -0.026926376 -0.012628498 4281632324
-0.020375248 -0.026800267 -0.013022878 4281501763
-0.018194448 -0.028156981 -0.012046932 4281502019
-0.016002852 -0.029512838 -0.011073194 4281501508
-0.013800446 -0.03086789 -0.010101558 4281632578
-0.011734828 -0.031481147 -0.0098155672 4281763138
-0.0098140165 -0.031353161 -0.010213503 4282679099
-0.041621838 -0.02825477 -0.011194984 4283460163
-0.040167522 -0.025147825 -0.014347227 4282938688
-0.038508955 -0.023533024 -0.016116826 4281894464
-0.03639942 -0.024899796 -0.015130138 4281959744
-0.034397084 -0.025520697 -0.014833586 4281893954
-0.03226852 -0.026886046 -0.013850654 4281567043
-0.030375879 -0.026761107 -0.014243621 4281502019
-0.028357048 -0.027380571 -0.013950246 4281567298
-0.026332717 -0.027999565 -0.013657927 4281502274
-0.024434287 -0.027873904 -0.014051848 4281437249
-0.022401657 -0.028492123 -0.013761078 4281436484
-0.020500284 -0.028366037 -0.014155437 4281371203
-0.018180583 -0.030470833 -0.012499136 4281370184
-0.015986804 -0.031830922 -0.011529109 4281369929
-0.013637479 -0.033933513 -0.0098787742 4281631048
-0.011714261 -0.033805512 -0.010277324 4281762373
-0.0096408464 -0.034420326 -0.0099944966 4282677568
-0.0077147372 -0.034291893 -0.010393455 4284114749
-0.04099467 -0.035051353 -0.0075042001 4283068739
-0.03996053 -0.028943248 -0.013406058 4282350914
-0.038518798 -0.025828265 -0.016549105 4281502273
-0.036291886 -0.027946755 -0.014879239 4281632578
-0.034284506 -0.028569557 -0.014585321 4281632578
-0.032271627 -0.029191852 -0.014292517 4281567298
-0.03037646 -0.029066749 -0.014686015 4281567043
-0.028481144 -0.028941534 -0.015079471 4281371458
-0.026328582 -0.030309327 -0.014104591 4281436739
-0.024427619 -0.030183494 -0.014499036 4281371203
-0.02225874 -0.03155002 -0.01352732 4281240388
-0.020352174 -0.031423613 -0.013922782 4281435973
-0.018167023 -0.032788776 -0.012954309 4281369928
-0.01611298 -0.033407427 -0.012669365 4281303883
-0.013908885 -0.034771144 -0.011704606 4281238093
-0.011841234 -0.035388656 -0.011422309 4281172049
-0.040904958 -0.038127609 -0.00727044 4282219589
-0.040083591 -0.030501544 -0.014533573 4282284104
-0.0386413 -0.027377822 -0.017670257 4281697859
-0.036645088 -0.028003648 -0.017375793 4281502529
-0.034643348 -0.028628975 -0.01708238 4281371458
-0.032515753 -0.030003183 -0.016105793 4281501763
-0.030377332 -0.031376503 -0.015131398 4281436483
-0.028479476 -0.031251147 -0.015525394 4281436228
-0.026453111 -0.031874411 -0.015236774 4281369929
-0.024421249 -0.032497257 -0.014949179 4281173323
-0.022250202 -0.03386797 -0.013981213 4281042763
-0.020341102 -0.0337414 -0.014377196 4280846158
-0.018153783 -0.035110809 -0.013412443 4281106769
-0.040922727 -0.040459938 -0.0077282712 4282478669
-0.040097091 -0.032811739 -0.014976031 4282414664
-0.038651574 -0.02967909 -0.018106908 4281762883
-0.03653815 -0.031058796 -0.017130833 4281632834
-0.034531388 -0.031686053 -0.016840078 4281371459
-0.032398943 -0.033064276 -0.015867792 4281438269
-0.030378524 -0.033690378 -0.015579754 4281567554
-0.028227095 -0.035067171 -0.014611195 4281436484
-0.026321214 -0.034941182 -0.015006789 4281238348
-0.024546046 -0.034064263 -0.016082717 4281041488
-0.022509035 -0.034688815 -0.015797785 4280580193
-0.040001575 -0.035880461 -0.014738244 4282349639
-0.038438138 -0.033492938 -0.017181095 4281435208
-0.036202516 -0.035630569 -0.015527708 4281239369
-0.033950713 -0.037767068 -0.013877559 4281565769
-0.031562719 -0.040656082 -0.011549653 4281696839
-0.029398587 -0.042036489 -0.01058713 4281565258
-0.027599666 -0.041156076 -0.011666559 4281171284
-0.037778381 -0.040345326 -0.013540184 4281500489
-0.035181228 -0.044757113 -0.0098536722 4281173578
-0.032669079 -0.048410594 -0.0068538212 4281500234
-0.030249897 -0.051306263 -0.0045389486 4281823574
-0.028299239 -0.051177569 -0.0049440181 4281167459
-0.03645106 -0.051779881 -0.0058441078 4282478158
