# .PCD v0.7 - Point Cloud Data file format
VERSION 0.7
FIELDS x y z rgba
SIZE 4 4 4 4
TYPE F F F U
COUNT 1 1 1 1
WIDTH 897
HEIGHT 1
VIEWPOINT 0 0 0 1 0 0 0
POINTS 897
DATA ascii
0.0052532703 -0.032346971 -0.0063353321 4286790718
0.0079744682 -0.035227127 -0.0041285148 4286398274
0.010343771 -0.036593728 -0.003249499 4286201668
0.0054723658 -0.035499223 -0.0062011508 4287575863
0.0080142058 -0.037629463 -0.0046624122 4286594879
0.010012783 -0.037484117 -0.0051070815 4286201924
0.0076864585 -0.03851492 -0.0065171858 4287051583
0.0028392449 -0.037395969 -0.0094572082 4286136899
-0.002135478 -0.035489835 -0.013051669 4286267203
-0.0090116523 -0.033698477 -0.016205419 4287444794
-0.0068870857 -0.034325249 -0.015983913 4287445048
-0.0047570951 -0.034951478 -0.015763503 4286790974
-0.0022770017 -0.037112892 -0.014231044 4286463554
-0.0091517232 -0.035310231 -0.017376713 4287248954
-0.0068606623 -0.036709599 -0.016500615 4287183418
-0.0047283582 -0.037337855 -0.016282354 4286855998
-0.0027628243 -0.037195563 -0.016720168 4286659139
-0.013840657 -0.034111418 -0.020300627 4286398273
-0.011571571 -0.035516985 -0.019423082 4287053114
-0.0094557591 -0.036148869 -0.019202985 4287182909
-0.0071678832 -0.037552863 -0.018329401 4286594114
-0.01008698 -0.035432957 -0.022332963 4287116608
-0.0076411627 -0.037616625 -0.020807803 4286593604
0.022706738 0.015315615 0.041264072 4279937849
0.025139449 0.014102846 0.042241022 4280459323
0.019683475 0.0092469603 0.045230307 4282477393
0.018749528 0.019640028 0.034080047 4281503293
0.019142492 0.025248125 0.027935188 4280785214
0.021529343 0.024027612 0.028919037 4280784448
0.02619645 0.015301958 0.037725165 4279937339
0.01556653 0.014266372 0.037331551 4281763138
0.016407788 0.018525302 0.032611117 4281503548
0.017018953 0.023467101 0.027186416 4280266034
0.01819519 0.026351426 0.023902774 4281045569
0.020367414 0.025810461 0.024175506 4281045569
0.023987897 0.020477988 0.029415194 4280718403
0.029112648 0.01035814 0.039609343 4280719679
0.034105975 0.00092841685 0.049077265 4280589628
0.0097072832 0.018501386 0.030607451 4282280278
0.011127267 0.020710088 0.028029807 4281633088
0.013494294 0.019478932 0.029011231 4281569084
0.01509098 0.020998918 0.027148336 4281308219
0.016281176 0.02389292 0.023868091 4280199224
0.01745007 0.026785474 0.020592663 4279481398
0.019817259 0.025554705 0.021574337 4279416374
0.023018859 0.021577772 0.025386162 4278829619
0.026878299 0.015543513 0.031313527 4280327744
0.030363226 0.010885619 0.03581645 4280785213
0.03367155 0.0069167688 0.039604776 4281111103
0.037878294 0.00020638853 0.046209067 4281306434
0.0068358295 0.019474059 0.027010132 4280850749
0.0076923408 0.023760039 0.022305861 4279873335
0.0096553303 0.023902927 0.021869205 4279744304
0.012580384 0.020596169 0.024980027 4279809073
0.014556814 0.020740226 0.024540529 4281111359
0.016137809 0.022263546 0.022684485 4281046078
0.017507771 0.024475481 0.020123206 4280784704
0.01987711 0.023240544 0.021101072 4280783683
0.022874366 0.019939534 0.024196204 4280783938
0.025898302 0.016640566 0.027285483 4280979779
0.028104622 0.016097993 0.027547557 4280915264
0.029888798 0.016932689 0.026399065 4281111614
0.032533266 0.015014306 0.028068434 4280135219
0.036289103 0.0096571743 0.033252101 4280003894
0.042305019 -0.0025747493 0.045455966 4280003894
0.0054399446 0.014922857 0.029103149 4281502019
0.0054030381 0.022687633 0.020854171 4280591413
0.0066156723 0.025600377 0.017581787 4281437758
0.0087547563 0.025049899 0.017856631 4280786744
0.012052476 0.020347036 0.022377588 4280200499
0.014413208 0.019106731 0.02335389 4280916539
0.015994467 0.020634428 0.021501061 4281111613
0.017765313 0.02146985 0.0203568 4280980544
0.020139482 0.020230882 0.021330304 4280980289
0.022935435 0.017610401 0.023711365 4280784194
0.025128111 0.017064519 0.023974806 4280914753
0.026693471 0.018591546 0.022125877 4280850239
0.027821071 0.021499071 0.018873136 4280589628
0.02957597 0.022333916 0.01773287 4281177660
0.032419927 0.019717447 0.020103633 4281305924
0.037279136 0.010892518 0.028782003 4280198458
0.043777157 -0.0027558953 0.042350445 4279416628
0.0025920831 0.015915573 0.025514338 4281763904
0.0034825243 0.020230077 0.020822082 4280853808
0.0045250468 0.023847472 0.01684501 4281375284
0.0061010383 0.02537873 0.014996383 4281568064
0.008423809 0.02413113 0.015977647 4281503039
0.011525374 0.020106919 0.019781768 4280916794
0.014269631 0.017473496 0.022167441 4280525368
0.016245868 0.017617635 0.02172805 4281111613
0.018022109 0.018455677 0.020584188 4281176129
0.020198431 0.017906204 0.020849474 4280784704
0.022380097 0.01735726 0.021113589 4280849218
0.024151079 0.018195167 0.01997117 4280914243
0.025495354 0.020418815 0.017425727 4280719168
0.026610281 0.023334183 0.014182383 4279416374
0.028567936 0.023477647 0.013747642 4280720189
0.030962957 0.022236366 0.014713708 4281306688
0.035139438 0.015458293 0.021275558 4281241153
0.039817262 0.0073001832 0.029223964 4280981054
0.044785753 -0.0015449598 0.037856869 4280720189
0.051429003 -0.015226282 0.051360361 4281111104
-0.0011116415 0.020416521 0.018392619 4284576554
0.0010211617 0.019860819 0.018665202 4283336488
0.0027970895 0.020700268 0.017522562 4281570614
0.0038324632 0.024328042 0.013555339 4280070703
0.005773697 0.024469223 0.01312343 4280004404
0.0080932938 0.023217004 0.014102111 4279743028
0.011190917 0.019179352 0.017897237 4279875373
0.013931591 0.016536959 0.020277075 4281047609
0.015905038 0.016680866 0.019838292 4281242939
0.017478872 0.018216841 0.017993808 4281111869
0.019042077 0.019752137 0.016151763 4281046079
0.021210089 0.019199997 0.016417265 4281045058
0.023175631 0.019343749 0.015980549 4281110595
0.024930688 0.020182796 0.014843393 4281045314
0.026040938 0.023106571 0.01160766 4280524093
0.027777307 0.023944493 0.010474758 4280067898
0.030382302 0.022003606 0.012138177 4279742264
0.033666741 0.017980777 0.015892584 4280067898
0.037654627 0.011877701 0.021732695 4280720189
0.041916981 0.0050841868 0.028259248 4281111104
0.048524193 -0.0086435601 0.041737862 4281242174
0.002293814 0.020484455 0.014938314 4282357034
0.0038755871 0.022024762 0.013094885 4281113909
0.0058193617 0.022166099 0.012662388 4281046844
0.0083300881 0.020210668 0.014341006 4281111613
0.011048499 0.017557733 0.016719181 4281046843
0.01359399 0.015605055 0.018390156 4281177913
0.015367679 0.016447134 0.017250113 4281047354
0.016537189 0.019383512 0.014007421 4280850493
0.01788768 0.021620426 0.011470215 4279155764
0.020042054 0.021065071 0.011737159 4278373934
0.022409387 0.019812651 0.012702458 4279546168
0.024366811 0.019955911 0.012267627 4280914498
0.025898311 0.021493658 0.010436205 4280914498
0.027850393 0.021636728 0.01000271 4280980033
0.030239042 0.020386301 0.010963595 4280915008
0.033301227 0.017046846 0.01401188 4281045569
0.037060939 0.011620171 0.019142251 4281307199
0.041315868 0.0048042759 0.025653981 4281241409
0.0479137 -0.0089679211 0.039101824 4281566279
0.0058646873 0.019858867 0.012198353 4282029359
0.008188609 0.018598147 0.013169525 4281309494
0.010523241 0.017338343 0.014138347 4281243704
0.012286298 0.018181726 0.013002226 4280982328
0.014240824 0.018324256 0.012567645 4280851768
0.015397644 0.021268439 0.0093343277 4280655929
0.017139472 0.022110589 0.0082031656 4280655163
0.019490283 0.020852476 0.0091687683 4279222319
0.024644149 0.016939647 0.012487834 4281045569
0.026394 0.017782822 0.011355143 4281045313
0.028353957 0.017926477 0.010919908 4281176639
0.031186301 0.015274145 0.013266964 4281307453
0.03426072 0.011924662 0.016304329 4281176639
0.038032077 0.0064813271 0.021418974 4281437760
0.04229825 -0.00035560876 0.027911786 4281566789
0.04867661 -0.013472661 0.040631533 4281695563
0.0059096627 0.017547511 0.011731319 4284250663
0.0078585781 0.01768931 0.011297746 4282489123
0.0096163154 0.018534385 0.010164374 4281374518
0.011562679 0.018676206 0.0097315256 4281177913
0.013312507 0.019520909 0.0086000618 4280592179
0.014857803 0.02106791 0.0067717675 4280786999
0.016594347 0.021911893 0.0056433696 4281567554
0.01893932 0.020648949 0.0066070314 4281371969
0.021502199 0.018684924 0.008264672 4281110848
0.024500916 0.015318498 0.011310369 4280784703
0.026675988 0.014760636 0.011569617 4281241665
0.029502109 0.012098975 0.013911402 4281242174
0.032567445 0.0087377876 0.016942486 4281372479
0.035879992 0.0046776459 0.020661104 4281501764
0.039447755 -8.0905855e-05 0.025065493 4281500999
0.043504596 -0.0062378496 0.030845985 4281629773
0.049209397 -0.01729428 0.041457094 4281629773
0.0083288811 0.021159053 0.0048068576 4284709409
0.010452833 0.02059453 0.0050752778 4283534114
0.012385774 0.020735465 0.0046454854 4281243448
0.013920654 0.022286095 0.0028227866 4280201518
0.015848333 0.022426866 0.0023943279 4280592689
0.018389158 0.020454548 0.0040518548 4280265524
0.021153044 0.017779283 0.0064006727 4280069174
0.02456741 0.012993626 0.010827225 4281242174
0.027594341 0.0096184686 0.013858469 4281175874
0.030647924 0.0062453672 0.016883865 4281566789
0.034163572 0.0014675036 0.021288134 4281631558
0.037496161 -0.0026043355 0.024992488 4281629519
0.040860698 -0.0066736788 0.028689787 4282021709
0.044482913 -0.011443436 0.03307068 4281891148
0.049969394 -0.021831438 0.042963266 4282021199
0.010119032 0.019705631 0.003219584 4284118829
0.01165681 0.021260723 0.0013994463 4282290224
0.013581663 0.021401182 0.00097153336 4281177913
0.015506543 0.021541737 0.00054368936 4281112378
0.018248167 0.018856026 0.0028907489 4281242939
0.021424863 0.014759086 0.006619459 4281176894
0.02505257 0.0092522502 0.011726152 4280915008
0.028510768 0.0044546053 0.016131554 4281306688
0.031791423 0.00036565214 0.019837372 4281435463
0.035104066 -0.0037208721 0.023536228 4281564239
0.038448669 -0.0078049153 0.027228009 4281955663
0.041825235 -0.011886492 0.03091279 4281890128
0.045459274 -0.016670689 0.035279572 4282021199
0.050727837 -0.026385903 0.044456877 4282151248
0.013441738 0.019811764 -0.0001830291 4283273758
0.015769131 0.018534325 0.00077455305 4281897268
0.018719183 0.015131347 0.0038062092 4281308474
0.022522539 0.0088959858 0.0095981322 4281176384
0.026164573 0.0033726469 0.014688544 4281371203
0.029637255 -0.0014392063 0.019079193 4281566534
0.032503299 -0.004124172 0.02139242 4282022984
0.035607971 -0.007515274 0.024390154 4282021199
0.038959265 -0.011611931 0.02807061 4282020689
0.042787828 -0.017121032 0.033120029 4281824593
0.046659008 -0.022626877 0.038160078 4282151504
0.051256731 -0.030250594 0.045251101 4281954899
0.016634373 0.013384782 0.0030725822 4283922734
0.019596651 0.0099717677 0.0060933176 4282419254
0.023411456 0.0037175491 0.011867903 4281764414
0.027274245 -0.0025330409 0.017631926 4281827908
0.030126058 -0.005227901 0.019941665 4281890893
0.032784723 -0.0072108582 0.02155862 4282020943
0.035676483 -0.009902522 0.02385962 4282086224
0.039908309 -0.016851597 0.030277833 4282151504
0.044193409 -0.023796573 0.036684278 4282085969
0.048081525 -0.029318616 0.0417074 4282020433
0.051328905 -0.032709733 0.044665653 4282019414
0.020472206 0.00479047 0.0083646439 4283854904
0.02409219 -0.00076957792 0.013433607 4282611268
0.027336948 -0.0049007311 0.017117687 4282218058
0.029978909 -0.0068915933 0.018733338 4282217293
0.033279642 -0.011018418 0.022405159 4282151504
0.037046209 -0.016567275 0.027441908 4282216783
0.041294593 -0.023536928 0.033840001 4282412879
0.045373999 -0.029790729 0.039541584 4282412114
0.024359237 -0.0038435534 0.013613261 4283592763
0.027399288 -0.0072725266 0.016600467 4282348363
0.030254589 -0.0099846199 0.018896297 4282086734
0.034201559 -0.016268149 0.024612267 4281955409
0.038629964 -0.023976937 0.031686407 4282282064
0.042897575 -0.030967057 0.038063813 4282280278
0.024419669 -0.0062086657 0.013101667 4283200063
0.027252721 -0.0089311823 0.015395757 4282282574
0.030529529 -0.013086163 0.01905315 4282282319
0.035121549 -0.021539569 0.026803613 4282347343
0.039777532 -0.029988199 0.034540024 4282345813
0.021666255 -0.0058449581 0.010295223 4284641323
0.024479728 -0.0085778162 0.012587054 4282938689
0.027522888 -0.012028404 0.015557166 4282020433
0.031225737 -0.017634623 0.020568509 4281822299
0.021521386 -0.0074875876 0.00910208 4284379438
0.024333943 -0.010229267 0.011387546 4282611268
0.027375981 -0.013690844 0.014349712 4281626204
-0.024989914 0.00081086159 0.00516597 4284705329
0.021781802 -0.010578297 0.009271007 4283721284
-0.023309316 0.0051006228 -0.0074487543 4284705073
-0.021990735 0.0058730617 -0.011076566 4284376888
-0.017856132 0.0023634136 -0.011014901 4284442169
-0.015947461 0.0025009736 -0.011440504 4284639539
-0.013059355 0.0025973246 -0.017291637 4284442933
-0.01368675 0.00326588 -0.020458303 4283983678
0.035612255 -0.025394641 0.027615715 4281426028
0.040273748 -0.03386908 0.035331219 4281426028
0.031077132 -0.019314654 0.019348323 4281229169
0.035674844 -0.027820081 0.027058151 4281163633
0.039904207 -0.034878641 0.033394765 4280964989
0.0272291 -0.015352979 0.01314248 4280703104
0.030928548 -0.02099438 0.018128354 4280636804
0.03552378 -0.029526196 0.025819052 4280636804
0.039319135 -0.035160318 0.03078381 4282077809
0.024247544 -0.014257394 0.0096679609 4281030523
0.027082246 -0.017014794 0.011935482 4280768129
0.030779991 -0.022673778 0.016908623 4280571014
0.034946553 -0.029780753 0.023226287 4280702084
0.038519092 -0.03470742 0.027503069 4282405738
-0.028052475 0.0018662736 -0.00087786652 4282471273
0.019096814 -0.012559034 0.0059662741 4281684853
0.021693684 -0.014599435 0.0075572301 4280636549
0.024306547 -0.016638473 0.0091446955 4280374153
0.027142987 -0.019404478 0.011405276 4280439434
0.030841695 -0.025080875 0.016365066 4280439434
0.034583021 -0.030754015 0.0213155 4281029503
0.038151383 -0.035696246 0.025581747 4282209389
-0.031495113 -0.0029400587 0.0015907455 4281224579
-0.030803975 0.003817305 -0.0050546583 4278404789
-0.029034149 0.0046895519 -0.0061710561 4279388833
-0.027269486 0.0055614933 -0.0072861845 4280439433
0.018952206 -0.014200397 0.0047740098 4280374153
0.021750398 -0.016978167 0.0070363563 4280243084
0.024569919 -0.019754283 0.0092940312 4280112013
0.027410759 -0.022528686 0.011547087 4280374153
0.031113071 -0.028222248 0.016492926 4280373898
0.034858018 -0.033912577 0.021429438 4280505224
-0.033699166 -0.0039369687 0.00017212331 4281160063
-0.027691644 0.0054634586 -0.0098044034 4278733738
-0.02564555 0.0048628375 -0.0095415171 4279653523
0.017014341 -0.016720094 0.0046999883 4280964224
0.01920601 -0.017307796 0.0049322341 4279653269
0.022008605 -0.020094 0.0071870331 4279980943
0.024832524 -0.022878505 0.0094371941 4279981199
0.028506504 -0.02859176 0.014376165 4280308618
0.031803407 -0.032836892 0.017960213 4280833154
0.035344787 -0.037811823 0.022209466 4281750644
-0.037189689 -0.0087693185 0.0026344713 4280439689
-0.036286343 -0.0027075559 -0.0033111237 4278735014
-0.035160508 0.0018709451 -0.0078704841 4278471599
-0.033661086 0.0042272285 -0.010359259 4278603434
-0.032039721 0.0058427081 -0.012157299 4278734759
-0.030147981 0.0059782863 -0.012579698 4278536879
-0.027969915 0.0046350732 -0.011630045 4278602668
-0.025926802 0.0040320456 -0.011368139 4279062434
-0.024175037 0.0049075931 -0.012476979 4278932383
-0.022126321 0.0043051764 -0.012216164 4279260314
0.011930149 -0.014973693 0.0010159332 4282340714
0.014490116 -0.017036803 0.0026000571 4280963713
0.016869755 -0.018362992 0.0035065617 4280504714
0.019459084 -0.020423718 0.0050843414 4279259293
0.022266084 -0.023218311 0.0073316265 4280046479
0.025707375 -0.028216206 0.011591295 4280243084
0.029392965 -0.033946045 0.016514588 4280767364
0.032492206 -0.037468828 0.019414958 4281685364
-0.038977187 -0.00071571022 -0.0074741654 4278931618
-0.037459079 0.0016481876 -0.0099624023 4278800039
-0.034200374 0.0048886314 -0.013555709 4278405809
-0.032586742 0.0065079108 -0.015348754 4278930088
-0.026353192 0.0039474145 -0.013875203 4278800038
-0.024458479 0.0040835142 -0.014298031 4278669988
-0.022412743 0.0034786388 -0.014038164 4278735778
-0.020515103 0.0036151782 -0.014461474 4280113034
0.0090555027 -0.013795905 -0.0024264986 4282340204
0.011786863 -0.016605265 -0.00016934983 4281291388
0.014733057 -0.020150907 0.0027562659 4280635784
0.017313633 -0.022218935 0.0043309946 4280243083
0.020109022 -0.025023244 0.0065741856 4279128733
0.023127213 -0.028563246 0.0094840955 4279784083
0.026580309 -0.033575527 0.013729688 4280373899
0.029863924 -0.037848003 0.017296966 4282208623
-0.039901819 -0.0091317669 -0.0020094039 4282077808
-0.039492283 -5.4448843e-05 -0.010677351 4278866083
-0.037852313 0.0015707165 -0.012473272 4278996389
-0.028810579 0.0044800639 -0.016636742 4278734248
-0.026778761 0.0038718134 -0.016375626 4278734248
-0.024741482 0.003264077 -0.016115643 4278669224
-0.023000125 0.00414332 -0.01721883 4278604199
-0.021110605 0.0042792559 -0.017640343 4279061924
-0.019220967 0.004415296 -0.018061811 4279585948
-0.017331209 0.0045514777 -0.018483208 4281291898
0.0040642545 -0.01199989 -0.0060990574 4281684854
0.0063893832 -0.013339333 -0.0051873224 4280963968
0.0091011263 -0.016158924 -0.0029325048 4280767364
0.012024865 -0.019717276 -1.0130927e-05 4280439434
0.014781971 -0.02253332 0.0022347886 4280308874
0.017756371 -0.026087686 0.0051460471 4280047243
0.021154666 -0.03111954 0.0093922038 4280243338
0.024187706 -0.034669369 0.012290608 4280898179
0.027247401 -0.03821709 0.015183203 4282209644
-0.039790366 -0.012219526 -0.0017969059 4282471528
-0.039120261 -0.0046098307 -0.0090773534 4278866338
-0.037727844 -0.0014856085 -0.012240782 4279127968
-0.036224652 0.00089042634 -0.014715848 4279062689
-0.034871783 0.0040120333 -0.017870283 4278800038
-0.033265639 0.0056394115 -0.019655097 4278996389
-0.031250406 0.00502754 -0.019392097 4278799528
-0.02908719 0.0036701858 -0.018449025 4278734504
-0.027058367 0.0030594692 -0.018188857 4278668713
-0.02502406 0.0024493262 -0.017929854 4278603434
-0.017624799 0.003738068 -0.020293364 4279520413
-0.016060043 0.0053635165 -0.02206823 4279719058
0.0021486841 -0.014496274 -0.006161754 4282340458
0.0039232224 -0.013611048 -0.0072696293 4280570759
0.0066180229 -0.016440772 -0.0050176429 4280504714
0.0091464147 -0.018526062 -0.0034414213 4280439434
0.012262117 -0.022837721 0.00014289655 4280373644
0.01502363 -0.025662206 0.002380332 4280242828
0.018393746 -0.030711487 0.0066211428 4280571014
0.021602765 -0.035015978 0.010185055 4281028994
0.024642674 -0.038576208 0.01307375 4282601833
-0.039432194 -0.01681482 -0.00022304244 4282536298
-0.038496953 -0.01068113 -0.0061235437 4279455898
-0.037087966 -0.0075470358 -0.009284161 4278931618
-0.035831768 -0.0036653876 -0.013121955 4278996898
-0.034467641 -0.00053427368 -0.01627237 4278931364
-0.033261653 0.0033440143 -0.020098783 4278734758
-0.031383757 0.0034785196 -0.020518156 4278734504
-0.029363375 0.002864942 -0.020257872 4278734758
-0.027192529 0.0015038177 -0.019319667 4278537644
-0.025601517 0.003134951 -0.021097543 4278668459
-0.022298057 0.0056477413 -0.023968702 4278404533
-0.018076275 0.0036764219 -0.022776213 4278405808
-0.016194683 0.0038121045 -0.023195727 4279521178
-0.01414936 0.0032012388 -0.022940319 4279129243
-0.011599775 0.00035139918 -0.020663189 4280243848
-0.0001260303 -0.015505537 -0.007569992 4280898433
0.001828067 -0.01536376 -0.0080050128 4280570503
0.0041467361 -0.016712554 -0.0070985155 4279587224
0.0068459287 -0.019550644 -0.0048540998 4280176528
0.0097540729 -0.023132071 -0.0019447301 4280635273
0.012498632 -0.025966607 0.00028978474 4280766599
0.015457442 -0.029544055 0.0031880196 4281159553
0.018638488 -0.033863798 0.0067482367 4282402933
-0.039322499 -0.019923866 -2.6116148e-05 4280766854
-0.038254406 -0.014523886 -0.0052334266 4279849364
-0.036707986 -0.012131818 -0.0077084387 4279194269
-0.035177331 -0.0097407624 -0.010179835 4278931618
-0.033796649 -0.0065997764 -0.013327427 4278342058
-0.032573882 -0.0027093962 -0.017149409 4278931873
-0.031098593 -0.00032202154 -0.019608153 4278800293
-0.029496994 0.0013139695 -0.021385316 4278865829
-0.027616281 0.0014488846 -0.021805162 4278668714
-0.024304796 0.0039685592 -0.024673373 4278865573
-0.022584457 0.0048529431 -0.025766946 4278669224
-0.020558413 0.0042380914 -0.025509112 4278931108
-0.018210743 0.0021253079 -0.02390353 4278734248
-0.016490053 0.0030100271 -0.024996875 4278668969
-0.014447723 0.0023967549 -0.024742445 4278931874
-0.011901699 -0.00046205521 -0.02247107 4279325594
-0.0086592995 -0.0063131899 -0.017516024 4280374153
-0.0053742267 -0.012161098 -0.01257039 4281160319
-0.0027427785 -0.015013322 -0.010317815 4280701573
-0.00044341758 -0.016368151 -0.0094104875 4280636038
0.0018666498 -0.017721988 -0.0085054692 4280439179
0.0043695085 -0.019822493 -0.0069335978 4280111248
0.0072578304 -0.023416363 -0.0040281508 4279259293
0.0099854507 -0.026261024 -0.001796471 4280897669
0.012734421 -0.029104002 0.00043055229 4281618043
0.015504727 -0.031945311 0.0026529301 4283254888
-0.039336864 -0.022287473 -0.00051593781 4281553273
-0.038264927 -0.016871981 -0.0057126628 4279914643
-0.036586765 -0.015226714 -0.0075040823 4279456409
-0.034787748 -0.014335491 -0.008614243 4279128223
-0.033261809 -0.011938184 -0.011079566 4278997408
-0.032024961 -0.0080358908 -0.014896584 4278473384
-0.03081454 -0.0041353777 -0.018707545 4278604199
-0.02963056 -0.00023668259 -0.022512535 4278931619
-0.028039198 0.0014029965 -0.024284016 4279062178
-0.016463857 0.00071014464 -0.025450092 4278865573
-0.014255952 -0.00065623969 -0.024526097 4278669989
-0.011373732 -0.0050252154 -0.020920118 4278604453
-0.0082909167 -0.010142446 -0.016650647 4278669733
-0.0051707663 -0.015256844 -0.012389461 4279390619
-0.0028826706 -0.016616896 -0.011483012 4280308109
-0.0005838424 -0.017976113 -0.010578839 4280635528
0.0019049086 -0.020084314 -0.009008823 4280570249
0.0047734194 -0.023690641 -0.006107254 4280111758
0.0076686144 -0.027294904 -0.0032115225 4279521433
-0.038275775 -0.019224174 -0.0061948914 4280307598
-0.036594715 -0.017574407 -0.007983651 4279586968
-0.034661856 -0.017436363 -0.0084155919 4279194269
-0.032996405 -0.015787445 -0.010200746 4279325339
-0.031477865 -0.013384029 -0.01265943 4279260058
-0.030392457 -0.0087166354 -0.017140849 4278997408
-0.029338803 -0.0040514544 -0.021615043 4278800548
-0.028316919 0.00061158091 -0.026082063 4278866085
-0.027032662 0.0037636384 -0.029194618 4278734759
-0.025020842 0.0031431988 -0.028937116 4278341038
-0.023308363 0.0040313229 -0.030025627 4278275504
-0.021135915 0.0026576743 -0.029097335 4278472364
-0.018952724 0.0012848899 -0.02817131 4278735268
-0.0162776 -0.0023473129 -0.025235567 4278539429
-0.013575777 -0.0059774891 -0.022305712 4278866849
-0.010515843 -0.011111729 -0.018042739 4279062943
-0.007755287 -0.014737427 -0.015125786 4279718039
-0.0053100847 -0.016855709 -0.013551289 4279259038
-0.0028488301 -0.018972695 -0.011980256 4279390364
-0.00054788589 -0.020336077 -0.011079865 4280438923
0.0021218024 -0.023202777 -0.0088486839 4280636038
0.0049945302 -0.026819713 -0.0059562381 4281028993
0.0078939311 -0.030434571 -0.0030696196 4281879673
-0.038035717 -0.02309674 -0.0053264666 4281421948
-0.036474708 -0.020684063 -0.0077900421 4279849364
-0.034798559 -0.019030191 -0.0095743667 4279587478
-0.03313287 -0.017376922 -0.011356309 4279653014
-0.031750176 -0.014209561 -0.014484652 4279390873
-0.030249674 -0.011800818 -0.016934343 4279325338
-0.029189702 -0.0071220696 -0.021400183 4278997408
-0.028161507 -0.0024455264 -0.025858801 4278603689
-0.027018201 0.0014722571 -0.029638194 4278866084
-0.025303159 0.0023626015 -0.030725751 4278931364
-0.023441095 0.0024964884 -0.031141201 4278996388
-0.021114308 0.00036241114 -0.02954581 4278669478
-0.018771421 -0.0017703995 -0.027953865 4278604708
-0.015771687 -0.0069245249 -0.023689063 4279128733
-0.012897473 -0.01132036 -0.020101033 4279521689
-0.0099912249 -0.015713774 -0.016520055 4279456409
-0.0077256598 -0.017084487 -0.015615305 4280242319
-0.005278524 -0.019209139 -0.014046183 4280111249
-0.0028153397 -0.021332547 -0.01248051 4279390108
-0.00033610687 -0.023454651 -0.010918302 4279389853
0.0023379773 -0.026329711 -0.0086946953 4281159553
0.0052149184 -0.02995728 -0.0058113253 4282534005
-0.036227319 -0.024562351 -0.0069279466 4282208368
-0.034673709 -0.022143587 -0.0093849022 4280569993
-0.03313588 -0.019725829 -0.011838241 4279914899
-0.031613838 -0.017309137 -0.014287928 4279587478
-0.029968884 -0.015652768 -0.016061807 4279718039
-0.028617185 -0.012478702 -0.019176528 4279390364
-0.027574684 -0.007788077 -0.023628531 4278997408
-0.026563976 -0.0030996129 -0.028073348 4278603943
-0.025136974 -0.00068909675 -0.03050142 4278800548
-0.023269739 -0.00055486709 -0.030918038 4279259548
-0.020783652 -0.0034533963 -0.028659875 4278997664
-0.017961483 -0.0078662932 -0.025070235 4279391129
-0.014947254 -0.013034627 -0.020820122 4279980944
-0.012383696 -0.015927218 -0.018578967 4280504969
-0.0097987466 -0.018818133 -0.016342478 4280504458
-0.0075284056 -0.020192847 -0.015442124 4280308108
-0.0050766654 -0.02232375 -0.013878902 4280439178
-0.0026088916 -0.024453305 -0.01231919 4280569993
-0.00012506917 -0.026581615 -0.010762917 4281159554
-0.034549575 -0.025265455 -0.0092016067 4282470509
-0.033139218 -0.022078894 -0.012323121 4280176784
-0.031885844 -0.018131919 -0.016111096 4279718293
-0.030104775 -0.017232932 -0.017210534 4279586203
-0.028752472 -0.014050119 -0.020318864 4279324829
-0.027277429 -0.011629924 -0.022752896 4279325084
-0.025818203 -0.009210676 -0.025183335 4278866338
-0.024524007 -0.006031692 -0.028278435 4278931873
-0.022643607 -0.0058965087 -0.028697988 4278997408
-0.020145107 -0.008802861 -0.026449136 4278866084
-0.017153766 -0.013988242 -0.022205472 4278800804
-0.014604516 -0.016890705 -0.019967766 4279062943
-0.012358841 -0.018271811 -0.019065375 4280242574
-0.0097721368 -0.021171309 -0.016835826 4280308109
-0.0073318742 -0.023309663 -0.015275093 4280373643
-0.0047050901 -0.026206017 -0.01305428 4280636038
-0.0020569377 -0.029100709 -0.010838142 4281356414
-0.031479005 -0.022769697 -0.014582688 4280308109
-0.029963944 -0.020340323 -0.017020928 4279651738
-0.028464701 -0.017911941 -0.019455595 4279717783
-0.026981261 -0.015484571 -0.021886645 4279325084
-0.025367308 -0.013821423 -0.023646764 4279259548
-0.023912873 -0.011395894 -0.026071161 4279128733
-0.021867666 -0.012022614 -0.025827549 4279521943
-0.01950844 -0.01417397 -0.024254132 4279522199
-0.016819205 -0.017848901 -0.021354379 4279849618
-0.014741749 -0.018472932 -0.021117678 4279849618
-0.012496594 -0.019858427 -0.020218441 4279849364
-0.0099108219 -0.022766717 -0.017995229 4279914388
-0.0073036589 -0.025673337 -0.015776685 4281027719
-0.029685672 -0.024222098 -0.016170079 4280962949
-0.028318834 -0.021020889 -0.019268544 4279784083
-0.02668618 -0.019352123 -0.021029705 4279390873
-0.025210168 -0.016918644 -0.023454113 4279325339
-0.023601186 -0.015251406 -0.025209781 4279456409
-0.021548349 -0.015879706 -0.024969544 4279456408
-0.019181844 -0.018037118 -0.023402611 4279587734
-0.0166425 -0.020957857 -0.021175878 4279653268
-0.014560085 -0.021583669 -0.020941971 4279980433
-0.012148041 -0.023737453 -0.019384922 4280569993
-0.0097199567 -0.025889896 -0.017831398 4281159553
-0.0071083978 -0.028804898 -0.015620372 4282663289
-0.027892437 -0.025674127 -0.017757157 4281290624
-0.026535485 -0.022464804 -0.02084679 4279914643
-0.025199685 -0.019256845 -0.023931658 4279586458
-0.023736421 -0.016817629 -0.026348229 4279587223
-0.021532666 -0.018215321 -0.025446674 4279521688
-0.019164216 -0.020379141 -0.023885092 4279522198
-0.016466532 -0.024075232 -0.021003572 4279653268
-0.014219884 -0.025469519 -0.020111268 4279914899
-0.011638697 -0.02839566 -0.01790026 4280700809
-0.0095298104 -0.029021539 -0.017673654 4283188588
-0.026242424 -0.02635584 -0.020006994 4282666093
-0.025043789 -0.022368819 -0.023749737 4281486463
-0.023574796 -0.019922681 -0.026162701 4279783318
-0.021517303 -0.020555072 -0.025926745 4279325084
-0.019146938 -0.022725247 -0.024370538 4279652759
-0.016291294 -0.027201138 -0.020837395 4280111759
-0.013721745 -0.030136958 -0.018630421 4281551744
0.016446244 -0.039653018 -0.014922239 4283059814
0.018828938 -0.041039802 -0.014062073 4282469233
-0.024451893 -0.027805097 -0.021591244 4282994534
-0.023117427 -0.024579726 -0.024662672 4280635275
-0.021200534 -0.024441965 -0.025090402 4279586969
-0.018822882 -0.02661819 -0.023540685 4279980178
-0.016116787 -0.030335478 -0.020677416 4281421184
-0.018346604 -0.031297557 -0.022062667 4282798183
-0.028436605 -0.034400128 -0.022876982 4282863719
-0.030778896 -0.034566663 -0.024914652 4282863974
-0.033243362 -0.033939667 -0.027603403 4282798438
-0.0064439736 -0.040738285 -0.026044875 4283059559
-0.0044951998 -0.040597238 -0.026478972 4283059814
-0.006920334 -0.040775053 -0.028502155 4282861423
-0.021706168 -0.037846528 -0.031171985 4282142323
-0.0072277375 -0.041588388 -0.030308422 4282796653
-0.024060052 -0.037989452 -0.033188637 4282012018
-0.0078706779 -0.040821634 -0.033396974 4282732394
-0.01060174 -0.039390527 -0.036688998 4282601579
-0.0044908561 -0.040552296 -0.036692958 4282863974
-0.011069108 -0.039386474 -0.039118119 4280635273
-0.0049750097 -0.040553853 -0.039121564 4282733159
-0.011700433 -0.038579024 -0.042179335 4281290879
-0.012001492 -0.039351434 -0.043956716 4282798694
-0.0030658767 0.020274788 0.01882771 4284901934
-0.006182652 0.022720233 0.01384254 4285492259
-0.0045905747 0.024260931 0.011996472 4285688608
-0.0021308921 0.022301275 0.013686059 4285492513
0.00070145726 0.018943436 0.016784217 4285034278
-0.0080556646 0.011700682 0.022738568 4285360933
-0.0080926418 0.020275898 0.013817376 4285558303
-0.0073429532 0.025334034 0.0084415656 4285623838
-0.0054210536 0.025473285 0.008013567 4285755164
-0.0027973019 0.022804093 0.01040577 4285952279
0.00038217753 0.018030725 0.01490663 4285755164
0.0021528937 0.018874191 0.013768377 4285297439
0.0037349425 0.020418897 0.011928171 4285432333
-0.011464942 0.015570879 0.016342558 4285295654
-0.010172531 0.018532321 0.013084626 4285558559
-0.0090685748 0.022197243 0.009126287 4285755673
-0.0079911463 0.025860343 0.0051739346 4285689374
-0.0057322085 0.024589945 0.0061557684 4285624094
-0.0032872595 0.022616047 0.0078387558 4285689629
0.00024123862 0.016418584 0.013735291 4285755419
0.0021926127 0.016560249 0.013300935 4285427998
0.0039608069 0.017405815 0.012164952 4285231649
-0.016600747 0.018632784 0.011098815 4285097774
-0.014669027 0.018772192 0.010668216 4285492768
-0.012737188 0.018911727 0.010237668 4285558813
-0.011133995 0.020465955 0.0083987508 4285624348
-0.0097084045 0.022726674 0.0058586095 4285821464
-0.0082987025 0.024986349 0.0033220854 4285952533
-0.0062153153 0.024418 0.0035989489 4285886999
-0.0036013499 0.021730553 0.0059801619 4285887254
-0.00025510415 0.01621943 0.011161627 4285624604
0.0018711947 0.015654556 0.011429125 4285559069
0.0034537502 0.017208003 0.0095953438 4285493789
0.0046542771 0.02017235 0.0063650515 4285493534
0.006210316 0.021724097 0.0045373365 4285165093
-0.01928487 0.019738741 0.0075496584 4285229354
-0.017832693 0.022007462 0.0050082412 4285820444
-0.015602015 0.020725727 0.0059893895 4285820698
-0.013360538 0.019444816 0.0069682505 4285623838
-0.011600893 0.020293377 0.0058368873 4285624349
-0.010013301 0.021850944 0.0040047988 4285558558
-0.0084362924 0.023407876 0.0021750946 4285624094
-0.0061810277 0.022128373 0.0031511914 4285689629
-0.0037401542 0.020141035 0.0048252102 4285624094
-0.0009281449 0.016737878 0.0078949835 4285624094
0.0013700239 0.01546184 0.008861715 4285624604
0.0027646422 0.017727494 0.0063338634 4285624348
0.0037722886 0.021407995 0.002413908 4285821209
0.0053179301 0.022963338 0.00059177913 4285755164
0.007616356 0.02168775 0.0015587751 4285624093
-0.020495903 0.023139268 0.0014726967 4285820698
-0.018749889 0.02398866 0.00034581125 4285820188
-0.016374353 0.021989442 0.0020289365 4285886744
-0.013659995 0.018567644 0.00511178 4285820953
-0.011738945 0.018706448 0.004683679 4285689884
-0.0099844337 0.019556873 0.0035552029 4285624349
-0.0082351454 0.020407021 0.0024279878 4285624349
-0.0061470754 0.019834638 0.0027004387 4285558558
-0.0040535815 0.019262761 0.0029717777 4285624350
-0.0015999973 0.017269857 0.0046380945 4285624348
0.00068966299 0.015988819 0.0056034327 4285755419
0.0018940791 0.01897078 0.0023853648 4285755163
0.0030772313 0.021951333 -0.00082794763 4285820698
0.0049911067 0.022090551 -0.0012537455 4285755164
0.0074770115 0.020100571 0.00040573627 4285952023
0.010172304 0.017402261 0.0027562529 4285820954
0.011713009 0.018961944 0.00093874522 4285362718
-0.02310491 0.014858738 0.0075059365 4285427744
-0.021931823 0.018571682 0.0035644975 4285755674
-0.020938385 0.022997551 -0.0010727663 4285623584
-0.019197632 0.023848724 -0.002196854 4285557794
-0.017145108 0.023271054 -0.0019185198 4285623584
-0.01412018 0.018409222 0.0025587585 4285689373
-0.011876944 0.017119803 0.0035306606 4285755674
-0.0097894073 0.016544931 0.0038014706 4285624349
-0.0080347322 0.017397679 0.0026746336 4285558814
-0.005941648 0.016823418 0.002944367 4285624348
-0.0043665804 0.018389136 0.0011217911 4285558813
-0.0022706576 0.017815329 0.0013910085 4285624348
-0.00034911931 0.017954789 0.00096326135 4285689883
0.0012075566 0.019519448 -0.00085492991 4285886488
0.0025684834 0.021795854 -0.0033653788 4285557793
0.0044769011 0.021934666 -0.0037899762 4285557538
0.0071472451 0.019225664 -0.0014405679 4285689373
0.0098389611 0.016518332 0.00090416707 4285624348
0.011964645 0.015947469 0.0011673458 4285493278
0.013897236 0.016088471 0.00073769875 4285362464
-0.025457744 0.0145647 0.0053754617 4285361953
-0.024128359 0.017571807 0.0021415707 4285493534
-0.022820096 0.020577453 -0.0010874867 4285624603
-0.021380048 0.022864863 -0.0036115982 4285821463
-0.019488934 0.023001157 -0.0040332936 4285821209
-0.017281082 0.021704573 -0.0030569546 4285821208
-0.014418583 0.017543606 0.00071073882 4285886998
-0.012014907 0.015533455 0.0023778547 4285689884
-0.010093976 0.015672304 0.00194983 4285624348
-0.0085108466 0.017242715 0.00012861751 4285624348
-0.0067666657 0.018096931 -0.00099413656 4285624348
-0.0048534274 0.018235557 -0.0014202064 4285624348
-0.0027631558 0.01765915 -0.0011513811 4285689628
-0.00084708259 0.01779817 -0.001577938 4285689629
0.00033994392 0.020796381 -0.0047790632 4286018069
0.0018756129 0.022363983 -0.0065892283 4285952279
0.0039635152 0.021787845 -0.0063195415 4285820954
0.006627623 0.019069634 -0.0039753225 4285820953
0.0093131028 0.016353093 -0.0016357712 4285755673
0.01201994 0.013638265 0.00069906749 4285558813
0.014549877 0.011638649 0.002339188 4285427998
0.017296769 0.008926928 0.0046653375 4285427743
-0.025594752 0.012978859 0.0042227805 4285558304
-0.024559621 0.017433643 -0.0004042536 4285427488
-0.02310596 0.019728459 -0.0029265713 4285559069
-0.021668117 0.022022195 -0.0054452457 4285690393
-0.019624341 0.021439388 -0.005168343 4285690393
-0.017575104 0.020857058 -0.0048925895 4285689883
-0.014877331 0.017401196 -0.0018307343 4285558813
-0.012479667 0.015384004 -0.00016716123 4285624349
-0.010896407 0.016958706 -0.0019852594 4285624349
-0.0094924495 0.019250624 -0.0044959001 4285689373
-0.0081043951 0.021541543 -0.0070029711 4285820953
-0.0058617517 0.020243682 -0.0060371663 4285820954
-0.0036083795 0.018946737 -0.005073715 4285689374
-0.0017030947 0.019084997 -0.0054978579 4285623839
-0.00034400448 0.021374244 -0.0079981554 4285689629
0.0013686828 0.022228893 -0.0091118533 4285755674
0.0034509189 0.021650136 -0.008842567 4285755418
0.0062988698 0.018206358 -0.0058132503 4285755674
0.0093662851 0.01404842 -0.0021000626 4285558814
0.012465712 0.009892948 0.0016060285 4285493023
0.015201002 0.0071715191 0.0039281007 4285427488
0.01815838 0.0037361681 0.0069334246 4285426978
-0.025153276 0.0085059032 0.0058654156 4285229354
-0.024253752 0.013696268 0.000547437 4285492514
-0.022941586 0.016719684 -0.0026694443 4285559068
-0.021650564 0.019741684 -0.0058815256 4285559069
-0.019759711 0.019877896 -0.0063032024 4285558813
-0.017710794 0.019293346 -0.0060290284 4285559068
-0.015174683 0.016547166 -0.0036703404 4285558813
-0.012943633 0.015243687 -0.0027056169 4285624604
-0.011863183 0.018983312 -0.0066013541 4285689883
-0.010809254 0.022721119 -0.010491107 4285952534
-0.0065203086 0.020834655 -0.0092534442 4285952533
-0.0037457421 0.017374061 -0.006216418 4286018069
-0.001661364 0.016792938 -0.0059495009 4285624348
-0.00011726841 0.018369757 -0.0077550728 4285558558
0.0016008019 0.019226991 -0.0088683367 4285559069
0.0038752668 0.017927624 -0.0079125464 4285559069
0.0067301169 0.014473416 -0.004892976 4285559069
0.010189332 0.0088660941 0.00018503889 4285493279
0.013300784 0.0046983883 0.0038786195 4285559069
0.016048491 0.0019691139 0.0061913617 4285558048
0.018616993 -4.0695071e-05 0.0078131445 4285294378
-0.024713267 0.0040156394 0.0074954592 4284967214
-0.02365483 0.0084982738 0.0028828774 4285229864
-0.022478443 0.012255073 -0.0010265466 4285492259
-0.02132855 0.016010061 -0.0049299877 4285493023
-0.019739959 0.017593421 -0.0067430595 4285493278
-0.018004153 0.018453009 -0.0078594657 4285493789
-0.015792388 0.017143652 -0.006893808 4285559324
-0.013569839 0.015835114 -0.0059304442 4285624349
-0.012330826 0.01886262 -0.009123981 4285821208
-0.011281408 0.022611018 -0.013004532 4285623584
-0.0070039742 0.020717174 -0.011769297 4285689374
-0.0040594488 0.016523391 -0.0080489721 4285755164
-0.0017990246 0.01521831 -0.0070935842 4285624348
0.0001087226 0.015356816 -0.0075182244 4285559069
0.002200909 0.014774293 -0.0072545186 4285493789
0.0046725534 0.012750283 -0.0056165596 4285493789
0.0077293143 0.0085652545 -0.0019208388 4285427489
0.011202838 0.0029414892 0.0031408668 4285361444
0.014524017 -0.0019586757 0.0075072665 4285360933
0.016696384 -0.0025348067 0.0077535547 4285425958
0.018874109 -0.0031104162 0.0079987478 4285163308
-0.024707396 0.0016868562 0.0070261825 4284901679
-0.023351517 0.0047307387 0.0038125571 4285164074
-0.022016767 0.0077731684 0.00060377643 4285361189
-0.020550992 0.010088563 -0.0019064574 4285623838
-0.01910105 0.012402907 -0.0044130804 4285755929
-0.01766694 0.014716186 -0.0069160461 4285493279
-0.016088493 0.016303383 -0.0087234266 4285559069
-0.014194854 0.016440086 -0.0091455113 4285559069
-0.012963202 0.019475773 -0.012330865 4285886998
-0.011752754 0.022510052 -0.015511399 4285886743
-0.0098801106 0.022645555 -0.015928565 4285689373
-0.0073132962 0.019884624 -0.013589464 4285755164
-0.0041965395 0.014953502 -0.0091896579 4285821208
-0.0017577969 0.012920253 -0.0075495942 4285624603
0.00051550195 0.011611789 -0.0066002375 4285559068
0.0027995259 0.010304265 -0.0056532221 4285493789
0.0056547746 0.006828092 -0.0026502563 4285493534
0.0087262467 0.0026309863 0.001032399 4285559069
0.012021895 -0.0022864118 0.0053928606 4285360678
0.015160069 -0.0064784437 0.0090608448 4285294634
0.017145265 -0.0063336045 0.0086194985 4285425959
0.019130491 -0.0061886609 0.0081782304 4285098028
-0.023489375 0.0031350628 0.0026527215 4285164329
-0.022004645 0.005458191 0.00014312565 4285361443
-0.020535778 0.0077803209 -0.0023629023 4285624094
-0.018928025 0.009373717 -0.004173669 4285623583
-0.017645512 0.012421481 -0.0073640486 4285492258
-0.016224153 0.014740519 -0.0098592378 4285558558
-0.014818676 0.017058536 -0.012350792 4285427489
-0.013263706 0.018648565 -0.014149461 4285558813
-0.011887297 0.02096469 -0.016634373 4285755928
-0.010014784 0.021100171 -0.01705152 4285755928
-0.0077955239 0.01978308 -0.016093673 4285755673
-0.0046855845 0.014836207 -0.011703879 4285690139
-0.0018955693 0.011344038 -0.0086948434 4285559069
0.0011024736 0.007128112 -0.0050059697 4285493279
0.0037646033 0.0043657944 -0.002694319 4285361189
0.0066347383 0.00087978691 0.00029714219 4285294889
0.0093422644 -0.0018790066 0.0025988631 4285163054
0.015210692 -0.0088411048 0.0085537229 4285163309
0.017395705 -0.0094206855 0.0087939147 4285295144
-0.023773666 0.0022701249 0.00080130808 4285164328
-0.022142019 0.0038693622 -0.0010116994 4285426468
-0.020672698 0.0061980635 -0.0035129255 4285426979
-0.019219216 0.0085257441 -0.0060105203 4285492513
-0.017624412 0.010122672 -0.0078150528 4285426468
-0.016199965 0.012448467 -0.010306017 4285426214
-0.014791366 0.01477319 -0.012793319 4285295144
-0.013398636 0.017096929 -0.015277043 4285427743
-0.012021795 0.019419625 -0.017757142 4285493279
-0.010149416 0.019555084 -0.018174266 4285558814
-0.0075844079 0.016776524 -0.015847901 4285558814
-0.0044706129 0.011814579 -0.011470416 4285559069
-0.0013194568 0.0068554953 -0.0071012145 4285559068
0.0016879588 0.0026271567 -0.0034242608 4285625114
0.0045436099 -0.00087095052 -0.00043787062 4285228843
0.0072395094 -0.0036394522 0.0018597804 4285228589
0.009767659 -0.0056788623 0.0034704488 4285163054
0.017448293 -0.011789449 0.008281678 4285229098
-0.02435017 0.0028751791 -0.002427062 4285229609
-0.022875231 0.0052106977 -0.0049247192 4285426469
-0.021112848 0.0060806349 -0.0060407156 4285426724
-0.019664254 0.0084144995 -0.0085323164 4285493025
-0.017760608 0.0085516199 -0.0089568524 4285427233
-0.016016461 0.0094205961 -0.010068524 4285295143
-0.014439832 0.011020817 -0.011865622 4285426469
-0.013038669 0.013351649 -0.014346274 4285690649
-0.011821017 0.016412601 -0.017508784 4285427489
-0.0097731687 0.015817508 -0.01724223 4285493534
-0.0073740184 0.013761431 -0.015608261 4285493533
-0.0039051659 0.0073234141 -0.0098758033 4285559324
-0.00074483827 0.0023496971 -0.0055201277 4285493024
0.0024528652 -0.0026212037 -0.0011726227 4285294634
0.0049535297 -0.0046694204 0.00043904595 4285097518
0.0074702539 -0.006716378 0.0020472817 4285097774
0.0096251555 -0.0073028952 0.0022906065 4285098029
0.012551792 -0.010806404 0.0052532814 4285097774
-0.021400746 0.0052378699 -0.0078745605 4284968234
-0.019492056 0.0053752437 -0.0083003091 4285230374
-0.017583203 0.0055127516 -0.0087259999 4285230373
-0.015674263 0.0056503788 -0.0091516376 4285164584
-0.014089387 0.007255502 -0.010947258 4285229353
-0.012679812 0.0095935315 -0.013424921 4285491748
-0.011286106 0.011930481 -0.015898915 4285492514
-0.0092279427 0.011333935 -0.015636316 4285361188
-0.0063006058 0.0070732608 -0.011961528 4285295399
-0.0029903874 0.0013495013 -0.0069296397 4285426978
-0.00017172471 -0.0021733716 -0.003951598 4285294888
0.0023121871 -0.0042295158 -0.0023411624 4285229099
0.0048121326 -0.0062843189 -0.00073423982 4285097774
0.0073281229 -0.0083379 0.00086922757 4285032494
0.0096714199 -0.0096583664 0.0017900951 4285098029
0.012408208 -0.012441151 0.0040656943 4285032239
-0.019782316 0.0045369118 -0.010130098 4285033258
-0.017563108 0.0032016262 -0.009185899 4285164074
-0.015651632 0.0033394024 -0.0096121095 4285098538
-0.014063854 0.004949145 -0.011405157 4285295399
-0.012486614 0.0065581724 -0.013195734 4285360933
-0.010919932 0.0081666186 -0.014983903 4285623839
-0.008684203 0.0068330839 -0.014042961 4285624093
-0.0059200637 0.0032950938 -0.011061156 4285426724
-0.0026035383 -0.0024456605 -0.0060437843 4285426468
-0.0001337491 -0.0045094565 -0.0044352561 4285360423
0.0025326386 -0.0073065683 -0.0021509053 4285163563
0.0046707653 -0.0078989193 -0.0019073104 4285163309
0.0071860366 -0.0099590942 -0.00030859932 4284966703
0.0095287971 -0.011283986 0.000609098 4284966704
-0.014038682 0.0026386678 -0.011866037 4285295143
-0.012622915 0.0049901605 -0.01433523 4285361189
-0.010888934 0.0058652312 -0.015439504 4285492003
-0.0086510815 0.0045275167 -0.014502363 4285492259
-0.0057130046 0.00024139136 -0.010849658 4285294888
-0.0027428865 -0.00404232 -0.007203944 4285360424
-9.6131116e-05 -0.0068496466 -0.0049218992 4285492003
0.0023916475 -0.0089186355 -0.0033221794 4285360423
0.0047124662 -0.010249786 -0.0024030218 4285228844
-0.014821455 0.0040255114 -0.015731083 4285230118
-0.012923345 0.0041625425 -0.016154157 4285427234
-0.010858282 0.0035597831 -0.015898131 4285427234
-0.0082792528 0.00073841214 -0.013607785 4285426979
-0.0055066608 -0.0028208047 -0.010644257 4285163819
-0.0023576915 -0.0078566149 -0.0063320594 4285163308
-5.8855861e-05 -0.0091939792 -0.0054114806 4285294633
0.00243086 -0.011269324 -0.0038171401 4285425958
0.0043881424 -0.011127166 -0.0042527663 4285163054
-0.010827977 0.0012502819 -0.016359707 4285164073
-0.0080778748 -0.0023216084 -0.013399463 4285229608
-0.0051290728 -0.006633155 -0.0097688101 4285163053
-0.0021482371 -0.010942295 -0.0061451579 4285163054
-0.0082154721 -0.0039019287 -0.014547836 4285164584
-0.0050961636 -0.0089706108 -0.01025201 4285031983
-0.0021139756 -0.0132927 -0.0066385353 4285031984
