# .PCD v0.7 - Point Cloud Data file format
VERSION 0.7
FIELDS x y z rgba
SIZE 4 4 4 4
TYPE F F F U
COUNT 1 1 1 1
WIDTH 775
HEIGHT 1
VIEWPOINT 0 0 0 1 0 0 0
POINTS 775
DATA ascii
-0.013851643 -0.028624006 0.0044389367 4286201924
-0.013867766 -0.031026356 0.0038811918 4286398273
-0.013981573 -0.032671981 0.002646042 4286593858
-0.012444608 -0.028753877 -0.0010765493 4286528578
-0.010831594 -0.025597595 -0.0041209608 4286528324
-0.012257874 -0.032676689 -0.00028643198 4286789698
-0.010431044 -0.031036519 -0.0019820984 4287640634
-0.008930847 -0.027109452 -0.005689878 4286724419
-0.010544464 -0.032672919 -0.0032102596 4287378749
-0.0089384764 -0.029499702 -0.0062401146 4286790463
-0.0089463666 -0.031893902 -0.0067934142 4286593603
-0.0074663237 -0.027946249 -0.010481072 4286397508
-0.0072560608 -0.031871162 -0.0096977213 4286659904
-0.0057941079 -0.027913623 -0.01337389 4286594114
-0.0041330233 -0.025494553 -0.015715167 4286658884
-0.0073689222 -0.033495821 -0.010917013 4286463044
-0.0057962611 -0.03029833 -0.013921079 4286724419
-0.0041321963 -0.02787257 -0.016257953 4286855233
-0.00096360967 -0.024619691 -0.022120889 4287116609
-0.0027076937 -0.02865272 -0.0209972 4286921279
-0.00095719472 -0.026990332 -0.022659253 4287837494
-0.0027043782 -0.031031899 -0.021541415 4287183418
-0.00083333626 -0.030141883 -0.022543009 4287903539
0.0010324307 -0.029252045 -0.0235436 4287117373
-0.0029311143 -0.031856678 -0.023401568 4286920769
-0.00094519183 -0.031743713 -0.023745054 4287771958
0.00092057511 -0.030851744 -0.024744 4288165169
0.0026581027 -0.02918119 -0.026397005 4287378748
-0.0033869706 -0.031114124 -0.02656794 4286789444
-0.0014092661 -0.031001635 -0.026910007 4287443518
0.00056852773 -0.030889012 -0.027251996 4286332738
-0.0064744204 0.010889523 0.054814301 4282022728
-0.011160262 0.011727199 0.051358648 4282478669
-0.010313585 0.020138219 0.042279959 4281437248
-0.0087966993 0.023709126 0.03829591 4280132924
-0.0061223954 0.019680038 0.042299695 4280459579
-0.0020914823 0.0073654726 0.055001117 4279677749
-0.014511764 0.018251374 0.041744433 4281502783
-0.013067067 0.022527903 0.037038364 4281046843
-0.011858702 0.028189253 0.030887829 4281110340
-0.0099596307 0.02899643 0.029816752 4281631558
-0.0075283051 0.026338603 0.032367133 4281371204
-0.0040835254 0.017446838 0.041426517 4281110593
-0.00011700392 0.0057885945 0.053366475 4280717383
-0.02244629 0.01334855 0.044820458 4282347599
-0.021103188 0.019034483 0.038659573 4280589374
-0.019164629 0.019845635 0.037582986 4280720188
-0.017325133 0.021352455 0.035782568 4281306944
-0.015496217 0.022858813 0.033984013 4281306943
-0.013777129 0.025060195 0.031463534 4280719933
-0.012481868 0.0300426 0.026052268 4279350583
-0.010596201 0.030851159 0.024985151 4279676218
-0.0083937496 0.029574092 0.026086355 4279611959
-0.0054100752 0.023432791 0.032239713 4279743029
-0.0021522827 0.015904665 0.039827816 4280654908
0.0013957769 0.0069906786 0.048847824 4280850238
-0.025442034 0.018556863 0.036677636 4282088009
-0.024189092 0.024958327 0.029806199 4280003894
-0.022365965 0.02646837 0.028011786 4280785213
-0.020098209 0.024486721 0.029837312 4278830638
-0.018001549 0.023902208 0.030213831 4281111614
-0.016092159 0.024714045 0.029144006 4281111359
-0.014187969 0.025525615 0.028075183 4280915264
-0.012696207 0.029127505 0.024120303 4280784449
-0.010813206 0.029938035 0.023055268 4280784704
-0.0086138397 0.028656419 0.024153655 4280915520
-0.0058541149 0.023889609 0.028852036 4280980543
-0.003506843 0.021913156 0.030664315 4280850494
-0.0011432543 0.019937687 0.032473892 4280916540
0.0022983551 0.011692859 0.040751383 4280981819
-0.029215373 0.013181746 0.039769024 4282148443
-0.027979843 0.020307124 0.032177702 4281435973
-0.02646666 0.024626043 0.027489247 4281372223
-0.024814546 0.027541779 0.024252215 4281566789
-0.022830978 0.027654078 0.023908732 4281176384
-0.020574555 0.025665235 0.0257312 4280916283
-0.01830177 0.023677349 0.027550934 4280851004
-0.016397715 0.024490967 0.026483705 4280980543
-0.014399908 0.024604417 0.026138021 4280915264
-0.012706876 0.026817415 0.023631996 4280915009
-0.010716781 0.026930586 0.023287768 4280915009
-0.0085124448 0.02564482 0.024381975 4281046845
-0.0059679896 0.022261739 0.027630495 4280981054
-0.0040709823 0.023075469 0.026564887 4281047099
-0.0026397221 0.026685219 0.022629047 4278567988
-5.7093799e-05 0.023304537 0.025871219 4280067134
0.0037576891 0.012938157 0.036277302 4280326978
-0.029947765 0.017157651 0.032748416 4281761354
-0.028492451 0.022193916 0.027343808 4280653379
-0.026909262 0.025822055 0.023389222 4280002363
-0.025182061 0.028042953 0.020881856 4280458558
-0.02311863 0.027452011 0.021260565 4280460089
-0.020958871 0.026158817 0.02235874 4278439978
-0.018694744 0.024163917 0.024174904 4280524603
-0.016702607 0.02427692 0.023830099 4281046334
-0.014809102 0.025092158 0.022766398 4280980543
-0.01281929 0.025205199 0.022422126 4281111359
-0.010620914 0.023914628 0.023513945 4281111359
-0.0084116161 0.022624798 0.024603894 4281176894
-0.0061913729 0.021335661 0.025692077 4280981053
-0.004746139 0.024956953 0.021762049 4280915264
-0.0030977316 0.027174283 0.019269081 4280589374
-0.0011123903 0.027287599 0.018925989 4280261698
0.0020766519 0.020391822 0.025735149 4280457539
0.0061810538 0.0085938424 0.03753835 4280196418
0.011131644 -0.0074024498 0.05361151 4280196418
-0.029752143 0.012702137 0.034406647 4281826378
-0.028524563 0.019870423 0.026849886 4280781899
-0.026938036 0.023509547 0.022902997 4281045058
-0.025293 0.026442185 0.019680431 4280523838
-0.023229823 0.025849003 0.020057479 4280524858
-0.02107048 0.024551399 0.021152368 4280785979
-0.018900171 0.023254544 0.022245383 4281111613
-0.017102778 0.024776291 0.020465503 4281046334
-0.015217304 0.025593206 0.019404827 4281111614
-0.013134331 0.025001567 0.019778771 4281111359
-0.010941774 0.023706324 0.020868195 4281046079
-0.0089517385 0.023819521 0.020524001 4281177149
-0.0069615394 0.023932815 0.02017984 4280851004
-0.0053075701 0.026156861 0.017690813 4280003384
-0.0035547838 0.027676743 0.015919091 4281175873
-0.0015776381 0.027789552 0.015577385 4281435974
0.0011208691 0.023683891 0.019517234 4281240388
0.0043434203 0.016768314 0.026304057 4280915264
0.0083734989 0.0056392327 0.037357494 4280784703
0.013259627 -0.0097006932 0.052669249 4281045313
-0.029172763 0.004690811 0.039648972 4282021454
-0.028078899 0.013297342 0.030666513 4281826888
-0.026802324 0.019778095 0.023850648 4281631304
-0.02523376 0.023427114 0.019915221 4281175874
-0.023340948 0.024246268 0.018854586 4281112633
-0.021091595 0.022237293 0.020663248 4280981053
-0.019012123 0.021642998 0.021035919 4280916028
-0.017501973 0.025289055 0.017110871 4279287598
-0.01592005 0.028227184 0.013906179 4279874354
-0.013752304 0.026926022 0.014996523 4279613999
-0.011365831 0.024213187 0.017514506 4280981564
-0.0094905868 0.025031973 0.016457396 4281111868
-0.0076205507 0.025850493 0.015401294 4281045823
-0.0058677271 0.027374547 0.013632828 4279743284
-0.0038961992 0.027486939 0.013292024 4279156273
-0.001924552 0.027599409 0.012951249 4280002874
0.00064747408 0.02418559 0.016170273 4280002109
0.0033693165 0.02006828 0.020096151 4280719168
0.0066253468 0.013133012 0.026860574 4281110339
0.010960422 0.00056236237 0.039300174 4281109829
-0.02874966 -0.0019397065 0.043426521 4282149719
-0.027555764 0.0059842989 0.035177663 4281825613
-0.026256412 0.012485832 0.02837277 4281434189
-0.025005266 0.018984735 0.021576317 4281503548
-0.02336441 0.021934457 0.01836781 4281178935
-0.021293476 0.021337368 0.01874019 4280981563
-0.019402921 0.02215866 0.017681761 4280916028
-0.017900199 0.025815155 0.013766238 4280069173
-0.016227506 0.028052781 0.011283556 4280850494
-0.011685193 0.024025045 0.014883863 4280068408
-0.0098152831 0.024845619 0.013829356 4280850493
-0.0080597326 0.026374098 0.012063613 4280915518
-0.0062029734 0.027194101 0.01101152 4280980799
-0.0041224509 0.02659839 0.01138288 4280980543
-0.0019192025 0.025295418 0.012464149 4281111103
0.00053475425 0.022578269 0.014964217 4281241919
0.0031329542 0.019155137 0.018170444 4281436738
0.0061340705 0.013612181 0.023500239 4281044548
0.010202214 0.0024157912 0.034493916 4280979268
0.015402064 -0.014430322 0.051140383 4280914244
-0.028558612 -0.0064641833 0.045032941 4282214999
-0.027114317 -0.00065146387 0.03894721 4282086989
-0.025794894 0.005870685 0.03215377 4281695054
-0.024608426 0.013101831 0.024654025 4281499468
-0.023300678 0.018907107 0.018592151 4281045313
-0.021585152 0.021153428 0.016106764 4280915774
-0.019885562 0.023398869 0.013624245 4279938103
-0.018392943 0.027065571 0.0097187962 4280849729
-0.016534291 0.027887408 0.0086676143 4281435718
-0.01437813 0.026576843 0.0097532738 4280979524
-0.012003876 0.023845881 0.012260022 4280066878
-0.010033041 0.023957886 0.011919064 4280458304
-0.0082799941 0.025490526 0.010157058 4280981308
-0.0062025711 0.024892334 0.010527188 4280916029
-0.0040052682 0.02358456 0.011606066 4281046334
-0.0017970651 0.022277556 0.012683103 4281305669
0.00066154078 0.01955194 0.015175687 4281305923
0.0031418204 0.01682768 0.017664617 4280848709
0.0058940165 0.012686089 0.021565339 4281042509
0.0099568926 0.0014545992 0.032533363 4281368144
0.015150234 -0.015444025 0.049141034 4281302608
-0.028445214 -0.010291502 0.045911975 4282084949
-0.026912548 -0.0051750988 0.040551968 4281890639
-0.025335416 -0.00077463686 0.035912015 4281890639
-0.024128705 0.0064793155 0.028425356 4281890639
-0.022975609 0.013730347 0.020948065 4281369164
-0.021786146 0.020264938 0.014192274 4281110339
-0.020274244 0.023943461 0.010291705 4280784959
-0.01869373 0.026907369 0.0071070492 4278762808
-0.016840398 0.02773099 0.0060584657 4279871039
-0.01458931 0.02570283 0.0078520626 4279414078
-0.012321912 0.02367574 0.0096428674 4280131649
-0.010250449 0.023074806 0.010012193 4280783684
-0.0083910897 0.02389916 0.0089628603 4281045569
-0.0062024221 0.022586428 0.010039812 4281111359
-0.0038886517 0.020562343 0.011822885 4280524858
-0.0014416836 0.017827265 0.014310749 4280066623
0.00090736896 0.015805341 0.01608791 4280325959
0.0032727122 0.013784446 0.017862333 4281173833
0.0059042722 0.010341555 0.021046212 4281368143
0.0099672675 -0.00092464685 0.031987563 4281367889
0.015029121 -0.017164283 0.047850348 4281367889
-0.026790969 -0.0089995712 0.041431405 4281955153
-0.025123224 -0.0053018034 0.037511811 4281890384
-0.023651049 -0.00017347932 0.032174021 4281890639
-0.022477716 0.0071003437 0.024709811 4281826634
-0.021627486 0.016518317 0.015123351 4281370694
-0.020476945 0.023070291 0.0083893053 4280913733
-0.019089028 0.027473476 0.0037924871 4280782918
-0.017145842 0.027583566 0.003456058 4280653379
-0.014900722 0.025548551 0.0052456204 4280782918
-0.012535982 0.022799619 0.0077406727 4280979524
-0.010361515 0.021481566 0.0088165551 4280915774
-0.0083934516 0.021593444 0.0084761083 4280522054
-0.0062025189 0.020276479 0.0095493328 4279670608
-0.0038866214 0.018245928 0.011327075 4279605073
-0.0015544482 0.016216449 0.013102027 4279866449
0.00091345608 0.013473965 0.015579676 4280322388
0.0031587705 0.012160487 0.016643805 4280714578
0.0059142634 0.0079929829 0.020523975 4281106769
0.0097223446 -0.0018808991 0.030030699 4281172048
0.014647633 -0.017457485 0.045152806 4281302609
-0.024912171 -0.0098460987 0.03909874 4281824339
-0.023428291 -0.0047019869 0.033770517 4281826124
-0.022068843 0.0011581928 0.027739478 4281631049
-0.021200627 0.010605358 0.018171472 4281695564
-0.020217434 0.018613219 0.01003251 4281632324
-0.018913038 0.023747623 0.0047356337 4280783684
-0.017157376 0.025292929 0.0029828325 4280718149
-0.014910132 0.023251511 0.0047670342 4280718404
-0.01254344 0.020493954 0.0072550643 4280129863
-0.01026088 0.018454671 0.0090333335 4279344464
-0.0082875639 0.018566824 0.0086919554 4279409233
-0.006202884 0.017962448 0.0090557858 4279474258
-0.0039987676 0.01664196 0.01012346 4279408468
-0.0016671754 0.014605917 0.011893509 4279668823
0.00079999864 0.011854671 0.014364624 4280388434
0.0031668581 0.0098207965 0.016128777 4280191828
0.0059240013 0.0056403503 0.019998683 4280910929
0.0098598599 -0.0049796402 0.030184416 4281172048
0.014526915 -0.019172773 0.043865837 4281302608
-0.024783686 -0.013687067 0.039964125 4281954388
-0.023374952 -0.0078069046 0.033937722 4281630283
-0.021835387 -0.0033694655 0.02933429 4281566023
-0.020685993 0.003946431 0.021907462 4281695309
-0.019774631 0.012699217 0.013076385 4281825103
-0.018642962 0.019289203 0.0063755251 4281173578
-0.016876377 0.02083943 0.0046241246 4280326214
-0.01481951 0.020230882 0.0049907751 4279542853
-0.01234518 0.016745619 0.0081762597 4279279184
-0.010266468 0.016138509 0.0085392818 4279538263
-0.0081822202 0.015531816 0.008901421 4279537753
-0.0062034875 0.015644342 0.0085591599 4279799638
-0.0041108541 0.015038274 0.0089200493 4279800913
-0.0017798506 0.01299566 0.010685196 4279931474
0.00056745112 0.01095403 0.012447653 4279538264
0.0031746887 0.0074770376 0.015610693 4279340893
0.0058089644 0.0040016919 0.018769136 4279470943
0.009360753 -0.0044973493 0.026828172 4279993439
0.013496898 -0.015863508 0.037677146 4280645219
-0.023154177 -0.012365319 0.03551174 4282148444
-0.021689758 -0.0071918443 0.030210121 4281630283
-0.020262785 -0.002020441 0.024915105 4281694543
-0.019241534 0.0060372353 0.016806027 4281956683
-0.01818455 0.013369821 0.0094118994 4281434444
-0.016693957 0.017090596 0.0055482835 4279998283
-0.01472944 0.017201893 0.005208157 4279800913
-0.012353435 0.014427453 0.0076812487 4279537498
-0.010272294 0.013818286 0.0080421716 4279341658
-0.0082938448 0.013930671 0.0076998621 4279668568
-0.0062043369 0.013322137 0.0080595352 4279604563
-0.0041092969 0.012714051 0.0084182825 4279408978
-0.0017761849 0.010665022 0.010178065 4279996498
0.000454247 0.0093375072 0.011234654 4279079518
-0.021631479 -0.010302514 0.030371932 4282020688
-0.020198204 -0.0051155537 0.025087385 4281237073
-0.019261956 0.003690578 0.01629184 4282021709
-0.018106282 0.010320909 0.0096166711 4281629773
-0.016609699 0.014052846 0.0057602897 4280258638
-0.014639899 0.014164411 0.005419232 4279866449
-0.012464605 0.012828834 0.006481519 4279538774
-0.010383748 0.012217455 0.0068408046 4279276124
-0.0084054321 0.012329794 0.0064984914 4279275613
-0.006316185 0.011719041 0.006856529 4279277144
-0.004108008 0.010385744 0.0079134386 4279669334
-0.0018889122 0.0090531632 0.0089685395 4279733338
-0.020134181 -0.0082191378 0.025253376 4281498194
-0.019190855 0.00061342865 0.016476465 4281629009
-0.017934114 0.0065373778 0.010516485 4281302354
-0.01662311 0.011732824 0.0052649844 4280126803
-0.014650762 0.011844508 0.0049234573 4279864918
-0.012678258 0.011956297 0.0045819785 4279538264
-0.010389939 0.0098911896 0.0063392315 4279341148
-0.0084090382 0.010003679 0.0059964713 4279536223
-0.019303523 -0.0010149255 0.015254291 4281497684
-0.018140003 0.0056548342 0.0086076055 4281171028
-0.016636774 0.0094087496 0.0047666226 4280258129
-0.014761545 0.010248698 0.0037257876 4279539283
-0.012789167 0.010360442 0.0033843052 4278950233
-0.018251389 0.0040462986 0.0074003283 4281431893
-0.016747527 0.007811062 0.0035675187 4280191574
-0.018456697 0.0031708628 0.0054967646 4281038174
0.016272735 -0.021761224 0.040228374 4280768893
0.0044610873 0.0072269589 0.010029299 4279197583
0.0070963614 0.0037300214 0.013171004 4279129244
0.010277063 -0.0026536509 0.019096149 4278604453
0.018403985 -0.024073929 0.039274417 4279454113
-0.0020015873 0.0074416026 0.0077592283 4278608278
-9.3914568e-06 0.007555142 0.0074148197 4278408613
0.0021043122 0.0069440156 0.0077672694 4278735524
0.020127557 -0.024218775 0.036234602 4279783828
-0.021775246 -0.014362298 0.028572997 4281554804
-0.006539762 0.008513771 0.0044511855 4278869909
-0.0043324418 0.0071716979 0.0055015627 4279064983
-0.0022300445 0.0065575615 0.0058540832 4278671008
-0.00024067983 0.0066709146 0.0055101495 4278604709
0.0034906156 0.0083514974 0.0034331661 4278996389
0.0057281293 0.0070116743 0.0044787321 4278997154
0.0082351118 0.0042196438 0.0069100019 4278865829
0.011159681 -0.00074995309 0.01141745 4278472109
0.014391378 -0.0071695969 0.017304031 4278996644
0.017809004 -0.014312305 0.023874665 4279259549
0.022260997 -0.026532665 0.035279177 4280571014
-0.021976374 -0.015298396 0.026622085 4281094783
-0.020540334 -0.010065854 0.021371832 4280046223
-0.010822706 0.0081466958 0.0025416967 4278410144
-0.0088474527 0.0082587972 0.002199864 4279128988
-0.006761767 0.0076413229 0.0025534425 4278996643
-0.0045575611 0.0062946677 0.0036010649 4279062688
-0.0023424812 0.0049487725 0.0046468377 4278735269
-0.00047160313 0.0057913437 0.0036089644 4278473129
0.005235821 0.0075891167 0.001193855 4278471599
0.015907042 -0.0065203384 0.013639318 4278800549
0.019761644 -0.015867695 0.0222612 4278407593
0.024114113 -0.027394503 0.032940358 4280243339
0.027535761 -0.033822268 0.038779594 4282602599
-0.022177137 -0.016229846 0.02467466 4281029248
-0.020742863 -0.010982245 0.019436302 4279587224
-0.019437365 -0.005003728 0.013507543 4280244614
-0.015181705 0.0085229352 -6.0128048e-05 4279197073
-0.013214968 0.0086343139 -0.0004006736 4279326868
-0.011248074 0.0087458119 -0.00074116327 4278604199
-0.0072036982 0.0082372278 -0.00072821416 4278535858
-0.0028014444 0.0055349991 0.0013614688 4278996388
-0.00082040951 0.0056478456 0.0010189489 4278603944
0.00079799443 0.0079546347 -0.0013991166 4278537898
0.0096130483 0.0032911897 0.0020673089 4278275758
0.012008563 0.0012138113 0.00379196 4278603688
0.01428324 -0.0001321733 0.0048248414 4278473128
0.017407291 -0.005858548 0.0099875275 4278735268
0.021429181 -0.015962593 0.019271759 4278669734
0.025816817 -0.02752199 0.029918445 4280112269
0.029255824 -0.033968166 0.035739832 4282602599
-0.022120208 -0.019362904 0.024819544 4280963713
-0.020591155 -0.014835142 0.020287534 4279652759
-0.019276507 -0.0088387877 0.01437044 4279522198
-0.01819241 -0.0013748184 0.007071102 4278932894
-0.016968869 0.0046165809 0.0011699554 4279064474
-0.015192807 0.0061976239 -0.00055992045 4278670499
-0.013325423 0.007043682 -0.0015944503 4278341803
-0.011358663 0.0071551427 -0.0019349325 4278734759
-0.0096063539 0.0087351277 -0.0036604609 4278931618
-0.0075346902 0.0081124753 -0.0033078138 4278735269
-0.0032594427 0.0061346218 -0.0019139349 4278472363
-0.0012866408 0.0062469766 -0.0022550542 4278603944
0.00068629533 0.0063594356 -0.0025961082 4278669734
0.0026593357 0.0064720362 -0.0029370859 4278669733
0.0046324767 0.0065847412 -0.0032780077 4278931619
0.0069922246 0.0044985786 -0.0015523341 4278866084
0.0093681924 0.0024134964 0.00017057359 4278735013
0.01149198 0.0017948076 0.00051497854 4278669224
0.013210487 0.0033740923 -0.0012037698 4278930343
0.027952179 -0.029836684 0.028961988 4280307599
0.031115863 -0.034837268 0.033393875 4282668134
-0.022235066 -0.021029167 0.023568826 4280898433
-0.020528615 -0.017963283 0.020434974 4279587734
-0.019207515 -0.011949264 0.014530012 4279587733
-0.018022977 -0.005200468 0.0079393554 4279063964
-0.016886666 0.0015457645 0.0013570953 4279456153
-0.015303209 0.0046051443 -0.0017551128 4278604709
-0.0099310204 0.0086218566 -0.0062325653 4278604199
-0.0077551827 0.0072604492 -0.0051901657 4278931874
-0.0034860596 0.0052757189 -0.0038002413 4278276013
-0.0016339943 0.0061236992 -0.0048299823 4278604199
0.00033342838 0.0062358379 -0.0051700901 4278604453
0.0025475398 0.0048771277 -0.004133841 4278407848
0.0046465248 0.0042544976 -0.0037870817 4278604454
0.0067510009 0.0036322996 -0.0034411903 4278669733
0.0087295659 0.0037455261 -0.0037828814 4278276013
0.010842294 0.0031239763 -0.0034381915 4278472363
0.014386848 0.0055549964 -0.0061781816 4278797999
0.029491512 -0.029219285 0.025267763 4280373899
0.032664783 -0.034234397 0.029686524 4282602599
-0.022178903 -0.02417466 0.023704359 4280898433
-0.020554796 -0.020360194 0.019883553 4280112014
-0.019048214 -0.015807651 0.015375393 4279784593
-0.017760828 -0.0097781271 0.0094896015 4279980433
-0.016612545 -0.0030117482 0.0029201731 4279128734
-0.015116803 0.00079590827 -0.00087805092 4278670754
-0.013851017 0.0060798898 -0.0060519855 4278472873
-0.0037123263 0.0044214949 -0.005683111 4278865828
-0.0018629283 0.0052714348 -0.0067106914 4278865829
0.00010165572 0.0053833947 -0.0070503224 4278800549
0.0021894872 0.0047578365 -0.0067033973 4278538409
0.0042828061 0.0041326657 -0.0063572917 4278735013
0.0062530674 0.0042452738 -0.0066976529 4278931363
0.0080922022 0.0050952509 -0.0077230614 4278668968
0.011891149 0.0060576424 -0.0090866517 4279061669
0.013717055 0.0069071576 -0.010109477 4278931618
0.016105581 0.0048101917 -0.0083983094 4278668713
0.019523062 -0.002440609 -0.0019103903 4278800039
0.02343655 -0.011896975 0.0066152848 4278669479
0.026969891 -0.019140854 0.013083415 4278735779
0.03086262 -0.027853414 0.020905094 4279457428
0.034198206 -0.033618949 0.025992079 4281947249
-0.020669222 -0.022019356 0.018638181 4280439688
-0.019071169 -0.018195458 0.014830256 4279981199
-0.017686635 -0.012889959 0.0096470769 4279194268
-0.016243495 -0.0083278045 0.0051599983 4279390618
-0.015128776 -0.0015437379 -0.0013886113 4279194013
-0.013859406 0.0037556216 -0.006551642 4278801568
-0.012315065 0.0068302825 -0.0096436795 4278735013
-0.010364704 0.0069408491 -0.0099812951 4278538919
-0.0079760551 0.004089199 -0.0075700525 4278407848
-0.0056779683 0.0019792914 -0.0058492068 4278472874
-0.0037083924 0.0020912811 -0.0061898977 4278865829
-0.0020915121 0.004423812 -0.0085879285 4278800038
-0.00037036091 0.0060155392 -0.010297725 4278668968
0.0039197281 0.0040198714 -0.0089207869 4278604199
0.0058844686 0.0041321591 -0.0092601962 4278473128
0.0075871646 0.0057232752 -0.010966467 4278734759
0.021700747 -0.0054164901 -0.0021043383 4278865574
0.024603151 -0.0097307786 0.0016317368 4278670753
0.028148286 -0.016995527 0.0080813281 4278933148
0.032523766 -0.027946897 0.017918197 4279457429
0.036032122 -0.034466602 0.023668276 4282471274
-0.019094363 -0.020587333 0.014282124 4280308363
-0.017519742 -0.016753785 0.010486571 4278866593
-0.015971839 -0.012921669 0.0066957772 4279849108
-0.014647894 -0.0076042488 0.0015348587 4279652504
-0.013462774 -0.0015455708 -0.0043064747 4278866594
-0.012008511 0.0022815838 -0.0080807954 4278997664
-0.010367624 0.0046214908 -0.010478368 4278800549
-0.0081957951 0.0032467693 -0.0094452258 4279062688
-0.0060130879 0.0018728003 -0.0084139314 4278603944
-0.004049018 0.001984477 -0.0087536741 4278603433
0.0053882971 0.0047696829 -0.012498247 4278735014
0.0072139874 0.0056231841 -0.013518052 4278735013
0.0090343803 0.0064764544 -0.014536809 4278734759
0.010849465 0.0073295534 -0.015554549 4278668968
0.012798212 0.0074413791 -0.015890853 4278275759
0.017850861 0.001739271 -0.011127071 4278538664
0.020409565 -0.0011097342 -0.0087506119 4278538919
0.022690319 -0.0024764538 -0.0077350046 4278669989
0.025744125 -0.0075439736 -0.0033304896 4278866339
0.030231889 -0.019270428 0.0071665458 4279128223
0.03496366 -0.031731814 0.018326057 4279914643
0.038342249 -0.03752923 0.023379246 4282471018
-0.018937007 -0.024475202 0.015105272 4282339693
-0.017446786 -0.019884579 0.010629801 4279128733
-0.015797094 -0.016787015 0.0075324904 4279849620
-0.01436571 -0.012199469 0.0030673891 4279456663
-0.012966424 -0.0076135844 -0.0013920963 4279587224
-0.011703126 -0.0022842288 -0.0065307617 4278735779
-0.010157712 0.0008078739 -0.0096096788 4279063198
-0.0083059669 0.0016640574 -0.01063299 4278407848
-0.0063475445 0.0017752796 -0.010971857 4278407083
-0.0045036227 0.0026312396 -0.01199365 4278341295
-0.0028995685 0.0049759895 -0.014379544 4278472108
-0.0011915453 0.0065755993 -0.01608046 4278931364
0.0050211437 0.0046767369 -0.015045675 4278734504
0.0069722198 0.0047883317 -0.015382661 4278603944
0.0087899305 0.0056436136 -0.016399292 4278800549
0.01073847 0.0057553202 -0.016735649 4278931619
0.01282591 0.0051238909 -0.016393131 4278866084
0.015201852 0.0030066893 -0.014694726 4278931619
0.017449759 0.00163351 -0.013676951 4278735014
0.019267768 0.0024893805 -0.014693199 4278472618
0.036777012 -0.032560334 0.01602128 4279716763
0.039846942 -0.036890306 0.019709071 4282602088
0.044399254 -0.038128786 0.020331053 4282732904
-0.017281443 -0.02377174 0.011451846 4280439433
-0.015814498 -0.019169308 0.0069903731 4280045968
-0.014084667 -0.016811773 0.0045871083 4279718805
-0.01257287 -0.012959883 0.00081927329 4279587479
-0.011191502 -0.0083619431 -0.0036271121 4279522198
-0.0098422691 -0.0037657395 -0.0080677932 4278932384
-0.0085251704 0.00082875788 -0.012502821 4278605219
-0.0067931414 0.0024337396 -0.014204906 4278866083
-0.0035952851 0.0071354806 -0.018965026 4278668203
-0.0017807111 0.0079921409 -0.019979931 4278931364
0.00027365237 0.0073559508 -0.019633895 4278865573
0.002583947 0.0052277818 -0.017929675 4278275504
0.0045267195 0.0053387806 -0.018265322 4278537898
0.0066001937 0.0047040358 -0.017922325 4278603944
0.0085458234 0.0048154369 -0.018258281 4278669733
0.010627516 0.0041813999 -0.017916517 4278538919
0.012437291 0.0050385967 -0.01892997 4278473129
0.01452449 0.0044051036 -0.018588981 4278669479
0.016617127 0.0037720576 -0.018248828 4278407083
0.01856843 0.0038843676 -0.018585315 4278341293
0.022471163 0.0041093752 -0.019258028 4278470068
0.038259208 -0.031896397 0.012375118 4279652503
0.041336115 -0.036238767 0.016051831 4281815668
-0.015641175 -0.023055755 0.0078112353 4282535278
-0.01409933 -0.019191481 0.0040463787 4280242574
-0.012281634 -0.017577775 0.002332421 4280111503
-0.01088874 -0.01296626 -0.0021059904 4279915408
-0.0095279962 -0.0083564445 -0.0065387366 4279848853
-0.0084172413 -0.0022497401 -0.012327204 4278735269
-0.0070145354 0.0016072541 -0.016067514 4278932894
-0.0057528988 0.0062117949 -0.020482851 4278407849
0.0040332451 0.0060141981 -0.02147503 4278603944
0.0060983449 0.0053768083 -0.021132236 4278735013
0.0081688948 0.0047398433 -0.020790303 4278800803
0.010380756 0.0033555031 -0.019773183 4278866339
0.0124649 0.0027195439 -0.019433418 4278538664
0.014272053 0.0035788938 -0.020444656 4278865828
0.016217787 0.0036907569 -0.020780278 4278341293
0.017870355 0.0052970499 -0.022464158 4278668458
0.019512206 0.0069027841 -0.024146067 4278996643
0.02159927 0.0062675998 -0.023806335 4278603689
0.027835388 -0.004706122 -0.014389424 4278341039
0.031414181 -0.012055241 -0.0080116196 4278669479
0.035697795 -0.022385858 0.0010424964 4278800549
0.040056773 -0.03271199 0.010083733 4280308364
0.043314166 -0.037812389 0.014418913 4282405994
-0.014016218 -0.022327259 0.0041835122 4281421183
-0.012394398 -0.019205146 0.0011110343 4280439179
-0.010690555 -0.016835906 -0.0012776554 4280046734
-0.0093209743 -0.012212589 -0.005702056 4279980179
-0.008201085 -0.0060880855 -0.011478799 4278407594
-0.0071241036 3.4116209e-05 -0.017248088 4278800803
-0.0058617145 0.0046516582 -0.021653624 4278735523
-0.0042809434 0.0070145354 -0.024020607 4278866084
-0.0024771206 0.0078748986 -0.025030348 4279193504
-0.00031187758 0.0064830184 -0.024008982 4278800293
0.0019891411 0.0043413118 -0.022313124 4278800293
0.0039235577 0.0044518113 -0.022647342 4278538919
0.005727753 0.0053126588 -0.023656789 4278407593
0.0076596364 0.0054232553 -0.023990389 4278472874
0.0099986419 0.0032842457 -0.022300767 4278276523
0.011800356 0.004145287 -0.023309523 4278604454
0.013596755 0.0050061643 -0.024317263 4278538919
0.015387814 0.0058668628 -0.025323976 4278603689
0.019103054 0.0068385974 -0.026662376 4278405808
0.021184444 0.0062008724 -0.026323292 4278537898
0.023580268 0.0040659457 -0.024642834 4278341293
0.029379841 -0.0046919584 -0.017268641 4278931874
0.033303648 -0.013558157 -0.0095712347 4278670498
0.038283747 -0.026909724 0.0021308064 4278801824
0.042352878 -0.035767235 0.0098034013 4278932893
-0.012306005 -0.02234038 0.0012475178 4283189354
-0.010802977 -0.018456459 -0.002493903 4280439433
-0.0092207491 -0.015327699 -0.005552724 4279653014
-0.007877171 -0.010692798 -0.0099625578 4279063454
-0.0065657273 -0.0060595647 -0.014366785 4279652759
-0.0055144504 7.853657e-05 -0.020118261 4278998174
-0.0040393025 0.0032016709 -0.023158204 4279062943
-0.0024661832 0.0055707023 -0.025518814 4278866084
-0.00042078272 0.0049274787 -0.025176223 4278669733
0.0017548725 0.0035319403 -0.024159845 4278472874
0.0035589822 0.0043948665 -0.025167763 4278603689
0.011828173 0.0018290356 -0.02381088 4278929069
0.01334545 0.0041957721 -0.026161078 4278800294
0.014990211 0.0058101267 -0.02783709 4278669734
0.026037253 -0.00039190799 -0.023475992 4278669733
0.028467489 -0.0025311187 -0.02180619 4278735523
0.032375816 -0.011424154 -0.014126061 4278474149
0.037174389 -0.024065278 -0.0031186081 4278736543
0.041560981 -0.03445027 0.0058715921 4278736034
0.044829331 -0.039580248 0.010181846 4282405739
-0.011018462 -0.0193206 -0.0043866187 4281487228
-0.0094384626 -0.016183354 -0.0074384585 4279456409
-0.0077713728 -0.013802968 -0.0098107299 4279653269
-0.0063426271 -0.0099121109 -0.013530749 4279784084
-0.0050545037 -0.0052671507 -0.017920876 4279391129
-0.0039150938 0.00013146549 -0.022979768 4278277034
-0.0024555139 0.0032624677 -0.02601032 4278997918
-0.0006515719 0.0041272715 -0.027016686 4278735268
0.0030677505 0.005101569 -0.02835392 4278275758
0.0047285035 0.0067205727 -0.030029835 4278406574
0.0065112635 0.0075846091 -0.031032205 4279192739
0.012531437 0.0064058527 -0.030682225 4278669224
0.014306363 0.0072700009 -0.031682886 4278473128
0.016075946 0.0081338808 -0.032682527 4278604709
0.018435523 0.0059835985 -0.031005898 4278604709
0.020659741 0.0045877472 -0.030000348 4278539428
0.023203172 0.0016862527 -0.027660774 4278605219
0.025925055 -0.0019668862 -0.0246574 4278735779
0.02851426 -0.0048655048 -0.022325536 4278670244
0.032098703 -0.012279026 -0.01599833 4278277288
0.036396861 -0.02269955 -0.0070161894 4278998429
0.04093802 -0.033867978 0.0026186313 4279915153
-0.0093389302 -0.019308694 -0.0072968788 4279521434
-0.0075578168 -0.01767952 -0.0089909993 4280045970
-0.0060093701 -0.014535174 -0.012030572 4279784338
-0.0045960322 -0.010634266 -0.015739568 4279588244
-0.0034422614 -0.0052197054 -0.020789364 4279129753
-0.0022069439 -0.00056455284 -0.025160251 4278932639
-0.00076026097 0.0025744885 -0.02818186 4278735268
0.00091393664 0.0041983053 -0.029856931 4278865829
0.0042303056 0.0074444711 -0.033201322 4278472874
0.0061375313 0.007553637 -0.033530679 4279259294
0.0084504932 0.0053936318 -0.031851485 4278931364
0.012422021 0.0048573166 -0.031843994 4278538409
0.014196943 0.0057236031 -0.032843016 4278801059
0.016112521 0.0058338344 -0.033173367 4278670243
0.018622845 0.0029215366 -0.030834891 4278866849
0.020851996 0.0015216097 -0.029833455 4279063709
0.023554094 -0.0021436438 -0.026835063 4278670499
0.026126377 -0.0050520003 -0.024506995 4278801313
0.028720183 -0.0079589337 -0.022182563 4279063708
0.032470435 -0.016148813 -0.015207682 4279391129
0.036444694 -0.025089793 -0.0075785192 4279653014
0.040651031 -0.034781508 0.00070358999 4280504969
0.043395504 -0.037679255 0.0030025113 4282208623
-0.02855403 -0.030426912 0.0024082977 4282601579
-0.0092399344 -0.022442453 -0.0071615614 4283122799
-0.007561475 -0.020048477 -0.0095258839 4281355904
-0.0060099065 -0.016895331 -0.012559403 4280177038
-0.0044797063 -0.013743252 -0.015589107 4279980689
-0.0030871555 -0.0098325983 -0.019286141 4279587734
-0.0017213859 -0.0059233531 -0.022978449 4279784593
-0.00062566623 -0.00049672276 -0.028006434 4279062943
0.00055681914 0.0041686073 -0.032358095 4278867359
0.011891268 0.0055839866 -0.035006385 4278801059
0.013944417 0.0049356595 -0.034669384 4278866593
0.016294651 0.0027717352 -0.033001184 4278735778
0.018958107 -0.00090680271 -0.030004604 4278604708
0.021497291 -0.00382597 -0.027677631 4278473638
0.0239041 -0.0059862211 -0.026018946 4278998173
0.0261705 -0.0073880777 -0.02502705 4279194779
0.028606942 -0.009546347 -0.023373265 4279325848
0.03203138 -0.016245976 -0.01774276 4279456919
0.03599824 -0.025213376 -0.010132146 4279915409
0.039862305 -0.033420131 -0.0031949077 4281160319
-0.0074573904 -0.023183793 -0.0093929321 4283123309
-0.006121397 -0.01849734 -0.013761662 4280504203
-0.0044773594 -0.016098611 -0.016114891 4280111248
-0.0028493181 -0.013700716 -0.018465213 4279849874
-0.0013560951 -0.010541849 -0.021481723 4279653523
-0.00012722239 -0.0058610365 -0.025831567 4278669988
0.00044865906 0.0026251301 -0.033516273 4278997408
0.0018534139 0.0057792813 -0.036517233 4278931873
0.0034958199 0.0074101537 -0.038180012 4278407849
0.005788669 0.0052358732 -0.036507398 4278473129
0.0078279004 0.0045841634 -0.036169887 4278473128
0.010147773 0.0024116784 -0.034501746 4278932384
0.012203265 0.0017611459 -0.034166861 4278866593
0.014407162 0.00035075843 -0.033168033 4278670243
0.01691322 -0.0025792122 -0.030842165 4278736033
0.019440837 -0.0055078343 -0.028519927 4278473894
0.021838937 -0.0076752082 -0.026864812 4278801824
0.024253212 -0.0098415539 -0.025212329 4279129499
0.026370771 -0.010487713 -0.024887618 4279587989
0.02897111 -0.013411626 -0.022577517 4279588243
0.032078438 -0.018611886 -0.018286221 4279522963
0.035716943 -0.026087008 -0.012017888 4279653779
0.039409246 -0.033558898 -0.0057587232 4282471274
-0.006122306 -0.020863391 -0.014294919 4282992493
-0.0044752546 -0.018458076 -0.016643669 4281158788
-0.0027282983 -0.01681748 -0.018321726 4280111249
-0.00099197775 -0.015177451 -0.019997828 4279259294
0.00024839863 -0.010482952 -0.024339769 4278866339
0.00083656982 -0.0019723848 -0.032008372 4279063199
0.0016190559 0.0050081238 -0.038334675 4279194268
0.0032589287 0.0066431835 -0.039993711 4278866848
0.0054164082 0.0052253157 -0.038990557 4278998174
0.0078542456 0.0022822767 -0.036659926 4278998174
0.010176208 0.00010337681 -0.034997068 4278997918
0.012514357 -0.0020744205 -0.033336945 4278801313
0.014725864 -0.0034887269 -0.032342698 4278998429
0.017384749 -0.0071892664 -0.029361971 4279194779
0.019774135 -0.0093637332 -0.027710397 4278670754
0.021877892 -0.010013178 -0.027385134 4279063708
0.023987055 -0.010662131 -0.027060721 4279325849
0.026257887 -0.012072332 -0.026076254 4279522708
0.028857451 -0.015004948 -0.023772649 4279588499
0.031801861 -0.019458957 -0.020152714 4279915919
0.035600327 -0.027717255 -0.01324064 4279850638
0.039123874 -0.034449778 -0.0076567726 4282668134
-0.0044734366 -0.020821504 -0.017175514 4282991984
-0.0027236417 -0.019176446 -0.01885077 4279848598
-0.00098448247 -0.017531954 -0.020524062 4279259038
0.00050167739 -0.014356099 -0.023526046 4279456664
0.0013471469 -0.0073526725 -0.029848427 4279259803
0.0022708401 -0.0011174455 -0.035498016 4278670244
0.0036685243 0.0020537004 -0.038484424 4279063453
0.005836308 0.00063207746 -0.037486315 4278932639
0.0082841478 -0.0023190379 -0.035164036 4278539429
0.010616247 -0.0045038089 -0.033507939 4278473895
0.013104539 -0.0074523464 -0.031192444 4278932638
0.015471715 -0.0096349046 -0.02954217 4278867104
0.017855078 -0.011816368 -0.027894575 4278932893
0.019810423 -0.01170373 -0.028231692 4279063709
0.021765806 -0.011590973 -0.028568719 4278604964
0.024028093 -0.013006113 -0.02758617 4279325849
0.026613411 -0.015948318 -0.025286835 4279522454
0.029537901 -0.02041658 -0.021673493 4279653779
0.032494687 -0.02488289 -0.018065568 4279916174
0.035647929 -0.030110583 -0.013805286 4280243593
-0.0026036017 -0.022307858 -0.018718202 4282795633
-0.00085893273 -0.020658664 -0.020389177 4281224578
0.00075408816 -0.018241949 -0.022721846 4279326103
0.0019799359 -0.013522252 -0.027041346 4279391384
0.0029208325 -0.0072688237 -0.032680634 4279260314
0.0042060278 -0.003320463 -0.036325563 4279129243
0.005991485 -0.0024432838 -0.037318528 4278867358
0.0083094761 -0.0046355054 -0.035665017 4279063963
0.010643661 -0.0068266839 -0.034014203 4279063963
0.013133876 -0.0097837821 -0.03170567 4279129499
0.01536059 -0.011205822 -0.030720703 4279195034
0.017598107 -0.01262711 -0.029737499 4279129499
0.019846424 -0.014047697 -0.028756026 4278998429
0.022256121 -0.016233854 -0.027117796 4278670243
0.02483527 -0.019185178 -0.024824094 4279128733
0.027435955 -0.022135131 -0.02253402 4279456409
0.030216828 -0.025849618 -0.019590378 4281421948
-0.00097030401 -0.022253029 -0.021585606 4282861934
0.00064300746 -0.019829832 -0.02391338 4280111503
0.0022402853 -0.01740738 -0.026238322 4279653269
0.003316544 -0.01190605 -0.031204827 4279587733
0.004613094 -0.0079462156 -0.034843504 4279391384
0.0064093135 -0.0070663095 -0.03583663 4279129499
0.0084688291 -0.0077254847 -0.035509311 4278998428
0.010944773 -0.010692179 -0.033205044 4279195034
0.013162918 -0.012119196 -0.032221958 4279195034
0.015391856 -0.013545454 -0.031240702 4279390873
0.017631605 -0.014970966 -0.030261144 4279456409
0.020325404 -0.018701799 -0.027311172 4279325594
0.023046121 -0.022430941 -0.024365731 4279129243
0.025946885 -0.026926756 -0.020768348 4279063454
0.028568305 -0.029884182 -0.018488467 4281095548
0.00065267831 -0.022189789 -0.024444263 4282337653
0.0022529364 -0.019760676 -0.02676475 4280569484
0.0033328049 -0.014244042 -0.031720325 4279849363
0.0047614314 -0.011045195 -0.034692243 4279456664
0.0064315461 -0.0093910173 -0.036343254 4279653268
0.008493457 -0.010052264 -0.036017958 4279391639
0.010834474 -0.012255952 -0.034378286 4279129498
0.013191685 -0.014458649 -0.032741278 4279195289
0.015707292 -0.017431468 -0.030450277 4279653779
0.01824446 -0.020402886 -0.028162878 4279850384
0.02124596 -0.025685482 -0.02391177 4280963968
0.024134859 -0.030195154 -0.020322338 4282077553
0.0022653267 -0.022118032 -0.02729423 4282141049
0.0033487864 -0.016586065 -0.032238849 4278931109
0.0047805496 -0.013378419 -0.035204709 4279063198
0.0065848306 -0.012493752 -0.036195938 4279391638
0.008785788 -0.013930626 -0.035216756 4279391384
0.01140764 -0.017687716 -0.0322713 4279587989
0.013917059 -0.020669617 -0.02998592 4279587988
0.016590085 -0.024423502 -0.027049098 4279719313
0.019290056 -0.028175719 -0.024116818 4279653779
0.0034902655 -0.019708596 -0.032104194 4280504203
0.0049278699 -0.016492017 -0.03506441 4279784594
0.0068686791 -0.016380988 -0.035399608 4279719058
0.0094787925 -0.020149648 -0.032460481 4279522708
0.012115851 -0.023916669 -0.029525913 4279916173
0.014919069 -0.028457634 -0.025941987 4282667623
0.0055878833 -0.022727706 -0.03231382 4281683579
0.0076756701 -0.023394041 -0.031998105 4280308873
0.010437369 -0.027950637 -0.02841714 4280570503
0.012958627 -0.030949257 -0.026147123 4281685109
0.0083496906 -0.029656716 -0.029271215 4282601069
0.029841758 -0.037087388 -0.025556324 4282404974
-0.018226407 -0.031158291 -0.032333978 4282535789
-0.020478033 -0.031264775 -0.034483682 4282339693
