# .PCD v0.7 - Point Cloud Data file format
VERSION 0.7
FIELDS x y z rgba
SIZE 4 4 4 4
TYPE F F F U
COUNT 1 1 1 1
WIDTH 958
HEIGHT 1
VIEWPOINT 0 0 0 1 0 0 0
POINTS 958
DATA ascii
0.014776502 0.024998732 0.00037002005 4284055843
0.054582946 0.020952415 -0.00093861669 4284315943
0.055168942 0.024494926 -0.0048451493 4283861533
0.05704283 0.024634771 -0.0052615986 4283925538
0.060244597 0.021374948 -0.0021968484 4283925284
0.065082498 0.014038637 0.0050358688 4283925794
0.0010525286 0.02456891 1.7701648e-05 4282807108
0.0025298074 0.026080623 -0.0018196972 4283863829
0.0039964914 0.027591608 -0.003654616 4283795998
0.0054525509 0.029101931 -0.0054871547 4283792938
0.0074862204 0.028549645 -0.0051870388 4283857708
0.0093265101 0.028684955 -0.0055975574 4283860768
0.011771046 0.026759703 -0.0038814507 4284057628
0.014027551 0.025522355 -0.002877079 4284251938
0.016708214 0.022912899 -0.00045969151 4284381989
0.053412531 0.022125032 -0.0048618792 4284252194
0.054248825 0.024995226 -0.0080621764 4283928599
0.056114625 0.025134502 -0.0084768049 4283861023
0.058245689 0.024591705 -0.0081967339 4283993114
0.06199035 0.01995768 -0.0037536314 4283991328
0.069291718 0.0064636767 0.0096959332 4283990563
0.00017631799 0.025800517 -0.0039430484 4283530034
0.0016432069 0.027315827 -0.0057748365 4283794724
0.0032900497 0.028140537 -0.0068945237 4283731483
0.0047384016 0.029654618 -0.0087219989 4283796253
0.0065678842 0.029789053 -0.0091301659 4283927069
0.0087944791 0.028544996 -0.0081226006 4283993879
0.011232994 0.026612692 -0.0064100702 4284056354
0.013483658 0.025370577 -0.0054077446 4284251939
0.016364641 0.022063224 -0.0022895206 4284315433
0.052758086 0.021945648 -0.0073825968 4284251428
0.05410951 0.023454754 -0.0091868257 4283924773
0.05571267 0.024278589 -0.010295002 4283924773
0.057840768 0.023733428 -0.010015894 4283990564
0.061045535 0.020452112 -0.0069682095 4283990309
0.067252681 0.0096493848 0.0036837002 4283990054
-0.00051329285 0.026357509 -0.0071815546 4283201084
0.001133576 0.027184308 -0.008299673 4283858984
0.0029655136 0.027318723 -0.0087085348 4283990819
0.0046044923 0.02814512 -0.0098247593 4283990563
0.0066295378 0.027587846 -0.009526087 4283858473
0.0084616169 0.02772256 -0.0099347644 4283924773
0.010896776 0.025783431 -0.0082264505 4284056353
0.013347946 0.02384563 -0.0065216711 4284186914
0.016227834 0.020527255 -0.0034114653 4284317474
0.048000645 0.017231554 -0.0044824844 4284576298
0.049631033 0.018059287 -0.0055953036 4284380203
0.051001623 0.019574095 -0.0074006431 4283987758
0.052618459 0.020400994 -0.0085103149 4283989033
0.054229848 0.021227576 -0.0096187098 4283989288
0.055835769 0.022053834 -0.010725829 4283924009
0.057966236 0.021506693 -0.010448872 4283858473
0.060637243 0.019587282 -0.0087913722 4283792429
0.066568092 0.0094353408 0.0011452837 4283792683
-0.00046240911 0.024149269 -0.0075797881 4283069504
0.0015621819 0.023589447 -0.0072828373 4283727404
0.0034020059 0.023724448 -0.0076934593 4283924773
0.0052418895 0.023859534 -0.0081040291 4283924264
0.0070818178 0.023994707 -0.0085145468 4283924009
0.0091199279 0.023436295 -0.0082203764 4283858473
0.011364225 0.022184879 -0.0072233053 4283924264
0.013822716 0.020241011 -0.0055250674 4284056098
0.016091056 0.018991556 -0.0045332126 4284186403
0.018578909 0.017050032 -0.0028413907 4284317728
0.020659788 0.016495228 -0.0025564078 4284379948
0.022531852 0.016633414 -0.0029736031 4284314413
0.024620719 0.0160794 -0.0026902528 4284315179
0.026495427 0.016217977 -0.0031078886 4284314413
0.02814796 0.017048549 -0.0042247344 4284380203
0.030019943 0.017187111 -0.0046416246 4284379949
0.032119371 0.016634237 -0.0043603526 4284249644
0.034684397 0.014699154 -0.0026851641 4284315943
0.036799733 0.014147658 -0.0024072835 4284250664
0.038920335 0.013596624 -0.0021305205 4284250918
0.040808059 0.013736811 -0.0025505675 4284119084
0.042454895 0.014567625 -0.0036656447 4284184874
0.04385284 0.016088445 -0.0054739849 4284184873
0.045486182 0.016918439 -0.006585917 4284119338
0.047611717 0.016368236 -0.0063099028 4284053803
0.049742483 0.015818514 -0.0060349838 4284119593
0.051624328 0.015958816 -0.0064533059 4283989798
0.053762872 0.015409853 -0.0061799777 4283925284
0.055387679 0.016239643 -0.0072896895 4283990819
0.057269167 0.01638018 -0.0077077341 4283990563
0.05915051 0.016520802 -0.008125674 4283990564
0.061834142 0.014595814 -0.0064759073 4283727913
0.067505084 0.0051002391 0.0027451441 4283727913
0.0021769293 0.019285019 -0.0055701062 4283728679
0.004027307 0.019420773 -0.0059830975 4283860258
0.006262999 0.018164027 -0.0049875737 4283793449
0.0081188045 0.018300366 -0.0054016388 4283728169
0.0099746622 0.018436804 -0.0058156387 4283925539
0.012031168 0.01787765 -0.0055271531 4283859493
0.014499616 0.015927956 -0.0038360944 4283859749
0.01657217 0.01537016 -0.0035510501 4283989288
0.018650072 0.014812861 -0.0032671234 4284054569
0.020522023 0.014950957 -0.0036843577 4284120359
0.02239397 0.015089147 -0.0041015176 4284120103
0.024265911 0.015227426 -0.0045186104 4284120103
0.025918549 0.016060114 -0.0056338846 4284119849
0.027787782 0.016198386 -0.0060502277 4284120104
0.029432373 0.01703066 -0.0071635754 4284120104
0.031980727 0.015087761 -0.0054897224 4284120869
0.034085147 0.014533132 -0.0052110893 4284120358
0.036427453 0.013285704 -0.0042383112 4284120358
0.038545083 0.012732293 -0.003962514 4284055078
0.040667981 0.012179364 -0.0036878251 4284055079
0.042314902 0.013012379 -0.0048012594 4283989798
0.043956414 0.013845075 -0.0059134313 4283924774
0.045592509 0.014677476 -0.0070243147 4283989799
0.047720402 0.014125299 -0.0067504481 4283990053
0.050104808 0.012881659 -0.0057865372 4283989798
0.051991876 0.013022367 -0.0062060105 4283989543
0.054135457 0.012471572 -0.0059353905 4283989544
0.056024961 0.012612648 -0.0063552642 4283989544
0.058176272 0.012062665 -0.0060862629 4283858728
0.060068179 0.012204096 -0.0065065352 4283858729
0.062494479 0.010964137 -0.0055515179 4283792938
0.068170518 0.001438383 0.0036453204 4283792939
0.0027901717 0.014963213 -0.0038700039 4283662633
0.0048408695 0.014401019 -0.003582119 4283794468
0.0068969391 0.013839357 -0.0032954058 4283859238
0.0087633096 0.013976462 -0.0037118308 4283859239
0.010827467 0.013415575 -0.0034267819 4283858984
0.012696572 0.013553087 -0.0038436651 4283858729
0.014971882 0.012295298 -0.0028600469 4283858984
0.017052134 0.011735842 -0.0025783265 4283858984
0.018929297 0.011874225 -0.0029967921 4283924519
0.020806463 0.012012705 -0.0034151888 4283989799
0.022897387 0.011454377 -0.003135669 4283989544
0.024777211 0.011593249 -0.003554509 4283989798
0.026437929 0.012428712 -0.0046699373 4283989798
0.028536804 0.011871263 -0.0043919692 4283989799
0.030416563 0.012010418 -0.0048105782 4283989798
0.032296281 0.012149662 -0.005229108 4283989798
0.034405712 0.011593271 -0.004953281 4283989798
0.036520422 0.01103738 -0.0046785427 4283990309
0.038875502 0.0097866021 -0.003711774 4283990053
0.040527903 0.010622174 -0.0048248842 4283989799
0.042415325 0.010762464 -0.0052447719 4283924263
0.044302676 0.010902844 -0.0056645675 4283924773
0.046189934 0.011043314 -0.0060842736 4283924518
0.048077099 0.011183877 -0.006503881 4283989798
0.050215267 0.010630351 -0.0062338198 4283989544
0.052358635 0.010077335 -0.0059648948 4283989799
0.054507222 0.0095248036 -0.0056970632 4284055079
0.056661025 0.0089727603 -0.0054303119 4284054824
0.059081774 0.007727813 -0.0044774385 4283989288
0.060984232 0.0078700744 -0.0049000229 4283858473
0.063687757 0.0059335791 -0.0032645641 4283857964
0.069374204 -0.0036219396 0.005906892 4283857964
0.0035887882 0.0099230148 -0.0014803773 4283135038
0.0054629296 0.0100605 -0.0018986799 4283794469
0.0073371232 0.010198075 -0.0023169322 4283859238
0.0092113689 0.010335751 -0.0027351212 4283858728
0.011085652 0.010473534 -0.0031532403 4283924263
0.012959968 0.010611419 -0.0035712933 4283924009
0.015443008 0.0086496733 -0.0018933984 4283858984
0.017325373 0.0087883361 -0.0023131054 4283858984
0.019415975 0.0082276054 -0.0020353086 4283924519
0.021090133 0.0090659745 -0.0031522894 4283924264
0.022972515 0.0092049353 -0.0035717767 4283924263
0.02463866 0.010042898 -0.0046868306 4283989799
0.026518354 0.010181874 -0.0051055551 4283989798
0.02861958 0.0096224137 -0.0048297588 4283989543
0.030726109 0.0090634488 -0.0045550661 4283924773
0.032837935 0.0085049644 -0.0042814845 4284055589
0.034266375 0.010040745 -0.0060870256 4283989798
0.036380775 0.0094826408 -0.0058138752 4284055589
0.038500443 0.0089250468 -0.005541808 4284055844
0.040625393 0.0083678849 -0.0052708043 4283924773
0.042515371 0.0085083917 -0.0056912424 4283924774
0.044648156 0.0079520494 -0.0054218816 4283924518
0.046786185 0.0073961988 -0.0051536108 4283924774
0.048681233 0.0075373612 -0.0055749635 4283990053
0.050325304 0.0083749481 -0.0066841515 4283989288
0.052471034 0.0078199543 -0.0064173839 4283989289
0.054621972 0.0072654523 -0.0061516925 4283924264
0.05677814 0.0067113824 -0.0058870553 4283858473
0.058677956 0.0068533793 -0.0063091028 4283858473
0.060841843 0.0063001141 -0.0060460861 4283792683
0.063811541 0.0036618598 -0.0037309751 4283792684
0.070036821 -0.0073140934 0.006785051 4283791918
0.0012099333 0.0096470453 -0.0035935361 4282345559
0.0034519657 0.0083774701 -0.002609551 4283463478
0.0053259879 0.008514937 -0.0030278359 4283728169
0.0073921122 0.0079495758 -0.0027466388 4283858473
0.0092688985 0.0080874376 -0.003165395 4283858473
0.011343095 0.0075229146 -0.002885893 4283858728
0.013022594 0.0083634555 -0.004002722 4283989544
0.015304882 0.0070974417 -0.0030272594 4283858729
0.01739249 0.0065341927 -0.0027505262 4283858473
0.019485444 0.0059714541 -0.002474905 4283924264
0.021162342 0.0068122111 -0.0035908427 4283924263
0.023047268 0.0069513582 -0.0040108962 4283924519
0.024932189 0.007090617 -0.0044308687 4283924518
0.026817091 0.0072299652 -0.0048507643 4283924263
0.028923336 0.0066687092 -0.0045777205 4283924518
0.031258918 0.0054073706 -0.0036134971 4283924519
0.032925043 0.0062479265 -0.0047265883 4283924518
0.03458577 0.0070882291 -0.0058384459 4283924519
0.036473159 0.0072282515 -0.0062585245 4284055589
0.038595192 0.0066686124 -0.0059885825 4283989798
0.040485125 0.0068090372 -0.0064090691 4283925028
0.042855028 0.0055508837 -0.0054520792 4283925028
0.044992831 0.0049927495 -0.0051854714 4283924519
0.047381245 0.0037361346 -0.0042323992 4283989798
0.048788123 0.0052754097 -0.006029367 4283989288
0.050685629 0.005416885 -0.0064511667 4284054823
0.052836388 0.0048600622 -0.0061871014 4283989544
0.05524835 0.0036056377 -0.005239015 4283989799
0.057412192 0.0030500181 -0.0049777585 4283924264
0.059319884 0.0031926408 -0.0054015326 4283858729
0.061227448 0.0033353381 -0.0058252118 4283989288
0.064468235 -8.624047e-06 -0.0028348789 4283923499
0.070698217 -0.011019167 0.0076537887 4283923244
0.0018090419 0.005283501 -0.0019210223 4282084438
0.0036882125 0.0054212362 -0.0023405384 4283463989
0.0055674389 0.0055590607 -0.0027600033 4283793193
0.0074467286 0.0056970082 -0.0031793928 4283858729
0.0095205717 0.0051301606 -0.0029015457 4283858473
0.011599775 0.0045638196 -0.0026248116 4283989288
0.013484519 0.0047024526 -0.0030452004 4283989289
0.015571788 0.0041369088 -0.0027701128 4283989288
0.017664421 0.0035718121 -0.0024961028 4283989289
0.019554555 0.0037111454 -0.0029174658 4283989034
0.021234177 0.004554335 -0.0040324032 4283989544
0.022908485 0.0053971857 -0.0051460429 4283989544
0.024793282 0.0055364221 -0.0055659912 4283989289
0.026678063 0.0056757666 -0.0059858556 4283924009
0.028783992 0.0051123165 -0.0057143844 4283924264
0.03134289 0.0031438731 -0.0040626861 4283924263
0.033238247 0.0032843016 -0.0044846758 4283924009
0.035133563 0.0034248345 -0.0049065775 4283989288
0.036797002 0.0042675771 -0.0060172672 4283989798
0.038689543 0.0044081099 -0.0064383983 4284055333
0.040344868 0.0052504577 -0.0075471285 4284121124
0.042474426 0.0046894439 -0.0072803977 4284121123
0.044609249 0.0041289292 -0.0070147566 4284120613
0.047239631 0.0021666065 -0.0053783525 4284120613
0.048894629 0.0030093156 -0.0064867153 4284120359
0.05079468 0.0031509921 -0.0069090719 4284119848
0.052947775 0.0025922321 -0.0066471994 4284185893
0.055106081 0.0020339526 -0.0063864142 4284186404
0.057269607 0.0014761649 -0.0061267093 4284186403
0.058916047 0.0023187324 -0.0072327983 4284120869
0.060557026 0.003161002 -0.0083375908 4284186148
0.064057842 -0.00089387223 -0.0046728831 4284250919
0.070820116 -0.013338435 0.007151912 4284250919
0.0018556751 0.0030262731 -0.0023550689 4282544969
0.0037373938 0.0031641833 -0.0027751671 4283595313
0.0058081448 0.002594728 -0.0024984255 4283858473
0.0078842789 0.0020257495 -0.0022228258 4283923754
0.0099658109 0.0014572516 -0.0019482933 4283989033
0.012052696 0.00088928267 -0.0016749278 4284120104
0.014144953 0.00032181293 -0.0014026845 4284120104
0.016040258 0.00046132877 -0.0018253494 4283987758
0.017935585 0.00060093775 -0.0022479501 4284053549
0.019830927 0.00074066967 -0.002670465 4283988014
0.021726269 0.00088049471 -0.0030929092 4284118829
0.023834586 0.00031471997 -0.0028238576 4284119084
0.025732588 0.0004549399 -0.0032467451 4284119849
0.027848892 -0.00011007115 -0.0029792655 4284119848
0.029749524 3.0558556e-05 -0.003402574 4283987504
0.031873759 -0.00053362921 -0.0031367559 4283921458
0.033324383 0.0010168701 -0.0049374364 4283922734
0.03522224 0.0011576042 -0.0053598974 4284119848
0.036888421 0.0020027384 -0.0064695422 4284186404
0.038783506 0.0021434762 -0.0068912245 4284186148
0.040441565 0.0029882267 -0.0079989024 4284644638
0.042573478 0.0024252273 -0.0077343285 4284644638
0.044468354 0.0025662482 -0.0081557408 4284448288
0.047098026 0.00059732422 -0.0065241214 4284382498
0.049000718 0.00073913112 -0.0069471169 4284513313
0.0511536 0.0001781024 -0.0066868979 4284578594
0.0022688881 -0.00065520033 -0.0013993634 4283132233
0.0041584671 -0.00051674247 -0.001821233 4283855159
0.006803263 -0.003216859 0.00053767208 4283987503
0.0087036192 -0.003077399 0.00011355616 4284248878
0.010798149 -0.0036471002 0.00038348511 4284183854
0.012504477 -0.0027981438 -0.0007344624 4284380458
0.014604412 -0.003367234 -0.00046557933 4284380203
0.016305469 -0.0025184639 -0.0015821997 4284380459
0.018615559 -0.0037954412 -0.00062276237 4284380459
0.020521428 -0.0036549531 -0.0010476392 4284446504
0.035917901 -0.017128203 -0.0090941936 4284575024
0.038066041 -0.01770765 -0.0088465642 4284576043
0.040219463 -0.018286664 -0.0085999966 4284446504
0.042378146 -0.018865112 -0.0083545502 4283987503
0.044542082 -0.019443069 -0.0081101898 4284053039
0.047674112 -0.022904929 -0.0051786043 4284118828
0.052779678 -0.032131951 0.0031190431 4283922733
0.020225383 -0.019117553 -0.0075084306 4282155074
0.022140849 -0.01897623 -0.0079353563 4281893699
0.024267526 -0.019560259 -0.0076852031 4281828164
0.026185652 -0.019418512 -0.0081125461 4281697093
0.027887233 -0.018551584 -0.0092155915 4281696838
0.029802661 -0.018409807 -0.0096421596 4281436738
0.031939924 -0.018992592 -0.0093940161 4281436484
0.034307025 -0.020299379 -0.0084729046 4281632324
0.036003146 -0.019432355 -0.0095744394 4281567299
0.038153626 -0.02001385 -0.0093289316 4281370949
0.040076848 -0.019870926 -0.0097567961 4281371204
0.042470373 -0.021175247 -0.0088412613 4281566788
0.044636641 -0.021755192 -0.0085990578 4281632579
0.048491746 -0.027397741 -0.0036645988 4281763139
-0.038977679 -0.015338335 -0.0048488746 4284639539
-0.037228424 -0.014469396 -0.0059636864 4284706094
-0.035222042 -0.015067708 -0.0056908145 4284640559
-0.033210177 -0.015665527 -0.0054190899 4283332408
-0.031056341 -0.016995985 -0.0044564381 4282679609
-0.029309053 -0.016126763 -0.0055705621 4282548793
-0.027283352 -0.016723309 -0.0053016595 4282612798
-0.02496333 -0.018784355 -0.0036534294 4282548538
-0.02292135 -0.01937953 -0.0033880174 4282548539
-0.020724159 -0.020706277 -0.0024347212 4282417723
-0.018973451 -0.019836318 -0.0035491679 4282091578
-0.016917754 -0.020430107 -0.0032866169 4282482749
-0.015329838 -0.018828724 -0.0050870348 4283985208
0.01857549 -0.022292573 -0.0068792533 4284252449
0.020290455 -0.021422941 -0.00798399 4281698113
0.022000097 -0.020553578 -0.0090874545 4281371203
0.024126435 -0.021139804 -0.0088388678 4281305668
0.026044419 -0.020998064 -0.0092661679 4281501763
0.027962392 -0.020856213 -0.0096933916 4281502019
0.030099349 -0.021441307 -0.0094469078 4281175618
0.032241616 -0.022025939 -0.0092014819 4281175618
0.034164842 -0.021883342 -0.0096295998 4281240644
0.036088023 -0.021740634 -0.010057621 4281370948
0.038240816 -0.022324089 -0.0098143145 4281501764
0.040398881 -0.022907037 -0.0095720924 4281501508
0.04256222 -0.023489479 -0.0093309619 4281501508
0.044730816 -0.024071414 -0.0090909079 4281501764
0.048827171 -0.030456793 -0.0035009505 4281240134
-0.046620142 -0.017425824 -0.0042962618 4283331898
-0.044743326 -0.01729105 -0.0047173626 4282613564
-0.042866301 -0.01715618 -0.0051384452 4282483514
-0.040743154 -0.018493701 -0.0041726492 4282287929
-0.038986046 -0.017622162 -0.0052876915 4282026298
-0.037105795 -0.017486755 -0.0057092658 4282026043
-0.035225358 -0.017351244 -0.0061308104 4282027063
-0.033077519 -0.018686626 -0.0051702014 4281895484
-0.031055149 -0.019285802 -0.0049024336 4281567554
-0.029305134 -0.018414248 -0.0060154865 4281568064
-0.027277108 -0.019012775 -0.0057488047 4281371714
-0.025243599 -0.019610826 -0.0054832827 4281371714
-0.02305771 -0.020942923 -0.0045308024 4281568064
-0.021010611 -0.021539774 -0.0042681713 4281634874
-0.019110266 -0.021401983 -0.0046935361 4281700409
-0.016899999 -0.022731941 -0.0037463009 4282157114
-0.015151631 -0.021859769 -0.0048584342 4283724344
0.018434655 -0.023873989 -0.0080344025 4283595568
0.020149676 -0.023002151 -0.0091374889 4281436229
0.022067519 -0.02286065 -0.0095649399 4281240389
0.024196181 -0.023448903 -0.0093185343 4281240644
0.02633018 -0.024036665 -0.0090731587 4281045059
0.028253336 -0.023894418 -0.0095015224 4281045059
0.030395281 -0.024481315 -0.0092577972 4280914243
0.032321058 -0.024338644 -0.0096865669 4280979523
0.034470934 -0.024924729 -0.0094444305 4281044038
0.036172509 -0.024052959 -0.010543831 4281239879
0.038557086 -0.025366876 -0.0096330419 4281305158
0.04048802 -0.025223356 -0.010062613 4281305158
0.042653684 -0.025807779 -0.009823624 4281435719
0.044587154 -0.025663842 -0.010253586 4281370438
0.048921715 -0.032796685 -0.0040107043 4281370694
-0.046179596 -0.022668306 -0.0019596536 4282220098
-0.044407051 -0.021793786 -0.0030767433 4281829948
-0.042159166 -0.023874145 -0.0014229212 4281764669
-0.040263455 -0.023737859 -0.0018481389 4281568829
-0.038493004 -0.022863168 -0.0029645935 4281438014
-0.036855761 -0.021250714 -0.0047703944 4281176893
-0.034705963 -0.022590403 -0.0038136635 4281371714
-0.032678749 -0.023191575 -0.0035486668 4281240898
-0.030646067 -0.023792189 -0.0032848641 4281044803
-0.029024083 -0.022180382 -0.0050869845 4280914243
-0.026847001 -0.023517724 -0.0041359961 4280783938
-0.025235336 -0.021906439 -0.0059356354 4281045058
-0.023047302 -0.023242768 -0.0049869437 4281240898
-0.021296609 -0.022368576 -0.0060981922 4281306944
-0.019095 -0.023703668 -0.0051524304 4281372478
-0.016882602 -0.025037859 -0.0042089839 4282026554
-0.014974132 -0.024899263 -0.0046360088 4284184619
0.018496487 -0.026187759 -0.0085153095 4283333938
0.020214211 -0.025313515 -0.0096174125 4281370439
0.02234254 -0.025904115 -0.0093726106 4281044549
0.024476193 -0.026494164 -0.0091289468 4280979778
0.026401881 -0.026351836 -0.009557955 4280914499
0.028543504 -0.02694105 -0.0093158893 4280783939
0.030471826 -0.026798312 -0.0097453147 4280979269
0.032621399 -0.027386714 -0.0095048472 4281044039
0.034552328 -0.027243529 -0.0099346675 4281044038
0.036709812 -0.027831081 -0.0096957684 4281174598
0.038643319 -0.027687479 -0.010125987 4281435719
0.040808715 -0.028274279 -0.0098886425 4281370948
0.042744778 -0.028130222 -0.01031923 4281370949
0.045155272 -0.029446218 -0.0094172405 4281304903
0.049255773 -0.035870466 -0.0038577961 4281370694
-0.045740869 -0.027932394 0.00036113989 4282089793
-0.0438377 -0.027795795 -6.5921806e-05 4281698624
-0.04181442 -0.028399941 0.00019784551 4281110594
-0.040153373 -0.026781645 -0.0016101776 4281046333
-0.038502764 -0.025164012 -0.0034157895 4280850749
-0.036734719 -0.024287228 -0.0045299921 4281176384
-0.034580115 -0.025630992 -0.0035776049 4281241154
-0.032681119 -0.025494087 -0.0040032677 4281110339
-0.030781966 -0.025357056 -0.004428884 4280979523
-0.028744105 -0.025959406 -0.0041678287 4280979523
-0.026841972 -0.025821958 -0.0045939572 4281044804
-0.024939675 -0.025684368 -0.0050200322 4281305924
-0.023183752 -0.024807777 -0.0061309249 4281175363
-0.021283831 -0.02467015 -0.0065563065 4281371458
-0.019080054 -0.026009452 -0.0056143166 4281240898
-0.016711 -0.028086234 -0.0039915452 4281371968
-0.014954526 -0.027209137 -0.0051022121 4284249389
0.016432654 -0.027912389 -0.0092428662 4284640049
0.018355511 -0.027770746 -0.0096716061 4283073074
0.020483486 -0.028363626 -0.0094285058 4281371459
0.022409033 -0.028221566 -0.0098576741 4281240134
0.024755433 -0.029547829 -0.0089455815 4280848964
0.026686303 -0.029405136 -0.0093757557 4280848964
0.028832909 -0.029996168 -0.0091364468 4280980034
0.030984838 -0.030586708 -0.0088981735 4280848454
0.033142056 -0.031176697 -0.0086610327 4280717383
0.035304569 -0.031766187 -0.0084249908 4281304649
0.037698768 -0.033088211 -0.0075230086 4281435719
0.039874528 -0.033676501 -0.0072896751 4281435973
0.042055544 -0.034264263 -0.0070574814 4281043019
0.044007439 -0.034119029 -0.007491597 4280978248
0.046196319 -0.034705956 -0.0072609684 4281173833
0.050787654 -0.042613108 -0.00039068796 4281239369
-0.045532811 -0.031731341 0.0012852894 4281632324
-0.04373889 -0.03085101 0.00016662385 4280979778
-0.041830327 -0.030713957 -0.00026159268 4280849728
-0.040166374 -0.029091086 -0.0020670434 4280915264
-0.038512867 -0.027468916 -0.003870043 4280850239
-0.036614392 -0.02733228 -0.0042957729 4280915009
-0.03445496 -0.028680038 -0.0033478113 4280914499
-0.032550793 -0.028542776 -0.0037746532 4280979268
-0.03064644 -0.028405387 -0.0042014467 4280979269
-0.028741937 -0.028267901 -0.004628208 4281175364
-0.026696268 -0.028871763 -0.0043704743 4281240133
-0.024788786 -0.028733846 -0.0047977385 4281175619
-0.023027476 -0.027854692 -0.0059081935 4281240644
-0.02112237 -0.027716707 -0.0063347504 4281240644
-0.018762145 -0.029800806 -0.004715045 4281044804
-0.01669446 -0.030402515 -0.0044618146 4281306179
-0.015092243 -0.028782729 -0.0062523209 4284445484
0.016291853 -0.029495049 -0.010398966 4284247094
0.018214572 -0.029353429 -0.010827676 4282484023
0.020752002 -0.031422157 -0.0092458175 4281239623
0.022267599 -0.029806461 -0.011015282 4281108044
0.024613459 -0.031137127 -0.010106363 4280847179
0.02654418 -0.030994449 -0.010536504 4280652104
0.02890601 -0.032323737 -0.0096309157 4280717383
0.031278461 -0.033652078 -0.0087276446 4280716874
0.034545068 -0.037922118 -0.0051601953 4281043018
0.037396513 -0.040718783 -0.002931783 4281303883
0.040269226 -0.043513764 -0.00070801564 4281434444
0.042705458 -0.044836927 0.00018147565 4281435208
0.04492075 -0.045424286 0.00040441565 4281632069
0.047141306 -0.046011154 0.00062626787 4281435719
0.049603984 -0.047331933 0.0015101116 4281369928
-0.045668546 -0.033306319 0.00013357494 4281435463
-0.043874536 -0.03242382 -0.00098346639 4281044548
-0.041966114 -0.032286812 -0.0014116811 4280979778
-0.040179711 -0.031404626 -0.0025269156 4280914499
-0.03852329 -0.029777903 -0.004327287 4280849473
-0.036494743 -0.030385744 -0.0040677832 4280979523
-0.034590881 -0.030248646 -0.0044946531 4281045568
-0.032421153 -0.031599972 -0.0035521956 4281111104
-0.030647133 -0.030718129 -0.0046642376 4281111104
-0.028601926 -0.03132439 -0.0044080997 4281176129
-0.026973728 -0.029699024 -0.0062017078 4281109828
-0.024925571 -0.030304808 -0.0059461175 4281175109
-0.023018066 -0.030166779 -0.0063733058 4281175109
-0.020812813 -0.031514872 -0.0054382952 4281240644
-0.018748257 -0.032119129 -0.0051861191 4280979779
-0.016524117 -0.033465628 -0.0042551672 4280914499
-0.015073135 -0.031098548 -0.0067229541 4284444209
0.016151082 -0.031077418 -0.011554857 4283852863
0.018275689 -0.031675015 -0.011314378 4281761354
0.020610347 -0.03301112 -0.010406439 4280779349
0.022540927 -0.032868687 -0.010836725 4280583508
0.024681538 -0.033464734 -0.010599543 4280386904
0.026827484 -0.034060311 -0.010363401 4280123233
0.028978731 -0.034655344 -0.010128402 4280319329
0.031789355 -0.037463997 -0.0078976732 4280318819
0.039931245 -0.051190216 0.0038585113 4280972129
-0.045576122 -0.036376569 0.00035646651 4281696329
-0.043660048 -0.036239121 -7.3545612e-05 4281240133
-0.041505042 -0.037596408 0.00086851418 4281632834
-0.039461236 -0.038205568 0.0011227801 4281241664
-0.037661288 -0.037320178 6.259419e-06 4281305669
-0.035739128 -0.037181895 -0.00042481627 4280979013
-0.033946779 -0.036296848 -0.0015394716 4281110084
-0.032292236 -0.034665588 -0.003335963 4281110083
-0.030648138 -0.033034999 -0.0051299864 4280979269
-0.029014532 -0.031405021 -0.0069216127 4280978759
-0.0273914 -0.029775735 -0.0087107727 4280517464
-0.025492173 -0.029638451 -0.0091362158 4280450654
-0.023300882 -0.030991983 -0.0082015032 4280515424
-0.0208016 -0.033835266 -0.0059101777 4280318819
-0.042980555 -0.043066483 0.0035670539 4282348873
-0.040807467 -0.04442681 0.0045017125 4282348874
-0.032915492 -0.044617478 0.0034427224 4282674508
-0.054262277 0.023638722 0.028847385 4282142578
-0.052384142 0.023774393 0.028426595 4282601579
-0.0082857162 0.023547372 0.022387974 4280435608
-0.0070726201 0.026381332 0.019055333 4278337723
-0.0048401542 0.025171977 0.020087548 4278468028
0.00072968379 0.018716428 0.026497733 4278865319
0.0033733286 0.016164757 0.028969072 4279456663
-0.058448557 0.02385764 0.026327729 4278470833
-0.055644978 0.030255284 0.018824693 4278337213
-0.053692196 0.029707881 0.019151028 4278337469
-0.051296685 0.026439015 0.022433575 4279191208
-0.048986267 0.023852436 0.024971396 4279453858
-0.047800478 0.028068533 0.020122673 4279255213
-0.0097670406 0.027391022 0.015433536 4279453349
-0.0084040128 0.029556135 0.012837789 4279717018
-0.0037907213 0.026451075 0.015626173 4278667183
-0.0011960566 0.023886969 0.01810177 4278668204
0.001420036 0.0213245 0.020572633 4279655309
-0.061026756 0.026277844 0.021171372 4278668714
-0.058027867 0.031327881 0.015163689 4279454368
-0.056296516 0.032143358 0.014013407 4279191464
-0.054357309 0.031592712 0.014341076 4278929324
-0.049679857 0.025715411 0.020152871 4279191464
-0.048506308 0.029943697 0.015316765 4278534074
-0.010574356 0.02855636 0.011403617 4279449779
-0.0088807754 0.029370857 0.010263116 4278536624
-0.0068463162 0.028828902 0.010570814 4278273973
-0.0020476058 0.025035894 0.014071702 4278800549
0.00037588924 0.023141289 0.015816819 4279129499
-0.063012496 0.024610974 0.020465679 4279193503
-0.060092654 0.030363122 0.013726478 4278930089
-0.058462355 0.031866081 0.011839912 4279390109
-0.056635264 0.031997815 0.011430372 4279061668
-0.052435767 0.028837087 0.014291995 4278404533
-0.050259892 0.026915928 0.01608612 4278929834
-0.048981678 0.030472049 0.011997015 4280891548
-0.011212569 0.029058971 0.0081097176 4278924479
-0.007327877 0.02865004 0.0080023268 4278339254
-0.0027193762 0.025522815 0.010775303 4278472618
-0.00066625699 0.024980297 0.011077299 4278801314
-0.063516244 0.025830757 0.016392227 4279325083
-0.062151182 0.029403562 0.012291529 4278274484
-0.052894149 0.029375786 0.010975254 4279061670
-0.05083831 0.028134273 0.012032387 4278667693
-0.049341779 0.03032718 0.0094203623 4280563873
-0.012709282 0.025341898 0.0095706517 4282792829
-0.011347603 0.02752649 0.006989914 4279715488
-0.0096618235 0.028344696 0.005854466 4279192739
-0.0076359548 0.02779774 0.0061606998 4278734248
-0.0054293387 0.026569013 0.0071854061 4278734248
-0.0032119341 0.02534111 0.0082078064 4278603434
-0.0011644475 0.024795977 0.0085093984 4278669988
-0.063925788 0.026377885 0.013068323 4279325083
-0.062567845 0.029961048 0.0089774234 4278734504
-0.060746748 0.030092102 0.0085690441 4278537134
-0.058824856 0.029533381 0.0088953627 4278929323
-0.057000589 0.02966479 0.008486365 4278601393
-0.055281926 0.030485762 0.0073438464 4278536879
-0.053351294 0.029927867 0.0076683508 4278472109
-0.051192719 0.027992263 0.0094563076 4278864809
-0.049359489 0.028124589 0.0090455031 4279975334
-0.012844741 0.023803091 0.0084461858 4282269568
-0.011482585 0.025994258 0.0058702817 4279519139
-0.010136295 0.028184343 0.0032979818 4278928814
-0.0082885139 0.028319394 0.0028851833 4278533819
-0.0038814768 0.025852738 0.0049294485 4278930598
-0.0016618222 0.024620691 0.00594809 4278866083
-0.064149335 0.025553212 0.011223937 4279521689
-0.062793195 0.029147109 0.0071416488 4278538154
-0.06107254 0.029970152 0.0060001416 4278537898
-0.059356939 0.030792894 0.0048598116 4279126439
-0.057440374 0.030231619 0.0051856833 4279257509
-0.055729594 0.031054141 0.0040465342 4279257509
-0.053590525 0.029110413 0.0058338651 4278668204
-0.051546272 0.027859246 0.0068868594 4278864809
-0.04937746 0.025917808 0.0086676301 4279386283
-0.047541421 0.026050346 0.0082562054 4283249789
-0.01314443 0.022952 0.0066030594 4282269568
-0.011617508 0.024462262 0.0047508134 4279518628
-0.010270737 0.026658924 0.0021833461 4278535094
-0.0085953251 0.027480783 0.0010535466 4278534074
-0.0041946061 0.025004867 0.0030925786 4278993838
-0.001978118 0.023768242 0.0041085677 4279193248
-0.064280227 0.024038302 0.010116247 4279718039
-0.063018039 0.028337764 0.0053092791 4278341293
-0.054153752 0.030378662 0.0018135877 4278536879
-0.051788177 0.027041769 0.0050530983 4278668204
-0.049282294 0.023013584 0.0090151569 4279584164
-0.013771798 0.02348475 0.0033289818 4281876360
-0.010743946 0.026512215 -0.00036310963 4279061669
-0.0092458501 0.02802494 -0.0022055442 4279193758
-0.0072340891 0.027470361 -0.0019010594 4278341294
-0.0050395206 0.02622764 -0.00088356622 4278864809
-0.002834186 0.024985811 0.0001316024 4278866593
-0.0009835735 0.025121361 -0.00028160866 4278934169
-0.064594999 0.023917655 0.0075453417 4280111249
-0.063431755 0.028926738 0.0020180652 4278471599
-0.061916169 0.031146564 -0.00057886261 4278274229
-0.060116354 0.031275973 -0.00098255929 4279191973
-0.058316257 0.031405479 -0.0013862597 4278864554
-0.056515928 0.031535067 -0.0017899675 4278405044
-0.054499444 0.030272979 -0.00073748175 4278798764
-0.052140232 0.026924651 0.0024951594 4278798254
-0.049527619 0.022187294 0.0071756924 4279256489
-0.01439796 0.024030987 6.4675696e-05 4281286543
-0.011554748 0.027757462 -0.0043317825 4278470578
-0.0098951496 0.028582495 -0.0054547777 4278406573
-0.0035087764 0.025530528 -0.0031202827 4278866083
-0.0016662665 0.025665475 -0.0035316916 4278737309
-0.065000772 0.0245053 0.0042509036 4280504458
-0.060444597 0.031185046 -0.0035273517 4278734248
-0.058649909 0.031314105 -0.0039298814 4278865574
-0.052601855 0.027514404 -0.00078204181 4279059883
-0.049998652 0.022761056 0.00388896 4279387813
-0.015022911 0.024590675 -0.0031898106 4280632978
-0.013685491 0.026806135 -0.0057403967 4278863279
-0.012025911 0.02763325 -0.0068618171 4278404279
-0.0060164779 0.0259545 -0.0059527266 4278602923
-0.003822796 0.024702985 -0.0049415543 4278603688
-0.0021654144 0.025530417 -0.0060621961 4278539684
-0.065496922 0.025807796 0.00023780391 4279062688
-0.055188287 0.030088656 -0.0058198376 4278602159
-0.053062264 0.028117629 -0.0040494893 4278733484
-0.050468463 0.023348223 0.00061208196 4278799273
-0.04795276 0.019281343 0.004542171 4283250298
-0.015319668 0.023771342 -0.0050096903 4280043929
-0.01365212 0.024601109 -0.0061313226 4278537644
-0.011989791 0.025430582 -0.0072517265 4278800038
-0.010332689 0.026259769 -0.0083708931 4278735268
-0.0081583522 0.025002316 -0.0073588877 4278669733
-0.0059732608 0.023745742 -0.0063492162 4278800293
-0.003956899 0.023185052 -0.0060506286 4278538408
-0.0021172799 0.023319747 -0.006461421 4278735778
-0.065625712 0.024313584 -0.00085483678 4279194014
-0.064289153 0.02796039 -0.004891708 4278538409
-0.062591895 0.028792385 -0.0060199378 4278472618
-0.060899701 0.02962409 -0.007146975 4278668969
-0.059110526 0.029752644 -0.0075483536 4278996643
-0.05721638 0.029178614 -0.0072258683 4278931108
-0.055316668 0.028605068 -0.006904569 4278799783
-0.05330136 0.027329674 -0.0058617331 4278668713
-0.050937053 0.023948859 -0.0026550405 4278537644
-0.048315208 0.019166257 0.0019886671 4282266254
-0.016643602 0.019330103 -0.0028600842 4280699024
-0.015126068 0.020861335 -0.0046938825 4279324319
-0.013287146 0.020995431 -0.0051049311 4278604199
-0.011279494 0.020431586 -0.0048063807 4278538409
-0.0094376802 0.020566076 -0.0052179396 4278603944
-0.0074218176 0.020002995 -0.0049210927 4278538409
-0.0054005198 0.019440427 -0.0046253745 4278538409
-0.0033738054 0.018878352 -0.0043307971 4278407339
-0.0015236363 0.0190138 -0.0047439579 4278539429
0.0003266111 0.019149367 -0.0051570563 4279329163
-0.065754414 0.022819612 -0.001947321 4279325593
-0.06422919 0.025066046 -0.0045268405 4278735523
-0.062333401 0.024489699 -0.0042065606 4278669478
-0.060531262 0.02461906 -0.0046109413 4279062689
-0.058728877 0.02474851 -0.0050153234 4279127968
-0.056821715 0.02417318 -0.0046974444 4279128223
-0.054908995 0.023598334 -0.0043807533 4279128223
-0.05310056 0.023728436 -0.0047863224 4278865829
-0.050841857 0.021041438 -0.0023099408 4278866083
-0.048446458 0.017651975 0.00088155363 4278997408
-0.046495568 0.017080139 0.0011899658 4279520924
-0.044780154 0.017916281 5.9730373e-05 4279914389
-0.043069828 0.018752098 -0.0010692561 4279848598
-0.04098716 0.017477605 -4.4504181e-05 4279783319
-0.039150614 0.017610282 -0.00045596808 4279455899
-0.03731386 0.017743059 -0.00086741149 4279521689
-0.035343114 0.017173178 -0.00056313071 4279259548
-0.033503328 0.01730635 -0.00097512174 4279062943
-0.031941611 0.018844377 -0.0028161695 4279521434
-0.030248564 0.019679531 -0.0039408403 4279324574
-0.028127316 0.01840841 -0.0029242951 4279259293
-0.026142377 0.017840002 -0.0026228605 4279259293
-0.024002161 0.016570475 -0.0016104653 4279127458
-0.022156026 0.016704623 -0.0020234864 4279127968
-0.020309757 0.016838871 -0.002436473 4278800293
-0.018621113 0.017674226 -0.0035597673 4279259294
-0.016777221 0.017808471 -0.0039720926 4278735014
-0.014770102 0.017242204 -0.0036752168 4278669988
-0.012591761 0.015975945 -0.0026709028 4278604453
-0.0088871568 0.016246315 -0.003498815 4278276524
-0.0068609305 0.015681803 -0.0032059392 4278473384
-0.0048292801 0.015117791 -0.0029141968 4278669988
-0.0027922168 0.014554258 -0.0026236027 4278538918
-0.0011132546 0.015389729 -0.0037441114 4279063453
0.00074487925 0.015525855 -0.0041589784 4280967283
-0.065518811 0.01849379 -0.00014504232 4282144108
-0.063888744 0.020039693 -0.0019991035 4278736034
-0.061979961 0.019462034 -0.0016834401 4278408103
-0.060065586 0.018884853 -0.0013689715 4278342314
-0.056428853 0.019146025 -0.0021849219 4278276523
-0.054610137 0.019276738 -0.0025929026 4278407849
-0.052571837 0.017994158 -0.0015618987 4278407339
-0.050522666 0.016712479 -0.00053331722 4278604453
-0.048462648 0.015431613 0.00049292576 4278866594
-0.046627041 0.015563857 8.1400387e-05 4278931874
-0.044550609 0.014284384 0.0011040512 4278866339
-0.042832214 0.015122924 -2.5127083e-05 4278931618
-0.040993307 0.015255649 -0.00043720938 4278866339
-0.03928249 0.016093805 -0.0015645623 4278801059
-0.037314896 0.015521396 -0.0012613181 4278866594
-0.035208162 0.014244527 -0.0002451418 4278801824
-0.033363152 0.014378022 -0.00065834355 4278604708
-0.031656895 0.01521619 -0.0017844215 4278604453
-0.029955778 0.016054075 -0.0029092738 4278670499
-0.027971309 0.015483316 -0.0026094839 4278801314
-0.025981333 0.014913056 -0.0023108469 4278604709
-0.023985874 0.014343273 -0.0020133816 4278604453
-0.021984939 0.013773933 -0.001717031 4278538663
-0.020133447 0.013908532 -0.0021312088 4278735269
-0.018281821 0.014043223 -0.0025453465 4278735014
-0.016590301 0.014881086 -0.0036676237 4278866084
-0.014252327 0.012907293 -0.0019584158 4278669733
-0.012229409 0.012340058 -0.0016666744 4278407849
-0.010201026 0.011773262 -0.0013760431 4278473128
-0.0081672259 0.011207011 -0.0010865945 4278473128
-0.0063015558 0.011343289 -0.0015034499 4278538918
-0.0042595528 0.010777824 -0.001215688 4278801058
-0.0025699325 0.011616159 -0.0023370041 4278736033
-0.00070400164 0.011752743 -0.002753702 4279326103
0.0013462454 0.011188172 -0.0024675606 4281492074
-0.065102875 0.01273017 0.0030886503 4282471274
-0.063643649 0.015701633 -0.00020871218 4279062944
-0.06172451 0.015122477 0.00010293815 4278669988
-0.059799787 0.014543794 0.00041339174 4278539429
-0.057869513 0.013965603 0.00072266534 4278473639
-0.056141976 0.014806382 -0.00040736236 4278539174
-0.054205891 0.01422875 -9.9282712e-05 4278276779
-0.052373741 0.014360461 -0.00051025301 4278473384
-0.050317083 0.01307486 0.00051335245 4278473384
-0.048479129 0.013207156 0.00010121614 4278604453
-0.046406064 0.011922937 0.0011212202 4278604198
-0.044322129 0.010639552 0.0021388978 4278866594
-0.042595673 0.011480849 0.001009481 4278931874
-0.040874314 0.012321834 -0.00011867378 4278997409
-0.039158102 0.01316252 -0.0012456235 4278735524
-0.037316237 0.013295587 -0.0016582701 4278801059
-0.035207335 0.012014467 -0.00064590946 4278604453
-0.03335977 0.012148116 -0.0010597054 4278407849
-0.031512018 0.012281869 -0.0014734771 4278407848
-0.029664088 0.012415733 -0.0018872134 4278735523
-0.027815994 0.012549695 -0.00230092 4278539429
-0.025821012 0.01197752 -0.0020050537 4278670243
-0.023969922 0.012111884 -0.0024192929 4278473384
-0.021814566 0.01083475 -0.0014168657 4278407849
-0.019957867 0.010969698 -0.0018322263 4278342314
-0.018258397 0.011810161 -0.0029546758 4278473384
-0.016404081 0.011945121 -0.0033693649 4278604453
-0.014224205 0.010670144 -0.0023721382 4278669988
-0.012033541 0.0093960091 -0.0013772091 4278407849
-0.010000147 0.0088274218 -0.0010894053 4278473384
-0.0081320405 0.00896376 -0.0015068948 4278538918
-0.0060904473 0.0083959699 -0.0012207767 4278473383
-0.0040434264 0.0078286678 -0.0009358013 4278735523
-0.0023484007 0.0086695738 -0.0020566788 4278604453
-0.00047725439 0.0088065192 -0.0024745576 4279196564
-0.063493326 0.012058496 0.00084911101 4278997664
-0.061758462 0.01290172 -0.00028111599 4278604453
-0.059831377 0.012320977 2.7123839e-05 4278670243
-0.058000039 0.012452345 -0.00038387626 4278604453
-0.056168441 0.012583833 -0.0007948596 4278538918
-0.054123361 0.011292826 0.00022789463 4278407848
-0.052176695 0.010713805 0.00053197704 4278604453
-0.050336424 0.010846127 0.00011921115 4278473383
-0.04849593 0.010978546 -0.00029354356 4278407848
-0.046655204 0.011111077 -0.00070628338 4278669988
-0.044334564 0.0084024519 0.0017365096 4278604453
-0.042482775 0.0085359477 0.0013214173 4278538918
-0.040756021 0.0093794465 0.00019365922 4278473383
-0.039290208 0.011642177 -0.0023570769 4278538918
-0.037187319 0.010356117 -0.0013467688 4278407849
-0.035340045 0.010489631 -0.0017605871 4278735523
-0.033220802 0.009204898 -0.00075375941 4278538918
-0.031367835 0.0093389973 -0.0011687251 4278473383
-0.029232275 0.0080556646 -0.00016546436 4278670498
-0.027661394 0.0096075013 -0.0019985596 4278604964
-0.025807921 0.0097419135 -0.0024134265 4278473383
-0.023954291 0.0098764189 -0.0028282674 4278604453
-0.021948654 0.0093030296 -0.0025363602 4278669988
-0.019937526 0.0087301508 -0.0022455957 4278473384
-0.018078137 0.0088653527 -0.0026615169 4278669988
-0.016218599 0.0090006739 -0.0030773859 4278538918
-0.014196418 0.0084288307 -0.0027888417 4278407849
-0.012003589 0.0071505085 -0.0017977506 4278538918
-0.0099678561 0.0065798871 -0.0015121363 4278538918
-0.0077561475 0.0053030923 -0.00052507501 4278735523
-0.0058800541 0.005440101 -0.00094428658 4278407848
-0.0040038675 0.0055772141 -0.0013634404 4278669989
-0.0021275915 0.0057144277 -0.001782544 4278407848
-7.0054084e-05 0.0051458888 -0.0015014354 4278801314
-0.063530326 0.0098312236 0.00046106335 4279784083
-0.061792728 0.010676805 -0.00066822208 4278669988
-0.059961725 0.010808028 -0.0010792352 4278538918
-0.057928223 0.0095116384 -5.7322904e-05 4278801058
-0.056091417 0.0096434355 -0.00046952255 4278669988
-0.054041509 0.0083484091 0.00054876972 4278669988
-0.052198905 0.0084807836 0.00013539102 4278538918
-0.050356086 0.0086132549 -0.00027797464 4278735523
-0.048627447 0.0094587021 -0.0014047883 4278604453
-0.046552677 0.0081657954 -0.00039182231 4278932128
-0.044467051 0.0068737045 0.00061881635 4278604453
-0.042615365 0.0070071444 0.00020371471 4278604453
-0.040763471 0.0071406923 -0.00021136645 4278538918
-0.039166812 0.0086982287 -0.0020474177 4278473383
-0.037189472 0.0081198104 -0.0017513502 4278669988
-0.03533965 0.0082534663 -0.0021657702 4278473383
-0.033082541 0.0062531903 -0.00045410916 4278473383
-0.031224374 0.0063876361 -0.00087026134 4278538918
-0.029224981 0.005811166 -0.00057885703 4278669988
-0.027507503 0.0066568218 -0.0017024837 4278735523
-0.02579518 0.0075021461 -0.0028248485 4278604453
-0.023789983 0.006926436 -0.0025345683 4278473383
-0.021930996 0.0070613995 -0.0029505547 4278538918
-0.019917499 0.0064864196 -0.0026619574 4278800804
-0.018055562 0.0066217892 -0.0030784616 4278997664
-0.016033825 0.0060476549 -0.0027916012 4278931874
-0.014168967 0.0061834417 -0.0032086065 4278735524
-0.012138974 0.0056101009 -0.002923443 4278539939
-0.01010355 0.0050372593 -0.0026394231 4278736033
-0.0078923479 0.0037560426 -0.0016555618 4278605473
-0.0058433935 0.0031843819 -0.0013744179 4278539939
-0.0039646626 0.0033216588 -0.0017941566 4278473384
-0.0020858496 0.0034590438 -0.0022138385 4278735523
-0.0002069436 0.0035965368 -0.0026334645 4279063964
-0.06347467 0.0068832524 0.00078655407 4279587734
-0.061827268 0.0084477253 -0.0010583187 4278473894
-0.059993703 0.0085790902 -0.001469939 4278604453
-0.058159899 0.0087105408 -0.0018815612 4278735523
-0.056118671 0.0074104108 -0.00086470693 4278538918
-0.054279078 0.0075424276 -0.0012775157 4278735523
-0.052330334 0.0069590993 -0.00097726192 4278604453
-0.050487604 0.007091511 -0.0013906462 4278670498
-0.048644658 0.0072240345 -0.0018040063 4278539428
-0.046684604 0.0066417642 -0.0015061107 4278867103
-0.044719014 0.0060599297 -0.0012093429 4278736288
-0.042625684 0.0047641248 -0.00020373892 4278932639
-0.040646385 0.0041834936 9.003561e-05 4278670753
-0.038916599 0.0050316043 -0.0010350859 4278671008
-0.037061762 0.0051654987 -0.0014507258 4278801568
-0.035339575 0.0060132332 -0.0025740108 4278670498
-0.033080485 0.004006464 -0.00086773187 4278867104
-0.031081591 0.0034276955 -0.00057800673 4278670498
-0.029077198 0.0028494336 -0.00028942898 4278669988
-0.027497794 0.0044105612 -0.002117889 4278604454
-0.025782745 0.0052582808 -0.003239274 4278669733
-0.023775179 0.0046804808 -0.0029511545 4278800803
-0.021913651 0.0048156045 -0.0033677332 4278931874
-0.019743677 0.0035264455 -0.0023784554 4278538918
-0.017719712 0.0029501729 -0.0020938329 4278866083
-0.015690293 0.0023743883 -0.0018103616 4278997663
-0.013817564 0.0025107116 -0.0022291495 4279063198
-0.011944711 0.0026471391 -0.0026478944 4279128734
-0.0099042542 0.00207242 -0.0023666136 4278932384
-0.0078583807 0.0014982335 -0.0020865193 4278933148
-0.0058070756 0.00092454627 -0.0018075602 4279129243
-0.0037503429 0.00035135821 -0.0015297299 4279128733
-0.0018663183 0.00048911199 -0.0019505871 4279325593
1.7788261e-05 0.00062697008 -0.0023713904 4279522708
-0.063605219 0.0053643323 -0.00032425299 4279718548
-0.06186213 0.006214533 -0.0014515072 4278669988
-0.059829827 0.0049091838 -0.00043610297 4278604453
-0.057988148 0.0050411709 -0.00084951892 4278735523
-0.056146223 0.0051732473 -0.0012629367 4278669988
-0.054198008 0.0045875497 -0.00096432213 4278538918
-0.052352961 0.0047200136 -0.0013783136 4278605219
-0.050284918 0.0034176111 -0.00037056953 4278670754
-0.048548136 0.0042679124 -0.0014959844 4278736543
-0.046699759 0.004400868 -0.0019105347 4278802333
-0.045089874 0.00596774 -0.0037432136 4278932639
-0.043002348 0.0046670623 -0.0027395943 4278736033
-0.041028667 0.0040838234 -0.0024462249 4278736288
-0.039049465 0.0035010651 -0.002154029 4279260824
-0.03719474 0.0036349036 -0.0025696782 4279129753
-0.035074491 0.0023369528 -0.0015731156 4279260824
-0.032943431 0.0010399185 -0.0005789455 4279063964
-0.030663554 -0.00097183511 0.0011177789 4279063964
-0.028930124 -0.00012081861 -6.2435865e-06 4279128223
-0.027201828 0.00072987378 -0.0011289939 4278996643
-0.025478695 0.0015803017 -0.0022505131 4279390364
-0.023463476 0.0010008886 -0.0019658282 4279456409
-0.021291468 -0.00029264763 -0.00098034739 4279260059
-0.019262645 -0.00087088346 -0.00069856085 4279783828
-0.017071728 -0.0021628179 0.00028278399 4279980434
-0.015188586 -0.0020258464 -0.00013841596 4280241809
-0.013305318 -0.0018887781 -0.00055957772 4280045204
-0.01142193 -0.0017515905 -0.00098068453 4280307088
-0.0097056963 -0.00090089068 -0.0021000765 4280372623
-0.0074848719 -0.0021901242 -0.0011250246 4280896903
-0.0054258853 -0.0027655028 -0.0008494081 4281551488
-0.0031862147 -0.004053168 0.00012157671 4281616769
-0.063457951 0.0016826615 0.00070539024 4280046989
-0.061897274 0.0039772131 -0.0018477393 4280833664
-0.059764903 0.0019469634 -0.00012388732 4281030269
-0.057918008 0.0020792559 -0.00053851958 4281357944
-0.055967648 0.0014914349 -0.00024211034 4281881969
-0.054223496 0.0023441613 -0.0013677487 4282275178
0.0025543645 -0.033647124 -0.0097075636 4282208878
0.0046597011 -0.034249183 -0.0094650881 4281684854
0.0067704357 -0.03485072 -0.0092237191 4281226619
0.0086980052 -0.034709368 -0.0096539864 4281030013
0.010625627 -0.034567881 -0.010084164 4280702083
0.012553293 -0.034426261 -0.010514264 4279916173
0.014087945 -0.032800946 -0.012281773 4279653779
0.016010344 -0.032659475 -0.012710509 4279130008
0.018336454 -0.034000684 -0.011804049 4278671263
0.020673234 -0.035340969 -0.010899865 4279064218
0.022399154 -0.034457345 -0.01199709 4278802333
0.024539419 -0.035055611 -0.011761473 4278998684
0.026685018 -0.035653394 -0.011526902 4278867613
0.028835922 -0.036250617 -0.011293472 4278932638
0.032081254 -0.040548455 -0.0077410843 4278932893
0.036901936 -0.050024066 0.00044818316 4279195544
-0.029288527 -0.032224897 -0.0087482436 4279525768
-0.027667809 -0.030591454 -0.010533587 4279459978
-0.025628287 -0.031202238 -0.01027937 4279524749
-0.023583289 -0.03181253 -0.010026298 4279458958
-0.021087546 -0.034664769 -0.0077407556 4279196053
-0.019325811 -0.03377888 -0.0088462466 4278934679
-0.017108049 -0.035134543 -0.0079205148 4279130009
-0.015192319 -0.0349955 -0.0083492324 4279588243
-0.013117392 -0.03560305 -0.008102417 4279784849
-0.011522219 -0.033970539 -0.0098813558 4279719314
-0.0096087977 -0.033831302 -0.010309289 4279391383
-0.0078623258 -0.032945815 -0.011410826 4279260569
-0.0052725375 -0.035790306 -0.0091456277 4279456919
-0.0033508427 -0.035650108 -0.0095751351 4279522454
-0.0012540482 -0.036255326 -0.0093326662 4279325849
0.00031507015 -0.034623954 -0.011105278 4278867359
0.0024146922 -0.035228778 -0.010863219 4278932894
0.0047027133 -0.036578003 -0.0099522043 4279195034
0.0066300817 -0.036436785 -0.010382516 4279522454
0.0087458491 -0.037039999 -0.010143815 4279063454
0.010675982 -0.036898348 -0.010574574 4279063198
0.012606155 -0.036756549 -0.011005228 4278866849
0.014340032 -0.035870653 -0.012102951 4278605218
0.016466595 -0.036472593 -0.011866299 4278539429
0.018800169 -0.037817638 -0.010964738 4278735523
0.020735767 -0.03767496 -0.011396239 4278538918
0.022671372 -0.03753214 -0.011827638 4278801058
0.024816617 -0.038132202 -0.01159477 4278932128
0.026967181 -0.03873175 -0.011363002 4278801058
0.02912306 -0.039330792 -0.01113232 4278669988
0.032372408 -0.043641437 -0.0075906496 4278801568
0.03763628 -0.054629568 0.0019002901 4278933149
-0.030921016 -0.036179636 -0.0074289883 4279851148
-0.029562104 -0.033040088 -0.010571449 4278867614
-0.027663309 -0.032902975 -0.010996909 4278997919
-0.02562144 -0.0335158 -0.010744874 4278998174
-0.023428541 -0.034877952 -0.0098171188 4278735779
-0.021373075 -0.035489608 -0.0095679173 4278866594
