# .PCD v0.7 - Point Cloud Data file format
VERSION 0.7
FIELDS x y z rgba
SIZE 4 4 4 4
TYPE F F F U
COUNT 1 1 1 1
WIDTH 566
HEIGHT 1
VIEWPOINT 0 0 0 1 0 0 0
POINTS 566
DATA ascii
-0.012619615 0.0031529143 0.019106951 4282151504
-0.009980835 -0.0003619045 0.022203214 4281954898
-0.0075811408 -0.0024204329 0.023909189 4282150229
-0.0062509626 0.0013386235 0.020075113 4281886304
-0.017691314 0.007139422 0.013092746 4281630028
-0.017348699 0.016748726 0.0037245424 4281175364
-0.015673287 0.018326789 0.0019814419 4280197949
-0.01335758 0.016256444 0.0036979904 4280393278
-0.010361303 0.010540172 0.0088666389 4280130883
-0.0078641698 0.0077436194 0.011265318 4280584783
-0.005760178 0.0071357414 0.011590022 4280125529
-0.019884326 0.017995253 0.00014333893 4281111103
-0.018962108 0.023969643 -0.0057407566 4280981053
-0.017191365 0.024818115 -0.0067841774 4281306434
-0.014905825 0.022739395 -0.0050670328 4281044549
-0.012073241 0.017735489 -0.00059536006 4279870273
-0.0094737373 0.014196828 0.002491653 4280717383
-0.0072614923 0.012853637 0.0035086311 4280520524
-0.0050384253 0.011511289 0.0045236461 4280387413
-0.021682039 0.0148535 0.00071287528 4281827398
-0.020731919 0.020846747 -0.0051631527 4279352623
-0.019451179 0.024634749 -0.008963448 4280393789
-0.017688461 0.025484931 -0.01000376 4281305923
-0.015541445 0.024133068 -0.0089782411 4281045314
-0.01298596 0.020580746 -0.0058914637 4280263739
-0.010538738 0.017763779 -0.0034968401 4280133689
-0.0084836744 0.017148517 -0.0031663994 4280718659
-0.0061419494 0.015067168 -0.0014643725 4280652358
-0.0040705912 0.014453128 -0.0011367891 4280587589
-0.0021397434 0.014572471 -0.0014953651 4280587589
0.00023712963 0.012493618 0.00020038337 4279540558
0.0029328577 0.0089507326 0.0032617114 4278820948
0.0055014789 0.0061420649 0.0056343218 4278948703
-0.023839474 0.013913594 -0.00078914501 4281956939
-0.022869557 0.019925289 -0.0066556884 4280915773
-0.021455862 0.022988059 -0.0097617274 4280654654
-0.019939214 0.025313254 -0.012176153 4279286068
-0.01818452 0.026165042 -0.013213286 4279937338
-0.015916333 0.024072267 -0.011502969 4280393533
-0.01363191 0.021980546 -0.0097955493 4279676473
-0.011196226 0.019154198 -0.0074054478 4280783939
-0.0092899427 0.019271664 -0.0077597303 4280783938
-0.0072431378 0.018653832 -0.0074293381 4280653379
-0.0054771081 0.019506961 -0.0084680868 4281241663
-0.0035705678 0.019624785 -0.0088221552 4278437173
-0.0016639531 0.01974272 -0.0091761565 4279478594
0.0013009235 0.014717422 -0.0047517917 4279282753
-0.025233239 0.020487078 -0.0095206024 4281434953
-0.023816504 0.023558594 -0.012620703 4281046078
-0.022056662 0.024412636 -0.013657306 4280914498
-0.020177893 0.02452787 -0.014006888 4281045313
-0.018425874 0.025381617 -0.015041888 4280914498
-0.016290516 0.0240204 -0.014020917 4281110594
-0.014012087 0.021921813 -0.012317379 4280914753
-0.011717469 0.019824378 -0.010616812 4280784450
-0.0098193735 0.019941323 -0.010969584 4280980543
-0.0079211928 0.020058393 -0.011322289 4280719934
-0.0061658658 0.020913027 -0.012357379 4280459068
-0.0045614727 0.022504695 -0.014073384 4281241409
-0.0026711076 0.022621602 -0.014424386 4281306433
-0.00017666072 0.01979091 -0.012051403 4281111359
0.0024930313 0.016224809 -0.0090017766 4280783938
0.0055023693 0.011187322 -0.0045971386 4280718403
0.0090265498 0.0039429516 0.0018390818 4280847944
0.011957489 -0.00035289675 0.005549497 4280716618
-0.027466148 0.020321958 -0.011692191 4281632324
-0.026275553 0.024884894 -0.016158445 4280132924
-0.024405226 0.024999365 -0.016506644 4280393789
-0.022413485 0.02437304 -0.016169945 4280784448
-0.02029223 0.023006342 -0.015149818 4281175874
-0.018540166 0.023862254 -0.016183166 4281045313
-0.01640527 0.022496648 -0.015165458 4280784703
-0.014391582 0.021872096 -0.014832514 4280849728
-0.012237672 0.020507835 -0.013818129 4280915264
-0.010347772 0.020624273 -0.014169383 4280915519
-0.0085978806 0.02148065 -0.015201948 4280980799
-0.0067104921 0.021597147 -0.015552568 4279025714
-0.0051139593 0.02319264 -0.0172638 4279612979
-0.0032317825 0.023309052 -0.017613273 4281111104
-0.00089702383 0.021208212 -0.015924606 4280784449
0.0017609522 0.017630592 -0.012881176 4280262719
0.005226884 0.010360852 -0.0064508729 4280718914
0.0090643615 0.0016173497 0.0013252413 4280913734
0.012158427 -0.0034298375 0.0057027368 4280913734
0.014633052 -0.0055214241 0.0073659001 4280192593
-0.028914317 0.014960304 -0.0090625212 4282346833
-0.02814588 0.022512347 -0.016263358 4280655928
-0.026736289 0.02560059 -0.019348929 4279937338
-0.024874166 0.025714546 -0.019695619 4279676983
-0.020282693 0.020742171 -0.015609843 4280784704
-0.018401399 0.020857625 -0.01595984 4280980033
-0.016520001 0.020973213 -0.016309775 4280849728
-0.014506597 0.020346448 -0.015978459 4280849983
-0.012756865 0.021204695 -0.017009463 4280915264
-0.010875151 0.021320611 -0.017359212 4280784703
-0.0092732199 0.022920534 -0.019068297 4281046079
-0.0072540864 0.022294581 -0.018737696 4280068408
-0.0059560314 0.025377177 -0.021801598 4280459069
-0.0037914403 0.024009846 -0.020792147 4280198204
-0.0016160496 0.022643238 -0.019784577 4280393278
0.0017970242 0.015348472 -0.013361186 4280653888
0.00557594 0.0065751895 -0.0055942261 4280849474
0.0098955333 -0.0044162944 0.0041895276 4280652614
0.012520149 -0.0072558224 0.0065254336 4281564493
0.014673986 -0.0078725144 0.0068317456 4281953114
-0.030605599 0.011067905 -0.0078120716 4282412623
-0.030021459 0.020135514 -0.016370256 4281243703
-0.028598063 0.023233142 -0.019451842 4281504059
-0.026964769 0.024838373 -0.021164231 4281371714
-0.024868846 0.023461219 -0.020146243 4281241153
-0.022641085 0.02133961 -0.018448658 4280785214
-0.020397089 0.019219063 -0.016753972 4280786488
-0.018263236 0.017844602 -0.015742831 4281111614
-0.016505629 0.018705256 -0.016773827 4281111613
-0.014885008 0.020310313 -0.018483322 4281046589
-0.013275031 0.021914877 -0.020190792 4281046079
-0.011538602 0.022774555 -0.021217601 4281176383
-0.0095278993 0.022145793 -0.02088719 4281241153
-0.0076542087 0.022261418 -0.021235289 4281111104
-0.0059255809 0.02312097 -0.022260377 4281111104
-0.0039066002 0.02249305 -0.021931248 4281175874
-0.0014306568 0.019635186 -0.019574761 4280980544
0.0022923872 0.010832377 -0.01181747 4280784448
0.0068593025 -0.0016819164 -0.00069663767 4280784450
0.010724738 -0.010475658 0.0070344089 4280849474
0.012719654 -0.010351695 0.0066644577 4282085459
-0.031902276 0.017754525 -0.016479211 4281566024
-0.030685283 0.022357769 -0.020920703 4280526388
-0.029049248 0.023967303 -0.022630353 4280525368
-0.027423792 0.025576323 -0.024337936 4281241409
-0.025454529 0.024941955 -0.024002172 4280980798
-0.023238115 0.022813149 -0.022307476 4280199479
-0.020881981 0.019938134 -0.019936236 4280785723
-0.018630438 0.017811649 -0.018247873 4281111870
-0.01687818 0.018674128 -0.019276213 4281112124
-0.015131176 0.019536383 -0.020303506 4280916794
-0.013926417 0.023385003 -0.024039561 4279874099
-0.012200691 0.024246171 -0.025062721 4279026223
-0.010201029 0.023614556 -0.024731936 4278830894
-0.0077690519 0.020744964 -0.022374205 4280589373
-0.0058954172 0.020860709 -0.022722198 4281110848
-0.003874056 0.020230733 -0.022395138 4280915774
-0.0012458861 0.016618691 -0.019371215 4280785214
0.0032455362 0.004062824 -0.0082647316 4280915774
0.0079840049 -0.0092325881 0.0034983847 4280915519
0.01155198 -0.016560785 0.0098599615 4280978503
0.013240691 -0.014945932 0.0081421146 4282279768
-0.032337368 0.01848568 -0.019663792 4281174853
-0.03090772 0.021600828 -0.022733364 4280784959
-0.029386774 0.023964643 -0.025119031 4280459579
-0.027766503 0.025577676 -0.026822384 4280524348
-0.025920875 0.02569057 -0.027166042 4280525369
-0.023713134 0.02355469 -0.025474686 4280525114
-0.021365829 0.020670459 -0.023108467 4280980798
-0.019122973 0.018536992 -0.021423521 4280980799
-0.017250039 0.018651992 -0.021771925 4280915773
-0.015639767 0.020265028 -0.023472868 4280785468
-0.014576443 0.024872746 -0.027875025 4279417139
-0.012861434 0.02573546 -0.02889457 4280458813
-0.010593932 0.023604006 -0.027213752 4279352114
-0.0078838579 0.019228794 -0.023512909 4278569519
-0.0055759326 0.017100088 -0.021839406 4280915009
-0.0033993348 0.015720487 -0.020842187 4280784958
-0.0001606755 0.0091070011 -0.015137084 4280915774
0.0045021363 -0.0042321458 -0.0033899373 4280915519
0.0092616417 -0.017565183 0.0083393576 4280980543
0.012060802 -0.021177076 0.011323513 4282218058
-0.033484012 0.010836139 -0.015015043 4282345813
-0.032235995 0.01546701 -0.019442463 4280978758
-0.030800477 0.018591143 -0.02250649 4281306179
-0.029386282 0.021714099 -0.025566464 4281305924
-0.027878262 0.024083737 -0.027944714 4281436739
-0.025914952 0.023444645 -0.027611196 4281306434
-0.023825653 0.022054181 -0.026601888 4281241663
-0.021725491 0.020664535 -0.025594562 4281045823
-0.019614488 0.019275598 -0.02458914 4280980543
-0.017749727 0.019390099 -0.02493602 4280719933
-0.015884876 0.019504718 -0.025282837 4280133688
-0.014957305 0.024876267 -0.030348908 4281175873
-0.013247635 0.025740765 -0.031365771 4281436228
-0.011264689 0.02510377 -0.031035215 4281045313
-0.0081405938 0.018463388 -0.025324073 4281045569
-0.0056913458 0.015577666 -0.022982774 4280849474
-0.0027785674 0.010442995 -0.018630326 4280913988
0.0007719174 0.0023107827 -0.011599974 4280848454
0.0054504015 -0.01106631 0.00011435337 4280848454
0.0097594149 -0.022188313 0.0098002264 4280848454
0.012568329 -0.025810428 0.01277426 4282346323
-0.033285223 0.0070408657 -0.014130816 4282150229
-0.031814478 0.01017563 -0.017194817 4281631813
-0.030365042 0.013309233 -0.020254819 4281175109
-0.028824627 0.015687205 -0.022634216 4281109573
-0.027185187 0.017309986 -0.024334479 4281240389
-0.025438704 0.01817815 -0.025357183 4281370438
-0.023697451 0.019046068 -0.026378781 4281240644
-0.021838427 0.019159958 -0.026724789 4281175873
-0.019979298 0.019273974 -0.027070735 4280979778
-0.018248431 0.020141572 -0.028090153 4281046845
-0.016522817 0.021008961 -0.029108509 4279220023
-0.015337475 0.024888735 -0.032816011 4279742008
-0.013633147 0.025755052 -0.033830233 4280915009
-0.011516757 0.024362739 -0.032828737 4280523328
-0.0086805671 0.019207947 -0.028473895 4279871549
-0.0055177547 0.012550622 -0.022784803 4280196928
-0.0018650778 0.0036394373 -0.015094407 4280979013
0.0023016259 -0.0075240806 -0.0054072416 4280913224
0.0063963756 -0.017930493 0.0035960125 4280913224
0.0097902343 -0.02457305 0.0092425691 4281304138
-0.032983266 0.0024756864 -0.012579725 4282151249
-0.031714804 0.0071336925 -0.016991053 4281697859
-0.030040614 0.00876268 -0.018694649 4281435463
-0.028489128 0.01114779 -0.021071142 4281370948
-0.026723966 0.01201909 -0.022095716 4281109318
-0.025081538 0.013646506 -0.023793191 4281175364
-0.023329526 0.01451721 -0.024815153 4281045058
-0.021705613 0.016143687 -0.026508953 4281175363
-0.019966803 0.017013855 -0.027528331 4280914244
-0.018489659 0.019395038 -0.029890426 4281044548
-0.016766705 0.020264417 -0.030906633 4281045059
-0.01558337 0.024154864 -0.034605462 4280327999
-0.014017977 0.025778335 -0.036288001 4280393279
-0.012046371 0.025136314 -0.035958663 4280262463
-0.0087946169 0.017701343 -0.029605426 4280458048
-0.0050561652 0.0080058351 -0.021255266 4280782918
-0.0006598644 -0.0047032014 -0.01024427 4280978758
0.0033786856 -0.015143484 -0.001253942 4280913733
0.0068829656 -0.022562355 0.0050527835 4281108809
0.0095106624 -0.025453828 0.0073480392 4281956939
-0.032994322 0.00017128885 -0.013065786 4281758549
-0.031615756 0.0040833876 -0.016793581 4281696839
-0.02982673 0.0049580559 -0.017821129 4281631559
-0.028154857 0.0065913126 -0.019520892 4281370438
-0.026378952 0.0074654147 -0.020545827 4281370948
-0.024842948 0.0098562613 -0.022914303 4281304904
-0.023202874 0.011487909 -0.024607897 4281240389
-0.021573432 0.013119072 -0.026299462 4280914753
-0.019829206 0.013991669 -0.02731815 4280914243
-0.018218309 0.015621915 -0.029006097 4281175618
-0.016748764 0.018009216 -0.031361721 4281110339
-0.015428647 0.021153182 -0.034383599 4281175108
-0.013857692 0.022781279 -0.036063801 4281044548
-0.011881027 0.022137374 -0.03573709 4280718913
-0.0086256899 0.014681026 -0.029401112 4280654145
-0.0041633882 0.0011735037 -0.01773664 4280784449
0.00024873763 -0.011571236 -0.0067568477 4280718913
0.0041540973 -0.021284275 0.0015409002 4281239879
0.0069116503 -0.024942257 0.0044993358 4282346834
0.011877149 -0.029228874 0.0077423463 4282083164
-0.033005655 -0.0021371096 -0.013554943 4281954389
-0.031623729 0.0017859265 -0.017275028 4281631304
-0.029832006 0.0026629493 -0.018301478 4281631304
-0.028157279 0.0043006763 -0.01999848 4281370438
-0.02649314 0.0059378818 -0.021693407 4281500999
-0.024722457 0.0068139508 -0.022715675 4281435464
-0.022837155 0.0069293156 -0.023066688 4281304903
-0.02119679 0.0085654035 -0.02475694 4281240133
-0.019441821 0.009440802 -0.025775978 4281240644
-0.017820008 0.011076033 -0.027462643 4280913989
-0.016208805 0.012710683 -0.029147185 4280718148
-0.014874768 0.015864119 -0.032165032 4280914243
-0.013290215 0.017497346 -0.033844464 4281110084
-0.011300445 0.016852103 -0.033521842 4281175873
-0.0078921728 0.0086157173 -0.026538476 4280915009
-0.003416881 -0.0049299002 -0.014906315 4280914753
0.00100841 -0.017710596 -0.0039571547 4280978758
0.0043301433 -0.024416208 0.0016577439 4281758804
0.0067880042 -0.026567698 0.003278696 4282345049
-0.032602869 -0.0075040981 -0.011361042 4281955408
-0.031313159 -0.0028059557 -0.015746478 4281369164
-0.029728606 -0.00039955229 -0.018114313 4281566533
-0.028048329 0.0012428835 -0.019809067 4281435208
-0.026378661 0.0028847232 -0.021501731 4281370439
-0.024602577 0.0037632212 -0.022523321 4281369929
-0.022712052 0.0038788691 -0.022875316 4281304649
-0.020821407 0.003994666 -0.023227248 4281370439
-0.019180752 0.0056352317 -0.02491419 4281174598
-0.017422967 0.0065130964 -0.025931999 4280979269
-0.015931271 0.0089147016 -0.028281793 4280913478
-0.014189404 0.0097918361 -0.029296529 4280391493
-0.012588568 0.011430398 -0.030975655 4280652358
-0.01030609 0.0092609152 -0.029327556 4281045824
-0.0070194453 0.0017632991 -0.023030609 4281111104
-0.0028161332 -0.01029788 -0.012759345 4281371713
0.0011800937 -0.020831622 -0.0038309945 4281304139
0.0039087944 -0.024513111 -0.0008838987 4282215254
-0.029299408 -0.0057668239 -0.015926795 4281629518
-0.027828515 -0.002588667 -0.018957555 4281434698
-0.026150621 -0.00094202906 -0.020648442 4281303884
-0.024249636 -0.00082585961 -0.02100249 4281042508
-0.022587575 0.00082010776 -0.022690278 4281238604
-0.0206917 0.0009362027 -0.023043193 4281238603
-0.019045494 0.0025813654 -0.024727825 4281304394
-0.017282344 0.0034617111 -0.025744982 4281304393
-0.015784938 0.0058701709 -0.028090909 4280847433
-0.014170602 0.0075137392 -0.029769335 4280978758
-0.012295693 0.0076291338 -0.030117903 4281239624
-0.0098675117 0.0046900213 -0.027812801 4281370439
-0.0062899701 -0.0043556541 -0.020208269 4281501254
-0.0025043115 -0.014160596 -0.011953248 4281697094
0.00076578185 -0.020908415 -0.0063587343 4282022219
0.0030410625 -0.022312075 -0.0054030297 4282673489
-0.025467522 -0.0078506917 -0.017139664 4281432403
-0.023664601 -0.0069662631 -0.018162953 4281237074
-0.022224985 -0.0037810579 -0.021180987 4281500234
-0.020562612 -0.0021307021 -0.022865407 4281434699
-0.019160308 0.0010524616 -0.025876317 4281434699
-0.017269731 0.0011684671 -0.026228063 4281238603
-0.015769314 0.0035835654 -0.02856959 4281239113
-0.014019351 0.0044654682 -0.029582478 4281304393
-0.012139212 0.0045811906 -0.029932003 4281304394
-0.0094302073 0.0001020357 -0.026310809 4281304393
-0.0059848726 -0.0082033947 -0.019389091 4281566534
-0.0026239492 -0.015739523 -0.013139063 4281762119
-8.636713e-05 -0.018680185 -0.010860595 4281825358
0.002175007 -0.020089038 -0.0099056391 4281888853
-0.020068511 -0.0075129047 -0.020704506 4282087243
-0.018776856 -0.0035514534 -0.024374016 4281631303
-0.017130181 -0.0018974617 -0.026052043 4281566023
-0.015624043 0.00052441657 -0.028389625 4281304394
-0.014001306 0.0021771714 -0.030063022 4281434443
-0.012118641 0.002293013 -0.030413043 4281369419
-0.0095460564 -0.0014310107 -0.027462244 4281565769
-0.0061026737 -0.0097602978 -0.020558411 4281761098
-0.002886869 -0.016550452 -0.014983775 4281695309
-0.00049881265 -0.018732443 -0.013369999 4282084438
-0.017648287 -0.012798384 -0.018918453 4282739278
-0.016355857 -0.0088259801 -0.022579728 4281565769
-0.014960378 -0.005625762 -0.025575938 4281500234
-0.013586253 -0.0024267212 -0.028568078 4281500234
-0.011828128 -0.0015399083 -0.029579077 4281565258
-0.0093862638 -0.0045041218 -0.027296394 4281369164
-0.0062204413 -0.01131691 -0.021727512 4281565258
-0.0034357719 -0.015817054 -0.018140094 4281890894
-0.0012022592 -0.017236397 -0.017186692 4282149208
-0.01072881 -0.010020517 -0.024810301 4282347598
-0.0086765364 -0.010674924 -0.024509298 4281890384
-0.005917225 -0.015189707 -0.02092723 4281890384
-0.0035546571 -0.017386407 -0.019318733 4282085458
-0.0053346455 -0.02062393 -0.018826947 4282541908
-0.0032449923 -0.021277979 -0.01853431 4281821534
0.014600914 -0.009366706 0.054442368 4282076788
0.017173637 -0.011354946 0.056162089 4282601834
0.020892255 -0.018283807 0.062795497 4282602344
0.010537017 -0.0026930049 0.045127921 4279521433
0.014506899 -0.0017285198 0.043660793 4278273719
0.025356559 -0.021162599 0.062106758 4281224833
0.0078947321 -0.0023615286 0.042150937 4279455644
0.009032689 0.0020308048 0.037565824 4278603434
0.01076119 0.0035786778 0.035787135 4278865574
0.012954097 0.0029944927 0.036109313 4279258528
0.015957715 -0.0011409149 0.039926108 4278274229
0.019484855 -0.0074046403 0.04583279 4278931108
0.022394691 -0.010825276 0.048938159 4278866083
0.025331426 -0.014244154 0.052038603 4278735268
0.028123258 -0.016951598 0.054437049 4279915409
0.0055648312 -0.003442198 0.040580932 4281225598
0.0065668821 0.0016771331 0.035303604 4278472873
0.010013461 0.0047807172 0.031754751 4278405809
0.012195326 0.0041936636 0.032077309 4278799528
0.014865283 0.0014695302 0.034491349 4278275249
0.02026982 -0.003974393 0.039307695 4278800039
0.022835439 -0.0059821904 0.041014045 4278735268
0.024902282 -0.0058533698 0.040631037 4278407848
0.026794799 -0.0050127357 0.039553121 4279324063
0.028858971 -0.0048838556 0.039170787 4278470068
0.032360766 -0.01044552 0.044340383 4278665654
0.037182283 -0.020982489 0.054356456 4278665653
0.0041128546 0.0013332218 0.033046223 4278735779
0.0058416091 0.0028895363 0.031273957 4278735268
0.017103106 -0.001484111 0.034264408 4278537898
0.01947777 -0.0027856827 0.035275407 4278735014
0.021525644 -0.0026581511 0.034895845 4278603943
0.023059124 -0.00038850307 0.03243487 4278734758
0.026608273 0.0020071715 0.02960059 4278993839
0.02971727 -0.0021469146 0.033378392 4278600119
0.038065992 -0.018293604 0.048521191 4279586714
0.042239245 -0.026004493 0.055730179 4281357179
0.0019594878 -0.00043655932 0.032187998 4279718294
0.0033994988 0.0025596842 0.029024605 4278734248
0.0052675195 0.0034021065 0.027953841 4278995879
0.0074352324 0.0028096139 0.028275512 4278930853
0.0092980154 0.0036519393 0.027205896 4278735014
0.011471219 0.0030599907 0.027526706 4278604453
0.0138104 0.0017516464 0.028540786 4278407593
0.016323622 -0.0002726391 0.030246675 4278669479
0.018521145 -0.00086274743 0.030563232 4278734759
0.020555452 -0.00073605031 0.030186184 4278341548
0.023580151 0.0038137659 0.0252821 4278930089
0.025598368 0.0039397851 0.024908282 4279258784
0.028334055 0.0012031421 0.027297378 4278603434
0.031819444 -0.0043940842 0.032443393 4278865574
0.035717316 -0.011419266 0.038961031 4278538408
0.040418617 -0.021301657 0.048225645 4278539173
8.9678913e-05 -0.0036462545 0.032722123 4280373899
0.0093286261 0.0012993887 0.026673023 4278473129
0.011661917 -1.3776124e-05 0.027684774 4278800549
0.013845623 -0.00060712546 0.028002057 4278603944
0.016034748 -0.0012000725 0.028318457 4278342058
0.018063515 -0.0010738447 0.027942345 4278669479
0.019755397 0.0004895851 0.026184157 4278603944
0.034849279 -0.010232523 0.034944959 4278669478
0.039911859 -0.021580771 0.045563847 4278866848
-0.0013079308 0.0012071282 0.025234658 4279389343
0.00026909634 0.0034978762 0.022779748 4278733993
0.0022704601 0.0036216304 0.022408128 4278931364
0.0042718984 0.0037455112 0.022036575 4278733993
0.0090492442 0.00038585067 0.024753273 4278734248
0.01137938 -0.00093185157 0.025762271 4278866083
0.013560094 -0.0015275702 0.026078433 4278472874
0.015420403 -0.00068074465 0.025012851 4278735014
0.017109778 0.00088670105 0.023258407 4278538664
0.018788423 0.0024536476 0.021506004 4278735014
0.02062732 0.0032994449 0.020444632 4278669224
0.027006973 0.0022353604 0.020704161 4278276013
0.030655015 -0.0041176155 0.026514035 4278538663
0.034904629 -0.012626603 0.034374397 4278735778
0.040154174 -0.024729088 0.045652647 4278801824
0.044735905 -0.033948235 0.05417224 4280177039
-0.0031632222 -0.0019944757 0.025771696 4279129244
-0.00014175102 0.0033250377 0.020177279 4278405809
0.0015608594 0.0048968717 0.018423136 4279389598
0.0035514161 0.0050200596 0.018053584 4279127458
0.008615531 0.00020072609 0.022146698 4278275504
0.011097208 -0.0018452778 0.023843259 4278735014
0.013274927 -0.0024433509 0.024158306 4278669224
0.01464434 0.00057514757 0.021028489 4278472874
0.022336228 0.0025210455 0.018165056 4278735013
0.024692953 0.0012014359 0.019166384 4278538409
0.027239302 -0.00083962828 0.020851653 4278538409
0.031254172 -0.008655943 0.028016455 4278538919
0.03606509 -0.019355997 0.037909642 4278604709
0.041143525 -0.030772626 0.048472356 4278735268
-0.0045323148 0.0029154271 0.018321037 4278933659
-0.0028243251 0.004491739 0.016568989 4278734248
0.0081825256 2.4579465e-05 0.019546933 4278669224
0.010500975 -0.0013025329 0.020551421 4278669479
0.012670334 -0.001903303 0.020866349 4278406828
0.013869639 0.0018487722 0.017057426 4278668713
0.022558261 -0.00055206567 0.018316317 4278538154
0.025095912 -0.0026002899 0.019998115 4278472874
0.028185766 -0.0068205521 0.023729496 4278538919
0.032396164 -0.015384071 0.031557072 4278867103
0.037591368 -0.027563684 0.042788643 4278801568
0.041757368 -0.035394177 0.049907375 4280374919
0.044466861 -0.037431024 0.051557764 4282143598
0.00043832138 0.0060433671 0.011870046 4278343588
0.0027104616 0.0047086626 0.012879579 4278278053
0.0052967444 0.0019182935 0.015262212 4278343078
0.0077502094 -0.00014254451 0.016953874 4278603689
0.0095917061 0.00070934743 0.015896577 4278668968
0.011587597 0.00083330274 0.015526376 4278275249
0.013096295 0.0031400844 0.013099653 4278602924
0.014754012 0.004718557 0.011361063 4278799784
0.016736582 0.0048420206 0.010993599 4278472108
0.022606499 -0.0029066876 0.017777745 4278799273
0.025497874 -0.0064147338 0.020820215 4278276523
0.028951712 -0.012100734 0.025905427 4278670244
0.033535816 -0.022142306 0.035075013 4278670243
0.038379032 -0.032905295 0.04491229 4279588243
0.041996688 -0.038580686 0.049967442 4281488504
-0.0005597882 0.0088288635 0.0065479232 4279591049
0.0019933879 0.0060276464 0.0089299502 4278934933
0.0045681298 0.0032278821 0.011308062 4279064984
0.0068560354 0.0018900856 0.012311452 4278801313
0.0086841211 0.0027433038 0.011258307 4278669988
0.010666441 0.0028663948 0.010890613 4278603944
0.014466278 0.0038425028 0.0094720786 4278340019
0.016613632 0.0032363757 0.0097880131 4278667949
0.019106997 0.0011721626 0.011467853 4278274739
0.025898863 -0.01024197 0.021632798 4278931618
0.029894363 -0.018131085 0.028746162 4278735523
0.034130003 -0.026744992 0.036529116 4279129244
0.038246356 -0.03462629 0.043620303 4281095294
0.041303262 -0.038134396 0.04662421 4281947504
0.043819658 -0.039456382 0.047586467 4282471783
0.0099063739 0.0041894689 0.0069541549 4278606494
0.022183567 -0.0054343268 0.014650707 4278538153
0.026298877 -0.014081962 0.022435799 4278735268
0.030656844 -0.023456365 0.0308883 4278932384
0.034541987 -0.030634023 0.037291627 4280505989
0.037930131 -0.035616398 0.041650288 4281816179
0.040797099 -0.038405076 0.043968759 4282536808
0.014056481 0.00137043 0.0063846977 4278737054
0.016200531 0.0007597506 0.0066979108 4278539174
0.018689916 -0.0013176426 0.0083684539 4278472874
0.022576695 -0.0092614517 0.015465208 4278669734
0.026873251 -0.018667929 0.023907382 4278932128
0.031239623 -0.028069913 0.032336649 4279522709
0.034410842 -0.032336958 0.036013167 4281619318
0.037247464 -0.035136327 0.038330507 4282209134
0.016412064 -0.0023146644 0.0068506105 4278540703
0.019415598 -0.0066056475 0.01054784 4278539173
0.023313813 -0.014572494 0.017624136 4278735778
0.027796652 -0.024741866 0.026719101 4279915664
0.031643238 -0.03196533 0.033096213 4281619319
0.034460254 -0.034774676 0.035410445 4282143854
0.037115507 -0.036847651 0.037045781 4282340458
0.016956862 -0.0068737492 0.0083497567 4278671518
0.020309264 -0.012652986 0.01338694 4278473638
0.024393927 -0.021380521 0.02111768 4278932383
0.028368058 -0.029366352 0.02816176 4281226108
0.031690478 -0.034398526 0.032497458 4282012529
0.034509353 -0.037216425 0.034804694 4282274669
0.036800496 -0.037821524 0.035087891 4282602343
0.017166786 -0.0099693313 0.0084866425 4278867358
0.021031484 -0.017985977 0.015532472 4278867359
0.025299592 -0.027478747 0.023914944 4279129499
0.029112993 -0.034747668 0.030264843 4280702594
0.031914942 -0.037575416 0.032568458 4281946993
0.03455814 -0.039662182 0.034195937 4282602344
0.017542679 -0.013815723 0.0092902752 4279195289
0.021752067 -0.023340382 0.017661922 4279326359
0.025859289 -0.032118462 0.025348626 4280505733
0.029157579 -0.037182562 0.029665422 4281554039
0.031784028 -0.039277047 0.031290937 4282405484
0.018416965 -0.019908734 0.012098783 4280048518
0.022471009 -0.028716214 0.01977529 4278999449
0.026074026 -0.035286613 0.02542853 4281095039
0.029201854 -0.039621465 0.029062975 4281946993
0.019289292 -0.02602756 0.014887982 4281358199
0.02285037 -0.032620154 0.020533942 4281356923
0.026288124 -0.038463138 0.025502156 4280569993
0.02889714 -0.040571801 0.027120847 4282078064
0.01966127 -0.029925145 0.015653174 4282013038
0.022891141 -0.035039194 0.019947596 4282012273
0.025987111 -0.039402105 0.023567908 4280897158
0.02876696 -0.042265929 0.025848933 4281814903
0.01986634 -0.033084311 0.015742317 4282143598
0.022931609 -0.037462227 0.019358244 4282143599
0.025686461 -0.040336393 0.02163716 4282601578
0.017033506 -0.031859063 0.012214077 4282276198
0.019904973 -0.035498492 0.015160195 4282143598
0.022803295 -0.039136149 0.018101431 4282209133
0.014704619 -0.032882117 0.010688121 4282145383
0.017233081 -0.035022207 0.012301362 4282144109
0.019943299 -0.037916712 0.014575041 4282470764
0.014578674 -0.034531467 0.0094496338 4281031034
0.017106473 -0.036678083 0.011058009 4281684598
0.019815864 -0.039581291 0.013325206 4282601833
0.011627261 -0.03250552 0.0052818647 4282144364
0.014452755 -0.036180489 0.0082113957 4282012274
0.016979896 -0.038333662 0.009814891 4281684598
0.0087047257 -0.030455761 0.0011256672 4282276199
0.011502359 -0.034143396 0.0040519685 4282209389
0.0141671 -0.037066899 0.0063139638 4282274414
0.016690906 -0.039226733 0.0079131192 4282732648
0.004901804 -0.023792103 -0.0069746887 4281752939
0.0082723796 -0.03055276 -0.0014134757 4281881713
0.010906756 -0.033486895 0.00084742159 4282143598
0.013722219 -0.037184112 0.0037622005 4282470764
0.0016080216 -0.019378647 -0.013075418 4281360238
0.0044771694 -0.023860291 -0.0094934097 4280244104
0.0078407377 -0.030640788 -0.0039458275 4280964224
0.010468919 -0.033583961 -0.001690425 4282208879
0.0013391115 -0.020193994 -0.014922134 4280440964
0.0043556467 -0.025458142 -0.010693337 4280702084
0.0075636767 -0.031489022 -0.0058159158 4281553529
0.010031767 -0.033671997 -0.0042215623 4282273138
0.00092220306 -0.020233013 -0.017420243 4280111758
0.0040831119 -0.026284188 -0.012547433 4280963969
0.0072869621 -0.032332562 -0.0076825581 4282667368
-0.0014409646 -0.020383477 -0.019550189 4280246144
0.00095057487 -0.02258461 -0.017951857 4280243084
0.003961809 -0.027879305 -0.013745308 4280963458
0.017894022 -0.041210763 -0.0092848213 4282470508
0.01994974 -0.043488897 -0.010232781 4282011253
