# .PCD v0.7 - Point Cloud Data file format
VERSION 0.7
FIELDS x y z rgba
SIZE 4 4 4 4
TYPE F F F U
COUNT 1 1 1 1
WIDTH 976
HEIGHT 1
VIEWPOINT 0 0 0 1 0 0 0
POINTS 976
DATA ascii
-0.0096964315 -0.0030262694 0.0030732434 4287837238
-0.0079601817 -0.0021778271 0.0019444525 4287575353
-0.0064002648 -0.00062080845 0.00011610426 4286986048
-0.027344592 -0.013831988 0.01397172 4287511603
-0.025412209 -0.013691545 0.013537312 4287576119
-0.023479655 -0.013550997 0.013102932 4287575864
-0.021399982 -0.014123142 0.013373172 4287706679
-0.019614041 -0.013269573 0.01223428 4287771958
-0.017833248 -0.012416318 0.011096664 4287706424
-0.016057648 -0.011563338 0.0099602919 4287706424
-0.013972044 -0.012134612 0.010229455 4287968054
-0.012041226 -0.011993587 0.0097959209 4288164404
-0.0099473782 -0.012564071 0.010063378 4288098868
-0.0085103735 -0.010288432 0.0075282697 4287902773
-0.0069209933 -0.0087250099 0.0056965109 4287771958
-0.0053421557 -0.0071623102 0.0038672388 4287837239
-0.0036003031 -0.0063110963 0.0027389769 4287837239
-0.0015112162 -0.0068813898 0.0030079056 4288033588
0.00058328733 -0.0074511915 0.0032756943 4287706933
0.0025016442 -0.0073102675 0.0028455649 4287707953
0.0044200793 -0.0071692169 0.0024155173 4287512878
-0.027345225 -0.016141966 0.013511041 4287707954
-0.025410302 -0.016001374 0.013076033 4287772213
-0.023475215 -0.015860677 0.012641056 4287445304
-0.021539941 -0.015719861 0.012206124 4287510328
-0.019604512 -0.015578941 0.011771223 4287706934
-0.017821014 -0.014723286 0.010634584 4287772213
-0.016042672 -0.013867959 0.0094992183 4287771958
-0.01411213 -0.013727091 0.0090656392 4287837749
-0.011861317 -0.015014112 0.010032056 4287902773
-0.010087896 -0.014158785 0.0088979881 4287902773
-0.0084850565 -0.012590185 0.0070664641 4288033843
-0.0067247003 -0.011735663 0.0059355218 4287968309
-0.0049695633 -0.010881402 0.0048058424 4288098868
-0.0032196641 -0.010027401 0.0036773589 4288033589
-0.0011228994 -0.010599367 0.0039429497 4288361008
0.0011579767 -0.011883438 0.0049031135 4288034353
0.003268227 -0.012454167 0.0051657893 4287968818
0.0048317984 -0.010887712 0.0033436324 4288361773
0.006571468 -0.010033965 0.002217887 4288165169
0.008116506 -0.008468613 0.00039999373 4288296494
0.0098429769 -0.0076156221 -0.00072262622 4288230958
0.011564162 -0.0067629144 -0.0018439796 4288100654
0.013477419 -0.0066217333 -0.0022724811 4287839023
0.014990665 -0.0050583072 -0.0040829368 4287839533
0.016695965 -0.0042064488 -0.005200495 4288035628
0.018395964 -0.0033548847 -0.0063167857 4288232234
0.019882621 -0.0017930977 -0.0081210416 4287512623
-0.027484745 -0.017738268 0.012344178 4287969838
-0.02540873 -0.018315256 0.012611706 4287968818
-0.02361498 -0.017457053 0.011474207 4287641653
-0.021533296 -0.018033437 0.011740608 4287249209
-0.019595325 -0.017892361 0.011305111 4287445303
-0.01765722 -0.01775118 0.010869659 4287510839
-0.015873484 -0.016893283 0.0097347256 4287771958
-0.013937734 -0.016752049 0.0092999674 4287575864
-0.012001842 -0.016610727 0.0088652465 4287771958
-0.0099033006 -0.017185256 0.0091283284 4287902773
-0.0082948916 -0.015611865 0.0072987843 4287902774
-0.0065291375 -0.014754772 0.0061682742 4287837749
-0.0047686137 -0.013897955 0.0050390214 4287968563
-0.0030133128 -0.013041422 0.0039110109 4287903539
-0.00091155246 -0.013615191 0.004173765 4288165168
0.0011956245 -0.014188468 0.0044353846 4288230704
0.0033082142 -0.014761209 0.0046958905 4287903539
0.0048747025 -0.013190195 0.0028763507 4288230704
0.006803602 -0.013048299 0.0024440158 4288230703
0.0083542392 -0.011478238 0.00062819012 4288165678
0.010086086 -0.010622635 -0.00049403869 4288034863
0.011812672 -0.0097673535 -0.0016149562 4288165678
0.013731129 -0.0096257776 -0.00204462 4287969838
0.015249971 -0.0080576316 -0.0038529988 4288034608
0.016960658 -0.0072031543 -0.0049701557 4288100143
0.018666051 -0.0063489974 -0.0060859993 4288165425
0.02057394 -0.0062078014 -0.0065129902 4287641908
0.022692315 -0.0067789555 -0.0062529016 4287577139
0.024602877 -0.0066373274 -0.0066803154 4287511858
0.026729252 -0.0072077066 -0.0064218007 4287512113
-0.027762592 -0.018614307 0.01047596 4287839534
-0.025830582 -0.018473983 0.010041563 4287904049
-0.023754694 -0.019053154 0.010307556 4287772723
-0.021966055 -0.018193021 0.0091728661 4287380534
-0.019884512 -0.018771566 0.0094377473 4287445559
-0.017949179 -0.018630609 0.0090028998 4287510838
-0.015859351 -0.019208297 0.0092660375 4287706934
-0.013921078 -0.0190669 0.0088306926 4287837749
-0.011982661 -0.018925399 0.0083953924 4287903028
-0.010044109 -0.018783785 0.0079601444 4287837749
-0.0082704276 -0.017924055 0.0068294089 4288033843
-0.0063342974 -0.017782405 0.0063948631 4287968563
-0.0049090348 -0.01548779 0.0038772933 4288034099
-0.0033266544 -0.013911687 0.0020571556 4287968818
-0.0010522343 -0.015205078 0.0030120797 4288099889
0.0010546148 -0.015780553 0.0032721218 4287903539
0.0033478588 -0.017072409 0.0042230207 4288099889
0.0049172565 -0.015496776 0.002406083 4287968818
0.0068486929 -0.015354708 0.0019731615 4288230959
0.0084022507 -0.013780057 0.00015999004 4288165423
0.010520101 -0.014354184 0.00041797198 4288230959
0.012060445 -0.012780309 -0.0013920851 4288165423
0.013984092 -0.012638368 -0.001822928 4288230959
0.015508514 -0.011065394 -0.0036292952 4288230703
0.017224608 -0.010208383 -0.004745977 4288295983
0.018935394 -0.0093516633 -0.0058613848 4287968818
0.021263719 -0.010639772 -0.004917549 4287838003
0.023182139 -0.010497674 -0.0053468067 4287641908
0.025100559 -0.01035548 -0.0057759881 4287772723
0.026803367 -0.0094988942 -0.0068892762 4287903793
0.028719103 -0.0093566701 -0.0073176846 4287642419
0.030192928 -0.0077865645 -0.0091120675 4288034863
-0.020322084 -0.018924706 0.0068762135 4286792759
-0.01824072 -0.019505322 0.0071395095 4286858039
-0.016153872 -0.020085476 0.0074016917 4287511859
-0.014218375 -0.01994431 0.0069669597 4287642163
-0.012442242 -0.019082412 0.0058370959 4287904049
-0.010509145 -0.018941224 0.0054030456 4287838513
-0.0084111169 -0.019520134 0.0056630429 4287838003
-0.0063076504 -0.0200985 0.0059218537 4288099378
-0.0047091506 -0.018516928 0.0041012596 4287903284
-0.0031211898 -0.016936071 0.0022831522 4287903539
-0.0010174215 -0.017514087 0.0025421362 4288034608
0.00073552504 -0.016653188 0.0014180895 4287968818
0.0030255802 -0.017949566 0.0023663789 4287968818
0.0049594678 -0.017807454 0.0019328091 4287968818
0.0070795491 -0.018383861 0.0021885261 4288034353
0.00863868 -0.016804427 0.00037733093 4288034353
0.010570094 -0.016662143 -5.5419281e-05 4288099889
0.012307458 -0.015801705 -0.0011754623 4288230704
0.014039531 -0.014941573 -0.002294248 4288165169
0.015168019 -0.011928745 -0.0054703299 4288230704
0.017083602 -0.011787191 -0.0058992002 4288230704
0.019203961 -0.012362771 -0.0056430101 4288165169
0.021329667 -0.012937829 -0.0053879283 4287903284
0.023250617 -0.012795553 -0.0058177579 4287837748
0.024958823 -0.011936508 -0.0069306921 4287837749
0.026661694 -0.011077732 -0.0080423448 4287510839
0.028577296 -0.010935515 -0.0084707178 4287707444
0.030272137 -0.010077134 -0.0095804185 4287838514
-0.011135295 -0.018367052 0.0021596942 4287513134
-0.0090455934 -0.018948726 0.0024198517 4288166188
-0.0069504455 -0.019529894 0.0026788674 4288362284
-0.0051897392 -0.01866658 0.0015544705 4288165678
-0.0034342483 -0.01780355 0.00043132529 4288165678
-0.0015087277 -0.017662376 -6.1281025e-07 4288034609
0.00041687489 -0.017521083 -0.0004324941 4287968563
0.0027037337 -0.018822104 0.0005131904 4288230194
0.0050013363 -0.02012226 0.0014565978 4287837748
0.0067519024 -0.019258976 0.00033493899 4287969074
0.0084972084 -0.01839602 -0.0007854281 4288034608
0.010237243 -0.017533332 -0.0019045128 4288099888
0.012359813 -0.018111378 -0.0016508056 4287968818
0.014094617 -0.017248847 -0.0027685491 4288165169
0.015425641 -0.0149469 -0.0052542165 4287969074
0.017346419 -0.014804959 -0.0056842547 4287903539
0.019267213 -0.014662914 -0.0061142091 4288034099
0.021395262 -0.015240036 -0.0058612647 4288034099
0.022898953 -0.013659418 -0.0076560564 4287903284
0.024817105 -0.013517238 -0.0080851763 4287837749
0.026520036 -0.012656286 -0.0091951974 4287641654
0.028217625 -0.01179561 -0.010303933 4287510583
0.029468764 -0.0094986856 -0.012771051 4287445303
0.0044936687 -0.020271458 -0.0010823524 4288496159
0.0062389709 -0.01940643 -0.0022011409 4288756514
0.0077906288 -0.017818876 -0.0040040379 4288166189
0.0095227174 -0.016954564 -0.0051197531 4288100653
0.011830688 -0.018257871 -0.00418163 4288100653
0.013363831 -0.016671285 -0.0059801573 4288165934
0.015085403 -0.015807457 -0.0070932163 4287904048
0.017205078 -0.016387559 -0.0068402542 4287838259
0.01933011 -0.0169672 -0.006588365 4287706934
0.021253448 -0.016824849 -0.0070188036 4287903538
0.0227574 -0.015239857 -0.0088103656 4288099378
0.024675414 -0.015097678 -0.0092394482 4287707189
0.026378404 -0.014234543 -0.010347838 4287576374
0.028293738 -0.014092326 -0.010776138 4287641653
0.029327646 -0.011068158 -0.013917195 4287314998
0.010915332 -0.016945988 -0.008070969 4287578924
0.013222795 -0.018253557 -0.0071359901 4287905578
0.015143268 -0.01811175 -0.007566045 4287970093
0.017466789 -0.019417949 -0.0066344468 4287642418
0.018984284 -0.017827824 -0.0084259259 4287380278
0.02090482 -0.017685682 -0.0088557433 4287510838
0.022406371 -0.016096547 -0.010643426 4287445049
0.024533745 -0.016677812 -0.010393493 4287446069
0.026451617 -0.016535521 -0.010822453 4287642163
0.028369479 -0.016393125 -0.011251319 4287446324
0.029406704 -0.013359979 -0.014386531 4287708208
-0.012646124 -0.054366127 -0.0040668007 4286267203
-0.01068072 -0.054222837 -0.0045082923 4286332484
-0.014292568 -0.058400527 -0.0028016409 4286136644
-0.012631867 -0.056741104 -0.0045808163 4286594623
-0.010663953 -0.056597635 -0.005022889 4286659904
-0.0085343868 -0.057211518 -0.0047981311 4286593603
-0.0068919584 -0.055553049 -0.0065729301 4286920514
-0.0050932243 -0.054652333 -0.0076797064 4286789698
-0.003299702 -0.053751856 -0.008785205 4286593604
-0.0011671036 -0.054364964 -0.0085607972 4286528068
-0.012773942 -0.058360107 -0.0057641184 4286397763
-0.010806184 -0.058216661 -0.0062061613 4286463554
-0.0088383071 -0.058073074 -0.0066481186 4286790719
-0.0067063197 -0.058688857 -0.0064254804 4286986813
-0.0047355741 -0.0585448 -0.0068678921 4287248699
-0.0029340573 -0.057641558 -0.0079736169 4287052604
-0.0011377558 -0.056738585 -0.0090780165 4287445049
0.00082793832 -0.056594521 -0.0095190126 4287575864
0.0026164167 -0.055691861 -0.010621453 4288426798
0.0045795962 -0.055547744 -0.0110617 4288623914
0.0065428391 -0.055403501 -0.011501869 4288034353
0.0085061453 -0.055259101 -0.011941941 4287314488
0.010469496 -0.055114582 -0.012381935 4287379513
0.012623493 -0.055727392 -0.01216328 4287248953
0.015362598 -0.058611587 -0.0099718366 4286333248
-0.012604341 -0.061503276 -0.0056177517 4286266948
-0.010789901 -0.06059745 -0.0067250645 4286332483
-0.0089806579 -0.059691831 -0.007831159 4286659648
-0.0068490207 -0.060309827 -0.0076100891 4286790719
-0.0048784316 -0.060165815 -0.0080524823 4287117884
-0.0030768774 -0.059260376 -0.0091565643 4287183419
-0.0012805387 -0.058355227 -0.010259328 4287314234
0.00068499893 -0.058211207 -0.010700306 4287445303
0.0026506148 -0.058067009 -0.011141183 4287968819
0.0046162941 -0.057922721 -0.011581993 4288295983
0.0067644529 -0.058538556 -0.011363992 4287838259
0.0087329186 -0.058393769 -0.01180522 4287707444
0.010889176 -0.059008785 -0.011588788 4287772979
0.013241194 -0.060382888 -0.010716538 4287576118
0.016183048 -0.064034551 -0.007877483 4287183673
-0.0091229714 -0.061310291 -0.0090139685 4286528578
-0.0069916919 -0.061930493 -0.008794467 4286659649
-0.0051875226 -0.061022811 -0.009897585 4286790464
-0.0030507222 -0.061642334 -0.0096791154 4287117884
-0.001423277 -0.059971571 -0.011440424 4287379513
0.00071633607 -0.060590573 -0.011222429 4287641654
0.0025075488 -0.059683397 -0.012322224 4288361264
0.0046526305 -0.060301758 -0.012105263 4287903538
0.0066208802 -0.060157128 -0.012546542 4287904049
0.0087740794 -0.060774662 -0.012331161 4288231214
0.010932632 -0.061391652 -0.012116938 4288034353
0.013476968 -0.063531846 -0.010593056 4287576118
0.016037282 -0.065670699 -0.0090726987 4287248699
-0.0071343109 -0.063550837 -0.009978625 4286528324
-0.0053301118 -0.06264101 -0.01108013 4286593604
-0.0035311282 -0.061731473 -0.012180313 4287182909
-0.0015659854 -0.061587602 -0.012621301 4286986813
0.00057327747 -0.062208824 -0.012404873 4287575608
0.0027179495 -0.062829554 -0.012189521 4287575864
0.0048679933 -0.063449726 -0.011975325 4287576374
0.0068414062 -0.063304745 -0.012417785 4287641908
0.0088148713 -0.063159592 -0.01286013 4287772979
0.010788381 -0.063014343 -0.013302415 4287511093
0.013141952 -0.064397037 -0.012437089 4287314488
-0.0058044195 -0.062722899 -0.013577483 4287116354
-0.0038421899 -0.062579393 -0.014017927 4287116608
-0.0018798597 -0.062435731 -0.014458287 4287116864
0.0002563931 -0.06305936 -0.014242838 4287181633
0.0023980439 -0.063682444 -0.014028485 4286855234
0.0045450889 -0.064305052 -0.013815216 4287182909
0.0065156743 -0.064160272 -0.014257035 4287248188
0.0084863193 -0.064015351 -0.014698765 4287052349
0.010644168 -0.064636715 -0.014487657 4287315253
0.012807377 -0.065257564 -0.014277644 4287314234
0.0081581809 -0.064866357 -0.016534016 4286987068
0.010126058 -0.064721525 -0.016975038 4287313213
0.012473218 -0.066113442 -0.016114812 4287770428
0.012532584 0.015601367 0.02890471 4283331388
0.013302743 0.019763879 0.024129197 4283726893
0.014239363 0.023254476 0.020083625 4283860768
0.016959097 0.020718127 0.022543263 4283860514
0.007782001 0.023265854 0.018046085 4282544204
0.0094962679 0.024078695 0.01689655 4283595823
0.011009701 0.025563315 0.015026512 4283730718
0.012116082 0.028390897 0.011716677 4283661104
0.014607374 0.026515404 0.013455361 4283726384
0.017521806 0.023298267 0.01663034 4283860514
0.020875389 0.01874065 0.021238089 4283925029
0.023848556 0.01552802 0.024400037 4283990564
0.026425295 0.013659187 0.02611978 4284121378
0.029891664 0.01528902 0.023813259 4283924518
0.03095815 0.018114284 0.020512827 4283924264
0.033336647 0.016917568 0.021511752 4283861023
0.0063116699 0.026413163 0.011846194 4282938178
0.0083927549 0.025877895 0.012143897 4283729188
0.0098931491 0.027365914 0.010280073 4283603219
0.011184908 0.029527223 0.0076992232 4283665438
0.013263457 0.028992048 0.0079976302 4283664673
0.015754085 0.027110053 0.0097315107 4283795488
0.01846678 0.024555827 0.012179615 4283926814
0.02078345 0.023349764 0.013188766 4283990309
0.022899434 0.022817668 0.01347903 4284056353
0.025020763 0.022286054 0.013768161 4284056609
0.026280647 0.024445571 0.011194872 4284057884
0.027963223 0.025259083 0.010054629 4283859493
0.030084526 0.024727663 0.010343989 4283792683
0.033334613 0.020836364 0.014199883 4283858219
0.037298776 0.014931872 0.020187542 4283795998
0.047488794 0.014312323 0.019437432 4283922479
0.048705544 0.016469426 0.016874388 4283925029
0.0056034438 0.026884109 0.0085478183 4283200574
0.0072912425 0.027699353 0.0074075013 4283859238
0.0091689155 0.027837837 0.0069869142 4283730719
0.010650977 0.029328952 0.0051305536 4283664673
0.0127239 0.028791167 0.0054285619 4283796254
0.014802203 0.028253818 0.0057254713 4283992348
0.017503327 0.025690015 0.0081695002 4283991074
0.019600343 0.025154205 0.0084623378 4284056098
0.021702699 0.024618922 0.0087540038 4284055844
0.023168894 0.026109338 0.0069015548 4283991074
0.024840923 0.02692415 0.0057653207 4283799059
0.026288444 0.028413298 0.0039172154 4283796254
0.028390769 0.027878331 0.004209131 4283794214
0.03094741 0.025995255 0.0059238076 4283794214
0.034428678 0.021417137 0.010480277 4283926559
0.037487581 0.018189639 0.013607014 4283992349
0.040340617 0.015637871 0.01601772 4284055844
0.042039081 0.016455203 0.014876001 4284056098
0.042780809 0.01996538 0.01089973 4284056609
0.043014776 0.024819862 0.0055127703 4283860003
0.044670362 0.02563425 0.0043808166 4283794468
0.048041373 0.021739472 0.008200258 4283794469
0.052935313 0.013812162 0.016252082 4283797529
0.0048964098 0.027368525 0.0052592047 4283859238
0.0065763071 0.028185373 0.0041223112 4283990819
0.0084458776 0.028323257 0.0037035346 4283860003
0.010513127 0.027782777 0.0040010922 4283860003
0.012385458 0.027921027 0.0035818201 4283991074
0.014460783 0.027381303 0.0038776938 4284056863
0.016747113 0.026164165 0.0048869662 4283990818
0.018835822 0.025625594 0.0051799659 4284056353
0.020718908 0.025764966 0.0047585331 4284056353
0.022388376 0.026581688 0.0036244597 4283990819
0.024052501 0.027398089 0.0024916381 4283926303
0.025273342 0.029567968 -6.2979758e-05 4283863064
0.027143069 0.029706687 -0.00048116781 4283927579
0.029685684 0.027816011 0.0012316909 4283928853
0.032925166 0.023897765 0.0050701946 4283992348
0.035966981 0.020658057 0.0081924926 4283990308
0.038570814 0.018772185 0.0098918583 4284056099
0.040015735 0.020266064 0.0080479756 4284055844
0.040737014 0.023785679 0.0040845554 4284058138
0.041191261 0.027978666 -0.00057957042 4283861278
0.043071251 0.028118789 -0.00099956989 4283792939
0.045688055 0.026234323 0.00069715269 4283858219
0.049562301 0.020977601 0.0059152246 4283859238
0.053228144 0.016398635 0.010419503 4283925794
0.056170285 0.013845433 0.012804199 4284056099
0.058108438 0.013990298 0.012371518 4284056099
0.059787482 0.014809176 0.011236317 4284056099
0.059891291 0.019669868 0.0058905296 4283924518
0.061014827 0.021833871 0.0033586919 4283925538
0.063724026 0.019956909 0.0050353128 4283729443
0.0030736364 0.025003323 0.0052664001 4282477138
0.0047588907 0.025822645 0.0041298736 4283859493
0.0060546845 0.028003762 0.001562858 4283794978
0.0081135929 0.02746038 0.0018605608 4283796254
0.010375302 0.02623683 0.0028717965 4283862299
0.012447633 0.025694614 0.0031666253 4283925794
0.014525343 0.025152832 0.0034603495 4284056609
0.016608402 0.024611577 0.003752904 4284056863
0.018696805 0.024070797 0.0040443148 4284056353
0.020369031 0.024889825 0.0029112138 4284056608
0.021609047 0.027067525 0.00035714172 4283990564
0.023481371 0.027206268 -6.1754137e-05 4283925029
0.025134914 0.028024165 -0.0011904873 4283925284
0.027225977 0.027483998 -0.00089935306 4283925284
0.029770564 0.025586914 0.00080811605 4283925284
0.03255789 0.023012625 0.0032201875 4283925028
0.035137065 0.021118321 0.0049200002 4284121889
0.037267998 0.020581413 0.0052025206 4284121889
0.038465109 0.022756591 0.0026585478 4284056099
0.039408721 0.025608355 -0.00058749039 4284056099
0.040330932 0.028458599 -0.0038286922 4283993624
0.042445593 0.027920846 -0.0035423357 4283928088
0.044810954 0.026706444 -0.0025531016 4283993369
0.048179291 0.022785351 0.0012472067 4283993368
0.05132876 0.019543409 0.0043377019 4284057629
0.053744487 0.018333007 0.00531587 4284056099
0.05489023 0.020505022 0.0027838722 4284056098
0.055761099 0.023352006 -0.00044542924 4283991074
0.056349088 0.026873361 -0.0043702517 4283926814
0.05823078 0.027014276 -0.0047901282 4283858983
0.06064586 0.025804272 -0.0038115578 4283791918
0.064957455 0.019867994 0.0020549092 4283793958
0.0029360615 0.023455488 0.0041356105 4283003713
0.0044321753 0.024960442 0.0022858474 4283794214
0.0059176944 0.026464697 0.00043852814 4283665948
0.0077817254 0.026602142 2.0971522e-05 4283731739
0.010040283 0.025373984 0.0010296088 4283665949
0.012309548 0.024146693 0.0020359103 4283798294
0.014386956 0.0236027 0.0023280513 4283990819
0.01626448 0.023741497 0.0019077398 4284056353
0.018349916 0.023198301 0.0021981597 4284056098
0.020019569 0.024019329 0.0010672864 4283990818
0.021257404 0.026203429 -0.0014813412 4283990819
0.022911057 0.027023444 -0.0026085032 4283925284
0.02477793 0.027161868 -0.0030261176 4283860514
0.027087266 0.02593823 -0.002028266 4283925284
0.029855061 0.02335366 0.00038150512 4283990818
0.032417592 0.021451451 0.0020800792 4284056609
0.034537595 0.0209115 0.0023632813 4284121889
0.035967156 0.022412941 0.00052941032 4284121889
0.037386011 0.023913609 -0.0013019741 4284056098
0.038556889 0.026093505 -0.0038350476 4283990309
0.03971171 0.028272245 -0.0063644284 4283991329
0.041820738 0.027731907 -0.0060784491 4283925028
0.044180259 0.026512749 -0.005091249 4283925283
0.04704617 0.023936247 -0.0027028294 4283990819
0.049933311 0.021361414 -0.00031908695 4283990053
0.05233521 0.020145632 0.00065888464 4284056098
0.053724024 0.021644786 -0.0011653202 4284055843
0.054584935 0.024499802 -0.0043857703 4283990054
0.055424392 0.027353294 -0.007601371 4283862043
0.057034101 0.028171536 -0.0087175835 4283861788
0.059438035 0.026956324 -0.0077397497 4283861279
0.063198619 0.022354484 -0.0032793293 4283926559
0.068899617 0.013014358 0.0060476381 4283927069
0.0020530298 0.024651268 0.00014960207 4283201338
0.0037277974 0.025474211 -0.00098133367 4283730718
0.0052056015 0.026982261 -0.0028236303 4283793959
0.0072559081 0.026433853 -0.0025273198 4283727404
0.009508647 0.02520084 -0.001520643 4283794469
0.011971779 0.023283875 0.00019451231 4283860003
0.014248595 0.022052813 0.0011959262 4283991329
0.016126007 0.022191588 0.00077562779 4284056353
0.018003449 0.022330459 0.00035540015 4284056098
0.019670509 0.023153519 -0.00077328738 4284056609
0.020693136 0.02602786 -0.0040242998 4283991329
0.022125829 0.02753339 -0.0058559598 4283993879
0.024202976 0.026987744 -0.0055650705 4283796764
0.026948564 0.024392696 -0.0031570038 4283796763
0.029715467 0.02179933 -0.00075363088 4283925794
0.032050915 0.020573426 0.00023520365 4284056353
0.03416796 0.020031042 0.00051747262 4284056098
0.035595149 0.021536697 -0.0013125548 4284122144
0.036777258 0.023723872 -0.0038431911 4284056353
0.037943296 0.025909977 -0.0063702231 4284056864
0.03957269 0.02673116 -0.0074897194 4283991074
0.041923791 0.02550694 -0.006503989 4283924774
0.044530533 0.023602063 -0.0048197927 4283925029
0.04715316 0.021698501 -0.0031391261 4283990818
0.049541332 0.020477258 -0.0021614395 4284121889
0.05143398 0.020618729 -0.002583961 4284121889
0.053070817 0.021440968 -0.0037047397 4284121633
0.053927094 0.024304412 -0.006917526 4284056098
0.054500896 0.027846638 -0.010822618 4283991074
0.056366406 0.027986402 -0.011238836 4283926813
0.059030868 0.026086556 -0.0095670614 4283992859
0.063056327 0.020789403 -0.0044218283 4283991838
0.06875442 0.011418495 0.0048826896 4283991584
-0.00086488947 0.026416864 -0.0041210083 4282675019
0.00098541752 0.026553035 -0.004535689 4283925029
0.0026469529 0.027377134 -0.0056619719 4283799313
0.0044947267 0.027513286 -0.0060759597 4283862043
0.0063425526 0.027649526 -0.0064898944 4283860258
0.0085841231 0.026411297 -0.0054840343 4283860513
0.010636881 0.025861049 -0.0051897997 4283993624
0.013301548 0.023250666 -0.0027706828 4284057629
0.015168186 0.023388637 -0.0031885738 4284056099
0.017242357 0.022840247 -0.0028989287 4284056099
0.018901525 0.023664864 -0.0040241545 4284057374
0.020129666 0.025861379 -0.0065606954 4283926049
0.021557322 0.027370872 -0.0083878729 4283858983
0.023410657 0.0275083 -0.0088024512 4283793448
0.026147354 0.02490386 -0.0063989935 4283929364
0.029128868 0.0216158 -0.0032963557 4283925793
0.031458482 0.020385101 -0.0023095096 4284056608
0.033569876 0.01984017 -0.0020276662 4284056354
0.035223544 0.020665102 -0.003151115 4284056608
0.036169291 0.023543224 -0.0063778423 4284056609
0.037093647 0.026419831 -0.0095997266 4283926559
0.038715139 0.027242623 -0.010715798 4283732759
0.041057754 0.026013382 -0.0097314101 4283666713
0.044390313 0.022050235 -0.0059528612 4283928343
0.046764739 0.020823583 -0.0049754959 4283924774
0.049149744 0.019597754 -0.004000389 4283990563
0.050786778 0.020422183 -0.0051196441 4284121889
0.052418381 0.021246243 -0.0062375851 4284121888
0.053270027 0.024118114 -0.0094427112 4284122144
0.054361071 0.026305925 -0.011947399 4283991073
0.055962995 0.027128018 -0.013058521 4283925028
0.058890253 0.024539288 -0.010696574 4283924773
0.062645197 0.019906454 -0.0062579112 4283990819
0.069152199 0.0084594302 0.0051043183 4283990563
-0.0013671182 0.026270483 -0.0066592712 4282871879
0.00029177219 0.027096476 -0.0077833822 4283924773
0.001945395 0.027922172 -0.0089062471 4283925283
0.0035937466 0.028747605 -0.010027906 4283794978
0.0058187693 0.027503688 -0.0090217162 4283927579
0.0080544986 0.026260694 -0.0080178995 4283992604
0.010300938 0.025018541 -0.0070163663 4284057119
0.012558077 0.023777314 -0.0060172053 4284055844
0.014621254 0.023225816 -0.0057268292 4284056099
0.016482476 0.02336348 -0.006143434 4284055844
0.01813373 0.024189711 -0.0072652316 4284057118
0.019141709 0.027080497 -0.010499798 4283993369
0.020774301 0.02790552 -0.011617284 4283859238
0.022837505 0.027354468 -0.01132658 4283858218
0.025567975 0.024740834 -0.008928325 4283859748
0.028096439 0.022816345 -0.0072370544 4283992349
0.030414883 0.021580454 -0.0062510027 4284122144
0.032743964 0.020345401 -0.0052672224 4284056098
0.034621034 0.020485051 -0.0056867618 4284056354
0.035562135 0.023371585 -0.0089058336 4284057118
0.036245201 0.026943101 -0.012819359 4283927069
0.037619468 0.028453834 -0.014630745 4283794213
0.040434867 0.025847223 -0.012250943 4283729699
0.043760795 0.021870486 -0.0084808031 4283797784
0.046624012 0.019267611 -0.0061115539 4283859748
0.048758537 0.018722929 -0.005835983 4284121889
0.050645646 0.018864047 -0.0062572248 4284056098
0.052022047 0.020375423 -0.0080686444 4284056353
0.052613754 0.023940813 -0.011961243 4283991074
0.053699959 0.026134895 -0.014459916 4283926558
0.055823259 0.025589768 -0.014181468 4283863573
0.058749616 0.022992272 -0.011825893 4283927069
0.062503055 0.018344063 -0.0073984219 4283991584
-0.001136031 0.023362594 -0.0063524386 4283134529
0.00052827597 0.024191158 -0.007476124 4283857963
0.0021873191 0.025019422 -0.0085985623 4283857708
0.0038410947 0.025847379 -0.0097197574 4283990054
0.0056833662 0.025983196 -0.01013246 4283990053
0.0077221431 0.025427438 -0.0098384786 4283990308
0.0097662993 0.024872188 -0.0095456177 4284056099
0.011614032 0.025008658 -0.0099593531 4284056353
0.013461791 0.025145242 -0.010373008 4284055588
0.01572381 0.023900131 -0.0093780681 4283990053
0.017367139 0.024728 -0.010496488 4284056099
0.018792707 0.026245989 -0.012316664 4283993879
0.020207606 0.027763292 -0.014134377 4283927579
0.022265173 0.027209658 -0.013844047 4283927833
0.024768949 0.025276728 -0.012152322 4283994133
0.027065601 0.024034724 -0.011164718 4284056354
0.029372875 0.022793639 -0.010179469 4284056099
0.031233884 0.022932015 -0.010595479 4284056099
0.033094846 0.023070486 -0.011011404 4284056099
0.034254424 0.025275694 -0.013522121 4283928853
0.03563438 0.026791159 -0.015331523 4283859493
0.037003621 0.028305877 -0.01713842 4283792938
0.039329223 0.027066689 -0.016156863 4283793704
0.042398751 0.023764057 -0.013089852 4283859493
0.045741968 0.019775581 -0.0093333432 4283926048
0.047868185 0.019228123 -0.0090575479 4284056353
0.049999632 0.018681146 -0.0087828562 4284056098
0.051115882 0.020883892 -0.011283388 4284056353
0.05195827 0.023772566 -0.014473156 4283925283
0.05303964 0.025972866 -0.016965779 4283796764
0.055157296 0.025425199 -0.016687747 4283797273
0.058343198 0.022131987 -0.013646173 4283796764
0.062629327 0.016095594 -0.0078482125 4283798038
-0.00035689399 0.018361557 -0.0039277254 4283200828
0.001506418 0.018498644 -0.0043453518 4283595824
0.0029932745 0.020024743 -0.0061766244 4283793449
0.0044695362 0.021550126 -0.0080053955 4283859748
0.0063223653 0.02168671 -0.0084204692 4283925794
0.0081752464 0.021823384 -0.0088354917 4283990563
0.010028165 0.021960147 -0.0092504546 4284055334
0.011881121 0.022097021 -0.0096653486 4284055334
0.013734106 0.022233978 -0.010080182 4284055334
0.015587106 0.022371039 -0.010494944 4283990054
0.017230522 0.023201093 -0.011611735 4283989799
0.018444117 0.025416158 -0.014130116 4283989799
0.020071553 0.026245173 -0.015243147 4283924264
0.021911228 0.026381614 -0.015654651 4283924264
0.024191387 0.025133979 -0.014666767 4283989798
0.026259271 0.024579095 -0.014380267 4284055844
0.028332459 0.02402471 -0.014094872 4284056098
0.029954446 0.024853785 -0.015206335 4284121889
0.031801973 0.024991246 -0.015619262 4284121888
0.03294871 0.02720209 -0.018122129 4283992603
0.034551866 0.028030064 -0.019229231 4283927579
0.036388554 0.028167006 -0.019639522 4283927324
0.038708337 0.026923001 -0.018659901 4283992604
0.041282933 0.024989612 -0.01698833 4283993624
0.04436728 0.021677241 -0.013932746 4284056354
0.046729438 0.020436704 -0.012962436 4284055844
0.049102161 0.01919705 -0.011994412 4284055843
0.049701098 0.022784814 -0.015872134 4284056099
0.051045995 0.02430271 -0.017669816 4283926559
0.051859636 0.027198128 -0.020846525 4283792938
0.054492138 0.025269652 -0.019187363 4283792683
0.057671614 0.021965064 -0.016152581 4283859493
0.062755182 0.013843 -0.008301001 4283860258
0.00023758411 0.014035903 -0.0022253916 4283266873
0.0022968426 0.01347686 -0.0019395454 4283595823
0.0037973002 0.015008327 -0.0037705665 4283596078
0.0054779015 0.015842624 -0.0048944782 4283859494
0.0067664236 0.018069156 -0.0074252263 4283925028
0.0088232607 0.017510314 -0.0071385503 4283925029
0.01028927 0.01903962 -0.0089615695 4284056099
0.012147445 0.019176871 -0.009377636 4283990563
0.013801586 0.020009678 -0.01049527 4283990053
0.015863862 0.019451641 -0.010209583 4283991074
0.017512707 0.020284247 -0.011325887 4283990819
0.018944159 0.02181147 -0.013140813 4283925283
0.020364955 0.023337953 -0.01495324 4283990309
0.022209853 0.023474779 -0.015365912 4283923754
0.024054734 0.023611696 -0.015778514 4283923499
0.026122307 0.023054624 -0.015493579 4283922734
0.027969804 0.023191912 -0.01590663 4283922733
0.029361164 0.024716679 -0.017712118 4283791153
0.0307418 0.026240777 -0.019515192 4283923243
0.03234512 0.027070835 -0.020620687 4284056098
0.033943053 0.027900591 -0.021724906 4284056099
0.036013015 0.027344245 -0.021440091 4283925538
0.038329624 0.026095649 -0.020463053 4283925538
0.040656809 0.024847968 -0.019488359 4283990308
0.043487996 0.022216544 -0.017131712 4283990054
0.045592278 0.021663137 -0.016854279 4284055844
0.047197718 0.022493996 -0.017959762 4284121889
0.048288301 0.024707969 -0.020444637 4284056099
0.04962017 0.026229288 -0.02223609 4283863828
0.050941244 0.02774993 -0.024025112 4283861533
0.053039655 0.027196482 -0.023745991 4283860513
0.056470074 0.023189008 -0.020028301 4283926048
0.062076539 0.013658352 -0.010818826 4283926813
0.0008305423 0.0096928701 -0.00053568743 4282673743
0.0029001459 0.00913243 -0.00025386363 4283661358
0.0045994222 0.0099701881 -0.0013803877 4283727404
0.0061028935 0.011506286 -0.0032086726 4283858728
0.0075957514 0.013041738 -0.0050345566 4283858728
0.0092738643 0.013878215 -0.0061561251 4283924518
0.010946691 0.01471439 -0.0072764466 4283924263
0.012815412 0.014852419 -0.0076948749 4283990054
0.0144803 0.015688203 -0.0088132638 4283990308
0.016552925 0.015128747 -0.0085315462 4283990819
0.018212514 0.015964329 -0.009648608 4283925538
0.019866776 0.016799621 -0.010764403 4283925028
0.021515694 0.017634645 -0.011878977 4283925029
0.022942096 0.019166015 -0.01368928 4283859239
0.02457767 0.020000197 -0.014800683 4283924519
0.026652934 0.019441515 -0.014519113 4283924773
0.028283125 0.020275492 -0.015629169 4283924773
0.029907936 0.021109205 -0.016737994 4283925539
0.031066354 0.023333944 -0.019233631 4283924519
0.032441892 0.024862144 -0.021032177 4283924264
0.034278423 0.024999013 -0.021442477 4283923243
0.036114894 0.025135962 -0.0218527 4283989799
0.038192488 0.024578065 -0.021571118 4283989799
0.040519163 0.023326004 -0.020599585 4284055844
0.042609904 0.022769313 -0.020320844 4284056098
0.044456709 0.022907414 -0.020733088 4284055843
0.045799743 0.024433784 -0.02252385 4284055843
0.047132 0.025959479 -0.024312183 4284122144
0.048710667 0.026790719 -0.025409892 4283925029
0.050024059 0.028315151 -0.027193828 4283992604
0.052376658 0.027065657 -0.026227608 4283992859
0.055535272 0.023737721 -0.02320463 4283991838
0.06139867 0.01348279 -0.01333008 4284056864
0.0010573082 0.0067354031 -0.0002650246 4282805578
0.0027619079 0.0075756609 -0.0013912227 4283792683
0.0044612586 0.0084155761 -0.0025161328 4283727658
0.0061553419 0.009255223 -0.0036397744 4283858729
0.0076511502 0.010795213 -0.0054629771 4283858983
0.0095276758 0.0109336 -0.0058833165 4283924008
0.011205897 0.011772405 -0.0070032328 4283924264
0.01307983 0.011910811 -0.0074228365 4283924263
0.014750119 0.012749169 -0.0085407952 4284055079
0.01682777 0.012187902 -0.0082618482 4283924263
0.018492771 0.01302607 -0.0093784723 4283924263
0.020575762 0.012465399 -0.0091005694 4283924774
0.022021107 0.014002442 -0.010911884 4283924519
0.023672776 0.014839914 -0.012025304 4283858728
0.025319096 0.015677094 -0.013137447 4283792429
0.027404709 0.015117012 -0.012859836 4283792174
0.028820645 0.016652301 -0.014664326 4283858983
0.030453553 0.017488766 -0.015773261 4283924519
0.031850759 0.019022822 -0.017573368 4283990563
0.03370323 0.019160777 -0.017987303 4283925029
0.035319977 0.019996382 -0.019092444 4283925283
0.036931343 0.020831633 -0.02019627 4283925794
0.038778294 0.020969473 -0.020608749 4283925794
0.040625162 0.021107402 -0.021021143 4283860259
0.042718258 0.020548731 -0.020744553 4283858728
0.044318646 0.021383539 -0.021845648 4283858473
0.045661971 0.022914317 -0.023633156 4283924008
0.046740212 0.02514052 -0.026105337 4283989543
0.048316304 0.025973789 -0.027200796 4283990054
0.050146591 0.026111037 -0.027609061 4283990054
0.051976748 0.026248364 -0.028017238 4284055843
0.054866642 0.023604538 -0.02568638 4284056098
0.060453974 0.014011346 -0.016518794 4284056098
0.0012833253 0.0037694424 -6.4074993e-07 4283133763
0.0028085336 0.0053156726 -0.0018273573 4283924264
0.004698094 0.0054547191 -0.0022508455 4283924774
0.0063975751 0.00629697 -0.0033741044 4283924264
0.008091785 0.0071388856 -0.0044960687 4283924009
0.0097807199 0.0079805106 -0.0056167729 4283923754
0.011662491 0.0081193894 -0.0060382122 4283989034
0.013142701 0.0096628815 -0.0078544067 4283989289
0.014815729 0.01050368 -0.0089713633 4283989289
0.016483454 0.011344124 -0.010087033 4283989289
0.018563464 0.010780949 -0.0098101851 4283924009
0.020648818 0.010218229 -0.009534413 4283857963
0.02231122 0.011058632 -0.0106487 4283858219
0.023968296 0.011898696 -0.011761675 4283792428
0.025620027 0.012738455 -0.012873383 4283858474
0.027710656 0.01217657 -0.012598535 4283858729
0.029357001 0.013016127 -0.013708891 4283858474
0.030997982 0.01385539 -0.014817971 4283858983
0.032863714 0.013994269 -0.015234917 4283990308
0.034729391 0.014133222 -0.015651796 4283925029
0.036359563 0.014971979 -0.016758235 4283925538
0.037746213 0.016509958 -0.018552499 4283925283
0.039362922 0.017347902 -0.019655785 4283860003
0.04097423 0.018185526 -0.020757798 4283860003
0.043072343 0.017625064 -0.020483969 4283859494
0.044678144 0.018462468 -0.021584611 4283860003
0.046278507 0.019299619 -0.022684002 4283860259
0.04761935 0.020834699 -0.024467569 4283925538
0.049462959 0.020972878 -0.02487886 4283926048
0.051047023 0.02180903 -0.025974369 4283926303
0.053149831 0.021249492 -0.025701152 4283991328
0.055522595 0.019992925 -0.024745915 4283991329
0.061115008 0.010369584 -0.015602531 4283991073
0.0013266504 0.0015008114 -0.00044246484 4283199554
0.0028547943 0.0030515976 -0.002266557 4283924008
0.0045596175 0.0038962737 -0.0033894023 4283924774
0.0064491257 0.0040354058 -0.0038128095 4283793449
0.0081460625 0.0048797503 -0.004933781 4283923754
0.010033008 0.0050188974 -0.005356458 4283924009
0.01191999 0.0051581487 -0.0057790717 4283923498
0.0134058 0.0067064278 -0.0075932154 4283989289
0.014677692 0.0089583211 -0.010100158 4283989034
0.016551431 0.0090969019 -0.010519573 4283989034
0.018633798 0.008531671 -0.010244861 4283923498
0.020721488 0.0079669878 -0.0099713039 4283857963
0.022172701 0.0095132515 -0.011777371 4283923754
0.024046449 0.0096522272 -0.012196491 4283858219
0.025700923 0.010494381 -0.013307159 4283858474
0.028015837 0.0092275739 -0.012343403 4283858474
0.029442988 0.010772455 -0.014143787 4283858474
0.031313971 0.010911625 -0.014561987 4283858473
0.033184912 0.011050895 -0.014980095 4283990054
0.035288393 0.010488179 -0.014709469 4283924774
0.036926635 0.011329729 -0.015816055 4283924773
0.038559493 0.012170978 -0.01692136 4283925283
0.040186942 0.01301191 -0.018025389 4283859493
0.041808993 0.013852552 -0.019128133 4283859494
0.043425612 0.014692932 -0.02022963 4283859239
0.045533996 0.014131118 -0.019959616 4283859239
0.047145102 0.014971264 -0.021059748 4283859493
0.048750792 0.015811063 -0.022158546 4283925284
0.050351042 0.016650546 -0.023256062 4283925029
0.052205082 0.016789626 -0.023669593 4283859749
0.053797107 0.017628685 -0.02476513 4283925029
0.056177348 0.016368359 -0.023814829 4283858729
0.062042065 0.0060153566 -0.014014732 4283858474
0.0053566135 -0.0012001395 -0.001041811 4284313904
0.0070695654 -0.00035259128 -0.0021647587 4284248878
0.0089696608 -0.00021259114 -0.0025904737 4284184874
0.01047964 0.0013416708 -0.0044069346 4284250409
0.01237449 0.0014815032 -0.0048313132 4284119338
0.013668142 0.0037414506 -0.0073382538 4284053803
0.015148923 0.0052938275 -0.0091478974 4283857964
0.016619056 0.0068454966 -0.010955095 4283858218
0.018703751 0.0062783137 -0.010682592 4283922988
0.020793786 0.0057116076 -0.010411216 4283922989
0.022461683 0.0065567493 -0.011523383 4283923243
0.024557039 0.0059906393 -0.011253046 4283988523
0.026000518 0.007540863 -0.013053883 4283923498
0.028098503 0.0069751665 -0.012783973 4283923754
0.029753003 0.0078197159 -0.013892835 4283924009
0.031629194 0.0079592913 -0.014312187 4283924264
0.033505343 0.0080989599 -0.014731452 4283858728
0.035381444 0.0082387216 -0.015150636 4283858983
0.037022419 0.0090827234 -0.016256209 4283924774
0.038658015 0.009926375 -0.017360467 4283859493
0.040528599 0.010066032 -0.017778186 4283925284
0.042156056 0.010909274 -0.018880473 4283859238
0.043778103 0.011752203 -0.019981487 4283924774
0.045643106 0.011891745 -0.020397732 4283859239
0.04775906 0.011328489 -0.020130999 4283859493
0.049880236 0.010765713 -0.019865371 4283924774
0.051493887 0.011608414 -0.020964203 4283925284
0.053361136 0.0117485 -0.021380667 4283924774
0.054966569 0.01259077 -0.02247753 4283924774
0.057623975 0.01062518 -0.020853445 4283858983
0.063768588 -0.0004612878 -0.010401563 4283858729
0.014330171 -0.00064977258 -0.0057042735 4284249388
0.015821874 0.00090776384 -0.007513077 4283987503
0.017302925 0.0024646595 -0.0093194554 4283987503
0.018981542 0.0033125654 -0.010432535 4283987503
0.021076588 0.0027440563 -0.010163921 4284053294
0.022963421 0.0028839186 -0.010586034 4284054569
0.02528267 0.0016084947 -0.0096299974 4283989543
0.026299331 0.0045788921 -0.01280685 4283989034
0.028180793 0.0047186613 -0.013227531 4284054569
0.02961383 0.0062726811 -0.015022576 4283989289
0.03171676 0.0057053715 -0.014755268 4283989288
0.033365928 0.0065519251 -0.015861126 4283924009
0.035241902 0.0066916905 -0.016280271 4283858728
0.037117824 0.006831564 -0.01669932 4283924774
0.038993686 0.0069715381 -0.017118277 4283859748
0.040629275 0.0078175142 -0.018220851 4283925284
0.042259481 0.0086631738 -0.019322081 4283925284
0.04388427 0.0095085055 -0.020422047 4283925029
0.045751818 0.009648256 -0.020838849 4283990054
0.047619276 0.009788096 -0.021255553 4283990054
0.049740132 0.0092231445 -0.020991474 4283924774
0.051353872 0.010068048 -0.022088673 4283924519
0.053479839 0.0095036812 -0.021825582 4283924519
0.055088013 0.010348365 -0.022921389 4283859238
0.058275707 0.0069681667 -0.019946024 4283924263
0.028484035 0.001748547 -0.012987885 4284248368
0.029922672 0.0033073574 -0.014780882 4284314668
0.031577282 0.0041564107 -0.015886376 4284250664
0.033455849 0.004296273 -0.016306171 4284185639
0.035102375 0.0051449314 -0.017409703 4284120869
0.03697817 0.0052848049 -0.017828718 4283990053
0.03885391 0.0054247715 -0.018247645 4283925029
0.040729575 0.0055648424 -0.018666474 4284055589
0.042362507 0.0064129345 -0.019766703 4284055589
0.043990038 0.0072606802 -0.020865612 4283990563
0.045612153 0.0081081241 -0.021963233 4283990564
0.047730133 0.0075406954 -0.021700224 4283990309
0.05010666 0.0062666237 -0.020759188 4283924774
0.05172579 0.0071141869 -0.021855958 4283924774
0.053598132 0.0072547048 -0.022273522 4283990309
0.055470355 0.0073953271 -0.022690972 4283924263
0.058926225 0.0032982454 -0.019048013 4283990309
0.032117214 0.00047390908 -0.014967016 4284641834
0.03354539 0.0020365231 -0.016754208 4284577573
0.035426445 0.002176702 -0.017174464 4284251684
0.037307445 0.0023169741 -0.017594632 4284252194
0.039188389 0.0024573505 -0.018014705 4284187169
0.041069258 0.00259782 -0.018434688 4284252194
0.042707607 0.003448464 -0.019534433 4284121379
0.044095412 0.005008731 -0.021312185 4284056353
0.045720268 0.005858589 -0.022408752 4283990308
0.047590151 0.0059986487 -0.022825969 4283925283
0.04971303 0.0054295249 -0.022565607 4283990053
0.051841147 0.0048608519 -0.022306297 4284055588
0.053974472 0.0042927042 -0.022048116 4284055334
0.055590801 0.0051424243 -0.023142403 4284055079
0.059311762 0.00032394379 -0.018834557 4284055589
-0.045256406 -0.019150458 0.013680041 4284050233
-0.043680146 -0.016846932 0.011127049 4284510764
-0.041880131 -0.015986957 0.0099890567 4284640049
0.048200913 0.002321817 -0.021922056 4284709663
0.050331458 0.0017511137 -0.021665033 4284448543
0.052211661 0.0018921718 -0.022084385 4284251684
0.053833522 0.0027444139 -0.023178313 4284251938
0.05571083 0.0028854534 -0.023596868 4284317219
0.05969651 -0.0026589036 -0.018627252 4284185893
-0.045051605 -0.022913016 0.014632741 4282346323
-0.043817624 -0.018431328 0.0099686086 4282154819
-0.041897953 -0.018292718 0.0095363744 4282089539
-0.040100291 -0.017430671 0.0084006004 4282090048
-0.03818287 -0.017292045 0.0079690032 4282024259
-0.036392771 -0.016430393 0.0068351235 4282220864
-0.034477584 -0.016291738 0.0064041782 4282678588
-0.032562211 -0.016152956 0.0059732702 4282939708
-0.030375592 -0.017458744 0.0069434643 4283200828
-0.028316349 -0.018041477 0.0072113462 4283265855
-0.026251592 -0.018623702 0.0074780583 4283983423
0.060080431 -0.0056502223 -0.018426193 4284512039
-0.044847883 -0.026688397 0.01557599 4282085204
-0.043604895 -0.022193015 0.01091967 4281761098
-0.041796759 -0.021328211 0.009783132 4281827654
-0.040115714 -0.019738205 0.0079459026 4281762629
-0.038195744 -0.01959943 0.0075137056 4281370694
-0.036402926 -0.018735394 0.0063807927 4281565768
-0.034485199 -0.018596575 0.0059492514 4281892934
-0.032699965 -0.017732948 0.0048182309 4282155328
-0.030784525 -0.017594099 0.0043873619 4282219588
-0.028730914 -0.018179446 0.0046548359 4282089029
-0.02667179 -0.018764347 0.0049211904 4281958213
-0.024893828 -0.017900787 0.0037920736 4282219333
-0.022975042 -0.01776129 0.0033607539 4283132233
-0.044872947 -0.029020213 0.015105639 4282085969
-0.043626294 -0.024511501 0.010458302 4281696073
-0.041696221 -0.024372205 0.010023661 4281631304
-0.040131465 -0.022049814 0.0074881427 4281435463
-0.038084447 -0.022638358 0.0077550504 4281566534
-0.036286227 -0.021771833 0.0066225883 4281697094
-0.034233481 -0.022359744 0.006888371 4281761863
-0.032572672 -0.020766497 0.0050592441 4281957449
-0.030787192 -0.019900553 0.0039298311 4282283339
-0.029006831 -0.019034915 0.002801694 4282085713
-0.026950702 -0.019622199 0.0030670054 4281434189
-0.025175333 -0.018756732 0.0019401349 4281435464
-0.023259334 -0.018617451 0.0015094299 4281434953
-0.021194734 -0.019203804 0.0017730687 4281826633
-0.018973544 -0.020515248 0.0027293265 4282088008
-0.017202862 -0.019649692 0.0016038343 4282676548
-0.015593819 -0.018059209 -0.00021297671 4284181049
-0.044898324 -0.031356081 0.014632242 4282151759
-0.043647982 -0.026834108 0.0099939667 4281630539
-0.041715384 -0.02669467 0.0095587317 4281500234
-0.040025853 -0.025095351 0.0077260844 4281500488
-0.038098142 -0.024956077 0.0072921012 4281435464
-0.036297195 -0.02408722 0.0061606355 4281567553
-0.034242116 -0.02467718 0.0064242166 4281826123
-0.032446109 -0.023808479 0.0052940175 4281956683
-0.027088903 -0.02120392 0.0019107852 4281565004
-0.025170535 -0.021064609 0.0014794413 4281369928
-0.023106404 -0.021653354 0.0017414913 4281369673
-0.020888552 -0.022969469 0.0026950687 4281500998
-0.018961743 -0.022829235 0.0022620559 4281631558
-0.017188333 -0.021961316 0.0011375863 4282024004
-0.01557637 -0.020366281 -0.00067660492 4283984444
-0.043670014 -0.029160775 0.0095265824 4281499469
-0.041853651 -0.028288946 0.0083930511 4281565003
-0.040163875 -0.02668529 0.0065636095 4281565259
-0.038112178 -0.027277917 0.0068261269 4281565003
-0.036181726 -0.027138375 0.0063915774 4281630539
-0.03438051 -0.026267245 0.0052617528 4281761354
-0.032584429 -0.025396369 0.0041331705 4281956684
-0.02694688 -0.024246804 0.0021406282 4282152269
-0.025023319 -0.024107143 0.001708094 4281564748
-0.023099594 -0.023967363 0.0012756065 4281434698
-0.021027662 -0.02455759 0.001534272 4281370438
-0.018950246 -0.025147304 0.0017917901 4281500999
-0.01717414 -0.024277054 0.00066833198 4281762885
-0.015247166 -0.024136603 0.00023544207 4283984699
0.01480348 -0.01896733 -0.0094014062 4284575789
0.017123803 -0.020278104 -0.0084723784 4283463989
0.018842861 -0.019409828 -0.009581455 4283005244
0.020556625 -0.018541873 -0.010689209 4283592253
0.022265064 -0.017674193 -0.011795696 4284114494
-0.042880639 -0.036634043 0.01393309 4281761099
-0.041161582 -0.035024047 0.012100257 4281760588
-0.039574198 -0.032680459 0.0095743332 4281759313
-0.037754722 -0.031806059 0.0084418692 4281563729
-0.036066934 -0.030198075 0.0066163354 4281628754
-0.03426034 -0.02932439 0.0054869354 4281760334
-0.032458894 -0.028450944 0.0043587182 4282019923
-0.025019355 -0.026425421 0.0012397822 4281956429
-0.023238324 -0.025552943 0.00011661835 4281760333
-0.021314584 -0.025413096 -0.00031582359 4281303628
-0.019089624 -0.026737362 0.00062961318 4281173578
-0.017160267 -0.026596867 0.00019608252 4281960253
-0.015386626 -0.025724515 -0.00092510134 4284312629
0.014662568 -0.020546809 -0.01055517 4283727914
0.01678123 -0.021133542 -0.010306931 4282418234
0.018293915 -0.019535102 -0.012090703 4281959235
0.020002402 -0.018665351 -0.013195631 4282155583
0.021705557 -0.017795846 -0.01429933 4282416193
0.023826946 -0.018381938 -0.014051295 4282677060
0.025739212 -0.018240057 -0.01447899 4282872133
0.027434358 -0.017370798 -0.015580636 4283526464
0.028904419 -0.015774824 -0.017354347 4283852863
0.030586218 -0.014906354 -0.018452782 4284574768
-0.038260266 -0.043120362 0.016729444 4282542674
-0.03665629 -0.040768966 0.014204787 4282151504
-0.035194457 -0.037682593 0.010991091 4281825103
-0.03349559 -0.036069319 0.0091663823 4281890384
-0.032202333 -0.032249689 0.0052696019 4282150739
-0.030532323 -0.030638345 0.003451582 4282279768
-0.025015734 -0.028747752 0.00076849572 4281955409
-0.023231983 -0.02787295 -0.00035366416 4281759824
-0.021453381 -0.026998401 -0.0014745835 4281564748
-0.019228958 -0.028327093 -0.00053234398 4281434698
-0.017299727 -0.028186634 -0.00096585974 4282155839
-0.015526019 -0.027312107 -0.0020854194 4284180538
0.014521681 -0.022125997 -0.011708717 4283008814
0.016238173 -0.021253705 -0.012813964 4281567044
0.017949365 -0.020381704 -0.013917948 4281436229
0.019861482 -0.020240173 -0.014345872 4281435973
0.021773614 -0.020098537 -0.014773718 4281501253
0.023897311 -0.020686612 -0.01452791 4281566534
0.025812099 -0.020544536 -0.01495616 4281566534
0.027509978 -0.019672923 -0.016056716 4281109829
0.028982941 -0.018072322 -0.01782782 4281371713
0.030667461 -0.017201476 -0.018925212 4281568064
0.032346621 -0.016330905 -0.020021323 4281437248
0.034247965 -0.016189255 -0.020446137 4281894463
0.036609687 -0.017504349 -0.019532029 4282156859
0.038749132 -0.018090308 -0.019289022 4282679608
0.04065831 -0.017947726 -0.019715322 4282941239
0.043043837 -0.019260764 -0.018806241 4283267894
0.046403386 -0.023483425 -0.015231288 4283855669
-0.024870276 -0.031811334 0.0009817481 4281167968
-0.023225963 -0.030197047 -0.00082694925 4281169243
-0.021297164 -0.030056857 -0.0012605488 4281366869
-0.019368224 -0.029916525 -0.0016940832 4281432914
-0.017286338 -0.030512422 -0.0014424827 4282219078
