# .PCD v0.7 - Point Cloud Data file format
VERSION 0.7
FIELDS x y z rgba
SIZE 4 4 4 4
TYPE F F F U
COUNT 1 1 1 1
WIDTH 978
HEIGHT 1
VIEWPOINT 0 0 0 1 0 0 0
POINTS 978
DATA ascii
-0.0023294576 0.024803018 0.036063332 4289668648
0.00043279678 0.020856697 0.040107995 4289014828
0.0036404505 0.014883183 0.046335649 4288229939
-0.029604867 0.0058773048 0.056817338 4287379259
-0.027970105 0.0087166987 0.053530164 4287968308
-0.026550807 0.012916673 0.048777167 4288231469
-0.025263391 0.01779563 0.043295376 4288296748
-0.024423301 0.025394745 0.034884673 4288035118
-0.023537159 0.032310128 0.027217574 4288100654
-0.022273436 0.036501482 0.022491477 4289473573
-0.020378694 0.03661038 0.022165827 4290127139
-0.018144131 0.034679487 0.024036258 4290322978
-0.015893251 0.03274959 0.025903922 4289799208
-0.013744675 0.031500384 0.027037729 4289472298
-0.011706512 0.030931339 0.027439095 4289407018
-0.0095388032 0.02968332 0.028569762 4289537834
-0.0073602013 0.028436042 0.029698566 4289276204
-0.0049118996 0.025831401 0.03228404 4289603624
-0.0023098253 0.022549216 0.035594601 4289733928
0.00045410544 0.018589977 0.039628878 4289472809
0.0036629625 0.012597006 0.045841184 4289014828
-0.027990028 0.0064179935 0.053035162 4287313213
-0.026373394 0.0092650205 0.049757849 4288165934
-0.024778113 0.012110863 0.046484303 4288492843
-0.023613371 0.017686564 0.040285591 4288362283
-0.022806533 0.025307667 0.031899065 4288165933
-0.021628067 0.030195644 0.026447937 4288492844
-0.020045683 0.032352448 0.02392656 4289800229
-0.017913952 0.031097727 0.025059815 4289669159
-0.015887067 0.030525703 0.025461309 4289079853
-0.0137362 0.029272255 0.026591327 4289210414
-0.011695556 0.028701125 0.026990619 4289145134
-0.0096494183 0.028130421 0.027388971 4289341739
-0.0075977631 0.0275601 0.02778643 4289799719
-0.0051528737 0.024946569 0.030365746 4289734184
-0.0026862994 0.022334356 0.032941394 4289865763
-6.3419342e-05 0.0190426 0.036240026 4289538854
0.0024491735 0.016433198 0.038807891 4289080108
-0.026293576 0.0062857233 0.049997333 4287838259
-0.024692394 0.0091405548 0.046729408 4288165934
-0.023521103 0.014733914 0.040542986 4288230959
-0.022602439 0.021694403 0.032903831 4288230958
-0.021522433 0.027282674 0.026733216 4288296238
-0.019934282 0.029446216 0.024215896 4289341738
-0.017910473 0.028871756 0.024616171 4289668649
-0.015881136 0.028297674 0.02501554 4289209903
-0.013846282 0.027723981 0.025414016 4288882483
-0.011684883 0.026466809 0.026538942 4288686644
-0.0096362866 0.02589405 0.026935171 4288685623
-0.0075821877 0.025321681 0.02733051 4288686388
-0.0055225752 0.024749704 0.027724959 4288948783
-0.0033256859 0.023494866 0.028844014 4288883503
-0.024607204 0.0061617829 0.046968069 4287117373
-0.023429401 0.011772752 0.040793963 4287772214
-0.022713251 0.02012914 0.031713497 4287773233
-0.021524712 0.025047937 0.026284095 4287838003
-0.020043574 0.027904781 0.023043718 4289145643
-0.018020011 0.0273281 0.023442321 4289603113
-0.016106382 0.027438127 0.023113456 4288948528
-0.013956305 0.026175911 0.024236847 4289144623
-0.011916161 0.025600359 0.024632815 4288685878
-0.0098705031 0.025025239 0.025027845 4288096318
-0.007945586 0.025136199 0.024697263 4288161853
-0.0060205534 0.025247242 0.024366725 4287704129
-0.023643732 0.010870967 0.038856674 4287182398
-0.022719465 0.017874982 0.031250086 4287641908
-0.021634474 0.023498066 0.025105473 4287641654
-0.0201528 0.026363568 0.021871697 4289341994
-0.018354706 0.027161999 0.020817824 4289668648
-0.016331255 0.026583141 0.021214837 4289472044
-0.014184281 0.025316393 0.02233538 4289013808
-0.012267768 0.025426697 0.022006113 4288816693
-0.022725932 0.015616674 0.030783579 4286855488
-0.021637119 0.021257285 0.024651665 4287445048
-0.020261981 0.024822565 0.020699827 4290061349
-0.018576279 0.026313946 0.018923862 4289930534
-0.016786069 0.027114091 0.017873103 4288229173
-0.014883265 0.027223492 0.017546099 4287638849
0.02179327 0.027255094 0.013483785 4289734439
-0.022067651 0.021785606 0.021302635 4287510074
-0.020809531 0.026054403 0.016637903 4288948528
-0.019246697 0.028242456 0.014145004 4287703873
0.016713353 0.030321382 0.0079739932 4289014828
0.017609129 0.034570858 0.0033727102 4290127139
0.01931713 0.03536994 0.0023389189 4289538854
0.021877807 0.032720968 0.004865678 4289342503
0.025854526 0.024558125 0.013080413 4289277224
0.012659419 0.029267903 0.0067502111 4288295729
0.014067695 0.031454921 0.0042899624 4289473064
0.015296433 0.03433327 0.0011209045 4289604389
0.01633754 0.037902489 -0.002755574 4290781724
0.017857967 0.03939452 -0.0044951807 4290651164
0.020053422 0.038119093 -0.0033918619 4289604389
0.02347873 0.032003313 0.0026783096 4289800484
0.0073976591 0.033780061 -0.00016653165 4290652183
0.0091084242 0.034583226 -0.0011977535 4289866018
0.010971632 0.034691479 -0.0015170779 4289669669
0.01267435 0.035494342 -0.0025467933 4289473574
0.01420847 0.036991376 -0.0042855591 4289997088
0.015399987 0.039876308 -0.0074414555 4290781723
0.016907142 0.041371897 -0.009175431 4290716444
0.019260012 0.039397396 -0.0073644444 4290650908
0.02232502 0.03464894 -0.0027236016 4290454558
0.025781147 0.028515564 0.0033262493 4290585373
0.029465161 0.021691676 0.010075085 4290585374
0.0015483946 0.032649729 -0.001061324 4287513644
0.0026769713 0.036245078 -0.0049364599 4289672474
0.004376933 0.037049621 -0.0059642764 4290913813
0.0060715303 0.037853964 -0.0069911615 4290651164
0.0080707185 0.037263971 -0.0065975338 4290781979
0.0099176504 0.037371278 -0.0069140699 4290847258
0.012085315 0.036085252 -0.005812957 4289931299
0.013611566 0.037586115 -0.0075469748 4290127393
0.014961269 0.039782871 -0.0099869883 4290258464
0.016631695 0.040586259 -0.011009305 4289734948
0.018981284 0.038605124 -0.0092028324 4289931299
0.02186857 0.034537189 -0.0052795089 4290258463
0.02443509 0.031862814 -0.0027737953 4290389533
0.026843928 0.029885348 -0.00097722281 4289538853
0.029268904 0.027908899 0.00081664324 4289669669
-0.00056321546 0.0317408 -0.002593399 4289282579
0.00072079524 0.034647733 -0.005752245 4289474594
0.0016898364 0.038952857 -0.010326291 4290128159
0.0032242611 0.040458113 -0.012058672 4289800739
0.0049000494 0.041263476 -0.013080617 4289277224
0.0071897134 0.039271876 -0.01126929 4290323999
0.0091805756 0.038679302 -0.01087586 4290258463
0.011337042 0.03738831 -0.0097761787 4289996834
0.013015609 0.038194172 -0.01079834 4289669669
0.014854381 0.038301252 -0.011113284 4290062114
0.016693151 0.038408402 -0.011428175 4290127393
0.019044872 0.036420867 -0.0096270507 4289734948
0.021412741 0.034434389 -0.0078286771 4289996578
0.023444008 0.033844814 -0.0074417456 4289800738
0.024943415 0.035348944 -0.0091674179 4289735204
0.026431998 0.036852527 -0.010891171 4289735204
0.029201012 0.033473324 -0.007692012 4290585374
0.034055725 0.022425391 0.0032305336 4290781724
-0.0026688203 0.030836932 -0.0041229189 4289345818
-0.0015174448 0.034455054 -0.0079853274 4289604389
-0.00024909154 0.037369728 -0.011134779 4289800483
0.00085117668 0.040985059 -0.014988286 4290650908
0.0023723245 0.042493865 -0.016715039 4289996833
0.0040346831 0.043300606 -0.01773301 4289996833
0.0064649619 0.040600296 -0.01521785 4290258463
0.0089168102 0.037901349 -0.01270638 4290716444
0.011070173 0.036605805 -0.011609483 4289604388
0.012746099 0.037413675 -0.012629512 4289408293
0.014582071 0.037520587 -0.012943981 4289342758
0.01658617 0.036927011 -0.012554271 4289669923
0.01876648 0.035633408 -0.011461776 4289408039
0.020957565 0.034340486 -0.010371011 4289538598
0.022630738 0.035148621 -0.011390239 4289473574
0.023761729 0.0380564 -0.014515309 4289866018
0.025052724 0.040263213 -0.016934812 4289800739
0.027249046 0.038970977 -0.015844721 4289931298
0.030765139 0.032783069 -0.0098501574 4289866019
0.036606107 0.018206194 0.0045413477 4289735204
-0.0027756989 0.029340694 -0.0052605565 4287643948
-0.0020467117 0.03508259 -0.011235937 4289015593
-0.00092964619 0.038709618 -0.01508401 4289604389
0.00016050413 0.042335212 -0.01892744 4289931554
0.0016710758 0.043847725 -0.020649027 4290651164
0.0036263093 0.043248627 -0.020253023 4290650908
0.0063594654 0.0391322 -0.016333954 4290454814
0.0088105872 0.036424562 -0.013829072 4290716444
0.01080364 0.035827883 -0.013439301 4289408293
0.012314327 0.037340868 -0.015160622 4289342758
0.013979517 0.038150363 -0.016177069 4289342758
0.015975269 0.037554141 -0.015787605 4289407783
0.01831775 0.035553083 -0.013994971 4289538853
0.020156279 0.035660416 -0.014309669 4289538853
0.021642648 0.037172407 -0.016026493 4289080873
0.022939451 0.039385933 -0.018441971 4290192928
0.024220034 0.041598633 -0.020854652 4290651164
0.026405163 0.04030139 -0.019765951 4289473574
0.029161559 0.036899924 -0.016581332 4288950058
0.033461183 0.027888194 -0.0078110513 4288884778
0.038023066 0.018179286 0.0016456759 4289015594
-0.024762928 -0.017001532 0.041872084 4286332993
-0.0017298348 0.0314845 -0.010243894 4287838768
-0.0011782572 0.037948176 -0.016904999 4289015849
-0.00038263202 0.042996764 -0.022148661 4289735458
0.001269009 0.043807108 -0.023161516 4289669923
0.0032185875 0.043205529 -0.022766212 4290062369
0.0059452988 0.039075781 -0.01885616 4290193439
0.0082332715 0.037064645 -0.017059546 4290323998
0.010377694 0.035759971 -0.015967876 4290193439
0.011558339 0.038687441 -0.019088414 4290193184
0.01337792 0.038793392 -0.019400081 4290585629
0.015365329 0.038194481 -0.019010821 4290323999
0.017869651 0.035481744 -0.016521409 4290258463
0.019702682 0.035588741 -0.016835175 4289408038
0.021183874 0.037104726 -0.018547708 4289342503
0.022297041 0.040028777 -0.021656292 4289800483
0.023569902 0.04224753 -0.024062611 4290781723
0.025378531 0.042353462 -0.024371922 4290847514
0.027747184 0.040347975 -0.022588387 4290585629
0.031078864 0.034825213 -0.017321892 4290258463
0.03483776 0.027898053 -0.010669384 4290454814
0.039624359 0.017457403 -0.00054497458 4290520093
-0.024487011 -0.021473728 0.043478869 4287053114
-0.023058563 -0.017091915 0.038864952 4286790973
-0.00071029738 0.024330273 -0.0057425946 4287446069
-0.00027927384 0.031523228 -0.013095842 4287707954
9.7889453e-05 0.038713157 -0.020439779 4289081128
0.0013139695 0.041650884 -0.023560029 4289931810
0.0032659769 0.041047268 -0.023166835 4289800739
0.0056859739 0.038320392 -0.02067006 4290454814
0.0079706721 0.036302574 -0.018877923 4290389534
0.0096332431 0.037116118 -0.019890737 4290062114
0.010965902 0.039344192 -0.022302687 4290258464
0.012777288 0.039449677 -0.022612941 4290912538
0.014756335 0.038848162 -0.022223974 4290847259
0.017422199 0.035419274 -0.019041028 4291043609
0.019076677 0.036232743 -0.020052072 4290520093
0.020549979 0.037752636 -0.021759942 4289735459
0.022012481 0.039271951 -0.023465846 4290323744
0.02328301 0.041497063 -0.025866726 4290258718
0.025088839 0.041602828 -0.02617556 4289408293
0.027081145 0.041002706 -0.025788372 4289669923
0.03021415 0.03616792 -0.021229148 4289800483
0.033576734 0.030629776 -0.015981276 4290258718
0.038344681 0.020155627 -0.0058788182 4289408038
-0.022772223 -0.021567658 0.040466815 4286922044
-0.021364339 -0.017174006 0.035866529 4286790973
0.00058789551 0.015719917 0.00013673678 4287512114
0.001047302 0.022936121 -0.0072046183 4287707953
0.0010150224 0.032280874 -0.016640317 4288296749
0.0018045679 0.037359443 -0.021859404 4289604389
0.0031617507 0.039595108 -0.024270851 4289800484
0.0052729398 0.038279675 -0.023180336 4290323743
0.0072382241 0.037674796 -0.022790913 4289865763
0.0090494864 0.037780091 -0.023101285 4290127648
0.010212298 0.040723816 -0.026205357 4289408295
0.012012791 0.040828668 -0.026513744 4289146664
0.014148293 0.039515093 -0.025427045 4289538853
0.016805179 0.036074884 -0.022250941 4290323999
0.018797416 0.03547211 -0.021865726 4289997344
0.020443819 0.036287412 -0.022873677 4289670434
0.021906527 0.03781106 -0.024576264 4289866273
0.023177419 0.040042691 -0.026972163 4290455324
0.024983136 0.040148467 -0.027280966 4289932064
0.027161559 0.038837969 -0.02620109 4289800994
0.030106967 0.034696206 -0.022347696 4290062624
0.033659942 0.028432863 -0.016419634 4289604644
0.038428098 0.01792632 -0.00634235 4289211943
-0.022687033 -0.024629816 0.040640779 4286987323
-0.021170273 -0.020938024 0.036756434 4286922044
-0.01978568 -0.016532652 0.032170277 4286987068
-0.018325165 -0.012843899 0.028295755 4286528323
0.0013214163 0.0099184439 0.003181316 4287250229
0.0020846203 0.015731547 -0.0027462305 4287773234
0.0026589669 0.022254966 -0.0093659135 4287772978
0.0030363686 0.029488206 -0.016676303 4287707443
0.0039646253 0.033868931 -0.02118287 4288688939
0.005168315 0.036823414 -0.024287444 4289800483
0.006820187 0.037640516 -0.025295109 4289604389
0.0081481561 0.039881192 -0.027696267 4290847259
0.0096219182 0.041409317 -0.029397849 4289800483
0.011249561 0.042225279 -0.03040115 4289408294
0.013541218 0.040195256 -0.028619986 4289146408
0.016019067 0.037455041 -0.02614616 4289408295
0.018172994 0.036138345 -0.025065796 4290520859
0.019811368 0.036955297 -0.026070649 4289539618
0.021622449 0.037061229 -0.026380494 4289735714
0.023252657 0.037877917 -0.027383858 4290063134
0.025611527 0.035852358 -0.025613783 4289670433
0.028172728 0.033117518 -0.023153752 4289343268
0.031322163 0.028253477 -0.018620782 4289016359
0.034509253 0.023391776 -0.014094221 4288427563
0.039482687 0.012143631 -0.0033526979 4288427563
-0.02270221 -0.026982918 0.040102623 4287052859
-0.0210796 -0.023997501 0.036931369 4287118650
-0.019478373 -0.021013215 0.033763871 4287248953
-0.018114358 -0.016595997 0.02919136 4287117883
0.0014921352 0.0069518462 0.0034109782 4287512114
0.0024047829 0.012067638 -0.0018059546 4287576374
0.0032797679 0.017181296 -0.0070163165 4287772978
0.0041170605 0.022292905 -0.012220184 4287642163
0.0046146251 0.028831517 -0.018811461 4287904048
0.0055248737 0.033224221 -0.023304764 4288362029
0.0065592118 0.036900893 -0.027096415 4289604389
0.0075666197 0.0405761 -0.030883374 4289800994
0.0087088905 0.043535922 -0.033970512 4290716443
0.010323107 0.044353262 -0.034969836 4290651164
0.012767896 0.04160234 -0.032497086 4290389278
0.015234234 0.038852759 -0.030027954 4290782233
0.017549524 0.036817871 -0.028255759 4290128158
0.019705698 0.035497092 -0.027179042 4289539618
0.021694636 0.034890048 -0.026796503 4289605154
0.023869593 0.033570588 -0.025722908 4289540639
0.026422014 0.030826515 -0.023268141 4289671708
0.028809894 0.02879627 -0.021507978 4289214239
0.031780127 0.024630062 -0.01767892 4288559909
0.034782633 0.02046584 -0.01385531 4288232489
-0.022817343 -0.028620392 0.038857196 4286660923
-0.020989478 -0.027065337 0.037099861 4286988090
-0.019277297 -0.024791494 0.034641266 4287183929
-0.017796643 -0.021080032 0.030779991 4287118139
-0.016342774 -0.017369963 0.02692337 4287379769
-0.015141983 -0.012223601 0.021667855 4286658883
0.0024384893 0.009825293 -0.0022687675 4287577393
0.0040445179 0.011369165 -0.0039867656 4287707699
0.005195301 0.015063114 -0.0077902153 4287511348
0.0058665723 0.020905778 -0.013675003 4287576884
0.0061876327 0.028179137 -0.020942073 4287773489
0.0066110827 0.034733076 -0.02750542 4288296749
0.0069860406 0.041284278 -0.034060393 4289866019
0.008120738 0.044252295 -0.037139535 4289669668
0.0098912492 0.044355415 -0.037442774 4289146408
0.01232991 0.041595489 -0.034975685 4289473828
0.014790114 0.038836919 -0.032512195 4289997599
0.017271867 0.036079694 -0.030052334 4289735968
0.019775152 0.033323832 -0.027596075 4289801758
0.021944329 0.031999629 -0.026524913 4289605918
0.024304764 0.029961133 -0.024765208 4289672218
0.026681324 0.027923677 -0.02300819 4289541658
0.029073989 0.025887288 -0.021253906 4289410843
0.031859957 0.022422891 -0.018124504 4288822049
0.035055391 0.017531432 -0.013622761 4288232998
-0.020899899 -0.030141599 0.037262008 4286661433
-0.019182011 -0.02786094 0.034807391 4286987578
-0.017480105 -0.025581084 0.032355603 4286987323
-0.015904509 -0.022580884 0.029206071 4287248954
-0.014689319 -0.017418571 0.023959741 4287182909
0.0027571581 0.0061402246 -0.0013445904 4287577903
0.0043714643 0.0076888539 -0.0030606105 4287446323
0.0058270246 0.009956032 -0.0054689031 4287380533
0.0068143159 0.01437901 -0.0099553959 4287576884
0.0073090829 0.020956427 -0.016515965 4287576883
0.0072870627 0.029686866 -0.025146462 4287904304
0.0075179935 0.036976784 -0.032381169 4289081128
0.0081795156 0.042108856 -0.037531041 4289996578
0.0099526048 0.042212125 -0.037834726 4290389534
0.01205945 0.0408796 -0.036756523 4290193439
0.01485537 0.036676623 -0.03291826 4289932319
0.017166806 0.034628503 -0.03115542 4289409569
0.019844307 0.031146498 -0.028016204 4289540894
0.02219341 0.02910077 -0.026259659 4289279519
0.024738999 0.026338922 -0.023817204 4289475868
0.02675695 0.025729464 -0.023442812 4289607704
0.028965982 0.024403574 -0.022381581 4289476889
0.031562608 0.021645017 -0.019947618 4288887839
0.034754124 0.016738214 -0.01545693 4288364324
-0.019401565 -0.02876772 0.032867428 4286791483
-0.017487109 -0.027928658 0.031819962 4286922808
-0.015688051 -0.026366383 0.030074462 4287052859
-0.014125288 -0.023358159 0.026933856 4287183419
-0.012930546 -0.018181853 0.021702886 4287248955
-0.011655156 -0.013730481 0.017175986 4287117628
0.0060136355 0.0069911331 -0.0052413628 4287511348
0.0073082373 0.009985324 -0.0083348081 4287576373
0.0079683103 0.015861988 -0.014190797 4287772978
0.0082734115 0.023177713 -0.021421541 4287969074
0.0083659962 0.031211022 -0.029333668 4288034608
0.0088833235 0.03707964 -0.035164922 4288165934
0.010341708 0.038624249 -0.036850389 4289081383
0.012622941 0.03656771 -0.035087541 4289212708
0.014920332 0.034512192 -0.033327393 4289475359
0.017405972 0.031737976 -0.03088163 4288887584
0.019913154 0.028965073 -0.028439442 4289215259
0.022264363 0.026912995 -0.026688274 4289477144
0.024451498 0.025581326 -0.02562679 4289215258
0.026283592 0.0256887 -0.025940061 4289542934
0.028672393 0.023639105 -0.024195105 4289346583
0.031265575 0.020871729 -0.02176724 4289150234
0.034262188 0.016668327 -0.017972752 4289477909
0.038259398 0.0088741854 -0.010760346 4288561694
-0.017601669 -0.029554524 0.030583419 4287053879
-0.015692424 -0.028713487 0.029538549 4287118648
-0.013901107 -0.027147293 0.027797837 4287118393
-0.012466587 -0.023405872 0.023969803 4287248955
-0.011295028 -0.018215664 0.018754555 4287445048
-0.010161027 -0.013027549 0.013545888 4287119668
0.0059042387 0.0054646358 -0.0064019309 4287446578
0.007048931 0.0091907047 -0.010179145 4287707699
0.0083198175 0.012192264 -0.013261743 4287707443
0.0091017969 0.017361421 -0.018408993 4287641908
0.0095291138 0.023973985 -0.024927694 4287969073
0.0099079385 0.030583816 -0.031438023 4288035118
0.011057638 0.033578727 -0.034499548 4288951589
0.01285205 0.03368333 -0.034806803 4289344798
0.015154241 0.031621628 -0.0330525 4288952608
0.017472578 0.029560968 -0.03130088 4288626719
0.01980705 0.027501388 -0.02955199 4288823069
0.021980325 0.026164459 -0.02849151 4289346583
0.02416433 0.024828283 -0.02743284 4289935888
0.026176341 0.024214182 -0.027060769 4289805073
0.028193701 0.023600437 -0.026689498 4289673749
0.030780746 0.020824067 -0.024267279 4289347349
-0.017930485 -0.029724352 0.027954757 4286857019
-0.015697073 -0.031064712 0.028999567 4286791229
-0.013565268 -0.031676717 0.029347334 4286987324
-0.012234569 -0.027196459 0.024830945 4287183418
-0.010936059 -0.022717886 0.020320144 4287575863
-0.0099109747 -0.016786881 0.014427302 4287380278
-0.0085589364 -0.01303909 0.01062206 4287119668
0.0080586411 0.011410788 -0.015095555 4287969839
0.0091501661 0.015144769 -0.018855121 4287772978
0.0097397864 0.021052025 -0.02467205 4287838769
0.010447331 0.026232177 -0.029794656 4287904303
0.011444595 0.029960977 -0.033537842 4288297514
0.01308056 0.030790487 -0.034532435 4289149468
0.015218433 0.029446924 -0.033469513 4288822303
0.017538873 0.027379913 -0.031723276 4288823579
0.019700956 0.026037963 -0.030664343 4289085463
0.021873796 0.024696687 -0.02960714 4288889624
0.023697609 0.024803506 -0.029919045 4288889369
0.025703952 0.024186913 -0.02954768 4289020693
0.027715631 0.023570739 -0.029177144 4289020948
-0.013792526 -0.032574527 0.027416002 4287053623
-0.012118503 -0.030270159 0.024989277 4287314233
-0.010931596 -0.025048897 0.019794799 4287445559
-0.0095413327 -0.021288246 0.015991256 4287510328
-0.0081778802 -0.017529018 0.012192415 4287445558
-0.0067154095 -0.014500193 0.0090895016 4287054389
0.0081033818 0.0091790482 -0.015552532 4287447088
0.0091982521 0.012924008 -0.019304302 4287707699
0.010108024 0.017394651 -0.023737114 4287903793
0.010663763 0.0233173 -0.029534761 4287969839
0.011830628 0.026330475 -0.032585837 4288231978
0.013308447 0.02788928 -0.034264494 4288757024
0.015451284 0.026541654 -0.033205725 4289149723
0.017433228 0.025921084 -0.032832161 4289020184
0.019420542 0.025300929 -0.032459438 4288823834
0.021236185 0.025407178 -0.032770015 4288889623
-0.012347765 -0.031157009 0.023066882 4286922554
-0.010809757 -0.028115548 0.019957419 4287314743
-0.0092931762 -0.025075205 0.016851727 4287314233
-0.0077980049 -0.022035994 0.013749799 4287445559
-0.0063242875 -0.0189979 0.010651642 4287446069
-0.0048720092 -0.015960939 0.0075572468 4287250484
0.0092460439 0.01069925 -0.019756598 4287512114
0.0098432899 0.016641531 -0.025548082 4287969329
0.010558158 0.021852273 -0.030648466 4288166699
0.01156212 0.025603097 -0.034376092 4288559654
0.013203535 0.026437243 -0.035368271 4289542168
0.015177134 0.025813941 -0.034995019 4289673494
0.016984623 0.025919512 -0.03530436 4288954649
-0.010805972 -0.030456789 0.019424282 4287382319
-0.0092862025 -0.027407654 0.016324721 4287512114
-0.0076650195 -0.025093131 0.01391739 4287183419
-0.0060598999 -0.022779368 0.011512855 4287248955
-0.0045990571 -0.019733302 0.0084236786 4287249208
-0.0034215339 -0.015222408 0.0039642127 4287446578
0.0098945983 0.014430184 -0.02599073 4287904304
0.01045258 0.020387519 -0.031761963 4287904303
0.011293948 0.024880258 -0.03616282 4288690723
0.012766764 0.026447354 -0.037833888 4289608468
0.014734691 0.025821568 -0.037461337 4289477653
-0.0092795119 -0.029744141 0.01579465 4287249718
-0.0075326189 -0.028158583 0.014078574 4287379259
-0.0059217811 -0.02583804 0.01167807 4287248444
-0.0043269917 -0.023518346 0.0092804506 4287248954
-0.0030098259 -0.01972916 0.0055148778 4287445559
-0.0017195046 -0.015941389 0.0017540017 4287446578
0.0093148127 0.015149128 -0.029159496 4287447854
0.010026217 0.020389918 -0.034235898 4287904813
0.010699928 0.025628578 -0.039305717 4288954139
0.012330621 0.026466463 -0.040292747 4288627738
-0.0077683963 -0.029019088 0.012178034 4287575864
-0.0060347021 -0.027429849 0.010467598 4287379513
-0.0043116696 -0.025841147 0.0087591279 4287379513
-0.0028605685 -0.022778295 0.0056850733 4287510328
-0.0015642233 -0.018979415 0.001931523 4287248955
-0.00029473379 -0.015181966 -0.001817333 4287249463
-0.0078814439 -0.030614905 0.010964481 4287119923
-0.0061475858 -0.029021353 0.0092573576 4287511094
-0.0042966157 -0.02816797 0.0082347393 4287314744
-0.0027118772 -0.02583579 0.0058489069 4287314233
-0.001276359 -0.022765152 0.00278435 4287380278
-0.00013402104 -0.018217228 -0.0016388455 4287118393
0.0013917163 -0.015888147 -0.0040142373 4287511349
-0.0044094473 -0.029757038 0.0070263743 4287381043
-0.0026940741 -0.028160065 0.0053259805 4287315000
-0.0011223927 -0.025822058 0.0029475 4287314744
0.00043319911 -0.023484886 0.00057185162 4287052859
0.0018343367 -0.020407386 -0.0024799453 4287314233
0.0030728988 -0.01658991 -0.0062066456 4287446324
-0.0029368661 -0.029000677 0.0034423098 4287315509
-0.0012347102 -0.027400061 0.0017476045 4287118138
0.00045675784 -0.025799923 5.4843724e-05 4287052859
0.001861047 -0.022713579 -0.0029908563 4287314744
0.0032438636 -0.019628368 -0.0060327863 4287380533
0.0043179616 -0.015058234 -0.0104239 4287185458
-0.0014796779 -0.028231911 -0.00012871996 4287119414
0.00048002973 -0.028118938 -0.00046526641 4287118650
0.0018874854 -0.025023803 -0.0035048309 4287314744
0.0032734647 -0.021929778 -0.0065406105 4287380023
0.0042075776 -0.016601354 -0.011597152 4287380278
0.0053963475 -0.012764968 -0.015298404 4287120433
0.00023256615 -0.028946348 -0.0023376048 4287054134
0.0016377978 -0.025842726 -0.0053701061 4287314744
0.0030215643 -0.02274023 -0.0083988281 4287380279
0.0042405315 -0.018891506 -0.012096963 4287380278
0.0015262179 -0.027406856 -0.006559398 4287118650
0.0029104576 -0.024295725 -0.0095815202 4287183929
0.0041300543 -0.02043619 -0.013271411 4287249463
0.0026590675 -0.025099061 -0.011434339 4287054134
0.0041625947 -0.022732258 -0.013775727 4287118393
0.0043377094 -0.025786184 -0.013614839 4286987834
-0.019655183 -0.058768965 0.0083635282 4286463809
-0.019560024 -0.061922692 0.0084642936 4286855999
-0.017966531 -0.058740795 0.0054517658 4287640888
-0.01988247 -0.06200888 0.0058992105 4287313213
-0.018079989 -0.060356289 0.004223031 4287248953
-0.016507424 -0.057166882 0.0012208717 4286659903
-0.020100176 -0.062857203 0.0040041292 4287705148
-0.01830022 -0.061200529 0.0023317495 4286725183
-0.016510911 -0.059544347 0.00066128466 4286529343
-0.018520117 -0.062040128 0.00044398475 4286266948
-0.016733348 -0.060379736 -0.0012227474 4286332994
-0.014957212 -0.058719881 -0.0028875046 4286856508
-0.013191722 -0.057060458 -0.0045503699 4287183163
-0.016737051 -0.062760897 -0.0017851545 4286463554
-0.014846213 -0.061871536 -0.0027885577 4287052859
-0.013189763 -0.059432723 -0.0051071076 4287510583
-0.011549339 -0.056994669 -0.0074228519 4286528324
-0.014959253 -0.063477241 -0.0040097861 4286987068
-0.01330249 -0.061031975 -0.0063233925 4286790464
-0.011427566 -0.060141124 -0.0073222024 4286658884
-0.0099172778 -0.056920446 -0.010286549 4286593603
-0.013415202 -0.062630907 -0.0075394465 4286528068
-0.011657216 -0.060958937 -0.0091909496 4286528323
-0.0099098943 -0.059287488 -0.010840482 4287182398
-0.0084178858 -0.056059085 -0.013794957 4287378749
-0.011769734 -0.062553264 -0.010403465 4286724673
-0.010022271 -0.060877517 -0.012049689 4286986558
-0.0082854703 -0.059202202 -0.013694016 4287182653
-0.0049714185 -0.055072539 -0.017627699 4287181379
-0.010253947 -0.061684109 -0.013909298 4286659648
-0.0085196905 -0.060004659 -0.015549867 4286921534
-0.0065466762 -0.05989141 -0.015889093 4287118138
-0.0047009811 -0.058995344 -0.016877452 4287968308
-0.010485299 -0.06248606 -0.015765451 4286463299
-0.00863171 -0.061587654 -0.016753707 4286921534
-0.0066588521 -0.06147442 -0.017092902 4287053369
-0.0045586899 -0.062145926 -0.016784437 4288099889
-0.0027129278 -0.06124758 -0.017771043 4287903283
-0.0089871325 -0.061595745 -0.019251056 4286659139
-0.0067710094 -0.063057147 -0.018296484 4287445049
-0.004798241 -0.062943809 -0.018635578 4288622383
-0.0026956275 -0.06361717 -0.018329095 4288361264
-0.001249902 -0.060356595 -0.021248586 4287117883
-0.0071316399 -0.063060977 -0.020789403 4287117629
-0.0051644072 -0.062947936 -0.021127541 4288098869
-0.0061538368 0.019270945 0.0082029961 4282611269
-0.0042536892 0.019380547 0.0078767203 4283137843
-0.0034397244 0.025109937 0.0018731728 4283924263
-0.0089280866 0.021861125 0.003108847 4282543948
-0.0060023963 0.01633016 0.0084567778 4283333683
-0.0039640255 0.015735269 0.0088380519 4283531818
-0.0031408481 0.021482434 0.0028463705 4283987758
-0.013657097 0.025079815 -0.0023586703 4282476629
-0.011792488 0.025187075 -0.0026790667 4283529524
-0.0095456019 0.023172587 -0.00087615754 4283793193
-0.0067621246 0.018330719 0.0037531517 4283927069
-0.0040735938 0.014198057 0.0076692086 4283924774
-0.0025719181 0.016428567 0.0052225571 4283988013
-0.033962131 -0.027747035 0.050935227 4283853884
-0.012788929 0.017899696 0.002155303 4282869838
-0.011525579 0.021556132 -0.001701613 4284054313
-0.0099073723 0.02308283 -0.0034355717 4284056098
-0.007390324 0.019643974 -0.00022815168 4283860003
-0.0041831248 0.012661118 0.0065005682 4283795743
-0.002004493 0.011353232 0.0075824186 4284056354
-0.033909813 -0.030828424 0.051101469 4282938179
-0.03246057 -0.02571407 0.04576727 4284640049
-0.011801504 0.0099731684 0.0073484108 4283067719
-0.011010785 0.016488906 0.00067592971 4283793703
-0.0098872371 0.020867124 -0.0038748551 4284055843
-0.0077577084 0.019551899 -0.0027880692 4283990564
-0.0044250786 0.011835717 0.0046285959 4283858984
-0.0015737526 0.006967593 0.0092229247 4284055078
7.4639916e-05 0.0085007027 0.0074874125 4284644639
-0.034193411 -0.0310532 0.048420385 4282020178
-0.032662071 -0.026640132 0.043808442 4282219078
-0.03098435 -0.023660645 0.040620662 4283395649
-0.01000056 0.0085444748 0.0058502089 4283790644
-0.0091057979 0.014364637 -0.00010041147 4283791664
-0.0073466972 0.015187025 -0.0011271834 4284055333
-0.0044020638 0.009587992 0.0041638473 4284120868
-0.0014142282 0.0039914995 0.0094475709 4284251429
-0.034225255 -0.033424266 0.047871832 4281955664
-0.032776803 -0.028279811 0.042561222 4282087243
-0.031098597 -0.025291711 0.039380021 4282219334
-0.0289829 -0.025894493 0.039738428 4284377143
-0.0091171488 0.001277402 0.01029335 4283659828
-0.0080729388 0.0064001568 0.0050534159 4283856944
-0.0065484941 0.0086576939 0.002622731 4283857198
-0.0041149929 0.005904898 0.0050964765 4284121633
-0.0013901442 0.001722496 0.008966079 4284184618
-0.03425733 -0.035799429 0.047320209 4281955664
-0.032719016 -0.03136009 0.042727072 4281434698
-0.031034939 -0.028363042 0.03955153 4281566534
-0.029097348 -0.027527504 0.038496323 4282218568
-0.026693434 -0.030292004 0.04096739 4282872899
-0.0084840022 -0.0045876317 0.013310425 4283790899
-0.0071694329 -0.00088499486 0.0094782542 4283725618
-0.005623091 0.001380261 0.0070488248 4283857454
-0.0038288087 0.0022090562 0.0060194051 4283858218
-0.001635734 0.00088469684 0.0070852749 4284053804
1.8622726e-05 0.002431035 0.0053588096 4284514589
-0.034289628 -0.038178608 0.046765462 4281825614
-0.032661758 -0.034448773 0.042886574 4281762374
-0.030971803 -0.031442791 0.039716698 4281369928
-0.029211737 -0.029160216 0.037254434 4281760588
-0.027091004 -0.029767007 0.037608646 4282022218
-0.024964713 -0.030373424 0.037962019 4282480199
-0.0083477348 -0.0075965747 0.013514616 4283527228
-0.0067742094 -0.0053234212 0.011085497 4283791154
-0.005216755 -0.00305105 0.0086591728 4283857199
-0.0035435222 -0.0014994889 0.0069325976 4283792684
-0.0018809773 5.1520765e-05 0.0052079838 4283923244
-0.00036637858 0.0023217127 0.0027892441 4283988268
-0.034155697 -0.042011648 0.047614828 4281955918
-0.032605037 -0.037545808 0.043039646 4281630538
-0.03099785 -0.033806294 0.039172746 4281435463
-0.029234745 -0.031517103 0.03671496 4281630283
-0.027393602 -0.029953063 0.034961794 4281826123
-0.025369674 -0.029837817 0.03461311 4282740044
-0.0085828975 -0.0084461123 0.011622446 4284115513
-0.0070117377 -0.006166596 0.0091986973 4283856178
-0.0051986277 -0.005332537 0.0081692915 4283661103
-0.0036542118 -0.0030543581 0.0057502957 4283791919
-0.0019914806 -0.0014990345 0.0040289899 4283725619
-0.00047654659 0.0007776469 0.0016152151 4283660849
0.0011620857 0.0023317821 -0.00010180008 4283921968
-0.032463081 -0.041378185 0.043887876 4282151248
-0.030935653 -0.036900662 0.03932678 4281762374
-0.029257998 -0.033878088 0.036172435 4281826123
-0.027507842 -0.031583086 0.033721961 4281760589
-0.025580555 -0.030741557 0.032673627 4281825359
-0.023559257 -0.030626394 0.032325447 4282152015
-0.00881771 -0.0092910379 0.0097337756 4284378928
-0.0071227513 -0.0077298209 0.0080099907 4283922478
-0.0051807649 -0.0076180622 0.0076763313 4283726128
-0.0036333166 -0.005333297 0.005261872 4283791153
-0.0022361912 -0.0023251586 0.002157052 4283790898
-0.00072360784 -4.2133033e-05 -0.00025129411 4283725618
0.00105213 0.00079232082 -0.0012723068 4283922224
0.0026802234 0.002350308 -0.002984128 4284247093
-0.030785695 -0.040732294 0.040173776 4281893189
-0.029190488 -0.036971852 0.036325704 4281499214
-0.027434617 -0.0346701 0.033879232 4281695309
-0.025598325 -0.033097662 0.032133628 4281825868
-0.02387169 -0.030797355 0.029692359 4281890893
-0.021957494 -0.029954247 0.02864809 4282807619
-0.020152986 -0.028383315 0.026908197 4284048959
-0.0069817193 -0.01074636 0.0082073342 4284576043
-0.0051631592 -0.0099076852 0.007180322 4283988269
-0.0037440844 -0.0068897754 0.0040783398 4283921713
-0.0022123866 -0.0045992956 0.0016716421 4283856434
-0.0006967783 -0.0023096427 -0.00073221605 4283856433
0.00094221532 -0.00074687228 -0.0024426105 4283856433
0.0025704801 0.00081543252 -0.0041511199 4283724344
0.0043328926 0.0016514733 -0.0051680161 4283789878
0.033782654 0.021724634 -0.028070504 4284185129
0.036599793 0.018219233 -0.024979664 4283989034
0.040834941 0.0096575916 -0.017130183 4283989798
-0.02903267 -0.040804997 0.037169904 4282150484
-0.027455471 -0.03703472 0.033333369 4281759313
-0.025616325 -0.035457782 0.031590555 4282022219
-0.023886666 -0.033150911 0.029153802 4282022473
-0.022071384 -0.031575143 0.027415257 4282022983
-0.020475321 -0.028539501 0.024288714 4282350148
-0.0037235804 -0.0091746151 0.0035853405 4284052273
-0.0023227818 -0.0061490014 0.00049328431 4283856688
-0.000806842 -0.003852874 -0.0019056215 4283922479
0.00097163767 -0.0030139536 -0.002923762 4283856433
0.0026027896 -0.0014472306 -0.0046293917 4283790898
0.0042232089 0.00011903048 -0.0063331341 4283855923
0.0055381134 0.0031401925 -0.0094100526 4284313904
0.029061755 0.023657046 -0.031969577 4284379693
0.030885242 0.023764245 -0.032281123 4284316709
0.032322265 0.025321646 -0.033952039 4284056864
0.034531996 0.023978917 -0.032903947 4283797273
0.03774529 0.019013345 -0.028463639 4283664419
0.043210175 0.0060798489 -0.016567897 4283402023
-0.027476594 -0.039403312 0.032784402 4281955664
-0.025730662 -0.037089147 0.030349705 4282022474
-0.024000667 -0.034775794 0.027917903 4281893189
-0.022185214 -0.033195741 0.026182648 4281761098
-0.020484522 -0.030883864 0.023756046 4282350148
-0.0020318218 -0.0098904371 0.0013798121 4283856178
-0.00050747395 -0.0075873509 -0.0010155141 4283922478
0.0012791082 -0.0067458153 -0.0020333864 4283921968
0.0026348121 -0.0037138723 -0.00511077 4283856433
0.0039690062 -0.00068308413 -0.0081843892 4283921969
0.0052817091 0.002346579 -0.011254239 4284052529
0.0067228377 0.0046453364 -0.013634831 4284380204
0.024214294 0.026342794 -0.036540896 4284315944
0.026021609 0.026448861 -0.036849827 4284186404
0.028016523 0.025827456 -0.036479637 4284187678
0.029636068 0.026661266 -0.037467413 4284188954
0.031443201 0.026767623 -0.037776068 4283924263
0.033445995 0.026146986 -0.037407 4283924773
0.03624776 0.022619233 -0.034330174 4283860514
0.040283028 0.014732774 -0.027197704 4283862554
-0.02594085 -0.037985235 0.028416019 4281629009
-0.024114616 -0.0364004 0.026682205 4281695053
-0.022298984 -0.034816049 0.024950251 4281563983
-0.020493969 -0.03323222 0.023220256 4281761098
-0.018699564 -0.031648852 0.021492127 4284640304
-0.00034530833 -0.010601841 -0.0008212328 4283920183
0.0013076812 -0.0090253279 -0.0025239941 4283921968
0.0028082505 -0.0067169443 -0.0049100686 4283857199
0.0038595386 -0.0022127852 -0.0093474323 4283922223
0.0051727295 0.00082552806 -0.01241067 4283922989
0.0064644068 0.0038626902 -0.015470146 4283988778
0.0078870505 0.0061669424 -0.017842472 4284380204
0.019433688 0.029058939 -0.041103039 4284380203
0.021404209 0.028433707 -0.040730618 4284250918
0.02338009 0.027808838 -0.040358998 4284252193
0.025176508 0.027914271 -0.040666051 4284187423
0.026972873 0.028019812 -0.040973019 4284056864
0.028959356 0.027395913 -0.040603016 4283863318
0.030758284 0.027501801 -0.040910263 4283927069
0.032557145 0.027607767 -0.041217435 4283925029
0.034950696 0.025526702 -0.039497994 4283925029
0.038164139 0.020531017 -0.03508101 4283925539
0.042840701 0.01043649 -0.025948264 4283859748
-0.024130046 -0.038761683 0.026137684 4281563218
-0.02241271 -0.036436044 0.023718081 4281760333
-0.020607509 -0.034847915 0.02199138 4282088008
-0.01881294 -0.033260249 0.02026655 4284705583
0.0010582693 -0.0098395273 -0.0043856651 4283856434
0.002556473 -0.0075248182 -0.0067663174 4283791664
0.0038943365 -0.0044765621 -0.0098271854 4283923244
0.004916843 3.8973987e-05 -0.014249493 4283857454
0.0062063187 0.0030846447 -0.017301887 4283922733
0.0074742809 0.006129168 -0.02035052 4283988523
0.0087207146 0.0091725513 -0.023395374 4284377653
0.017016476 0.029711353 -0.043925688 4284184873
0.0184463 0.031280719 -0.04558577 4284121379
0.020403074 0.030652532 -0.045212667 4283927069
0.022729089 0.028560381 -0.043487139 4283925793
0.024517301 0.028665338 -0.043792784 4283990563
0.026492789 0.028038558 -0.043422643 4284056864
0.027903546 0.029607262 -0.045079026 4283992603
0.029881598 0.028980818 -0.04470918 4283929109
0.031474158 0.029817551 -0.045688774 4283993624
0.03385365 0.027729193 -0.04397196 4283993368
0.036650803 0.024179708 -0.040910989 4284058904
0.040695716 0.016246457 -0.033816833 4284058394
0.045418277 0.0061245747 -0.024715265 4283991838
-0.022526383 -0.038055755 0.022486128 4281563473
-0.020721011 -0.036463328 0.020762721 4282219333
0.0025878139 -0.0098014548 -0.0072552953 4284247603
0.0039288513 -0.0067443997 -0.010310026 4283923244
0.0051016212 -0.0029520877 -0.01404193 4283923499
0.0062475018 0.00083876029 -0.017769143 4283923753
0.0073664784 0.0046281517 -0.021491665 4283857964
0.0083036982 0.0091520101 -0.025889058 4283725873
0.0090510696 0.014409885 -0.030959994 4283985463
0.013683405 0.026598807 -0.043050908 4284251173
0.015300646 0.027438235 -0.044033751 4284251939
0.016738765 0.029012302 -0.045691982 4283928598
0.018166097 0.030585792 -0.047348239 4283796764
0.020298988 0.029220788 -0.046300877 4283795744
0.02244262 0.027856469 -0.045255225 4283732504
0.024596967 0.026492931 -0.044211365 4283924774
0.026387695 0.026598152 -0.044517353 4284056863
0.027608778 0.028905043 -0.046844006 4284057119
0.029006185 0.030477438 -0.048494723 4283990818
0.03058801 0.031315703 -0.049470801 4283990563
0.033154082 0.028486788 -0.047084805 4283990819
0.035942242 0.024926011 -0.044030655 4284121634
0.03957054 0.018434625 -0.038295813 4284121634
0.043865249 0.009747494 -0.030556645 4284056098
0.071266532 -0.064631194 0.036779743 4284121634
-0.02263999 -0.039675154 0.021254394 4280971363
-0.020834468 -0.038078435 0.01953429 4282152268
0.0039630942 -0.0090162978 -0.01079588 4284119338
0.0051391982 -0.0052130222 -0.014519997 4284055333
0.0062884055 -0.0014112033 -0.018239424 4283923498
0.0074107125 0.0023892224 -0.021954188 4283856943
0.0085061193 0.0061881207 -0.025664225 4283595568
0.0089450479 0.0129373 -0.032079466 4283855159
0.0094956085 0.018945944 -0.037809283 4284313904
0.010003075 0.024952251 -0.043531664 4284380458
0.011294808 0.02726887 -0.045866136 4284381733
0.013074867 0.027372753 -0.046170849 4284318239
0.015025778 0.026739566 -0.045800284 4284187678
0.016287846 0.02905478 -0.048129432 4283924263
0.017886221 0.029895455 -0.049107224 4283857963
0.020015975 0.028525971 -0.048062656 4283861279
0.022519726 0.025684163 -0.045673177 4283798038
0.024492007 0.025052801 -0.045305893 4283924519
0.026095593 0.025894202 -0.046284251 4284056863
0.027504038 0.027471418 -0.047933534 4283990563
0.029094031 0.028312283 -0.048909444 4283990308
0.031068772 0.027681416 -0.048542235 4284056609
0.033839945 0.024108781 -0.045493606 4284056354
0.036637951 0.020537827 -0.042449478 4284056098
0.040275462 0.014027603 -0.036731247 4284055843
0.044373047 0.0060501955 -0.029682815 4283922989
0.071140066 -0.066344082 0.035478272 4284121378
-0.020947866 -0.039693229 0.01830609 4281494624
0.0053229406 -0.0082186684 -0.014323525 4284509488
0.0064781755 -0.004405722 -0.018035624 4283988268
0.0077583604 -0.0013346188 -0.021066282 4283726383
0.0088624954 0.0024755932 -0.024769438 4283791919
0.0096252449 0.0077644996 -0.029819548 4283725873
0.0097105838 0.016011108 -0.037564635 4283988268
0.010061935 0.022774789 -0.04394966 4284186149
0.011026073 0.026577283 -0.047628503 4284251939
0.012635306 0.027420454 -0.048606712 4284122143
0.014409838 0.027524121 -0.048910394 4284191503
0.015837558 0.029106207 -0.05056015 4283926049
0.017606657 0.029209767 -0.050862741 4283857963
0.019733289 0.027835749 -0.049820941 4283924264
0.02205212 0.025723787 -0.048109226 4283924774
0.024202891 0.024351429 -0.047071435 4283991584
0.025990669 0.024456501 -0.047376897 4284056353
0.027778393 0.024561677 -0.04768227 4284056608
0.029758289 0.023928914 -0.047317725 4284121634
0.032133378 0.02182078 -0.045615215 4284056098
0.035117403 0.017500568 -0.041908626 4284121124
0.038133647 0.013182364 -0.038207442 4283989033
0.041385125 0.0081287138 -0.033843659 4283922733
0.045085583 0.0016029328 -0.028151115 4283791408
0.071227372 -0.068793476 0.034843225 4283923244
0.006667342 -0.007408604 -0.01783818 4284053548
0.0079534091 -0.0043285862 -0.02086312 4283726639
0.0092179514 -0.0012496635 -0.023884319 4283857199
0.010303892 0.0025703833 -0.027575914 4283791664
0.010723822 0.0093573555 -0.033957712 4283791664
0.010770358 0.017625518 -0.04167768 4283857709
0.011418298 0.022923164 -0.046696153 4284120869
0.012364231 0.026735481 -0.05036344 4284121379
0.013794851 0.028321933 -0.052010428 4284057883
0.015214689 0.029907838 -0.053655442 4283994133
0.016975582 0.03001092 -0.053956628 4283992859
0.019093681 0.028632134 -0.052916754 4283992603
0.021585144 0.025772396 -0.050538521 4283993623
0.023914097 0.023654677 -0.048833463 4283991584
0.026072446 0.022278566 -0.047800224 4284056099
0.028620297 0.019422431 -0.045431402 4284056354
0.030997537 0.017307878 -0.043734346 4284055588
0.033780407 0.013714295 -0.040704496 4284056099
0.036590114 0.0101224 -0.037679154 4283990053
0.039626811 0.0057924837 -0.033991486 4283857964
0.042492874 0.0022041425 -0.03097558 4283791153
0.046207916 -0.0043401755 -0.025300577 4283790389
0.07152795 -0.071985729 0.034869637 4283791153
0.007996317 -0.0065861531 -0.02133981 4284054059
0.0094182603 -0.0042429827 -0.023681873 4283922988
0.010824066 -0.0019006506 -0.026021095 4283791664
0.011575278 0.0034178868 -0.03104572 4283791664
0.012126479 0.0094784684 -0.03673546 4283791919
0.012304604 0.017024517 -0.043760035 4283857709
0.013099652 0.021592371 -0.048092518 4283925028
0.013521597 0.027645743 -0.053759873 4284056099
0.014938924 0.029235806 -0.055401113 4284056608
0.016521219 0.030082092 -0.056371149 4283990563
0.018811962 0.027955459 -0.054664735 4284056864
0.021299969 0.025086891 -0.052292608 4284056609
0.023993317 0.021476861 -0.049256146 4284056354
0.026713539 0.017868511 -0.046224192 4284056099
0.02964985 0.013519328 -0.042529747 4284056098
0.032426476 0.00991451 -0.039507266 4283791663
0.035424583 0.0055691339 -0.035823166 4283790898
0.037665669 0.004194025 -0.03480706 4283790644
0.040317439 0.0013358407 -0.032462321 4283790133
0.042585265 -3.7465245e-05 -0.031450607 4283790388
0.046506822 -0.0073426887 -0.025126528 4283790388
0.070974082 -0.072222017 0.032238211 4283790388
0.0081903189 -0.0095946416 -0.02114776 4284380204
0.0097720549 -0.0079914555 -0.022814404 4283988523
0.011186268 -0.005642157 -0.025150042 4283856943
0.012424879 -0.0025472715 -0.028153254 4283856944
0.013317656 0.0020389929 -0.032492608 4283791664
0.014013276 0.0073696263 -0.037495892 4283791919
0.014168588 0.014936019 -0.044499751 4283792429
0.013929594 0.02399094 -0.052831475 4283925029
0.014836412 0.027822729 -0.056475177 4284056099
0.01659435 0.027925652 -0.056775857 4284056354
0.019243792 0.024302062 -0.053740405 4284056099
0.022101106 0.019935008 -0.050042722 4284055844
0.025174372 0.014824949 -0.0456842 4284056354
0.027912524 0.011206832 -0.042663634 4283990563
0.030866595 0.0068457909 -0.038982227 4283924264
0.033469379 0.0039757863 -0.036636055 4283857709
0.03609363 0.00110716 -0.034293465 4283857199
0.038147882 0.00047256425 -0.033946432 4283724853
0.04060711 -0.0016496964 -0.032273173 4283790388
0.043082405 -0.0037709512 -0.030602537 4283790133
0.047625974 -0.013328515 -0.022308437 4283724598
0.070634127 -0.0731925 0.030274816 4283724598
0.0099710077 -0.011003681 -0.022626329 4284314669
0.011390939 -0.0086476356 -0.024957895 4283791919
0.012794722 -0.0062923655 -0.027286636 4283857453
0.014020365 -0.0031895041 -0.030280853 4283857453
0.015389152 -0.00083603337 -0.03260342 4283791919
0.015570119 0.0067533888 -0.039594963 4283857709
0.015187016 0.01658367 -0.04857805 4283792684
0.015770497 0.021923136 -0.053550135 4283991074
0.017369 0.022774637 -0.05451956 4283988269
0.020387273 0.017646063 -0.050163496 4284054823
0.023443205 0.012519762 -0.045813743 4283989543
0.026536765 0.0073958226 -0.041470375 4283791663
0.029109292 0.0045152046 -0.039125897 4283791409
0.031703297 0.0016359799 -0.036784984 4283725108
0.034127168 -0.00049518421 -0.035110898 4283724854
0.036761399 -0.0033717863 -0.032776736 4283790133
0.038432151 -0.0025151633 -0.033757821 4283856179
0.040896159 -0.0046436489 -0.032090351 4283921459
0.043173842 -0.0060249604 -0.031086976 4283856433
0.04833309 -0.017848201 -0.020831753 4283790643
0.064381078 -0.060864098 0.016796241 4283790643
0.070081368 -0.073412977 0.027655419 4283790899
0.07306727 -0.076267846 0.029930387 4283855924
0.075200506 -0.076140933 0.029567096 4283855159
-0.0020803139 -0.031451978 -0.005064901 4283659573
-0.00039627403 -0.029835083 -0.0067430586 4283590978
0.013163649 -0.010050155 -0.026429679 4284249898
0.014559684 -0.0076887608 -0.02875199 4283923244
0.016104095 -0.0060786232 -0.030405248 4283791918
0.016467182 0.00078290328 -0.036716826 4283791918
0.016441956 0.0091420375 -0.04435068 4283791664
0.017047931 0.014497895 -0.04931492 4283858728
0.018843291 0.014603015 -0.049621981 4283989798
0.021528577 0.010959998 -0.046609364 4283922989
0.024782779 0.0050702095 -0.041610911 4283791408
0.027346514 0.0021803603 -0.039271683 4283725108
0.029931732 -0.00070809573 -0.036936022 4283725364
0.032160915 -0.0020971857 -0.035928108 4283724854
0.034209345 -0.0027366169 -0.035583571 4283790388
0.036651358 -0.0048730038 -0.033917554 4283790133
0.038322128 -0.0040142313 -0.034896977 4283921714
0.040586006 -0.0054008104 -0.033894621 4283921713
0.043062758 -0.0075348169 -0.032234266 4283791408
0.048629113 -0.020888761 -0.020686667 4283791153
0.064678341 -0.064029515 0.016844273 4283791153
0.069316268 -0.072876848 0.02438486 4283987504
0.071430653 -0.072751157 0.024024695 4284117043
0.073763266 -0.073372625 0.024321727 4284115003
-0.0042750463 -0.032379813 -0.0065936521 4284705329
-0.0024561509 -0.031513028 -0.0075989254 4283331898
-0.00091211498 -0.029137768 -0.0099425241 4282218568
0.0010282248 -0.029025845 -0.010275688 4283133509
0.014289351 -0.0084412396 -0.030561252 4283988524
0.015831245 -0.0068269335 -0.03221073 4283857453
0.016861165 -0.0029558428 -0.035850592 4283856943
0.017524645 0.002418343 -0.040813055 4283922988
0.018322863 0.0070383549 -0.045105837 4283923499
0.019964475 0.0078967065 -0.046079278 4283923498
0.022134181 0.0064993799 -0.045064878 4283856433
0.025036706 0.0020962209 -0.041404992 4283855923
0.027605057 -0.00080195442 -0.039073225 4283790644
0.029823065 -0.0021960437 -0.038066849 4283790644
0.031863183 -0.0028382391 -0.037722647 4283921459
0.034099922 -0.0042310506 -0.036719259 4283856179
0.036541324 -0.0063739307 -0.035058141 4283987249
0.038212117 -0.0055129826 -0.036035888 4284183343
0.040475536 -0.0069038905 -0.035036787 4284379439
0.04315374 -0.0097948015 -0.032723162 4284575533
-0.0043863915 -0.033947289 -0.007785589 4284247604
-0.0025674924 -0.033078365 -0.0087891966 4282744379
-0.001292374 -0.029183708 -0.012463856 4281370693
0.00050513819 -0.028315783 -0.013463616 4281892679
0.0021573082 -0.026691839 -0.015129484 4283003458
0.015722943 -0.008325398 -0.033349782 4284249899
0.0167535 -0.0044434965 -0.036981396 4283922224
0.017757133 -0.000563059 -0.040608324 4283922478
0.01907842 0.0018073618 -0.042907458 4283922988
0.020733509 0.0026686527 -0.043881532 4283923244
0.022916216 0.0012677945 -0.042872693 4283856433
0.025290007 -0.00088608265 -0.041205466 4283922480
0.027496854 -0.0022852905 -0.040200569 4283790898
0.029714406 -0.0036837123 -0.039197452 4283855923
0.031754229 -0.0043280721 -0.038854867 4283791153
0.03418164 -0.0064783879 -0.03719642 4283987504
0.036625128 -0.0086276382 -0.035540611 4284053039
0.038691647 -0.009270072 -0.035202317 4284248878
-0.0043686256 -0.03627342 -0.0083100284 4284116788
