# .PCD v0.7 - Point Cloud Data file format
VERSION 0.7
FIELDS x y z rgba
SIZE 4 4 4 4
TYPE F F F U
COUNT 1 1 1 1
WIDTH 975
HEIGHT 1
VIEWPOINT 0 0 0 1 0 0 0
POINTS 975
DATA ascii
0.021955725 0.013476916 -0.0026298705 4281243959
0.024314644 0.012195908 -0.0017425958 4281506100
0.02761624 0.0080440864 0.0018404499 4282814249
0.030242626 0.0060481653 0.0033940533 4284512039
0.040168099 0.00022928417 0.0075565148 4284509233
0.0431148 -0.0024768338 0.0097637791 4283855668
0.047340564 -0.008763276 0.01531628 4282808893
0.05390206 -0.021491624 0.026881913 4282611268
-0.045022115 -0.0016161129 0.020602638 4280588608
-0.043638289 0.0014497861 0.017342668 4281438014
-0.042275429 0.0045140982 0.014087912 4281373243
-0.041073568 0.0083044618 0.010142716 4280981818
-0.039327078 0.0091830641 0.0089840554 4281047099
-0.038167171 0.012970306 0.0050492585 4280655419
-0.036885507 0.016028445 0.0018147584 4281371713
-0.03517282 0.016904674 0.0006645713 4281241663
-0.03254535 0.013421044 0.0036701821 4281242938
-0.029891223 0.009939611 0.0066693742 4280983859
-0.027844891 0.0093651041 0.0068976227 4281701174
0.0078883655 0.012994148 -0.0025786422 4283077409
0.009566687 0.013869975 -0.0037185811 4281570868
0.011239756 0.014745429 -0.0048571229 4279743793
0.013124458 0.014899146 -0.0053174491 4280002874
0.015228741 0.014331762 -0.0051015075 4280394809
0.01756056 0.013043866 -0.0042112116 4280199479
0.019453283 0.013198569 -0.0046732388 4280655929
0.021573516 0.012632802 -0.0044609513 4280916284
0.023929205 0.011347234 -0.0035762694 4281243193
0.027226739 0.0071820393 -2.1923333e-06 4281702448
0.030085145 0.0044594333 0.002219555 4283400748
0.035143226 0.0011782274 0.0046347231 4284316454
0.037570387 -0.00010093302 0.0055023972 4283399728
0.039515994 5.8978796e-05 0.0050281398 4282287673
0.043699961 -0.0062505081 0.010575738 4281828674
0.049942493 -0.018304922 0.021459321 4281828418
-0.051933736 0.0021853372 0.015260762 4281826889
-0.050919265 0.0074530914 0.0099127442 4278763318
-0.049424388 0.0097952634 0.0073604137 4280393789
-0.047549345 0.0099449158 0.0068999249 4279872568
-0.045539513 0.0093644336 0.0071347822 4281176893
-0.04393585 0.010974608 0.0052842796 4281178169
-0.042342544 0.012584031 0.0034364387 4281111869
-0.040474601 0.012733467 0.0029779673 4280720954
-0.039041951 0.015071262 0.00044129603 4279222319
-0.037477173 0.016678665 -0.0013993289 4279678768
-0.035772331 0.017556354 -0.0025459016 4280330038
-0.033153981 0.014061131 0.00045357831 4280265524
-0.03050898 0.010568142 0.0034465976 4280982584
-0.028312519 0.0092624351 0.0043646749 4281374009
-0.026588455 0.010142066 0.0032136869 4283534369
0.0073178001 0.012884982 -0.0050849877 4284708133
0.0092022941 0.013038456 -0.0055454336 4282814504
0.010872796 0.013915882 -0.0066816751 4281046843
0.01275472 0.014069356 -0.0071413293 4281175873
0.015075333 0.012776144 -0.0062517598 4281045058
0.01740659 0.011483878 -0.0053646602 4280915264
0.019748449 0.010192625 -0.0044801068 4281241919
0.021873631 0.0096251145 -0.0042706784 4280980798
0.024464004 0.0076130107 -0.0027184729 4281307964
0.027535457 0.0041577071 0.00017262157 4281439799
0.030398164 0.0014267936 0.0023866622 4282158899
0.033044163 -0.00058041513 0.0039255572 4282549049
0.03546549 -0.0018644705 0.004791243 4282090813
0.037654195 -0.0024261251 0.0049856808 4281436228
0.039848171 -0.0029872581 0.0051789731 4281304903
0.044780824 -0.011479028 0.012713153 4281370438
0.051535048 -0.025011063 0.02489973 4281435974
-0.055529624 -0.0018879026 0.017125815 4281694799
-0.054953918 0.0063324347 0.0089901742 4281371458
-0.05356957 0.0094152614 0.0057430733 4281372224
-0.05233258 0.013229556 0.001805516 4280915264
-0.050605468 0.014110435 0.00065455213 4281371458
-0.048619963 0.01352571 0.00089361705 4280655163
-0.046360217 0.011476614 0.0025188569 4280785724
-0.04435841 0.010893375 0.0027540587 4281046588
-0.042630449 0.011774667 0.0016031582 4281046843
-0.040907577 0.012655661 0.0004535839 4280981053
-0.039334744 0.014267959 -0.0013858266 4280394298
-0.037772298 0.015879489 -0.0032225545 4279547698
-0.035919778 0.016027946 -0.003677051 4280851514
-0.033608384 0.013983693 -0.0020640139 4280721464
-0.031125396 0.011210054 0.00023371726 4280916028
-0.028937422 0.0098992661 0.0011505559 4281046333
-0.027221225 0.010780431 3.0957162e-06 4281961529
-0.025183171 0.010201044 0.00023020804 4283269169
0.011361584 0.010186844 -0.005805755 4281570868
0.013251323 0.010340966 -0.0062673204 4281110338
0.015360203 0.0097696185 -0.0060558449 4280783174
0.018139737 0.007022664 -0.0038286154 4281044803
0.02049163 0.0057278946 -0.0029498478 4281045314
0.022854146 0.0044340715 -0.0020735422 4280980544
0.025227258 0.0031412616 -0.0011997828 4281045313
0.027843347 0.0011248961 0.00034124311 4281370948
0.030710336 -0.0016142875 0.0025475239 4281436483
0.03312318 -0.0029035434 0.0034118993 4281502019
0.035306264 -0.0034679174 0.0036059627 4281632578
0.037737601 -0.0047554299 0.0044660028 4281567043
0.04017948 -0.0060419068 0.0053235162 4281501764
0.045362979 -0.015282683 0.013502968 4281501764
0.0523718 -0.029578552 0.026322162 4281435973
-0.056508332 0.0016876832 0.011087278 4281758804
-0.055827983 0.0091947988 0.003669342 4280979268
-0.054458775 0.012285054 0.0004326012 4279937593
-0.05298426 0.014638469 -0.0021048998 4280915518
-0.051267609 0.015520629 -0.0032516546 4280720189
-0.049029976 0.013463154 -0.0016260725 4280003383
-0.046642095 0.010672435 0.00068770908 4280264759
-0.044780076 0.010821149 0.0002305042 4281176893
-0.043057308 0.011704221 -0.00091751292 4280916029
-0.041339628 0.012586929 -0.0020641685 4280850494
-0.039627053 0.013469309 -0.0032095108 4280916028
-0.037919559 0.014351401 -0.0043535139 4281111614
-0.035767086 0.013033144 -0.0034316014 4281111870
-0.033756524 0.012448974 -0.0031998008 4281046588
-0.031740479 0.01186531 -0.0029692259 4281307709
-0.029876955 0.012014933 -0.0034262035 4281568064
-0.027692035 0.010699682 -0.002511939 4281568830
-0.025659628 0.010117672 -0.0022851806 4281895739
0.012062706 0.0057168752 -0.0042667021 4284644893
0.014179178 0.0051438138 -0.0040587881 4281632834
0.016519863 0.0038435683 -0.0031808028 4281109574
0.018871188 0.002544269 -0.0023052702 4280717639
0.021233113 0.0012459829 -0.0014322968 4280523329
0.023378797 0.00067581981 -0.0012312019 4280914754
0.025988802 -0.001347661 0.00030621793 4280979524
0.028382538 -0.0026429817 0.0011717072 4281305924
0.031021684 -0.0046638474 0.0027021971 4281501764
0.033201788 -0.0052307397 0.0028952379 4281502019
0.035627283 -0.0065231696 0.003753284 4281567299
0.038063332 -0.0078145638 0.0046088062 4281632324
0.040755365 -0.0098306313 0.0061267503 4281501509
0.045943826 -0.019099094 0.014283283 4281501764
0.052705418 -0.032712884 0.026404748 4281566534
-0.056303106 -0.0020865947 0.012015436 4282412369
-0.055854343 0.0069186538 0.0032241978 4281174599
-0.05485189 0.012230702 -0.0020859633 4280394044
-0.053382128 0.014590204 -0.0046173139 4279873333
-0.051670693 0.015474088 -0.0057611517 4280524858
-0.04943908 0.013409637 -0.0041391654 4279286068
-0.04705745 0.010609731 -0.0018305331 4281045824
-0.045064241 0.010021403 -0.0015966073 4281111614
-0.043204769 0.010169983 -0.0020531416 4281046333
-0.041487008 0.011054829 -0.0031981785 4281046334
-0.039774336 0.011939354 -0.0043418929 4281177149
-0.038213938 0.013559312 -0.0061715096 4281177404
-0.036064647 0.012236454 -0.0052521657 4280916284
-0.034514479 0.013855778 -0.0070791282 4280851258
-0.032664485 0.014004182 -0.0075328872 4278377248
-0.030814327 0.014152706 -0.007986607 4279548719
-0.028482772 0.012097321 -0.006388329 4279613488
-0.026135162 0.010043286 -0.0047938656 4281308473
0.012548771 0.0019600466 -0.0034113368 4284512804
0.015104912 -7.4900687e-05 -0.0018662075 4282744634
0.017239591 -0.00064847618 -0.0016643675 4281436738
0.019379593 -0.0012215227 -0.0014637494 4281240388
0.02152491 -0.001794003 -0.0012643309 4280979268
0.023675552 -0.0023659915 -0.0010660896 4280979268
0.026060767 -0.0036664605 -0.00020193961 4281436229
0.028688531 -0.0056948662 0.001326235 4281567043
0.031332172 -0.0077218041 0.0028505884 4281632578
0.033517234 -0.0082905069 0.003040798 4281632578
0.035707552 -0.0088585913 0.0032297801 4281697603
0.038145676 -0.01015415 0.0040814672 4281828419
0.041329943 -0.013632104 0.0069204923 4281697603
0.046771243 -0.023655914 0.015716799 4281501509
-0.055639982 0.0031583309 0.0041602878 4281433424
-0.054997765 0.010705732 -0.003214946 4280785213
-0.053527497 0.013071723 -0.0057414556 4281045313
-0.051815949 0.013957746 -0.006883679 4281110849
-0.04971619 0.012625895 -0.0059560444 4280980543
-0.047605634 0.011294946 -0.0050309543 4281111103
-0.045757078 0.011442535 -0.0054849014 4281371969
-0.043769278 0.010851666 -0.0052512698 4281111103
-0.041775994 0.010261349 -0.0050189029 4281176384
-0.039921559 0.010409676 -0.0054740887 4281242174
-0.038360871 0.012033969 -0.0073004626 4281176893
-0.036361732 0.011444405 -0.0070693064 4281046589
-0.035118446 0.014542881 -0.010261052 4280589628
-0.033276513 0.014690615 -0.010712857 4281046078
-0.031434432 0.01483845 -0.011164623 4280981819
-0.028951347 0.012038954 -0.0088868197 4278898978
-0.026772656 0.010714605 -0.0079776421 4281570613
-0.025245205 0.012336917 -0.0097953323 4282029614
0.012820404 -0.0010770038 -0.0032348474 4284247858
0.015165225 -0.0023856834 -0.0023646178 4282547518
0.017520666 -0.0036933944 -0.0014969045 4281567299
0.019665627 -0.0042682216 -0.0012991074 4281501254
0.021815885 -0.0048424825 -0.0011025742 4281305669
0.023971453 -0.0054161772 -0.00090723671 4281370438
0.026590485 -0.0074518993 0.000617994 4281435973
0.028993674 -0.0087551102 0.0014745127 4281632068
0.031641837 -0.010788225 0.0029927976 4281762373
0.034068845 -0.012089245 0.0038436931 4281762629
0.037225455 -0.015580527 0.0066809524 4281632324
0.040650874 -0.019799739 0.010174185 4281762373
0.044108026 -0.024016179 0.013659734 4281632578
0.048835061 -0.031878658 0.0204427 4281631813
-0.054945536 -0.0035836324 0.0078488551 4281759059
-0.054651737 0.0062130392 -0.0015843539 4280783428
-0.053421594 0.010069959 -0.0054870015 4280980798
-0.051832899 0.011700116 -0.0073174564 4280915518
-0.050254591 0.01332958 -0.0091453362 4280785214
-0.048553117 0.014217097 -0.010283313 4279873333
-0.046584353 0.013622433 -0.010046758 4279677748
-0.044332467 0.011546783 -0.0084395446 4279156528
-0.042205967 0.01021304 -0.0075215045 4281046334
-0.040645175 0.011841573 -0.0093447175 4281241918
-0.038948007 0.01272925 -0.01048125 4281176638
-0.037255965 0.013616592 -0.011616468 4280394809
-0.035569027 0.014503688 -0.012750385 4280133688
-0.033887222 0.015390415 -0.013882934 4281307199
-0.031895846 0.014798343 -0.013651326 4281503039
-0.029579028 0.012728699 -0.012059428 4281177148
-0.027408823 0.011399254 -0.011151491 4281049394
-0.025723733 0.012286715 -0.012284559 4281831990
0.012878239 -0.0033876747 -0.0037324145 4283463988
0.015440743 -0.005435057 -0.002198888 4281959233
0.017582675 -0.0060124323 -0.0020021182 4281435973
0.019950815 -0.0073233172 -0.0011407454 4281435463
0.022106016 -0.0078993216 -0.00094707124 4281304904
0.024492748 -0.0092084929 -9.0004876e-05 4281435464
0.027118918 -0.011250094 0.0014284253 4281631814
0.029992508 -0.014023542 0.0036063846 4281697094
0.033355609 -0.018261202 0.0071045551 4281892679
0.036276847 -0.021030471 0.0092710219 4281760589
0.039937653 -0.025995687 0.013416499 4281694033
0.044119734 -0.032422498 0.018874377 4281889873
0.047615185 -0.036648773 0.022340598 4282607698
-0.05413384 -0.011100307 0.012203934 4282346579
-0.054184549 0.00095894188 0.00072178151 4281762118
-0.053316437 0.007059671 -0.0052387943 4281045824
-0.051850207 0.0094383731 -0.0077542886 4281113144
-0.050530307 0.012559481 -0.010952142 4280589884
-0.048964709 0.014192261 -0.012773485 4279287599
-0.047137536 0.014338076 -0.013222228 4280199479
-0.044894323 0.012255259 -0.011617947 4278374954
-0.042776316 0.010916479 -0.010701173 4280589628
-0.040935338 0.011063688 -0.011153082 4281046334
-0.039240733 0.011953287 -0.012287345 4281111360
-0.037700444 0.013584688 -0.014102067 4280915264
-0.036018714 0.014473449 -0.015233023 4278700078
-0.034342103 0.015361901 -0.016362643 4279873333
-0.032356367 0.014767185 -0.016131351 4280133689
-0.030205391 0.013431802 -0.015222158 4280070449
-0.028043672 0.012097336 -0.014315481 4280198713
-0.025871225 0.010763876 -0.013411405 4280850238
-0.023688033 0.0094313398 -0.012509832 4281897524
-0.02183488 0.0095805526 -0.012963945 4284248623
0.013361171 -0.0071762875 -0.0029006302 4283268148
0.015500061 -0.007756196 -0.002704883 4281959233
0.017644264 -0.0083355159 -0.0025103893 4281370694
0.020014482 -0.0096505359 -0.0016528387 4281370184
0.022395328 -0.010964654 -0.00079776905 4281435209
0.025012754 -0.013013564 0.00071771257 4281173068
0.028789319 -0.018739335 0.0055409763 4281565769
0.032608263 -0.024461485 0.010353997 4281891913
0.036469594 -0.030180059 0.015156776 4282021708
0.039426915 -0.032955006 0.017307788 4281954898
-0.053474285 -0.0058094338 0.0043852497 4282150993
-0.053212054 0.0040410236 -0.0049968744 4281240899
-0.052251346 0.0094103962 -0.010250097 4280916793
-0.050936013 0.012539729 -0.013440204 4280720189
-0.049375407 0.014176477 -0.015257046 4281371714
-0.047553651 0.014321838 -0.015704479 4281241664
-0.045316465 0.012231961 -0.014103696 4281046079
-0.043204278 0.010888413 -0.013188878 4280720444
-0.041225024 0.010290444 -0.012958018 4280981053
-0.039679319 0.01192648 -0.014770827 4280981053
-0.03799504 0.012817487 -0.015900845 4280915263
-0.0364675 0.014452223 -0.017708998 4280915519
-0.034796096 0.015342459 -0.018835727 4280981053
-0.032659061 0.01400144 -0.017926514 4281176385
-0.030351721 0.011918031 -0.016342372 4281046078
-0.027866118 0.0090928152 -0.014085143 4280849729
-0.025359206 0.0062693805 -0.01183308 4280784704
-0.022998482 0.0041905567 -0.010261728 4281111360
-0.021302365 0.0050833523 -0.011393999 4283139884
0.013417803 -0.0094994977 -0.003407402 4283137843
0.015774146 -0.01082024 -0.0025499966 4281959488
0.017705459 -0.01066263 -0.003021637 4281436229
0.02007775 -0.011981837 -0.0021679457 4281238348
-0.05288922 -0.011859477 0.0073412601 4282346833
-0.05323343 0.0017622188 -0.0054455856 4281369674
-0.052651592 0.0093914345 -0.012739305 4280850748
-0.051471099 0.01327695 -0.016604703 4279937593
-0.049918108 0.014917336 -0.018416325 4280850238
-0.048239946 0.015809502 -0.019543568 4281111104
-0.046014108 0.013712265 -0.017945051 4280395319
-0.043772198 0.011616357 -0.016350359 4280460599
-0.041657723 0.010268725 -0.015439392 4280916538
-0.03997089 0.011161976 -0.016568465 4280916793
-0.038289152 0.012054928 -0.017696198 4280850238
-0.036461122 0.012201346 -0.018144742 4280523838
-0.034478866 0.01160188 -0.017916029 4281242173
-0.032491148 0.011002958 -0.017688576 4281306433
-0.03017927 0.0089133531 -0.016110517 4281371714
-0.027851358 0.0068251565 -0.014536299 4281110848
-0.025013469 0.0025028884 -0.010942082 4281437759
-0.023147471 0.0026529953 -0.011399443 4281437759
-0.021111391 0.0020584837 -0.011183443 4282875704
-0.019069895 0.0014645234 -0.010968684 4284640558
0.01368634 -0.012568027 -0.0032542651 4282415173
0.015832439 -0.013151623 -0.0030636434 4281433169
-0.053005621 -0.002021715 -0.0045318096 4281955663
-0.053050943 0.0093814209 -0.015221832 4281306434
-0.051874816 0.013277374 -0.019077852 4279806269
-0.050459512 0.015671596 -0.021565765 4280133434
-0.048518509 0.015065949 -0.021329144 4280720444
-0.046572007 0.014460791 -0.021093762 4280786744
-0.044057526 0.010859184 -0.01814427 4281046843
-0.04194624 0.0095069483 -0.017235866 4281046843
-0.039970115 0.0089044943 -0.017007571 4281178169
-0.038137108 0.0090511739 -0.017457439 4280981053
-0.036001489 0.0077011436 -0.016554732 4280915518
-0.033855125 0.006352149 -0.015654605 4280980543
-0.031854518 0.0057520717 -0.015431995 4280980289
-0.029530175 0.003656961 -0.013862005 4280980543
-0.027351603 0.0023108423 -0.012969547 4280915263
-0.024668969 -0.001276359 -0.010060594 4281307199
-0.022795156 -0.0011256412 -0.010519884 4281567554
-0.021090955 -0.00022790581 -0.011650831 4283137589
-0.052529864 -0.0073238239 -0.0022652578 4281368144
-0.052813388 0.005618006 -0.014295314 4281174088
-0.052017935 0.011782281 -0.020184685 4280522819
-0.050469637 0.013430931 -0.02198858 4281175363
-0.048661448 0.013575137 -0.022432735 4281371459
-0.046577498 0.012216121 -0.02152108 4281372989
-0.044061534 0.0086037889 -0.018580295 4281111103
-0.041805089 0.0064961761 -0.016999157 4281176639
-0.039532594 0.0043898746 -0.015421864 4280980799
-0.037540771 0.0037865937 -0.015199026 4281111613
-0.035241485 0.0016826615 -0.013628137 4280913733
-0.033079788 0.00033051521 -0.012735137 4281437249
-0.031219944 0.00047966093 -0.013191341 4281110339
-0.029201008 -0.00012106448 -0.012974794 4281371459
-0.027015045 -0.0014709383 -0.012087497 4281240644
-0.024489887 -0.0043189079 -0.0098599214 4281239623
-0.022944689 -0.0026691481 -0.011662009 4281436484
-0.020731844 -0.0040165633 -0.010780999 4281959233
-0.051807426 -0.014157206 0.0013444349 4282216018
-0.052196026 -0.00042224675 -0.011341612 4281824338
-0.051383182 0.0057606995 -0.017222017 4280717384
-0.049950995 0.0081691965 -0.019704124 4280652614
-0.0481297 0.0083144158 -0.020151524 4281175618
-0.046170652 0.0077058747 -0.01992259 4281045313
-0.043645285 0.0040834695 -0.016992453 4281045824
-0.041379027 0.0019701123 -0.015418747 4280979779
-0.039096691 -0.00014189631 -0.013848872 4281110339
-0.037094623 -0.00074654073 -0.013630218 4281240644
-0.035087094 -0.0013506413 -0.013412836 4281370693
-0.032920659 -0.0027067885 -0.0125243 4281500488
-0.030743502 -0.004061915 -0.011638349 4281370439
-0.028555587 -0.00541614 -0.010754915 4281370694
-0.026356965 -0.0067693219 -0.0098740608 4281240388
-0.024475634 -0.0066181496 -0.010335315 4281110084
-0.022594169 -0.0064668581 -0.010796508 4281175364
-0.020712554 -0.0063154325 -0.01125765 4281698368
-0.051460288 -0.018749654 0.0028979806 4282281043
-0.051707901 -0.0057314932 -0.0090843551 4281889874
-0.051009707 0.0012265369 -0.015631692 4281108809
-0.049566455 0.0036423653 -0.018111551 4280848709
-0.047600009 0.0030321628 -0.017886244 4280980288
-0.045490704 0.0016665012 -0.016987493 4281110339
-0.043090649 -0.0012097806 -0.014743307 4281110083
-0.040811904 -0.0033286586 -0.01317768 4281240899
-0.038807698 -0.0039354488 -0.012961276 4281240898
-0.036798038 -0.0045416653 -0.012746172 4281240898
-0.0349335 -0.0043924227 -0.013203746 4281566788
-0.032915547 -0.0049977601 -0.012990512 4281566789
-0.030892178 -0.005602546 -0.012778522 4281435973
-0.028546318 -0.0077154487 -0.01122883 4281305414
-0.026506744 -0.0083187297 -0.011020647 4281305414
-0.024461746 -0.0089214519 -0.010813706 4281305414
-0.022744231 -0.0080163106 -0.011943046 4281110593
-0.020693667 -0.0086183771 -0.011737308 4281828674
-0.051238693 -0.02259998 0.0037624957 4282148444
-0.051474966 -0.0095442012 -0.0081943646 4281496663
-0.050637856 -0.0033247992 -0.014054086 4281696584
-0.04918354 -0.00090162456 -0.016531695 4281174599
-0.047206841 -0.0015131831 -0.016310582 4280913733
-0.045224652 -0.0021242276 -0.016090687 4281174853
-0.042817637 -0.0050085858 -0.013854919 4281240134
-0.040816583 -0.005617924 -0.013639502 4281371203
-0.038955159 -0.0054691359 -0.014096478 4281305668
-0.037093572 -0.005320251 -0.014553428 4281175364
-0.035081424 -0.0059283376 -0.014340524 4281502528
-0.032910824 -0.0072927997 -0.01345974 4281436738
-0.030885138 -0.0078995898 -0.013250001 4281435973
-0.028695703 -0.0092623681 -0.012373624 4281173578
-0.026656494 -0.0098678544 -0.012167029 4281174089
-0.024611831 -0.010472782 -0.011961684 4281239368
-0.022561751 -0.011077203 -0.011757536 4281108299
-0.02067513 -0.01092542 -0.01221993 4281565768
-0.051243216 -0.013369717 -0.0073137977 4282019158
-0.050396644 -0.0071322545 -0.013162596 4281826889
-0.049065538 -0.0039412305 -0.016310001 4281109574
-0.047218181 -0.0037939921 -0.016763845 4281109573
-0.045096762 -0.0051673502 -0.015874814 4281174853
-0.042824998 -0.0072999448 -0.014317529 4281175109
-0.040679403 -0.0086711496 -0.013434257 4281370949
-0.0389577 -0.0077622756 -0.014562007 4281305414
-0.037093595 -0.0076131895 -0.015019577 4281306434
-0.035079159 -0.0082232878 -0.014808925 4281437249
-0.03290645 -0.0095918998 -0.013931982 4281176384
-0.031189375 -0.0086829588 -0.015058262 4281435973
-0.029003128 -0.010050312 -0.014184428 4281107279
-0.026966929 -0.010658219 -0.013978783 4281107024
-0.024761878 -0.012023799 -0.013109427 4281040979
-0.022878177 -0.011872374 -0.013571216 4280581213
-0.050886489 -0.017971389 -0.0057702949 4282541654
-0.050156623 -0.010952547 -0.012280555 4282022219
-0.048948325 -0.0069892183 -0.016094591 4281109574
-0.047229894 -0.0060788617 -0.017220194 4281174344
-0.045106366 -0.0074563771 -0.016335011 4281043784
-0.042832717 -0.0095953047 -0.014783183 4281240388
-0.040543035 -0.011732824 -0.013235271 4281370949
-0.038671292 -0.011583246 -0.013694802 4281369929
-0.036946692 -0.010671876 -0.01482152 4281107023
-0.034927301 -0.011283763 -0.014613766 4280975954
-0.032902449 -0.011895135 -0.014407218 4280648534
-0.050175004 -0.013254933 -0.012748335 4281956429
-0.048831895 -0.010045633 -0.015885431 4281437248
-0.046974227 -0.0098976269 -0.016341859 4281306179
-0.044706777 -0.012043655 -0.014793586 4281305158
-0.042284146 -0.014952809 -0.012581628 4281500998
-0.03969837 -0.018624417 -0.0097079007 4281500743
-0.037952706 -0.017709322 -0.010838221 4281303373
-0.03650637 -0.015266754 -0.013298454 4280778073
-0.049680181 -0.018631466 -0.010544929 4281956683
-0.04806111 -0.016947091 -0.012342987 4281175618
-0.045784034 -0.019098945 -0.010802156 4280979268
-0.043354608 -0.022016264 -0.0085986415 4281369673
-0.040764898 -0.025698535 -0.0057342569 4281631049
-0.038573384 -0.027079098 -0.0048722918 4281434954
-0.036948115 -0.025393732 -0.0066714822 4281102178
-0.048418313 -0.028647698 -0.0043557696 4283000399
-0.04650823 -0.028495662 -0.0048251692 4282870604
-0.044197582 -0.030651286 -0.0032976381 4282347343
-0.041462541 -0.035112806 0.00022106245 4283000909
0.029999424 -0.024787471 0.0083065592 4279852423
0.03521885 -0.034951441 0.017063096 4280179334
0.039343812 -0.041422255 0.022504637 4282341223
0.020140629 -0.014317222 -0.0026859958 4279853444
0.022302689 -0.014899157 -0.0024990095 4279654798
0.02604901 -0.020662136 0.0023048976 4279195799
0.030978756 -0.030121528 0.010393906 4279391638
0.036669984 -0.041794561 0.020441575 4279654289
0.013317753 -0.013414524 -0.005091364 4280769913
0.015890338 -0.01548706 -0.0035802969 4279525004
0.017826654 -0.015329055 -0.0040531666 4279131029
0.020203097 -0.016656615 -0.003207101 4279326869
0.022367444 -0.017240539 -0.0030223308 4279260824
0.026114536 -0.023020759 0.0017680647 4278801823
0.030815983 -0.031766109 0.0091780461 4279194779
0.036503598 -0.043474041 0.019199962 4279850130
0.0067653507 -0.013233975 -0.0068368972 4281816179
0.0093052462 -0.015316091 -0.0053230808 4279784848
0.011442594 -0.015904985 -0.0051338472 4279522454
0.013797171 -0.017238982 -0.004286102 4278997664
0.015947856 -0.017826602 -0.0040999046 4278408359
0.017886665 -0.017668381 -0.0045733703 4278539429
0.020265169 -0.019000061 -0.0037311902 4278998173
0.022654289 -0.020330794 -0.0028914614 4279063964
0.02617966 -0.025383428 0.0012282431 4278866848
0.030881027 -0.034154773 0.0086183101 4279063708
0.035876375 -0.043664888 0.016648138 4280177293
0.0027704611 -0.015126556 -0.0070671053 4279981453
0.0048913956 -0.015719324 -0.0068758079 4279784338
0.0072214268 -0.017060064 -0.0060256408 4279456919
0.0093557164 -0.017651498 -0.0058374247 4279194524
0.011495352 -0.018242389 -0.00565043 4278801059
0.013640322 -0.018832713 -0.0054646423 4278735523
0.016004957 -0.020170152 -0.0046225516 4278604708
0.018163238 -0.020759128 -0.0044398075 4278604453
0.02032683 -0.021347567 -0.0042582816 4278932383
0.02249576 -0.021935485 -0.0040779104 4279128989
0.025794556 -0.026256613 -0.00062432885 4279325338
0.030490519 -0.035054304 0.0067470483 4279260058
0.035019848 -0.043100409 0.013449447 4280242828
-0.0077216476 -0.014475703 -0.0085397866 4282536808
-0.0060005486 -0.013569348 -0.0096692853 4280702083
-0.0039041042 -0.014166757 -0.0094740484 4279588499
-0.0018022768 -0.014763653 -0.0092799868 4279653013
0.0005004853 -0.016111262 -0.0084268143 4279783828
0.0026156902 -0.016706795 -0.0082358932 4279259548
0.0047362596 -0.017301768 -0.0080461828 4279259548
0.0070657097 -0.018646888 -0.007199212 4279062944
0.009611953 -0.020741425 -0.0056969812 4279062943
0.011756528 -0.021334119 -0.0055128215 4279194013
0.013906434 -0.021926217 -0.0053299023 4279062944
0.016061671 -0.022517726 -0.0051481756 4278669734
0.018438993 -0.023858331 -0.0043124217 4279063199
0.020607516 -0.024448521 -0.0041337605 4279194524
0.023003409 -0.025787301 -0.0033023763 4279194268
0.026084006 -0.029371955 -0.0005136393 4279194524
0.030327832 -0.036697946 0.0055318922 4279456663
0.034624636 -0.044019513 0.01156464 4280571015
-0.012230068 -0.014090918 -0.010755576 4281356924
-0.010147508 -0.014691971 -0.010558886 4280373898
-0.0078747869 -0.016046822 -0.0097020594 4279718803
-0.0059662089 -0.015892453 -0.010169207 4279325339
-0.0040575489 -0.015737936 -0.010636273 4279324829
-0.0015706643 -0.017844431 -0.0091249449 4278735014
0.00054146722 -0.018442512 -0.0089350408 4279259549
0.0026589558 -0.019040018 -0.0087463437 4279194014
0.0045811571 -0.018883914 -0.0092163412 4279194013
0.0065034218 -0.018727683 -0.0096862642 4278801059
0.0092495307 -0.021581881 -0.0075313216 4279128478
0.011391085 -0.022176936 -0.0073481267 4279062943
0.013749219 -0.023523673 -0.006511196 4279128733
0.016117983 -0.024869367 -0.0056768092 4278800804
0.018930444 -0.02771768 -0.0035376991 4279259803
0.021325748 -0.029060982 -0.0027095489 4279260058
0.023953475 -0.03115461 -0.0012316369 4279128989
0.027270578 -0.035500258 0.0021975376 4279522709
0.031073708 -0.041344903 0.006921066 4280178313
0.034459658 -0.045684628 0.010333644 4282340459
-0.018767752 -0.013084382 -0.013168575 4280768638
-0.016530447 -0.014446907 -0.012306781 4280374664
-0.014459051 -0.015051283 -0.01210922 4279915154
-0.012023717 -0.017169066 -0.010590746 4279390618
-0.0099362135 -0.017771885 -0.010396934 4279456409
-0.0078433193 -0.018374227 -0.010204325 4279260058
-0.0057450458 -0.018975951 -0.010012972 4278866083
-0.0034515411 -0.020333216 -0.0091643883 4278997408
-0.0011473447 -0.021689542 -0.008318278 4278800293
0.00077721477 -0.021533512 -0.0087890653 4278866339
0.0027018487 -0.021377333 -0.0092597483 4279259548
0.0046265423 -0.021221034 -0.0097303642 4279128733
0.0067543872 -0.021819614 -0.0095456718 4278932128
0.0097105205 -0.025436923 -0.006743859 4279063198
0.011859644 -0.026033521 -0.0065641734 4278736033
0.014647201 -0.028892741 -0.00442582 4278997919
0.017028607 -0.03024175 -0.0035978667 4279128988
0.020069635 -0.033851676 -0.00081636012 4280177038
0.022918168 -0.036705472 0.0013073711 4281487484
0.025787909 -0.039557479 0.0034260442 4282208623
-0.029152215 -0.011594467 -0.015327195 4279984769
-0.027276874 -0.01144395 -0.015787112 4279786378
-0.025075048 -0.012814127 -0.014920315 4279326358
-0.023028314 -0.013423152 -0.014718745 4279128989
-0.020807698 -0.014791638 -0.013856342 4279194268
-0.018576376 -0.016159095 -0.012996509 4279128224
-0.016508095 -0.016765997 -0.012799936 4278866594
-0.014434405 -0.017372429 -0.012604573 4279062944
-0.012355316 -0.017978229 -0.01241047 4279063199
-0.010270827 -0.018583484 -0.012217603 4279062943
-0.0079965927 -0.019946925 -0.011367771 4278997409
-0.0060856678 -0.01979237 -0.0118355 4279128478
-0.0037953854 -0.021154232 -0.010989464 4278931618
-0.00149443 -0.022515096 -0.010145935 4278735524
0.00062227994 -0.023117177 -0.0099604381 4278735778
0.002744332 -0.023718648 -0.0097761927 4278736033
0.0048717447 -0.024319574 -0.0095931692 4279195034
0.007410273 -0.026434384 -0.0081040896 4279456664
0.010170251 -0.02930475 -0.0059658512 4279522198
0.012743279 -0.031416439 -0.0044850484 4279456154
0.015753876 -0.035039864 -0.0017046705 4279915153
0.018577522 -0.037904657 0.00041830819 4280374153
0.021854592 -0.042279847 0.0038369624 4281750644
0.024288438 -0.043628655 0.0046490412 4282668134
-0.033051215 -0.01343894 -0.015549811 4279656583
-0.031021297 -0.014051929 -0.01534614 4279785869
-0.029143587 -0.013901345 -0.015806729 4279129753
-0.027105421 -0.01451344 -0.015604906 4279063963
-0.025061816 -0.015124999 -0.015404325 4278932384
-0.023178414 -0.014973603 -0.01586605 4278801059
-0.020790093 -0.017108642 -0.014346429 4278735268
-0.018385783 -0.019242264 -0.012830627 4278801059
-0.015965484 -0.021374427 -0.011318701 4278866594
-0.014233954 -0.020459093 -0.012444491 4278473384
-0.01214993 -0.021066673 -0.012253272 4278931874
-0.010241993 -0.02091261 -0.012720465 4279259548
-0.0079656988 -0.022280224 -0.011874481 4278866339
-0.0060522705 -0.02212546 -0.012342825 4279062943
-0.0037599094 -0.023491479 -0.011500622 4279128478
-0.0014568791 -0.02485656 -0.010660897 4278866593
0.00085680559 -0.026220597 -0.0098237172 4278735779
0.0031811558 -0.027583659 -0.0089890547 4279195034
0.005516164 -0.028945774 -0.0081568696 4279260313
0.0080644861 -0.031066246 -0.0066751651 4280635529
0.011244647 -0.035462819 -0.0032432233 4280701319
0.01424868 -0.039097704 -0.00046964828 4282076024
0.017489824 -0.043489061 0.0029475866 4282862954
-0.03606768 -0.019878767 -0.011788075 4279981453
-0.034775496 -0.0166642 -0.014905476 4279784339
-0.033199929 -0.014982454 -0.016692189 4279128734
-0.03101553 -0.016363047 -0.01582806 4278932129
-0.028977849 -0.016977467 -0.015627878 4279128733
-0.026774637 -0.018356368 -0.014768143 4278801314
-0.024886221 -0.018204726 -0.015231202 4278604708
-0.022997648 -0.018052921 -0.015694194 4278801059
-0.020940922 -0.018665366 -0.015498334 4278801059
-0.01870808 -0.020041361 -0.014645542 4278801059
-0.016291194 -0.022180356 -0.013137731 4278866848
-0.014386274 -0.022026785 -0.013604376 4278801059
-0.012481235 -0.021873064 -0.014070942 4278735269
-0.010394819 -0.022482499 -0.013881895 4278800804
-0.0083030127 -0.023091428 -0.013694017 4279128223
-0.0058326982 -0.025225461 -0.012198877 4279193758
-0.0037248358 -0.025832787 -0.012014773 4279521688
-0.0010360181 -0.028726853 -0.0098729283 4279849364
0.0014795512 -0.030856863 -0.0083885081 4282271098
-0.037310734 -0.036341332 0.00059820246 4281817708
-0.036522962 -0.030038886 -0.0051825326 4281161084
-0.036070652 -0.022203244 -0.012277591 4280767109
-0.03477513 -0.01897978 -0.015389173 4279718293
-0.03319665 -0.017293483 -0.017173287 4278931873
-0.031164765 -0.017910652 -0.016973443 4278735524
-0.028812923 -0.020062059 -0.015455219 4278407849
-0.026604988 -0.021444879 -0.014600025 4278735524
-0.024711408 -0.021292813 -0.015064345 4278866594
-0.023148082 -0.019607164 -0.016844306 4278735779
-0.0210917 -0.020221807 -0.016650029 4278473638
-0.018859431 -0.021602184 -0.015800428 4278605218
-0.016443327 -0.023747705 -0.014297422 4278866848
-0.014187004 -0.025125965 -0.013453484 4278866849
-0.012276817 -0.024971858 -0.013921335 4279062943
-0.010185488 -0.025583066 -0.013735153 4279390109
-0.0079050474 -0.026958957 -0.012896892 4279849109
-0.0054275729 -0.029098921 -0.011408448 4281551235
-0.0031231418 -0.030472614 -0.01057585 4282663798
-0.036243252 -0.0339306 -0.0043676351 4281750899
-0.035781071 -0.026072584 -0.011448523 4280766853
-0.034626007 -0.02206964 -0.015215713 4279456409
-0.033041969 -0.020378552 -0.016997915 4279063199
-0.031005144 -0.020997547 -0.016800914 4278997408
-0.028962888 -0.021615952 -0.016605202 4278735268
-0.026595816 -0.023772441 -0.015095651 4278538918
-0.024862073 -0.022851087 -0.016217494 4278735269
-0.023133487 -0.021930017 -0.01733797 4278866849
-0.021242432 -0.02177795 -0.017801508 4279128734
-0.019010752 -0.0231627 -0.0169551 4279062944
-0.016595416 -0.025314786 -0.015456904 4280438669
-0.014164105 -0.027465455 -0.013962515 4281748094
-0.035785213 -0.028409548 -0.011947285 4280570759
-0.034626618 -0.024395518 -0.015707048 4279259804
-0.032888085 -0.023472078 -0.016828749 4279062178
-0.030846335 -0.024092816 -0.016634675 4278866084
-0.028799124 -0.024712987 -0.016441831 4278538663
-0.026746511 -0.025332615 -0.016250245 4279193758
-0.02452632 -0.026723005 -0.015404573 4279194269
-0.022624984 -0.026570238 -0.015870741 4279062944
-0.020221256 -0.028729983 -0.014374867 4280241298
-0.017971598 -0.030117609 -0.013536185 4281878144
-0.035789743 -0.03075058 -0.012449075 4280833154
-0.034627594 -0.026725464 -0.016201394 4278997919
-0.032735027 -0.026573993 -0.016665863 4278997409
-0.030380353 -0.02874475 -0.015163397 4278931618
-0.028166302 -0.030140154 -0.014319781 4278997153
-0.025782272 -0.032308333 -0.012824342 4279521434
-0.023544163 -0.033701576 -0.011986446 4280241553
-0.02145987 -0.03432063 -0.011804067 4281354374
-0.019537382 -0.034166045 -0.012275323 4282728569
-0.03418348 -0.031389661 -0.014732841 4279981454
-0.031978212 -0.032790385 -0.013890535 4280177038
-0.029762238 -0.034190081 -0.013050802 4281355648
-0.027535543 -0.035588808 -0.012213614 4283058793
-0.0054202825 -0.043202721 -0.02486385 4282993768
-0.0033110753 -0.043833666 -0.024698265 4283125094
-0.0227184 -0.042019457 -0.030330798 4282535278
0.048959155 0.020877056 0.040230975 4285556773
0.051463522 0.019691117 0.041146688 4285819934
0.044041168 0.015350416 0.04398068 4285296419
0.044067122 0.020936478 0.03788244 4285558814
0.04480115 0.024486709 0.033896051 4285689373
0.045508586 0.028034858 0.029916221 4285623583
0.047977924 0.026841708 0.030837147 4285623328
0.052264895 0.020911805 0.036645293 4285820699
0.032340989 0.023250185 0.034172393 4285557794
0.03478089 0.022049695 0.035096705 4285754398
0.037231401 0.020850126 0.03601855 4285820189
0.039692488 0.01965154 0.036937818 4285492768
0.040696144 0.022534456 0.033653729 4285493534
0.041431215 0.026095584 0.0296754 4285624348
0.042639639 0.02829532 0.02710131 4285886744
0.044084728 0.029814355 0.025229411 4285754909
0.046540264 0.028615743 0.026150366 4285623583
0.050038107 0.024702016 0.029856501 4285754909
0.056173589 0.014003176 0.040517531 4285755164
0.0277905 0.022671644 0.032526687 4285098028
0.028364493 0.026932243 0.027837479 4285426978
0.029841978 0.028457735 0.025960525 4285689374
0.0324913 0.026567712 0.0275886 4285820188
0.035395674 0.023996364 0.029912664 4286017303
0.038079455 0.022109345 0.031532466 4285689629
0.039312404 0.024317455 0.028957291 4285624604
0.040035184 0.027888454 0.024990341 4285558559
0.041230895 0.030093677 0.022424376 4285755673
0.04291546 0.030934386 0.021255562 4285886999
0.045614921 0.029049087 0.022871876 4285886998
0.049103379 0.025121603 0.026570221 4285821719
0.053144351 0.019834846 0.031650208 4285690138
0.024766918 0.023635965 0.029002292 4285361954
0.025804028 0.026538502 0.025723031 4285624859
0.027281851 0.028068237 0.023849318 4285624094
0.028515428 0.030282576 0.021278745 4285558048
0.031150732 0.02838489 0.022905221 4285558048
0.034040861 0.025803696 0.025226081 4285623838
0.036952198 0.023224331 0.027541833 4285755418
0.038419306 0.024753671 0.025671033 4285558558
0.039628893 0.026966438 0.023106692 4285624349
0.040572964 0.029862057 0.019850669 4285624349
0.042756721 0.029336903 0.020074716 4285624094
0.045200564 0.028128665 0.020991853 4285624093
0.048169967 0.025554586 0.023293851 4285624094
0.050900359 0.023665499 0.024897749 4285558559
0.054434996 0.01972897 0.028574957 4285558558
0.023706179 0.024778355 0.025012324 4285295909
0.024505332 0.028376732 0.021043001 4285493024
0.025739469 0.030597519 0.018477293 4285821718
0.027657887 0.030754481 0.018009115 4285886999
0.030048404 0.029536929 0.018935451 4285887254
0.033404358 0.025571905 0.022645587 4285887254
0.03630941 0.022983339 0.024956191 4285624348
0.03801557 0.023829933 0.023785273 4285624349
0.039716385 0.02467617 0.022615729 4285559068
0.041162506 0.026208337 0.020753542 4285559068
0.043605894 0.024995599 0.021667434 4285624348
0.045550555 0.02515544 0.021193413 4285558558
0.047495153 0.025315363 0.020719478 4285624348
0.048919789 0.026846107 0.018862793 4285689884
0.051646691 0.024950318 0.020462608 4285886999
0.056246087 0.018261481 0.026889393 4285886489
0.024223793 0.021105848 0.0259229 4285360423
0.024120353 0.027476486 0.01916956 4285427999
0.025121832 0.030393582 0.015912447 4285558814
0.027034832 0.030550119 0.015445607 4285558813
0.029655352 0.028638192 0.017065661 4285624349
0.032291774 0.026727665 0.018681908 4285624094
0.034944076 0.024818566 0.020294307 4285624094
0.036880873 0.024977408 0.019821934 4285624094
0.039557002 0.023070414 0.02142871 4285624349
0.041750774 0.022541672 0.021646922 4285624349
0.044201575 0.021325219 0.022555681 4285558813
0.045645252 0.022861715 0.020697577 4285558813
0.046821199 0.025085185 0.018151725 4285690139
0.047981158 0.027307395 0.015609888 4285820954
0.050174594 0.026779074 0.015828526 4285951514
0.053963386 0.022128563 0.02017694 4285885723
0.059662923 0.012672961 0.029331306 4285951514
0.02519015 0.016035341 0.02821709 4285294378
0.024191156 0.025196176 0.018691389 4285559069
0.024965728 0.028814375 0.014744861 4285427999
0.027344566 0.027587045 0.015667338 4285559068
0.029969618 0.02566902 0.017281232 4285558814
0.031657472 0.026518296 0.016117999 4285558558
0.033580929 0.026675962 0.015648816 4285755419
0.03526077 0.027524762 0.01448768 4285886999
0.038412683 0.024228241 0.017476292 4285821208
0.041093301 0.022315197 0.019077037 4285689883
0.04378977 0.020403583 0.020673936 4285558558
0.045231141 0.021944214 0.018819802 4285558814
0.046148133 0.024863988 0.01559069 4285821209
0.04678433 0.028471842 0.011678686 4285820954
0.04870468 0.028629985 0.011210822 4285623584
0.051684156 0.026030991 0.013490548 4285492513
0.056289487 0.019299332 0.019882545 4285492513
0.062838517 0.0077500567 0.031060824 4285427488
0.026828762 0.0088588968 0.032580152 4284967724
0.025171343 0.020133577 0.020987416 4285360678
0.025499949 0.025152422 0.015658459 4285229864
0.027187936 0.026003696 0.014496727 4285559069
0.029576819 0.02477299 0.015413444 4285624858
0.030786015 0.027011555 0.012869081 4285690139
0.032460675 0.027862061 0.011710767 4285821209
0.034130011 0.028712172 0.010553868 4285820954
0.03727011 0.025403839 0.013537012 4285886999
0.040188026 0.02279057 0.015824653 4285952789
0.042624451 0.021564301 0.016730189 4285624349
0.043801561 0.023800809 0.014194092 4285558558
0.044962678 0.026036132 0.011661915 4285624349
0.046107817 0.028270185 0.0091337468 4286018578
0.047760811 0.029119644 0.0079812817 4285952789
0.050202183 0.027894229 0.0088860318 4285821719
0.053990237 0.02321342 0.01321128 4285755928
0.058355108 0.017153636 0.018895537 4285690394
0.065493003 0.0041895136 0.031401433 4285558813
0.026891889 0.0065263659 0.03206414 4285165349
0.025922157 0.015746072 0.022574769 4285295909
0.0260329 0.021477621 0.016562553 4285624093
0.027031325 0.02442063 0.013326323 4285493789
0.028714102 0.025273751 0.012167612 4285558813
0.029678022 0.028214134 0.0089399517 4285887254
0.031342175 0.029065955 0.0077858791 4285689373
0.033487312 0.028526515 0.0080108587 4285492003
0.036375105 0.025901996 0.01029909 4285623328
0.039035615 0.023974322 0.011894671 4285689629
0.041460898 0.022742797 0.012799658 4285689883
0.042881679 0.02429048 0.010957198 4285558558
0.04403539 0.026531681 0.0084319022 4285558558
0.044914044 0.029465817 0.0052256044 4285624349
0.046556536 0.030316606 0.0040773898 4285624348
0.048986755 0.029085942 0.0049815234 4285624093
0.05249555 0.025082409 0.0086150933 4285493279
0.056036066 0.021081589 0.012241013 4285493279
0.061514553 0.012232281 0.0206312 4285493279
0.026281526 0.0062871054 0.029469939 4285166879
0.02644426 0.01204022 0.023458293 4285362463
0.026334893 0.018488664 0.016766667 4285558813
0.026410094 0.024234813 0.010776531 4285493023
0.027382735 0.027184509 0.0075533595 4285427998
0.028571784 0.029434472 0.0050239507 4285821974
0.030225441 0.030287575 0.0038741678 4285887764
0.032602549 0.029047497 0.0047872867 4285821464
0.035481405 0.026413579 0.0070710219 4285821463
0.038381431 0.023781478 0.0093496591 4285887508
0.040299073 0.023939081 0.0088822097 4285624604
0.041709572 0.025490284 0.0070456211 4285558813
0.043621786 0.025647637 0.006579645 4285559068
0.045016244 0.02719767 0.0047471542 4285559068
0.047184497 0.026658665 0.0049652979 4285558814
0.049622122 0.02542429 0.0058643054 4285493279
0.052603841 0.022799641 0.0081235133 4285427233
0.05587614 0.019481342 0.011058407 4285361188
0.060807467 0.011993997 0.018067455 4285427234
0.024103034 0.010966189 0.022051701 4285362974
0.025831098 0.011827067 0.020885056 4285362208
0.026636045 0.015491229 0.016964508 4285559324
0.026486076 0.021955945 0.010297948 4285690139
0.026523095 0.027716447 0.0043305783 4285493533
0.027704701 0.029972356 0.0018079579 4285493533
0.029350504 0.030826993 0.00066176616 4285624348
0.031719103 0.029581897 0.0015736334 4285624604
0.034343652 0.027638137 0.0031679487 4285690139
0.036984075 0.025695771 0.0047584679 4285559068
0.039640337 0.023754865 0.006345164 4285559068
0.041552506 0.023912132 0.0058791395 4285559324
0.04397656 0.022672024 0.0067778975 4285559323
0.045635268 0.02352839 0.0056290757 4285625113
0.04807242 0.0222896 0.0065247491 4285559068
0.050784029 0.020353675 0.0080983639 4285624604
0.053511441 0.018419206 0.0096681751 4285624348
0.056793138 0.015090849 0.012592442 4285492768
0.061732549 0.007580325 0.019581169 4285492513
0.022824176 0.012870885 0.017416747 4285036063
0.025218815 0.011622988 0.018318459 4285362974
0.026936373 0.012485281 0.017156128 4285362974
0.027025405 0.0182673 0.011189355 4285624859
0.026837455 0.024748594 0.0045471368 4285559578
0.027550522 0.028416358 0.00065764412 4285427998
0.029196423 0.029273175 -0.00048689917 4285493534
0.03156447 0.028023697 0.0004217634 4285493279
0.034188252 0.026073374 0.0020112619 4285427233
0.0368279 0.024124458 0.0035969773 4285427233
0.039733864 0.021475591 0.0058608856 4285493024
0.042407867 0.019529745 0.0074383318 4285558814
0.044841979 0.018286142 0.0083313175 4285492513
0.046769802 0.018444907 0.0078616384 4285492259
0.049219657 0.017202839 0.0087508913 4285492514
0.051943757 0.01526146 0.010316478 4285492258
0.054417294 0.014021538 0.011200111 4285426723
0.057439376 0.011382945 0.013436273 4285426723
0.062655881 0.0031494275 0.021082157 4285360934
0.0012919679 0.0022904947 0.028871121 4285097518
0.0034537278 0.0017419681 0.029083928 4285425959
0.0058180839 0.00048608333 0.029988879 4285229864
0.0071938932 0.0027694628 0.027427772 4285363229
0.026777813 0.010881416 0.015970318 4285297438
0.027563471 0.014565758 0.012071302 4285428254
0.027385306 0.021067396 0.0054417364 4285427743
0.028344262 0.024042122 0.0022420362 4285230118
0.030000873 0.024902008 0.0010965643 4285427743
0.032378972 0.023649018 0.0019994369 4285427489
0.034767665 0.022396959 0.0028998582 4285558814
0.037166905 0.02114591 0.0037977407 4285558303
0.04007718 0.018488739 0.0060539301 4285558558
0.043008614 0.015833419 0.0083050504 4285492513
0.04545011 0.014586151 0.0091928653 4285492514
0.047385767 0.014745574 0.008721292 4285426723
0.04932135 0.014905084 0.0082498044 4285426468
0.051783834 0.01365979 0.0091327764 4285426468
0.053990677 0.013117723 0.0093367118 4285426469
0.057546698 0.0090661943 0.012918843 4285360934
0.063305996 -0.00059688836 0.021895165 4285426469
-0.0037324838 0.0039033368 0.025161488 4284901424
-0.0031020641 0.0090364441 0.019827742 4285623583
-0.0015502423 0.010614216 0.01796829 4285754654
0.00076838583 0.009350203 0.018880945 4285885979
0.0032947063 0.0073770955 0.020482821 4285820188
0.026619276 0.0092778429 0.014784727 4285036063
0.027868798 0.011558667 0.01226043 4285166114
0.028400084 0.015959319 0.0076921396 4285362463
0.029373046 0.018943883 0.0044957092 4285624348
0.031521827 0.018393889 0.0047113709 4285493278
0.033917949 0.017138004 0.0056065656 4285558558
0.036324635 0.015883133 0.0064992141 4285624349
0.038247153 0.016041078 0.0060305372 4285624348
0.04091968 0.014081966 0.0075983033 4285558303
0.043355379 0.012829788 0.0084841233 4285492513
0.04580164 0.011578538 0.0093674902 4285492513
0.047742479 0.011738412 0.0088946652 4285426724
0.049943861 0.011193536 0.0090981238 4285426468
0.052150454 0.010649197 0.0093003921 4285360933
0.054628197 0.0094009489 0.010176398 4285360933
0.057922166 0.0060411245 0.013072673 4285361189
0.063954808 -0.0043560714 0.02269874 4285360933
-0.014347114 0.0043589994 0.023576187 4285492003
-0.012404844 0.0045157745 0.023100542 4285360934
-0.010106027 0.0032451972 0.024014222 4285426979
-0.0085199103 0.0048296675 0.022149393 4285493534
-0.0071277916 0.0071267262 0.019593816 4285493533
-0.0061237849 0.010848783 0.015656788 4285755674
-0.0049573556 0.01385593 0.012418346 4285623839
-0.0030461624 0.014010798 0.011950772 4285624094
-0.00074663013 0.012740843 0.012864791 4285689883
0.001957126 0.010047406 0.015156474 4285558813
0.0040839203 0.0094918758 0.015374625 4285362208
0.027710808 0.0099619254 0.011079922 4284970273
0.028711043 0.01295729 0.007883437 4285362718
0.030163143 0.014533028 0.0060530305 4285558559
0.032082997 0.014690466 0.0055847764 4285426724
0.034486502 0.013430901 0.0064747967 4285492514
0.037145086 0.01146394 0.0080408007 4285558048
0.038830947 0.012330882 0.0068917759 4285492513
0.041011047 0.011781678 0.0070984401 4285492258
0.042943943 0.011940718 0.0066274144 4285492514
0.045642089 0.0099774152 0.008184094 4285426723
0.047840554 0.0094300583 0.0083865281 4285426468
0.050304648 0.0081762001 0.0092623383 4285360933
0.052516222 0.0076300725 0.0094617791 4285360933
0.055264395 0.0056713596 0.011006555 4285361188
0.059101824 0.00088851899 0.015238175 4285360933
-0.018721543 0.003876932 0.021950679 4285361189
-0.017975353 0.009048976 0.016611433 4285820188
-0.016402617 0.010636367 0.014752964 4285951003
-0.014314272 0.010074623 0.014978139 4285820189
-0.011864491 0.0080815777 0.016588105 4285624348
-0.0099406391 0.0082370415 0.0161171 4285558813
-0.0083832443 0.009823598 0.014262691 4285558813
-0.0070222989 0.012124725 0.011719815 4285953044
-0.0056771338 0.01442463 0.0091809183 4285821209
-0.0035827719 0.013863973 0.009405084 4285689373
-0.0010951869 0.011874571 0.011006325 4285755673
0.0014083683 0.0098866001 0.012603676 4285755928
0.0035295188 0.0093284249 0.012821531 4285493278
0.029021174 0.009946771 0.0080685262 4285428764
0.030478869 0.011527359 0.0062400624 4285493278
0.032403897 0.011685215 0.0057705455 4285360934
0.034570538 0.011132412 0.0059786402 4285426724
0.037230983 0.0091591403 0.0075391401 4285492514
0.039413437 0.0086078867 0.0077434964 4285492258
0.041601159 0.0080571249 0.0079466905 4285492259
0.043289639 0.0089267194 0.0067988262 4285492259
0.045992311 0.0069573 0.0083494149 4285361188
0.048968349 0.0042798594 0.010569815 4285360933
0.052225702 0.0008950755 0.013458118 4285426469
0.054720975 -0.00036047399 0.014323128 4285360678
0.057757709 -0.0030325428 0.016528953 4285360933
0.06215626 -0.0092456043 0.022084886 4285360933
-0.022910841 0.0026867613 0.021022083 4284901933
-0.021964632 0.007157445 0.016380318 4285296164
-0.020715684 0.010187767 0.013134366 4285558559
-0.019148082 0.011778943 0.01128039 4285623073
-0.017418459 0.012650907 0.010121716 4285754908
-0.014993422 0.010649197 0.011732681 4285886744
-0.012730125 0.0093669891 0.012648394 4285689883
-0.010816995 0.0095215589 0.012180001 4285624349
-0.009086825 0.01039397 0.01102151 4285558558
-0.007547576 0.011983477 0.0091749355 4285690138
-0.0060188249 0.013572283 0.0073309839 4285887254
-0.0039274395 0.013009153 0.0075542368 4285821463
-0.0016369708 0.011729807 0.0084637329 4285821719
0.00066418946 0.010451376 0.0093707256 4285624603
0.0025780536 0.010606736 0.0089027174 4285559069
0.004491996 0.010762215 0.0084347706 4285427999
0.0064060055 0.010917798 0.0079668798 4285495828
0.028630085 0.0090685487 0.0062139183 4285167389
0.030557657 0.0092265233 0.0057437085 4285427999
0.032246437 0.010097787 0.0045970418 4285360933
0.034412727 0.0095427856 0.0048035495 4285361188
0.037072398 0.0075629652 0.0063592531 4285426979
0.03999465 0.0048720166 0.0085857715 4285492004
0.042189971 0.0043197647 0.0087854117 4285426468
0.044138521 0.0044801012 0.0083105806 4285426979
