# .PCD v0.7 - Point Cloud Data file format
VERSION 0.7
FIELDS x y z rgba
SIZE 4 4 4 4
TYPE F F F U
COUNT 1 1 1 1
WIDTH 288
HEIGHT 1
VIEWPOINT 0 0 0 1 0 0 0
POINTS 288
DATA ascii
0.0067746192 -0.0053447857 0.033485137 4287900734
0.00082732737 -8.4467232e-05 0.026226142 4287377983
0.0028938651 5.8315694e-05 0.025786893 4289864489
0.0054615475 -0.0019793436 0.027412688 4290126119
0.0083847418 -0.0054692104 0.030410716 4289995304
0.011162333 -0.0082305446 0.032715887 4288751924
-0.001698371 -0.00046818703 0.024050565 4288752178
-0.0004449077 0.0033212751 0.020173112 4289015339
0.0016027875 0.0034627542 0.019737864 4289866274
0.0039842576 0.0021461993 0.020676168 4289538599
0.0073935278 -0.0035427734 0.025729166 4289668393
0.0099847168 -0.0055851564 0.027345264 4289145133
0.012766846 -0.0083548278 0.029643053 4288621619
-0.0045241416 0.00062213093 0.020504607 4289210159
-0.0027914196 0.0022271276 0.018695043 4289275949
-0.0015532151 0.0060264319 0.014829 4289931553
0.00031434 0.0068982244 0.013711499 4289473574
0.0026765876 0.0055759996 0.014650563 4289015338
0.0062348768 -0.00086295605 0.020379351 4289539109
0.0089813396 -0.0036439598 0.022678072 4289996834
0.011574563 -0.0056926683 0.024288898 4289342759
0.013651878 -0.0055485293 0.02384782 4289080873
0.016269246 -0.0075952634 0.025453666 4287248188
-0.0093656033 0.001591593 0.017400982 4287247934
-0.007479772 0.0024663508 0.016280802 4289079854
-0.0054433644 0.0026066601 0.015847662 4289407274
-0.0035653152 0.0034810975 0.014729375 4289604134
-0.0021758899 0.006556794 0.011558274 4290651164
-0.00031631067 0.0074302033 0.010444099 4290258974
0.0020374246 0.0061029568 0.01138171 4289866529
0.0052476153 0.0011102557 0.015731914 4290847769
0.0079798326 -0.0016804859 0.018027084 4290455324
0.010384522 -0.0030037761 0.018954119 4289735458
0.012622811 -0.0035935193 0.019197764 4289343013
0.014866492 -0.0041827187 0.019440325 4289473573
0.017298048 -0.0055037811 0.020361925 4287312194
-0.011838678 0.0012479872 0.015241591 4288817204
-0.010256153 0.0035980791 0.012752922 4289799209
-0.0080777407 0.00300093 0.013006778 4290192418
-0.0060494989 0.0031406358 0.012575353 4289604389
-0.004021138 0.0032804981 0.012144009 4289800739
-0.0024755262 0.0056285709 0.0096635167 4289997344
-0.00045496598 0.0057681352 0.0092340168 4288885033
0.0018982477 0.004436478 0.010168457 4289081384
0.0044311807 0.0023702905 0.011782041 4290062623
0.0073234588 -0.0011652708 0.014753895 4289604899
0.0095453113 -0.0017584413 0.014999239 4289539620
0.011418652 -0.00088128448 0.013884233 4289474594
0.013645977 -0.0014738142 0.01412862 4289866274
0.016060997 -0.0028004199 0.015050514 4289799209
0.019226631 -0.0070635676 0.018682027 4289665844
-0.014299884 0.00091436505 0.013086626 4289079598
-0.01286184 0.0040102452 0.0099178124 4289865254
-0.010844648 0.0041489452 0.0094885509 4289996323
-0.0086745955 0.0035490096 0.0097425152 4290781979
-0.0063436292 0.0022109598 0.010678044 4290323999
-0.004318092 0.0023505986 0.010247281 4289669668
-0.0021316856 0.0017521754 0.010498056 4289670179
-0.00026671216 0.0026302785 0.0093859695 4289473828
0.0019252226 0.0020324811 0.0096357632 4289211943
0.0041225702 0.0014351755 0.0098844822 4289735714
0.0066682249 -0.00063662231 0.01149057 4289408548
0.0087076351 -0.00049525499 0.011057431 4289343013
0.01057031 0.00038337708 0.0099462736 4289866019
0.012607165 0.000524804 0.0095138624 4290716953
0.015008315 -0.00080712885 0.010435419 4289604898
0.017974544 -0.0043478608 0.01338386 4290060838
0.0205926 -0.0064138398 0.014975162 4290060329
-0.017033026 0.002074182 0.0095683169 4288752689
-0.015160806 0.002954118 0.0084556919 4289931553
-0.013441052 0.004575178 0.0066615231 4289211688
-0.011282124 0.0039721429 0.006916102 4289080873
-0.0091177002 0.0033695921 0.0071696732 4289342759
-0.0066373572 0.0012860447 0.0087841302 4289931299
-0.0046146438 0.00142546 0.0083539486 4289996833
-0.0022706538 8.418411e-05 0.0092836209 4289866019
-0.00056890398 0.0017047375 0.0074938312 4289211944
0.0016200207 0.001104489 0.0077426396 4289473829
0.003477186 0.0019845217 0.006633997 4289474084
0.006014131 -9.4413757e-05 0.0082370304 4289670434
0.0078714453 0.00078584254 0.0071285889 4289801249
0.009370286 0.0031445101 0.0046684071 4289866529
0.011211701 0.0040239394 0.0035635456 4288950313
0.013411701 0.0034252554 0.0038105324 4289408039
0.016540097 -0.00086668134 0.0074303076 4289211179
0.019138752 -0.0029405653 0.0090208091 4288752944
0.02194339 -0.0057515875 0.011281619 4288949803
0.024576802 -0.0078228116 0.012864934 4288358969
-0.019742884 0.0032535419 0.0060585123 4288621874
-0.017878778 0.004134953 0.0049491376 4289211179
-0.016164273 0.0057598948 0.0031592678 4289669924
-0.014460292 0.0073841512 0.001371745 4290062369
-0.012317698 0.006777823 0.0016281679 4289735204
-0.0098648518 0.0046856254 0.0032434911 4290062113
-0.0070857406 0.0011087358 0.0062142722 4290454814
-0.0049107783 0.0005050078 0.0064640939 4289538853
-0.0027303845 -9.8243356e-05 0.0067128465 4289408038
-0.0010337532 0.0015262812 0.0049274564 4289604389
0.0011494942 0.00092346966 0.0051757805 4289669668
0.0028329492 0.0025473461 0.0033933893 4289212199
0.005019024 0.0019450039 0.0036413223 4289670179
0.0066892728 0.003568247 0.0018618703 4289604643
0.0079960935 0.0066738054 -0.0012649074 4290716953
0.0099979341 0.006812796 -0.001689896 4289866274
0.012545068 0.0047285706 -9.3605369e-05 4289342758
0.015292697 0.0019045845 0.0021725632 4289800738
0.018061707 -0.00091777742 0.0044342838 4289735204
0.020852104 -0.0037385225 0.0066915695 4289146664
0.023856297 -0.0072980374 0.0096158814 4288688684
0.026497018 -0.0093751401 0.011192853 4286921279
-0.020156838 0.0030964687 0.0034947228 4288621873
-0.018298052 0.0039797276 0.0023880657 4289080364
-0.016588654 0.0056086034 0.00060257129 4289277223
-0.014889807 0.0072368756 -0.0011805817 4289538853
-0.012902409 0.0073734894 -0.0016035289 4289015594
-0.01030606 0.0045288354 0.00068704411 4289800739
-0.0073784739 0.00019536167 0.0043288246 4289473574
-0.0052065104 -0.00041076541 0.0045776404 4289473574
-0.0033495575 0.00047319382 0.0034720674 4289538853
-0.0016607232 0.0021015555 0.0016915575 4289604389
0.00034862757 0.0022404194 0.0012644939 4290193184
0.0023580566 0.0023794174 0.00083750486 4289866529
0.0041966774 0.0032626092 -0.00026379898 4289343013
0.0058564767 0.0048894286 -0.0020377189 4289473828
0.0071531907 0.008003071 -0.0051558502 4289539109
0.0091441981 0.008141309 -0.0055785291 4288950058
0.011679955 0.0060497373 -0.0039847456 4288819498
0.014415998 0.0032162219 -0.0017226711 4289604388
0.017173439 0.00038431585 0.00053495914 4289145643
0.020141833 -0.0031887144 0.0034585893 4288622129
0.023329182 -0.0075023174 0.0070465188 4287902518
-0.020153962 0.00070312619 0.002976384 4287968819
-0.018575184 0.0030852631 0.00051268563 4288034099
-0.017012268 0.005466409 -0.0019474961 4288950058
-0.015318554 0.0070987269 -0.0037263371 4289473318
-0.013336647 0.0072349384 -0.0041481368 4288950314
-0.010898523 0.0051286221 -0.0025395155 4289538853
-0.0081348941 0.0015288293 0.00041817129 4289931810
-0.0059739389 0.00091974437 0.00066768005 4289997089
-0.0042876601 0.0025521219 -0.0011090785 4289800993
-0.0024492592 0.0034371316 -0.0022090301 4290781979
-0.00045073032 0.0035752505 -0.0026337951 4290454814
0.0018839538 0.002220571 -0.0017117187 4290716443
0.0035465509 0.0038518757 -0.0034830905 4290062623
0.0051985495 0.0054825097 -0.0052520894 4289735458
0.0066638812 0.0078584552 -0.0076904483 4289670179
0.0091855414 0.0057591796 -0.0060986318 4289408038
0.011723261 0.0036611333 -0.0045101382 4289277224
0.014461074 0.00081905723 -0.00225503 4289276713
0.01703357 -0.0012762845 -0.00067370012 4287575864
0.020379661 -0.0063502491 0.003579678 4287771958
0.02318695 -0.0091871023 0.0058203358 4287836218
-0.020012878 -0.0024449527 0.0031330734 4287379004
-0.01842837 -5.5931509e-05 0.00067309663 4287379514
-0.016715892 0.0015818849 -0.0011065751 4287968563
-0.015306987 0.004719317 -0.0042365268 4288557614
-0.013322562 0.0048556924 -0.0046588667 4289211944
-0.011338018 0.0049922019 -0.0050811432 4289800483
-0.008889813 0.002880156 -0.0034794845 4289931809
-0.0067398734 0.0022681206 -0.0032292791 4289997088
-0.0049041994 0.0031549335 -0.0043270849 4289408038
-0.0032362863 0.0047905073 -0.0060965829 4290062369
-0.0012485906 0.0049278811 -0.0065190457 4289342758
0.0012427457 0.0028194785 -0.0049261376 4289539109
0.003068082 0.0037060827 -0.0060213581 4289538853
0.0048881434 0.0045924634 -0.0071153529 4289604389
0.0067029297 0.0054786131 -0.0082081445 4289735204
0.0092265382 0.0033729672 -0.0066216998 4289669413
0.011766221 0.001268521 -0.0050385259 4289145643
0.014505818 -0.0015822053 -0.0027902946 4287772214
0.017080257 -0.0036839247 -0.0012143496 4286660159
0.020238364 -0.0080259293 0.002360085 4286790463
0.023044752 -0.010871544 0.0045944136 4286789698
-0.020149134 -0.0040958077 0.0019307788 4287247933
-0.018282257 -0.0032055527 0.00082730502 4287510074
-0.016564228 -0.0015630499 -0.0009502545 4287510839
-0.015149392 0.0015834868 -0.0040749311 4287641654
-0.01360679 0.0039765835 -0.0065208599 4288427309
-0.011928402 0.0056167543 -0.0082896836 4289343014
-0.009951897 0.0057528242 -0.0087101571 4289669923
-0.007818304 0.0051374584 -0.0084581226 4289669923
-0.0058389381 0.005273968 -0.0088790283 4290062369
-0.0040218234 0.006161809 -0.0099711642 4289473574
-0.0022099614 0.0070494711 -0.011062108 4288950313
9.9673867e-05 0.0056843162 -0.010141272 4289146664
0.0022496991 0.0050707385 -0.0098922402 4290062369
0.0045781434 0.0037071556 -0.0089751929 4289473574
0.0067416392 0.0030947626 -0.0087288357 4289604389
0.009445563 0.00023256242 -0.0064797821 4288295473
0.011989854 -0.0018780529 -0.0049025267 4287117883
0.014550216 -0.0039874762 -0.0033285525 4286529343
0.017312966 -0.0068451911 -0.0010916907 4286529089
0.020475129 -0.011199936 0.0024720374 4286658884
0.022902576 -0.012555659 0.0033687223 4286985284
-0.020285368 -0.0057463646 0.000728691 4287051328
-0.018418446 -0.0048539266 -0.00037316419 4287378749
-0.016556717 -0.003961727 -0.0014738161 4287575608
-0.014846347 -0.0023152232 -0.0032464117 4287444793
-0.01344417 0.0008392185 -0.00636175 4287445303
-0.01191172 0.0032382756 -0.008800514 4287903538
-0.010395169 0.0056363642 -0.011235811 4288623404
-0.0084240511 0.0057721585 -0.011655062 4289146664
-0.0066123344 0.0066616759 -0.012744512 4289669923
-0.0048058555 0.0075509399 -0.013832759 4290193184
-0.0028398111 0.0076867938 -0.014250629 4289931554
-0.00053871423 0.0063167512 -0.013331279 4290389534
0.0019432902 0.0041946918 -0.011746068 4289669924
0.0044413656 0.0020738691 -0.010164175 4289342503
0.0071309954 -0.00079810619 -0.0079187537 4288426799
0.0098420233 -0.0036685169 -0.0056777392 4287968563
0.012212798 -0.0050331354 -0.0047726613 4286659904
0.014594272 -0.0063968301 -0.0038697962 4286332739
0.017172627 -0.0085114092 -0.0023044441 4286332484
-0.020835452 -0.0051249117 -0.0024928395 4287116354
-0.018554598 -0.006501995 -0.0015734043 4287378494
-0.016549531 -0.0063644871 -0.0020003561 4287444793
-0.014690317 -0.0054701716 -0.0030987542 4287444793
-0.013430864 -0.0015500635 -0.0068798 4287576118
-0.011895355 0.00085573643 -0.0093143145 4287706933
-0.010529712 0.0040166676 -0.012415193 4288099633
-0.0088720396 0.0056643337 -0.014172915 4288427054
-0.0072249249 0.0073114708 -0.015928317 4289277223
-0.0055883937 0.0089579374 -0.017681353 4289146408
-0.0034685433 0.0083376318 -0.017429393 4289015849
-0.00084134936 0.0054521635 -0.015177511 4289669924
0.0018072575 0.0025683194 -0.012930062 4289080873
0.0046498999 -0.001068756 -0.010021237 4288361264
0.0071686767 -0.0031945407 -0.0084485384 4287249209
0.010059454 -0.0068280324 -0.0055497345 4286791229
0.012073733 -0.0066880584 -0.0059772749 4286398018
0.014454678 -0.0080561638 -0.0050775725 4286201668
-0.017115161 -0.0057350546 -0.0052118581 4287183419
-0.015118122 -0.0055979788 -0.0056370068 4287379259
-0.013417881 -0.0039434135 -0.0074008079 4287379514
-0.011577077 -0.0030479282 -0.0084934654 4287379514
-0.010202862 0.00012230873 -0.011589629 4287575864
-0.0086934268 0.0025330782 -0.014013525 4287706933
-0.0075181425 0.0064587742 -0.017768122 4288034353
-0.0058840737 0.0081094056 -0.01951737 4289015849
-0.003602758 0.0067291409 -0.018600456 4289211944
-0.00080933422 0.0030775219 -0.015689522 4289473318
0.0021806285 -0.0013294145 -0.012119335 4288884523
0.0048577338 -0.0042198449 -0.0098844403 4287248953
0.00738113 -0.0063518435 -0.0083176317 4286529343
0.0099205822 -0.0084826052 -0.0067541422 4286398273
-0.015690774 -0.0049557239 -0.008836952 4287182144
-0.013553511 -0.0055799484 -0.0085925469 4287380024
-0.011712678 -0.0046823025 -0.0096835839 4286791484
-0.010030679 -0.0030243546 -0.011440095 4286202178
-0.008359246 -0.0013670325 -0.013194215 4287313978
-0.0070162676 0.0018100068 -0.016277019 4287968819
-0.0055329204 0.0042257681 -0.018690273 4288165169
-0.0034084022 0.0036013722 -0.018442541 4288426543
-0.00061070919 -6.0863793e-05 -0.015540697 4288165169
0.0022137165 -0.0037211329 -0.012644433 4287445303
0.0048926063 -0.0066202059 -0.010416423 4287314234
0.0070680678 -0.007240504 -0.010179159 4286986813
0.0096041188 -0.0093779862 -0.0086198989 4286528833
-0.013985276 -0.0056900829 -0.011116405 4286723908
-0.011848234 -0.0063163936 -0.010873494 4286724418
-0.0068333223 -0.0013312399 -0.016126271 4287510329
-0.0051828288 0.00032924116 -0.017872479 4287575608
-0.0032147504 0.00046519935 -0.018290821 4287117883
-0.00041279942 -0.0032076463 -0.01539806 4286725438
0.0022464655 -0.0061169267 -0.013172516 4286398528
0.0047550425 -0.0082631558 -0.011612457 4286528578
0.0071049109 -0.0096468851 -0.010716261 4286920769
0.0094655007 -0.01102975 -0.0098222587 4287508798
-0.010301359 -0.0062834769 -0.013813247 4286855233
-0.0083176792 -0.0061468333 -0.014235197 4286397763
-0.0068096519 -0.0037164837 -0.01664396 4286594623
-0.004995048 -0.0028157458 -0.017725822 4287052604
-0.0030217916 -0.0026794523 -0.018145267 4287314234
-0.00038215518 -0.0055989325 -0.015922185 4286594879
0.0021096431 -0.0077530146 -0.014363585 4286332994
-0.010895811 -0.0056113303 -0.01698501 4287116354
-0.0087645799 -0.006242156 -0.016743956 4286789698
-0.0071031004 -0.0045723096 -0.018486116 4286267203
-0.005452197 -0.0029030964 -0.02022589 4286659648
-0.0033207089 -0.0035335273 -0.019984599 4286397763
-0.0006846264 -0.0064619482 -0.01776729 4286267204
0.03509751 -0.0087322146 0.020900803 4282863974
0.018532671 -0.012983322 -0.017517934 4282797418
0.019818414 -0.012181431 -0.021089537 4282797419
-0.0082840547 -0.007196188 -0.036752395 4282928744
-0.0084164739 -0.0087855756 -0.037909605 4282994278
-0.011687294 -0.0089278221 -0.044817939 4282273394
-0.012130421 -0.0089127496 -0.047244884 4282863974
