# .PCD v0.7 - Point Cloud Data file format
VERSION 0.7
FIELDS x y z rgba
SIZE 4 4 4 4
TYPE F F F U
COUNT 1 1 1 1
WIDTH 968
HEIGHT 1
VIEWPOINT 0 0 0 1 0 0 0
POINTS 968
DATA ascii
-0.019879717 0.014300745 0.017651059 4288819243
-0.018084098 0.015144859 0.016530603 4289211689
-0.016584884 0.017404284 0.013998519 4289865764
-0.014656726 0.017539885 0.013587405 4290192674
-0.012728408 0.017675575 0.013176319 4290388768
-0.0103391 0.015689701 0.014879377 4290388768
-0.0080899224 0.014412042 0.015874971 4289604134
-0.0059888996 0.013842139 0.016164742 4289407783
-0.0042057037 0.014686052 0.015047447 4289342504
-0.002263438 0.014823202 0.014633757 4289538598
-0.00048805401 0.015666801 0.013518238 4290061858
0.0017910451 0.014391739 0.014507827 4290258209
0.0040809065 0.01311757 0.015495154 4289669159
0.006206546 0.012550004 0.01578014 4289603623
0.0079822727 0.013393968 0.014664884 4289538598
0.0097527094 0.014237646 0.013550823 4288949803
0.011883888 0.013670757 0.013834844 4289211689
0.014206152 0.012399349 0.01481571 4289211689
0.016539134 0.011128843 0.015794318 4289277224
0.018309761 0.011972938 0.014680534 4289342759
0.020268772 0.012112368 0.014264115 4289211688
0.022620551 0.010843493 0.015238958 4289669158
0.025779238 0.0067593679 0.018991817 4289668904
0.029373428 0.0012700409 0.024126817 4288752943
-0.031758185 0.0010904074 0.03001393 4287968819
-0.030029107 0.0026515648 0.028172974 4288034353
-0.028057035 0.0027894601 0.027751889 4288164914
-0.026343573 0.0043496713 0.025914442 4288164914
-0.02450854 0.0051983297 0.024786938 4288230194
-0.023082886 0.0081789196 0.021539394 4288426544
-0.021403592 0.009737052 0.019709412 4288622639
-0.019874875 0.012004841 0.017175876 4289015594
-0.018362042 0.014271654 0.014645745 4288884523
-0.016865063 0.016537458 0.012119078 4289146154
-0.01508778 0.017382611 0.011004318 4289473064
-0.013164926 0.017517902 0.010594386 4289669159
-0.010935061 0.016234428 0.011590679 4289996068
-0.0086944029 0.014951855 0.012584698 4289865763
-0.0066017024 0.01437917 0.012874548 4289538598
-0.004665006 0.014515813 0.012461958 4289538854
-0.0027282014 0.014652569 0.012049419 4289996834
-0.00095808506 0.015497889 0.01093671 4289865763
0.0013151653 0.014218111 0.011924163 4290126883
0.0034270659 0.013647232 0.01221035 4290650143
0.0060687922 0.010953188 0.01459098 4289865510
0.0078445785 0.011799291 0.013477356 4289669413
0.0097952373 0.011937629 0.013062336 4289407783
0.01156313 0.01278339 0.011950553 4289146154
0.013696712 0.012214586 0.012232465 4289342503
0.015835688 0.011646271 0.012513309 4289146409
0.017407522 0.013198737 0.01070777 4289277224
0.01896869 0.014750533 0.0089045642 4290062113
0.021107744 0.014182519 0.0091856187 4289408038
0.023848739 0.01149638 0.011545868 4289015339
0.027215708 0.0066938549 0.015980158 4288753453
0.030824302 0.0011882484 0.021098886 4288884014
-0.033990789 4.8778951e-05 0.028521989 4287381043
-0.032016564 0.00018661469 0.028100278 4287707443
-0.030042145 0.00032453984 0.02767859 4287707189
-0.027940955 -0.0002509281 0.027964119 4287968309
-0.026221905 0.0013140142 0.026128743 4287968564
-0.024381455 0.0021651834 0.025001723 4288230194
-0.022815283 0.0044419467 0.022464976 4288295729
-0.021264959 0.0067176223 0.019931715 4288295729
-0.019730482 0.0089923516 0.017401878 4288295984
-0.01821186 0.01126606 0.014875495 4288622893
-0.016563859 0.012826536 0.013055758 4288818988
-0.014926393 0.014386378 0.011238349 4288884268
-0.0131489 0.015233833 0.010125224 4289145644
-0.011223365 0.015369382 0.009714772 4289341738
-0.0092977025 0.015505031 0.0093043679 4289799974
-0.0073719285 0.015640784 0.0088940086 4289734438
-0.0052847601 0.015065581 0.0091834804 4290126883
-0.0035200305 0.015912626 0.0080734575 4289080363
-0.0015939288 0.0160487 0.0076632584 4289080108
0.00050153956 0.015474372 0.0079511879 4289080108
0.0029463246 0.013480019 0.0096329125 4289668904
0.0054072216 0.01148688 0.011311342 4289734438
0.0073523484 0.011624698 0.010897403 4289211433
0.0091175735 0.012472335 0.0097877691 4289538854
0.011060148 0.012610178 0.0093745301 4289669669
0.012817454 0.013457488 0.008266692 4289473318
0.014945436 0.012886185 0.0085482514 4289277224
0.016506825 0.014442269 0.0067482041 4289342504
0.018057559 0.015997678 0.0049505597 4290127393
0.019989617 0.016135264 0.0045399321 4290585374
0.02251769 0.014147837 0.0062047215 4290127393
0.025665838 0.010037035 0.0099399081 4289996578
0.02843802 0.0073446184 0.012287012 4289734948
0.030818194 0.0060695112 0.013249484 4289277734
0.031952895 0.0090409741 0.010072672 4288886309
-0.030179169 -0.0012907088 0.026475083 4287511604
-0.028331015 -0.00043706596 0.025347915 4287968309
-0.026229952 -0.0010146126 0.0256318 4288230194
-0.024255063 -0.0008764118 0.025210198 4288361519
-0.022548739 0.00069209933 0.023381043 4288295983
-0.020989966 0.0029749125 0.020850915 4288361519
-0.019447032 0.0052566528 0.018324286 4288230959
-0.017777588 0.006822899 0.016503159 4288295728
-0.016263712 0.0091028064 0.013982886 4288295728
-0.014617991 0.01066757 0.01216697 4288753965
-0.012832411 0.011517704 0.01105382 4289080619
-0.0112051 0.013081331 0.0092420327 4288753199
-0.0095883645 0.014644366 0.0074325325 4289407529
-0.0079821832 0.016206719 0.0056254016 4289276714
-0.0060644187 0.016341984 0.0052168155 4289864998
-0.004474055 0.017903466 0.0034131641 4290126628
-0.0025614426 0.018038563 0.0030058222 4289668904
-0.00031054392 0.016748443 0.0039913887 4290192164
0.0021228604 0.014746759 0.0056705279 4290257443
0.0045723803 0.012746271 0.0073463572 4289734438
0.0066837966 0.012171242 0.0076294066 4289604134
0.0084410682 0.013020471 0.0065231295 4289342504
0.010193057 0.013869438 0.0054180557 4289473318
0.011939749 0.014718123 0.004314187 4289473319
0.014056716 0.014143884 0.004596361 4289865763
0.015988603 0.014281269 0.0041856254 4289604134
0.017727382 0.015129697 0.0030836714 4289473319
0.019852445 0.014556348 0.0033643665 4289734948
0.021784395 0.014694046 0.0029538525 4289342504
0.024319788 0.012700744 0.0046121692 4289538598
0.026259756 0.01283922 0.004200113 4289147429
0.027786728 0.014397763 0.0024112286 4289475614
-0.028467897 -0.0020499229 0.024146218 4287838769
-0.026238289 -0.0033473819 0.025131833 4287968819
-0.024260852 -0.0032090321 0.024709664 4288164914
-0.02241743 -0.002353251 0.02358532 4288165169
-0.020852868 -6.3613057e-05 0.021058969 4288296495
-0.019304175 0.0022250712 0.01853605 4288230959
-0.017486934 0.0030792654 0.017417554 4288295728
-0.015674893 0.0039331913 0.016300242 4288165168
-0.014015559 0.0055032372 0.014484747 4288492078
-0.012366783 0.0070725903 0.012671617 4288557614
-0.010881428 0.0093573257 0.010162585 4288492078
-0.0095675178 0.012356803 0.0069593983 4288818734
-0.0082748458 0.01535489 0.0037608119 4289210923
-0.0066816509 0.016920738 0.0019598389 4289407274
-0.0052625984 0.019201189 -0.00053475983 4289407274
-0.0031945594 0.01862045 -0.00024442282 4289407529
-0.0011210926 0.01804024 4.4793822e-05 4289799974
0.0014725216 0.015316546 0.0024155946 4289800229
0.0037390925 0.014023427 0.0033945953 4289669669
0.0058395006 0.013445426 0.0036783079 4289604134
0.0074065663 0.015010145 0.00188345 4289408038
0.0091452487 0.015860312 0.00078285579 4290389279
0.011063579 0.015996523 0.00037483964 4290258463
0.013357136 0.014705826 0.001348489 4290454558
0.015280884 0.014842633 0.00093948189 4290454558
0.017397592 0.014266416 0.0012202067 4289277224
0.019324059 0.014403611 0.00081077311 4289407783
0.021250533 0.014540926 0.00040142704 4289342503
0.022775097 0.016103439 -0.0013837665 4289343268
0.02428896 0.017665338 -0.0031666514 4289215768
-0.024529617 -0.0041063577 0.022803757 4287447088
-0.022554804 -0.0039681196 0.022382203 4287774253
-0.02071647 -0.0031105131 0.021260697 4288165935
-0.019022647 -0.0015340745 0.019440968 4288427054
-0.01733936 4.1767955e-05 0.017623514 4288100144
-0.015521903 0.00089821965 0.016506702 4288230704
-0.013709646 0.0017544106 0.015391069 4288361519
-0.012202624 0.0040470436 0.012882319 4288295728
-0.010558818 0.0056204647 0.011073633 4288492080
-0.0092362538 0.0086292028 0.0078752441 4288622639
-0.007934954 0.011636551 0.0046814652 4288687919
-0.006654907 0.014642503 0.0014922926 4288818734
-0.0052327439 0.016929619 -0.00099794567 4289145643
-0.0033283867 0.017064117 -0.0014035441 4289341994
-0.0014239438 0.017198712 -0.0018090913 4289800229
0.00065195933 0.016616583 -0.0015219944 4289604133
0.0027332865 0.016034968 -0.0012359619 4289473318
0.0049967505 0.014737371 -0.00025957078 4289734948
0.0069121718 0.014873158 -0.00066713523 4289996578
0.0084635094 0.016441181 -0.0024552504 4289473318
0.010188952 0.017292686 -0.0035512801 4289342759
0.012471318 0.015996862 -0.0025785808 4289996834
0.014764417 0.014701843 -0.0016080486 4290455069
0.016875474 0.014123049 -0.0013277913 4289342758
0.018796468 0.01425986 -0.0017360589 4289866018
0.020321257 0.015826665 -0.003518099 4289408293
0.021233071 0.019537032 -0.0073567759 4290066194
-0.021126676 -0.0032800585 0.018662695 4288035374
-0.019020494 -0.0038634688 0.018940713 4288296493
-0.017334279 -0.0022831559 0.01712599 4288165423
-0.015514109 -0.0014243275 0.016010191 4288296238
-0.013846282 0.00015489757 0.014199548 4288361519
-0.012039162 0.0010129809 0.013086745 4288230704
-0.010237262 0.0018708259 0.011975084 4288361008
-0.0087509118 0.0041686594 0.0094759176 4288295729
-0.007438302 0.0071854442 0.0062863724 4288491824
-0.0061469488 0.010200866 0.0031014429 4288818734
-0.0047136843 0.012495294 0.00061377417 4288622894
-0.0029646233 0.013349902 -0.00048618298 4289342249
-0.0013893396 0.014923424 -0.0022764737 4289211688
0.0005177334 0.015058301 -0.0026825061 4289342503
0.0022510104 0.015912108 -0.0037788628 4289800229
0.0043320879 0.015328377 -0.0034943856 4289408039
0.0058809444 0.016900502 -0.005278768 4290258209
0.0076010525 0.017753676 -0.0063720867 4289146408
0.0095004179 0.017888531 -0.0067760777 4289015594
0.011774275 0.016587712 -0.005804861 4288950313
0.014248736 0.01457011 -0.0041489182 4289670178
0.016354125 0.013988737 -0.003869121 4289081383
0.017488701 0.016994353 -0.0070196018 4289343524
-0.017329533 -0.0046121106 0.016625382 4288035884
-0.015506621 -0.0037509799 0.015510696 4288100653
-0.013688918 -0.0028900802 0.014397149 4288165168
-0.012026045 -0.0013067871 0.012590951 4288361519
-0.0099167824 -0.0018916577 0.012867029 4288230193
-0.0082670078 -0.00030907989 0.011063782 4288426544
-0.0067854449 0.0019950494 0.0085706534 4288295729
-0.0056404471 0.0057420433 0.0046977932 4288230448
-0.0040330552 0.0073219538 0.00290382 4288165168
-0.0024362616 0.0089012682 0.0011121435 4288623148
-0.0010183975 0.011201307 -0.0013671005 4288623404
0.00038354099 0.013500303 -0.0038428111 4288753963
0.0017695129 0.015798301 -0.0063150972 4289538854
0.0034922399 0.016653623 -0.0074074659 4289408039
0.0048516355 0.018949952 -0.0098739397 4290323488
0.0067401379 0.01908391 -0.010275714 4290127393
0.0084443279 0.019938231 -0.011363905 4290258718
0.010891352 0.017912038 -0.0097071454 4289997088
0.013164733 0.016606972 -0.0087391343 4289670179
0.015256442 0.016022459 -0.0084580965 4289081638
0.016183231 0.019755375 -0.012283467 4289148959
-0.015931834 -0.0039058626 0.012927881 4288168994
-0.01397261 -0.003768295 0.012509982 4288166189
-0.012312159 -0.0021808594 0.010707612 4288296495
-0.010205884 -0.0027681217 0.010982645 4288230193
-0.0082489438 -0.0026303977 0.010565466 4288230704
-0.0064493418 -0.0017682463 0.0094578071 4288295983
-0.0051353909 0.0012660697 0.0062813507 4288165168
-0.0036798939 0.0035750493 0.0037989141 4288230703
-0.002074834 0.005159229 0.0020088451 4288296494
-0.00048037991 0.0067428052 0.00022107828 4288296494
0.0009326674 0.009049058 -0.0022520395 4288557869
0.0019827858 0.012800708 -0.0060959803 4288557613
0.0033585727 0.015104588 -0.0085610282 4289342249
0.0045395829 0.018130261 -0.011708595 4289473063
0.0060622804 0.019709252 -0.013480641 4289669413
0.0077585019 0.020565204 -0.014565526 4289407783
0.010009974 0.019254103 -0.013596218 4289734948
0.012082644 0.018665951 -0.013312886 4289604644
-0.010342624 -0.0043668225 0.0097917756 4288297004
-0.008385811 -0.0042291135 0.0093746213 4288165935
-0.0065861568 -0.0033648089 0.0082685938 4288164914
-0.0051116496 -0.0010481104 0.0057870066 4288165425
-0.0034904256 0.00054141879 0.0039967252 4288165423
-0.0017145015 0.0014044195 0.0028959578 4288231214
-0.00011178479 0.0029928461 0.0011097798 4288230959
0.0013096966 0.0053062588 -0.0013601622 4288427053
0.0023686253 0.0090693533 -0.0051976806 4288295728
0.0035768971 0.01210551 -0.0083444798 4288688173
0.0047638565 0.01514025 -0.011486672 4288753198
0.0061108321 0.017448761 -0.013940394 4288950058
0.0074418187 0.019756291 -0.016390674 4289407783
0.0093167908 0.019889489 -0.016789416 4289343014
-0.0088314861 -0.0043697655 0.006808213 4288298533
-0.0070371218 -0.0035036802 0.0057049608 4288034864
-0.0052479953 -0.0026378557 0.0046029082 4288099889
-0.0037889741 -0.00031565875 0.0021296786 4288296494
-0.0018505566 -0.00017883629 0.0017167674 4288231214
-0.00024759769 0.0014139414 -6.6138804e-05 4288230959
0.0016856454 0.0015506148 -0.00047778711 4288230703
0.0029265098 0.0045976266 -0.0036249664 4288295983
0.004146073 0.0076432377 -0.0067675291 4288491824
0.0053443387 0.010687448 -0.0099054771 4288753454
0.006521292 0.013730258 -0.013038802 4288884779
0.0076769404 0.016771622 -0.016167467 4288753963
0.0091841817 0.018358432 -0.017929455 4288623913
-0.0039248429 -0.0018985942 0.00095067825 4288297004
-0.0019865669 -0.0017617941 0.00053778198 4288231214
-4.8201531e-05 -0.0016248897 0.00012494996 4288231214
0.0017199926 -0.00075794756 -0.00097065419 4288427308
0.0033099987 0.00083845854 -0.0027473141 4288295983
0.0047137849 0.0031638145 -0.005203357 4288165169
0.0059233457 0.0062174797 -0.0083370619 4288165168
0.0071115941 0.0092697442 -0.011466148 4288427053
0.0082785338 0.012320623 -0.0145906 4288623148
-0.0045468509 -0.0012832507 -0.0022768471 4287644203
-0.0022872575 -0.0026119873 -0.0013233237 4288363048
-0.00035170466 -0.002475284 -0.0017355699 4288231214
0.0017540045 -0.0030705556 -0.0014665276 4288231214
0.0031741746 -0.00073771924 -0.0039211344 4288100143
0.0047537945 0.00086243451 -0.0056922138 4288296494
0.0061447211 0.0031934157 -0.0081404317 4288165168
0.0077004284 0.0047921091 -0.009906251 4288230703
0.0086952485 0.0085835978 -0.013704826 4288427309
0.010035582 0.010911375 -0.016142055 4288823833
0.001447916 -0.0039186925 -0.0033246242 4287709229
0.0030383952 -0.0023136139 -0.0050947517 4287969328
0.0047934726 -0.0014430583 -0.0061840676 4287969583
0.0061874874 0.00089469552 -0.008627994 4287969584
0.0081072263 0.0010308251 -0.0090364423 4288427308
0.0092940852 0.0041004345 -0.012151843 4288295983
0.0027302839 -0.0031529367 -0.0069455355 4287250228
0.0044827275 -0.0022803694 -0.008032687 4287905324
0.0060522147 -0.00067222118 -0.009794848 4288231724
0.0079718046 -0.00053609908 -0.01020327 4288231214
0.0089762434 0.0032777116 -0.01398728 4287969074
0.0078364275 -0.0021027252 -0.011369873 4287447088
0.009024512 0.0009842962 -0.014472237 4287970094
0.0087071024 0.00016652048 -0.01630399 4287447599
-0.021840129 -0.037288494 0.0069193328 4287247934
-0.023318607 -0.042848036 0.0094897198 4286855233
-0.021444749 -0.041949391 0.0083902227 4287641399
-0.020120073 -0.038017772 0.0046110945 4287248698
-0.018544581 -0.035604104 0.0021769712 4287314234
-0.023718294 -0.042963803 0.0069301883 4286528324
-0.021849718 -0.042063385 0.0058334703 4287379514
-0.020122144 -0.040402696 0.004069333 4287445305
-0.018405098 -0.038742669 0.0023075724 4287576118
-0.016839717 -0.03632313 -0.00011933874 4287314234
-0.015146386 -0.034664512 -0.0018758541 4287050819
-0.022120941 -0.042931184 0.0039508948 4287379514
-0.020260174 -0.042029046 0.0028575817 4287510329
-0.018404607 -0.041127145 0.0017654719 4287510839
-0.016554218 -0.040225498 0.00067455415 4287641909
-0.014852662 -0.03856194 -0.0010804348 4288427053
-0.013161656 -0.036899067 -0.0028330488 4287510329
-0.011481192 -0.035236768 -0.0045833653 4287050818
-0.024255071 -0.0446987 0.003164134 4287117629
-0.022258963 -0.04455936 0.0027377373 4287379513
-0.020262707 -0.044419885 0.0023113927 4287510329
-0.018404435 -0.043515652 0.0012203595 4287575864
-0.016692143 -0.041847229 -0.00053368509 4287445304
-0.01484691 -0.040943667 -0.0016217493 4288099633
-0.013006918 -0.040040299 -0.0027086549 4288165679
-0.011172112 -0.039137229 -0.003794305 4287771959
-0.0096454285 -0.036706932 -0.0062026223 4286920003
-0.020806652 -0.043746814 -0.00089266896 4287051073
-0.018542539 -0.045141391 9.0971589e-06 4287117119
-0.016689416 -0.044235259 -0.0010791086 4287248444
-0.014698241 -0.044095799 -0.0015040971 4287314233
-0.012998778 -0.042423695 -0.0032518804 4287576118
-0.011309896 -0.040752172 -0.0049973801 4287968819
-0.0097828023 -0.038315386 -0.0074008107 4287772215
-0.0082715973 -0.035879657 -0.009800747 4287771959
-0.0066197105 -0.034210354 -0.01153805 4287770429
-0.019093823 -0.044459909 -0.0031865463 4287181633
-0.016967852 -0.045089766 -0.00294948 4286986048
-0.014979485 -0.044950493 -0.0033738613 4287248699
-0.012991004 -0.044811107 -0.0037981868 4287575864
-0.011447627 -0.042366832 -0.0062002316 4287903284
-0.0096179806 -0.041459709 -0.0072813928 4287706933
-0.0082548 -0.038249195 -0.010335725 4288164914
-0.0064436123 -0.037343085 -0.011412755 4287968053
-0.0044785887 -0.037204728 -0.011831589 4287705914
-0.0020282678 -0.039368078 -0.010281101 4286919748
-0.015260328 -0.045800567 -0.0052401796 4286985539
-0.013274666 -0.04566139 -0.0056639127 4287051584
-0.011733551 -0.043210804 -0.0080605 4287445048
-0.0099065565 -0.0423017 -0.0091394447 4287511093
-0.0080847777 -0.041392781 -0.01021722 4287837494
-0.0061120056 -0.041253991 -0.010637805 4287706423
-0.0039802529 -0.041884772 -0.010402907 4287771959
-0.001519978 -0.044053927 -0.0088595264 4287379514
0.00062794611 -0.044683307 -0.0086278841 4286856508
0.0019468404 -0.041466646 -0.011665661 4286136643
-0.013848674 -0.044961423 -0.0088393725 4287377728
-0.012019079 -0.044050105 -0.0099173151 4287379514
-0.0098933019 -0.044683807 -0.0096831396 4287444539
-0.0082221963 -0.043000363 -0.011414729 4287379513
-0.0060935505 -0.043633662 -0.011180937 4287444793
-0.0038007759 -0.045038208 -0.01029449 4287444793
-0.0013358742 -0.047213569 -0.0087570287 4287510329
0.00081701949 -0.047844723 -0.0085281469 4287379513
0.0024752431 -0.046161577 -0.010256439 4286136898
-0.010331955 -0.044746257 -0.0121914 4287443519
-0.0083595924 -0.044607632 -0.012612 4287378749
-0.0063871332 -0.04446888 -0.013032533 4287509819
-0.0040975548 -0.045878053 -0.012148697 4287313978
-0.0017972291 -0.047286272 -0.011267085 4287445049
0.0003500022 -0.047920048 -0.011038624 4286855488
-0.0066803023 -0.04529953 -0.014880642 4287181634
-0.0045522638 -0.045937017 -0.014649987 4287313978
-0.0024187826 -0.046574049 -0.014420349 4287314743
-0.0050061904 -0.04598707 -0.017144565 4287050819
-0.025151204 0.0083309561 0.047983531 4280592434
-0.027675625 0.008628048 0.045019936 4282418488
-0.031333309 0.0039245263 0.047541115 4281894464
-0.030059721 0.0082434341 0.042784251 4282679354
-0.034185644 0.0063318983 0.042419139 4282025023
-0.032911267 0.010663763 0.037672024 4282874939
-0.038086873 0.0030182526 0.043494966 4282219079
-0.03666025 0.0066642985 0.039469343 4281829949
-0.035026122 0.0089063123 0.036887836 4282091069
-0.040549766 0.0033541694 0.040544804 4282411859
-0.039340172 0.0084187314 0.035088725 4279094564
-0.037254591 0.0078528523 0.035385702 4280594218
-0.035280254 0.0079907402 0.034964006 4281245744
-0.042995017 0.003704831 0.037601177 4281435463
-0.041773792 0.0087852255 0.032154221 4280980033
-0.040144544 0.011039712 0.029583529 4281372478
-0.037847359 0.0090591088 0.031315316 4281828418
-0.035533939 0.0070797503 0.03304366 4281829439
-0.045525704 0.00477878 0.033946965 4281631048
-0.044189777 0.0091664568 0.029226243 4281110594
-0.042451892 0.010719113 0.02737641 4280133434
-0.040724423 0.012271103 0.025528908 4280850239
-0.038211036 0.0088674203 0.028687809 4281306943
-0.035670731 0.0054657236 0.031841036 4280400419
-0.045970637 0.0052976236 0.030598033 4281567809
-0.044536125 0.0089872554 0.026603684 4281568318
-0.04301979 0.011964623 0.023329508 4281176384
-0.041191835 0.012809981 0.022201292 4280720698
-0.03857388 0.0086847171 0.026067045 4280592944
-0.035923701 0.0045618191 0.029925939 4281767984
-0.045797985 0.0015520975 0.031542424 4281567298
-0.044354666 0.005253084 0.027554519 4281437248
-0.042937782 0.0089523122 0.023572318 4281371969
-0.041215111 0.010512546 0.021732446 4280849983
-0.038709123 0.007086575 0.024876203 4280981564
-0.036060166 0.0029505193 0.028725322 4282026809
-0.046505641 -0.010212474 0.040741552 4282412368
-0.045318734 -0.0043518022 0.034614112 4281566788
-0.043753397 -0.0013537928 0.031342607 4281371459
-0.042424884 0.0030724257 0.026653372 4281046334
-0.040796522 0.005352661 0.024102755 4280784194
-0.038617868 0.004059881 0.025105506 4280915518
-0.036196548 0.0013394877 0.027524889 4281962293
-0.04634494 -0.014008209 0.041650668 4282804049
-0.044943955 -0.0095642135 0.0369558 4281760844
-0.043364655 -0.0065566227 0.033687923 4281501508
-0.041806441 -0.0035504028 0.030424636 4281306689
-0.040269326 -0.00054554641 0.027165923 4281241409
-0.038301196 -0.00040844083 0.026745282 4281240898
-0.036332857 -0.00027126074 0.026324648 4281762884
-0.046483804 -0.015657656 0.040421408 4282804049
-0.045081828 -0.011200614 0.035736289 4282021964
-0.043397058 -0.0089036599 0.033183355 4281632324
-0.041620534 -0.0073268935 0.03134178 4281567554
-0.03996462 -0.0050317869 0.028795149 4281240898
-0.038098786 -0.0041752309 0.027665477 4280979524
-0.036469091 -0.0018817335 0.025124602 4281304904
-0.034500647 -0.0017444789 0.024703994 4282481218
-0.032531995 -0.0016071349 0.024283405 4284049978
-0.045219626 -0.012836732 0.034516972 4281957193
-0.043429758 -0.011254795 0.032675732 4281436228
-0.041650314 -0.0096735284 0.030836817 4281501508
-0.039771307 -0.0088140368 0.029705893 4281370949
-0.03812271 -0.0065128654 0.027165867 4281110084
-0.036374602 -0.0049334615 0.025333822 4281109829
-0.034636918 -0.0033547282 0.023504134 4281239879
-0.032789033 -0.0024970323 0.022380147 4281566789
-0.030699644 -0.0030799955 0.022662994 4281894209
-0.028730724 -0.0029424727 0.022242468 4283004734
-0.044746462 -0.01881583 0.037532479 4281759313
-0.043253783 -0.01505743 0.03357546 4281109318
-0.04168037 -0.012024254 0.030328799 4281109318
-0.039908443 -0.010439128 0.028494872 4281371203
-0.038146954 -0.0088545829 0.026663195 4281240644
-0.036511052 -0.0065477341 0.024130922 4281240388
-0.034890924 -0.0042419434 0.021602128 4281305414
-0.032925177 -0.0041048676 0.021182109 4281370694
-0.030959237 -0.0039676726 0.020762116 4281893444
-0.028867286 -0.004552573 0.021042798 4281958469
-0.027026754 -0.0036929697 0.01992223 4282481729
-0.041175943 -0.018007495 0.033332761 4281171538
-0.039716642 -0.014240421 0.02939133 4281631558
-0.038171474 -0.011200383 0.02615748 4281698369
-0.036302555 -0.010337159 0.025032107 4281372224
-0.034791637 -0.0072993264 0.021805722 4281436228
-0.032820676 -0.0071619153 0.021384563 4281501508
-0.031095419 -0.0055752695 0.019564271 4281305669
-0.029003795 -0.0061623976 0.019843321 4281370693
-0.027419787 -0.0038522184 0.017327469 4281762884
-0.025589693 -0.0029910952 0.016210858 4282221119
-0.023631129 -0.0028540641 0.015792724 4283984699
-0.039088096 -0.020965286 0.033081543 4282672724
-0.03785998 -0.015732773 0.027749453 4281500999
-0.036324646 -0.012684703 0.024524394 4281240643
-0.034693006 -0.010365173 0.022003073 4281632834
-0.032836933 -0.0095004588 0.020882204 4281305668
-0.030986007 -0.0086360574 0.019762546 4281240388
-0.029014777 -0.008498475 0.019341443 4281632068
-0.027555782 -0.0054552406 0.016133085 4281436228
-0.025856402 -0.0038657784 0.014321863 4282154818
-0.023900654 -0.0037289858 0.013904293 4284049978
-0.035888676 -0.017954312 0.026805829 4281694799
-0.034595039 -0.013439417 0.022194076 4281435719
-0.032853495 -0.011843137 0.020376828 4281436484
-0.030999843 -0.010976359 0.01925819 4281304903
-0.029151324 -0.010109887 0.018140767 4281434699
-0.027563799 -0.0077865571 0.015634142 4281369929
-0.025730934 -0.0069209412 0.014520169 4282484279
-0.024036471 -0.0053274482 0.012713362 4284313139
-0.032870363 -0.014189824 0.019868385 4281172559
-0.030891579 -0.014051877 0.019445542 4281173324
-0.029287811 -0.011721 0.016940299 4281173324
-0.027444389 -0.01085265 0.015825678 4281238603
-0.025736522 -0.0092540085 0.014019239 4282550069
-0.023906086 -0.0083863065 0.012907515 4284575023
-0.030783985 -0.017135769 0.019626562 4280844374
-0.029174458 -0.014798082 0.017125089 4281107789
-0.027453195 -0.013194248 0.015318978 4281172304
-0.025742423 -0.011591107 0.013515226 4282614583
-0.023909267 -0.010721125 0.012404596 4284640049
-0.025878679 -0.013197348 0.012318437 4282613563
-0.023912754 -0.013059944 0.011898617 4284640049
-0.025755163 -0.016277477 0.0124981 4281888598
-0.0015934072 -0.0035208613 -0.0086502004 4284314158
0.00049796328 -0.0041236877 -0.0083831362 4282613819
0.0022504069 -0.0032491088 -0.0094686598 4282481729
0.0039975755 -0.002374813 -0.010552995 4283399219
-0.0017282329 -0.005089283 -0.0098183416 4283792939
0.0001934953 -0.0049534813 -0.01022758 4282286909
0.0017713271 -0.0033363178 -0.011985047 4281828163
0.0035131834 -0.0024601966 -0.013066638 4281893953
0.0054270998 -0.002324596 -0.013473954 4283396923
-0.001863014 -0.0066573769 -0.010986231 4283335723
-0.00027969107 -0.0050356314 -0.012741653 4281959998
0.0014648177 -0.0041572601 -0.01382223 4281501763
0.0032040626 -0.0032792166 -0.014901567 4281632068
0.0051151663 -0.0031438246 -0.015308285 4282024259
0.0070263259 -0.0030083209 -0.01571493 4282481984
-0.0016652048 -0.0097159296 -0.010809784 4282812719
9.2614442e-05 -0.008834593 -0.011891636 4281502784
0.0015019663 -0.0064636022 -0.014314058 4281241409
0.0034182034 -0.0063279793 -0.014721966 4281371204
0.0049805939 -0.0047029927 -0.016469378 4281370183
0.0067119859 -0.0038231015 -0.017545203 4281501254
0.0084380917 -0.0029434636 -0.018619809 4281893953
0.01034385 -0.0028081089 -0.019025128 4282286399
0.011874389 -0.0011848956 -0.02076539 4284182578
-0.0014681108 -0.012782857 -0.010639646 4282680884
0.0001263395 -0.011151686 -0.012390804 4281438269
0.0015387647 -0.0087739378 -0.014808933 4281241409
0.0032834299 -0.0078911856 -0.015886113 4281436484
0.0048460476 -0.0062618554 -0.017630253 4281632069
0.006577488 -0.005379796 -0.018704424 4281501508
0.0084857307 -0.0052443966 -0.019110369 4281631559
0.010209247 -0.0043626577 -0.020182665 4281828418
0.011740014 -0.0027351156 -0.021919671 4282353209
0.013260141 -0.001108259 -0.023654282 4284511783
-0.0016035363 -0.014358759 -0.011813373 4281761354
0.00032828748 -0.014222279 -0.012224783 4281174853
0.0017464571 -0.011837646 -0.014639162 4281436484
0.0033225976 -0.010203227 -0.016382927 4281502019
0.0045349672 -0.0070714727 -0.019457435 4281697349
0.0064430125 -0.0069362074 -0.019863429 4281500998
0.008169204 -0.0060522407 -0.020934734 4281435973
0.010074668 -0.0059169084 -0.021339986 4281370694
0.011792921 -0.0050332695 -0.022409428 4281632578
0.013505857 -0.0041498318 -0.02347767 4281763648
0.015213482 -0.0032667145 -0.024544669 4282353208
0.016720533 -0.001636222 -0.026272988 4282941748
0.018414825 -0.00075376034 -0.027337009 4284576554
-0.00031239912 -0.013542779 -0.015398138 4280777819
0.0012692399 -0.011903755 -0.017139845 4281435208
0.0031877048 -0.011768006 -0.017548256 4281501508
0.0049298443 -0.010880984 -0.018621475 4281502019
0.0066666864 -0.0099941716 -0.019693516 4281501763
0.0083982497 -0.0091076717 -0.020764314 4281370439
0.010124516 -0.0082214251 -0.021833887 4281435463
0.011845477 -0.0073354393 -0.022902247 4281567044
0.013371393 -0.0056994632 -0.024631478 4281762884
0.015079059 -0.0048141778 -0.025696816 4282090558
0.016586341 -0.0031793416 -0.027421867 4282091579
0.018676147 -0.0037939698 -0.02716345 4282681139
0.0205709 -0.0036586821 -0.02756587 4284052528
0.0049712174 -0.013196602 -0.019121636 4281107789
0.0067107789 -0.012307487 -0.02019256 4281108299
0.008263506 -0.01066567 -0.021924466 4281238859
0.01017401 -0.010529995 -0.022330802 4281434699
0.011710815 -0.0088890791 -0.024059076 4281566279
0.013236955 -0.0072487891 -0.025785051 4281371203
0.014944658 -0.0063613355 -0.026848748 4281567298
0.016647045 -0.0054741204 -0.027911197 4281894209
0.019134289 -0.0075943917 -0.026337411 4281894719
0.021637525 -0.0097133219 -0.024766952 4281960254
0.023953905 -0.011079624 -0.023857374 4282350914
0.025664277 -0.010191321 -0.024921197 4283590214
0.026328208 -0.0055481791 -0.029266221 4284704564
0.0067545213 -0.014624804 -0.020694651 4281040468
0.0090355314 -0.0159989 -0.019781681 4281238859
0.010407191 -0.013597548 -0.022170722 4281304393
0.011949535 -0.011951894 -0.023896907 4281306179
0.013291903 -0.0095523968 -0.026279543 4281435974
0.01481029 -0.0079081878 -0.028000444 4281763394
0.016707398 -0.0077729821 -0.028403558 4281763394
0.018999236 -0.0091456175 -0.027492285 4281894719
0.022301858 -0.01428622 -0.023300357 4281763648
0.025236454 -0.017916866 -0.020428268 4282154818
0.027787 -0.020038716 -0.018872606 4282609739
0.010823455 -0.017430551 -0.021358581 4281170519
0.012187552 -0.01502315 -0.023740958 4281566278
0.01334649 -0.011859998 -0.026777074 4281698369
0.014867775 -0.010211267 -0.028495274 4281632578
0.016572904 -0.0093195438 -0.029555 4281632324
0.019061377 -0.01145269 -0.027991425 4281894209
0.022565033 -0.017364323 -0.023156384 4281763138
0.026313864 -0.02402848 -0.017675964 4281955918
0.030110721 -0.030689158 -0.012205626 4282411603
0.03229288 -0.031303219 -0.011971365 4282672723
0.013356358 -0.021898158 -0.02031046 4281298529
0.014345605 -0.017966107 -0.02399963 4281826633
0.015499838 -0.014794499 -0.027028002 4281762884
0.01682706 -0.01238288 -0.029397275 4281304903
0.019123159 -0.0137638 -0.028493579 4281631813
0.022428177 -0.018934533 -0.024325347 4281631813
0.026984397 -0.028650068 -0.016248411 4281762374
0.03160999 -0.038360544 -0.0081860498 4282085713
0.017087683 -0.023199238 -0.022306407 4281630794
0.017856961 -0.018497311 -0.026634444 4281434698
0.019971753 -0.019120947 -0.026389612 4281239114
0.023488071 -0.025066279 -0.021583827 4281369929
0.028057693 -0.034808978 -0.013531252 4281891914
0.022194672 -0.029838257 -0.019746959 4282219080
0.025342792 -0.034273699 -0.016261082 4281892934
0.029330662 -0.041755885 -0.010183781 4281957705
-0.034751777 -0.017412215 0.020474549 4280506499
-0.034655262 -0.020505235 0.020651605 4279259803
-0.032785621 -0.01963108 0.019534435 4278670244
-0.031043183 -0.018021688 0.017726935 4279063963
-0.029435907 -0.015677646 0.015230863 4279919488
-0.034559432 -0.023606628 0.020822335 4279259804
-0.032922778 -0.021254323 0.018324833 4278473128
-0.031301927 -0.018902957 0.015830759 4278801059
-0.029572386 -0.017290063 0.014029394 4278736799
-0.027598936 -0.017152369 0.013607784 4279459468
-0.034464259 -0.026716501 0.020986803 4279455899
-0.033059854 -0.022877254 0.017115451 4278669989
-0.031316917 -0.021259218 0.015314453 4278801314
-0.029708799 -0.018902168 0.012828141 4278932639
-0.027481485 -0.020243466 0.013780731 4278867359
-0.025762025 -0.018626757 0.011984983 4279718803
-0.024053026 -0.017010704 0.010191617 4281161084
-0.034718219 -0.02760756 0.019081753 4279521689
-0.03319687 -0.024499871 0.015906289 4278801059
-0.031453717 -0.022877514 0.014108547 4278538918
-0.029721018 -0.021255836 0.012313169 4278997664
-0.02761836 -0.021859676 0.012576445 4279063198
-0.025898647 -0.020238623 0.010783971 4279194268
-0.024189431 -0.018618256 0.0089938538 4279456409
-0.022490706 -0.016998515 0.0072060646 4281226109
-0.034623843 -0.030727699 0.019238558 4279784083
-0.033215199 -0.02686657 0.01538287 4279128989
-0.03146914 -0.025239721 0.013587807 4278473383
-0.029609587 -0.024357527 0.012479502 4278669734
-0.027628545 -0.024219394 0.012056201 4278997409
-0.025905918 -0.022593886 0.01026645 4278997409
-0.024325769 -0.020225525 0.0077962978 4279128478
-0.022626814 -0.018601447 0.0060117701 4279128733
-0.020526472 -0.019207187 0.0062742112 4279587734
-0.018840563 -0.017583758 0.0044925949 4280439943
-0.034182791 -0.036096431 0.021442525 4282274414
-0.032760035 -0.032223538 0.017592106 4280635528
-0.031242643 -0.029098712 0.01443077 4279391383
-0.029622603 -0.026721448 0.011956799 4278735014
-0.027765479 -0.025837161 0.010850747 4278800803
-0.02591351 -0.024953142 0.00974588 4278800803
-0.024330284 -0.022578105 0.0072800284 4279062943
-0.022493977 -0.021694936 0.0061786911 4278997663
-0.02066287 -0.020812035 0.0050785309 4279128733
-0.018836942 -0.019929379 0.0039795628 4279522198
-0.017301101 -0.017557196 0.001524183 4279587734
-0.015490893 -0.016675413 0.00042875018 4282404973
-0.030654397 -0.035216078 0.01730936 4282601834
-0.029141542 -0.032082841 0.014155705 4280308619
-0.027649824 -0.028951004 0.011006701 4279325338
-0.025921416 -0.027316451 0.00922227 4279194524
-0.024335112 -0.024934717 0.0067607341 4279128479
-0.02263036 -0.023301639 0.0049815765 4279128478
-0.020662274 -0.023164004 0.0045613563 4279062943
-0.018973228 -0.021531776 0.002785732 4278800803
-0.017152447 -0.020647183 0.0016895616 4279062689
-0.015481796 -0.01901602 -8.1969425e-05 4278668969
-0.013821676 -0.017385431 -0.0018511936 4279127458
-0.01217211 -0.015755527 -0.0036180494 4281553783
-0.027156632 -0.034324259 0.013193256 4280636548
-0.025672141 -0.031184152 0.010052462 4279849618
-0.024208825 -0.028045401 0.0069162799 4279456409
-0.022766691 -0.024908021 0.0037846984 4279259803
-0.021072228 -0.023271233 0.0020111306 4278866848
-0.019248877 -0.022384413 0.00091597345 4279128479
-0.017288651 -0.022247121 0.00049759168 4278800294
-0.015473027 -0.021360666 -0.00059569627 4278472108
-0.013957426 -0.018976726 -0.0030366387 4278799783
-0.012307636 -0.017342485 -0.004800234 4279783828
-0.010668382 -0.015708871 -0.0065614814 4280112013
-0.025166813 -0.036569268 0.012226679 4281356924
-0.024214473 -0.030412287 0.0063893134 4282140794
-0.022902962 -0.026514098 0.0025880383 4279980433
-0.021071713 -0.025624752 0.0014927993 4279456409
-0.019384887 -0.023984015 -0.00027578324 4278931873
-0.017424796 -0.02384676 -0.00069415383 4278800803
-0.015609119 -0.022958145 -0.0017857999 4278997153
-0.013945878 -0.021318763 -0.0035490338 4278997408
-0.012293208 -0.019679978 -0.0053099785 4278931873
-0.010498509 -0.018792488 -0.0063968878 4278997663
-0.0087090246 -0.017905258 -0.0074825939 4279587734
-0.0069247931 -0.017018251 -0.0085670818 4280046223
-0.0053063594 -0.015381388 -0.010320356 4281882223
-0.020935152 -0.028736264 0.0016448675 4280635274
-0.019242752 -0.027090892 -0.0001215525 4279455898
-0.017560896 -0.025446087 -0.0018856749 4279062944
-0.015745182 -0.024555333 -0.0029756892 4278473384
-0.013934691 -0.023664825 -0.0040645003 4278735524
-0.012428816 -0.021268487 -0.0064933337 4279062943
-0.010481704 -0.021131694 -0.0069085825 4278866594
-0.0086895227 -0.020242125 -0.0079932194 4279063199
-0.0069025792 -0.019352779 -0.0090766307 4279390874
-0.0052812584 -0.017711386 -0.010827204 4279980945
-0.0038335435 -0.015318602 -0.013243137 4280047243
-0.018823605 -0.031718016 0.0013689185 4281158278
-0.017413903 -0.028556645 -0.001735582 4279914389
-0.015737023 -0.026907772 -0.0034952443 4278865574
-0.013923816 -0.026014924 -0.0045829806 4279128478
-0.012414865 -0.023611903 -0.0070075002 4279062944
-0.010465235 -0.023474932 -0.0074232947 4279128478
-0.0086703561 -0.022583008 -0.0085068513 4278997408
-0.0070382245 -0.02093672 -0.01025646 4279128479
-0.0055768602 -0.018536568 -0.01267047 4278866084
-0.0041314103 -0.016137466 -0.015080945 4278735269
-0.0023708381 -0.015247427 -0.016156854 4279063453
-0.00044732168 -0.015111558 -0.016566521 4279326103
0.0013053976 -0.014221877 -0.017640533 4280181628
-0.015297156 -0.031537503 -0.0020123078 4283121523
-0.013766591 -0.029126674 -0.004436533 4280176274
-0.012102567 -0.027474135 -0.0061899452 4279586458
-0.010449089 -0.025822267 -0.0079409909 4279259549
-0.0084968284 -0.02568499 -0.0083572511 4279062943
-0.0068591498 -0.024033934 -0.010104774 4278931618
-0.0052320398 -0.022383586 -0.011849923 4278997409
-0.0039408505 -0.019220933 -0.014921764 4278407594
-0.0021749027 -0.018328398 -0.015997125 4278932384
-0.0004142113 -0.017436147 -0.017071282 4279063964
0.0013412051 -0.016544081 -0.018144252 4279326869
0.0029180236 -0.014896639 -0.019878212 4279589774
-0.013610069 -0.032246754 -0.0042963615 4282204289
-0.01194049 -0.030589566 -0.0060476167 4280896649
-0.010281466 -0.028932951 -0.0077965693 4279521178
-0.0086329803 -0.027276993 -0.0095431302 4279193248
-0.0068379417 -0.026380599 -0.010623375 4279194014
-0.0052079335 -0.024725698 -0.012365816 4278538663
-0.0034260303 -0.023830026 -0.013443014 4278342314
-0.0016493686 -0.022934593 -0.014519008 4279128733
-4.5798719e-05 -0.021281153 -0.016255585 4279194524
0.0013766922 -0.018870339 -0.018650932 4279260568
0.0027832352 -0.016460486 -0.021042846 4279129753
0.0045254864 -0.015566997 -0.022111129 4279655309
0.0067979209 -0.016946159 -0.021199757 4279850893
0.0092622377 -0.019081742 -0.019631604 4280245379
-0.0084605142 -0.030391365 -0.0094028516 4281420419
-0.0068170503 -0.028731339 -0.011144945 4279259038
-0.0050245449 -0.027832851 -0.012222895 4278931619
-0.0032372624 -0.026934654 -0.013299601 4278735778
-0.0016201995 -0.025276095 -0.015035769 4278604963
-1.3742596e-05 -0.023618124 -0.016769642 4278932383
0.0012415275 -0.020440415 -0.019820252 4278866594
0.0028214417 -0.018784083 -0.021548273 4279194013
0.0045663975 -0.017888233 -0.022615481 4279194269
0.0070192777 -0.020031258 -0.021049982 4279391129
0.0098501518 -0.023691915 -0.018173212 4279850384
0.011973184 -0.02431345 -0.017928967 4280181119
-0.0067965128 -0.031086102 -0.011669594 4280765069
-0.0051607415 -0.029422104 -0.013406663 4279783318
-0.0032113269 -0.029284701 -0.013822074 4278931874
-0.001756154 -0.026858889 -0.016214641 4278670498
-0.00014947727 -0.025196582 -0.017945236 4278997918
0.0012765042 -0.022772565 -0.020331392 4278866849
0.0030320995 -0.021873951 -0.02139931 4278866848
0.0047824048 -0.02097553 -0.022466036 4278669479
0.0072399117 -0.02312471 -0.020906502 4278669223
0.0098942444 -0.026034243 -0.0186946 4279325339
0.012569953 -0.028942145 -0.016487164 4278670754
0.014894795 -0.030325852 -0.015593286 4279983238
-0.0028618611 -0.033169083 -0.013031459 4282336633
-0.0012336932 -0.031501129 -0.01476338 4280372878
-0.00011789799 -0.027539507 -0.018463666 4278932894
0.0013111383 -0.02510877 -0.020845549 4278932639
0.0032420233 -0.024972171 -0.021256628 4278408359
0.0051729716 -0.024835438 -0.021667616 4278735524
0.007459823 -0.026226543 -0.020769266 4279063964
0.010118581 -0.029144421 -0.018564949 4279326104
0.013531763 -0.035115123 -0.013751077 4279587989
0.016801741 -0.040319249 -0.0095991306 4279849874
0.018977489 -0.040941097 -0.0093692169 4281161593
-0.00038388744 -0.037694663 -0.012013163 4283318383
0.0010828264 -0.035254903 -0.01439819 4281354628
0.0020243973 -0.030515961 -0.018743848 4279063708
0.0034512319 -0.028078787 -0.021120204 4278735269
0.0052122883 -0.027175315 -0.022185853 4278931874
0.0075012781 -0.028570674 -0.021291258 4279063454
0.010522611 -0.033028975 -0.017789058 4279325594
0.014308278 -0.040548101 -0.011686087 4279784339
0.017775849 -0.046532109 -0.0068969578 4280439688
0.004004173 -0.032731235 -0.019684929 4280701573
0.005601041 -0.031056359 -0.021403164 4279390874
0.0078974888 -0.032455444 -0.020513516 4279456154
0.011466194 -0.039230734 -0.015070204 4279521689
0.015082937 -0.0460025 -0.0096370243 4279652759
0.018005513 -0.049699605 -0.0068127336 4282143343
0.0065127835 -0.037262224 -0.018678963 4282077554
0.0088247061 -0.038664579 -0.017795876 4280112268
0.01222752 -0.044687942 -0.013019748 4279849874
0.015490361 -0.049938053 -0.0089011863 4280177038
0.035231598 0.011443436 0.0071748318 4285491749
0.039358694 0.0045128539 0.013638503 4285492259
0.029325673 0.022480216 -0.0059707481 4285623583
0.031230826 0.02261661 -0.0063751042 4285820444
0.034439042 0.018497717 -0.0026622564 4285820189
0.039657973 0.0079998523 0.0072144819 4285819933
0.025379533 0.020650875 -0.0063207895 4285425959
0.026030743 0.025059041 -0.010842897 4285820698
0.027284833 0.027329557 -0.013300965 4285689119
0.029165816 0.027464226 -0.013700186 4285492004
0.031914722 0.024753377 -0.0113611 4285557793
0.035783291 0.018487979 -0.0056064446 4285689373
0.040144585 0.010804042 0.001504981 4285624349
-0.026632931 -0.0035246685 0.022523656 4284901679
0.022525057 0.021816466 -0.0098181255 4285360169
0.024007106 0.02338054 -0.011590838 4285427233
0.025269678 0.025658078 -0.014045782 4285820699
0.026516184 0.027934611 -0.016497288 4285952279
0.028174903 0.028782494 -0.017578268 4285755164
0.030695437 0.02677571 -0.015926322 4285689374
0.034109861 0.02191652 -0.011548143 4285689628
0.037561629 0.017060146 -0.007177854 4285755674
0.041050751 0.012206517 -0.002815363 4285558558
0.044577193 0.0073557198 0.0015392555 4285558814
0.047680661 0.0039329231 0.004525871 4285427743
0.050112262 0.0026495606 0.0054682689 4285296164
0.019493163 0.02371835 -0.013991488 4285490983
0.021373972 0.023852609 -0.014390975 4285493278
0.023048831 0.024703547 -0.015473999 4285427999
0.024509761 0.026270516 -0.017238766 4285558558
0.025748702 0.028553024 -0.019683657 4285689883
0.027399467 0.029402502 -0.020761289 4285821464
0.029911302 0.02738858 -0.019112429 4285821464
0.03287768 0.023944732 -0.016105412 4285821208
0.036092672 0.01978752 -0.012423793 4285624349
0.038890421 0.017063096 -0.010108097 4285493278
0.040800296 0.017200373 -0.010513037 4285559069
0.042710096 0.017337747 -0.010917882 4285493278
0.044387188 0.018189847 -0.012000533 4285755674
0.047470696 0.014755044 -0.0090178736 4285820699
0.052722637 0.004894048 5.0283037e-05 4285820443
0.016885601 0.024205774 -0.016786743 4285621798
0.018157082 0.026496693 -0.019233873 4285690139
0.020224806 0.025910854 -0.018947367 4285755673
0.022503581 0.024606816 -0.017980013 4285755673
0.024167817 0.02545923 -0.019058987 4285624093
0.025615606 0.027029753 -0.020817595 4285558303
0.027480185 0.027163275 -0.021213315 4285558303
0.029777575 0.02586095 -0.02024954 4285558813
0.032523785 0.023123957 -0.01792972 4285558814
0.035291299 0.020388648 -0.015614385 4285559068
0.037631281 0.019089684 -0.01465941 4285558813
0.039300576 0.019943196 -0.015738893 4285624604
0.040275123 0.022947446 -0.018847741 4285690139
0.041693117 0.024516646 -0.020599399 4285755163
0.044275939 0.022502042 -0.018970029 4285820189
0.048539191 0.015473723 -0.012617854 4285820444
0.054779418 0.002719447 -0.00088013709 4285886234
-0.021944705 -0.0035920516 0.013486779 4285492004
-0.019988608 -0.0034550279 0.013069295 4285622563
0.014880069 0.022542819 -0.017527588 4285558048
0.015764948 0.026283693 -0.02133565 4285624093
0.017023517 0.0285802 -0.023775039 4285426724
0.0194833 0.026549023 -0.022125516 4285755163
0.021959107 0.024519108 -0.020479307 4285820953
0.023826279 0.024652611 -0.020875733 4285886999
0.025693428 0.024786219 -0.021272071 4285624094
0.027560547 0.024919923 -0.02166833 4285559068
0.030076314 0.022893324 -0.020030327 4285559068
0.032389179 0.021587886 -0.01907308 4285559068
0.034491099 0.021003101 -0.01879498 4285559324
0.03637407 0.02113837 -0.019194273 4285559069
0.037803147 0.022712514 -0.020945096 4285690139
0.038762327 0.025724314 -0.024043962 4285821208
0.040164556 0.027296737 -0.025788937 4285557793
0.042730652 0.025274448 -0.024161 4285557794
0.046263047 0.020379003 -0.01984225 4285623839
0.050793804 0.012612626 -0.012839406 4285623838
0.056111999 0.0026959628 -0.0038316902 4285624094
-0.022216577 -0.0044625551 0.011602378 4285426978
-0.02054048 -0.0028700903 0.009799608 4285623839
-0.018451098 -0.0034611523 0.010076239 4285689118
-0.016500171 -0.0033243001 0.0096600084 4285754399
0.014163207 0.023185186 -0.020709097 4285624093
0.015040893 0.026936397 -0.024507299 4285624094
0.016491905 0.028515354 -0.026260216 4285360934
0.01854028 0.02792383 -0.025972981 4285492003
0.02121005 0.02516352 -0.023650642 4285689629
0.023693159 0.023127731 -0.022010893 4285755419
0.025981564 0.021815918 -0.021052081 4285624093
0.028067261 0.021227509 -0.020772429 4285559068
0.030158266 0.020639572 -0.02049383 4285559068
0.031817161 0.021496378 -0.021568008 4285559579
0.033470668 0.022352904 -0.022640957 4285559068
0.035118781 0.023209155 -0.023712678 4285558813
0.036761492 0.024065118 -0.024783175 4285624348
0.037710615 0.027084924 -0.027873285 4285952789
0.03956655 0.027218562 -0.028266609 4285886999
0.041891862 0.025910363 -0.027314879 4285821464
0.04493998 0.022440638 -0.024349572 4285821719
0.048494857 0.017531719 -0.020047098 4285756183
0.053543456 0.0083031803 -0.011727757 4285559324
-0.022216547 -0.0067887306 0.011105157 4285361189
-0.020537544 -0.0051917583 0.0093050813 4285426978
-0.018869039 -0.003595449 0.0075073661 4285624093
-0.017067309 -0.0027293861 0.006402134 4285623583
-0.015270788 -0.0018635839 0.0052980883 4285622819
0.011974908 0.02225627 -0.022126265 4285623838
0.013253033 0.024566963 -0.02455999 4285624348
0.014318008 0.027602423 -0.027668964 4285821208
0.015761252 0.029185217 -0.02941693 4285623838
0.0175988 0.029316388 -0.029807232 4285623838
0.020256998 0.026546575 -0.027489098 4285689883
0.022936551 0.023778405 -0.025175408 4285755929
0.025847949 0.020286962 -0.022190236 4285558558
0.027720153 0.020421058 -0.022587556 4285559068
0.029376477 0.021279745 -0.023659598 4285624349
0.030808894 0.022862516 -0.025404692 4285689884
0.032230593 0.024444569 -0.027147401 4285624093
0.034089271 0.024578121 -0.027541518 4285623838
0.035494823 0.026159279 -0.029280676 4285623838
0.037348032 0.026292637 -0.029673479 4285624094
0.03920117 0.026426107 -0.030066181 4285689884
0.041757852 0.024390161 -0.028446212 4285690138
0.044567678 0.0216325 -0.026159262 4285690394
0.048358288 0.015985366 -0.021197826 4285559324
0.053889345 0.0052833259 -0.011561245 4285493533
-0.02221683 -0.0091189891 0.010604889 4285361189
-0.020534907 -0.0075175464 0.0088075409 4285426724
-0.018863503 -0.0059166849 0.0070124744 4285558303
-0.017202619 -0.0043164939 0.0052197827 4285624604
-0.015259814 -0.0041801482 0.0048053293 4285558814
-0.013614666 -0.0025808066 0.0030161114 4285492514
-0.011525355 -0.0031758621 0.0032897694 4285557539
-0.0097390749 -0.0023082718 0.002189762 4285622563
0.010359496 0.019146688 -0.021504484 4285492004
0.011459775 0.02219316 -0.024614513 4285427488
0.01273299 0.024510007 -0.027042199 4285559069
0.013793238 0.027553845 -0.030143552 4285690393
0.015031762 0.029868387 -0.032563668 4285821974
0.016658861 0.030726664 -0.033628292 4285756183
0.019715438 0.026492417 -0.029963411 4285756183
0.022388743 0.023715179 -0.027655084 4285559069
0.02529373 0.020212427 -0.024676815 4285558814
0.027160458 0.020346127 -0.025072969 4285559068
0.02816453 0.023386698 -0.02816182 4285624604
0.029365523 0.025699351 -0.030573428 4285755673
0.030992446 0.026558328 -0.031637393 4285886744
0.03328497 0.025238708 -0.030685674 4285886744
0.035361782 0.024645861 -0.030407052 4285689628
0.037443876 0.024053477 -0.030129418 4285624094
0.039299563 0.024187136 -0.030522654 4285558559
0.041858193 0.022144891 -0.028908119 4285559069
0.044906802 0.018653557 -0.025959527 4285493789
0.049420148 0.010814473 -0.019007854 4285493789
0.055688605 -0.0020936131 -0.0073957667 4285427998
-0.022217412 -0.011453301 0.010101589 4285361188
-0.020394552 -0.010581687 0.0089949714 4285427234
-0.01885828 -0.0082419664 0.0065145576 4285493024
-0.017194491 -0.0066372678 0.0047245482 4285493023
-0.015395183 -0.0057669729 0.003623209 4285558558
-0.013749812 -0.0041633025 0.0018372526 4285558304
-0.011963602 -0.003293708 0.00073887501 4285558049
-0.010182597 -0.0024243817 -0.00035831332 4285557284
-0.008250095 -0.0022883564 -0.00077025406 4285556263
0.010604892 0.016161211 -0.021284726 4285623074
0.0115197 0.019947335 -0.02506604 4285624094
0.012407824 0.023731679 -0.0288416 4285559068
0.013662793 0.026053827 -0.031260341 4285559069
0.014901765 0.028374918 -0.033675544 4285559069
0.016933147 0.02777569 -0.033389684 4285493023
