# .PCD v0.7 - Point Cloud Data file format
VERSION 0.7
FIELDS x y z rgba
SIZE 4 4 4 4
TYPE F F F U
COUNT 1 1 1 1
WIDTH 987
HEIGHT 1
VIEWPOINT 0 0 0 1 0 0 0
POINTS 987
DATA ascii
-0.0019178279 -0.060681827 -0.01432086 4287573569
-8.4426254e-05 -0.059798025 -0.015374457 4287183418
0.0018885173 -0.059676416 -0.015756978 4286921788
0.0040090084 -0.060316555 -0.015469993 4287052603
0.006435249 -0.06247966 -0.01384609 4286987324
0.0085719414 -0.06311854 -0.013562055 4287510073
0.010714054 -0.063756935 -0.013278963 4286005828
0.00388816 -0.061944433 -0.016630372 4286463299
0.0061637461 -0.06335023 -0.015678549 4286855743
-0.034539681 0.027218997 0.060211826 4283986739
-0.032848503 0.029265152 0.057518873 4283925538
-0.03047074 0.026822032 0.060211036 4283860259
-0.03701381 0.028026031 0.056347508 4284119594
-0.035894092 0.033941083 0.04904988 4283924518
-0.034042347 0.034704585 0.047903944 4283857964
-0.031794984 0.032894097 0.049828175 4283858219
-0.028708335 0.025938664 0.057883311 4283663654
-0.041253287 0.027439239 0.054409105 4283853374
-0.039464708 0.028852599 0.052491833 4284119339
-0.037962515 0.032203801 0.048274864 4284125458
-0.036486875 0.035553411 0.04406308 4283927833
-0.034551095 0.035672411 0.043687537 4283860259
-0.03231502 0.033854559 0.04560902 4283860513
-0.029651787 0.029455809 0.050588112 4283861534
-0.026845422 0.024414159 0.056324501 4283861788
-0.024103951 0.020020328 0.061288495 4283990563
-0.043926883 0.030227883 0.048256297 4283853883
-0.042065259 0.030996075 0.047111418 4284053294
-0.040119585 0.031115461 0.046733793 4283990309
-0.038357284 0.032531619 0.044824846 4283990819
-0.03669994 0.034595411 0.042152781 4283992094
-0.034766916 0.03471417 0.041777726 4283992859
-0.032633927 0.033537246 0.042930894 4283992859
-0.030182365 0.030417951 0.046372689 4283927069
-0.027914207 0.028595475 0.048283141 4283925029
-0.025629733 0.026774019 0.050190497 4283925538
-0.023881841 0.028189672 0.048284631 4283991329
-0.021917943 0.028310662 0.047903825 4283993624
-0.019721936 0.02713798 0.049044963 4283729443
-0.016447287 0.020145569 0.057028238 4283794213
-0.0466411 0.033701628 0.041352369 4283990053
-0.044798408 0.034470722 0.040212743 4283860258
-0.042788226 0.03393773 0.04060436 4283732248
-0.040505502 0.031452872 0.043288741 4283863064
-0.038476039 0.03092118 0.0436767 4283924774
-0.03681827 0.032991581 0.041009363 4283990818
-0.034885313 0.033110276 0.040634274 4283990563
-0.032752726 0.03192883 0.041784242 4284056353
-0.03040443 0.029448269 0.044456091 4284056354
-0.028349619 0.028918406 0.04483933 4284056353
-0.026396964 0.029038535 0.04446058 4283925793
-0.024775337 0.031107051 0.041800506 4283926559
-0.022943396 0.031876083 0.04066341 4283795234
-0.021116618 0.032644853 0.039527357 4283793958
-0.018465731 0.028870828 0.043704465 4283861534
-0.015176665 0.021854989 0.051667105 4283861533
-0.048216108 0.028063124 0.045176979 4283986994
-0.04708172 0.034716669 0.037154108 4283925283
-0.043422658 0.03625758 0.034883145 4283796508
-0.040890332 0.031803869 0.039853282 4283860768
-0.038777653 0.03061654 0.041003704 4283925539
-0.036936495 0.03138794 0.03986606 4283990819
-0.035100464 0.03215903 0.038729496 4284056099
-0.033070471 0.031625263 0.039115809 4284056609
-0.030830491 0.029787557 0.041021928 4284056353
-0.028993752 0.030558869 0.03988535 4283990563
-0.026947003 0.030026298 0.04026854 4283990309
-0.025445949 0.032752417 0.036856435 4283928854
-0.02362733 0.0335228 0.035723507 4283795743
-0.021813881 0.034292914 0.034591615 4283794468
-0.019414071 0.031806964 0.037247226 4283794979
-0.01675063 0.028020428 0.041412193 4283797528
-0.013683792 0.022283439 0.047839705 4283928343
-0.010694813 0.017200164 0.053502131 4283924008
-0.050426666 0.027644513 0.042876784 4283986738
-0.048724089 0.02973048 0.04021012 4284121889
-0.047440346 0.035093993 0.033731621 4283924519
-0.045699481 0.036521759 0.031836279 4283858474
-0.043625239 0.035327516 0.032990754 4283793449
-0.04118545 0.031513155 0.037188902 4283862043
-0.038987208 0.02966599 0.039098013 4283992603
-0.037054639 0.029784478 0.038722865 4283990819
-0.035315197 0.03121244 0.036828 4283990563
-0.033387501 0.031330742 0.03645388 4284056609
-0.031357531 0.030794747 0.03683858 4284056609
-0.02932198 0.030259158 0.037222236 4284056609
-0.027388241 0.030378008 0.036847074 4284056864
-0.025784563 0.032458559 0.034200151 4283991584
-0.024083998 0.033884529 0.032313049 4283929363
-0.022047583 0.033349227 0.032696709 4283928088
-0.019769344 0.03150754 0.034590784 4283927578
-0.017233159 0.028360492 0.03799209 4283926304
-0.014793482 0.025868215 0.040633544 4283925539
-0.012710702 0.025336027 0.041008405 4283925283
-0.011137899 0.027415119 0.038367797 4283991074
-0.0090547986 0.026883075 0.03874268 4283927324
-0.0061607137 0.022437092 0.043632038 4283727913
-0.052552905 0.026577471 0.041343983 4283986228
-0.050694693 0.027353814 0.040205874 4284120613
-0.048919316 0.028787933 0.038306922 4284057119
-0.047476124 0.032853138 0.033364423 4283993878
-0.045815449 0.034943223 0.030710772 4283928089
-0.043913189 0.035059623 0.030341342 4283928853
-0.041568298 0.031888973 0.033771105 4283928853
-0.039287504 0.029377295 0.036436349 4283991074
-0.037360374 0.029495383 0.036062211 4283990564
-0.035626028 0.030927438 0.034171481 4283990308
-0.033902172 0.032358859 0.032282874 4284060689
-0.031985056 0.032476522 0.031910811 4284059924
-0.029754024 0.030624919 0.033808917 4283996429
-0.027613912 0.029430697 0.034947678 4283926049
-0.026012514 0.031517737 0.032305963 4284056864
-0.024201777 0.032291956 0.031177722 4284056353
-0.022165608 0.031754382 0.03155978 4283924774
-0.019887935 0.02990596 0.033449072 4283925028
-0.017593969 0.028058615 0.03533525 4283990564
-0.015653756 0.0281782 0.034959078 4283990564
-0.013965417 0.029608106 0.033077773 4283925538
-0.012416352 0.03169233 0.030446578 4283859494
-0.010620456 0.032466128 0.029321499 4283794469
-0.0082934387 0.030621137 0.031201512 4283661103
-0.0049928464 0.024196077 0.038331736 4283795744
-0.052525971 0.023651507 0.041722465 4283987249
-0.050887059 0.026411699 0.038302317 4284055333
-0.049114097 0.027850032 0.03640702 4283990563
-0.047592398 0.031268209 0.032234322 4283990819
-0.045765411 0.032044955 0.031103969 4283925794
-0.043772232 0.031501763 0.031492271 4283926049
-0.041596819 0.029639743 0.033395976 4283990563
-0.039496053 0.028438218 0.03453888 4283990564
-0.037665356 0.029215425 0.033407975 4283991329
-0.036032487 0.03131064 0.030764788 4283990819
-0.034316417 0.032745987 0.028880835 4284060178
-0.032407414 0.032863088 0.028510302 4283928344
-0.0302894 0.031662922 0.02965007 4283798039
-0.027946275 0.029146517 0.03229697 4283731739
-0.026020531 0.029264832 0.031923328 4283991073
-0.02409457 0.029383233 0.0315497 4283990563
-0.02205329 0.028843708 0.031929109 4284056609
-0.020006444 0.028304596 0.032307498 4284056354
-0.018074546 0.028423548 0.031932849 4284056609
-0.016265649 0.029200081 0.030806735 4284056609
-0.014461923 0.029976357 0.029681671 4283991073
-0.013049047 0.032723926 0.026306301 4283796764
-0.011132579 0.032842197 0.025934845 4283727914
-0.0090820231 0.032303713 0.026312806 4283727149
-0.0064795725 0.029138917 0.029685315 4283794214
-0.0037108548 0.025319364 0.033801012 4283861534
-0.00048388541 0.019532822 0.040154051 4283925794
-0.051994998 0.016076889 0.047413323 4283855923
-0.050480928 0.020172715 0.042476252 4284053804
-0.048921283 0.023604143 0.038304165 4283858218
-0.047468241 0.027696408 0.033379003 4283990563
-0.045798708 0.029800138 0.03073328 4284056354
-0.043888565 0.029916888 0.030362222 4284056609
-0.041801859 0.028709989 0.031504478 4284056608
-0.039885852 0.028827213 0.031132363 4284056353
-0.038063113 0.029606046 0.030004624 4283991328
-0.036341678 0.03104604 0.028122783 4283926558
-0.034729596 0.033146616 0.025488481 4283858729
-0.032930274 0.033924244 0.02436538 4283791919
-0.030719142 0.032058034 0.026257575 4283860004
-0.028277885 0.028871465 0.029652685 4283859749
-0.026247997 0.028328855 0.030032564 4283991328
-0.024212521 0.027786609 0.030411452 4283990563
-0.022516374 0.029225504 0.028534845 4284121634
-0.020830777 0.030663775 0.026660379 4284056098
-0.019155722 0.032101501 0.024787959 4284056099
-0.017122168 0.031559404 0.025167413 4283990054
-0.015083086 0.031017758 0.025545806 4283924774
-0.01329523 0.031795297 0.024425454 4283863828
-0.011774715 0.033891074 0.021809448 4283731993
-0.0098688938 0.034008723 0.021440081 4283797019
-0.0076900795 0.032808661 0.022565328 4283929363
-0.0049439184 0.028974349 0.026675701 4283991584
-0.0021654069 0.025142152 0.030779827 4284056098
0.0002119951 0.023287218 0.032640532 4284187679
0.002311267 0.022749849 0.033007659 4284121888
0.004565876 0.021554828 0.034118481 4284055844
-0.050226171 0.015232664 0.045112722 4284054314
-0.048575122 0.018011209 0.041703083 4283924263
-0.04702517 0.021453097 0.037540954 4283925283
-0.045253832 0.022900198 0.03565238 4284058139
-0.043578256 0.025010932 0.033010334 4284188189
-0.041742537 0.025792625 0.031881504 4284121633
-0.040093254 0.027901875 0.029244654 4284121889
-0.038366456 0.029346496 0.02736491 4283990564
-0.036842179 0.032117728 0.023980215 4283928088
-0.035141703 0.033560827 0.02210572 4283861534
-0.033350337 0.034340084 0.02098579 4283795488
-0.031147841 0.032466691 0.022874717 4283927579
-0.028822284 0.029931396 0.025512014 4283994133
-0.026475053 0.027397502 0.028145157 4283990564
-0.024554629 0.02751546 0.027772523 4284055588
-0.022978399 0.029620815 0.025150277 4284122399
-0.021535564 0.03238757 0.021781769 4283991584
-0.019633356 0.032504614 0.02141282 4283991329
-0.017608095 0.031959787 0.021792192 4283990819
-0.015326258 0.030091781 0.023666173 4283925029
-0.013669219 0.031532995 0.021800604 4283859748
-0.011891861 0.032312125 0.020683929 4283991073
-0.010119729 0.033091024 0.019568324 4283991328
-0.0079440139 0.031886306 0.020690911 4283990819
-0.0056184754 0.03002134 0.022556677 4283990818
-0.0031350516 0.027496668 0.025164019 4283990818
-0.0012073219 0.027615922 0.024790585 4283991074
0.00042651221 0.029056204 0.022929881 4283926048
0.0020497255 0.030495867 0.021071337 4283927579
0.0047289282 0.027314048 0.024413072 4283860513
0.008675579 0.018854272 0.033686299 4283797018
-0.050047364 0.010937735 0.046977382 4284054058
-0.048307929 0.013058785 0.044327542 4283989543
-0.046584267 0.015178941 0.041680813 4283923753
-0.044958871 0.017964818 0.038282663 4284120869
-0.043269504 0.020082962 0.035642728 4284055844
-0.041683767 0.022866551 0.032252375 4284121379
-0.039938215 0.024316624 0.030372132 4284055078
-0.0383895 0.027098034 0.02698911 4284121124
-0.036766116 0.029212441 0.024362139 4284056608
-0.035355661 0.032657247 0.020235471 4283992094
-0.033465672 0.032773014 0.019868508 4283927069
-0.031263743 0.030892901 0.021752667 4283992093
-0.028938923 0.028348658 0.024383601 4283990819
-0.026811 0.027135793 0.025511723 4283990564
-0.025231872 0.029247895 0.022893645 4283991329
-0.023668636 0.031359084 0.020278692 4283992094
-0.022121329 0.033469323 0.017666925 4283663143
-0.020109925 0.032921322 0.018047288 4283663908
-0.018092994 0.032373738 0.018426627 4283732759
-0.01594514 0.031162515 0.019551191 4283926049
-0.014042493 0.03127975 0.019182276 4284056353
-0.012139712 0.031397067 0.018813387 4284056354
-0.010103349 0.030850958 0.019189164 4284056099
-0.0081975572 0.03096861 0.018819809 4284056353
-0.006152872 0.030423161 0.019194081 4284056353
-0.0039611943 0.029215079 0.020310469 4283990818
-0.0021911338 0.029996352 0.019197024 4283991839
-0.00057316199 0.031440016 0.017342653 4283992859
0.00088464096 0.033545643 0.014748831 4283791919
0.0032397099 0.03167621 0.016604275 4283791918
0.0062305592 0.027159138 0.021418571 4283858218
0.0098894276 0.019996364 0.029185589 4283859239
-0.050092582 0.0086333118 0.046565935 4283988779
-0.048273105 0.010091938 0.044674274 4283923753
-0.046464052 0.01154995 0.042784732 4283989288
-0.044665452 0.013007436 0.040897232 4284120869
-0.042877298 0.014464293 0.039011844 4284121123
-0.041274916 0.017257683 0.035624675 4284055589
-0.039603379 0.019381441 0.032993108 4284055588
-0.038133722 0.022840779 0.028862834 4284057119
-0.036594909 0.025630444 0.025488209 4284056863
-0.03527407 0.0297547 0.020618003 4283990563
-0.033479866 0.030538455 0.01950068 4284056354
-0.031379577 0.029319316 0.020630747 4284056609
-0.029268343 0.028100895 0.021758799 4283990564
-0.027255286 0.027550455 0.022136983 4283990819
-0.025795612 0.030335719 0.01877797 4283991328
-0.024013769 0.031119056 0.017663296 4283925283
-0.022354256 0.032568879 0.015803494 4283658809
-0.020225961 0.031351879 0.016928442 4283593783
-0.01808675 0.030135624 0.018051319 4283663144
-0.015936647 0.028920081 0.019172188 4283925539
-0.014159296 0.0297035 0.018058643 4283990564
-0.01212601 0.029154884 0.018433325 4284056353
-0.010353729 0.029938143 0.017320875 4284056609
-0.0083147846 0.029390018 0.017694566 4284121889
-0.0066862106 0.030838551 0.015841145 4284121889
-0.0047856346 0.030955995 0.015472879 4283990308
-0.0030289255 0.031738587 0.014363662 4283992859
-0.0014241375 0.033185832 0.01251506 4283928343
0.0004687272 0.03330303 0.012148454 4283796253
0.0028178282 0.031426601 0.014000139 4283795998
0.0053378679 0.028886816 0.01658769 4283797529
0.0078794733 0.026348442 0.019171122 4283928854
0.010282539 0.024475548 0.021012574 4283858474
0.012701795 0.022603747 0.02285096 4283792429
-0.050063897 0.0056531169 0.04690437 4284054313
-0.048238825 0.0071163848 0.045014851 4284120359
-0.046344709 0.0079078637 0.043879297 4283989543
-0.044619966 0.010041278 0.041241996 4283989799
-0.042741399 0.010831933 0.040109552 4283989799
-0.041042928 0.01296388 0.037477456 4284055844
-0.039360274 0.015094925 0.034848481 4283989798
-0.03787915 0.018565927 0.030724067 4283990053
-0.036233518 0.020694815 0.028102435 4284055588
-0.034898404 0.024833169 0.023239121 4283989799
-0.033191603 0.026289832 0.021373022 4284055844
-0.031495329 0.027745958 0.019508976 4284056098
-0.0297033 0.028531874 0.018393748 4284121633
-0.027916428 0.029317543 0.017279573 4284056608
-0.02635796 0.031441562 0.01467513 4283991839
-0.024586771 0.032226406 0.013564103 4283928599
-0.022937756 0.033679955 0.011709536 4283727404
-0.020940278 0.033126593 0.012089307 4283792684
-0.018814903 0.031905025 0.013211611 4283925793
-0.016428556 0.029347265 0.015817966 4283993368
-0.014403742 0.028795799 0.016192593 4284055844
-0.012503814 0.02891287 0.01582421 4284055843
-0.010736819 0.029697981 0.014714376 4283990563
-0.0089750402 0.030482849 0.013605612 4284056353
-0.0072185136 0.031267457 0.01249791 4283990308
-0.0053260811 0.031384371 0.012131202 4283990563
-0.0034335293 0.031501368 0.011764525 4284056608
-0.0018338822 0.032952741 0.0099200895 4283992349
0.00020272285 0.032402575 0.01029292 4283927578
0.0025485419 0.030519282 0.012140379 4283861788
0.0047560073 0.029303664 0.013247487 4283862043
0.0069742985 0.028088827 0.014352507 4283924263
0.0088835321 0.028207323 0.013982941 4282740044
-0.049961824 0.0019904189 0.047988001 4284120359
-0.048128482 0.0034585968 0.046100013 4284120869
-0.046384852 0.0055996217 0.043463837 4283924773
-0.044575062 0.0070665069 0.041580528 4283924519
-0.042691063 0.0078596361 0.040448591 4283989798
-0.040899474 0.0093255006 0.038568966 4283989798
-0.039208394 0.011463638 0.035943158 4284054823
-0.037533123 0.013600882 0.033320475 4284120869
-0.035873678 0.015737195 0.030700967 4283989543
-0.034230094 0.017872643 0.028084539 4283989288
-0.032703113 0.020679351 0.024725117 4284055843
-0.031197336 0.02348483 0.021369856 4284057374
-0.029712792 0.026289083 0.018018778 4284057118
-0.02814072 0.028420405 0.015416502 4284121634
-0.026696 0.031222368 0.012073261 4283991073
-0.024815958 0.031337723 0.011708378 4283861023
-0.023169402 0.032795504 0.009857486 4283861023
-0.021174852 0.032239705 0.010236179 4283860513
-0.019052591 0.031013476 0.011355818 4283927324
-0.0165448 0.027775949 0.01469781 4284056354
-0.014392678 0.026551684 0.01581182 4284055843
-0.012620408 0.027339263 0.014702457 4284056353
-0.011119191 0.029466907 0.012114416 4283990818
-0.009633936 0.03159368 0.0095294779 4283994133
-0.0076114908 0.03104013 0.0099031469 4283994389
-0.0055835471 0.030486958 0.010275851 4283865614
-0.0038374364 0.031273305 0.0091718351 4283925538
-0.0019502379 0.031390026 0.008806237 4284056353
8.6110085e-05 0.030837609 0.0091774845 4283990819
0.0022796281 0.029616645 0.010283948 4283925284
0.0043295771 0.029065261 0.010652627 4283924263
0.0062278956 0.029182989 0.010285108 4283858473
-0.050008189 -0.00033332035 0.0475627 4284512294
-0.048095461 0.00046350807 0.046426617 4284316963
-0.046266954 0.0019358061 0.044542793 4284120868
-0.044530701 0.0040830225 0.041912902 4283989798
-0.042725753 0.0055540353 0.040033765 4283924519
-0.040931273 0.0070244409 0.038156759 4283924519
-0.039147254 0.0084943138 0.036281787 4284054823
-0.037373696 0.0099635869 0.034408957 4284054824
-0.035610612 0.011432279 0.032538205 4284055334
-0.033858012 0.012900453 0.030669503 4284054824
-0.03211591 0.014368024 0.028802939 4283989544
-0.030694064 0.017857689 0.024706319 4283924264
-0.029298808 0.021345805 0.020614929 4283990563
-0.027821552 0.024158478 0.017271738 4283858983
-0.02636553 0.026969941 0.013932747 4283924263
-0.024816815 0.029106602 0.011339868 4284055078
-0.023283985 0.031242331 0.0087501844 4284056098
-0.021409046 0.031357486 0.0083863689 4284121889
-0.019289885 0.030126614 0.009503358 4284121889
-0.016910408 0.027550654 0.012098066 4284121889
-0.014764082 0.026321607 0.013209897 4284055843
-0.012997102 0.027110988 0.012103188 4283991328
-0.011500854 0.029244976 0.0095208948 4283860513
-0.010020565 0.031378016 0.0069417963 4283861024
-0.0082800016 0.032166012 0.0058403844 4283729699
-0.0061222464 0.030938057 0.0069502844 4283733778
-0.0040971264 0.030382594 0.0073219156 4283860514
-0.002066534 0.029827548 0.0076925429 4283990818
-0.00032818317 0.030615726 0.0065917941 4284121888
0.001707986 0.03006118 0.0069614546 4283858473
0.003441155 0.030849205 0.0058618309 4282873154
-0.044650201 0.0024464242 0.040745828 4284578084
-0.042845029 0.003921818 0.038869832 4284120613
-0.040789273 0.0033643171 0.039232731 4283923243
-0.038996983 0.0048390515 0.037359335 4284054823
-0.037122775 0.0056361072 0.036232617 4284120360
-0.035348754 0.0071098842 0.034362886 4284054824
-0.033487465 0.0079062916 0.03323878 4284054824
-0.031731721 0.0093790628 0.031372756 4284054314
-0.029986497 0.010851305 0.029508792 4283989288
-0.0284633 0.013675477 0.026163105 4283924263
-0.026961353 0.016498469 0.022821553 4283990053
-0.02570292 0.020672154 0.018002369 4283989799
-0.024248827 0.023492359 0.014670222 4283991074
-0.022816014 0.026311308 0.011342312 4284122144
-0.020927761 0.026427241 0.010975881 4284121123
-0.019039329 0.026543261 0.010609479 4284187168
-0.01702619 0.025984254 0.010981386 4284187424
-0.015389208 0.027450565 0.0091389408 4284055844
-0.013632897 0.028241469 0.0080358917 4283992349
-0.012279581 0.031056041 0.0047237044 4283861279
-0.010677036 0.032520421 0.0028881533 4283792429
-0.0089471303 0.033309944 0.0017904034 4283727149
-0.0066599101 0.031402729 0.003634383 4283729444
-0.0044997744 0.03017051 0.0047406768 4283796253
-0.0023287982 0.028939089 0.0058448827 4283990564
-0.00074176863 0.030402927 0.0040126415 4283990819
0.00098600984 0.031192724 0.0029156012 4283003713
-0.04279587 0.00093019381 0.039195113 4284578084
-0.040821854 0.0010504052 0.038811326 4284251429
-0.038937118 0.0018501766 0.037684068 4284120358
-0.037149716 0.0033290684 0.035814874 4284054823
-0.035277877 0.0041281991 0.034690239 4284054568
-0.033508744 0.0056061223 0.03282471 4284054314
-0.031649847 0.0064046271 0.031702705 4283988523
-0.02989902 0.0078815408 0.029840883 4284054314
-0.02826431 0.010036424 0.027240776 4283923498
-0.026645463 0.012190375 0.024643853 4283923499
-0.024931546 0.013665307 0.022789329 4283858729
-0.023569088 0.017173659 0.018720552 4283857963
-0.022116955 0.020002645 0.015395281 4283923244
-0.020567071 0.022152714 0.012811928 4283923499
-0.01891141 0.023624357 0.010968992 4284121124
-0.0172663 0.025095433 0.0091281636 4284120613
-0.015758839 0.02724315 0.0065532224 4284121633
-0.014526803 0.030743973 0.0025101071 4284122399
-0.01305661 0.03288956 -5.7489611e-05 4283994133
-0.011602361 0.035034202 -0.0026218882 4283928089
-0.0096129142 0.034471884 -0.0022467431 4283796764
-0.0073370114 0.032557316 -0.00040543266 4283667479
-0.0049017183 0.029967604 0.002165894 4283728678
-0.0027365424 0.028731337 0.0032680249 4283727659
-0.037084829 0.00033626333 0.036135539 4284448289
-0.035207588 0.0011379309 0.035011385 4284251939
-0.033432852 0.0026205145 0.033147998 4284250919
-0.031668615 0.0041025877 0.031286668 4284054059
-0.029914882 0.0055840574 0.02942748 4284054314
-0.028171647 0.0070649572 0.027570389 4283922989
-0.02643894 0.0085453354 0.025715355 4283857964
-0.024716739 0.010025118 0.023862466 4283857964
-0.023005072 0.011504378 0.022011645 4283857964
-0.02142011 0.01366308 0.019426286 4283923499
-0.019969922 0.016500816 0.016107876 4283923499
-0.018541005 0.01933733 0.012793654 4283989034
-0.01725759 0.022852179 0.0087485099 4284056098
-0.01587395 0.025686078 0.0054431958 4284122398
-0.014641192 0.029197972 0.0014079949 4284121379
-0.013302874 0.032029238 -0.0018884167 4283990819
-0.011850927 0.03418038 -0.0044475924 4283990564
-0.0098644085 0.033615619 -0.004073455 4283990564
-0.0075917915 0.031694181 -0.0022363812 4283924264
-0.0053029507 0.02977379 -0.00040233787 4283661868
-0.0031435788 0.028532755 0.00069761928 4282941748
-0.033552017 0.00099316612 0.031987596 4284447523
-0.031887475 0.003162872 0.029391192 4284119593
-0.030136194 0.0046485551 0.02753567 4284054059
-0.028395433 0.0061337315 0.025682211 4283988268
-0.026449244 0.0062527619 0.025304209 4283923244
-0.024724152 0.0077370889 0.023453958 4283857709
-0.022896249 0.0085384287 0.022341423 4283857454
-0.021305528 0.010704119 0.019759722 4283923244
-0.019730743 0.012868915 0.017181169 4283923244
-0.018293213 0.015714724 0.013871762 4283989033
-0.016876999 0.01855934 0.010566496 4283925028
-0.015355337 0.020721123 0.0079984376 4283858984
-0.01423787 0.024926364 0.0032360563 4283858474
-0.012888249 0.02776715 -5.6099147e-05 4283990054
-0.011559967 0.030606693 -0.0033440636 4284185893
-0.0098406039 0.031402126 -0.0044349758 4284186149
-0.0079863481 0.031516515 -0.0047944104 4283463733
-0.030049797 0.0016618185 0.027855545 4284512039
-0.028303433 0.0031516664 0.02600424 4283988269
-0.026459794 0.003955964 0.024890114 4283922479
-0.024842281 0.0061297081 0.022307895 4283923244
-0.023014318 0.0069332123 0.021196932 4283791664
-0.021423217 0.0091055147 0.018619973 4283922988
-0.019610997 0.0099082291 0.017512191 4283857709
-0.01804636 0.012079086 0.014940496 4283858218
-0.016249869 0.012881007 0.013835893 4283858474
-0.014711741 0.015050393 0.011269455 4283793194
-0.013189528 0.017218869 0.0087062279 4283793193
-0.011947151 0.020753484 0.0046853246 4283793193
-0.010462236 0.02291986 0.0021294029 4283988523
-0.0092678778 0.026451688 -0.0018820595 4283989034
-0.0078202635 0.028615953 -0.0044306144 4283530288
-0.026147697 -0.00040660426 0.026673451 4284183089
-0.024519067 0.0017743669 0.024093926 4283922224
-0.022906322 0.0039545111 0.021517519 4283856943
-0.021309491 0.0061337091 0.018944304 4283726639
-0.0196102 0.0076255165 0.017105602 4283923244
-0.017800417 0.0084303319 0.015999939 4283857964
-0.016119558 0.0099211819 0.014164942 4283858219
-0.01444925 0.01141144 0.012332107 4283792683
-0.012789544 0.012901124 0.010501386 4283793194
-0.01114041 0.01439029 0.0086727375 4283858473
-0.0096363127 0.016564459 0.0061179278 4283858984
-0.0084224716 0.020108517 0.0021107392 4283924009
-0.0072353259 0.023651026 -0.0018912014 4282350658
-0.02268609 0.00027804449 0.022562861 4284442933
-0.021080825 0.0024643876 0.019992776 4283988014
-0.019373272 0.0039610453 0.018155713 4283988269
-0.01755539 0.0047685355 0.017050076 4283858219
-0.015742708 0.0055758394 0.015945464 4283792939
-0.01406147 0.0070711523 0.01411371 4283857964
-0.012390804 0.0085659437 0.012284028 4283857964
-0.010730725 0.010060135 0.010456509 4283858474
-0.0092155188 0.012241591 0.0079043666 4283793194
-0.0079902187 0.015797369 0.0039030081 4283793194
-0.0065123215 0.017976671 0.0013582716 4282280533
-0.019137267 0.0002835542 0.019196466 4284248623
-0.017311279 0.0010937266 0.018090844 4284118573
-0.015737291 0.0032849722 0.015531885 4283923499
-0.013927091 0.0040943883 0.014429406 4283923244
-0.012508374 0.0069745742 0.011149534 4283923244
-0.010979507 0.0091633312 0.0085995318 4283858474
-0.0094666071 0.011351246 0.0060526589 4283792939
-0.0078328624 0.012848392 0.0042335866 4283792684
-0.0060702413 0.01365535 0.0031406889 4281756508
-0.01536246 -0.0010886453 0.017292161 4284704564
-0.013793293 0.0011089966 0.014739019 4284313903
-0.012240071 0.0033058003 0.012189007 4284054059
-0.010965358 0.0068864785 0.0081940321 4283923499
-0.0095833577 0.009773396 0.0049278392 4283988268
-0.007949397 0.011274949 0.0031119408 4283595314
-0.039096203 -0.017490447 0.03494405 4283983679
-0.01210114 0.00031874701 0.01249618 4284118828
-0.010689247 0.0032162033 0.0092305457 4284053804
-0.0092986599 0.00611246 0.0059691323 4283988779
-0.007656455 0.0076189637 0.0041547986 4283530288
-0.0060248412 0.0091248527 0.0023426311 4283267128
-0.039128359 -0.01984185 0.034495156 4283394885
-0.037675176 -0.015524775 0.029734198 4284641068
-0.0086139999 0.00034852698 0.0091622518 4284640303
-0.0072281174 0.0032533966 0.0059082462 4283791154
-0.0058635697 0.0061570518 0.0026584538 4283332919
-0.039072853 -0.022899061 0.034770925 4282283083
-0.037704032 -0.017866969 0.029291313 4281633598
-0.035906155 -0.016343683 0.027452048 4281895484
-0.034022789 -0.015522152 0.026341014 4283137078
-0.032341827 -0.013298817 0.023779865 4284312629
-0.0054252408 0.0017835237 0.0044036945 4283526464
-0.039105657 -0.025260985 0.034314495 4282153289
-0.037642721 -0.020916969 0.02957096 4281502274
-0.035839271 -0.019389041 0.027733836 4281568063
-0.033950511 -0.018564977 0.02662329 4281960253
-0.03216536 -0.017037965 0.024789874 4282482494
-0.030289557 -0.016214557 0.023682017 4283724088
-0.039051112 -0.028333187 0.034579623 4282021963
-0.037672248 -0.023269638 0.029120509 4281566278
-0.035865899 -0.021737151 0.027286023 4281371713
-0.034070034 -0.020205162 0.025453597 4281502019
-0.032186393 -0.019379213 0.02434573 4281567043
-0.030307855 -0.018553473 0.023238931 4281240134
-0.028434489 -0.017727949 0.022133205 4281304393
-0.026459944 -0.017607599 0.021749392 4282417469
-0.024594214 -0.016782358 0.020645287 4283986229
-0.038997147 -0.031413943 0.034838561 4281630283
-0.037611913 -0.026334628 0.029389512 4281305414
-0.035892781 -0.024089418 0.026835222 4281370693
-0.033903126 -0.02396857 0.02644816 4281109828
-0.03210951 -0.022432305 0.024619486 4281435974
-0.030225594 -0.021604024 0.023513179 4281240388
-0.028450329 -0.020068683 0.021688197 4280979013
-0.026579391 -0.019241057 0.020584602 4281632578
-0.024713617 -0.018413626 0.019482076 4282155074
-0.022741478 -0.018293276 0.019098841 4282806854
-0.037462194 -0.03011854 0.030373137 4281499979
-0.035827298 -0.027156085 0.027101789 4281436484
-0.034022991 -0.025614835 0.025274109 4281371968
-0.032131214 -0.024784066 0.024167817 4281435974
-0.030345228 -0.023243748 0.022343848 4281305668
-0.028466422 -0.022413552 0.021240238 4281370693
-0.026592765 -0.021583594 0.020137686 4281305414
-0.024832975 -0.020044617 0.018319059 4281631813
-0.022972334 -0.019215204 0.017219152 4281893443
-0.021230917 -0.017677136 0.01540425 4282155584
-0.019149866 -0.018265806 0.01573826 4282221373
-0.035392549 -0.03308095 0.030237041 4281501764
-0.033857387 -0.029397599 0.026254844 4281502019
-0.032153156 -0.027139954 0.023713205 4281110594
-0.030364301 -0.025595136 0.021891907 4281436228
-0.028482769 -0.024762563 0.020789307 4281370949
-0.026606407 -0.023930259 0.01968782 4281567299
-0.024843734 -0.022386752 0.017871831 4281697859
-0.022980358 -0.021555021 0.016773023 4281632323
-0.021463845 -0.018590145 0.013531649 4281501508
-0.019618902 -0.017759316 0.012436521 4282090048
-0.017659891 -0.017639495 0.012056024 4283136314
-0.033217799 -0.03676568 0.030809317 4283065933
-0.031784747 -0.032357231 0.026119996 4281499978
-0.030283291 -0.02866476 0.022152517 4281631559
-0.028499376 -0.027115762 0.020335454 4281500998
-0.026725989 -0.025567256 0.018520467 4281632069
-0.024854746 -0.024733 0.017421637 4281502784
-0.022988666 -0.023898937 0.016323891 4281632578
-0.021355238 -0.021638416 0.013801266 4281828674
-0.019504879 -0.020805113 0.01270672 4281632069
-0.017659727 -0.019972019 0.011613271 4282352698
-0.015454475 -0.021277629 0.012655086 4284312374
-0.029702011 -0.03532479 0.025977019 4282413133
-0.028310549 -0.030905411 0.021305539 4281499979
-0.026739981 -0.02792 0.018066261 4281369928
-0.024974223 -0.026367523 0.016256068 4281567298
-0.023108114 -0.025531299 0.015159908 4281698369
-0.021247189 -0.02469527 0.014064823 4281697858
-0.019391451 -0.023859419 0.012970784 4281436229
-0.017540898 -0.023023814 0.011877873 4282155838
-0.015695546 -0.022188433 0.010786044 4284508979
-0.028225299 -0.033989698 0.021554504 4281366104
-0.026859593 -0.029558614 0.016897731 4281172049
-0.025093649 -0.028001755 0.015090703 4281435463
-0.023227509 -0.027163349 0.013996121 4281368909
-0.021253143 -0.027042903 0.013612415 4281369928
-0.019278627 -0.026922353 0.01322876 4281500998
-0.017541435 -0.025366761 0.011427593 4282809148
-0.015936252 -0.02309452 0.0089203538 4284639794
-0.023236286 -0.029515214 0.013541288 4281105749
-0.021146137 -0.030114613 0.013865289 4281434444
-0.019282293 -0.029273964 0.012772889 4281630793
-0.017542239 -0.027713872 0.01097441 4283267894
-0.021378938 -0.031028353 0.011992122 4280974933
-0.019633498 -0.029463671 0.010195707 4281433678
-0.017661747 -0.029343225 0.0098126354 4283398709
-0.017899487 -0.03024815 0.0079470081 4282607443
0.0086790062 -0.017027967 -0.011447553 4283529268
0.006483078 -0.018007591 -0.01289985 4283989288
0.0084024891 -0.017888702 -0.013271553 4282351934
0.010000311 -0.016317971 -0.015028283 4282352444
0.032634754 0.00055015087 -0.034599368 4284704309
0.0065203421 -0.020320199 -0.013336988 4283922733
0.0082843117 -0.019472934 -0.014400689 4282287418
0.0098823197 -0.017897792 -0.016154243 4281633088
0.011469647 -0.016323157 -0.017905684 4282742593
0.013544381 -0.016932346 -0.017585078 4283593274
0.0065573193 -0.02263698 -0.013777036 4283464498
0.0084818006 -0.022517778 -0.014149729 4282221629
0.0099248551 -0.020207584 -0.016590588 4281371458
0.011515059 -0.018628411 -0.018339325 4281567299
0.013094578 -0.017049752 -0.020085964 4281698114
0.015000489 -0.016931228 -0.020454716 4282286144
0.016735222 -0.01608295 -0.021510698 4282481984
0.018464614 -0.015234917 -0.022565575 4284639793
0.0064390227 -0.024224989 -0.014908907 4283137588
0.0083633587 -0.024105825 -0.015281592 4281632578
0.010127418 -0.023253977 -0.016342048 4281632579
0.011723164 -0.021670066 -0.018088646 4281501763
0.013473928 -0.020818859 -0.019146314 4281566789
0.01488262 -0.01850383 -0.021575432 4281697858
0.016617369 -0.017653376 -0.022629822 4281762628
0.018346786 -0.016803131 -0.023683093 4282613308
0.019894436 -0.015221566 -0.025419993 4284248878
0.0030703656 -0.028992169 -0.012541718 4284704309
0.0066303723 -0.027282774 -0.014666001 4282417213
0.0085599162 -0.027163282 -0.015039693 4281305413
0.010009024 -0.024839513 -0.017472085 4281370438
0.011767793 -0.023985736 -0.01852979 4281305413
0.013355732 -0.022397794 -0.020271575 4281501509
0.015101191 -0.021544591 -0.02132652 4281501253
0.016670424 -0.019957513 -0.023064557 4281566534
0.018402535 -0.019104898 -0.024116734 4281369928
0.019953053 -0.017518751 -0.025850974 4281696584
0.021671804 -0.016666718 -0.026900386 4282156349
0.023203587 -0.015081547 -0.028630788 4283202869
0.0066664442 -0.029611856 -0.015114903 4282023493
0.0082838871 -0.028018057 -0.016859468 4281369673
0.010210663 -0.02789861 -0.017232526 4281304648
0.011812124 -0.026305497 -0.018973842 4281304393
0.013568278 -0.025449567 -0.020029351 4281435973
0.01515108 -0.02385743 -0.021766851 4281435973
0.016723178 -0.022265777 -0.023502221 4281239878
0.018284585 -0.02067472 -0.025235401 4281174599
0.020011377 -0.019820109 -0.026284855 4281304904
0.021732811 -0.018965669 -0.027333234 4281565768
0.023448901 -0.01811149 -0.028380441 4281894719
0.024975514 -0.01652211 -0.030106531 4283270189
0.026678197 -0.015668526 -0.03115098 4284511528
0.0099321641 -0.028748825 -0.019048374 4280582233
0.011856161 -0.028629437 -0.019420814 4281041234
0.013615005 -0.027771086 -0.020475265 4281304649
0.015200656 -0.026174374 -0.022210103 4281370949
0.016775627 -0.024578191 -0.023942776 4281175364
0.018513128 -0.023720793 -0.024992839 4281175108
0.020069379 -0.022125542 -0.026721714 4281435973
0.021972114 -0.022006728 -0.027089493 4281436228
0.023693584 -0.021150015 -0.028136142 4281501509
0.025225727 -0.019555852 -0.02986013 4281567554
0.02674716 -0.017962262 -0.031581908 4281828928
0.029015105 -0.019318357 -0.030591952 4282090814
0.031293765 -0.020673715 -0.029603936 4283462458
0.03319376 -0.020554326 -0.029970646 4284245818
0.011737537 -0.030216277 -0.020551749 4280450144
0.013661429 -0.030096777 -0.020924084 4281107533
0.015249938 -0.028495431 -0.022656295 4280978504
0.016827766 -0.026894681 -0.024386317 4281110594
0.018394891 -0.025294445 -0.026114218 4281371203
0.019951332 -0.023694761 -0.027839914 4281370438
0.021853914 -0.023575947 -0.02820766 4281501509
0.023756502 -0.023457043 -0.028575338 4281502274
0.025291506 -0.021858282 -0.030296654 4281502018
0.026815806 -0.020260125 -0.032015778 4281698113
0.029275104 -0.022360027 -0.030353602 4281633088
0.031942286 -0.025198102 -0.028019127 4281958469
0.034436364 -0.027295522 -0.026363518 4283000908
0.016709376 -0.028472416 -0.025510654 4280910674
0.018449593 -0.027610496 -0.026557971 4281042509
0.020008881 -0.026006199 -0.028281052 4281304648
0.02191399 -0.025887251 -0.028649297 4281501509
0.023638168 -0.025025971 -0.029693261 4281501509
0.025540611 -0.024906918 -0.030060794 4281501509
0.027070433 -0.023303963 -0.031777803 4281500999
0.030101383 -0.027635314 -0.028098587 4281370183
0.033547781 -0.033447593 -0.023078013 4281566024
0.037037011 -0.03925699 -0.018065657 4282347088
0.038992949 -0.039133959 -0.018443067 4282476373
0.019194923 -0.032910362 -0.024301566 4280908634
0.020767789 -0.031300806 -0.026024047 4281369419
0.022329956 -0.029691882 -0.027744345 4281304904
0.023881404 -0.028083436 -0.02946252 4281501254
0.025605597 -0.027219802 -0.030504767 4281436484
0.027324429 -0.026356392 -0.031545892 4281500744
0.03035957 -0.030700617 -0.027877145 4281238349
0.034575798 -0.039505266 -0.020181522 4281565259
0.039050471 -0.049049295 -0.011826557 4281826380
0.023634586 -0.037243456 -0.02348274 4281499724
0.024846435 -0.03413599 -0.026547169 4281500234
0.025853567 -0.030283317 -0.030279499 4281500999
0.027763736 -0.030163653 -0.03064844 4281305159
0.031371698 -0.036759056 -0.024977334 4281174343
0.035984479 -0.047081076 -0.015962481 4281239114
0.027932083 -0.040842019 -0.023354664 4282411859
0.029316854 -0.038474873 -0.025739912 4281499724
0.032381825 -0.04284361 -0.022096209 4281239113
0.037008181 -0.053195558 -0.013106463 4281108553
0.033954903 -0.051206045 -0.017229861 4281694798
0.014971744 0.021396797 0.0239494 4280441219
0.010467611 0.029658159 0.012141909 4279786378
0.013603706 0.032558113 0.0084661739 4278404279
0.0078067668 0.030637829 0.0084482441 4279787398
0.0092125088 0.032760479 0.0058792895 4278341038
0.01010678 0.036886759 0.0011125477 4278995879
0.011975829 0.037002973 0.00075091515 4279519904
0.014526967 0.034447856 0.0033198399 4278667184
0.018485185 0.02655269 0.011741458 4278797744
0.005169034 0.031636968 0.0047632819 4278801823
0.0068916269 0.032424498 0.0036658207 4278604454
0.0096610002 0.036680516 -0.001454195 4278403514
0.011356924 0.037466623 -0.0025463207 4278798764
0.013558563 0.036242243 -0.0014442187 4278471089
0.023082485 0.021860488 0.013521519 4278734504
0.0024003647 0.033328902 0.00035447348 4278933148
0.0041122027 0.034117866 -0.00073936675 4278538919
0.0059781857 0.034233645 -0.0011005877 4278538153
0.007844232 0.034349494 -0.0014617713 4278602923
0.018930729 0.028210407 0.0040172515 4278996134
0.021358579 0.026313085 0.0058348617 4278472363
0.022897989 0.027774965 0.0040125689 4278341295
0.024610264 0.028564805 0.0029192613 4278602924
0.00011416525 0.033018038 -0.0018490059 4278932638
0.0015155002 0.035159983 -0.0044027362 4278600884
0.0035271496 0.034599625 -0.0040314626 4278665398
0.0055442415 0.034039691 -0.0036611808 4278994858
0.0074048191 0.03415519 -0.0040213121 4278799784
0.0091008209 0.034945633 -0.0051102908 4278734249
0.010958828 0.035061143 -0.0054698018 4278734503
0.013326921 0.033153161 -0.0036456278 4278734504
0.01571114 0.031246305 -0.0018245596 4278603178
0.018111527 0.029340507 -6.5043569e-06 4278799783
0.019993845 0.029457869 -0.00037046894 4278472363
0.021333924 0.031596899 -0.0029117698 4278274739
0.022474471 0.034408685 -0.0061751613 4278470578
0.024338027 0.034525137 -0.0065353094 4278602923
-0.001715187 0.030682819 -0.0018566428 4279195543
0.00093980506 0.035658062 -0.0076851472 4278337724
0.0072896853 0.032615509 -0.0051186299 4278668458
0.0089857504 0.033408158 -0.0062060133 4278734248
0.010843653 0.033523649 -0.0065655094 4278799784
0.012871444 0.032962497 -0.0061986726 4278537898
0.015077185 0.031725153 -0.0051070219 4278537898
0.017118469 0.031165019 -0.0047426661 4278603434
0.018809363 0.031957772 -0.0058287373 4278603178
0.021442 0.036246218 -0.010892395 4278470324
0.023106072 0.037037563 -0.011973083 4279192738
0.025519326 0.035126351 -0.010162061 4278668203
0.0289053 0.02983922 -0.0047434038 4278798764
-0.0039864555 0.030384673 -0.0040544001 4278999449
-0.0022746958 0.03117997 -0.0051435959 4278340529
-0.00086998567 0.033335306 -0.0076884236 4279126949
0.00067228079 0.034809746 -0.0095022246 4279062689
0.0026726499 0.034244236 -0.0091320202 4278669479
0.0048374124 0.032999486 -0.0080359895 4278733484
0.0068513416 0.032434992 -0.0076682828 4278274994
0.0088707171 0.031870924 -0.0073015634 4278734249
0.010561518 0.032665521 -0.0083862655 4278734248
0.012586355 0.032101966 -0.0080204792 4278603434
0.014271878 0.032896414 -0.0091040274 4278537898
0.01612711 0.033012003 -0.0094628176 4278603433
0.017804634 0.033806123 -0.010544692 4278537898
0.022619287 0.036865026 -0.014505333 4278271934
0.030664762 0.028403889 -0.006212349 4278996134
0.033327565 0.025812395 -0.0036967564 4278865573
0.035812616 0.023899406 -0.0019041812 4278538664
0.038111836 0.022664502 -0.00083315372 4278472873
-0.006388627 0.030779267 -0.006975973 4279130773
-0.004827641 0.032259047 -0.0087904204 4278669223
0.00025172904 0.034648303 -0.012042193 4278471343
0.0067366101 0.030900244 -0.0087620914 4278602924
0.0087557063 0.030333932 -0.0083969459 4278930854
0.010279741 0.031812087 -0.010203678 4278799784
0.01162358 0.033970885 -0.012731434 4278537898
0.016979165 0.034996264 -0.014523088 4278341293
0.018640663 0.035791695 -0.015600178 4278668713
0.020662662 0.035226189 -0.015235138 4278667949
0.022504421 0.035341278 -0.015591073 4278930089
0.024911076 0.033416443 -0.013788498 4278471599
0.027333844 0.031492658 -0.011988932 4278930854
0.029772701 0.029569983 -0.010192401 4278799783
0.031834923 0.029007437 -0.0098348092 4278668969
0.033504397 0.029803986 -0.010912988 4278537644
0.034765005 0.031958655 -0.013423877 4278275759
0.036622696 0.032075375 -0.013782424 4279126949
0.039515816 0.028797999 -0.010561606 4279126949
-0.006217394 0.027877027 -0.0066146329 4278932383
-0.0049411915 0.030731356 -0.0098793563 4278538153
-0.0035384744 0.032899659 -0.012414156 4278602924
0.0016650334 0.034609601 -0.014930691 4278340784
0.0038154908 0.033355094 -0.013838373 4278471853
0.0059767477 0.032101385 -0.012748125 4278799784
0.0083127804 0.030164653 -0.010937294 4278734249
0.0098316669 0.031646945 -0.012739846 4278602669
0.018706273 0.033587694 -0.015964752 4278668713
0.020730685 0.033020131 -0.015601789 4278472363
0.022575021 0.033135384 -0.015958222 4278734504
0.024795616 0.031886272 -0.014878792 4278734759
0.027026951 0.030637896 -0.013801314 4278669224
0.029075496 0.030072194 -0.01344276 4278603689
0.030933198 0.030188654 -0.013801505 4278537898
0.033640705 0.033828799 -0.018095346 4279061414
0.035076387 0.035307113 -0.01988085 4279718294
0.037328977 0.034060631 -0.018807143 4278538408
0.040849924 0.028729575 -0.013452824 4278275249
0.045475211 0.019997746 -0.0045405524 4278733483
-0.0053350814 0.021529682 -0.0026336256 4279458448
-0.0041845702 0.025081165 -0.0066203317 4278865828
-0.0032084845 0.02931801 -0.011325844 4279193758
-0.0018133372 0.03149255 -0.013854282 4279062433
-0.00028114766 0.032979608 -0.015656531 4278996643
0.0015519075 0.033093154 -0.016011514 4279127714
0.003543485 0.032520533 -0.015644405 4278865574
0.0055404976 0.031948268 -0.01527826 4278734248
0.007706739 0.030690528 -0.014192147 4278668203
0.010041457 0.036404848 -0.020665443 4278864809
0.011348534 0.038574651 -0.023176301 4279519904
0.013512254 0.037317123 -0.022089433 4278733229
0.016041216 0.034690082 -0.019567758 4278731189
0.018591657 0.032064468 -0.017050171 4278602923
0.020980988 0.030125109 -0.015254068 4278472363
0.023015872 0.029556034 -0.014894639 4278800294
0.025056109 0.02898743 -0.01453622 4278538409
0.026720408 0.02978782 -0.015610355 4278603944
0.028185975 0.031272121 -0.017398704 4278603433
0.029836807 0.032071836 -0.018470114 4278472618
0.031283543 0.033555098 -0.020254647 4279060648
0.035972554 0.036634851 -0.024170037 4278340274
0.046181682 0.02195932 -0.0095826201 4278864299
0.049373321 0.017982706 -0.0056826277 4278538664
-0.0045972057 0.015841037 0.00060178433 4279327123
-0.0032850169 0.018715218 -0.0026570316 4278669989
-0.0019942038 0.021588154 -0.0059116483 4278342059
0.00037041679 0.028019212 -0.013129724 4278735015
0.0015944131 0.030888302 -0.016371191 4278931364
0.0034301132 0.031002091 -0.016726626 4278472363
0.0049439743 0.03249266 -0.018521857 4278668969
0.0069380738 0.031918138 -0.018156739 4278733993
0.0095904581 0.036273137 -0.023176417 4278930344
0.010892551 0.038449302 -0.025681511 4278997154
0.012876086 0.037874486 -0.025314081 4279389088
0.020683348 0.029282456 -0.017059814 4278603434
0.022715259 0.028711038 -0.016701462 4278799783
0.024376938 0.029513378 -0.017773546 4278865318
0.025842752 0.031001979 -0.019558737 4278668968
0.027297806 0.032490037 -0.021341827 4278603688
0.02893796 0.03329131 -0.022409547 4278735013
0.030374179 0.034778327 -0.024188824 4278472618
0.040784828 0.031242212 -0.021691794 4278865318
0.044131003 0.02656354 -0.017080439 4278865574
0.046210743 0.025996193 -0.016730465 4278537898
0.04785572 0.026798647 -0.017798554 4278537644
0.051805444 0.026349774 -0.017808788 4278468538
-0.0042872913 0.012201238 0.0016524112 4279261588
-0.0028218143 0.014393162 -0.00088012964 4278931363
-0.0013723411 0.016584232 -0.003409544 4278800549
-8.893013e-05 0.01946564 -0.0066562053 4278538408
0.0011731051 0.022345811 -0.0098986644 4278342058
0.0024137646 0.025224708 -0.01313687 4278538408
0.0037911199 0.027411705 -0.015652033 4278866083
0.004991658 0.030288359 -0.018882366 4279062433
0.0063342564 0.032473378 -0.021390669 4279062178
0.01800333 0.030397587 -0.020649936 4278471853
0.020203803 0.029133741 -0.019576389 4278799784
0.021860169 0.029937867 -0.0206459 4278602923
0.023323523 0.031430684 -0.022427499 4278537388
0.030259652 0.033266693 -0.025265794 4278668713
0.031685315 0.034757622 -0.02703977 4278603689
0.033303939 0.03556003 -0.028101519 4278538154
0.034917146 0.036362208 -0.029162141 4278472874
0.037779551 0.033038862 -0.025967568 4278603433
0.040456943 0.03040465 -0.023486596 4278800038
0.043584675 0.026397483 -0.019593727 4278800039
0.045007292 0.027888732 -0.021366663 4278668713
0.04648491 0.034989744 -0.029144708 4278864299
0.048534576 0.034418598 -0.028790325 4279650973
0.051956806 0.029729741 -0.024204586 4278993584
0.058183338 0.016809031 -0.011167436 4278993584
-0.0042619966 0.0099362433 0.0012529856 4279588754
-0.0026489422 0.011441227 -0.00055548456 4278801313
-0.00089929998 0.012251999 -0.0016424274 4278604199
0.00054527447 0.014449477 -0.0041659931 4278604199
0.0019738562 0.016646013 -0.0066863475 4278538918
0.0032311492 0.019534811 -0.0099213738 4278800549
0.006548021 0.029579055 -0.021033634 4278996643
0.0077143274 0.032462589 -0.024250761 4278996644
0.0088592134 0.035344884 -0.027463682 4278800038
0.010325395 0.036841683 -0.029242966 4278733994
0.012477044 0.035570145 -0.028163452 4278733993
0.014992919 0.032915749 -0.02565863 4278865319
0.017350875 0.030954408 -0.023871016 4278930854
0.019360743 0.030377092 -0.023511708 4278668458
0.021006428 0.031182764 -0.024577536 4278471853
0.022084337 0.034061551 -0.027777016 4278405808
0.023521058 0.035557218 -0.029550169 4278731699
0.029748725 0.033136237 -0.02776161 4278994859
0.031571016 0.033250686 -0.028113363 4278472363
0.033393264 0.033365242 -0.028465025 4278537898
0.03521546 0.033479866 -0.028816627 4278538154
0.037664413 0.031525288 -0.027045812 4278735014
0.039917771 0.030261438 -0.025984978 4278538409
0.042396106 0.028308887 -0.024219703 4278734759
0.044022519 0.02911449 -0.02528098 4278537898
0.045924857 0.034858495 -0.03162929 4278732974
0.047518801 0.03566232 -0.03268411 4279782809
0.050245862 0.033022989 -0.030218743 4279192738
0.054146271 0.026943056 -0.024240926 4278799783
-0.004378669 0.0083632842 0.00013172347 4279654034
-0.0029097758 0.010568663 -0.0023918748 4278474149
-0.0010157228 0.010685641 -0.0027589258 4278866593
0.00072869286 0.01149838 -0.0038431846 4278604454
0.0023154169 0.013006434 -0.0056431238 4278932128
0.0037364028 0.015209205 -0.008157108 4278538919
0.0049835853 0.0181063 -0.011383653 4278604709
0.0062093623 0.021002151 -0.014605992 4278669479
0.0072505884 0.024591617 -0.018538766 4278276269
0.0084308572 0.027484849 -0.021752147 4278407083
0.0094211958 0.031071335 -0.025674935 4278734758
0.010898326 0.032573231 -0.027453121 4278996898
0.012712512 0.032686219 -0.027804002 4278996898
0.015056405 0.030717328 -0.026018618 4278603433
0.017057925 0.030137178 -0.025659386 4278734504
0.019064836 0.029557433 -0.025301069 4278734249
0.020338647 0.031752184 -0.027785826 4278340274
0.021409061 0.034639336 -0.030977406 4278602924
0.023027943 0.035445735 -0.032036301 4279193503
0.024834106 0.035558894 -0.032385141 4278603688
0.029634552 0.031629551 -0.028835053 4278864809
0.031858169 0.030359 -0.027771933 4278668458
0.033889066 0.02978158 -0.027417723 4278603433
0.035513118 0.030588867 -0.028477205 4278472618
0.037758037 0.029319985 -0.02741803 4278472874
0.039379288 0.030127302 -0.028476823 4278734759
0.041423358 0.029551091 -0.028124876 4278669479
0.042822283 0.031049708 -0.029886767 4278472618
0.044429872 0.031856485 -0.030942764 4278404024
0.045365475 0.034736354 -0.03410738 4278271933
0.057044163 0.022077192 -0.022181729 4279061923
-0.0042122751 0.0053938404 0.00044512469 4279981453
-0.0027376376 0.007606186 -0.0020747613 4279128989
-0.00083834305 0.0077234693 -0.0024428386 4278866848
0.0009114854 0.0085387304 -0.0035265433 4278932383
0.0023515485 0.010749202 -0.0060394639 4278801058
0.0039305128 0.01226126 -0.0078346226 4278735524
0.0053412095 0.014470108 -0.010341714 4278538919
0.0067358762 0.016678113 -0.012845663 4278407848
0.0081144981 0.018885214 -0.01534644 4278735269
0.0096427463 0.0203945 -0.017131435 4278473129
0.012154073 0.025501098 -0.022829652 4278276014
0.013294753 0.028400982 -0.026028715 4278603688
0.014943182 0.029210949 -0.027092062 4278865829
0.016586263 0.030020675 -0.02815431 4278734504
0.01822399 0.030830171 -0.029215448 4278734249
0.022535501 0.035343435 -0.034515962 4278472109
0.024336182 0.035456263 -0.034863736 4278668713
0.026722388 0.033484034 -0.033090826 4278471854
0.031542994 0.029542906 -0.029554162 4278733738
0.033570934 0.028963054 -0.029200945 4278668968
0.035192344 0.029772444 -0.030258339 4278603689
0.036808342 0.030581553 -0.031314563 4278603689
0.038418911 0.03139041 -0.032369677 4278472874
