# .PCD v0.7 - Point Cloud Data file format
VERSION 0.7
FIELDS x y z rgba
SIZE 4 4 4 4
TYPE F F F U
COUNT 1 1 1 1
WIDTH 728
HEIGHT 1
VIEWPOINT 0 0 0 1 0 0 0
POINTS 728
DATA ascii
0.0045579113 0.0006737709 0.066768542 4286333248
0.0066580139 0.00080442429 0.066360995 4289603114
0.0098690279 -0.003636755 0.071176946 4289341228
-0.012631387 -0.00079385936 0.067290351 4287248443
-0.011209577 0.0026200414 0.063137025 4290257444
-0.0092662908 0.0034055933 0.061984118 4290126884
-0.0067693107 0.0015648231 0.063825354 4290127138
-0.004968144 0.0030068904 0.061924752 4290062114
-0.0030324869 0.0037921816 0.060773496 4289015084
-0.0012498498 0.0052332953 0.05887657 4289015083
0.00022123381 0.0079855174 0.055489387 4289145898
0.0018240996 0.010080755 0.052852113 4289407528
0.004034292 0.009553019 0.053198572 4289473064
0.0072010867 0.0050935224 0.058011804 4289407528
0.011372808 -0.0032946467 0.067282364 4289341993
-0.015884407 0.0026171654 0.06047025 4288164404
-0.014733102 0.0073600411 0.054829877 4289014828
-0.013082441 0.0094643757 0.052187737 4289211434
-0.011310849 0.01090885 0.050295983 4289211944
-0.008852046 0.0090590417 0.052139748 4289669668
-0.0068037398 0.0091860369 0.051741939 4289408038
-0.0044654272 0.0079962648 0.052835476 4289408038
-0.0027067177 0.0094402879 0.050946411 4289538598
-0.00095863268 0.010883678 0.049059492 4289604134
0.00062584132 0.012984436 0.046430591 4290258208
0.0026613064 0.013111014 0.046035547 4290127394
0.0054886378 0.0099497773 0.049355756 4289800228
0.0094702132 0.0021883622 0.057868462 4289734949
0.014826111 -0.010826916 0.072304666 4289799973
-0.017169964 0.0068551674 0.052521709 4288949039
-0.015910398 0.010950603 0.047643784 4289799973
-0.014280807 0.013060234 0.045010556 4289800228
-0.012393732 0.013846666 0.043871757 4289735204
-0.0099543147 0.01198893 0.045714457 4290192928
-0.0079248883 0.012114726 0.045320291 4290389023
-0.005750563 0.011579975 0.045670208 4289473319
-0.0037181973 0.011706106 0.045275588 4289669669
-0.0018358491 0.012492623 0.044137988 4289473319
4.1242689e-05 0.013278887 0.043001462 4289538854
0.0020685531 0.013404932 0.042607982 4290062114
0.0048869029 0.010232039 0.045921836 4290192928
0.0082148127 0.0050820112 0.051453289 4290258463
0.013057811 -0.0060005486 0.063640222 4290192928
-0.017938491 0.0084779672 0.047584292 4289081128
-0.01669145 0.012585863 0.042718466 4289734949
-0.014807153 0.013374224 0.041581746 4290389023
-0.012791518 0.013498977 0.041190129 4290454558
-0.010497291 0.012297437 0.042285558 4290454558
-0.0084760152 0.012422692 0.041892949 4289734693
-0.0063100122 0.011885181 0.042242844 4289734948
-0.0042857938 0.012010776 0.041849781 4289734948
-0.0021114908 0.011473909 0.04219823 4289342504
-8.4366649e-05 0.011599842 0.04180472 4289277224
0.0019428469 0.011725865 0.041411247 4289342504
0.0042862035 0.010527931 0.042497542 4289342504
0.0072832145 0.00668329 0.046539199 4289211689
0.011619661 -0.0024528429 0.056485299 4289342504
-0.018063661 0.006792821 0.046382982 4288099889
-0.017077751 0.012245838 0.040039677 4289800229
-0.015198749 0.013036087 0.038905535 4289603878
-0.013324965 0.013826039 0.037772506 4289342248
-0.011178274 0.013284925 0.038124394 4290061859
-0.0090260804 0.012744203 0.03847532 4289996580
-0.0067239664 0.011538852 0.039566074 4289407528
-0.0045581087 0.010999177 0.039914418 4289211433
-0.0023867637 0.010459907 0.040261757 4289342504
-0.00036242604 0.010585647 0.039868768 4289408039
0.0016620085 0.010711484 0.039475825 4289408039
0.0040022545 0.0095088594 0.040559512 4289342503
0.0068349317 0.0063147657 0.043854434 4290454558
0.010673899 -0.0008610785 0.051567655 4290389279
0.016065219 -0.014006965 0.065900013 4290389279
-0.017676126 0.0024346709 0.048151586 4286333503
-0.016809102 0.0085742623 0.041076917 4288753453
-0.015055504 0.01003512 0.039201442 4289734693
-0.013448719 0.012163233 0.036587182 4289276968
-0.011580091 0.012955125 0.035456799 4290127394
-0.0092919581 0.011744384 0.036546957 4289931043
-0.0068486817 0.009867046 0.038374409 4290258209
-0.0046830848 0.0093251131 0.038721163 4289473319
-0.0026616491 0.0094505586 0.038328663 4289473318
-0.00079241395 0.010242909 0.037198465 4289669669
0.0010715537 0.01103501 0.036069348 4289800484
0.0034032911 0.0098274685 0.037151404 4289800484
0.0060666129 0.0072880313 0.039703798 4290585374
0.0094037242 0.0020854399 0.045194719 4290454558
0.014109818 -0.0084421635 0.056558441 4289734949
-0.016802739 0.0062303171 0.040624168 4288426289
-0.015446331 0.0097063445 0.036531892 4289734693
-0.013708461 0.011170689 0.034662738 4289866020
-0.011981182 0.012634464 0.032795701 4290323744
-0.0095574372 0.01074921 0.034621969 4290192929
-0.0072615445 0.0095345266 0.035707466 4290650909
-0.0049548075 0.0083206408 0.036790878 4289734948
-0.0032350868 0.0097842813 0.03492555 4289473318
-0.0013738461 0.010578375 0.033798471 4289538854
0.00048211962 0.01137216 0.032672506 4289734949
0.002805382 0.010159601 0.033753 4289931043
0.0051394552 0.0089478381 0.03483142 4289538599
0.0082988106 0.0043949634 0.039578211 4289146153
0.012489285 -0.0041646063 0.048719045 4289276968
0.018432263 -0.019400097 0.06517674 4289080363
-0.016796637 0.0038821101 0.040168446 4286594623
-0.015836436 0.0093866587 0.033868879 4289210924
-0.014375478 0.012199614 0.030528501 4289407784
-0.012520134 0.012995053 0.029403888 4289473319
-0.01038754 0.012446422 0.029753666 4289342503
-0.0078176297 0.0098829381 0.032310866 4289473319
-0.0056659989 0.009335652 0.032657061 4289865763
-0.0038074888 0.010131631 0.031532083 4289800739
-0.0019542389 0.010927361 0.030408185 4289735204
-0.00010625646 0.011722859 0.029285382 4289407783
0.0020511486 0.011176281 0.029630709 4290323488
0.0042140074 0.010630127 0.029975045 4290258209
0.0070332065 0.0074020326 0.033248357 4290389023
0.010871794 0.00015320629 0.040908325 4290192419
0.016450468 -0.013794437 0.055871423 4290323234
-0.017051529 0.002879411 0.03823534 4286136898
-0.01649189 0.010425426 0.029739067 4289145133
-0.015041105 0.013246562 0.026407108 4290323234
-0.013196439 0.014043525 0.025286168 4290258209
-0.010933761 0.01281783 0.026371505 4290454558
-0.0086602122 0.011592865 0.027454838 4290585374
-0.0063758157 0.010368701 0.028536092 4289800484
-0.004527986 0.011166204 0.027414791 4289735204
-0.0025335923 0.011289988 0.027027547 4289669669
-0.0003846027 0.010740574 0.027372818 4289342503
0.0017698556 0.010191534 0.027717128 4289865763
0.003769882 0.010315951 0.027328998 4289211689
0.0062576495 0.0084220357 0.029133599 4289342504
0.009753067 0.0024933368 0.035317492 4289669413
0.0146403 -0.0088120922 0.047330987 4289472808
-0.016747348 0.0094516128 0.027827285 4288883504
-0.01543425 0.012958124 0.023767654 4289603113
-0.013594892 0.013756931 0.022649337 4289276969
-0.011619847 0.013879146 0.022265583 4289865763
-0.0092138797 0.011972889 0.024080757 4289865763
-0.0070842691 0.011419773 0.024427965 4289669669
-0.004800193 0.01019118 0.025506131 4289473318
-0.0028085895 0.010314785 0.025119424 4289669669
-0.00035388023 0.0084118545 0.026925433 4289734948
0.0016459599 0.0085361414 0.026537254 4289734948
0.0036458746 0.0086605251 0.026149124 4289407783
0.0058082528 0.0081099831 0.026490364 4289277224
0.0088014565 0.0041855276 0.030474626 4289604133
0.01316903 -0.0051344186 0.040278953 4289538598
0.01948674 -0.021869399 0.058074135 4289538598
-0.016737022 0.007124342 0.027385771 4288033334
-0.015420504 0.010642089 0.023333535 4289668649
-0.013854556 0.012800787 0.020751398 4289734693
-0.011741553 0.012244176 0.021100104 4289473063
-0.0096230581 0.01168805 0.021447774 4289669669
-0.0074990876 0.011132348 0.021794446 4289734948
-0.0052208342 0.0098989867 0.022870451 4289407783
-0.0030832179 0.0093442686 0.023214646 4289734948
-0.00063180551 0.0074345283 0.025016394 4289865763
0.0013652332 0.0075586289 0.024628747 4289734948
0.0032028146 0.0083602294 0.023512892 4289604133
0.0053595565 0.0078071021 0.023853596 4289931299
0.0080164559 0.0052231401 0.026374996 4290389279
0.011868063 -0.0020978674 0.033979189 4290389279
0.017481569 -0.016182564 0.048833724 4290454049
-0.015407056 0.0083218701 0.022896424 4289407018
-0.013838027 0.010487322 0.02031856 4289341993
-0.012003794 0.011290308 0.019204445 4290323488
-0.0098882653 0.010731719 0.019551102 4290585374
-0.0077672452 0.010173596 0.019896708 4290585374
-0.0053434782 0.0082553066 0.021698833 4290585118
-0.0033574738 0.0083785057 0.021313172 4289603878
-0.0010633506 0.0071418397 0.022383031 4289800484
0.00077152252 0.0079453774 0.021269239 4289865763
0.0027604736 0.0080690496 0.020883217 4289996580
0.004749503 0.0081928186 0.020497248 4289865764
0.0072328188 0.0062787868 0.022288218 4289604134
0.01040202 0.0016492307 0.026976623 4289407528
0.015309978 -0.0097675771 0.03890371 4289538343
-0.015528925 0.0066808276 0.021726552 4289014318
-0.014234997 0.010219313 0.017694876 4289473064
-0.012406074 0.011024125 0.016583443 4289473319
-0.010439299 0.011145834 0.016201299 4289277224
-0.0083266161 0.010584969 0.016546894 4289473318
-0.0060599707 0.0093419664 0.017618712 4290389023
-0.0040848143 0.0094644763 0.017235145 4289865508
-0.0019557215 0.0089049004 0.01757776 4289800229
2.2307038e-05 0.0090277828 0.017193772 4289603878
0.0020004101 0.0091507621 0.016809843 4289865253
0.0039785877 0.0092738457 0.016425975 4290388513
0.0061214007 0.0087155029 0.016766198 4289865253
0.0091059469 0.0047507733 0.020723104 4289538344
0.012972495 -0.0026178584 0.028288912 4289668904
0.019314956 -0.019517049 0.04595818 4289668904
-0.015785627 0.0057256259 0.019828662 4288491059
-0.01463126 0.0099604167 0.015077755 4289668904
-0.013088174 0.012137603 0.012514599 4289407528
-0.011275169 0.0129437 0.011407923 4289407784
-0.0088849366 0.011009935 0.013206769 4289342504
-0.0066267923 0.0097619556 0.014276978 4290127393
-0.0046598017 0.0098839439 0.013894986 4290454304
-0.0026927143 0.010006022 0.01351304 4289734693
-0.00072554126 0.010128226 0.01313116 4289276714
0.00124171 0.010250513 0.012749318 4289145899
0.0033707544 0.0096889958 0.013090525 4289996068
0.005505234 0.0091279037 0.013430744 4289930789
0.0081464313 0.0065164901 0.015935846 4290126883
0.01148827 0.0011728331 0.021322563 4289669159
0.016942641 -0.01236698 0.035351913 4289538089
0.023730457 -0.030681595 0.054403234 4289538089
-0.016041957 0.0047751442 0.017934132 4287444539
-0.015301619 0.011085976 0.011014931 4289864745
-0.013628796 0.012581665 0.0091841854 4290388513
-0.011823799 0.013389453 0.0080806538 4290257698
-0.0095876753 0.012135576 0.0091518387 4290388513
-0.0073407143 0.010882523 0.010220941 4290519839
-0.0052337497 0.010317016 0.010564521 4289603878
-0.0032748319 0.010438573 0.010184146 4289276714
-0.0013158284 0.010560233 0.0098038279 4289211178
0.00080212951 0.0099957176 0.0101455 4289015084
0.0029255338 0.0094315745 0.010486215 4289210923
0.0050543658 0.0088679194 0.01082591 4289276459
0.007522475 0.0069330744 0.012605388 4289341993
0.010345962 0.0036280602 0.015821461 4289341993
0.015263882 -0.0079007819 0.0276643 4289276714
0.021847926 -0.025591567 0.045958813 4289145644
-0.016163327 0.0031393468 0.016767971 4286267203
-0.01555888 0.010159966 0.0091385096 4289602858
-0.014028449 0.012349576 0.0065874662 4289603623
-0.012086164 0.012469701 0.0062100273 4289276714
-0.010143757 0.012589943 0.0058326479 4289538599
-0.0077573173 0.010642674 0.0076226145 4289669414
-0.0055053383 0.0093855821 0.008687567 4289342249
-0.0033958852 0.008818116 0.0090291165 4289341993
-0.0014369972 0.0089397542 0.0086488128 4289472808
0.00068067387 0.0083729848 0.0089889057 4289603623
0.0028037913 0.0078066066 0.0093280524 4289276714
0.0049323365 0.0072407089 0.0096661784 4289407529
0.0068995468 0.0073632635 0.0092845485 4289211433
0.0097140223 0.0040466487 0.012494303 4289734694
0.01393242 -0.0047697276 0.021440882 4289603623
0.020318389 -0.02183187 0.038980667 4289996579
-0.015404515 0.0071624704 0.0094342157 4288425779
-0.014008116 0.010050934 0.0061644688 4289799974
-0.012205701 0.010862935 0.0050646421 4290127138
-0.010408539 0.011674713 0.0039659012 4289407784
-0.0081732161 0.010412045 0.0050307717 4289538344
-0.0059270486 0.0091501214 0.0060936641 4289603623
-0.0036700666 0.0078889914 0.0071544703 4289472808
-0.001558125 0.0073195323 0.0074939728 4289538344
0.00055925548 0.0067505315 0.0078325048 4289669413
0.0026820935 0.0061819181 0.0081700906 4289015339
0.0044825152 0.0069946311 0.0070711747 4289342504
0.0062776394 0.0078070648 0.0059734043 4289996834
0.0089138374 0.0051688999 0.0084601603 4290192928
0.012775291 -0.0022972152 0.015955962 4290192928
0.018267624 -0.01596716 0.029881142 4290127649
0.024931312 -0.03376773 0.048076298 4290127394
-0.014976926 0.0027677938 0.01116652 4287837239
-0.013988048 0.0077481568 0.0057385191 4289080619
-0.01218291 0.008562509 0.0046397485 4289015338
-0.010527983 0.010070417 0.0028222967 4290454303
-0.0082931109 0.0088032894 0.0038840156 4290389023
-0.0060473941 0.0075368956 0.0049437527 4290519328
-0.0037908666 0.0062713064 0.0060014073 4290388259
-0.0018349066 0.0063927434 0.0056216512 4289211178
0.00027950108 0.0058213286 0.0059591327 4289407529
0.002077233 0.006635908 0.0048623085 4289538854
0.0038696639 0.0074502863 0.0037666075 4289734948
0.0056567788 0.0082644224 0.002671998 4289931299
0.0081150196 0.0063091852 0.0044388659 4289277224
0.011276592 0.0015865043 0.0090610497 4289211688
0.016046073 -0.0093613416 0.020102534 4289277224
0.02231876 -0.025838062 0.036835764 4289277224
-0.014960848 0.00044517964 0.010727033 4286332993
-0.014107697 0.0061375387 0.0045903437 4289145643
-0.012444634 0.0076502487 0.0027744491 4289473319
-0.010792185 0.0091624074 0.00096068718 4289342759
-0.0087079182 0.0085864924 0.0013021026 4289211433
-0.0066181943 0.0080110133 0.0016425233 4289472808
-0.0045230202 0.0074359737 0.0019819606 4290323234
-0.0025779121 0.0075567104 0.0016042944 4289669413
-0.00063272938 0.0076775663 0.0012266953 4289604133
0.0013125204 0.0077985115 0.00084915198 4289865763
0.0030942559 0.0086144209 -0.0002428703 4290062114
0.0050369352 0.0087354146 -0.00061976723 4290519838
0.0071486123 0.0081620179 -0.00028308667 4289800484
0.0099522173 0.0048116669 0.0029046293 4289538598
0.013828561 -0.0027020127 0.010362115 4289865763
0.019179929 -0.015763953 0.023503877 4290127393
0.025711363 -0.032982469 0.040894564 4290127393
-0.015081652 -0.0011828765 0.0095663927 4285940804
-0.014505837 0.005924318 0.0020070523 4289080364
-0.012989882 0.0081395395 -0.00052181445 4289669158
-0.011345275 0.0096556097 -0.002330834 4289735204
-0.009269353 0.0090769492 -0.0019894298 4289342504
-0.0071879588 0.008498732 -0.0016490165 4289211689
-0.0051011145 0.0079209097 -0.001309542 4289734949
-0.0034749173 0.0094362795 -0.0031147432 4289800484
-0.0017013177 0.010253664 -0.0042037386 4289538598
0.00022770837 0.010373604 -0.004578134 4289538598
0.0023202077 0.0097965822 -0.0042395033 4289604133
0.0042520314 0.0099169016 -0.0046142917 4290062369
0.0063526891 0.0093405992 -0.0042770933 4289996580
0.0084587559 0.0087646991 -0.003940817 4289930789
0.011615083 0.0040109009 0.00065981597 4290127138
0.01569315 -0.0042216256 0.0088051744 4289604134
0.021630744 -0.01941061 0.024036657 4289604134
0.029143991 -0.04015927 0.044920105 4289604134
-0.015042376 0.0064210705 -0.0012858491 4288426288
-0.013817664 0.010043636 -0.0052395109 4289603623
-0.0120418 0.010862842 -0.0063277204 4289996835
-0.010271188 0.011681825 -0.0074148346 4289997088
-0.0083560124 0.011800475 -0.0077868551 4290258463
-0.0064407587 0.011919223 -0.0081588216 4289931809
-0.0043702163 0.011338312 -0.007817775 4289408804
-0.0026099905 0.01215706 -0.0089025665 4289539618
-0.0006945096 0.012276143 -0.0092743495 4289735969
0.0012210421 0.012395337 -0.009646059 4289866528
0.0029707141 0.013213731 -0.010728591 4289277989
0.0047150627 0.014031954 -0.011810041 4289540893
-0.015299994 0.0055253878 -0.003140023 4287380278
-0.014360506 0.010564499 -0.0085132029 4289408293
-0.012736958 0.012088094 -0.01031176 4289147173
-0.011124022 0.013611101 -0.012108131 4290128924
-0.0096713901 0.015835911 -0.014614815 4289540383
-0.0054188557 0.013964802 -0.013216166 4288036903
-0.0033592619 0.013381101 -0.012874533 4288625443
-0.015557233 0.0046344474 -0.0049908347 4286333758
-0.015185241 0.012509111 -0.013202097 4288951588
-0.013863161 0.015446007 -0.016418576 4288887838
-0.018128932 -0.046015643 -0.0073243808 4287834688
-0.0185108 -0.046163566 -0.0098639382 4287377474
-0.017461948 -0.0097240657 0.061922301 4283524678
-0.011677254 -0.035803236 0.009945292 4282346069
-0.011526745 -0.038928576 0.010148499 4281953369
-0.012713946 -0.022077926 -0.0062681343 4282869329
-0.012789208 -0.02035556 -0.018867519 4282870093
-0.013049487 -0.021215819 -0.020695172 4282283339
0.038861509 -0.060551159 0.010032557 4284704309
-0.013733927 -0.019850433 -0.024579391 4282284359
-0.014134336 -0.019952059 -0.027080679 4282283850
-0.014392864 -0.020789303 -0.028891938 4282153289
-0.014204185 -0.011736371 -0.037459809 4283591233
-0.013945963 -0.025356464 -0.027290273 4282021709
-0.013313655 -0.018516682 -0.033797123 4282677059
-0.012936916 -0.032937534 -0.022979641 4281755743
-0.011851285 -0.028323464 -0.027437028 4282545224
-0.01065148 -0.024460107 -0.031208782 4283854139
-0.0090317167 -0.022844195 -0.032938901 4284704564
-0.015286136 -0.049263962 0.053955089 4281946738
-0.013405968 -0.047725178 0.052106168 4282012273
-0.01566733 -0.049618557 0.051264364 4281881204
-0.013792332 -0.04807575 0.04941969 4281291389
-0.016047802 -0.049964011 0.048580218 4281749623
-0.014433745 -0.047000907 0.045312878 4280372623
-0.031369653 -0.050497502 0.048075866 4282076024
-0.016427565 -0.050300226 0.045902576 4282012018
-0.014818348 -0.047328673 0.042642642 4281225854
-0.01520225 -0.047647208 0.039978918 4281750643
-0.013228454 -0.046805412 0.038859811 4282143853
-0.015585423 -0.047956601 0.037321761 4281881713
-0.013616968 -0.047112957 0.036205281 4282078319
-0.015840668 -0.048973769 0.035378251 4282339948
-0.013874877 -0.048128061 0.034263842 4282078064
-0.016095523 -0.049986124 0.033438087 4282470508
-0.014002647 -0.049857445 0.033030834 4282143089
-0.012439344 -0.046853274 0.02980566 4282602089
-0.016476914 -0.05027242 0.030797385 4282797674
-0.014519129 -0.04942289 0.029687766 4282208368
-0.012963351 -0.046410374 0.02647049 4282143089
-0.015163999 -0.048251241 0.025652505 4281946738
-0.013618428 -0.045230567 0.022443634 4281815923
-0.015807506 -0.04706157 0.021630093 4282012273
-0.014272157 -0.044032745 0.01842963 4281881714
-0.012354251 -0.043181069 0.017331123 4282014569
-0.016191475 -0.047309592 0.019017909 4282536554
-0.01452918 -0.044999965 0.016523037 4281815923
-0.012748409 -0.043418713 0.014728952 4281554804
-0.016445804 -0.048278503 0.017109424 4282732903
-0.014654253 -0.046692364 0.015316401 4281421948
-0.01260471 -0.046566196 0.014917687 4280177038
-0.014779259 -0.048384421 0.014110006 4281748348
-0.01286399 -0.047526367 0.013016801 4280898434
-0.015429366 -0.047138847 0.010130022 4281815413
-0.013390843 -0.047013424 0.0097334161 4281881203
-0.015946995 -0.046611778 0.0068547595 4282863974
-0.014184255 -0.045014121 0.005077051 4282077808
-0.012295637 -0.044153206 0.0039923098 4281751409
-0.014708724 -0.044469573 0.0018161815 4282208368
-0.013100758 -0.04213015 -0.00064389594 4281553783
-0.015365656 -0.043170653 -0.0021231864 4281749879
-0.014040362 -0.03934399 -0.0059518088 4281422458
-0.015887909 -0.042596795 -0.0053630825 4282273904
-0.014977954 -0.036531053 -0.01124057 4280112268
-0.0138334 -0.031953201 -0.015738457 4281818474
-0.016409166 -0.042009309 -0.0085933451 4282732394
-0.015641905 -0.035181366 -0.015141161 4280046478
-0.015897527 -0.036055483 -0.016980061 4279980688
-0.014488034 -0.032946147 -0.020091558 4281031544
-0.015746303 -0.039173245 -0.016771479 4279980434
-0.014192771 -0.036804117 -0.01919681 4279719314
0.0053087808 0.017479159 -0.018263565 4285818913
0.0077216551 0.015494775 -0.016507126 4286016029
0.010327157 0.012810811 -0.014046484 4285950494
0.014029212 0.0059252828 -0.0073497128 4285884703
0.019785382 -0.0086603612 0.0071046222 4285688609
0.029529655 -0.037942253 0.036356043 4285884703
-0.0089597963 0.019318741 -0.021070542 4285950494
-0.0066203438 0.017322429 -0.019305231 4285884703
-0.0044222698 0.016031239 -0.018252207 4285754399
-0.0026941039 0.016852532 -0.01932754 4285623583
-0.00080832094 0.016969852 -0.019693496 4285558814
0.00091192499 0.017790817 -0.020767095 4285624603
0.0027951263 0.017908178 -0.021132395 4285755164
0.0041654892 0.020135295 -0.023617627 4285820953
0.0062143579 0.019549321 -0.023275083 4285755418
0.0087976009 0.016855143 -0.020816574 4285820698
0.012476385 0.0099461228 -0.014131469 4285952024
0.018207446 -0.004687421 0.00029388256 4285952024
0.027001206 -0.03055191 0.025962744 4285952024
-0.015584406 0.012354314 -0.015742458 4285294633
-0.014555104 0.016713951 -0.020372195 4285623839
-0.013117921 0.018950906 -0.022866307 4285623838
-0.011696741 0.02118697 -0.025357241 4285951769
-0.0096834749 0.0205957 -0.025009975 4286016793
-0.0075100772 0.019298498 -0.023955505 4285886489
-0.0050111115 0.016589481 -0.021487648 4285820698
-0.0032909364 0.017412435 -0.022559775 4285624093
-0.0014133304 0.017529231 -0.022924153 4285624604
0.00013346225 0.019057699 -0.024700765 4285755419
0.0020058081 0.01917439 -0.025063964 4285886743
0.0033658147 0.021407466 -0.027542349 4285623584
0.0055771284 0.020113334 -0.026494719 4285557793
0.0079753771 0.018114861 -0.024744997 4285623583
0.011462785 0.01188793 -0.018777102 4285623838
0.016995266 -0.0020882785 -0.005085323 4285623838
0.025213962 -0.025922008 0.018420715 4285623838
0.032867528 -0.046926484 0.039083641 4285623838
-0.016123991 0.012918204 -0.018985571 4285295653
-0.015389487 0.018709216 -0.025021691 4285690394
-0.014111839 0.021661114 -0.02821664 4285689373
-0.012408026 0.022484828 -0.029284298 4285623839
-0.010405786 0.0218907 -0.028936548 4285623583
-0.0080890469 0.019879706 -0.027176525 4285820954
-0.0057561286 0.017869793 -0.025419515 4285689884
-0.0037268586 0.017277651 -0.025076784 4285558558
-0.002179902 0.018810403 -0.026850235 4285558558
-0.00064363331 0.020342618 -0.028621584 4285624093
0.00088196993 0.021874238 -0.030390739 4285953043
0.0023968704 0.023405299 -0.032157741 4285886744
0.0042476989 0.023520835 -0.032516629 4285755164
0.0068025142 0.020807266 -0.030065548 4285821464
0.010093521 0.015266508 -0.024810679 4285755928
0.015422391 0.0019517615 -0.011848249 4285755928
0.02287765 -0.019131452 0.0088046454 4285755928
0.031240733 -0.043031007 0.032228 4285755928
0.036187522 -0.053495944 0.04231843 4285689883
-0.015934903 0.019303877 -0.028240921 4285559323
-0.01437211 0.020841356 -0.030014703 4285821463
-0.012819957 0.022378329 -0.031786382 4285689628
-0.010671686 0.021070555 -0.03073355 4285689628
-0.0085126087 0.019763611 -0.029682767 4285821464
-0.0061856806 0.017746694 -0.027929438 4285821719
-0.0043217987 0.017862521 -0.028291238 4285624349
-0.002620291 0.01868885 -0.029356508 4285624349
-0.0010891668 0.020225111 -0.031123593 4285558813
0.00043126941 0.021760821 -0.032888524 4285689884
0.0021114647 0.022586133 -0.033949431 4285821464
0.0039594769 0.022701498 -0.034307763 4285821208
0.0063349977 0.020688374 -0.032563306 4285755928
0.0092621483 0.016548283 -0.028720792 4285624604
0.013489846 0.0074459389 -0.019985393 4285558814
0.020361494 -0.011578359 -0.0014726929 4285558814
0.028870432 -0.036264345 0.02260261 4285493023
0.035296265 -0.052434102 0.038262036 4285558813
-0.016479291 0.019912124 -0.031450473 4285427743
-0.014924336 0.021453511 -0.033219524 4285690394
-0.013231177 0.02228095 -0.034281902 4285887509
-0.01093721 0.020255201 -0.032527212 4285755928
-0.0087812692 0.018943585 -0.03147902 4285755928
-0.0067714378 0.018345699 -0.031135835 4285624348
-0.0050752908 0.019173749 -0.032198485 4285624349
-0.0033844635 0.020001564 -0.033260033 4285624348
-0.0015340149 0.020116761 -0.033619076 4285624349
0.00031648576 0.020232067 -0.033978052 4285624349
0.0021670163 0.02034748 -0.034336954 4285558558
0.004017584 0.020462994 -0.034695789 4285558303
0.0062194914 0.019155152 -0.033655919 4285558559
0.0086104907 0.017136484 -0.031919222 4285624349
0.012103733 0.010850459 -0.025995903 4285558814
0.017849715 -0.0039673224 -0.011708745 4285558814
0.026317775 -0.028733052 0.012318086 4285558814
0.033839144 -0.049221411 0.032128282 4285558814
0.037872788 -0.056195825 0.038680624 4285493023
0.040210139 -0.056771614 0.038961504 4285493024
-0.016449377 0.017670047 -0.031834353 4285362209
-0.014891546 0.019216049 -0.033600792 4285559324
-0.013195671 0.02004585 -0.034662105 4285493278
-0.010899648 0.018013541 -0.032912623 4285558559
-0.0092036165 0.018843606 -0.033973847 4285492768
-0.0073561557 0.018958271 -0.034332562 4285558558
-0.0055086315 0.019073073 -0.034691192 4285624349
-0.0034989528 0.01847313 -0.034349401 4285624349
-0.0016486384 0.018588297 -0.034708429 4285624859
0.00053662062 0.017274681 -0.03366879 4285624859
0.002562508 0.016676124 -0.033329941 4285624348
0.0044209845 0.016792133 -0.033690311 4285624604
0.0059285127 0.018336177 -0.035446063 4285689883
0.0081380159 0.01702451 -0.034410808 4285886744
0.010719977 0.014286339 -0.031984136 4285820699
0.015709396 0.0022746474 -0.020511158 4285755163
0.023397066 -0.019717298 0.00068350695 4285755163
0.031817704 -0.043838039 0.023931466 4285820699
0.037355363 -0.056539938 0.036030252 4285755163
0.039881296 -0.057831042 0.037004739 4285623584
-0.015743583 0.002379261 -0.019208463 4284900914
-0.016133465 0.013987534 -0.030816436 4285296419
-0.015004884 0.017692458 -0.034686897 4285493788
-0.013308972 0.018524438 -0.035746619 4285559068
-0.01161835 0.019356202 -0.036805239 4285689883
-0.010086879 0.020905301 -0.038563099 4285689884
-0.0079398453 0.019584402 -0.037519556 4285755674
-0.0057820231 0.018264335 -0.036478065 4285689884
-0.0034515001 0.016227975 -0.034739804 4285624093
-0.0017632321 0.017060146 -0.035797559 4285624604
0.00025428459 0.016458761 -0.03545877 4285559069
0.0024471506 0.015141305 -0.034423765 4285624603
0.004132852 0.015973642 -0.035480779 4285690139
0.0056378953 0.017521925 -0.037232839 4285886999
0.0073102266 0.018353693 -0.038287144 4285886744
0.0098806545 0.015605982 -0.035864681 4285821208
0.014122875 0.0064186677 -0.027194841 4285886744
0.021039553 -0.012781255 -0.0088212565 4285886744
0.029610895 -0.037694655 0.015072871 4285886489
0.036264382 -0.054729342 0.031307288 4285886744
0.039552804 -0.058885716 0.035051353 4285820953
0.042086259 -0.060180642 0.036021259 4284966448
-0.015675507 0.009571597 -0.029106928 4284966448
-0.014826845 0.014728658 -0.03437217 4285427999
-0.013570588 0.017723352 -0.03753072 4285559069
-0.012184668 0.019996975 -0.039985768 4285821463
-0.010814752 0.022269703 -0.042437632 4285886744
-0.0085225143 0.020224128 -0.040696934 4285886998
-0.0060550533 0.017460298 -0.038261589 4285952788
-0.0035660937 0.014697913 -0.035830334 4285886999
-0.0020422339 0.01625137 -0.037583191 4285689884
-0.00019481778 0.016366463 -0.037941579 4285558558
0.0016526319 0.016481675 -0.038299892 4285624349
0.0033276379 0.01731554 -0.039353229 4285886998
0.0048221536 0.018867578 -0.041100021 4285623839
0.0064838007 0.01970084 -0.042150602 4285492258
0.0088621713 0.017661683 -0.040425923 4285623839
0.012539065 0.010598406 -0.033853076 4285689883
0.018314321 -0.004356347 -0.01967293 4285689883
0.026653539 -0.028632075 0.0034812819 4285689883
0.034792595 -0.051461473 0.025217369 4285689629
0.039224662 -0.059935652 0.033101369 4285624348
0.04155834 -0.060518108 0.033378247 4285427488
0.04369805 -0.060383268 0.032964289 4285165604
-0.015231442 0.014646105 -0.036858518 4285361953
-0.014128197 0.018371582 -0.040707894 4285755929
-0.012900818 0.021373402 -0.043854319 4285689629
-0.011080638 0.021486238 -0.044207837 4285558049
-0.0087917037 0.01943386 -0.042471319 4285623839
-0.00616882 0.015939392 -0.039345622 4285820953
-0.004003834 0.014611032 -0.038311902 4285689883
-0.002320867 0.01544727 -0.039365418 4285624093
-0.0011440665 0.018446621 -0.042501539 4285624349
0.00052021816 0.019281913 -0.043551266 4285624349
0.0020068623 0.02083775 -0.045293398 4285887509
0.0038327798 0.020951826 -0.045647383 4285886999
0.0058363937 0.020345602 -0.045308799 4285624348
0.008386448 0.017578986 -0.042895265 4285689883
0.011507057 0.012653545 -0.038411491 4285690138
0.01652238 0.00053120404 -0.027025567 4285755928
0.023701238 -0.019502729 -0.0080627315 4285755928
0.031985626 -0.0431251 0.014320571 4285755928
0.037928067 -0.057383619 0.027707886 4285756184
0.040441781 -0.058688633 0.028675213 4285427233
0.042767048 -0.059273697 0.028952207 4285296163
-0.015635338 0.014572654 -0.039338309 4285296163
-0.014684785 0.019033369 -0.043875396 4285755673
-0.013314217 0.021319181 -0.046317786 4285755418
-0.011499528 0.021431666 -0.046670243 4285689628
-0.0092165992 0.01937234 -0.044937439 4285624093
-0.0067587793 0.01659026 -0.042513113 4285755419
-0.0047637112 0.015980575 -0.042174939 4285821718
-0.0030914471 0.016818367 -0.043224826 4285624349
-0.0017580502 0.019102551 -0.045659505 4285559069
-0.00044071674 0.021385863 -0.048091039 4285558814
0.0012048632 0.022222303 -0.04913545 4285690139
0.0030199252 0.022335716 -0.049487323 4285756184
0.0050125085 0.021726575 -0.049148228 4285756183
0.0073708482 0.019672912 -0.047429271 4285756184
0.010293879 0.015453443 -0.043643769 4285624859
0.014176829 0.0076253489 -0.036417671 4285493534
0.020377522 -0.0088626817 -0.020936893 4285493534
0.028801564 -0.033282809 0.0020915698 4285493788
0.036439925 -0.054083094 0.021645833 4285493788
0.039719462 -0.058279552 0.025362749 4285493534
0.04223533 -0.059588693 0.026326548 4285427744
-0.016038537 0.0145084 -0.041811619 4285164584
-0.015240341 0.019708678 -0.047033198 4285493788
-0.013726935 0.021274123 -0.048774794 4285953044
-0.011611309 0.019933511 -0.047738131 4285887508
-0.009484902 0.018593714 -0.046703532 4285952789
-0.0071891285 0.016528625 -0.044977933 4285887509
-0.0051997341 0.015916418 -0.044640321 4285690393
-0.0035327934 0.016756054 -0.045687512 4285558814
-0.0022044145 0.019046545 -0.048116453 4285558813
-0.0007227622 0.020610772 -0.049851254 4285493278
0.0005761981 0.022899661 -0.052274317 4285493278
0.0023830831 0.023012549 -0.052624613 4285493533
0.004367318 0.022400703 -0.0522855 4285493533
0.006896995 0.019615185 -0.049880899 4285493533
0.009813536 0.015382051 -0.046103749 4285427998
0.012947612 0.010426726 -0.041645035 4285428254
0.018187912 -0.0024922565 -0.029633649 4285493279
0.026385859 -0.02626542 -0.007339824 4285428254
0.034954146 -0.050751202 0.015606042 4285428254
0.039194286 -0.05858063 0.022745695 4285493279
0.041505501 -0.059170969 0.023022201 4285164329
-0.015716005 0.010807842 -0.040808398 4285032493
-0.015499502 0.018939752 -0.048794389 4285427999
-0.014138941 0.021238178 -0.051225241 4285558814
-0.012182198 0.020621404 -0.050883137 4285624349
-0.010064293 0.019276626 -0.049850069 4285624093
-0.0077772066 0.017204423 -0.048127666 4285558813
-0.0057961531 0.016589481 -0.047790051 4285559069
-0.0039734617 0.016702905 -0.048143737 4285559324
-0.0021507218 0.016816441 -0.048497356 4285559068
-0.00049707666 0.017657667 -0.049540199 4285493533
0.0011512414 0.01849867 -0.050581932 4285559324
0.0029687099 0.018612217 -0.050934277 4285559324
0.0047861971 0.018725879 -0.051286548 4285493788
0.0069633983 0.017385859 -0.050264273 4285493278
0.0095164068 0.014593117 -0.047870539 4285427234
0.012276065 0.011075277 -0.044794679 4285295653
0.017317269 -0.0011576787 -0.033495776 4285295653
0.025308238 -0.02427832 -0.011937027 4285295653
0.03424377 -0.050292328 0.012327187 4285361444
0.038865738 -0.059598364 0.020819318 4285361444
0.040975325 -0.059465371 0.020411205 4285098028
-0.01516822 0.015251059 -0.047784671 4285362208
-0.013949461 0.018287562 -0.050903693 4285428254
-0.011834763 0.016938061 -0.0498733 4285427999
-0.0098648593 0.016319994 -0.049535297 4285361954
-0.0075730309 0.014241435 -0.047818609 4285361698
-0.0057478473 0.014354896 -0.048172861 4285229863
-0.0034318082 0.012278117 -0.046460748 4285229609
-0.0017647706 0.013122253 -0.047504671 4285229608
6.5904111e-05 0.013236385 -0.047859754 4285295399
0.0017249733 0.014080271 -0.048901953 4285361189
0.0037273504 0.013465028 -0.048569668 4285426978
0.005558107 0.013579536 -0.048924495 4285426724
0.0077482425 0.012235858 -0.047907919 4285426723
0.010131471 0.010164093 -0.046208225 4285426724
0.01290087 0.0066358373 -0.043142304 4285295398
0.017949807 -0.0056340545 -0.031872239 4285295398
0.025755577 -0.02809637 -0.011049544 4285295398
0.033727501 -0.050548069 0.0097410381 4285295398
0.037950229 -0.058427013 0.016848672 4285295398
0.040048942 -0.058294706 0.016442671 4285032238
-0.014837869 0.011549365 -0.046784151 4285296164
-0.013610557 0.014595173 -0.049898423 4285296163
-0.0114883 0.013241775 -0.048872765 4285295909
-0.0095106475 0.012621947 -0.048537832 4285295909
-0.0073694997 0.011269931 -0.047515687 4285229864
-0.0052175745 0.0099186637 -0.046495505 4285031984
-0.0012136623 0.008682929 -0.04583456 4285163564
0.00045879185 0.0095297098 -0.046877846 4285295398
0.0026403554 0.0081808083 -0.045863114 4285360933
0.0046585053 0.0075643547 -0.045535482 4285360679
0.006682042 0.0069482997 -0.045208782 4285360679
0.0087109469 0.0063327476 -0.044883072 4285295144
0.011109605 0.004255347 -0.043191202 4285295398
0.013894126 0.00071699917 -0.040136196 4285295144
0.01895614 -0.01158943 -0.028896043 4285295144
0.026011679 -0.031196684 -0.010853332 4285295144
0.033404849 -0.051525198 0.0078429282 4285295144
0.03723168 -0.057967938 0.013571847 4285229609
-0.014214091 0.0063636117 -0.044415407 4284966449
-0.012822997 0.0086837076 -0.04683774 4284966448
0.00101934 0.005075857 -0.045220613 4285229099
0.0030398294 0.0044572204 -0.044895142 4285229608
0.0050657168 0.0038390532 -0.044570625 4285295143
0.0070969686 0.0032213181 -0.044247068 4285360679
0.0091336034 0.0026040599 -0.043924458 4285360678
0.01117561 0.0019871965 -0.043602772 4285295143
0.014146529 -0.0022952035 -0.039874725 4285229608
0.019210923 -0.014638945 -0.02866232 4285295144
0.026267145 -0.03430558 -0.010663161 4285295144
0.033275306 -0.053230219 0.0066281408 4285229609
0.036709599 -0.05822783 0.010984123 4285098029
-0.012486491 0.0049587339 -0.045855694 4284966448
0.0029248968 0.0029294491 -0.045983914 4285097518
0.0051242933 0.0015729815 -0.044978976 4285229353
0.0073344335 0.00021724403 -0.043975998 4285360679
0.0093761086 -0.00040191412 -0.043655984 4285360679
0.011605017 -0.0017561764 -0.042656504 4285229608
0.014398288 -0.0053159371 -0.039619319 4285295143
0.019277822 -0.016961701 -0.029114086 4285295143
0.026142139 -0.035952799 -0.011836803 4285295143
0.032953195 -0.054200023 0.0047352575 4285164073
0.036383465 -0.059213258 0.0090807155 4285032494
-0.013411976 -0.0018534362 -0.041781403 4285031984
-0.012300499 0.0019606426 -0.045568012 4285098538
-0.010454625 0.002075009 -0.045926556 4284901424
0.0029809661 0.00066353381 -0.046391554 4285032239
0.0053562298 -0.0014355481 -0.044709839 4285098029
0.0075712353 -0.0027953461 -0.043711074 4285295908
0.0097969882 -0.0041543692 -0.042714234 4285295909
0.012033455 -0.0055125803 -0.041719452 4285230119
0.015202526 -0.010558136 -0.037335046 4285295144
0.019905575 -0.021500967 -0.02753536 4285229099
0.032631442 -0.055165075 0.0028457455 4285097773
-0.013526045 -0.0033871159 -0.042874694 4285098029
-0.012264509 -0.00030404329 -0.045969866 4285164328
-0.010568164 0.00055234134 -0.047011942 4284967468
0.0086882673 -0.0095182285 -0.040060677 4284901424
0.01128998 -0.012360804 -0.037715092 4285164073
0.014094686 -0.015942022 -0.034696255 4285163308
-0.013493542 -0.0056649074 -0.043285288 4285032494
-0.012079604 -0.0033170208 -0.045692779 4285163818
-0.010074094 -0.0039462522 -0.045371473 4285033258
-0.011150066 -0.010070734 -0.042020008 4284966958
-0.0091261119 -0.010701023 -0.04170388 4284967469
-0.0068163462 -0.024222672 -0.031953879 4285229608
-0.0042816997 -0.027097009 -0.029615358 4285755164
0.0010116547 -0.033589244 -0.024273871 4285031983
