# .PCD v0.7 - Point Cloud Data file format
VERSION 0.7
FIELDS x y z rgba
SIZE 4 4 4 4
TYPE F F F U
COUNT 1 1 1 1
WIDTH 951
HEIGHT 1
VIEWPOINT 0 0 0 1 0 0 0
POINTS 951
DATA ascii
-0.00049581751 -0.023706026 -0.006748708 4286985539
0.0012493506 -0.022807874 -0.0078932624 4286854723
0.0036403872 -0.024137609 -0.0070422012 4287247424
0.0062617101 -0.026208639 -0.0055295993 4287181888
-0.022747204 -0.024796553 -0.0046526548 4287116864
-0.020796463 -0.024643235 -0.0051307213 4288229683
-0.018845633 -0.024489783 -0.0056087207 4288164659
-0.016894706 -0.024336211 -0.0060866531 4287902008
-0.014943689 -0.024182476 -0.0065644924 4287640123
-0.012796961 -0.024775028 -0.0063739326 4287901753
-0.01084315 -0.024620831 -0.0068522748 4287575864
-0.0082864314 -0.026704527 -0.0053293873 4287706678
-0.0059173778 -0.02804099 -0.0044767354 4287706678
-0.0037439093 -0.028630912 -0.0042923298 4287902774
-0.0021917634 -0.026984207 -0.0061044227 4287771959
-1.5560538e-05 -0.027573638 -0.005920494 4287837238
0.0019517913 -0.027417593 -0.0064015742 4287771959
0.0045696702 -0.029495664 -0.004893071 4287837493
0.0074229427 -0.032316841 -0.0027258387 4287575864
-0.024131432 -0.029574193 -0.0026524989 4287183418
-0.022352573 -0.028670512 -0.0038032476 4287772214
-0.020394046 -0.028516598 -0.0042832363 4288099378
-0.018435422 -0.02836252 -0.0047631282 4289016103
-0.016666856 -0.027459309 -0.0059110317 4288492333
-0.014325112 -0.028802879 -0.0050552841 4287968563
-0.012363587 -0.028648205 -0.0055356193 4288360499
-0.010203909 -0.029241793 -0.0053497581 4287771959
-0.0078381263 -0.030583046 -0.0044996617 4288033589
-0.0056650676 -0.031175368 -0.0043168357 4287902774
-0.003898751 -0.030271508 -0.0054636514 4288099124
-0.0023463406 -0.028620385 -0.0072725471 4287771959
4.0821731e-05 -0.02995941 -0.0064272908 4287510329
0.0024386141 -0.031297512 -0.0055844923 4287575864
0.0048470274 -0.032634571 -0.0047442159 4287902774
0.0077045932 -0.035464175 -0.0025845496 4287575099
0.010361442 -0.037545443 -0.0010902463 4286267204
-0.024104688 -0.03195972 -0.003150112 4286463553
-0.022323124 -0.031053685 -0.004299867 4287902773
-0.020546768 -0.030147858 -0.0054482771 4288230449
-0.018400997 -0.030745335 -0.0052609881 4288492844
-0.016629744 -0.029839657 -0.006407964 4288427308
-0.014285918 -0.031187467 -0.0055559864 4288165679
-0.012517132 -0.03028176 -0.0067021055 4288492844
-0.010357816 -0.030877598 -0.0065178005 4287903794
-0.0083936714 -0.030722462 -0.0069985902 4288034609
-0.0062262826 -0.031317391 -0.0068160547 4287969073
-0.004259374 -0.03116177 -0.0072973212 4288034608
-0.002292417 -0.031006023 -0.0077785021 4287903794
-0.00011429936 -0.031599693 -0.0075982912 4287838004
0.0022829194 -0.032942213 -0.0067585995 4287903284
0.0049071629 -0.035032846 -0.0052614389 4287575864
0.0077663865 -0.037871078 -0.0031086756 4286332993
-0.024257477 -0.033595078 -0.004318173 4286201923
-0.022475854 -0.032686867 -0.0054663187 4287837494
-0.020514995 -0.032532774 -0.0059468849 4287707189
-0.018366951 -0.033132188 -0.0057618199 4288231214
-0.016592987 -0.032224171 -0.00690779 4288231214
-0.014247093 -0.033576146 -0.0060596121 4288100399
-0.012475621 -0.032668062 -0.007204785 4287969329
-0.010314021 -0.033265896 -0.0070226556 4287838004
-0.0085477047 -0.032357983 -0.008166383 4287772469
-0.0065836497 -0.032202713 -0.0086470461 4287706933
-0.0048251636 -0.031295143 -0.0097886492 4287706933
-0.0026553907 -0.0318918 -0.0096081188 4287641653
-0.00048029795 -0.032487914 -0.0094288131 4287837748
0.0021272581 -0.034586616 -0.0079325093 4287902773
0.0045345128 -0.035932533 -0.0070984503 4287902774
-0.022810157 -0.033563398 -0.0072978651 4287575100
-0.020852093 -0.033409543 -0.0077777458 4287510074
-0.018893931 -0.033255525 -0.0082575521 4287510329
-0.016746148 -0.033857085 -0.0080739139 4288099633
-0.014400832 -0.035213478 -0.0072288541 4287510329
-0.012434486 -0.035058446 -0.0077103814 4287445049
-0.010468069 -0.03490328 -0.0081918342 4287052093
-0.0089018121 -0.033238329 -0.0099946661 4287182909
-0.0069405697 -0.033083312 -0.010474659 4286921279
-0.0049792752 -0.032928176 -0.010954573 4286659648
-0.002601821 -0.034281224 -0.010116781 4286790463
-0.00063514337 -0.034125365 -0.010597798 4287117373
0.0017582811 -0.035476945 -0.0097636795 4287639868
0.004162306 -0.036827482 -0.0089320904 4287247424
-0.025099147 -0.034588769 -0.0086467257 4287050818
-0.023325361 -0.033676818 -0.009789723 4286920003
-0.021372758 -0.033523396 -0.010268277 4286855488
-0.019233365 -0.034127884 -0.010084341 4286986303
-0.017088611 -0.034731813 -0.0099016307 4287509564
-0.014746491 -0.036092885 -0.0090589961 4287051583
0.017794443 0.0042455345 0.034098297 4282286399
0.018413292 0.0085245967 0.029396083 4281633089
0.020178037 0.0093701631 0.028206538 4279485223
0.023604851 0.0054134279 0.031920519 4280004913
0.027304308 0.00077361614 0.036326423 4280459834
0.032106839 -0.00095795095 0.037429344 4281763649
0.033897933 -0.0001097247 0.03623369 4281632834
0.034426376 0.0041627958 0.031554129 4281567553
0.034414697 0.0098023489 0.025489569 4281437503
0.03513081 0.01338505 0.02152279 4279808563
0.037895672 0.011491328 0.023123596 4280328509
0.043559153 0.0020740703 0.032359865 4279740988
0.013117189 0.0099805743 0.02567431 4282289458
0.013493901 0.014960557 0.020284172 4281374264
0.014531512 0.017871819 0.017003212 4281440054
0.016018569 0.019404635 0.015126288 4281698113
0.018922901 0.016807489 0.017444309 4281437504
0.022089098 0.01352407 0.02045539 4280394808
0.025281776 0.010242909 0.023460034 4281175873
0.027271219 0.010401838 0.022974387 4281698878
0.028763412 0.011935599 0.021096531 4281568064
0.029491201 0.015530042 0.017134931 4281112124
0.029938508 0.019809388 0.012485065 4281111613
0.031123577 0.022026125 0.0099255946 4281828164
0.034107104 0.019436084 0.012224935 4281371714
0.039206646 0.011357419 0.020062391 4281176384
0.0089522395 0.014386423 0.01867187 4284445738
0.010687981 0.015233777 0.017492447 4282551599
0.011728961 0.018154003 0.014217127 4281310769
0.012981202 0.020381756 0.011645526 4280722483
0.014687749 0.021227133 0.010473421 4281698369
0.016864549 0.020691294 0.01069705 4281633088
0.020008333 0.017395146 0.013705397 4281242174
0.022935532 0.014791206 0.01601151 4280720444
0.02514671 0.014258437 0.016226918 4281372479
0.026866382 0.015105344 0.015052039 4281372223
0.02782758 0.018020011 0.011796797 4280916539
0.02851381 0.021622237 0.0078535881 4279417139
0.029686132 0.023844577 0.0053021424 4280133688
0.032137439 0.02262209 0.0062144827 4280524604
0.036692463 0.015892379 0.012654925 4279613743
0.044471987 0.00090744346 0.027370509 4279678768
0.0096247233 0.016370676 0.013531318 4283533093
0.010885436 0.018605612 0.010962488 4281308728
0.012130214 0.020839404 0.0083975662 4279876649
0.014063817 0.020993482 0.0079252608 4279547954
0.015997397 0.02114765 0.0074530318 4279873333
0.018891832 0.018532224 0.0097605567 4279938869
0.021807451 0.01591856 0.012062974 4280981053
0.024007685 0.015382744 0.012279429 4281241663
0.025468666 0.016922794 0.010415794 4281241919
0.026668152 0.019153707 0.007862471 4281111358
0.027344711 0.022766162 0.0039297901 4279807799
0.029019214 0.023611963 0.0027677994 4280654908
0.03146467 0.022384636 0.0036783181 4280589884
0.035489276 0.017013825 0.0087247882 4280785724
0.041932963 0.0054319128 0.019962784 4281241409
0.009243425 0.015438475 0.011672789 4284189464
0.010043183 0.019070841 0.0077175051 4281308218
0.011280514 0.021310646 0.0051593091 4281111613
0.013206031 0.021464072 0.0046889689 4281046589
0.015131533 0.021617599 0.0042187218 4281046078
0.018017042 0.01899267 0.0065219011 4281046078
0.020923737 0.016369529 0.0088199805 4281176639
0.023606304 0.014442377 0.010420932 4281241408
0.025312889 0.015292652 0.0092525221 4281176128
0.026512889 0.01753021 0.0067039803 4281045313
0.027443651 0.020460181 0.0034693349 4281045314
0.028609049 0.022695176 0.00092939101 4281110849
0.030792762 0.022156321 0.0011486877 4281241409
0.034287788 0.018153302 0.0048075188 4281306433
0.039925527 0.0086110756 0.013958789 4281109828
0.048835706 -0.0092353746 0.031334426 4281175364
0.0098897833 0.017456509 0.0065652449 4281504313
0.010895781 0.020400427 0.0033181347 4280981053
0.012584034 0.021250911 0.0021554474 4281046078
0.01426697 0.022101082 0.00099413656 4280851259
0.016903747 0.020163536 0.0026011821 4281111359
0.020526204 0.015440732 0.006968895 4281176385
0.02345046 0.012810312 0.0092562474 4281176129
0.025404878 0.012966596 0.0087792613 4280980034
0.026608039 0.015211001 0.0062348526 4281045313
0.027795224 0.017454259 0.0036944263 4281045058
0.029222155 0.019000709 0.0018458758 4281045314
0.03038004 0.021241821 -0.00068724714 4279873078
0.033349007 0.018615618 0.0015896615 4279676983
0.038448386 0.01043161 0.0093489438 4280654654
0.046807017 -0.0060839429 0.025316209 4280654654
0.010194352 0.014442645 0.0067987069 4281830713
0.010743123 0.018795244 0.0021724515 4281112378
0.011962904 0.02104691 -0.00037154369 4279418158
0.013403675 0.022598192 -0.002220789 4279157804
0.01627133 0.019954257 7.3699281e-05 4279092014
0.01988687 0.015215568 0.0044316407 4278636074
0.023049742 0.011877172 0.0074029062 4281176639
0.025001381 0.012033246 0.0069266055 4281241408
0.026702769 0.012887664 0.0057627838 4281306944
0.027640281 0.015835777 0.0025395602 4281176639
0.028556529 0.018782251 -0.00067834742 4280720189
0.029451482 0.021727152 -0.0038910415 4278830638
0.032150716 0.019788876 -0.0023034886 4279155763
0.036709927 0.012971766 0.004070783 4279286324
0.044515215 -0.0022042841 0.018636625 4279808819
0.053512067 -0.020157844 0.035906423 4279026989
0.0093543008 0.014930844 0.0035701934 4282550834
0.010590483 0.017190345 0.0010269675 4281179189
0.011342622 0.020852081 -0.0028920528 4281308218
0.013015117 0.021705821 -0.0040475409 4281698368
0.015400395 0.020455427 -0.0031358898 4280786489
0.019006383 0.015700556 0.0012130104 4279483439
0.022404775 0.011649661 0.0048656166 4281112123
0.024598308 0.011104666 0.0050772894 4281372989
0.026047165 0.012661479 0.0032297745 4281307709
0.026980095 0.015618011 1.4204532e-05 4280655419
0.027636472 0.019272961 -0.0038807988 4280589884
0.028782122 0.021526299 -0.0064011253 4281632579
0.031214725 0.020280495 -0.0055003539 4281371969
0.035237234 0.014839448 -0.00050549209 4280720189
0.041695055 0.003109403 0.010618301 4280719933
0.051196795 -0.016301721 0.029216487 4280719933
0.0087440647 0.014728308 0.0010409076 4282943279
0.0095130391 0.018402271 -0.0028741378 4281178424
0.01048935 0.021370314 -0.0060943328 4280525624
0.012153972 0.022225626 -0.0072462671 4281307454
0.014769915 0.020266622 -0.0056487564 4281633599
0.017885361 0.016902439 -0.0026823301 4280916793
0.021271748 0.012837417 0.00096342526 4280786488
0.023207219 0.012992211 0.00049109012 4281242683
0.024643116 0.0145524 -0.0013499875 4281373244
0.02531109 0.018219166 -0.0052397344 4281047099
0.026462626 0.020479474 -0.0077566747 4279352368
0.02811363 0.021334559 -0.0089046452 4280395064
0.030800752 0.019382112 -0.0073238686 4280719933
0.03402973 0.016027875 -0.0043845009 4280589628
0.039676182 0.0063635185 0.0046734307 4280460343
0.048884943 -0.012409866 0.022552039 4280460343
0.0076780301 0.015948005 -0.0028578136 4283272483
0.0082063116 0.020338543 -0.0074497573 4281112123
0.0091700759 0.023314379 -0.010660356 4279678768
0.011057816 0.023464926 -0.011121362 4279939634
0.013901342 0.020792738 -0.0088405404 4280070449
0.01724926 0.016711317 -0.0051952135 4280590904
0.020384695 0.013337858 -0.0022417372 4281046844
0.022312082 0.013492033 -0.0027120849 4281242685
0.023490749 0.015760891 -0.0052309074 4281307198
0.024653453 0.018028587 -0.0077457484 4281241919
0.025545342 0.020999543 -0.010938164 4281045824
0.027445985 0.021151997 -0.01140167 4280719933
0.029866884 0.019896492 -0.010504548 4280589118
0.032823913 0.01723437 -0.008250691 4280915008
0.038191199 0.0082417503 0.00010880828 4280914498
0.047112718 -0.0098890588 0.01726976 4281110339
0.056442719 -0.028711863 0.035074946 4281110339
0.0068418197 0.016476952 -0.006057309 4284320023
0.0078248568 0.01946298 -0.0092661846 4280981564
0.0090201143 0.021739125 -0.011784637 4281177403
0.010907726 0.021889672 -0.012245603 4281373499
0.013750274 0.01920861 -0.0099710729 4281176638
0.016855393 0.015821666 -0.0070184134 4281306944
0.019742951 0.013144433 -0.0047546988 4281371969
0.02141821 0.014005445 -0.0059056263 4281306944
0.023088126 0.014866129 -0.0070551727 4281241153
0.024248684 0.017140262 -0.0095645878 4281241153
0.025902577 0.017999887 -0.010710059 4281241153
0.027551103 0.018859208 -0.011854129 4281306179
0.029974084 0.017599531 -0.010960814 4281306944
0.032670192 0.015634783 -0.0093918983 4281371969
0.037238836 0.0087308213 -0.0030850628 4281175364
0.044807255 -0.0059302077 0.010653123 4281175364
0.05438073 -0.025519863 0.029097043 4281305924
0.0081355684 0.016459882 -0.0090265982 4281242428
0.0095698647 0.018032469 -0.010857981 4281110338
0.011701167 0.01747331 -0.010637935 4281175874
0.014076293 0.016204499 -0.0097368043 4281110338
0.016944349 0.013516821 -0.0074749207 4281045569
0.019345909 0.012250401 -0.0065801078 4281110338
0.021511555 0.011694439 -0.0063681202 4281110083
0.023433324 0.011848263 -0.006837015 4280718658
0.025103264 0.012711287 -0.0079848347 4281044804
0.026767839 0.013573989 -0.0091312714 4280718658
0.028427046 0.014436349 -0.010276321 4280718404
0.03008087 0.015298456 -0.011420006 4280848454
0.032516479 0.014035501 -0.010532882 4280978758
0.036552787 0.0085254759 -0.0055934293 4281043274
0.043843642 -0.0054746643 0.0074378513 4281108044
0.053132717 -0.02441927 0.02516501 4281108044
0.0089062005 0.012022227 -0.0074278181 4281307708
0.010584397 0.012887307 -0.0085766185 4281110339
0.012728607 0.012326993 -0.0083613498 4280718403
0.014878118 0.011767164 -0.0081472555 4280783684
0.017032888 0.011207901 -0.0079344073 4280979269
0.019436542 0.009937264 -0.0070433589 4280913988
0.021358222 0.010090999 -0.007512304 4281044293
0.023528773 0.0095333457 -0.0073030507 4280979269
0.025453009 0.0096875057 -0.0077724522 4280979269
0.027377184 0.0098417699 -0.0082417512 4281044549
0.029044423 0.010706998 -0.0093871104 4280913733
0.030965805 0.01086127 -0.0098555638 4281044039
0.033149276 0.010305218 -0.0096490448 4281109318
0.036662083 0.0061985329 -0.0060725166 4281239369
0.043683711 -0.007135585 0.0062529817 4281238603
0.052426644 -0.024720252 0.022591699 4281238603
0.0072984919 0.0088449493 -0.0067353873 4284384029
0.0094450265 0.0082823858 -0.0065224906 4281176639
0.01136405 0.0084353313 -0.0069912104 4280914754
0.013283063 0.0085883886 -0.0074598463 4281175619
0.015440159 0.0080270246 -0.0072492668 4281109829
0.017361775 0.0081805214 -0.0077183647 4281175109
0.019526768 0.0076200143 -0.0075095454 4281240133
0.021697033 0.0070599839 -0.0073018884 4281174854
0.023623835 0.0072142556 -0.0077719865 4281109063
0.025801938 0.0066551417 -0.0075661121 4281109319
0.027731277 0.0068098381 -0.0080366647 4281174598
0.029660547 0.0069646463 -0.0085071092 4281044039
0.031330444 0.0078324154 -0.0096513955 4281109063
0.033518869 0.0072745755 -0.0094477003 4281239368
0.037300155 0.0024426803 -0.0052092671 4281238603
0.044592824 -0.011645056 0.0077564046 4281173323
0.05253116 -0.027148105 0.022039056 4281173579
0.0080557652 0.0043760985 -0.0051557207 4283401258
0.0097526535 0.0052469969 -0.0063059507 4281504059
0.01167684 0.0054003596 -0.006775924 4280913988
0.013601016 0.0055538416 -0.0072458079 4281109829
0.015763078 0.0049906299 -0.0070380298 4281174088
0.0179304 0.0044280067 -0.0068314942 4281174344
0.019859798 0.0045822486 -0.0073023913 4281108809
0.02178916 0.0047366098 -0.007773201 4281239369
0.023718473 0.0048910901 -0.0082439044 4281108043
0.025898876 0.004329972 -0.008040213 4281173833
0.027830726 0.0044848844 -0.0085113645 4281239369
0.029762512 0.0046399012 -0.00898242 4281108808
0.03195332 0.0040799603 -0.0087810121 4281305159
0.034411106 0.0028056875 -0.0079090223 4281304393
0.038201366 -0.0020408332 -0.0036841668 4281239369
0.044966139 -0.014743038 0.0079065356 4281239369
0.052365568 -0.028865881 0.020813685 4281304138
0.0085842945 0.00060973316 -0.0042670444 4283335978
0.010059483 0.0022030398 -0.0060954522 4281763648
0.011524051 0.0037956536 -0.0079212161 4281371459
0.013683129 0.0032298863 -0.0077144308 4281174853
0.016085159 0.0019457564 -0.0068329219 4281043784
0.01825743 0.0013813153 -0.006629223 4281239368
0.019949008 0.0022545457 -0.0077760294 4281174089
0.021880874 0.0024091154 -0.0082474463 4281108043
0.023812702 0.0025638044 -0.0087187588 4281108043
0.026246333 0.0012827739 -0.0078445226 4281173323
0.028183348 0.0014381185 -0.0083169267 4281239113
0.030376542 0.00087603182 -0.0081177577 4281174088
0.032574952 0.00031453371 -0.0079198144 4281239623
0.034778573 -0.00024644285 -0.0077230632 4281239879
0.038836706 -0.0058248863 -0.0028409623 4281175363
0.045605458 -0.018566214 0.0087194946 4281240133
0.052469473 -0.031299785 0.020256791 4281370184
0.0084309801 -0.0010034665 -0.0054184888 4282810678
0.010135962 -0.00012759864 -0.0065674018 4281501508
0.011835646 0.00074800104 -0.0077149086 4281174853
0.013999656 0.00018049777 -0.0075109843 4281239879
0.016168948 -0.00038647652 -0.0073082745 4281173323
0.018103397 -0.00023191422 -0.0077804774 4281173324
0.020280583 -0.00079802424 -0.0075795166 4281173579
0.022708466 -0.0020841584 -0.0067072511 4281108044
0.02514689 -0.0033692941 -0.0058375187 4281107279
0.027595874 -0.004653506 -0.0049702339 4281238093
0.030055383 -0.0059367195 -0.0041054785 4281369419
0.032269407 -0.0064992532 -0.0039130449 4281303883
0.034747344 -0.0077807978 -0.0030525671 4281304649
0.037235778 -0.0090613291 -0.0021945918 4281305414
0.041318562 -0.014655314 0.0026684906 4281306434
0.047043353 -0.024558865 0.011525026 4281371714
0.052842207 -0.03445635 0.020363603 4281498703
0.007824365 -0.0011679307 -0.0079205185 4282284869
0.0097534247 -0.0010142922 -0.0083917696 4281172814
0.011682484 -0.00086051971 -0.008862922 4280912713
0.01384614 -0.0014302358 -0.0086605325 4280911948
0.016015081 -0.0019994304 -0.0084593594 4280846669
0.018429218 -0.0032913014 -0.007587187 4280845394
0.021339048 -0.0060281083 -0.0053744689 4281041743
0.024760446 -0.010208637 -0.0018251138 4280975953
0.0282136 -0.01438649 0.0017165933 4281106514
0.031447984 -0.017839365 0.0045810621 4281759824
0.033949334 -0.019123621 0.0054324251 4281825868
0.036461201 -0.020406879 0.0062812623 4282283338
0.03898361 -0.021689214 0.0071276594 4282019923
0.041255407 -0.022249058 0.0073045697 4282083673
0.044587448 -0.025693461 0.0101457 4281952858
0.049011521 -0.032019883 0.015643299 4282083929
0.052945048 -0.036900632 0.019799255 4282214488
-0.025884934 -0.00390172 0.025917914 4278666928
-0.024081137 -0.0030378029 0.024730135 4279389853
-0.023367543 0.002074562 0.019336004 4280243338
-0.036270659 -0.0049089566 0.02575735 4279062689
-0.035448018 0.00022666901 0.020347405 4278734504
-0.033825379 0.0018026009 0.018461358 4278602413
-0.031873126 0.0019555166 0.017982539 4279257253
-0.027617481 0.00084025413 0.018427003 4278798763
-0.025837466 0.0017044842 0.017246675 4278603434
-0.024785127 0.0054097399 0.013268882 4282209389
-0.03755727 -0.0015608147 0.019660044 4278800548
-0.034645941 0.003026925 0.014491508 4278864809
-0.032704402 0.0031789765 0.0140153 4279585949
-0.030590232 0.0026179925 0.014239194 4278667948
-0.026878912 0.0036358759 0.012586936 4278996644
-0.025297668 0.0052134991 0.010714633 4281422459
-0.038355906 -0.00033002347 0.015688349 4279128478
-0.029322084 0.0032928512 0.010509502 4278472363
-0.027207967 0.0027298257 0.010731967 4278866085
-0.025809307 0.0050263926 0.0081669651 4281094784
-0.038829912 -0.00051812083 0.013128519 4279521944
-0.03770953 0.0032246783 0.0091579631 4278538153
-0.035781648 0.0033755079 0.0086849835 4278538919
-0.033853609 0.0035264567 0.0082120448 4278472874
-0.031753372 0.0029599443 0.008436054 4278275759
-0.029647693 0.0023939684 0.0086588133 4278537899
-0.027713932 0.002545692 0.0081847142 4278537899
-0.02614006 0.0041314587 0.0063207708 4279850384
-0.039141748 -0.0014176965 0.011273134 4278538408
-0.038350958 0.0037767813 0.0059165601 4278473129
-0.036597703 0.0046471655 0.0047489237 4278603943
-0.032247361 0.0027880445 0.0058943313 4278602924
-0.030147318 0.0022194088 0.0061168224 4278603434
-0.028041851 0.0016513094 0.0063380599 4278668968
-0.026650161 0.0039604604 0.0037845224 4279587988
-0.038969945 -0.0044810399 0.011510141 4279718293
-0.03849997 0.0021745339 0.004771946 4278538408
-0.030820396 0.0027758107 0.0028882101 4278602158
-0.028546244 0.0014832392 0.0038023349 4278865063
-0.026979778 0.0030771866 0.0019466337 4279259039
-0.039120626 -0.0061028451 0.010351514 4280111759
-0.038975928 0.0020222589 0.0022393148 4278603179
-0.037393976 0.003621228 0.00038264692 4278406064
-0.035822477 0.005219467 -0.0014713174 4279520413
-0.029403254 0.0027719289 -0.00010865554 4278472363
-0.027667712 0.0036458075 -0.0012683151 4279062433
-0.039431896 -0.0069970712 0.0084999185 4280963204
-0.038040016 0.0042088926 -0.0028308714 4278733994
-0.036476176 0.0058109313 -0.0046797683 4278735269
-0.034409072 0.0052329674 -0.0044542095 4278996388
-0.032162648 0.0039292797 -0.0035399264 4278471854
-0.030082028 0.0033525899 -0.0033175191 4278340784
-0.028175186 0.0035022423 -0.0037849909 4278800293
-0.040063564 -0.0064276531 0.0052684117 4279128478
-0.039599035 0.00028663874 -0.0014245268 4278274739
-0.030935843 0.0046750456 -0.0072044013 4278538409
-0.029039726 0.0048238263 -0.0076692617 4278604199
-0.040693957 -0.0058447048 0.0020466428 4279194523
-0.040072758 0.00015735626 -0.0039407555 4278603433
-0.03883164 0.0032311603 -0.0071627619 4278538153
-0.037107009 0.0041102543 -0.00831524 4279062434
-0.035216708 0.0042582452 -0.0087789297 4279062434
-0.032805856 0.0022144541 -0.0071822256 4278538408
-0.030907352 0.0023633018 -0.0076477658 4278472873
-0.028829936 0.0017820075 -0.0074277278 4278669733
0.0055188015 -0.0022029653 -0.0092715323 4280243593
0.0076715201 -0.0027761161 -0.0090683773 4279522964
0.0096004382 -0.0026224628 -0.0095395781 4279195289
0.011992849 -0.0039207712 -0.0086656697 4279064474
0.013692649 -0.0030406713 -0.0098098703 4279261079
0.015624184 -0.0028864592 -0.01028144 4279130009
0.018035091 -0.004182905 -0.0094117709 4279130009
0.022153035 -0.010554709 -0.0038549798 4279195289
0.026808642 -0.018372543 0.0030288901 4279522708
0.031522475 -0.02618555 0.0098986011 4280834429
-0.041003015 -0.0067159086 0.00021139346 4280701573
-0.040057588 -0.0021638125 -0.0043870751 4278604198
-0.038317163 -0.0012814179 -0.0055419002 4278931618
-0.036581855 -0.00039930642 -0.0066953748 4278866338
-0.034681108 -0.00025053322 -0.0071616527 4278800548
-0.032780226 -0.00010163337 -0.0076278709 4278735013
-0.030527364 -0.0014178529 -0.0067249201 4278866084
-0.02862094 -0.0012682974 -0.0071923342 4278931109
-0.026170753 -0.0033152923 -0.0056098737 4279915663
-0.023704574 -0.0053608641 -0.0040312801 4280636804
-0.021781914 -0.0052096695 -0.0045024026 4280505734
-0.020237472 -0.0035951659 -0.0063360762 4280112523
-0.018128127 -0.0041755363 -0.006125126 4280440198
-0.016013391 -0.0047553405 -0.0059153885 4280046224
-0.01369616 -0.0060655996 -0.0050274655 4279652503
-0.011967536 -0.0051826164 -0.0061782673 4280045970
-0.010041732 -0.0050304458 -0.0066496227 4280112524
-0.0079108141 -0.0056084916 -0.0064434838 4279851149
-0.0057745539 -0.0061859861 -0.0062385611 4279588499
-0.0038432889 -0.0060330406 -0.006710995 4279325848
-0.0019119866 -0.0058799535 -0.0071833432 4279128989
0.00023500621 -0.0064562336 -0.0069807656 4279194524
0.0021690242 -0.006302692 -0.0074535944 4279522199
0.0041030645 -0.0061490014 -0.0079263262 4279195034
0.0058135297 -0.0052663535 -0.0090718642 4279064218
0.0079711862 -0.0058412999 -0.0088715367 4279195034
0.0099052563 -0.0056872591 -0.0093440153 4278997919
0.012070859 -0.0062613189 -0.0091454461 4278866594
0.013539186 -0.0046507716 -0.010958962 4278866849
0.015707409 -0.0052243993 -0.010760862 4278998174
0.018120414 -0.0065250918 -0.0098949037 4278736288
0.022481101 -0.01364395 -0.003684544 4278867358
0.027873892 -0.023667194 0.0051838476 4279456663
0.033340819 -0.033684358 0.014034269 4279391128
-0.040832091 -0.0097907335 0.00044022314 4280635528
-0.039880302 -0.0052250102 -0.0041500665 4278931618
-0.03605831 -0.004926227 -0.0050879121 4278342314
-0.034147102 -0.0047766641 -0.0055567715 4278276014
-0.03223576 -0.0046269521 -0.0060255658 4278407594
-0.030148588 -0.0052119568 -0.0058113225 4278276013
-0.027877655 -0.0065310672 -0.004916003 4278472618
-0.025957998 -0.0063803568 -0.0053865686 4278538408
-0.023670927 -0.0076979771 -0.0044949697 4278932384
-0.022118386 -0.0060785785 -0.006327536 4278866849
-0.020009473 -0.0066612735 -0.0061181784 4278997919
-0.018278368 -0.0057762489 -0.0072682276 4278997664
-0.015969735 -0.0070917234 -0.0063815676 4278866594
-0.013847321 -0.0076730028 -0.0061752573 4278735269
-0.011919089 -0.0075207725 -0.0066472962 4278931618
-0.009990789 -0.0073684305 -0.0071192831 4278866594
-0.0076527409 -0.008681044 -0.0062395046 4278932129
-0.0057190247 -0.0085280091 -0.0067126164 4278801059
-0.00378526 -0.0083748475 -0.0071856501 4278735269
-0.0018514507 -0.0082215741 -0.0076586092 4278866338
8.238852e-05 -0.0080681667 -0.0081314826 4278735014
0.0017981771 -0.0071831495 -0.0092768781 4278997409
0.0037294161 -0.0070296973 -0.0097489357 4278932383
0.0056606773 -0.0068761185 -0.010220893 4278801314
0.00804401 -0.0081841424 -0.0093514509 4279194524
0.0099805798 -0.0080299005 -0.0098245293 4278866849
0.011917146 -0.0078755319 -0.010297514 4278670243
0.013385743 -0.0062605813 -0.012107842 4278604964
0.015790237 -0.0075664297 -0.011243206 4278670498
0.01820532 -0.0088713318 -0.010380998 4278670498
0.022566397 -0.016012073 -0.0041870112 4278801568
0.027714157 -0.025336631 0.0039925929 4279653013
0.033425197 -0.036113895 0.013486471 4279849618
-0.040502336 -0.013612308 0.0013482086 4280308364
-0.039703775 -0.0082946867 -0.0039192038 4279128989
-0.037787687 -0.0081449673 -0.0043894229 4278866593
-0.03587148 -0.0079951361 -0.004859603 4278735523
-0.033784915 -0.0085826293 -0.0046470286 4278538918
-0.031865772 -0.0084323213 -0.0051177451 4278669733
-0.029771008 -0.0090189576 -0.0049070166 4278866084
-0.027670808 -0.0096050724 -0.0046974709 4278669479
-0.025746018 -0.0094539747 -0.0051693218 4278669479
-0.023821108 -0.0093027428 -0.0056411037 4278669733
-0.021896094 -0.0091513917 -0.0061128167 4278407594
-0.019970991 -0.0089999214 -0.0065844776 4278735268
-0.018237185 -0.0081124678 -0.007733616 4278669733
-0.016120501 -0.0086965784 -0.007527587 4278735268
-0.013801757 -0.010015458 -0.0066466006 4278473128
-0.011871021 -0.0098630413 -0.0071192691 4278931873
-0.0095362552 -0.011180423 -0.0062420396 4278604453
-0.0076000951 -0.011027344 -0.0067158537 4278735268
-0.0054565854 -0.011608712 -0.0065159323 4278669988
-0.0039375424 -0.0099864379 -0.0083362097 4278407849
-0.0017913021 -0.010567293 -0.0081368061 4278604198
0.00014502928 -0.010413706 -0.0086103017 4278604198
0.0022992902 -0.010993712 -0.0084126228 4278866338
0.0040177982 -0.010106109 -0.0095570087 4278866593
0.0059542079 -0.009952113 -0.010030225 4278866849
0.0078906212 -0.0097980276 -0.010503378 4278801059
0.010055527 -0.010376692 -0.010307935 4278735778
0.011994589 -0.01022213 -0.01078153 4278801058
0.013933644 -0.010067426 -0.01125503 4278669988
0.0161091 -0.010644831 -0.011061934 4278669988
0.018767975 -0.012685761 -0.0095382901 4278669988
0.022651296 -0.0183843 -0.0046923999 4278932128
0.028043175 -0.028468929 0.0041306894 4278997663
0.033015147 -0.037084743 0.011607956 4280046988
-0.040173743 -0.01744689 0.0022469815 4282536044
-0.039528023 -0.011372872 -0.0036944235 4278997664
-0.038100917 -0.0090025514 -0.0062132096 4278801059
-0.036020134 -0.0095928088 -0.0060009314 4278669988
-0.034103911 -0.0094428733 -0.0064710313 4278800803
-0.03184228 -0.010771737 -0.0055801375 4278604198
-0.030095797 -0.0098818764 -0.0067312522 4278997408
-0.027998611 -0.01047039 -0.0065226546 4278866084
-0.026257206 -0.009580709 -0.007672363 4278538408
-0.023971245 -0.010907225 -0.0067870216 4278604198
-0.02204638 -0.010755889 -0.0072587105 4278473128
-0.019932885 -0.01134263 -0.0070537543 4278800803
-0.018005174 -0.011190832 -0.0075259591 4278669733
-0.015883561 -0.011776708 -0.0073228134 4278800803
-0.013953041 -0.011624441 -0.0077955285 4278538663
-0.012022462 -0.011472054 -0.008268171 4278735523
-0.0096882619 -0.012793876 -0.0073940614 4278538918
-0.0077522434 -0.012640789 -0.0078678327 4278735523
-0.0056090951 -0.013224371 -0.0076694498 4278801058
-0.0038800649 -0.012334257 -0.0088151554 4278669988
-0.0017315298 -0.012917183 -0.008617905 4278538663
0.00020730868 -0.012763388 -0.0090920115 4278473128
0.002146177 -0.012609445 -0.0095660174 4278800803
0.0040850639 -0.012455396 -0.010039938 4278866594
0.0058009941 -0.011565685 -0.011181974 4278932128
0.0079628862 -0.012146898 -0.010987517 4278670243
0.009901803 -0.011992477 -0.011461169 4278604708
0.01184072 -0.011837907 -0.011934721 4278801058
0.013779622 -0.011683233 -0.01240819 4278801058
0.016427133 -0.013731711 -0.010886782 4278604453
0.019329378 -0.016513065 -0.008704843 4278538918
0.022977315 -0.021494679 -0.0045370478 4278997664
0.027883058 -0.030142166 0.0029367302 4278932129
0.032358725 -0.037317261 0.0090704337 4280440200
-0.040323984 -0.019066237 0.001090033 4282404718
-0.039514896 -0.013717152 -0.004157207 4278735014
-0.037920173 -0.012082256 -0.0059910668 4278801059
-0.036168735 -0.011190183 -0.0071420474 4278604453
-0.034082871 -0.011782147 -0.0069325855 4278735268
-0.031991575 -0.012373567 -0.0067243567 4278604198
-0.030069955 -0.012222998 -0.0071956282 4278800803
-0.028148204 -0.01207228 -0.007666829 4278669479
-0.026226349 -0.01192145 -0.0081379795 4278538408
-0.024121337 -0.01251135 -0.007932716 4278800293
-0.021825258 -0.013841309 -0.0070530688 4278866083
-0.019895148 -0.013689458 -0.0075259702 4279128734
-0.017773971 -0.014277674 -0.0073244395 4278800803
-0.015841033 -0.014125355 -0.0077978419 4278801059
-0.013908021 -0.013972901 -0.0082711736 4278538918
-0.012173858 -0.013080724 -0.009416827 4278735779
-0.0098402239 -0.014406972 -0.0085458392 4278473894
-0.0079043694 -0.014253937 -0.0090195993 4278867358
-0.0055547096 -0.015578695 -0.0081522809 4278539683
-0.0036134534 -0.015424967 -0.008627166 4278801314
-0.0014599934 -0.016009644 -0.0084327878 4278670244
0.00048398972 -0.015855432 -0.0089081433 4278866084
0.0026454628 -0.016439222 -0.008715542 4278932128
0.0048122592 -0.017022505 -0.0085241143 4278866848
0.0067616068 -0.016867481 -0.0090004932 4278932129
0.0087109655 -0.016712353 -0.0094767939 4278866339
0.010888375 -0.017294355 -0.0092877056 4278736034
0.012840383 -0.017138742 -0.0097644497 4278998429
0.015259072 -0.01845669 -0.0089131091 4279063199
0.017452348 -0.01903706 -0.0087276194 4278735524
0.020128198 -0.021089762 -0.007217871 4278800804
0.023785098 -0.02608598 -0.0030636359 4278997664
0.028210865 -0.033287108 0.0030658711 4279325849
-0.040315155 -0.021430202 0.00061386451 4282208369
-0.039178822 -0.017554887 -0.0032631336 4278800549
-0.037575889 -0.015915036 -0.0050957324 4278800803
-0.035649505 -0.015764445 -0.0055684308 4278735779
-0.033722993 -0.01561375 -0.0060410937 4278736289
-0.03179634 -0.015462905 -0.0065136896 4278801569
-0.029869568 -0.015311942 -0.0069862297 4278931873
-0.027765144 -0.015904292 -0.0067826835 4278734504
-0.026015673 -0.015009604 -0.0079311254 4278931109
-0.024088558 -0.014858238 -0.0084034679 4278931109
-0.021975864 -0.015449584 -0.0082016746 4278865829
-0.019669671 -0.016783006 -0.0073276917 4278800549
-0.017543543 -0.017373092 -0.0071289586 4278997664
-0.015798893 -0.016478106 -0.0082757967 4279259804
-0.014059447 -0.015583478 -0.009421234 4278996899
-0.012126513 -0.01543092 -0.0098944614 4279258784
-0.0099921487 -0.016019799 -0.0096974168 4278931618
-0.0076484196 -0.017349549 -0.0088320132 4279128733
-0.0050873868 -0.019419484 -0.007300226 4279194524
-0.0029290356 -0.020006098 -0.0071087684 4279127968
-0.00097728893 -0.019851394 -0.0075861197 4279585949
0.00075988099 -0.018956035 -0.0087303314 4279521179
0.0027090386 -0.018801324 -0.009206878 4279456409
0.0053179041 -0.020866774 -0.0076863449 4279456409
0.0079426859 -0.022930883 -0.0061695669 4279587733
0.010132972 -0.023514181 -0.005985355 4279522198
0.012100719 -0.023357451 -0.0064660404 4279653013
0.014298949 -0.023939855 -0.0062835757 4279915408
0.016502481 -0.024521753 -0.0061022509 4279522198
0.018947069 -0.025841899 -0.0052603949 4279849619
0.021163788 -0.026422426 -0.005082136 4279849618
0.024591204 -0.030694567 -0.001602645 4280177039
0.027806642 -0.034225889 0.0012094099 4281095039
-0.040147882 -0.024545394 0.00081380643 4281946483
-0.038843926 -0.021405585 -0.0023782495 4278997664
-0.036740493 -0.022000827 -0.0021765381 4278801059
-0.034798387 -0.021849036 -0.0026531182 4278932128
-0.032686751 -0.022443391 -0.0024532489 4279063453
-0.030913766 -0.021545053 -0.0036061127 4279391129
-0.02879658 -0.022138737 -0.0034074206 4279455898
-0.026851315 -0.021986209 -0.0038844179 4279193503
-0.025085889 -0.021088086 -0.0050351415 4279651994
-0.023325671 -0.020190246 -0.0061845053 4279782809
-0.021200091 -0.020782776 -0.0059875008 4280241298
-0.019069131 -0.02137477 -0.005791733 4280044694
-0.017313913 -0.020476945 -0.0069395918 4280110739
-0.015563894 -0.019579411 -0.0080860872 4280176783
-0.013427388 -0.020170584 -0.0078913923 4280373134
-0.011682522 -0.019273192 -0.0090364348 4280437648
-0.0091382675 -0.021351293 -0.0075056087 4280961163
-0.0069856718 -0.021940805 -0.0073145609 4281158279
0.0021868777 -0.03644333 -0.017021447 4282731119
0.0066101961 -0.040047556 -0.017194103 4281683323
0.0075292699 -0.038471304 -0.021430463 4282667624
0.006194694 0.0082581937 0.031623811 4285425449
-0.017619379 0.011082754 0.029409315 4285427233
-0.01640759 0.014006197 0.026084546 4285558049
-0.014638219 0.014852695 0.024894286 4285820444
-0.011896309 0.012241013 0.027250882 4285885978
-0.0089349002 0.0089397505 0.030310772 4285885723
-0.0063485764 0.0070229769 0.031948626 4285623583
-0.0045602657 0.0078713894 0.030754041 4285361953
-0.0029833466 0.0094102472 0.028854262 4285362464
-0.00183459 0.012329422 0.025545444 4285427744
-0.0011299066 0.016627632 0.020831488 4285493278
0.00018532947 0.018853135 0.018239025 4285754908
0.0025685281 0.01762794 0.019170098 4285886234
0.0058400333 0.013645001 0.022911664 4286017303
0.0093654841 0.0089751631 0.027348157 4285493023
0.011579739 0.0084440112 0.027563829 4285296163
-0.019746557 0.0092793554 0.02871557 4285164329
-0.019085705 0.014295585 0.023266122 4285624604
-0.017701738 0.016532183 0.020661049 4285624094
-0.01594818 0.017379619 0.01947628 4285492259
-0.013809159 0.016839176 0.019707885 4285557793
-0.011070766 0.014218502 0.022058859 4285689629
-0.0087123625 0.012986377 0.022992235 4285558558
-0.0067498498 0.013141513 0.022511948 4285493789
-0.0049932189 0.01398968 0.021326791 4285559323
-0.0034504086 0.015530311 0.019438747 4285624604
-0.0023406632 0.018455274 0.016146075 4285623838
-0.00061037019 0.01930166 0.014967598 4285557539
0.0013312101 0.019455656 0.014492804 4285558049
0.0039304458 0.017534077 0.016123101 4285689374
0.0067674927 0.014922127 0.018450625 4285624348
-0.02137721 0.013206296 0.02187055 4285098539
-0.020361912 0.016843103 0.017853092 4285820953
-0.018803511 0.018388607 0.015963946 4285886999
-0.016870651 0.018540978 0.015490599 4285689628
-0.014547434 0.017301455 0.01642916 4285755419
-0.012213517 0.016062848 0.017365221 4285821463
-0.0098689087 0.014825217 0.018298697 4285690394
-0.0081228688 0.015674658 0.017117698 4285558813
-0.0063820593 0.016523771 0.01593804 4285558813
-0.004854884 0.018067576 0.014057027 4285690394
-0.0033382513 0.019610599 0.012178706 4285953044
-0.0014047883 0.019763835 0.011705825 4285886999
0.00074505433 0.019222848 0.011933737 4285887254
0.0031192452 0.017988242 0.012860555 4285886743
0.0057257079 0.016060732 0.014484255 4285558813
0.0078995228 0.015521921 0.014706582 4285099303
-0.021898612 0.012974642 0.019292701 4284966958
-0.021074641 0.017320894 0.014578214 4285624350
-0.019713532 0.019568846 0.011988508 4285624603
-0.017599132 0.019021928 0.012222769 4285821209
-0.015479326 0.018475495 0.01245583 4285755928
-0.012761425 0.01583562 0.014798695 4285690138
-0.010422651 0.014593087 0.015730366 4285558813
-0.0086818337 0.015444271 0.014552254 4285558813
-0.0069462545 0.016295217 0.013375469 4285624604
-0.0054240786 0.017842963 0.011498975 4285558814
-0.0037016235 0.01869303 0.010325601 4285624350
-0.0015574582 0.018149287 0.010553192 4285689884
0.00037591532 0.018302612 0.010080395 4285689883
0.0029656924 0.016367026 0.011703238 4285624349
0.0053499639 0.015128978 0.012624359 4285558814
0.0075207762 0.014587767 0.012845749 4285296419
-0.02178609 0.017812289 0.011312975 4285559069
-0.020243011 0.01936534 0.0094340798 4285558558
-0.018134251 0.018815756 0.0096680764 4285623839
-0.01582538 0.017566286 0.010603594 4285623839
-0.013308439 0.015617497 0.012238728 4285624093
-0.010575492 0.012970068 0.014571493 4285558558
-0.0086319186 0.013123669 0.014095807 4285558814
-0.0070989244 0.014676586 0.0122198 4285559069
-0.0057844222 0.016928129 0.0096469782 4285559069
-0.0040645488 0.017780162 0.0084758457 4285558558
-0.002349928 0.01863195 0.0073060449 4285558558
-0.00020869821 0.01808583 0.0075328406 4285624094
0.0023750104 0.016143218 0.0091522206 4285558559
0.0049746688 0.014201932 0.010767829 4285558814
0.0071424916 0.013658285 0.010988314 4285362464
0.0088625681 0.014510997 0.0098176133 4285628174
-0.02156347 0.014800839 0.011573171 4285493534
-0.020204011 0.017061807 0.0089936275 4285559068
-0.018476643 0.01791589 0.0078217387 4285755418
-0.016365457 0.017364398 0.008053584 4285886743
-0.013657421 0.014706098 0.010385832 4285821464
-0.0111279 0.012751833 0.012013009 4285755418
-0.0089872926 0.012202948 0.012237934 4285624349
-0.007661771 0.01446186 0.0096671637 4285624604
-0.0055210404 0.013913229 0.0098921638 4285559324
-0.0042166002 0.016170651 0.0073267613 4285690394
-0.0027149618 0.017725803 0.0054619256 4285755928
-0.0010081641 0.018579222 0.004295785 4285952789
0.0017852075 0.015928514 0.006607784 4285953044
0.0043787938 0.013980195 0.0082199313 4285689883
0.0069883242 0.012033209 0.0098283123 4285362208
0.0089348033 0.01218798 0.0093526207 4285429529
-0.021900684 0.013897344 0.0097224955 4285362208
-0.020354372 0.015459418 0.0078493152 4285559324
-0.01901022 0.01772584 0.00527847 4285886998
-0.016904663 0.017171644 0.0055100936 4285952279
-0.014399849 0.015208729 0.0071383342 4285886998
-0.011879019 0.01324714 0.0087627862 4285821209
-0.0099489652 0.013399653 0.008290397 4285624349
-0.0084286556 0.014960334 0.0064240005 4285558813
-0.006503772 0.015112646 0.0059530288 4285690139
-0.0052094348 0.017375849 0.0033949856 4285690138
-0.0035052486 0.018231131 0.0022310298 4285689373
-0.0018063374 0.019086167 0.0010684095 4285623583
0.00097810477 0.01642596 0.0033760611 4285689374
0.0037837978 0.013767563 0.0056786034 4285952023
0.0061637927 0.012516074 0.0065910462 4285493278
0.0081021842 0.012670226 0.0061173458 4285231139
-0.022237409 0.012998529 0.0078752283 4285296419
-0.020882253 0.015272267 0.0053065475 4285689884
-0.019351471 0.016837619 0.0034404416 4285623584
-0.017637089 0.017695144 0.0022750515 4285557794
-0.015337717 0.016431794 0.0032031517 4285623839
-0.013027634 0.015169367 0.004128756 4285689373
-0.011110969 0.015320793 0.0036596265 4285689884
-0.009398926 0.016178571 0.0024951342 4285558814
-0.0072774366 0.015623994 0.0027215611 4285624349
-0.0059905685 0.017893232 0.00017018802 4285887253
-0.0042942651 0.018750094 -0.00099021196 4285755163
-0.0023879223 0.018901259 -0.0014564041 4285492003
0.00060820952 0.015526585 0.0015384387 4285557794
0.0029690638 0.014269084 0.0024522208 4285624093
0.005340565 0.013012506 0.0033635367 4285559069
-0.023503326 0.01565402 0.0025393274 4285296164
-0.021786418 0.016513713 0.0013747849 4285887763
-0.020265955 0.018082626 -0.00048554502 4285755674
-0.018368222 0.018232226 -0.00095028896 4285624093
-0.016273867 0.017672881 -0.00071917009 4285689884
-0.01377577 0.01569628 0.00090102293 4285821463
-0.011867184 0.015847065 0.00043387152 4285624348
-0.010367502 0.017414846 -0.0014209244 4285558813
-0.0088783614 0.018981948 -0.0032730941 4285624349
-0.0069801994 0.019132234 -0.003737459 4285755929
-0.0052944161 0.019990437 -0.0048936605 4286018324
-0.0029686391 0.018725537 -0.0039747301 4285820953
-0.00019673258 0.016046762 -0.0016770605 4285821463
0.0021556318 0.01478415 -0.00076442212 4285821463
0.0042955726 0.014229499 -0.0005436521 4285558814
0.0059894472 0.015088901 -0.0017014239 4285165349
-0.024209544 0.016199976 -0.00068698265 4285033259
-0.022688877 0.017773136 -0.0025441451 4285493789
-0.020796683 0.01792217 -0.0030076271 4285756184
-0.018904377 0.018071331 -0.0034710532 4285821719
-0.016815674 0.017509311 -0.0032402035 4285756184
-0.01472158 0.016947851 -0.0030105803 4285624604
-0.012622111 0.016386904 -0.0027822088 4285558813
-0.010925815 0.017247811 -0.0039395932 4285558814
-0.00923476 0.018108398 -0.005095629 4285558814
-0.0077585317 0.019678928 -0.0069412626 4285558814
-0.0056561716 0.019118667 -0.00671326 4285624604
-0.0033336021 0.017849095 -0.0057968162 4285755674
-0.00056531653 0.015161254 -0.0035047885 4285624348
0.0015636571 0.014603429 -0.0032830443 4285559068
0.0034751184 0.014755316 -0.0037502553 4285624604
0.0051611159 0.01561629 -0.0049044657 4285231394
-0.024728943 0.016045138 -0.0032083299 4285361954
-0.023401473 0.018336438 -0.0057556387 4285427743
-0.021326538 0.017770909 -0.0055232216 4285558814
-0.019246195 0.017205887 -0.0052919928 4285558814
-0.016964361 0.015927948 -0.0043694135 4285558814
-0.014870614 0.01536423 -0.0041413549 4285558813
-0.012771487 0.014801055 -0.0039145276 4285559069
-0.011075117 0.015664145 -0.0050703194 4285559068
-0.009177275 0.015814275 -0.0055347048 4285559069
-0.0074887425 0.01667697 -0.0066884086 4285559069
-0.0055934414 0.016827129 -0.0071519986 4285558814
-0.0032687746 0.015553348 -0.0062393211 4285493023
-0.0011507645 0.014992289 -0.0060165804 4285493278
0.0011925269 0.013720222 -0.0051082913 4285493789
0.0033238269 0.013160489 -0.0048886677 4285559069
0.0052351691 0.013312474 -0.005355767 4285165604
0.0066906773 0.014886536 -0.0071924906 4284907798
-0.023172963 0.015331566 -0.0054923464 4285295908
-0.021283682 0.015480347 -0.005955141 4285492513
-0.01900778 0.014197417 -0.005034456 4285492513
-0.016525287 0.012199685 -0.0034252154 4285558303
-0.014821049 0.013065405 -0.0045815157 4285558304
-0.012719605 0.012500159 -0.0043568565 4285558558
-0.010816656 0.012650587 -0.0048225662 4285558813
-0.0087071434 0.01208625 -0.004599764 4285558813
-0.0072197504 0.013666458 -0.006441664 4285624604
-0.0046838559 0.011673637 -0.0048449812 4285624349
-0.0027754046 0.011824943 -0.0053117136 4285558813
-0.00064979866 0.011262327 -0.0050925007 4285492514
0.0010416098 0.012127899 -0.0062449491 4285426724
0.0031725615 0.011565953 -0.0060268687 4285492768
0.0050837696 0.01171793 -0.0064939344 4285165093
0.0067672748 0.012583204 -0.0076441998 4285037849
-0.022382002 0.010162517 -0.0031608893 4285558304
-0.020479601 0.010312319 -0.0036268989 4285624094
-0.018384051 0.0097441077 -0.0034027314 4285558303
-0.016283121 0.0091764405 -0.0031797914 4285558558
-0.014176805 0.0086093172 -0.0029580751 4285624348
-0.012266118 0.0087602139 -0.0034257872 4285624349
-0.01035535 0.0089112446 -0.0038934229 4285624348
-0.0084445365 0.0090623647 -0.0043610064 4285558304
-0.0063246898 0.0084967241 -0.0041422239 4285558049
-0.0041995198 0.0079316646 -0.0039247042 4285624094
-0.0022832528 0.0080835745 -0.0043933569 4285558558
-0.00058384612 0.0089518651 -0.0055462075 4285558558
0.0013298374 0.0091037974 -0.0060140556 4285492769
0.0034657419 0.0085400417 -0.0057988251 4285492513
0.005606968 0.0079768226 -0.0055848053 4285164584
-0.023693364 0.0055419356 -0.001066207 4284900913
-0.02196816 0.0064132139 -0.0022247443 4285558814
-0.019867744 0.005843021 -0.002003449 4285558303
-0.017954785 0.0059937462 -0.0024719788 4285558303
-0.016041737 0.0061446056 -0.0029404303 4285558304
-0.014128607 0.0062955692 -0.003408826 4285558304
-0.012014613 0.0057269484 -0.0031905593 4285492513
-0.010098692 0.005878374 -0.0036594709 4285558304
-0.0081827082 0.0060299188 -0.004128308 4285492514
-0.0062666722 0.0061815828 -0.0045970706 4285492513
-0.0039278045 0.0048956349 -0.0036977408 4285558049
-0.001792334 0.004329294 -0.0034842947 4285492514
0.00013178214 0.0044819415 -0.0039547784 4285492768
0.0018365867 0.0053529665 -0.0051072398 4285426723
0.0039800927 0.004787609 -0.0048954962 4285492259
0.0059042759 0.0049406216 -0.0053657303 4285033004
-0.023842786 0.0039463565 -0.0022057397 4285032239
-0.021930162 0.0040968135 -0.0026743645 4285493024
-0.019827455 0.0035246462 -0.0024553081 4285558304
-0.017911989 0.0036755577 -0.0029244581 4285558303
-0.01619171 0.0045489296 -0.0040798662 4285492768
-0.013882857 0.003255628 -0.0031768894 4285558559
-0.0119645 0.0034071133 -0.0036464902 4285558303
-0.0098428354 0.0028370246 -0.0034316406 4285558304
-0.0081275739 0.0037104562 -0.0045854812 4285492513
-0.006209027 0.0038623214 -0.0050548604 4285492513
-0.0040792488 0.0032932088 -0.0048417421 4285492513
-0.0019441321 0.0027246624 -0.0046298318 4285492513
0.0001963377 0.0021565929 -0.0044191051 4285492513
0.0021229871 0.0023095608 -0.0048901252 4285427234
0.0042714477 0.0017424151 -0.0046812147 4285426978
0.0064252149 0.0011758059 -0.004473526 4285426724
-0.02436113 0.0038019046 -0.0047197761 4285098284
-0.022266816 0.0032267496 -0.0045003844 4285493023
-0.020167094 0.0026521012 -0.0042821914 4285558304
-0.017869558 0.0013532639 -0.0033798795 4285558304
-0.016146567 0.0022290424 -0.0045343321 4285558303
-0.013835631 0.00093149394 -0.0036351345 4285492514
-0.011714384 0.00035905093 -0.0034219027 4285426724
-0.0097907931 0.00051105767 -0.0038927086 4285426979
-0.0080728158 0.0013869107 -0.005045576 4285427234
-0.0061517693 0.0015389398 -0.005515594 4285427233
-0.003808707 0.0002445057 -0.0046237539 4285493024
-0.0020958968 0.0011203289 -0.0057751574 4285493024
0.00026049465 -0.00017282367 -0.0048864167 4285492769
0.0021896549 -1.9647181e-05 -0.0053580403 4285558304
0.0045619756 -0.0013112724 -0.0044730734 4285557794
0.0064964741 -0.0011574253 -0.0049458258 4285426724
-0.024325769 0.0014837757 -0.005169956 4284966703
-0.022042222 0.00017917901 -0.0042676125 4285426723
-0.020127133 0.00032991916 -0.0047367811 4285492514
-0.017827511 -0.00097314268 -0.0038382504 4285492514
-0.0161018 -9.4987452e-05 -0.0049917474 4285426979
-0.013788771 -0.0013967454 -0.0040963218 4285426979
-0.011665214 -0.0019712523 -0.0038852505 4285426979
-0.0099419467 -0.0010928959 -0.0050379373 4285360933
-0.0082239099 -0.00021485984 -0.0061892029 4285361189
-0.0060948804 -0.00078852475 -0.0059792437 4285360933
-0.0039605014 -0.0013617203 -0.0057704821 4285426979
-0.0020341985 -0.0012090132 -0.0062415823 4285426979
0.00010820106 -0.0017812625 -0.006034635 4285361189
0.002037216 -0.0016281232 -0.0065062419 4285360934
0.0041876119 -0.0021994933 -0.0063010603 4285229863
0.0058953054 -0.0013214424 -0.0074491762 4285032239
-0.022005145 -0.0021472871 -0.0047245156 4285164839
-0.020087544 -0.0019963682 -0.0051943064 4285361189
-0.017977837 -0.0025744885 -0.0049817916 4285295399
-0.015862752 -0.0031520724 -0.0047705099 4285098283
-0.013742272 -0.0037291273 -0.0045603961 4285164073
-0.01201636 -0.0028484911 -0.0057121944 4285032749
-0.010093063 -0.002696529 -0.0061829388 4285098029
-0.0081697032 -0.0025444329 -0.0066536106 4285229098
-0.0060383715 -0.0031201616 -0.0064458027 4284966959
-0.0039017051 -0.0036953241 -0.0062392727 4284901423
