# .PCD v0.7 - Point Cloud Data file format
VERSION 0.7
FIELDS x y z rgba
SIZE 4 4 4 4
TYPE F F F U
COUNT 1 1 1 1
WIDTH 620
HEIGHT 1
VIEWPOINT 0 0 0 1 0 0 0
POINTS 620
DATA ascii
0.014011633 -0.044108503 -0.0035585172 4287181379
-0.013100225 0.014663935 0.0063978848 4284574768
-0.014980104 0.012260363 0.0063472972 4282286909
-0.013904419 0.016737528 0.0017829267 4282486829
-0.012026239 0.016859815 0.0014031949 4283925793
-0.010006186 0.016256921 0.001719323 4284250408
-0.015636493 0.013615862 0.0024320788 4281502528
-0.014298145 0.016649794 -0.00072995113 4280853043
-0.012564342 0.017499391 -0.0018033282 4280135219
-0.010127906 0.014711224 0.00059543061 4279094054
-0.0082469434 0.014833897 0.00021529457 4282354993
-0.0059250854 0.012775183 0.0019146135 4282880294
-0.0043350942 0.01435256 0.00014780159 4284643108
-0.017248821 0.0097548217 0.0037719684 4281238603
-0.016291451 0.014989279 -0.0014701813 4280787509
-0.014827181 0.017301239 -0.0039299559 4281111103
-0.012823913 0.016692735 -0.0036138082 4280197693
-0.010390978 0.013895534 -0.0012208403 4279222319
-0.0080805831 0.011829384 0.00047580013 4281439288
-0.0059007891 0.010493793 0.0014776964 4281571124
-0.0043079145 0.012075715 -0.00028644456 4281636914
-0.0025735348 0.012928054 -0.0013579124 4282812974
-0.00084442273 0.013780206 -0.0024282776 4284185893
-0.019133497 0.0073455572 0.0037183373 4281694544
-0.018284325 0.013329245 -0.0022101656 4280524604
-0.016944986 0.016380578 -0.005359449 4280982073
-0.015355159 0.017966166 -0.0071201632 4281437504
-0.013360213 0.017354857 -0.0068039456 4281306689
-0.010936122 0.014548331 -0.0044157221 4281111869
-0.0086344145 0.012475081 -0.0027222796 4280395828
-0.0064631216 0.011134498 -0.0017219032 4281046588
-0.0047288164 0.011988938 -0.0027918625 4281306943
-0.0028478205 0.012111902 -0.0031717937 4281700409
-0.0014305599 0.014428072 -0.0056165638 4282486573
0.00028529763 0.015281595 -0.0066825016 4282554148
0.0021558404 0.015404221 -0.0070600729 4280987173
0.0041890852 0.014796473 -0.0067508775 4282488358
0.0060624443 0.014919505 -0.0071288436 4284053293
-0.020404432 0.012404621 -0.0036420389 4281044549
-0.018926281 0.014730349 -0.0060950113 4280849474
-0.01733103 0.016320519 -0.0078536598 4278372914
-0.015746329 0.017910067 -0.0096100513 4280002874
-0.013618659 0.016561985 -0.0086044194 4280916284
-0.011480179 0.015214652 -0.0076008518 4279742519
-0.0090434216 0.012400284 -0.0052216626 4280654909
-0.0071707852 0.012522474 -0.0056000776 4281111358
-0.005148977 0.011911213 -0.0052906382 4281177404
-0.0035769865 0.013500601 -0.0070439647 4281112379
-0.0021700487 0.015822671 -0.0094818082 4280268584
-0.00030774996 0.015944626 -0.0098578054 4280787764
0.0018741898 0.014600962 -0.0088624777 4280330293
0.004391849 0.011792697 -0.0064990236 4279877923
0.0066006966 0.010450989 -0.0055089071 4282092343
0.0086524859 0.0098424852 -0.0052049309 4283597609
0.012244102 0.0026448667 0.001249328 4283596333
0.017101467 -0.0096731633 0.012473418 4284383518
-0.022268709 0.010010548 -0.0036894414 4281370949
-0.021162178 0.014554933 -0.0082114236 4280980034
-0.019436654 0.015412327 -0.0092768967 4280914243
-0.01771633 0.01626949 -0.010341238 4281110595
-0.015865687 0.016389795 -0.010715548 4280914499
-0.014014926 0.0165102 -0.011089806 4280977994
-0.011882294 0.015158139 -0.010088385 4280914753
-0.0095952637 0.013070747 -0.0084017459 4280915264
-0.0075845569 0.012456439 -0.0080918008 4280980799
-0.0057173148 0.012578383 -0.0084690498 4281112379
-0.0040015578 0.013436019 -0.009531891 4280721719
-0.0025995933 0.015764311 -0.011963842 4281307709
-0.00089972094 0.01662115 -0.0130233 4281568319
0.0012737215 0.015272506 -0.012029485 4280915263
0.0041070841 0.010985106 -0.0083038071 4280721718
0.0064777248 0.008904092 -0.0066333786 4281504059
0.0095350333 0.0038860738 -0.0022364876 4281438013
0.013481453 -0.0048012435 0.0055623618 4281634363
0.018357091 -0.017155163 0.016754987 4281895738
0.022621091 -0.026566923 0.02520619 4281896249
0.026241327 -0.033038579 0.030922402 4283657534
-0.024016235 0.00687249 -0.0030487347 4281955408
-0.023386229 0.014389403 -0.010323342 4281047353
-0.021663476 0.015248686 -0.011386708 4280459323
-0.019815903 0.015368551 -0.011760578 4280589374
-0.017702822 0.014010504 -0.010758718 4280980289
-0.015714291 0.013392106 -0.010446266 4281045314
-0.013858315 0.01351285 -0.010821578 4281045313
-0.012002233 0.013633698 -0.011196845 4280915263
-0.010002647 0.013016313 -0.010886331 4280980544
-0.0079975873 0.012399442 -0.010576881 4280980798
-0.0061358288 0.012521006 -0.010953035 4281176893
-0.0048796386 0.015593894 -0.01406537 4278700843
-0.0034906678 0.017927874 -0.016489811 4279808308
-0.0018041357 0.018786006 -0.017544955 4281371969
0.00067431852 0.01595756 -0.015186742 4281306433
0.0031742379 0.013130605 -0.012832796 4280459323
0.0065195709 0.0066205859 -0.0070762839 4280459323
0.010415521 -0.0020963699 0.00071302539 4280785214
0.015056312 -0.013755307 0.011210626 4281045824
0.019437142 -0.023935691 0.020331524 4281240898
0.022839975 -0.029693708 0.025362205 4281957448
-0.025354799 0.01275003 -0.011053985 4281046334
-0.024002966 0.015836749 -0.014179979 4279678513
-0.022290859 0.0166975 -0.015239584 4279612469
-0.01993474 0.013851084 -0.012864106 4278567478
-0.017689634 0.011747397 -0.011179195 4279742264
-0.015563529 0.010385893 -0.010183109 4281112634
-0.01384021 0.011247814 -0.011244656 4281113144
-0.012122128 0.012109533 -0.012305108 4281111358
-0.010552492 0.013711512 -0.014048437 4280915519
-0.0088475533 0.014572576 -0.015106012 4281046589
-0.0072964542 0.016173597 -0.016845487 4281046078
-0.0056046993 0.017034039 -0.017900217 4280916029
-0.0039182156 0.017894231 -0.018953813 4279548719
-0.0020804182 0.018014543 -0.019324889 4280199989
7.5984746e-05 0.016656075 -0.018334214 4280068663
0.00272898 0.013080515 -0.015304708 4280459323
0.0065611042 0.0043329746 -0.0075221681 4280915519
0.011461236 -0.0088438764 0.0043228329 4280915519
0.016287778 -0.021275491 0.015469817 4281241919
0.019996837 -0.028530851 0.021851499 4281436994
0.022882864 -0.03209047 0.024834454 4282347599
-0.026965965 0.0088782609 -0.0097223232 4281891914
-0.026081633 0.014951259 -0.015593016 4281110083
-0.024618287 0.017301947 -0.01802364 4281240643
-0.022662822 0.016676635 -0.017707977 4281501509
-0.020312887 0.013821095 -0.015337834 4280720189
-0.017941426 0.010967031 -0.012971923 4280654909
-0.01581848 0.0096009225 -0.011978484 4280916283
-0.013960112 0.0097217858 -0.012354312 4281242428
-0.012101609 0.0098427609 -0.012730085 4281047099
-0.010815185 0.012934729 -0.015835755 4281111869
-0.0095500462 0.016025428 -0.018937031 4281176638
-0.0078610294 0.016887736 -0.01998968 4281241918
-0.0058751442 0.016265452 -0.019679466 4281111103
-0.0040375553 0.016385645 -0.020050582 4281176638
-0.0021998994 0.016505938 -0.020421637 4281242430
0.0001151152 0.014401354 -0.018754862 4281176383
0.0030932948 0.0093320161 -0.014376454 4280981308
0.0075889714 -0.0024066269 -0.0039019815 4281046333
0.012504529 -0.015621752 0.0079104844 4281111869
0.017007094 -0.026607588 0.017672412 4281240899
0.020210225 -0.031661645 0.022005815 4282216784
-0.028826009 0.0064860508 -0.0097694015 4281957449
-0.027797725 0.011831559 -0.014946476 4280980034
-0.026563738 0.015682139 -0.018745471 4280522564
-0.024983879 0.017292704 -0.02048495 4281240388
-0.023160908 0.017410818 -0.020853955 4281371459
-0.020819794 0.014545925 -0.018488515 4280980033
-0.018457171 0.011682518 -0.016127359 4280003383
-0.016342726 0.010311522 -0.015135515 4280655418
-0.014355 0.0096865743 -0.014827745 4281046588
-0.012642194 0.01055228 -0.015883826 4280981818
-0.011363242 0.013652474 -0.018981479 4281177404
-0.0099600144 0.016006637 -0.021394346 4279287853
-0.008276321 0.016870823 -0.022444334 4278700843
-0.0059943125 0.014757164 -0.020776054 4278831148
-0.0038497411 0.013388924 -0.019789707 4281176638
-0.0018506236 0.012765497 -0.019483592 4281046588
0.00047174096 0.010654867 -0.017823245 4281112124
0.0041029602 0.0025958717 -0.01074912 4280785214
0.0089429505 -0.010663696 0.0010491782 4280785214
0.013712354 -0.023173437 0.012152078 4281045823
0.017215841 -0.029731818 0.017832804 4281828419
0.020078357 -0.033314988 0.020804074 4282673233
-0.029524732 0.0087028071 -0.014303886 4281174089
-0.028390106 0.013314083 -0.018782873 4280783684
-0.026923474 0.015677948 -0.021204479 4279480889
-0.025472719 0.018040895 -0.023622787 4280654909
-0.023531239 0.017410323 -0.023307621 4280328509
-0.021325637 0.015284233 -0.021629462 4278829619
-0.018971857 0.012411512 -0.019273048 4280068154
-0.01686592 0.011035584 -0.018282756 4280849984
-0.01488651 0.010407858 -0.017974902 4280915519
-0.013181705 0.011275239 -0.019027796 4280720954
-0.01176751 0.013636544 -0.021438088 4280655163
-0.010223906 0.015250035 -0.023166362 4280069174
-0.0083948001 0.01536943 -0.023535948 4280263994
-0.0061134472 0.013249166 -0.021872435 4279352624
-0.0038159601 0.01113008 -0.020212088 4280263993
-0.0016584285 0.0097584426 -0.019231535 4281178169
0.0013035983 0.0046572834 -0.014872765 4280654399
0.0054330491 -0.0056624264 -0.0057928837 4280654399
0.010622006 -0.020451352 0.0073217913 4280587334
0.014583889 -0.029268891 0.015019507 4280587334
0.017423928 -0.032864571 0.017987072 4282281553
0.019774411 -0.034222811 0.018929236 4282541653
-0.029642727 0.007186614 -0.015406674 4281371714
-0.028388742 0.011060193 -0.019193504 4280587334
-0.026919056 0.013430782 -0.021610854 4280326214
-0.02558906 0.016550962 -0.024706377 4280914243
-0.023774374 0.016668502 -0.025073731 4280914499
-0.021701235 0.01528579 -0.024080198 4280784704
-0.019353632 0.01240392 -0.021729063 4280653888
-0.017253514 0.011023231 -0.020740867 4280784704
-0.015416954 0.011142626 -0.021112321 4280916284
-0.013720121 0.012011625 -0.022161935 4280655163
-0.012313593 0.014379002 -0.024565842 4281046589
-0.010487396 0.014498085 -0.024934931 4281242174
-0.00866111 0.014617272 -0.025303958 4281436994
-0.0063830912 0.012490228 -0.023644678 4280850494
-0.0039357245 0.0096157715 -0.021313027 4280719423
-0.001310993 0.0059944242 -0.018310631 4280915518
0.0021333843 -0.0013663173 -0.011941273 4280915264
0.0067600347 -0.013959967 -0.00086517067 4280718403
0.011477668 -0.026547484 0.010192615 4280783684
0.01512016 -0.033894852 0.01652227 4281173579
-0.030703094 -0.00047561526 -0.010678766 4282410584
-0.029529419 0.0041642934 -0.015146236 4281306434
-0.028032783 0.0065429881 -0.017564211 4280979013
-0.026552025 0.0089208409 -0.019978909 4280849219
-0.025210802 0.012050465 -0.023070199 4281110340
-0.023259249 0.011416152 -0.022760358 4281240644
-0.021431204 0.011534654 -0.023130342 4281109828
-0.019339714 0.010148853 -0.022143722 4280849474
-0.01777475 0.011771992 -0.023870151 4280784704
-0.016083341 0.012642696 -0.024917128 4280915773
-0.014536846 0.014264822 -0.026639611 4280524603
-0.013000932 0.015886422 -0.028359907 4279808308
-0.011330593 0.016756095 -0.029402368 4281111358
-0.0093701296 0.01612325 -0.029093666 4281371969
-0.0071034692 0.013988912 -0.027436977 4280915263
-0.0042085089 0.0088525936 -0.023087725 4280524093
-0.00096458569 0.0022175983 -0.017399114 4280849984
0.0032779165 -0.0089168474 -0.007682947 4280849473
0.0080839097 -0.02229663 0.0040340209 4281045314
0.012331281 -0.032669678 0.013044574 4280978759
0.015322246 -0.037038267 0.016670078 4282152523
-0.029185858 -0.00037743151 -0.013532146 4281563728
-0.027560037 0.0012532994 -0.015268097 4281371458
-0.025944743 0.0028834939 -0.017001873 4281240644
-0.024586942 0.0060229078 -0.020090017 4281109828
-0.022871938 0.006896846 -0.021140493 4280914243
-0.021162156 0.0077705607 -0.022189828 4281044804
-0.019326095 0.0078896806 -0.022561369 4281240899
-0.017892417 0.010271572 -0.024961244 4281110339
-0.016337793 0.011898458 -0.026682202 4281045058
-0.014933284 0.014278673 -0.029076016 4280850238
-0.013544697 0.016657945 -0.031466458 4279872824
-0.012027193 0.018282801 -0.033179704 4280264248
-0.0099302046 0.016893681 -0.032196943 4280068663
-0.0073718391 0.01324591 -0.029197639 4280133688
-0.0041751489 0.0065880343 -0.023514267 4280591158
-0.00030808151 -0.0030777678 -0.01515332 4280981818
0.0041032508 -0.014996894 -0.0047924947 4281112123
0.0089220069 -0.028415188 0.0068925922 4280980034
0.01236498 -0.035056412 0.012526609 4281629773
0.015191171 -0.038685888 0.015472412 4282672979
-0.030378271 -0.0073305517 -0.0095145637 4282279769
-0.029189479 -0.0026635304 -0.013965583 4281630283
-0.027324859 -0.0025431439 -0.014343328 4281437248
-0.025580715 -0.0016653612 -0.01539825 4281435973
-0.023965072 -3.0733645e-05 -0.01712874 4281240388
-0.022359978 0.0016033798 -0.01885703 4281109829
-0.020636801 0.0024801493 -0.019907454 4281044804
-0.019050155 0.0041132271 -0.021631822 4280784959
-0.017742049 0.007258594 -0.024703048 4280980033
-0.016181905 0.0088902414 -0.026421912 4281045569
-0.014771659 0.011277325 -0.028811956 4281110594
-0.013519358 0.014419407 -0.031871628 4280914499
-0.012288343 0.017560214 -0.034926929 4281175873
-0.010341864 0.016922068 -0.034618672 4281241154
-0.0076398253 0.012507617 -0.030954946 4280915518
-0.0038367212 0.0028090775 -0.02260234 4280850748
0.00065746158 -0.0099048242 -0.011582828 4280916028
0.0052426271 -0.022612654 -0.00058159488 4280981308
0.0092758797 -0.032295704 0.007724788 4281110594
0.012071576 -0.035938293 0.01066852 4281760589
0.014727991 -0.038824566 0.012938831 4282607189
-0.02919339 -0.0049537718 -0.014401964 4281696838
-0.02732623 -0.0048332363 -0.014780239 4281567554
-0.025579397 -0.0039530769 -0.01583413 4281305923
-0.023837741 -0.0030731782 -0.016886847 4281436228
-0.022101309 -0.002193518 -0.017938429 4281370949
-0.020370085 -0.0013140664 -0.018988855 4281305158
-0.018775221 0.00032396615 -0.020711666 4281370693
-0.017190922 0.0019613653 -0.022432216 4281109829
-0.015480701 0.0028398037 -0.023478137 4281044803
-0.013914894 0.0044762865 -0.025194809 4280848709
-0.012643341 0.0076283589 -0.028251868 4280783684
-0.011682067 0.012294903 -0.032646094 4281044549
-0.0100169 0.013170868 -0.03368257 4280978503
-0.0071581714 0.0079862103 -0.029360324 4281044293
-0.0031942502 -0.0024975166 -0.020361427 4280979269
0.0016205981 -0.016762234 -0.0080344602 4280913988
0.0059056357 -0.027992085 0.0015997856 4281174598
0.0093076602 -0.034675419 0.0072126351 4282282829
0.011778545 -0.03681539 0.0088138208 4282542673
0.014597327 -0.04046718 0.011744805 4281953878
-0.028967727 -0.0087720677 -0.013491134 4281369163
-0.027327914 -0.0071273968 -0.015220177 4281567554
-0.025578354 -0.0062449351 -0.016272955 4281306688
-0.023834016 -0.0053626671 -0.017324653 4281436228
-0.022094872 -0.0044806376 -0.018375145 4281436484
-0.020489249 -0.0028377101 -0.02009692 4281501254
-0.018632237 -0.0027172863 -0.020472735 4281370694
-0.016775105 -0.0025967136 -0.020848464 4281240134
-0.015054177 -0.0017153621 -0.021894973 4281239879
-0.013338488 -0.00083430111 -0.022940306 4281174598
-0.011911351 0.0015670806 -0.025323907 4280913734
-0.010788824 0.0054877251 -0.029042609 4280718404
-0.0091049187 0.0063671321 -0.030081287 4280652614
-0.0063785091 0.001928024 -0.026442023 4280978758
-0.0020964183 -0.010104485 -0.016133532 4281043783
0.0025813468 -0.023650087 -0.0045081666 4281239623
0.0062515289 -0.031874686 0.002432425 4281370184
0.0088579878 -0.034782037 0.0046996102 4282673488
-0.028169166 -0.016424216 -0.0092219226 4281367888
-0.026977565 -0.011717722 -0.013644093 4281303628
-0.02545752 -0.0093046874 -0.016042361 4281633089
-0.023585025 -0.0091835856 -0.016421566 4281501764
-0.022088755 -0.00677187 -0.018814858 4281436228
-0.020480249 -0.0051244125 -0.020533966 4281501254
-0.018620703 -0.0050038099 -0.02091028 4281435974
-0.016894523 -0.0041201115 -0.02195628 4281435719
-0.015173573 -0.0032366067 -0.023001183 4281370439
-0.013457853 -0.0023533553 -0.024044888 4281369928
-0.011747371 -0.0014703274 -0.025087448 4281369673
-0.010042135 -0.00058753043 -0.026128862 4281239114
-0.008195322 -0.0004670471 -0.026502077 4281108043
-0.005600892 -0.0041561201 -0.023542656 4281434699
-0.0016100407 -0.014699161 -0.014594808 4281631049
0.0026105791 -0.025998771 -0.0049965824 4281826889
0.0059663206 -0.032724537 0.0005961883 4282478413
-0.024737623 -0.016203105 -0.012463624 4281626968
-0.023214411 -0.013783269 -0.014857544 4281498449
-0.021707077 -0.011364281 -0.017248183 4281305159
-0.020343598 -0.0081807151 -0.020304762 4280979524
-0.01860949 -0.0072944611 -0.021350836 4281044039
-0.016747307 -0.0071735755 -0.021727605 4281304648
-0.015156951 -0.0055225864 -0.023439527 4281369928
-0.013577174 -0.0038721412 -0.025149273 4281369928
-0.011866663 -0.0029869229 -0.026190212 4281304649
-0.0098734386 -0.0036308914 -0.025898034 4281304649
-0.0078747682 -0.0042743906 -0.025606859 4281369418
-0.005273331 -0.0079739392 -0.022656955 4281434443
-0.0012770258 -0.018547155 -0.013733009 4281630793
0.0021754652 -0.026060253 -0.0074794698 4281761864
0.0048947334 -0.029751688 -0.0045531387 4282021708
0.0070006959 -0.030387536 -0.0042831595 4282020179
0.010088254 -0.035602435 -4.0832856e-05 4282148444
-0.021988023 -0.023776546 -0.00862497 4281953878
-0.020826284 -0.019045494 -0.013021305 4281627734
-0.019440901 -0.015851788 -0.016075809 4281500488
-0.018076766 -0.012659349 -0.019125924 4281108299
-0.016467627 -0.011002913 -0.020838497 4281174088
-0.01500484 -0.0085798129 -0.023214893 4281631048
-0.01341952 -0.0069246963 -0.02492246 4281566024
-0.011703651 -0.0060369298 -0.025962912 4281434953
-0.0098492093 -0.0059160739 -0.026337761 4281304393
-0.0078481883 -0.0065616295 -0.026048653 4281434699
-0.0052450933 -0.010271959 -0.023107285 4281500489
-0.0015523657 -0.019343384 -0.01553175 4281696328
0.0014320537 -0.024580695 -0.011280282 4281694289
0.0038252547 -0.026752241 -0.0096831275 4282345303
-0.015258219 -0.020231962 -0.015303943 4282346834
-0.013904009 -0.017031208 -0.018345367 4281890639
-0.012571048 -0.013831727 -0.021382406 4281762119
-0.011118378 -0.011402547 -0.023751654 4281304393
-0.0096816458 -0.0089742541 -0.026117636 4281043273
-0.0078219175 -0.0088529512 -0.02649348 4281042508
-0.0050681904 -0.013342582 -0.022898864 4281435208
-0.0018273182 -0.020134978 -0.017327055 4281696839
0.0008443892 -0.023851484 -0.014407503 4282020434
-0.010112409 -0.019103408 -0.019570928 4282350149
-0.0087974183 -0.015896127 -0.022597635 4281631049
-0.0072114095 -0.01423189 -0.024298569 4281369163
-0.0044455044 -0.018733785 -0.020716179 4281434954
-0.0019504093 -0.021692425 -0.018459372 4281565513
0.00056612119 -0.024649546 -0.016206805 4282085713
-0.0035272315 -0.025692433 -0.017232096 4282935374
-0.0014682263 -0.026340455 -0.016959436 4281889363
0.00075017661 -0.027760528 -0.016030328 4282017628
0.046932176 -0.044644341 0.053984061 4282667879
0.046594217 -0.045660086 0.052037157 4282602343
0.043559838 -0.044632748 0.048473202 4282733158
0.040740691 -0.044314563 0.045598745 4282733414
0.040218495 -0.044573955 0.042989809 4282733159
0.037097044 -0.045203246 0.038210418 4282733158
0.034880839 -0.047047697 0.03738872 4282536044
0.036959957 -0.046909995 0.036970098 4282667369
0.034372259 -0.047274321 0.034800917 4282471274
0.036634374 -0.047876701 0.035056714 4282929254
0.031430319 -0.046144091 0.031290613 4282667879
0.028511569 -0.044994399 0.027789032 4282602344
0.025615988 -0.043825239 0.024296185 4282275689
0.028556786 -0.047424689 0.027235663 4282602344
0.022394717 -0.041137867 0.01947281 4282079083
0.025127916 -0.044001162 0.021741098 4281292408
0.022262115 -0.042798713 0.018265652 4282340714
0.02499445 -0.045670792 0.020527603 4282209389
0.019419488 -0.041576818 0.014798906 4282406503
0.022129532 -0.044459239 0.017058721 4282274923
0.024507482 -0.045832932 0.017982544 4282536554
0.019630298 -0.044740535 0.014929357 4282274668
0.022170905 -0.046875373 0.016516885 4282536554
0.01932722 -0.045637637 0.013062234 4281487993
0.02186447 -0.047779307 0.014645587 4282273648
0.016506724 -0.044380531 0.0096163228 4282537064
0.019024525 -0.046530098 0.011198564 4282733158
0.013213292 -0.040814698 0.0041939984 4282013803
0.015871678 -0.043735698 0.0064379638 4282602088
0.0096350834 -0.03568437 -0.002534546 4281161593
0.012918603 -0.041677646 0.0023503597 4281356924
0.005948849 -0.029743217 -0.009903471 4281294703
0.0095073469 -0.03729254 -0.0037035868 4280702084
0.012624282 -0.042535909 0.00051012577 4282274158
0.0058230348 -0.031329162 -0.011056396 4280505988
0.009217456 -0.038130619 -0.0055298586 4281094529
0.027643416 -0.048623592 0.0011079971 4282469233
0.0029793456 -0.029179826 -0.015103254 4280834684
0.0058565773 -0.03368701 -0.011552732 4280897923
0.008927945 -0.038964003 -0.0073527214 4281749623
0.0034805425 -0.033852473 -0.013626493 4282143598
0.0058897883 -0.036048949 -0.012052044 4281814904
0.010938063 -0.0023846626 0.048743311 4284966704
0.0039862953 0.0083335191 0.035576601 4285361443
0.0056463666 0.0098677501 0.033759911 4285952023
0.0077744983 0.0092945844 0.034071211 4285886488
0.010881443 0.0045094714 0.038629599 4285951769
0.014355801 -0.0016768798 0.044595495 4285886235
0.018548805 -0.010666862 0.053379506 4285229353
0.001430057 0.0086957216 0.032669008 4285164073
0.0027795285 0.011643656 0.029439952 4285689374
0.0044210888 0.013180993 0.027630307 4285492513
0.0065301582 0.012604415 0.027943762 4285623328
0.009130843 0.0099154338 0.030375484 4285754908
0.012082499 0.0058197826 0.034214698 4285623838
0.01489896 0.00243029 0.037342168 4285427233
0.018252544 -0.003068611 0.042578723 4285296164
0.021649051 -0.008564584 0.04780671 4285098794
-0.0012571551 0.0097800046 0.029060502 4285230375
0.00024395809 0.01202938 0.026544821 4285558814
0.0015752576 0.014984854 0.023325959 4285821464
0.0031982847 0.016525391 0.021523278 4285689629
0.0051291063 0.016651995 0.021133564 4285689373
0.0077075399 0.013952784 0.023563229 4285755674
0.01063659 0.0098424926 0.027397174 4285821464
0.013096143 0.0078527927 0.029113498 4285559068
0.015741751 0.0051583052 0.031529848 4285559069
0.018236235 0.0031711012 0.033239279 4285559068
0.020221017 0.0033018962 0.032839164 4285493279
0.022561744 0.0020219535 0.033842254 4285689629
0.025635753 -0.0020781457 0.037647463 4285754398
0.029658493 -0.0097014084 0.044948831 4285820189
0.0331822 -0.015205927 0.050138447 4285623073
0.037314802 -0.022821687 0.057417851 4285426979
-0.0022741072 0.012429871 0.023656253 4285427489
-0.0004866682 0.013266012 0.022559382 4285493278
0.0011418387 0.014811173 0.020758772 4285689883
0.002603393 0.017064728 0.018256132 4285886999
0.004844103 0.015773088 0.019275572 4285886744
0.00709562 0.014482208 0.020292945 4285821464
0.0098510794 0.011066668 0.023416266 4285624349
0.011798065 0.011194631 0.023023516 4285558813
0.014254339 0.0091982782 0.02473562 4285624604
0.016037058 0.010034963 0.023640335 4285624603
0.017989576 0.01016362 0.023246717 4285690138
0.019942127 0.010292381 0.02285317 4285689374
0.022616539 0.0075914562 0.025257474 4285754654
0.026044942 0.002062954 0.030453157 4285886234
0.029144596 -0.0020483807 0.034243539 4285623328
0.032841872 -0.0082782656 0.040121011 4285295653
-0.0046291761 0.012133114 0.021479178 4285230118
-0.0031407699 0.014394686 0.018975725 4285493279
-0.0010650307 0.013808995 0.019290734 4285624349
0.00055566803 0.015357949 0.017494995 4285558558
0.0021657497 0.016906373 0.015701447 4285623839
0.004241772 0.016321003 0.016016625 4285558559
0.0066463165 0.014314301 0.017734056 4285558813
0.0092311986 0.011598073 0.020149391 4285558814
0.011336911 0.011014968 0.020458814 4285558813
0.013278473 0.011142686 0.020067237 4285624348
0.015047848 0.011980668 0.018976266 4285887509
0.016462069 0.014238447 0.016488582 4285689373
0.018570676 0.013655931 0.016797792 4285557794
0.02122549 0.010944985 0.019199457 4285558049
0.024450649 0.0061070919 0.023688853 4285623838
0.027527679 0.0019811094 0.027473964 4285624348
0.031390119 -0.0049791038 0.034037605 4285558558
0.036261111 -0.015480436 0.044069 4285427233
0.041599773 -0.027393788 0.055474542 4285230118
-0.005045183 0.011972137 0.018917115 4285755164
-0.0032658055 0.012812003 0.017825043 4285885979
-0.0011903644 0.012224078 0.018138461 4285952534
0.00073720515 0.012350217 0.017749216 4285689883
0.0023528673 0.013903312 0.015957836 4285624349
0.0047513023 0.011889562 0.017671457 4285558814
0.0071658939 0.0098769441 0.019381948 4285559069
0.009432584 0.0085784346 0.020389739 4285559068
0.010876495 0.010844365 0.017900769 4285558813
0.012473784 0.012396835 0.016113454 4285624349
0.014232498 0.013236307 0.015026269 4285755929
0.015811149 0.014787726 0.013242916 4285952534
0.018088832 0.013490498 0.014248912 4285886744
0.020557363 0.011482179 0.015949078 4285886998
0.023773104 0.0066283643 0.02042887 4285690393
0.027211834 0.0010656267 0.025596391 4285624349
0.031257831 -0.0066281185 0.032839205 4285492768
0.035362761 -0.0143179 0.040070273 4285427233
0.039526604 -0.022003606 0.047289535 4285164074
-0.0070973188 0.010261804 0.018154435 4285163819
-0.0057507008 0.013252936 0.014958359 4285820699
-0.0039819703 0.014094278 0.01387006 4285820189
-0.0017670691 0.012787446 0.014884626 4285886488
0.00045864284 0.011481375 0.015897129 4285952789
0.0026951544 0.010176174 0.016907495 4285690139
0.0047839656 0.009587191 0.017216844 4285624604
0.0070393868 0.0082834214 0.018223539 4285624604
0.0089778714 0.0084106997 0.017832406 4285559068
0.010583356 0.0099679306 0.016046666 4285558813
0.011839766 0.012954131 0.012869532 4285624349
0.013934258 0.012366101 0.013178096 4285624349
0.015510444 0.013921782 0.011398471 4285689883
0.017962221 0.011905678 0.01309703 4285755674
0.020070229 0.011318877 0.013403117 4285689884
0.02364447 0.0050215125 0.019261047 4285493788
0.027452208 -0.0019862354 0.025802901 4285493789
0.032065369 -0.011844426 0.03510616 4285427999
0.035419054 -0.016704135 0.039547026 4285098538
-0.0091490187 0.0085519329 0.017391987 4285164073
-0.0076489896 0.01083371 0.014900696 4285690394
-0.0061648712 0.013114527 0.012412759 4285492513
-0.0045490824 0.014676079 0.010627587 4285492258
-0.0023426861 0.013364248 0.011640633 4285558049
0.00018046424 0.010617219 0.014048445 4285689373
0.0027251318 0.0078717098 0.016451992 4285690139
0.0049746297 0.00656306 0.017456528 4285558813
0.0070739202 0.0059727281 0.017762171 4285624604
0.0085238963 0.0082520545 0.015281677 4285624604
0.0099578761 0.010530502 0.012804472 4285624348
0.011375844 0.012807988 0.010330559 4285624093
0.013464682 0.012217402 0.010638631 4285689629
0.015384529 0.012343884 0.010251581 4285558558
0.017658565 0.011037566 0.011251782 4285558559
0.020302843 0.0082995966 0.013635982 4285558814
0.02406314 0.0012667179 0.020170964 4285493789
0.028802555 -0.0093420222 0.030155053 4285493533
0.033246748 -0.018513888 0.038740233 4285362209
-0.011884015 0.010448828 0.01312933 4285032749
-0.010389056 0.01273673 0.010643882 4285361698
-0.0087679438 0.014302738 0.008860779 4285624604
-0.0071574114 0.015868209 0.0070798458 4285887254
-0.0054100044 0.01671249 0.0059990948 4285953044
-0.0030673482 0.014674984 0.0077090343 4285887254
-0.00040293112 0.011198223 0.010809463 4285953044
0.0021328814 0.0084433705 0.013208257 4285689883
0.0043738633 0.0071297809 0.014211236 4285558813
0.0061431415 0.0079760402 0.013126474 4285624604
0.0074166059 0.010980628 0.0099587915 4285690394
0.009001106 0.012545221 0.0081838137 4285887508
0.010743815 0.013390064 0.0071046525 4285887254
0.013167385 0.011358783 0.0087988758 4285952788
0.01525864 0.010766268 0.0091048991 4285821719
0.017885979 0.0080183148 0.011485891 4285624604
0.020893928 0.0038349479 0.015245548 4285559069
0.025392056 -0.0060923696 0.024526032 4285493789
0.030704893 -0.018887028 0.036552969 4285493788
0.034425657 -0.025213823 0.042352088 4285296164
-0.011347782 0.015510395 0.0053174929 4285231139
-0.009600576 0.01635664 0.0042382483 4285231139
-0.0077139996 0.016479701 0.0038569896 4285559324
-0.0058273189 0.016602885 0.0034757899 4285624603
-0.003790576 0.016003609 0.0037904372 4285624603
-0.0011378638 0.012515128 0.0068850447 4285493278
0.0012310967 0.010472976 0.0085849268 4285558813
0.0036161952 0.0084320307 0.010281578 4285559069
0.0052141547 0.010001644 0.008506977 4285558813
0.0066381246 0.012292422 0.0060414844 4285690139
0.0082121305 0.013860703 0.0042718896 4285558304
0.010281544 0.013264328 0.0045805094 4285558049
0.012699109 0.011226021 0.0062710661 4285755419
0.015132777 0.0091889501 0.0079584299 4285689884
0.017936014 0.0057113171 0.011023466 4285558814
0.021663036 -0.0013676658 0.017532365 4285493789
0.026718162 -0.013486311 0.028855694 4285427999
0.031864356 -0.025598869 0.040160805 4285427999
0.035227276 -0.030504048 0.044565391 4285164073
-0.0079806633 0.01565443 0.0020344621 4285296929
-0.0059496872 0.01505246 0.0023485336 4285427999
-0.0040630288 0.015175745 0.0019674196 4285559069
-0.0017189123 0.013125315 0.0036672733 4285559324
0.00048623234 0.011800446 0.0046708905 4285493788
0.0027021542 0.01047644 0.0056723766 4285559069
0.0042869411 0.012049556 0.0039036931 4285558814
0.0056979209 0.014346033 0.0014457225 4285953298
0.0072587505 0.015917808 -0.00031796016 4285689884
0.0094829798 0.014594778 0.00068216841 4285558049
0.012060374 0.011825792 0.0030599837 4285623838
0.014833085 0.0083351359 0.0061228704 4285690139
0.018338796 0.0019542277 0.011935588 4285624603
0.022430412 -0.0065919533 0.019803436 4285427743
0.027859595 -0.020192504 0.03247235 4285427743
0.032283075 -0.029451214 0.040997855 4285230629
-0.0021465942 0.01302214 0.0011513742 4285035043
-0.00025720522 0.013145797 0.00076985604 4285297184
0.0019475333 0.011816673 0.0017703273 4285427998
0.0035218149 0.013393469 7.0209135e-06 4285427998
0.0049224757 0.01569581 -0.0024439814 4285624603
0.0064728148 0.017271265 -0.0042022793 4285887508
0.0086858571 0.015943132 -0.0032031564 4285821719
0.011251699 0.013164625 -0.00082956196 4285756184
0.014533773 0.0074860156 0.0042907111 4285690649
0.018564206 -0.0010905787 0.012151193 4285427743
0.02337509 -0.012563005 0.022745358 4285427744
0.028453413 -0.024754532 0.03400851 4285230118
0.0010368749 0.013903439 -0.0028080896 4285231904
0.0027581342 0.014755249 -0.0038766649 4285166113
0.0043112896 0.016335137 -0.0056323591 4285361954
0.0061847828 0.016458198 -0.0060103419 4285427999
0.0082264952 0.015853409 -0.0057010571 4285493278
0.01095698 0.012337975 -0.0026460881 4285558813
0.014755387 0.0044588 0.0045203301 4285493534
0.019669898 -0.0077809691 0.015788535 4285493534
0.024675447 -0.020014629 0.027038474 4285362208
0.028864289 -0.028606728 0.034847561 4285032748
0.0081038475 0.014312521 -0.006821129 4285099814
0.011003979 0.010056086 -0.003089068 4285296674
0.015669718 -0.0014961362 0.0074819727 4285296674
0.020773176 -0.01450187 0.01940378 4285295909
0.025615625 -0.026042178 0.02993932 4285098028
0.022225711 -0.02271685 0.024361655 4284969254
0.026196687 -0.030632518 0.03145754 4284903209
