# .PCD v0.7 - Point Cloud Data file format
VERSION 0.7
FIELDS x y z rgba
SIZE 4 4 4 4
TYPE F F F U
COUNT 1 1 1 1
WIDTH 753
HEIGHT 1
VIEWPOINT 0 0 0 1 0 0 0
POINTS 753
DATA ascii
0.0069762524 -0.031307451 -0.0039738864 4286855234
0.0095979739 -0.033393212 -0.002414681 4286398274
0.012035107 -0.034734003 -0.0015259273 4286267713
0.0068314578 -0.032977812 -0.0051864684 4287052093
0.009254707 -0.034324087 -0.0042980462 4286528578
0.0064918175 -0.033899434 -0.0070638135 4286920514
-0.0011765584 -0.03239622 -0.012800294 4286267204
0.0052303169 -0.033470161 -0.01279379 4286658884
-0.0085844733 -0.029185198 -0.017327581 4287379259
-0.0062355325 -0.030555062 -0.016436577 4286659649
-0.003692247 -0.032679819 -0.014885216 4286593604
-0.0085471869 -0.031579271 -0.017853159 4287445304
-0.0063769072 -0.032195203 -0.017627455 4286856253
-0.013011869 -0.031979054 -0.019493785 4286660413
-0.011027988 -0.03183753 -0.019928608 4286725693
-0.0086881742 -0.033216886 -0.019042239 4286659648
-0.0066988468 -0.033074737 -0.019478071 4287051839
-0.015645064 -0.031463452 -0.022226822 4286724673
-0.01349698 -0.032085747 -0.021999825 4287183164
-0.01151859 -0.031944647 -0.02243346 4287379769
0.024994461 0.0084802359 0.051636741 4281501764
0.018377118 0.013850033 0.043395504 4282085968
0.01835051 0.020728663 0.035767414 4281046334
0.019754749 0.022894002 0.03317019 4280198203
0.023934184 0.016314447 0.039890192 4280003383
0.015142554 0.015370525 0.039021425 4281499469
0.015337605 0.021596715 0.032122977 4280655673
0.016530473 0.024443578 0.028815109 4281306944
0.01791382 0.026613992 0.026227381 4281567808
0.021211805 0.022710018 0.030076768 4280916283
0.026496494 0.012736946 0.040347427 4280720953
0.032960564 -0.00060237944 0.054168954 4280655929
0.011534916 0.018271357 0.033225413 4281696838
0.012755128 0.021128766 0.029918 4281242174
0.013953991 0.023984749 0.026615333 4280460853
0.017134268 0.026983481 0.022879511 4280069683
0.019994311 0.024419788 0.025294542 4280135219
0.023960683 0.018473558 0.031268239 4279223338
0.028634103 0.010500982 0.039367713 4281047609
0.032704554 0.0045624524 0.04531879 4281307454
0.036598027 -0.00069628656 0.050548576 4281306434
0.0067334473 0.018339083 0.03074792 4282021709
0.0077694915 0.021886505 0.026728734 4280722229
0.0093812309 0.023391493 0.024859153 4280982329
0.011389211 0.02353584 0.024419878 4281438269
0.01319108 0.024360072 0.023267299 4281046589
0.014778815 0.025863647 0.021403126 4280590393
0.016990267 0.025328245 0.021678049 4280459834
0.01920704 0.02479336 0.021951839 4280394554
0.022513149 0.020863801 0.025779746 4280850493
0.026070761 0.01625777 0.030311227 4281046078
0.028777124 0.01436916 0.031995062 4281045568
0.031049844 0.013838679 0.032256886 4281437759
0.034237802 0.01059559 0.035352536 4280526388
0.039984077 -0.00010414422 0.046231776 4280721208
0.0037916135 0.01925078 0.02711682 4281957959
0.0040501431 0.02554037 0.020248588 4280460853
0.0058440268 0.026365943 0.019099195 4280982839
0.010635391 0.023923069 0.021078218 4280915773
0.012841199 0.023384899 0.0213526 4281111870
0.014843743 0.023529038 0.020914655 4280980798
0.017057551 0.02299165 0.02118738 4280915773
0.019062754 0.023136169 0.020748992 4280850238
0.021934379 0.020555824 0.023148455 4281111103
0.024388772 0.019339234 0.024125587 4281111359
0.026187966 0.020166017 0.022975653 4281046588
0.027083293 0.023715153 0.018996198 4280396339
0.029542893 0.022499219 0.019972395 4280917049
0.03431274 0.014481373 0.028011642 4280785979
0.041240249 0.00034757704 0.042390436 4280265014
0.00017742813 0.015239544 0.028932869 4282347088
0.00087297708 0.020182043 0.023494065 4281242174
0.0019159839 0.023751654 0.019489683 4280135728
0.0029323325 0.027319442 0.015491206 4281241408
0.0049106665 0.027461465 0.015058275 4281501763
0.0070894249 0.026919 0.015336741 4280915518
0.010085821 0.023639381 0.018457163 4280589628
0.012491718 0.022414431 0.019441254 4280980798
0.014908301 0.021190323 0.020423129 4281176638
0.01670232 0.022018567 0.019275699 4281111613
0.018704735 0.022162877 0.018837918 4281112124
0.020707134 0.022307299 0.018400222 4281242173
0.022709507 0.022451803 0.017962594 4281046333
0.024490073 0.023279488 0.016818345 4279678514
0.025591999 0.026155416 0.013557129 4280655163
0.027807994 0.025616568 0.013828162 4281632068
0.031407874 0.020983338 0.018327646 4281632834
0.036439691 0.012259156 0.027045142 4281242428
0.042011052 0.0021759272 0.037155069 4281242939
0.048375737 -0.0099471062 0.049357153 4281307453
-0.0012750179 0.018381856 0.022730328 4282023239
-0.00021787733 0.021963328 0.018730987 4281046589
0.0010048151 0.024855621 0.015449043 4279614253
0.0022061877 0.027746473 0.012171835 4280004403
0.0039788615 0.028574903 0.011030357 4280069174
0.0065470487 0.026655857 0.012729049 4278830894
0.0097399205 0.022678182 0.016551849 4280199478
0.012553744 0.020075761 0.018950526 4281112379
0.014347836 0.02090615 0.017804608 4281242684
0.01571482 0.023108266 0.015245177 4281242683
0.017492888 0.023937635 0.014102947 4281242173
0.019481823 0.024081092 0.013668198 4281307198
0.021470733 0.024224639 0.013233524 4281241408
0.023238029 0.025053572 0.01209382 4280329018
0.0245515 0.02725229 0.0095464401 4278961964
0.026983408 0.026025604 0.010522138 4280003384
0.030114673 0.022745714 0.013605572 4280265014
0.034433782 0.016045377 0.020196963 4280396084
0.038806211 0.0093490109 0.026776783 4280916029
0.0451326 -0.0028162301 0.038957678 4281306944
-0.001044739 0.015345663 0.02294993 4280780114
-0.00017076358 0.019628294 0.018246982 4281175364
0.00086323172 0.023219153 0.014260985 4281374010
0.0018705856 0.026808206 0.010280907 4280785468
0.0036406592 0.027638618 0.0091416314 4280850238
0.0062054917 0.025712769 0.010836136 4281046334
0.0093944296 0.021721654 0.014649928 4281046334
0.011793982 0.020487487 0.015628848 4281242173
0.013164084 0.022696339 0.013073537 4281112124
0.014307477 0.025592364 0.0098160133 4279484459
0.01585624 0.027110841 0.0079737157 4279875119
0.018258434 0.025877245 0.0089523308 4279157294
0.020452593 0.025332134 0.0092246942 4281046589
0.022873415 0.024100076 0.010199394 4281045568
0.02440872 0.025617961 0.0083603151 4281046334
0.027066838 0.023699798 0.010035146 4280980544
0.029970312 0.021095954 0.012408301 4280719168
0.034287378 0.014373578 0.018983737 4280849729
0.038423039 0.0083416626 0.024847053 4281175109
0.044980548 -0.0045497715 0.037699714 4281109829
-0.00062869117 0.011608735 0.023872837 4281237073
0.00025431067 0.015905157 0.019177757 4280521034
0.00091350824 0.020891197 0.013781421 4280655674
0.001924362 0.024491437 0.0098087788 4281307453
0.0036971848 0.025324244 0.0086705461 4281045313
0.0062639862 0.023391955 0.010359682 4280980033
0.0088468418 0.021460883 0.012045432 4281045568
0.011240561 0.020221867 0.013022378 4280916284
0.012397952 0.023127571 0.0097682923 4280721209
0.013323482 0.026722264 0.0058147497 4279939634
0.015074991 0.027554173 0.0046815835 4280199733
0.018116206 0.0242454 0.0077679195 4278701098
0.020747075 0.022318371 0.0094435997 4280654908
0.023172747 0.021082245 0.010414004 4281046334
0.024713641 0.022604972 0.0085769556 4281046079
0.027602937 0.019991256 0.010946587 4281045313
0.030742716 0.016690098 0.014011763 4280718149
0.035300262 0.0092575476 0.021268424 4280848964
0.039447412 0.0032067671 0.027114458 4281241663
0.045777276 -0.0090370774 0.03923548 4281697859
-0.00058634207 0.0092476159 0.023370583 4281237074
0.00048930943 0.012863256 0.019391805 4280781643
0.0015383177 0.016477093 0.015418943 4280259658
0.0023663864 0.020782918 0.010745883 4280587843
0.0041472763 0.02161853 0.009607479 4280979014
0.006122496 0.021760412 0.0091752931 4281174598
0.0080977343 0.021902382 0.0087431669 4281110084
0.0098680221 0.022737496 0.0076073594 4280849729
0.011217695 0.024957988 0.0050664321 4279350838
0.012761651 0.026484836 0.0032316335 4281045569
0.014720881 0.026626062 0.0028033108 4281502273
0.017542701 0.023998316 0.005180832 4281111360
0.020822484 0.019988097 0.0089554526 4280589628
0.023692293 0.017364018 0.011322632 4280784958
0.025912438 0.016816668 0.011586159 4281111359
0.029043179 0.013503812 0.014645025 4280782918
0.032429561 0.009501636 0.018396705 4281304648
0.036542896 0.0034286007 0.024235278 4281370184
0.040235523 -0.0012589991 0.02866872 4281695819
0.045861445 -0.011469573 0.038668312 4281760078
-0.0011026189 0.0089721084 0.020746578 4281432913
0.00034605339 0.011205599 0.018188324 4280846668
0.0013958886 0.014830448 0.014223486 4280129353
0.0028072819 0.017061472 0.01167354 4279868744
0.0043994896 0.018595628 0.0098311417 4279804229
0.0059810281 0.020129144 0.0079911016 4281043529
0.0075519346 0.02166196 0.0061535127 4281044804
0.0089073777 0.023889378 0.0036161225 4280979525
0.010246828 0.026115712 0.0010823589 4280263738
0.011990482 0.026951332 -4.5882538e-05 4279611449
0.014367171 0.025702637 0.00092844851 4279742518
0.017400891 0.022371419 0.0040000081 4279937594
0.020679396 0.018347971 0.0077650696 4280656184
0.024210706 0.013632827 0.012221921 4281175874
0.027108943 0.011002146 0.014576405 4281174853
0.030706875 0.0062920377 0.019018803 4281500744
0.034113314 0.0022782534 0.022756226 4281565259
0.037551731 -0.0017331541 0.026486792 4281956683
0.040553812 -0.0043559074 0.028818905 4282152524
0.045708425 -0.013213269 0.037403002 4281955919
-0.0019783974 0.0022711381 0.024916422 4282673233
-0.0010603778 0.0066093653 0.020243138 4280910929
1.4252961e-05 0.010246821 0.016280986 4280585549
0.0014447365 0.012485683 0.013731711 4280324428
0.0026653334 0.015421711 0.010483116 4279477318
0.004454378 0.016262248 0.0093462616 4279868489
0.0058395937 0.01849816 0.0068071224 4279803463
0.0074107535 0.020035379 0.0049727596 4280000068
0.0083574727 0.023664266 0.0010390673 4281109574
0.0098992828 0.025199614 -0.00078876689 4281110594
0.011640351 0.026037205 -0.0019147526 4280784704
0.014013866 0.024783898 -0.00094301067 4280590903
0.017043829 0.021441489 0.0021211784 4280786999
0.020536322 0.016708143 0.0065748952 4281242428
0.024507366 0.010585003 0.012414709 4281436738
0.028079866 0.0058575869 0.016851157 4281762374
0.031689666 0.0011330396 0.021279488 4281826123
0.034879565 -0.0021973103 0.024309106 4282021709
0.037633527 -0.0041346103 0.025943544 4281955919
0.041105263 -0.0081565827 0.029657029 4282020943
0.046501867 -0.017737173 0.038912237 4282020433
-0.0019470714 0.0077474415 0.016221389 4280254813
-0.00050552562 0.0099935606 0.013674542 4279474259
0.00072902814 0.012939192 0.010429416 4279605839
0.002329696 0.014482632 0.0085915923 4279801169
0.0041161329 0.015325159 0.0074569359 4279539794
0.0058972612 0.01616741 0.0063235238 4279931474
0.0074713305 0.01770924 0.0044917539 4279864153
0.0088303536 0.019950017 0.0019634757 4279799128
0.010173362 0.022189796 -0.00056125969 4280783429
0.012129568 0.022330716 -0.00098898821 4281175363
0.014510572 0.021073617 -2.2200868e-05 4281241918
0.017762542 0.017021835 0.0037289299 4281372478
0.02169973 0.010876454 0.0095613003 4281567808
0.025464505 0.0054331496 0.014687743 4281499724
0.028825795 0.0013895705 0.018415224 4281695053
0.0319933 -0.0019534379 0.021441475 4282021454
0.034959026 -0.0045965165 0.023768254 4281890128
0.038408201 -0.0086333603 0.027476743 4282086478
0.042590588 -0.01476036 0.033256046 4282282319
0.047530182 -0.022975743 0.04110086 4282150994
-0.0010244921 0.0097493604 0.01107474 4278819928
0.00058707967 0.011297815 0.0092377774 4279147348
0.0021880008 0.012845643 0.00740318 4278952273
0.003974501 0.01369036 0.0062701441 4279342934
0.005755689 0.014534794 0.0051383562 4279604054
0.0075315498 0.015379004 0.0040077642 4279994203
0.0093020983 0.016222887 0.0028784629 4279603034
0.010860445 0.017768152 0.0010536276 4279475024
0.012617655 0.018611297 -7.260032e-05 4280259914
0.015430575 0.015947826 0.0022804886 4280978249
0.018909488 0.011182718 0.0067141764 4281043784
0.022860833 0.0050186589 0.012528688 4281108809
0.026419733 0.00025957078 0.016945019 4281825868
0.029347299 -0.0023952425 0.019273419 4281955919
0.032296166 -0.0050483793 0.021597259 4281955919
0.03572277 -0.009100087 0.025300756 4281955409
0.040104907 -0.0159491 0.031763583 4282020688
0.044540331 -0.022794113 0.038214825 4282151759
0.0020463355 0.011208929 0.0062149651 4279274594
0.0038328953 0.012055844 0.0050835609 4279340639
0.0056141466 0.012902476 0.003953401 4279994714
0.0075914264 0.013044588 0.0035208222 4280125529
0.0095687211 0.013186835 0.0030883346 4280061269
0.011546019 0.013329163 0.0026559178 4279801424
0.013523318 0.013471603 0.0022235829 4279999304
0.016772728 0.009393312 0.0059554651 4279999304
0.020268833 0.0046141669 0.010373875 4281303628
0.02401964 -0.00086530298 0.015477095 4281564749
0.026933003 -0.0035299808 0.01780197 4281695309
0.029644981 -0.0054903105 0.019430585 4281956174
0.03327436 -0.01025939 0.023820199 4281890384
0.036941059 -0.015025705 0.028201785 4281824338
0.042029228 -0.024001926 0.036714993 4281824338
0.0054726303 0.011270456 0.0027686544 4279797853
0.0074497834 0.011412568 0.0023361146 4280322389
0.0092231035 0.012261063 0.0012094341 4280061778
0.011404108 0.011697106 0.0014712587 4280323919
0.013590433 0.011133693 0.0017319582 4280194378
0.017264899 0.0056309924 0.0068385825 4280194378
0.020982027 0.00013154 0.011935927 4281369418
0.02430751 -0.0039542317 0.015641548 4281695053
0.02700546 -0.0059221983 0.017268188 4281825358
0.030609405 -0.010708585 0.021651834 4281956174
0.034926154 -0.017606266 0.028095946 4281955919
0.039296214 -0.024499983 0.034528483 4281955409
0.0071071796 0.010489494 0.00045841187 4279536223
0.0088779144 0.01133997 -0.00066599995 4279539283
0.011055909 0.010773651 -0.00040520728 4279278673
0.013657186 0.0087916553 0.0012373533 4280128588
0.017121017 0.0039793998 0.0056398138 4280585293
0.020836476 -0.0015376881 0.010724399 4281498703
0.023943689 -0.0049291179 0.013730787 4281628753
0.027077544 -0.0083185434 0.016731419 4281890129
0.031127289 -0.014534332 0.022480324 4281889874
0.036124915 -0.023574226 0.030970484 4281757783
0.040508911 -0.030488789 0.037383601 4281951839
0.0081262477 0.011844859 -0.0039199833 4279210588
0.010295914 0.011275753 -0.0036590062 4279604818
0.013306029 0.0078660473 -0.00063984655 4279932749
0.016977157 0.0023281053 0.0044412687 4280454734
0.020690946 -0.0032066032 0.009513095 4281367633
0.024013851 -0.0073187873 0.013199612 4281694034
0.027368724 -0.011428505 0.016879201 4281759058
0.031866159 -0.01908233 0.023986381 4281561943
0.036647029 -0.027440958 0.031767171 4281494114
0.013372447 0.0055202171 -0.0011372082 4279404899
0.01683332 0.00067713112 0.0032429509 4280385628
0.020759366 -0.005587317 0.008989118 4281496153
0.023867048 -0.0090005845 0.011979006 4281691994
-0.0041565001 0.00044667721 0.024142705 4281817964
-0.0066436566 0.0079143569 0.013789568 4280571269
-0.0053766295 0.010870747 0.010543656 4278410398
-0.0093160495 0.0082396418 0.010924641 4278405553
-0.0084058233 0.012616508 0.0062823668 4278404534
-0.0064315125 0.012757666 0.0058498792 4278470068
-0.0040864497 0.011488132 0.0068172179 4278866339
-0.010924071 0.0043296441 0.012269605 4279127713
-0.010343179 0.01013758 0.0062316358 4278471088
-0.0087260343 0.011694781 0.0043996423 4279125419
-0.0044126473 0.010561571 0.0049325004 4279061414
-0.002435673 0.010703124 0.0044995844 4279128478
-0.00026817247 0.01013758 0.0047638305 4278672538
-0.013406925 0.003959462 0.010110822 4279062943
-0.011014469 0.010637105 0.0029516518 4278995624
-0.0090458281 0.010777734 0.0025203172 4279520159
-0.0072594061 0.011628442 0.0013917945 4279061414
-0.0029518828 0.010490678 0.0019227639 4279061669
-0.00059973821 0.0092130974 0.0028821323 4278735778
0.0011842176 0.010064118 0.0017544478 4278539938
-0.016868189 -0.00082213432 0.012586936 4280504713
-0.015709184 0.0028861687 0.0086548924 4278866339
-0.014233895 0.0051668137 0.00612472 4278538664
-0.0030924231 0.008863695 0.00074153766 4278865573
-0.0011210069 0.009004958 0.00030991621 4278342058
0.00046491623 0.010569163 -0.0015082397 4278670243
0.0024310704 0.010710247 -0.0019385535 4279653778
0.0041991547 0.011562496 -0.0030609183 4278278818
-0.020481624 0.0038240179 0.0055424944 4278603689
-0.016861521 0.0055363402 0.0032806769 4278472364
-0.014716811 0.0049617663 0.0035444368 4278735014
-0.013262335 0.0072475746 0.0010238234 4278865318
-0.011823777 0.0095323697 -0.0014932305 4278799783
-0.0098634064 0.0096723735 -0.0019227751 4278275249
-0.0077210553 0.0090980679 -0.0016581677 4278406574
-0.0053887255 0.0078101233 -0.00070123747 4278865829
-0.0032329224 0.0072370544 -0.00043945014 4278734759
-0.0014515519 0.008092083 -0.0015633479 4278603434
0.0038607568 0.010655656 -0.0049276054 4278534839
0.0058214925 0.010796584 -0.0053565633 4279128224
0.031715807 -0.020801574 0.022738665 4280507008
0.036494218 -0.029186606 0.030500341 4280636804
0.040200301 -0.034011222 0.034827411 4282602344
-0.023789376 -0.0016813651 0.0087133534 4281684599
-0.022920541 0.0034868866 0.0033964366 4278864554
-0.015198946 0.0047658458 0.00097071007 4278603688
-0.013575651 0.0063406453 -0.00084969215 4278734759
-0.011786543 0.0071978793 -0.0019740537 4278735014
-0.010002706 0.0080548599 -0.0030972455 4278735014
-0.0080423988 0.0081949756 -0.0035266932 4278669224
-0.0057132542 0.0069023594 -0.0025723241 4278800038
-0.0039345473 0.0077592805 -0.003694078 4278537898
-0.0021611378 0.0086159781 -0.0048146341 4278733993
0.0054807123 0.0098941848 -0.0072191842 4278930089
0.0078447834 0.0086048916 -0.0062718466 4279063454
0.010013791 0.0080313534 -0.0060140081 4278345119
0.024153052 -0.012110271 0.012128331 4281032053
0.027510675 -0.016246021 0.015787654 4280964988
0.032008938 -0.023947939 0.02285862 4280833409
0.036117028 -0.030218437 0.028550617 4280702083
-0.026075937 -0.0027453527 0.0072601177 4279784338
-0.025505118 0.0038802549 0.00055860542 4278669223
-0.024020977 0.0061807185 -0.001959119 4278798764
-0.022226971 0.0070398971 -0.003083365 4278997154
-0.020438191 0.0078988075 -0.0042063706 4279127458
-0.018150046 0.0065982565 -0.0032468457 4278996134
-0.016022004 0.006018132 -0.0029827766 4278341039
-0.013888534 0.0054384544 -0.0027197674 4278669478
-0.012102056 0.0062977001 -0.003841985 4278735269
-0.010141961 0.0064376667 -0.0042714849 4278603944
-0.0081817918 0.0065777525 -0.0047009215 4278735014
-0.0062215663 0.0067179427 -0.0051302835 4278603689
-0.0044481456 0.0075766668 -0.0062492527 4278537644
-0.00091716275 0.0092933178 -0.0084834583 4278931364
0.0010352433 0.0094334036 -0.0089107715 4278800548
0.0033827405 0.0081383511 -0.0079633109 4278733738
0.0053405371 0.0082790628 -0.0083916206 4278602923
0.0077040866 0.006985344 -0.0074474607 4278669478
0.0098727699 0.0064096227 -0.00719117 4278801058
0.013295997 0.0015331209 -0.0028258692 4278933914
0.017178312 -0.0047739521 0.0029002689 4279264139
0.021108625 -0.011077426 0.0086160116 4280507008
0.024222104 -0.014512144 0.011588246 4280833154
0.027581107 -0.01866094 0.015237477 4280898434
0.031636693 -0.024955027 0.020926103 4280701828
0.035516024 -0.03052976 0.025922798 4281095293
-0.0289644 -0.0009117648 0.0030263625 4279455899
-0.027762774 0.0028426722 -0.00088271685 4278669734
-0.026430327 0.0058726594 -0.0040913709 4278406573
-0.014374353 0.0052625462 -0.0052774958 4278865829
-0.012241129 0.0046808198 -0.0050160401 4278735014
-0.010459848 0.0055419356 -0.0061353557 4278669479
-0.0090465173 0.0078448057 -0.0086319707 4278734759
-0.0069130808 0.0072633848 -0.0083702691 4278735269
-0.005147621 0.008123748 -0.0094859116 4278800294
0.0075634122 0.0053661093 -0.0086228438 4278800039
0.010553148 0.0019110814 -0.0056320932 4278930853
0.013985565 -0.002980046 -0.0012802631 4278735524
0.017666005 -0.0085872784 0.0037463699 4278605219
0.020962406 -0.012753896 0.0073992386 4280374664
0.02407478 -0.016199611 0.010363534 4280636294
0.027432488 -0.02036161 0.014003206 4280373898
0.031486195 -0.0266755 0.019677512 4280374154
0.035363834 -0.032267839 0.024661463 4280768129
-0.032613173 -0.0049977973 0.0047957823 4282733414
-0.032122195 0.0023971573 -0.0025864001 4278536623
-0.028673351 0.0048496053 -0.0055258796 4278800548
-0.027039316 0.0064375848 -0.007339336 4278603944
-0.025415804 0.0080249235 -0.009150397 4278406828
-0.023640368 0.0088871494 -0.010267362 4278275249
-0.021539833 0.0083004013 -0.01000068 4278275249
-0.019433871 0.0077141896 -0.0097351559 4278537898
-0.017151996 0.006404534 -0.0087807402 4278734759
-0.014859363 0.0050957128 -0.0078285672 4278800294
-0.012731802 0.0045113862 -0.0075675175 4278734504
-0.007603433 0.0078223646 -0.011600498 4278668203
-0.0052864626 0.0065159053 -0.010653257 4278473129
-0.0033370852 0.0066555515 -0.011080079 4278407083
-0.0015794747 0.0075177252 -0.012192146 4278668969
0.0003673248 0.0076574236 -0.012618224 4278406574
0.0054599158 0.0036059916 -0.0093686692 4278865573
0.0082327053 0.00086056441 -0.0070660729 4278931108
0.011642318 -0.0040476397 -0.0027207509 4279128479
0.01488144 -0.0082317665 0.00093461387 4279194523
0.018152568 -0.012413479 0.0045831278 4279587734
0.021029359 -0.015150927 0.0068633482 4280047244
0.024143297 -0.018607445 0.0098191127 4280243594
0.027065387 -0.021341421 0.012089659 4280177804
0.031114548 -0.027675301 0.017750219 4280374154
0.034987845 -0.033285484 0.022722054 4280374409
0.038450778 -0.037452549 0.026329182 4282209899
-0.035165571 -0.0045895949 0.0019602925 4282667879
-0.033451416 0.0066046715 -0.0093032829 4278338489
-0.027333166 0.0055617616 -0.0091948342 4278538154
-0.025871735 0.0078802332 -0.011692873 4278734503
-0.024101559 0.0087442249 -0.012806999 4278734759
-0.021841731 0.0074283853 -0.011851215 4278734759
-0.019571122 0.0061133802 -0.010897662 4278669224
-0.016949169 0.0033469647 -0.0085695963 4278734503
-0.01499765 0.0034860671 -0.0089974143 4278472363
-0.013046052 0.0036252812 -0.0094251595 4278537134
-0.0054252744 0.0049083605 -0.011820387 4278406828
-0.0034760311 0.0050479844 -0.012247186 4278669224
-0.0017183758 0.0059123486 -0.013357624 4278734759
0.00022827834 0.0060520098 -0.01378369 4278800293
0.0029628072 0.003294833 -0.0114794 4279062434
0.0061179437 -0.00090878457 -0.007815754 4278931108
0.0095073953 -0.0058338866 -0.003477592 4278932383
0.012729224 -0.010032482 0.0001716353 4279457173
0.015775425 -0.013505168 0.003133757 4279850894
0.018637994 -0.01625254 0.005410485 4279981709
0.021095963 -0.017552093 0.0063245371 4279981709
0.024211457 -0.021019414 0.0092717707 4280112523
0.027571885 -0.025207393 0.012891177 4280702083
0.031406205 -0.030837983 0.017858341 4281422458
0.035283133 -0.036465332 0.022816256 4282733158
-0.038146809 -0.012342021 0.0071951672 4282602344
-0.037841171 -0.003436096 -0.0015621483 4279652503
-0.037312396 0.0040049478 -0.0089200884 4278667948
-0.035813883 0.0063320175 -0.011421788 4278405808
-0.034182429 0.0079281852 -0.013228404 4278800038
-0.029718149 0.0052827969 -0.011311999 4278537388
-0.027469818 0.0039613694 -0.01035719 4278734248
-0.025689054 0.0048281625 -0.011472106 4278800038
-0.023913521 0.005694747 -0.012585839 4278669223
-0.021813635 0.005103536 -0.01232232 4278538153
-0.019708332 0.0045128688 -0.012059953 4278669479
-0.017427497 0.0031943843 -0.011111882 4278603433
-0.014061645 0.0056557432 -0.014021967 4278668203
-0.012657765 0.0079774559 -0.016501889 4278865573
-0.010727499 0.0081153661 -0.016924795 4278538153
-0.008430291 0.0067986101 -0.015979882 4278602924
-0.0055640414 0.0033011138 -0.012987301 4278472363
-0.0036149472 0.0034407303 -0.013414074 4278669479
-0.0014743619 0.0028535947 -0.013158597 4278603943
0.00086568296 0.0015403926 -0.012222707 4278996898
0.0040035062 -0.0026777014 -0.0085651949 4278865829
0.007372804 -0.0076196566 -0.0042341743 4278997409
0.010577329 -0.011832722 -0.00059107132 4279063709
0.013199557 -0.013865791 0.0010074917 4279653269
0.015837777 -0.015897579 0.0026026573 4280046988
0.018702088 -0.018653505 0.0048724264 4280309129
0.021587729 -0.02140785 0.0071376488 4280178314
0.025140993 -0.026335813 0.011428989 4280178058
0.028513446 -0.030536018 0.015035946 4281422714
0.031917866 -0.034733802 0.018636011 4282667623
-0.040493488 -0.0022630319 -0.0050762668 4280374153
-0.039384715 0.0022704676 -0.0096551981 4278735014
-0.036241047 0.0062053204 -0.013958538 4278668203
-0.034466095 0.0070734546 -0.015070948 4278734503
-0.032242522 0.0057456791 -0.014114147 4278864808
-0.027763013 0.0030927584 -0.012207463 4278537643
-0.02566636 0.0024989396 -0.011945102 4278734504
-0.024050031 0.0040989891 -0.013744757 4278669479
-0.02195048 0.0035055578 -0.013482817 4278538153
-0.020180013 0.0043741763 -0.014593635 4278603944
-0.018074941 0.0037813857 -0.014332727 4278734503
-0.01630963 0.0046498626 -0.015442245 4278340784
-0.012972668 0.0071159527 -0.018340915 4278340529
-0.011045203 0.0072536469 -0.018763218 4278602924
-0.0087511837 0.0059323013 -0.017820887 4278275504
-0.0037538335 0.0018337891 -0.014580727 4278866338
-0.0012310892 -0.00021359324 -0.012965769 4278866594
0.0015015975 -0.0029885098 -0.010674268 4278932383
0.0048453882 -0.0079477206 -0.006349232 4278998174
0.0080272723 -0.012175642 -0.0027110931 4279522964
0.011039261 -0.015672877 0.00024194829 4279850638
0.013464173 -0.016983874 0.0011563543 4280112779
0.01610701 -0.019021891 0.0027455855 4280308619
0.019185657 -0.022513948 0.0056843385 4280505224
0.022716116 -0.027458973 0.0099691078 4280701828
0.026068628 -0.031673864 0.013570495 4281881458
-0.041366272 -0.010628007 0.00040377863 4282536554
-0.041318811 -0.00019855052 -0.0096994638 4278931874
-0.040081941 0.0036123469 -0.013575831 4278735013
-0.027899373 0.0014951751 -0.013367794 4278734504
-0.026121195 0.0023661554 -0.01447895 4278799783
-0.024671696 0.0047034621 -0.016959541 4278734503
-0.022909276 0.0055735186 -0.01806701 4278734248
-0.020817965 0.0049774647 -0.017804863 4278865828
-0.018721215 0.0043819174 -0.017543821 4278603944
-0.016963847 0.0052519515 -0.018649932 4278603689
-0.006027218 0.00081916898 -0.01600055 4278538409
-0.0037042871 -0.0005043 -0.015067615 4278801824
-0.00079748034 -0.0040205047 -0.012100117 4278342569
0.0052925926 -0.011777662 -0.0055046212 4279456408
0.0082821287 -0.015287556 -0.0025549512 4279784339
0.010894902 -0.017334543 -0.00096423738 4280046734
0.013523683 -0.019380219 0.00062308647 4280177804
0.016582562 -0.022884779 0.0035578515 4280636293
0.020087529 -0.027847007 0.0078366101 4281029759
0.023842214 -0.033536129 0.012781613 4282078319
-0.041041635 -0.0040094331 -0.0087942015 4278603943
-0.04007645 0.0012870207 -0.014041215 4278604453
-0.038862616 0.005107291 -0.017904285 4278931873
-0.036801897 0.0045059547 -0.017637754 4278997154
-0.034883924 0.0046415702 -0.01805903 4279062178
-0.032814935 0.0040410385 -0.017794158 4278800038
-0.030586928 0.0027049035 -0.016844828 4278800038
-0.028191935 0.00063380599 -0.015212893 4278734504
-0.026734121 0.0029781237 -0.017690487 4278406573
-0.019535869 0.0057308897 -0.021427132 4278471089
-0.017100275 0.0036633313 -0.01980353 4278538409
-0.015348114 0.00453531 -0.020906769 4278537898
-0.013423681 0.004672654 -0.021328509 4279062433
-0.011138763 0.0033417717 -0.020390835 4278866594
-0.0086602457 0.0012777522 -0.018776286 4278997409
-0.0057946183 -0.0022525638 -0.015808141 4278736289
-0.003278695 -0.0043136254 -0.014201653 4278605218
-0.00017411634 -0.0085737184 -0.010566477 4278998174
0.0055424981 -0.014887474 -0.0053454805 4278932128
0.008337386 -0.017675124 -0.0030805562 4279719314
0.0109521 -0.019728504 -0.0014951695 4280177293
0.014195403 -0.023977965 0.0021100882 4280832134
0.017677572 -0.028957285 0.0063823164 4281421439
0.021406585 -0.034665875 0.011319738 4282731883
-0.04062812 -0.0085726157 -0.0072108284 4279653269
-0.039371029 -0.0047385022 -0.011075309 4278867104
-0.038140416 -0.00090614706 -0.01493389 4278801059
-0.036500163 0.00070790946 -0.016729491 4278801058
-0.034722395 0.0015827045 -0.017837601 4278932129
-0.03294982 0.0024572834 -0.018944526 4278604198
-0.03072232 0.0011167377 -0.017998368 4278735014
-0.02864008 0.00051517785 -0.017737878 4278341293
-0.027504586 0.004341498 -0.021575047 4278602923
-0.0198409 0.004886277 -0.023256188 4278537644
-0.017236672 0.0020749941 -0.020956922 4278537898
-0.015659157 0.0036859363 -0.022737831 4278735014
-0.013560168 0.0030864701 -0.022480266 4278800549
-0.010915756 0.0002784431 -0.020189587 4278342313
-0.0078845769 -0.0040003806 -0.01654844 4278671009
-0.0050067157 -0.007540755 -0.013591168 4278670754
-0.0024781823 -0.0096074641 -0.011992347 4279783573
6.6399574e-05 -0.011672936 -0.010396911 4280373389
0.0030136872 -0.015207954 -0.0074545462 4279521433
0.0057916567 -0.018005736 -0.0051925313 4279259294
0.008392306 -0.02006679 -0.0036090557 4280504969
0.0112103 -0.022861436 -0.0013556052 4280963204
0.014661634 -0.027858354 0.0029117744 4281945209
-0.040353253 -0.012411483 -0.0063258391 4279784338
-0.038947523 -0.0093072653 -0.0094988383 4278801823
-0.037562937 -0.0062044188 -0.012667096 4278801569
-0.035909139 -0.00458505 -0.014462412 4278735524
-0.03441371 -0.0022254288 -0.016938876 4278604198
-0.032934107 0.00013314188 -0.019411728 4278931874
-0.031470381 0.0024907514 -0.021881053 4278800549
-0.029866673 0.0041070879 -0.023665063 4278865829
-0.026690863 0.0073377714 -0.027225796 4278800294
-0.025118798 0.008952193 -0.029002609 4278800804
-0.022724777 0.0068683326 -0.0273799 4278865828
-0.017544854 0.0012260899 -0.022788338 4278407083
-0.015446283 0.0006243363 -0.02253245 4278735013
-0.012810819 -0.0021932349 -0.020246405 4278734759
-0.0099741518 -0.0057477206 -0.017288484 4278670499
-0.0069282725 -0.010038547 -0.013660417 4278932639
-0.0044058301 -0.012112401 -0.012065222 4280045969
-0.0018673502 -0.014184944 -0.010473488 4280308363
0.00049668178 -0.015518464 -0.009559283 4280111759
0.0030645542 -0.017588645 -0.0079737958 4279915408
0.0056484565 -0.019657604 -0.0063916873 4279325339
0.0086453371 -0.02319973 -0.0034681763 4280242573
0.011668893 -0.026739813 -0.0005504135 4282076788
-0.041514903 -0.019378118 -0.0022771191 4282601324
-0.040216468 -0.015519388 -0.0061344951 4279194268
-0.038804799 -0.012406088 -0.0093022287 4279194268
-0.036987275 -0.011524342 -0.01041604 4279259804
-0.035609931 -0.0084131658 -0.013576084 4279063198
-0.034106091 -0.0060464814 -0.016049463 4278997664
-0.032918744 -0.002195023 -0.019881934 4278735524
-0.031757914 0.0016546473 -0.023708507 4279128479
-0.0303123 0.0040176138 -0.026168877 4278997154
-0.017337698 -0.0018420964 -0.022586405 4278735013
-0.014885511 -0.0039279982 -0.020981086 4278801314
-0.012240306 -0.0067535713 -0.018703785 4278735778
-0.0093940608 -0.010318346 -0.015756097 4278932383
-0.0067034215 -0.013140425 -0.013488562 4279784849
-0.0039914064 -0.01596088 -0.011225572 4279915918
-0.0016332716 -0.017299317 -0.010313446 4280112269
0.00073554367 -0.0186368 -0.0094035994 4280178059
0.0031150728 -0.019973442 -0.0084959622 4280046734
0.0058965348 -0.022788383 -0.0062478315 4280111249
0.0090959407 -0.027080603 -0.002662586 4282468213
-0.040354028 -0.017143801 -0.0073146112 4279259548
-0.038941771 -0.014021747 -0.010475941 4278997663
-0.037124187 -0.01313784 -0.011588151 4279128988
-0.035456605 -0.0115088 -0.01337997 4279325339
-0.033799551 -0.0098803416 -0.015169441 4279259803
-0.032753579 -0.0052723512 -0.019675409 4278735013
-0.031739429 -0.00066649169 -0.024174297 4278538409
-0.030290723 0.0017032474 -0.026630431 4278931619
-0.029016033 0.0048164278 -0.029760983 4278604453
-0.027119331 0.0049510375 -0.03017721 4278865828
-0.02522254 0.0050857961 -0.030593354 4278800294
-0.022827268 0.0029888973 -0.02898076 4278669224
-0.020247139 0.0001495555 -0.026695963 4278538919
-0.01747416 -0.0034316927 -0.023740724 4278473638
-0.014326222 -0.0084975809 -0.019442327 4278669733
-0.0089949071 -0.014163233 -0.0149096 4279325338
-0.0066613927 -0.015508048 -0.013995538 4280177293
-0.0041324049 -0.017594494 -0.012411637 4280243083
-0.0015873685 -0.019679718 -0.010831127 4280308619
0.00097369403 -0.021763667 -0.0092540253 4280374154
0.0035507791 -0.023846291 -0.007680377 4281160318
0.0065347608 -0.027411304 -0.0047704969 4282926194
-0.04008162 -0.021012478 -0.006451305 4279456154
-0.038939372 -0.016385101 -0.010968985 4279194013
-0.037261054 -0.01475101 -0.01276003 4279325338
-0.035593241 -0.013117619 -0.014548649 4279325338
-0.033788674 -0.012232281 -0.015656162 4279325083
-0.032439142 -0.0091054216 -0.018796869 4279194013
-0.030958183 -0.0067269951 -0.021255285 4278866594
-0.029493064 -0.0043496192 -0.023710094 4278734759
-0.028201781 -0.0012265369 -0.026837748 4278603689
-0.026931688 0.0018951669 -0.029960658 4278997153
-0.02535627 0.0035228953 -0.031728413 4278735268
-0.022961706 0.0014193878 -0.03012057 4278539684
-0.020045273 -0.0029205754 -0.026494049 4278736289
-0.016925525 -0.0080039278 -0.022200972 4278408613
-0.013942331 -0.012338907 -0.018588912 4279390873
-0.011456862 -0.014435448 -0.01700063 4279849108
-0.0091346167 -0.015785523 -0.016087526 4279259294
-0.0068016425 -0.017134726 -0.015176622 4280504714
-0.0040887743 -0.019972607 -0.012926912 4280635784
-0.0015418157 -0.022064202 -0.011351774 4281028738
0.0010211915 -0.024154551 -0.009779999 4281683578
-0.038380831 -0.021753304 -0.0087494496 4282405229
-0.036972538 -0.018613942 -0.011896806 4279718803
-0.035440959 -0.016225748 -0.014361709 4279195289
-0.033925213 -0.013838626 -0.016823009 4279194523
-0.032425322 -0.011452451 -0.019280788 4279390873
-0.030788839 -0.0098165795 -0.021058999 4279456410
-0.029007819 -0.0089303181 -0.022159476 4279259548
-0.02770526 -0.0057977661 -0.025283035 4278669734
-0.026584342 -0.0019178241 -0.029076112 4278604199
-0.025000691 -0.00028520077 -0.030842366 4279128478
-0.022598855 -0.0023947507 -0.029241042 4278801824
-0.019675709 -0.0067473426 -0.02562581 4278866849
-0.016720515 -0.011097543 -0.022017512 4279259803
-0.014080755 -0.013949871 -0.019758711 4280242318
-0.01177242 -0.015305467 -0.018845873 4280242573
-0.0092742965 -0.017407484 -0.017265229 4279980433
-0.0065783896 -0.020255432 -0.01501845 4279718293
-0.0038611144 -0.023101717 -0.012776243 4280963204
-0.0011224747 -0.025946341 -0.010538613 4282076023
-0.036401898 -0.023994088 -0.0096895117 4281684854
-0.03528937 -0.0193424 -0.014180882 4280112523
-0.033914819 -0.016196497 -0.017314127 4279587734
-0.032411851 -0.013803579 -0.019767681 4279587734
-0.030772477 -0.012163125 -0.021543263 4279325338
-0.028833825 -0.012025811 -0.021968897 4279194013
-0.027367782 -0.0096351355 -0.024414074 4279063198
-0.02607784 -0.0064945891 -0.027528271 4278669989
-0.024320424 -0.0056075305 -0.028621633 4278735779
-0.022071533 -0.006972231 -0.027699411 4278473638
-0.019139014 -0.011337258 -0.024096059 4279129243
-0.016687118 -0.01344949 -0.022510467 4279849874
-0.014392704 -0.014810599 -0.021597965 4280111759
-0.01191134 -0.016920507 -0.020018594 4280243083
-0.0092350654 -0.019778676 -0.017774189 4280111503
-0.0065374039 -0.022635214 -0.015534328 4279914389
-0.033464536 -0.020820506 -0.01578637 4281028994
-0.032249279 -0.016912632 -0.019584147 4279718038
-0.030908495 -0.013760142 -0.022703258 4279521943
-0.029279444 -0.012115926 -0.024473278 4279259804
-0.027503539 -0.011225611 -0.025569243 4279259548
-0.025892906 -0.0095824972 -0.027334986 4278866593
-0.023804691 -0.010198638 -0.02708705 4278997918
-0.021711063 -0.01081425 -0.026840212 4279194523
-0.019107904 -0.013686903 -0.024586653 4278736289
-0.016483348 -0.016557895 -0.022337688 4279522709
-0.014184143 -0.01792296 -0.021429537 4280112269
-0.011874206 -0.019287206 -0.02052361 4280243338
-0.0093748644 -0.021402217 -0.018953042 4280897669
-0.0064967535 -0.025019147 -0.016053142 4282926449
-0.03178902 -0.021542192 -0.018063275 4282010233
-0.030285113 -0.019136034 -0.020507162 4279914898
-0.029106122 -0.015219592 -0.024288638 4279194014
-0.027482059 -0.01357124 -0.026054198 4278932129
-0.026028395 -0.011168309 -0.028486738 4279259804
-0.023778003 -0.012541726 -0.027571535 4279325594
-0.021516848 -0.013914302 -0.026658552 4279588244
-0.018909283 -0.016795322 -0.024412552 4279588244
-0.016450822 -0.018920228 -0.022838177 4278343079
-0.013803124 -0.021798186 -0.020600738 4278801823
-0.011485741 -0.023166195 -0.01969975 4281290878
-0.029663555 -0.024533518 -0.018326757 4282404973
-0.028624821 -0.019847378 -0.022772172 4279980178
-0.027303901 -0.016678624 -0.025873663 4279259804
-0.026163854 -0.012753814 -0.029638255 4278867104
-0.023913976 -0.014131628 -0.028726207 4279128733
-0.021323372 -0.017022766 -0.026483087 4279587733
-0.018376045 -0.021426 -0.022912407 4280177548
-0.015737325 -0.024313428 -0.020679628 4280505223
-0.013250213 -0.026442714 -0.019116346 4281027973
-0.02681281 -0.021314152 -0.024365673 4280767874
-0.025820818 -0.016617954 -0.028790878 4279194524
-0.023725625 -0.017240211 -0.028549353 4279260058
-0.021130599 -0.020139694 -0.026313772 4279784339
-0.017844282 -0.02607391 -0.021424783 4280177548
-0.015536092 -0.02745162 -0.020528479 4281814394
-0.025000971 -0.022780545 -0.025958842 4282863974
-0.023214072 -0.021880478 -0.027050568 4280635273
-0.020609297 -0.024788015 -0.024823608 4280767109
-0.017481267 -0.029977791 -0.020612564 4281683833
-0.022542212 -0.027301945 -0.024901772 4282666858
-0.020253897 -0.028689966 -0.024007862 4282732394
0.0024360456 -0.035741344 -0.026525758 4282666094
0.0048117898 -0.037130296 -0.025656376 4282863209
0.0064602084 -0.037855975 -0.0279289 4281618298
-0.020390514 -0.036793925 -0.037719965 4282994534
-0.021023978 -0.036046147 -0.04082419 4282666093
-0.021325853 -0.03685575 -0.04262786 4282601068
-0.021792363 -0.036873087 -0.045071986 4282536299
