# .PCD v0.7 - Point Cloud Data file format
VERSION 0.7
FIELDS x y z rgba
SIZE 4 4 4 4
TYPE F F F U
COUNT 1 1 1 1
WIDTH 787
HEIGHT 1
VIEWPOINT 0 0 0 1 0 0 0
POINTS 787
DATA ascii
0.024496276 -0.023456566 0.0010425216 4286854723
0.027526405 -0.027066074 0.0039212648 4287640634
0.031002015 -0.032173045 0.0081131617 4288229939
0.022159539 -0.024480715 -0.00039391033 4287379260
0.024764832 -0.02659791 0.0011624563 4287902774
0.02779921 -0.030218013 0.0040320884 4288491823
0.031069465 -0.034587972 0.0075539472 4288034099
0.017838011 -0.025638841 -0.0014081872 4287378749
0.020027198 -0.02625449 -0.001169642 4287248954
0.022422746 -0.027624257 -0.00027430244 4287838768
0.024828967 -0.028993197 0.00061892532 4288230449
0.027658561 -0.031869777 0.0028233696 4288164404
0.030509485 -0.034744747 0.0050234022 4287771448
0.0089977644 -0.024794154 -0.0035607046 4287313723
0.011165213 -0.025413997 -0.0033195964 4288230193
0.013338026 -0.026033357 -0.0030795275 4287838004
0.015709022 -0.027409635 -0.00218256 4287511094
0.017895199 -0.028027773 -0.0019450914 4287706933
0.020086713 -0.028645419 -0.0017086659 4287511094
0.022484407 -0.03001944 -0.00081701763 4287576628
0.024892749 -0.031392522 7.2432682e-05 4288165423
0.027311753 -0.032764725 0.0009597484 4287706423
0.0043634363 -0.024410613 -0.0058897599 4287247679
0.0068810955 -0.026554555 -0.0043304805 4287379259
0.009045504 -0.027176924 -0.0040904712 4287772468
0.011402603 -0.028558768 -0.0031940397 4288492844
0.013580399 -0.029179953 -0.0029566642 4287969328
0.015956193 -0.030560188 -0.0020640139 4287642419
0.017952044 -0.030420788 -0.0024849828 4287183928
0.020145878 -0.031040445 -0.0022506844 4287249464
0.022345059 -0.031659625 -0.0020173583 4287379769
0.024752872 -0.033037119 -0.0011310787 4287248444
0.02696535 -0.033655055 -0.0009004008 4287183163
-0.0034899451 -0.027336657 -0.0047465283 4286659394
-0.0016870089 -0.026436694 -0.0058229771 4287314233
0.00011064112 -0.025536984 -0.0068982146 4287576373
0.0022559054 -0.026163273 -0.0066561196 4287772979
0.0044065602 -0.026789039 -0.0064150449 4287641653
0.0067443848 -0.028176852 -0.0055180211 4287706933
0.0087239966 -0.028039105 -0.0059359614 4287837748
0.011077881 -0.029425494 -0.0050421786 4288230449
0.013252676 -0.030049093 -0.0048057567 4287706933
0.015817732 -0.03219565 -0.0032610246 4287510839
0.017618291 -0.031294696 -0.004336087 4286856509
0.01961131 -0.031155355 -0.0047563594 4286791484
0.021804795 -0.031777076 -0.0045235292 4286920258
0.024003606 -0.032398283 -0.0042917007 4287050819
-0.0031206384 -0.03125111 -0.0039562937 4287118394
-0.0016515628 -0.028817542 -0.006348053 4287576373
0.00014877692 -0.02791547 -0.0074222106 4287772979
0.0022963695 -0.028543748 -0.0071822349 4287904048
0.0044493563 -0.029171593 -0.0069432575 4287576374
0.0064261034 -0.02903416 -0.0073606838 4287641143
0.0085871518 -0.029661126 -0.0071232561 4287510329
0.010753565 -0.030287571 -0.0068868455 4287706423
0.012925334 -0.030913509 -0.0066514667 4287640633
0.01529474 -0.032302953 -0.005764002 4287313468
0.017089989 -0.031400174 -0.0068363007 4287247424
-0.0034247488 -0.032107115 -0.0058017094 4287183163
-0.0017872043 -0.030434787 -0.0075320583 4287379513
0.00018658116 -0.030297995 -0.0079491828 4288098869
0.0021604113 -0.030161038 -0.0083661918 4287771959
0.0041342899 -0.030023962 -0.00878313 4287444539
0.0061082058 -0.029886752 -0.0091999639 4287182654
0.0082662515 -0.03051614 -0.0089634936 4287182144
0.010242898 -0.030378468 -0.0093807075 4287443264
-0.0040642805 -0.03141845 -0.0089536775 4286920769
-0.0020933785 -0.031281956 -0.0093702618 4287313213
-0.00029565766 -0.030375727 -0.010440605 4287836474
0.0014967807 -0.029469751 -0.011509748 4287247679
0.0036410615 -0.030102491 -0.011272253 4286985538
0.0056094751 -0.029965654 -0.011687929 4287312448
-0.0027399249 -0.030580491 -0.012510648 4287182909
-0.0009501949 -0.029672608 -0.01357772 4287116354
0.00065854564 -0.027993388 -0.015295198 4287181634
-0.017105374 0.015471123 0.022169378 4280652104
-0.014068145 0.010621078 0.02667053 4280458049
-0.022468675 0.020026259 0.015498958 4281498449
-0.021426756 0.024447531 0.0108791 4279938359
-0.019508947 0.024579577 0.010473146 4280262209
-0.016821142 0.021140046 0.013570338 4280327744
-0.013166633 0.01341752 0.020862199 4279417394
-0.0078600831 -0.0014405698 0.035136599 4279417394
-0.028577406 0.0085744187 0.02511169 4282477393
-0.027298529 0.012297533 0.021182764 4281892168
-0.026046205 0.016018927 0.017259534 4281304904
-0.024963539 0.020455912 0.01264071 4281242174
-0.02362122 0.023456611 0.0094301486 4280525878
-0.022300113 0.02645589 0.0062241973 4280849218
-0.020546906 0.027303748 0.0051214807 4280717639
-0.018183753 0.02528514 0.0068160212 4280718149
-0.01517861 0.02040235 0.011301012 4280848963
-0.010862894 0.0097929612 0.02136115 4280915008
-0.034848738 0.018934086 0.012818719 4279087679
-0.033455867 0.021946438 0.0096036224 4280393278
-0.03127468 0.020637326 0.010601291 4279351094
-0.029220242 0.020048916 0.010895901 4281110084
-0.027581085 0.021619938 0.0090887258 4280979779
-0.026238296 0.024629228 0.005884598 4281242174
-0.024625551 0.026198655 0.0040831752 4279547188
-0.023023341 0.02776742 0.0022841105 4279481653
-0.021129813 0.027897745 0.0018832684 4280458558
-0.018775359 0.025872022 0.0035746582 4280197949
-0.015935909 0.021691822 0.0073532751 4280002619
-0.012428511 0.014640532 0.013910222 4280653888
-0.0080594793 0.0040021613 0.023934446 4280980034
-0.040015083 0.012621753 0.017099507 4281695054
-0.038822208 0.017091654 0.012476531 4281241663
-0.037661169 0.021559484 0.0078603821 4280980033
-0.036402579 0.025302663 0.0039519379 4280850238
-0.034774344 0.026876975 0.0021501118 4281045824
-0.032348197 0.024117403 0.0045491541 4279351349
-0.030175347 0.022803418 0.0055453507 4280850494
-0.028411899 0.023655884 0.0044434089 4281046079
-0.026939113 0.025951341 0.001946589 4281045824
-0.025336813 0.027524401 0.00015065912 4280916029
-0.023596969 0.028375503 -0.00094600767 4280394299
-0.021560829 0.027784135 -0.00064880215 4280524348
-0.019212388 0.025751397 0.001038962 4280720189
-0.016379513 0.021557674 0.0048090396 4280654143
-0.013673253 0.018086821 0.0078777345 4280849983
-0.010455865 0.012456797 0.013023156 4280980544
-0.0065391958 0.0039490834 0.020933744 4280980288
-0.003058672 -0.0023940578 0.026751913 4281305923
-0.041358326 0.018282421 0.0089232465 4281110849
-0.040067282 0.022038504 0.0050159739 4280590138
-0.038676221 0.025067933 0.0018142359 4280328509
-0.036918674 0.025921691 0.00071490835 4281631813
-0.035166312 0.026775192 -0.00038324576 4281305923
-0.032880906 0.024730884 0.0013123257 4280719933
-0.030716557 0.02341193 0.0023070062 4280459579
-0.028821152 0.023541927 0.0019054236 4280980544
-0.027353313 0.025843613 -0.00058547873 4280915518
-0.025756102 0.027420606 -0.0023770151 4280980798
-0.023873653 0.027550027 -0.0027756258 4281045823
-0.021689925 0.026232976 -0.0017846916 4281046079
-0.019342154 0.024193622 -0.00010174233 4281111358
-0.016978245 0.022155486 0.0015778663 4280915518
-0.015073959 0.022286832 0.0011749594 4280653634
-0.012685824 0.020250618 0.0028495593 4280522818
-0.0096258372 0.01532606 0.0072886003 4280980289
-0.0060285963 0.0082376376 0.013793846 4281044804
-0.041245524 0.015257142 0.0091717662 4281761099
-0.040319461 0.021206498 0.0031749727 4280589119
-0.039183188 0.025698751 -0.0014162259 4278894134
-0.037562642 0.027281113 -0.003209949 4279025714
-0.035689194 0.02740927 -0.0036071357 4280198459
-0.033546831 0.026084334 -0.0026111687 4279547443
-0.031393658 0.024760276 -0.001617468 4280916029
-0.029369358 0.024163283 -0.001321381 4280980798
-0.02762435 0.025018848 -0.0024160435 4280915519
-0.025594432 0.024422459 -0.0021209894 4280981054
-0.023706768 0.024552219 -0.0025207167 4280916029
-0.021668579 0.023956612 -0.0022272477 4281046589
-0.019777995 0.024086781 -0.0026274333 4280915773
-0.017731577 0.023491904 -0.0023355102 4281045824
-0.015996512 0.024347477 -0.0034276182 4278700333
-0.014105614 0.024477981 -0.0038276343 4279415099
-0.011395901 0.0209857 -0.00077593047 4279415099
-0.0076609328 0.01314909 0.0064086728 4278567478
-0.004543446 0.0082134977 0.010824152 4280846669
-0.040529165 0.0085749179 0.012902838 4282412624
-0.040324215 0.018920146 0.0027317638 4281305414
-0.039436672 0.024884395 -0.0032436484 4280524093
-0.037818547 0.026470888 -0.0050335424 4280784958
-0.035947893 0.02659883 -0.0054301573 4280915519
-0.033942897 0.025998108 -0.0051317969 4280915773
-0.031795528 0.02466923 -0.0041401228 4281111614
-0.029916409 0.024798065 -0.0045382949 4281111358
-0.027752761 0.023470551 -0.0035499586 4281111359
-0.025433417 0.021415792 -0.001871129 4281046589
-0.023540538 0.021545887 -0.002271981 4280981308
-0.021947969 0.023131512 -0.0040558679 4281047099
-0.020365939 0.024716459 -0.0058374135 4280851258
-0.018638931 0.025573477 -0.0069262302 4280981308
-0.016917173 0.026430301 -0.008013892 4281371714
-0.015039764 0.026559871 -0.008411062 4281110593
-0.012508024 0.023782469 -0.0060532903 4280263229
-0.0087912194 0.015920565 0.0011170972 4280524093
-0.0055222921 0.010242097 0.0062123276 4280914753
-0.0028968342 0.0074715167 0.0085505238 4280649808
-0.039573926 0.0003984794 0.018003963 4282542418
-0.039712582 0.012971148 0.0057634953 4281760334
-0.039311726 0.021880068 -0.0029825242 4280653889
-0.038074035 0.025665332 -0.0068537248 4281045823
-0.036074836 0.025061905 -0.0065558767 4281176384
-0.034070145 0.024458952 -0.0062591145 4281046078
-0.032333311 0.025318071 -0.0073489463 4280916284
-0.030601669 0.026176933 -0.0084375972 4280655673
-0.028449196 0.024844266 -0.0074502071 4280720698
-0.025851849 0.021321692 -0.0043918076 4281047099
-0.023964439 0.021451399 -0.0047915052 4281177148
-0.022376958 0.023040943 -0.0065710107 4281111869
-0.020952735 0.025359631 -0.0090375887 4280654908
-0.019078325 0.025488771 -0.0094342856 4279678514
-0.017361861 0.026347335 -0.010519163 4280980799
-0.015329223 0.025747377 -0.010227515 4281306433
-0.012964398 0.023689948 -0.0085626924 4281045314
-0.0097532272 0.017989881 -0.003468459 4280589629
-0.0068366937 0.013750091 0.00024481677 4280524603
-0.0037166514 0.0087842271 0.0046367925 4280650828
-0.038733575 0.0047944114 0.010858129 4282150484
-0.038684148 0.015932418 4.6016648e-05 4281436229
-0.037686657 0.021196738 -0.0052062413 4281112124
-0.035939407 0.022058554 -0.0062968479 4281047098
-0.034197349 0.022920094 -0.0073862309 4281045823
-0.032596957 0.024514332 -0.0091656065 4278832169
-0.031007115 0.026108023 -0.010942692 4279547954
-0.029002283 0.025503151 -0.010647346 4278960944
-0.026558485 0.022701509 -0.0082847578 4278374954
-0.024534713 0.022098161 -0.0079932483 4281046589
-0.022955012 0.023691572 -0.0097678704 4281111870
-0.021538395 0.026016209 -0.012227884 4280849984
-0.019672126 0.026144762 -0.012622879 4279025968
-0.017963629 0.027004987 -0.013704479 4279741753
-0.015778787 0.02567089 -0.012726619 4280067643
-0.013419997 0.023606546 -0.011065497 4280002619
-0.010547508 0.019350454 -0.0073528267 4280850238
-0.0079799481 0.016558282 -0.0050156415 4281044804
-0.0047061555 0.010845378 5.2317977e-05 4280782664
-0.0017372929 0.0065963045 0.0037448825 4280518739
-0.037634794 -0.0041576102 0.016616493 4282150229
-0.037807394 0.0084868968 0.0044391509 4282020434
-0.037428986 0.017446697 -0.0042626518 4280913988
-0.036197599 0.021253377 -0.0081160413 4280851003
-0.034458149 0.02211687 -0.0092032524 4280654653
-0.033132818 0.025185682 -0.01235796 4280915518
-0.031550732 0.02678312 -0.014130095 4281371203
-0.029695887 0.026910327 -0.014523093 4280458558
-0.02726363 0.024099126 -0.012164605 4280524094
-0.025250856 0.02349285 -0.011872484 4280784958
-0.023232628 0.022887081 -0.011581418 4280915774
-0.021665934 0.024484009 -0.013349884 4280849729
-0.019954804 0.025346473 -0.014430489 4280653888
-0.018248919 0.026208639 -0.015509856 4280784193
-0.016067252 0.024869949 -0.014534623 4280849473
-0.013711818 0.022798829 -0.012877732 4280914243
-0.011008915 0.019262575 -0.0098574758 4281176128
-0.0086159259 0.017194226 -0.0082083121 4281175363
-0.0053517446 0.01146315 -0.0031514373 4281109829
-0.0023921579 0.0072003976 0.00053316448 4280717129
-0.00010589883 0.0058696792 0.0014867643 4279861859
-0.036682565 -0.00046958029 0.010187206 4281954133
-0.036916081 0.012207896 -0.0019492097 4281824849
-0.036324557 0.019715108 -0.0092427665 4281110594
-0.035252389 0.024268553 -0.013770918 4280067898
-0.033803683 0.026607823 -0.016228423 4280784194
-0.032093231 0.02747171 -0.017307695 4281435718
-0.029963586 0.026124343 -0.016325373 4281240389
-0.027678993 0.02404096 -0.014658974 4279871039
-0.02552506 0.022695452 -0.013681577 4280262208
-0.023659293 0.022823721 -0.014076659 4280653123
-0.021793421 0.022952102 -0.014471681 4280784450
-0.019927427 0.023080602 -0.014866636 4280718659
-0.018218834 0.023945183 -0.015944984 4280979523
-0.015874851 0.021866553 -0.014290656 4281240389
-0.013351928 0.019053616 -0.011957373 4281240644
-0.010807566 0.016242281 -0.0096285325 4281044293
-0.008409936 0.014167756 -0.007985333 4281044293
-0.0056545362 0.010624461 -0.0049842186 4280913479
-0.0028723553 0.0070831031 -0.0019886405 4280846924
-0.036062408 -0.0065083653 0.01314897 4282280789
-0.036404934 0.0069475174 0.00034842175 4281954899
-0.036451478 0.018177144 -0.010369286 4281305924
-0.035644908 0.024223223 -0.01626163 4280457793
-0.034608986 0.028787334 -0.020772181 4280067389
-0.032634597 0.028173715 -0.020475477 4280001598
-0.030513447 0.026821353 -0.019494608 4279871039
-0.02794962 0.02325283 -0.016462032 4280457794
-0.025798868 0.021902755 -0.01548731 4280783683
-0.023637313 0.020553485 -0.014514755 4280653124
-0.021464977 0.019205123 -0.013544435 4280718403
-0.01943649 0.018595874 -0.013258701 4280783938
-0.017559852 0.018725224 -0.01365583 4280849474
-0.015363179 0.017378822 -0.012690367 4280784448
-0.012993101 0.015295617 -0.011046451 4280783938
-0.010441601 0.012476042 -0.0087257084 4280848964
-0.0080366507 0.010395437 -0.0070889443 4280979013
-0.0054449514 0.0075788796 -0.0047765174 4281043784
-0.0031784773 0.006237939 -0.003825421 4280715598
-0.035319258 -0.013315693 0.0167787 4282411348
-0.035384458 -0.0013037249 0.0053759357 4282281553
-0.035795737 0.012186758 -0.0073803905 4281760334
-0.035504263 0.021219119 -0.016004475 4280783683
-0.034462038 0.02579673 -0.020506505 4280914755
-0.032621067 0.025922835 -0.020896679 4281044549
-0.030215535 0.023083515 -0.018552423 4281109573
-0.027788531 0.020245746 -0.016212586 4281044549
-0.025632922 0.018891603 -0.015242141 4281175108
-0.023615655 0.018279158 -0.014955854 4280979269
-0.021137584 0.01544524 -0.012626572 4280979014
-0.018946949 0.014093876 -0.011663344 4280979014
-0.016745538 0.012743324 -0.010702265 4281109829
-0.014693156 0.012133777 -0.010423051 4281044293
-0.012472875 0.01078479 -0.0094658416 4281305669
-0.0099115707 0.0079571903 -0.0071537332 4281239879
-0.0076644272 0.0066102669 -0.0062019704 4281304393
-0.0054065399 0.0052642375 -0.0052524423 4281107534
-0.0034841858 0.0053974167 -0.0056587337 4281171539
-0.034239586 -0.010338597 0.011059658 4282477904
-0.034881596 0.0046817362 -0.0030419948 4282282574
-0.034832601 0.015230089 -0.013018761 4281111104
-0.034044597 0.021309815 -0.01888084 4280980288
-0.032193083 0.021436617 -0.019273264 4281044293
-0.029918667 0.019332774 -0.017619621 4280913988
-0.027340923 0.015743397 -0.01460644 4280783429
-0.025175143 0.014385559 -0.013641462 4280914244
-0.02314752 0.013771646 -0.013359014 4280979269
-0.020811249 0.011672549 -0.011718167 4281044038
-0.018458836 0.0095746517 -0.010080602 4281109574
-0.016404204 0.0089629367 -0.0098036174 4281173324
-0.014503732 0.0090940148 -0.010205721 4281174089
-0.012440898 0.0084830597 -0.0099302474 4281174343
-0.010042761 0.0063888058 -0.0083020618 4281370439
-0.0077961273 0.0050374866 -0.0073534856 4281304903
-0.0053684711 0.0029455274 -0.005731347 4281172814
-0.0036165379 0.0038202256 -0.0068134004 4280582744
-0.033607934 -0.016430192 0.01397856 4282346069
-0.033840228 -0.0036045089 0.0019536018 4282151248
-0.034030307 0.0084687322 -0.0093699526 4281563983
-0.033086922 0.013821088 -0.014541626 4281632068
-0.031352278 0.014695272 -0.015619515 4281371713
-0.029059846 0.012586117 -0.013974626 4281174854
-0.026894715 0.011223815 -0.013012912 4281174598
-0.024864856 0.010607757 -0.012732683 4281239878
-0.022680786 0.009246923 -0.01177478 4281305669
-0.020334527 0.0071419626 -0.010140992 4281370183
-0.018280309 0.0065278858 -0.0098656109 4281305414
-0.016220663 0.0059143379 -0.0095913308 4281305159
-0.014314998 0.0060457513 -0.0099945487 4281239879
-0.012085073 0.0046887249 -0.0090459501 4281304649
-0.0098443702 0.0033324882 -0.0080995141 4281370183
-0.0077603497 0.0027211085 -0.007830021 4281304648
-0.0056709237 0.002110213 -0.0075615933 4280910674
-0.003921628 0.002986908 -0.0086414469 4280319838
-0.033581417 -0.0074377656 0.0028342064 4282020688
-0.033628184 0.003922537 -0.0077848835 4281694034
-0.032673005 0.0092909262 -0.012947576 4281631049
-0.030927639 0.010168001 -0.014026105 4281566279
-0.028765809 0.0088009834 -0.013067093 4281305669
-0.026879612 0.0089303479 -0.013466723 4281240133
-0.024701517 0.0075646192 -0.012510944 4281305669
-0.022512626 0.0061998144 -0.011557394 4281435973
-0.020312939 0.0048357919 -0.010606016 4281370438
-0.018102482 0.0034726933 -0.0096568624 4281435719
-0.016194396 0.0036041588 -0.01006068 4281239623
-0.01396773 0.0022424161 -0.009114773 4281044548
-0.011730295 0.00088148564 -0.0081710173 4281305414
-0.0096466877 0.00026776642 -0.0079031875 4281370183
-0.0077249072 0.00040064007 -0.0083095534 4281173578
-0.0058030672 0.00053364784 -0.0087158484 4280712793
-0.033583079 -0.009782061 0.0023464803 4281824849
-0.033359844 0.00010985881 -0.0068913521 4282085458
-0.032395523 0.0054940507 -0.012044459 4281761098
-0.030642133 0.0063738823 -0.013123104 4281631304
-0.028753553 0.0065032765 -0.01352335 4281370439
-0.026864845 0.0066328049 -0.01392352 4281370183
-0.024830285 0.0060126409 -0.01364754 4281370439
-0.02249353 0.0038938224 -0.012021699 4281435464
-0.020442728 0.0032750145 -0.011748984 4281370183
-0.018232793 0.0019075051 -0.010803011 4281239624
-0.016324848 0.0020389482 -0.011206818 4281238604
-0.014098696 0.00067280233 -0.010264096 4280911439
-0.011861764 -0.00069251657 -0.0093235141 4280845648
-0.033224743 -0.0029628277 -0.006684463 4282086223
-0.032253977 0.0024370551 -0.011827511 4282021709
-0.030632723 0.0040718839 -0.01358177 4281434443
-0.028601412 0.0034491196 -0.013306971 4281434953
-0.026707511 0.0035789832 -0.013708259 4281108043
-0.02466796 0.0029570162 -0.013435037 4281238348
-0.022326533 0.00083193928 -0.011815066 4281369164
-0.02027075 0.00021132827 -0.0115451 4281303628
-0.01820951 -0.00040879101 -0.011276192 4281173069
-0.016299047 -0.00027718395 -0.011680542 4280908888
-0.033222336 -0.0052888617 -0.0071594808 4282020179
-0.032113079 -0.00062841177 -0.011616702 4281759824
-0.030486289 0.0010111704 -0.01336892 4281305414
-0.028309945 -0.00036800653 -0.012422814 4281240134
-0.026265506 -0.00099196285 -0.012152373 4281303883
-0.023924898 -0.0031236932 -0.010537287 4281369164
-0.021716174 -0.0045002922 -0.0095977783 4281237583
-0.019948747 -0.0036146268 -0.01067565 4281105748
-0.018339917 -0.0019755587 -0.012423515 4280908123
-0.031434853 -0.0067306384 -0.008718092 4281824848
-0.029517505 -0.0065994337 -0.0091245472 4281499723
-0.027040664 -0.0094949529 -0.0068414025 4281173579
-0.024827365 -0.010875769 -0.0059063695 4281369164
-0.022458095 -0.013012126 -0.0043022451 4281498958
-0.030355792 -0.015136614 -0.0038227332 4282214998
-0.028003607 -0.017280996 -0.0022202367 4281890384
-0.025355976 -0.020942032 0.00072055217 4281956428
-0.022966195 -0.023083605 0.0023152595 4282347599
0.031856354 -0.0061922818 0.040283013 4282273394
0.038104091 -0.012962386 0.046329673 4278599864
0.023480246 -0.0084592253 0.040781196 4282471018
0.024540415 -0.0047705323 0.036883958 4282797929
0.026180627 -0.0032099783 0.035068601 4280635783
0.027605223 -0.00094150007 0.032564137 4279389598
0.030616505 0.0028842315 0.028255932 4278534328
0.018455653 -0.0075903386 0.037641119 4281684089
0.019532628 -0.0038897768 0.033748392 4280700043
0.020582896 -0.00019096583 0.029861391 4279063199
0.022005234 0.0020837262 0.027362127 4278669988
0.023815693 0.0029353797 0.026247263 4278276523
0.025416052 0.0044975728 0.024443734 4278339509
0.026798278 0.0067697987 0.02195318 4279389598
0.029004816 0.0061992481 0.02222117 4278865318
0.032493263 0.0013676286 0.026617359 4278799273
0.037527144 -0.008431688 0.035819214 4278734248
0.042853914 -0.018935502 0.045692459 4278734248
0.012546713 -0.0031284913 0.031044159 4281618044
0.019459654 0.0017169192 0.025196578 4278668713
0.021068264 0.0032838807 0.023394387 4278342313
0.022464311 0.0055633634 0.020905748 4278603433
0.039656132 -0.010687932 0.034836251 4278866084
0.044360884 -0.019085951 0.042621829 4278604453
0.0081806369 -0.004354693 0.029990282 4280898943
0.0087367892 0.0015192851 0.024034135 4278997154
0.009621568 0.0059573576 0.019468375 4278602924
0.011227675 0.0075280592 0.017669659 4279454369
0.013587173 0.0062335357 0.018631324 4278799018
0.018731005 0.0022155792 0.021924797 4278668458
0.020331847 0.0037863255 0.020127587 4278603689
0.021518588 0.0067872331 0.016958199 4278538154
0.023297068 0.0076411441 0.015853465 4278603433
0.025277231 0.0077797771 0.01543605 4278341039
0.030936599 0.0023402646 0.020081375 4278406573
0.033798307 -0.00037709624 0.022397436 4278931108
0.036899079 -0.0038070902 0.025392953 4278670244
0.040687747 -0.0093773752 0.03043285 4278801058
0.046080649 -0.019941762 0.040242985 4278735523
0.00077652931 -0.0013969168 0.02521297 4279525514
0.0026028417 -0.00053874403 0.024098843 4279127713
0.0044238716 0.00031915307 0.022985902 4279062943
0.0058793388 0.0026149899 0.020493858 4278276523
0.007501632 0.0041909143 0.018694896 4278275249
0.010526128 0.0080594048 0.014415459 4279257763
0.012877097 0.0067599639 0.015375593 4279192229
0.015819274 0.0033069178 0.018395532 4278995624
0.019795399 0.0035844967 0.017556775 4278538154
0.021178924 0.005876191 0.015080645 4278866084
0.023158964 0.0060147122 0.014663179 4278603944
0.025138993 0.0061533526 0.014245802 4278669733
0.027747583 0.0041410327 0.015880309 4278735014
0.030159988 0.0028467551 0.016828217 4278734503
0.032583032 0.001553379 0.017773915 4278931108
0.042367823 -0.010198615 0.028090615 4278406829
0.048697367 -0.023656785 0.040591206 4279192993
0.003222391 0.0030087084 0.017651308 4278734759
0.0050221384 0.0038674772 0.016544558 4278407083
0.006816607 0.0047259554 0.015439051 4278800039
0.017277151 0.0032532588 0.015410847 4278406828
0.019259728 0.0033917353 0.014992676 4278800294
0.021040983 0.0042500868 0.013890558 4278866084
0.023224883 0.0036690086 0.014156573 4278800803
0.025414111 0.0030884296 0.014421561 4278735268
0.027608663 0.0025083199 0.014685499 4278735013
0.029384501 0.0033667609 0.013584885 4278669224
0.031369645 0.0035061017 0.013166689 4278603434
0.051100578 -0.026665449 0.040248428 4279389088
0.055738136 -0.03441225 0.047262933 4279849364
0.00040852278 0.0041410401 0.014127168 4278540958
0.0023773536 0.0042776167 0.013711185 4278472618
0.0045260042 0.0036908537 0.013982211 4278472618
0.0063151754 0.0045511425 0.012879468 4278603944
0.0079139173 0.0061342791 0.011092084 4278407083
0.0096898004 0.0069938675 0.0099923154 4278407083
0.012031741 0.005685024 0.010947804 4278341548
0.014577506 0.003654547 0.012585186 4278472618
0.016747721 0.0030699968 0.012852187 4278341548
0.018724814 0.0032080784 0.012435165 4278538409
0.020701908 0.0033462793 0.012018229 4278473129
0.023290448 0.0013192073 0.01364698 4278604454
0.025482021 0.00073661655 0.013909833 4278407593
0.027469762 0.00087592006 0.01349092 4278473129
0.02882199 0.0031789914 0.011031617 4278406574
0.030158143 0.0054810792 0.0085757403 4278602924
0.031912573 0.0063404366 0.0074814511 4278866083
0.034540981 0.0043169111 0.0091022896 4278669223
0.048674222 -0.021189004 0.032218728 4279062943
0.053974431 -0.031121545 0.041249901 4279194014
0.0020645708 0.0033868328 0.011841831 4278276524
0.0043898113 0.0020720363 0.012797163 4278604198
0.00599676 0.0036599562 0.011011292 4278735268
0.0077779852 0.0045220181 0.0099119032 4278669479
0.0095539168 0.0053837821 0.0088137733 4278800038
0.011895344 0.0040705279 0.0097660692 4278734504
0.014054529 0.003482908 0.010033662 4278668969
0.01582785 0.0043448284 0.0089363353 4278275504
0.025136981 -0.00017168373 0.01203576 4278473129
0.026912941 0.000691019 0.010938331 4278669479
0.030906631 0.0076158643 0.0035886681 4278735014
0.033303998 0.0063078701 0.0045301141 4278669988
0.036823645 0.0013873279 0.0088510113 4278800293
0.045796297 -0.014223807 0.022871006 4278735268
0.051292017 -0.024911396 0.032561112 4278801313
0.056634761 -0.03487131 0.04156043 4280636293
0.0013987236 0.0039568394 0.0086073065 4278934934
0.0037154369 0.0026370883 0.0095611447 4278932128
0.0054966696 0.0035011545 0.0084633483 4278866084
0.0078268386 0.0021825358 0.0094145657 4278603689
0.0094180554 0.0037739724 0.0076354267 4278865829
0.011758972 0.0024563447 0.0085845599 4278603434
0.013339553 0.004047282 0.0068078423 4278471854
0.024380099 0.0003766939 0.0088089174 4278406828
0.025939308 0.0019668192 0.0070372997 4278538409
0.02727633 0.0042819604 0.0045910338 4278603433
0.039565533 -0.0029991642 0.0099397535 4278669733
0.043377839 -0.0086545721 0.01490914 4278670244
0.048843898 -0.019376986 0.024580877 4278604709
0.054855615 -0.031541787 0.035580747 4278735523
0.0049973652 0.0033514053 0.0059220986 4278341804
0.0075062178 0.0012983754 0.0075521944 4278341803
0.009095002 0.0028939769 0.0057769092 4278407083
0.011052927 0.0030303672 0.0053636627 4278472618
0.013992615 0.0069481507 0.0011437656 4278602669
0.015739312 0.0078127012 5.5438839e-05 4278865574
0.018082418 0.0064913705 0.0010011243 4278603433
0.020842718 0.0037141293 0.0032987604 4278668458
0.023418445 0.0016666725 0.0049155066 4278472108
0.02517578 0.0025324896 0.0038252557 4278800549
0.026505217 0.0048535988 0.0013855631 4278734759
0.027818587 0.0071737394 -0.0010506944 4278735014
0.029765725 0.0073105544 -0.0014607743 4278866083
0.032370672 0.00526575 0.00015026797 4278997153
0.035435487 0.0017680973 0.0031042369 4278866594
0.038751572 -0.0024544373 0.0067252079 4278866593
0.041872345 -0.0059479252 0.0096675688 4278604453
0.047089435 -0.015977822 0.018647213 4278407848
0.053544395 -0.029633857 0.030965511 4278276778
0.058688901 -0.038925909 0.039240822 4278735524
0.0083982572 0.0034820437 0.0025641536 4278472363
0.00996859 0.0050808415 0.00079614017 4278865318
0.017546026 0.0063545704 -0.0015205746 4278472109
0.022458293 0.0029745623 0.0010351324 4278604199
0.024413403 0.0031115934 0.00062311161 4278801059
0.026368488 0.0032487437 0.00021119136 4278669733
0.027896021 0.0048456639 -0.0015470376 4278866593
0.030278545 0.003523387 -0.00061236601 4278932128
0.032890785 0.0014726147 0.00099217612 4278473638
0.03574077 -0.0013062134 0.0032649683 4278408104
0.038387626 -0.0033543631 0.0048624501 4278277034
0.041504644 -0.006858997 0.0077973912 4278408104
0.046946064 -0.017648466 0.017424971 4278801058
0.052932411 -0.029889159 0.028374359 4278932128
0.057598732 -0.03775347 0.03529257 4281094274
-0.00094430894 0.0072168037 -0.0023960308 4278737309
0.008076366 0.002615802 0.0007157037 4278668713
0.0094547234 0.0049525127 -0.0017251922 4278603434
0.011009283 0.0065546781 -0.0034865015 4278734504
0.01274804 0.0074229166 -0.0045699594 4278472365
0.014679007 0.0075577796 -0.0049772472 4278472619
0.017010394 0.0062268972 -0.0040356726 4278407339
0.019352468 0.0048968568 -0.0030961996 4278472873
0.021910753 0.0028351769 -0.0014856635 4278866339
0.024485057 0.00077466667 0.00012161676 4278866593
0.026442666 0.00091198832 -0.00029084366 4278539173
0.02840024 0.0010494515 -0.00070318859 4278473383
0.030790243 -0.0002765879 0.00022659544 4278342314
0.033409804 -0.002333425 0.0018247114 4278538919
0.03582374 -0.0036575645 0.0027496107 4278539174
0.038248312 -0.0049808398 0.0036724433 4278736034
0.041364249 -0.0084964409 0.0065994002 4278998429
0.0468027 -0.019318782 0.016202975 4279391128
0.052785695 -0.031596728 0.027125135 4278866848
0.056979947 -0.03802415 0.032691598 4281749879
-0.0012532473 0.006371446 -0.004232219 4278933913
0.00067204237 0.006505087 -0.0046389387 4278866083
0.0027787201 0.0059023798 -0.004368803 4279061413
0.0054427721 0.0030914843 -0.0020712605 4278733994
0.0075682141 0.0024903119 -0.0018049097 4278668713
0.0089416318 0.004833214 -0.0042398376 4278800038
0.010491069 0.0064393803 -0.0059967889 4278865829
0.0126139 0.0058384314 -0.0057296557 4278735524
0.014939427 0.0045026764 -0.0047902046 4278932129
0.016875587 0.0046380386 -0.0051984927 4278801314
0.019217147 0.0033035949 -0.0042622006 4278932128
0.021774724 0.0012353137 -0.0026564552 4278669988
0.024348322 -0.00083176047 -0.0010539475 4278669989
0.026727196 -0.0021631718 -0.00012528058 4278735779
0.029116735 -0.0034937784 0.00080125034 4278801313
0.031732943 -0.0055574477 0.0023950152 4278932639
0.033927709 -0.0061522946 0.0026478656 4278735779
0.03612775 -0.0067466348 0.0028996244 4278736034
0.038109012 -0.0066070184 0.0024826638 4279063198
0.04145059 -0.010866791 0.0060688183 4279063708
0.046659347 -0.02098877 0.014981213 4279457174
0.052406926 -0.0325711 0.025210131 4279063963
0.056127168 -0.03755305 0.029431757 4282209133
3.7513673e-06 0.0071417838 -0.0078224437 4278538154
0.0070608146 0.0023739561 -0.0043189218 4278603688
0.0088076256 0.0032468587 -0.0054009734 4278669734
0.010549117 0.0041195229 -0.0064818067 4278866338
0.012868781 0.0027788803 -0.0055445051 4278866593
0.015396308 0.00070156902 -0.0039375713 4278866849
0.017540168 0.00010015815 -0.0036763395 4278670243
0.019689366 -0.00050076097 -0.0034161392 4278604453
0.022254264 -0.002575092 -0.0018168087 4278539174
0.024835166 -0.0046481863 -0.00022075698 4278670243
0.027221531 -0.0059834197 0.00070304424 4279063453
0.029192165 -0.0058450475 0.00028794259 4278997919
0.031378616 -0.006442748 0.00054074824 4278932639
0.033788905 -0.0077759847 0.0014598295 4278801058
0.03598861 -0.0083724782 0.0017100535 4278997663
0.038193598 -0.0089685097 0.001959227 4279063198
0.041763127 -0.01397673 0.0062008491 4279063709
0.046745211 -0.023393698 0.014424688 4279391383
0.051796649 -0.032805689 0.022634067 4279194779
-0.0018698946 0.0046947002 -0.0078942319 4278997918
-0.00030682981 0.0063099787 -0.0096479757 4279127713
0.0021504276 0.0042204857 -0.0080316989 4278669224
0.0040728264 0.004354164 -0.0084376363 4278931619
0.0061815754 0.0037475228 -0.0081710881 4278931618
0.008106716 0.0038816109 -0.0085774241 4278931873
0.010606822 0.0017956048 -0.0069698161 4278473384
0.012928626 0.00045076013 -0.0060362471 4278342314
0.015655104 -0.0023726448 -0.0037645134 4278408104
0.01820329 -0.0044549331 -0.0021667737 4278473894
0.020362832 -0.0050572976 -0.0019103917 4278867104
0.022732709 -0.0063983276 -0.00098655 4278866848
0.024905572 -0.006999515 -0.00073279068 4278932639
0.027294083 -0.0083389506 0.00018728152 4278997663
0.029480241 -0.0089389607 0.00043842569 4279128733
0.031671707 -0.009538509 0.00068858638 4279259803
0.034086805 -0.010875717 0.0016033314 4278997663
0.036512535 -0.012212083 0.0025159791 4279390618
0.03917256 -0.014285363 0.004090949 4279521944
0.042753972 -0.019307978 0.008318576 4279456664
0.047059752 -0.02654016 0.014528635 4279588244
0.051418841 -0.03376846 0.020727556 4279588499
-0.0020021759 0.0031200051 -0.0090470342 4278605473
-0.0002607815 0.003996402 -0.010125033 4278997408
0.0021984354 0.0019005612 -0.0085141426 4278800803
0.0041233636 0.0020344034 -0.0089206165 4278800803
0.0062344596 0.0014256909 -0.0086561656 4278538664
0.0083509088 0.00081754476 -0.0083927913 4278408104
0.011047097 -0.0020169467 -0.0061214338 4278866849
0.013570528 -0.0041076764 -0.0045236195 4278670243
0.01610999 -0.0061972365 -0.0029290654 4278670754
0.018466 -0.0075437948 -0.0020058043 4278932639
0.020630557 -0.0081480369 -0.0017520823 4278867104
0.022800434 -0.0087517127 -0.0014994182 4279128733
0.024975628 -0.0093549117 -0.0012477897 4278997663
0.027576443 -0.011439539 0.00033430755 4278997663
0.029767599 -0.01204136 0.00058276951 4278669988
0.032395042 -0.014123864 0.0021594418 4279194014
0.035038445 -0.016205095 0.0037328107 4279521688
0.03791865 -0.019025289 0.0059664352 4279718038
0.041043654 -0.02258388 0.0088585792 4279653014
0.044421449 -0.026880287 0.01240757 4279652758
0.048060052 -0.031913973 0.01661177 4280570504
0.051272921 -0.035465971 0.019485727 4282602598
-0.0017839223 5.4478645e-05 -0.0088567389 4278736288
0.000140775 0.00018806756 -0.0092633432 4278276779
0.0026073083 -0.0019138604 -0.0076588872 4278276779
0.0043568313 -0.0010344759 -0.0087367734 4278604454
0.0087829791 -0.0029995888 -0.0075457725 4278604709
0.011486288 -0.005842261 -0.0052824691 4278997663
0.014017021 -0.0079390928 -0.0036911033 4278997663
0.016367167 -0.0092905313 -0.0027699806 4278801058
0.018528722 -0.0098972693 -0.0025173463 4278998174
0.020493649 -0.0097597763 -0.0029316097 4278736034
0.022663182 -0.010365687 -0.0026805326 4279194269
0.025045332 -0.011714377 -0.0017657694 4279063198
0.028068025 -0.015291661 0.001139245 4278604453
0.030904749 -0.018124022 0.0033751605 4278735014
0.033762794 -0.020954721 0.0056067063 4279194268
0.03686012 -0.02452638 0.0084962873 4279718804
0.039763451 -0.027353667 0.010718475 4280177549
0.042911381 -0.030921504 0.013597601 4281684344
-0.0059351586 -0.001042597 -0.0098698651 4279523984
-0.0038410015 -0.0016574189 -0.0096056378 4278933148
-0.0017414279 -0.0022717863 -0.009342432 4278801824
0.00036352873 -0.0028856024 -0.0090802908 4278867358
0.0028346814 -0.0049936697 -0.0074817762 4278474148
0.0051388256 -0.0063533634 -0.0065546669 4278932639
0.0072679259 -0.0069651157 -0.0062973462 4278997663
0.0095908046 -0.0083232 -0.0053740442 4278604453
0.011733312 -0.0089338496 -0.0051193386 4279128478
0.014074914 -0.010290362 -0.0041997805 4279194268
0.016230773 -0.010899767 -0.0039477465 4279063709
0.018591084 -0.012254782 -0.0030319211 4279128988
0.020962058 -0.013608865 -0.002118275 4279063198
0.023139261 -0.014216386 -0.0018704389 4279259549
0.025943108 -0.017059997 0.00036565494 4279521434
0.029187847 -0.021392681 0.0039224429 4280176528
0.032464575 -0.025722913 0.0074725514 4280700809
0.035558183 -0.029305853 0.010354606 4281684344
-0.012154754 -0.001515381 -0.011146866 4279459979
-0.0099102594 -0.0028843731 -0.010211129 4279196564
-0.0078219026 -0.0035020187 -0.0099475123 4279260824
-0.0057281293 -0.0041192099 -0.009684898 4279195033
-0.0039734021 -0.0032355785 -0.010761026 4279129244
-0.0018741675 -0.0038521439 -0.010499384 4278932639
0.00023045018 -0.0044681802 -0.010238826 4278801824
0.0025206804 -0.0058332607 -0.0093121938 4278605219
0.0048216321 -0.0071975142 -0.008387696 4278736034
0.0071332827 -0.0085608661 -0.0074654073 4278801058
0.0094556436 -0.0099233463 -0.0065452829 4278342314
0.011788709 -0.011284992 -0.0056272708 4279128988
0.014132455 -0.012645721 -0.0047114571 4279260314
0.016486898 -0.014005624 -0.0037977812 4279194779
0.018852009 -0.015364595 -0.0028862772 4279587735
0.021429382 -0.017470844 -0.0013142982 4279980178
0.0238185 -0.018827885 -0.00040767062 4280438414
0.026839044 -0.022427201 0.002481292 4281682049
0.030515026 -0.028267093 0.0073475381 4282991729
-0.016585626 -0.0010905713 -0.013498435 4279722883
-0.014519192 -0.001712285 -0.013232097 4279589518
-0.012447339 -0.002333492 -0.012966817 4278933148
-0.010041993 -0.0044599697 -0.011364754 4278867359
-0.0077872686 -0.0058325604 -0.010434352 4279063453
-0.0056911632 -0.0064517185 -0.010173913 4279260314
-0.0037616938 -0.0063180849 -0.010581736 4279129244
-0.0018321685 -0.0061843023 -0.010989465 4279129244
0.00045215338 -0.0075543001 -0.010064982 4278801824
0.0025671534 -0.0081716552 -0.0098081604 4278867359
0.0050529651 -0.010291673 -0.0082224458 4279128988
0.007184051 -0.010907687 -0.0079688504 4279194013
0.009696614 -0.013025589 -0.0063885902 4278800548
0.012225211 -0.015142255 -0.0048116189 4279783575
0.014576439 -0.016506821 -0.0039006742 4280308109
0.016742291 -0.017119877 -0.0036540264 4281093253
-0.020368401 -0.01363492 -0.0040428606 4281032819
-0.019326802 -0.0089653656 -0.0084753707 4280834429
-0.018163931 -0.0050536692 -0.012231492 4280243594
-0.016871799 -0.0018992946 -0.015312906 4278998683
-0.014491349 -0.0040342212 -0.013710739 4279063709
-0.012417153 -0.0046575144 -0.013447568 4278801313
-0.010009855 -0.0067903399 -0.01185089 4278342824
-0.0079194792 -0.0074122623 -0.01159095 4279063198
-0.0058237128 -0.0080336258 -0.011332083 4279194013
-0.0037225522 -0.0086545125 -0.011074282 4279128988
-0.0017905086 -0.0085205585 -0.011482544 4278997918
0.00067315623 -0.010648929 -0.0098972805 4278736034
0.0029730126 -0.012022048 -0.0089792497 4278932639
0.0052835904 -0.013394311 -0.0080633946 4279325594
0.007419683 -0.014012165 -0.0078124446 4279587478
0.010124736 -0.016889684 -0.0055758776 4279652504
0.012660613 -0.019012325 -0.004005407 4280700553
0.015019327 -0.020380758 -0.0030992823 4283318893
-0.019319519 -0.021296315 0.00014208537 4281162103
-0.019007277 -0.012821302 -0.0076279608 4280439689
-0.018141638 -0.0073821992 -0.012713641 4280177294
-0.017001923 -0.00346113 -0.016456582 4279128733
-0.014622167 -0.0056026354 -0.01485919 4279194779
-0.012387302 -0.0069855526 -0.013931334 4278736033
-0.0099780299 -0.0091248304 -0.012339972 4278801313
-0.0077190027 -0.010505773 -0.011417072 4278932128
-0.005618237 -0.011128969 -0.011160914 4279128988
-0.003340397 -0.012508422 -0.010241773 4279259549
-0.0010518357 -0.013886929 -0.009324831 4279194013
0.0012474507 -0.015264593 -0.0084100747 4279063198
0.0035574697 -0.016641408 -0.0074974271 4279456664
0.0060605444 -0.01877331 -0.0059252204 4279719060
0.0083946437 -0.020148143 -0.0050175125 4280372369
-0.018688809 -0.016690105 -0.0067898976 4280504458
-0.017814044 -0.01123517 -0.011866041 4279980433
-0.01666557 -0.0073025599 -0.015602665 4279063454
-0.01459479 -0.0079305843 -0.015342165 4279063198
-0.01235779 -0.0093176514 -0.014418084 4278997918
-0.0099465437 -0.011463322 -0.012832053 4278998174
-0.0075192265 -0.013607703 -0.011249367 4278408359
-0.005244635 -0.014991857 -0.010332913 4279325593
-0.0029593185 -0.01637508 -0.009418671 4280045968
-0.00083743036 -0.016998753 -0.0091684395 4280569228
0.0014666803 -0.018380478 -0.0082579339 4281682559
-0.018821295 -0.018284112 -0.0079572136 4280701063
-0.017945398 -0.012813896 -0.013022125 4279849109
-0.016640868 -0.00963258 -0.0160865 4278997408
-0.014409799 -0.011024542 -0.015164547 4278932128
-0.01184671 -0.013939269 -0.012918621 4279194268
-0.009262193 -0.016852401 -0.010677141 4279325593
-0.0064903013 -0.020525329 -0.0077781575 4279260059
-0.0043662079 -0.021151297 -0.0075302245 4279325084
-0.002236709 -0.021776751 -0.0072833458 4280568974
-0.018654164 -0.021407239 -0.0077968808 4282798694
-0.017466936 -0.017450437 -0.011525401 4280046224
-0.015840922 -0.015788406 -0.013260398 4279653014
-0.013436582 -0.017947853 -0.011682943 4280177039
-0.011176605 -0.01934205 -0.010770296 4280832388
-0.0084165297 -0.023026817 -0.0078771198 4282075769
-0.016989883 -0.022104219 -0.010041227 4282733158
-0.015043136 -0.021970183 -0.0104533 4280505224
-0.012781084 -0.023368739 -0.0095444107 4280767108
-0.011237033 -0.029621251 -0.024907056 4282338418
-0.013272028 -0.033702128 -0.026168566 4282534768
