# .PCD v0.7 - Point Cloud Data file format
VERSION 0.7
FIELDS x y z rgba
SIZE 4 4 4 4
TYPE F F F U
COUNT 1 1 1 1
WIDTH 794
HEIGHT 1
VIEWPOINT 0 0 0 1 0 0 0
POINTS 794
DATA ascii
-0.027471583 -0.02351784 0.013135163 4286463043
-0.026172113 -0.019638136 0.0093024876 4286854724
-0.027335975 -0.026662722 0.013289267 4286660158
-0.025890339 -0.023521736 0.010141298 4287379769
-0.024037782 -0.022631668 0.009029828 4287248188
-0.02733824 -0.029063642 0.012760369 4287117629
-0.025749501 -0.026666008 0.010294512 4287641144
-0.023749057 -0.026525408 0.0098591782 4287706933
-0.022184033 -0.024129145 0.0073986165 4287445813
-0.020634819 -0.02173391 0.0049416423 4287380279
-0.027614828 -0.029959455 0.010878069 4287575098
-0.025749017 -0.029064253 0.0097668897 4287771959
-0.023746062 -0.028923519 0.0093309749 4287706933
-0.022177953 -0.02652052 0.0068746619 4287576373
-0.020625692 -0.024118572 0.004421927 4287445558
-0.018938955 -0.022471189 0.0026450269 4287706678
-0.017109785 -0.021577969 0.0015422702 4287181633
-0.028301459 -0.028580233 0.0069783051 4287379768
-0.026306782 -0.028440192 0.0065441038 4287706423
-0.024169821 -0.029056489 0.0067824405 4287641399
-0.022461835 -0.027403541 0.0050039925 4287510584
-0.020616885 -0.026507273 0.0038992576 4287576118
-0.018777128 -0.025611252 0.002795741 4287576118
-0.01678979 -0.025471136 0.0023635887 4287641654
-0.015113261 -0.023819901 0.00059235748 4287706933
-0.013289157 -0.022924595 -0.00050746743 4287314233
-0.026584808 -0.029320292 0.0046740379 4286724419
-0.024308879 -0.030697569 0.0055822339 4287248954
-0.022311423 -0.030557126 0.0051475894 4287380023
-0.020608399 -0.028900057 0.0033735912 4287445305
-0.018915903 -0.027243659 0.0016020006 4287641399
-0.016928706 -0.027103558 0.0011698781 4287902773
-0.015096683 -0.026205659 6.9874339e-05 4287838003
-0.013269898 -0.025307976 -0.0010289522 4287576118
-0.01160891 -0.023653299 -0.002793313 4287903284
-0.010285035 -0.020485014 -0.0058877319 4287575098
-0.021041546 -0.02901569 0.00084067415 4286986049
-0.019054633 -0.028875753 0.0004084995 4287313724
-0.017067593 -0.028735667 -2.3600645e-05 4287706678
-0.014925364 -0.02935528 0.00021073502 4287772469
-0.013250951 -0.027695432 -0.0015533613 4287707188
-0.011587095 -0.026036166 -0.0033150921 4288034354
-0.010096889 -0.023618259 -0.0057390751 4288034608
-0.0084568262 -0.021960467 -0.0074954149 4287838003
-0.0066589266 -0.02106218 -0.0085858926 4287379004
-0.017206434 -0.030367464 -0.0012168558 4287117883
-0.015219454 -0.030227259 -0.0016488517 4287315509
-0.013705064 -0.02780138 -0.0040733637 4287642164
-0.011886086 -0.02689983 -0.0051670829 4287772978
-0.010072336 -0.025998518 -0.0062595727 4287641399
-0.0084294006 -0.024336129 -0.0080132969 4287576118
-0.0062923618 -0.024957672 -0.0077790064 4287575864
-0.0039790235 -0.02633962 -0.0068844641 4287379769
-0.013686251 -0.030190386 -0.0045989761 4286790974
-0.012024615 -0.02852264 -0.0063536474 4287314234
-0.010048132 -0.028382793 -0.0067830691 4287379513
-0.0082369372 -0.02747938 -0.0078732716 4287183419
-0.0060949139 -0.028102741 -0.0076417113 4286464064
-0.0036060847 -0.030251801 -0.0060918154 4286594624
-0.001101207 -0.032399528 -0.0045453319 4286529598
-0.012163114 -0.030145139 -0.0075399885 4286398274
-0.010186788 -0.030005321 -0.0079693804 4286986814
-0.0082103722 -0.029865369 -0.0083987126 4286529088
-0.0060660429 -0.030490756 -0.0081692981 4285940548
-0.0035752691 -0.032646194 -0.0066247373 4286398018
-0.010650087 -0.030091457 -0.010471963 4286462788
0.021806445 0.0049334764 0.026384948 4282414664
0.015662357 0.017305568 0.011750191 4281894209
0.01641296 0.021697521 0.0071709827 4280654144
0.021018509 0.012627944 0.015742762 4280523583
0.012578644 0.019106187 0.0075355507 4281437249
0.012337681 0.027066238 -0.00049133971 4280849984
0.014055174 0.02791445 -0.0015978254 4280980034
0.017402418 0.023077726 0.0028183404 4280654654
0.022857606 0.011139825 0.014122577 4279808054
0.0281938 -8.122623e-05 0.02471819 4278700333
0.03361541 -0.011296064 0.035295449 4280851003
0.038047083 -0.018955514 0.042414919 4281371713
0.009910889 0.019503996 0.0047132242 4281564749
0.010477956 0.024636239 -0.00053947419 4280265014
0.011206552 0.029052719 -0.0050942283 4280719933
0.013112288 0.029189184 -0.0055070575 4281305923
0.016039006 0.02576185 -0.0024769213 4281241664
0.020026734 0.018773615 0.0039875191 4281046844
0.023858309 0.012501702 0.009753067 4280720954
0.028162312 0.0048089325 0.016881971 4281242684
0.032525025 -0.0028795302 0.023998292 4281437248
0.036946416 -0.010563619 0.031101966 4281371713
0.040325433 -0.014685221 0.034767486 4281566533
0.044405073 -0.020938717 0.040479787 4282216784
0.0070699453 0.020632535 0.0012074038 4281498449
0.0078395158 0.025064856 -0.0033465736 4281175363
0.0093610995 0.026632763 -0.0051386449 4280784194
0.010673348 0.028915398 -0.007616499 4279481909
0.012774957 0.028336272 -0.0073405555 4279547443
0.015493907 0.025612786 -0.0050048344 4279547954
0.018854244 0.020746514 -0.00061442144 4279287598
0.021833248 0.017312258 0.0023963377 4280851003
0.025050934 0.013165623 0.0060866307 4281372733
0.02787127 0.010449812 0.0084007774 4281373754
0.030278236 0.0091636479 0.009342242 4281633598
0.033355884 0.0057369247 0.012331985 4281502019
0.038018979 -0.0026831776 0.02009655 4280654144
0.043422159 -0.013238959 0.029894451 4280262718
0.048677295 -0.023075551 0.038993344 4280589374
0.0046277978 0.020343982 -0.00091231614 4281369929
0.0052185543 0.025508188 -0.0061472338 4281632579
0.0069308281 0.026362225 -0.007247908 4281371458
0.0088335909 0.026498273 -0.0076602455 4281305923
0.010736376 0.026634425 -0.0080725122 4280654143
0.012639178 0.026770696 -0.0084846932 4280589374
0.015153419 0.024755567 -0.0068407245 4280524604
0.017890166 0.022024691 -0.0045153201 4280915773
0.021066554 0.017861895 -0.00082603749 4281045823
0.023639498 0.015851289 0.00080552232 4281242174
0.025155984 0.017423943 -0.00098158512 4281111103
0.026227452 0.020428419 -0.0041312613 4280981054
0.028156839 0.020567358 -0.0045486223 4280719679
0.031866133 0.01497981 0.00048467983 4281045824
0.036969084 0.0051015317 0.009593403 4280460089
0.042146675 -0.0047711879 0.018686036 4280134454
0.047629416 -0.015353665 0.028442191 4279288108
0.053425293 -0.026645273 0.038860172 4281112123
0.0025673248 0.018623978 -0.0016520405 4281037154
0.0026150718 0.025966316 -0.0089415293 4279414333
0.0037511773 0.028983038 -0.012099465 4279219769
0.0060236789 0.027677521 -0.011136217 4279351349
0.0086981095 0.02493301 -0.0088042263 4281046079
0.010799043 0.024349406 -0.0085315537 4281045313
0.012905329 0.023766302 -0.0082599558 4281110594
0.015016958 0.023183689 -0.0079894289 4280915520
0.01754652 0.021163188 -0.0063535911 4280915519
0.019883111 0.019862972 -0.0054037655 4280980543
0.022018749 0.019282371 -0.0051381355 4281046079
0.023302495 0.021576717 -0.0075994474 4280785214
0.024353243 0.024588436 -0.010738049 4280915518
0.026041519 0.025444053 -0.011831045 4281436228
0.029058229 0.021991253 -0.0088444781 4281307453
0.03322643 0.014951311 -0.0024678772 4280786234
0.037903231 0.0064800456 0.005254453 4280786234
0.042874292 -0.0027038902 0.013640976 4281176638
0.049312532 -0.016186327 0.026077157 4281176128
0.055616409 -0.028944157 0.037814632 4281241409
0.00087139383 0.015458211 -0.0010179328 4280910163
0.00076809525 0.023547575 -0.0089846198 4280980034
0.0013558604 0.028742012 -0.014195932 4281045823
0.0028567612 0.030321334 -0.015973875 4280524604
0.0085626468 0.023368031 -0.0099479984 4280459578
0.011059444 0.021338351 -0.0083102863 4280980799
0.013170745 0.020753428 -0.0080414228 4281176384
0.015083954 0.020890541 -0.0084557794 4280849728
0.016791061 0.021749139 -0.0095516238 4280719168
0.018492825 0.022607453 -0.01064623 4280979779
0.020189244 0.023465522 -0.01173958 4281110338
0.021666188 0.025044128 -0.01351157 4279350838
0.022915669 0.027342636 -0.015960392 4279350838
0.025026873 0.026758485 -0.015690915 4281305923
0.027809709 0.024014145 -0.013388133 4280980288
0.031512961 0.018391341 -0.0083796997 4281110594
0.035486281 0.01205194 -0.0027034925 4280719934
0.04088828 0.001398176 0.0070208218 4281110339
0.048232503 -0.015005231 0.02213441 4281175363
0.054286644 -0.02708412 0.033170134 4281501509
0.058764588 -0.034122922 0.039463848 4281499978
-0.0012661293 0.021849804 -0.0097146835 4281045823
-0.00047397986 0.026335709 -0.014234275 4280459578
0.00066065788 0.02936966 -0.017378816 4281567300
0.0023437031 0.030228034 -0.018468315 4281436739
0.0049842969 0.027463548 -0.016142236 4281111104
0.0078415014 0.023976363 -0.013138438 4280590138
0.010527503 0.021215342 -0.010822026 4281110848
0.013034277 0.01917994 -0.0091913361 4281241153
0.014744107 0.020040818 -0.010286195 4280980033
0.016036788 0.022348516 -0.01273977 4280980033
0.01710486 0.0253786 -0.015869215 4281175874
0.018785305 0.026237726 -0.01695751 4281110338
0.020674326 0.026373565 -0.017366288 4280915009
0.022130156 0.027955085 -0.019130299 4279155508
0.024233028 0.027368173 -0.018860651 4279742264
0.027006958 0.024614468 -0.016562521 4279872058
0.030925123 0.01825133 -0.010889216 4279546168
0.035345756 0.010447696 -0.0038755061 4280849984
0.040974651 -0.00096079707 0.0064995755 4281240898
0.04878214 -0.018857777 0.022924142 4281305669
0.054370373 -0.029530525 0.032583736 4281370693
0.058373034 -0.035148479 0.037514709 4281564239
-0.00347903 0.020880133 -0.011128655 4280977738
-0.0024909042 0.024652548 -0.014958 4280915518
-0.0013450198 0.027695894 -0.018098496 4279872058
-3.3374876e-05 0.030010708 -0.02055184 4280263994
0.0018314347 0.030143797 -0.020956134 4280263738
0.0042734072 0.028096877 -0.019316591 4278439468
0.007121522 0.024598159 -0.016319031 4280590138
0.0097986162 0.021827772 -0.014007276 4281111358
0.011895917 0.021237478 -0.013738671 4281176639
0.013389405 0.022825502 -0.015507966 4281046079
0.014460782 0.025864437 -0.01863163 4280654908
0.015927587 0.027450781 -0.020394972 4280654908
0.018016867 0.026860364 -0.020124283 4281045824
0.020325191 0.025545269 -0.019178027 4281110848
0.021994986 0.026406005 -0.020262156 4280653633
0.024097536 0.025816888 -0.019994084 4281111358
0.02687056 0.023054413 -0.017702324 4280915520
0.03101125 0.015947104 -0.011369093 4280979523
0.035886437 0.0066710711 -0.0030260142 4281240389
0.042209297 -0.0069440156 0.0093412548 4281240389
0.049330652 -0.02272319 0.023704538 4281303374
0.054453708 -0.031980969 0.03199432 4281238094
0.05774416 -0.035445951 0.034897611 4282345048
-0.0036131926 0.019320533 -0.012268724 4280586568
-0.0026242472 0.023103885 -0.016090037 4281176383
-0.0014777482 0.026155993 -0.019224091 4281242430
-0.00035254285 0.029206693 -0.022353444 4281045313
0.0016989931 0.028610453 -0.022076864 4280849984
0.0041402616 0.026556946 -0.0204421 4280785213
0.0067924298 0.023775935 -0.018131612 4280915773
0.0090708993 0.022453658 -0.017182691 4281176638
0.010959674 0.022588924 -0.017591836 4280981053
0.012239873 0.024908692 -0.020032926 4280981309
0.013504062 0.027227499 -0.022470493 4279808054
0.014960438 0.028817464 -0.024228282 4279547699
0.017882185 0.02531378 -0.021254392 4279092014
0.020617057 0.022539511 -0.018961208 4279286834
0.022508442 0.022675633 -0.019370405 4281111359
0.024618663 0.022084892 -0.019105632 4280849983
0.027620319 0.01858744 -0.01614867 4280914753
0.031993829 0.010732368 -0.0091610122 4280913988
0.037333459 -2.4087727e-05 0.00050271861 4280913988
0.043212116 -0.012227044 0.011492353 4281304649
0.049413603 -0.025149375 0.023133529 4281369929
0.054301802 -0.033709645 0.030731527 4281824338
-0.0040596761 0.011036165 -0.006863331 4280646238
-0.0030326508 0.014833003 -0.010684776 4280847689
-0.0020322353 0.018628076 -0.014500353 4280912458
-0.0010584518 0.022421345 -0.018310081 4281175363
7.5381249e-05 0.025481395 -0.021434722 4281240644
0.0017559119 0.026346117 -0.022518752 4281175363
0.004007142 0.025017299 -0.021567395 4280980289
0.0062690824 0.023689322 -0.020618228 4281176384
0.008541692 0.022362255 -0.019671334 4281176638
0.010024991 0.023958169 -0.021431921 4281046078
0.011497609 0.025553472 -0.023190157 4280589628
0.01295957 0.027148072 -0.024945963 4281371714
0.015034871 0.0265522 -0.024675611 4281632068
0.018168863 0.022307992 -0.02103626 4280980543
0.021121506 0.018795751 -0.018077187 4280785978
0.023452781 0.01747369 -0.017142328 4281242939
0.025794681 0.016152531 -0.016209735 4281177659
0.029032599 0.011916205 -0.012592488 4280980799
0.033870541 0.0025807768 -0.0042842086 4281045824
0.038777795 -0.0067496002 0.0040092077 4281632579
0.044213016 -0.017531663 0.013627674 4282412623
0.0497282 -0.02830787 0.023229001 4282412623
0.054149903 -0.035437979 0.029468993 4282607443
-0.0038436837 0.0079885349 -0.0066575534 4280582999
-0.0024535842 0.010328233 -0.0091134384 4281043018
-0.001441706 0.014135003 -0.012923292 4281175619
-0.00027263537 0.017206147 -0.0160491 4281110849
0.0010616183 0.019542202 -0.018492611 4280980288
0.0025690682 0.021143749 -0.020255489 4280784448
0.0046412982 0.02054476 -0.01998665 4281110083
0.0063299462 0.021412477 -0.02107062 4281176639
0.007816121 0.023012884 -0.02282867 4281242429
0.0092916526 0.024612583 -0.024584301 4281045823
0.010756522 0.026211649 -0.026337519 4279937848
0.012621019 0.026345395 -0.02674124 4280719933
0.01490113 0.025014982 -0.025798909 4281110338
0.018033836 0.020757623 -0.02216913 4281111104
0.021198545 0.016502604 -0.018546179 4280785978
0.024179406 0.012981638 -0.015601329 4281112888
0.027186912 0.0094626993 -0.012662148 4281177148
0.031105656 0.0030210465 -0.0070482288 4281046845
0.035520002 -0.0048790127 -0.00010554772 4281111358
0.039992966 -0.012774728 0.0068245418 4282284613
0.044982858 -0.022127308 0.015078839 4282349638
0.050042022 -0.031474769 0.023318252 4282607698
0.0542325 -0.037896201 0.0288739 4282541654
-0.003979668 0.006405741 -0.0078146178 4280517973
-0.0025891438 0.008751981 -0.010265684 4281174089
-0.00085264444 0.0096246973 -0.011358827 4281306434
0.0005113259 0.011969298 -0.013803936 4281240898
0.0020456351 0.013576984 -0.015569455 4281175874
0.003380347 0.01591973 -0.018008046 4281111104
0.0050823539 0.016790465 -0.019093353 4280915008
0.0063904636 0.019131549 -0.021525992 4281175618
0.007682588 0.021471605 -0.023955086 4281372223
0.0089587383 0.023810595 -0.026380589 4281371458
0.010218881 0.02614861 -0.028802566 4280785214
0.011872942 0.027016494 -0.029877044 4280263738
0.014144529 0.025681101 -0.028936155 4280263994
0.017267965 0.021409951 -0.025314199 4280199479
0.020849284 0.015673362 -0.020358671 4280525624
0.024688885 0.0092061684 -0.014742592 4281046589
0.028576467 0.0027425438 -0.0091367979 4281046333
0.033174898 -0.0059176683 -0.0015357798 4281175619
0.03694278 -0.011640377 0.0033798106 4281696329
0.040979568 -0.018092893 0.0089536048 4281694290
0.045980129 -0.027472973 0.017184194 4282018904
0.050586727 -0.035382763 0.024067583 4282410584
-0.0041156113 0.0048232302 -0.0089714881 4280517718
-0.0027246624 0.0071760491 -0.011417702 4281108299
-0.0009881258 0.0080509409 -0.012509219 4281435973
0.00092656165 0.0081873387 -0.01292452 4281370948
0.0024691001 0.0097999871 -0.014688586 4281371204
0.0040010139 0.011411965 -0.016450223 4281370948
0.0055222921 0.013023362 -0.018209483 4281110339
0.0068388321 0.015371531 -0.020638991 4281045059
0.008139383 0.017718732 -0.023064975 4281108808
0.0092245191 0.020801999 -0.02615892 4281306690
0.010288328 0.023883864 -0.029248152 4281241153
0.011535576 0.026227549 -0.031662285 4281175873
0.013596544 0.025624104 -0.031393763 4281111614
0.016923439 0.020603135 -0.027111059 4280785214
0.021138743 0.012640297 -0.020161796 4280915775
0.025843557 0.0032099113 -0.011889031 4280784703
0.030181466 -0.0047438145 -0.00496615 4280979779
0.034357242 -0.011957638 0.0012772502 4281631049
0.037916005 -0.016961358 0.0055102855 4282216529
0.042190351 -0.024167791 0.011732582 4282215254
0.046746731 -0.032105267 0.018608594 4282149974
0.050435979 -0.037099168 0.022813721 4282345814
-0.0042515136 0.0032410398 -0.01012812 4280582998
-0.0028601512 0.0056004003 -0.012569511 4280911693
-0.00094299391 0.0057368428 -0.012985451 4281305414
0.00097421184 0.0058734119 -0.013401298 4281304904
0.0027055666 0.0067503452 -0.014489874 4281435973
0.0042430311 0.0083671212 -0.016249459 4281435973
0.0059611276 0.0092433542 -0.017334975 4281044294
0.007286083 0.011598706 -0.019761413 4281175109
0.0087916479 0.013213515 -0.021513779 4280848454
0.010087304 0.01556702 -0.023933679 4280850238
0.01116506 0.018658586 -0.02701937 4281047099
0.012221497 0.021748714 -0.030100297 4281176128
0.014292795 0.021143839 -0.029835651 4281436994
0.017418975 0.016846798 -0.026234046 4281176384
0.022065181 0.0073837563 -0.01797005 4280784703
0.026780698 -0.0020741671 -0.0097209495 4280849218
0.031129684 -0.010051034 -0.0028185239 4281629773
0.035096154 -0.016548052 0.0027407296 4282216274
0.038664088 -0.021566361 0.0069602877 4282411604
0.043172933 -0.029531308 0.013828443 4282541909
-0.0026401691 0.0025390759 -0.012375223 4280516443
-0.00071782619 0.0026758835 -0.012792295 4281043019
0.0010215156 0.003555432 -0.013881052 4281043784
0.0027555712 0.0044347197 -0.014968576 4281239624
0.0042959414 0.0060560629 -0.016725505 4281174599
0.0058256872 0.0076767132 -0.018480003 4281044294
0.0075385161 0.0085548684 -0.019562643 4281109828
0.0090496279 0.010174461 -0.021312974 4280979524
0.010749158 0.011051916 -0.022392541 4281240644
0.012039911 0.013411701 -0.024806384 4281175363
0.013314683 0.015770443 -0.027216613 4281175108
0.015194602 0.015905425 -0.027623575 4281174598
0.018542539 0.010855481 -0.023368422 4281567299
0.023202114 0.0013650954 -0.015128663 4281370183
0.028146043 -0.0088604987 -0.0062389625 4281759568
0.032076009 -0.015379861 -0.00068667904 4282215509
0.036053933 -0.021895632 0.0048553273 4282541909
-0.00067356229 0.00035139918 -0.013276039 4280385883
0.0012513511 0.00048851222 -0.013693566 4280977484
0.0029907674 0.0013704002 -0.014780665 4281108808
0.004348509 0.0037408769 -0.017204497 4281174598
0.0060720034 0.0046218857 -0.018287944 4281044294
0.0077902041 0.0055025965 -0.019370109 4281175109
0.0093068965 0.0071269125 -0.021118309 4281175109
0.0110118 0.0080069155 -0.022197414 4281305414
0.012509836 0.0096301809 -0.023941431 4281305668
0.014201418 0.010509469 -0.025017459 4281175363
0.01630138 0.0099022985 -0.024762303 4281044039
0.019663844 0.004838109 -0.020521756 4281305414
0.024124585 -0.0039368421 -0.012970089 4281630539
0.0286493 -0.012707114 -0.0054321326 4281891404
0.032802917 -0.019987956 0.00076671317 4282346834
0.037009813 -0.027264811 0.0069541447 4282476629
0.040378548 -0.031569868 0.010484057 4282541654
0.004400719 0.0014216527 -0.01768651 4280778839
0.0059362464 0.0030514896 -0.019435724 4280977738
0.0078478232 0.0031881183 -0.01985001 4281239879
0.0093674101 0.0048169792 -0.02159556 4281305414
0.01127369 0.0049534962 -0.022008494 4281502019
0.012777304 0.0065814704 -0.023750406 4281305669
0.01467826 0.0067178458 -0.024162009 4281305158
0.016785886 0.0061090589 -0.023910135 4281304903
0.020364201 0.00028502196 -0.019019676 4281631049
0.024621159 -0.0077705681 -0.012151728 4281761098
0.029580764 -0.018055968 -0.0033113733 4282217294
0.033962972 -0.026102275 0.0035296939 4282281044
0.037523799 -0.031166919 0.007716218 4282476118
0.0084845461 -0.0013757944 -0.018338883 4281041743
0.010210849 -0.00049002469 -0.019419419 4281369418
0.011534851 0.0018916354 -0.021825759 4281436228
0.013044029 0.0035243481 -0.023565594 4281502273
0.014746353 0.0044087768 -0.024640657 4281501764
0.017269257 0.0023030266 -0.023067394 4281500233
0.020853892 -0.0035379827 -0.018191447 4281631049
0.025540235 -0.013111323 -0.0100215 4281499979
0.030724812 -0.024173327 -0.00054635946 4281889618
0.034686476 -0.030749165 0.0049547497 4282411094
0.012786752 -0.0049299896 -0.018339608 4281629009
0.01371194 -0.0010413677 -0.022064259 4281761354
0.015017711 0.0013457835 -0.024461534 4281500998
0.017545238 -0.00076620281 -0.022894142 4281501508
0.021551434 -0.0081233233 -0.016712934 4281565768
0.02645742 -0.018473625 -0.0079070367 4281695819
0.031438023 -0.028818458 0.00088280719 4282084949
0.035191514 -0.034664325 0.0057093929 4282476374
0.016185276 -0.012394518 -0.014637891 4282412368
0.016508946 -0.0062380582 -0.020333625 4281891403
0.019057073 -0.0083551109 -0.018775623 4281631814
0.023082536 -0.015732571 -0.012614977 4281631304
0.028007016 -0.026112005 -0.0038360553 4281565768
0.031935625 -0.032729492 0.0016425801 4282087498
0.028708618 -0.030770391 -0.0024137395 4282542419
-0.020801898 -0.0019596592 0.04553169 4280111503
-0.014072362 -0.004349947 0.047033407 4278271679
-0.02354886 -0.0009502843 0.041910559 4279259549
-0.022524167 0.0041512474 0.036510833 4278538154
-0.02095167 0.0064175203 0.033950292 4278733993
-0.018799406 0.0058509037 0.034221888 4279455389
-0.015883781 0.0017458275 0.038025275 4278601904
-0.012627501 -0.0037721023 0.043233775 4278930090
-0.0094853044 -0.0085794926 0.047727644 4278799783
-0.02613445 -0.00063227117 0.039005719 4282209134
-0.024957355 0.0037744567 0.034322217 4278604198
-0.021676298 0.0076089576 0.029919161 4278602923
-0.019683737 0.0077495128 0.02948592 4278537134
-0.011667758 -0.0010530576 0.037336119 4278603434
-0.0093211792 -0.0023284107 0.038301997 4278538408
-0.0071258433 -0.0028936639 0.038562961 4278735013
-0.0047603287 -0.0041675046 0.039524943 4279193759
-0.0015470535 -0.0089847073 0.043992087 4281486974
-0.028702419 -0.00029949099 0.036107332 4280570504
-0.027654383 0.0048339814 0.030725399 4278669478
-0.025800299 0.0056872889 0.029585788 4278538154
-0.012906071 0.0022599772 0.031199837 4278668968
-0.011215471 0.0038253143 0.02936008 4278341293
-0.0093735605 0.004678607 0.028223747 4278406319
-0.0075368732 0.0055316612 0.027088584 4278667438
-0.031649824 0.0021952167 0.031097801 4280308108
-0.028619792 0.0074831545 0.025296049 4278275249
-0.026360612 0.0061921254 0.026273759 4278406574
-0.02437662 0.0063318238 0.025842192 4278668969
-0.022392478 0.0064716488 0.025410673 4279061924
-0.020259816 0.0058969632 0.025681565 4278799783
-0.01797067 0.0046084523 0.026653061 4278800039
-0.015670717 0.0033208132 0.027622292 4278931108
-0.013828985 0.0041760206 0.026487464 4278931109
-0.012151491 0.0057448 0.024653846 4278341039
-0.010484558 0.0073129535 0.022822542 4278537134
-0.0086638145 0.0081670061 0.021692524 4280241553
-0.0061802231 0.0061677769 0.023356853 4278535348
0.0012482964 -0.0078070462 0.036435015 4278668204
0.0048677213 -0.014075913 0.042260267 4278735014
-0.033915032 0.0011285841 0.029624848 4280308108
-0.024658229 0.0054152161 0.023945564 4278603433
-0.022531394 0.0048378557 0.024215939 4278603944
-0.020547215 0.0049777627 0.023784475 4278669479
-0.018412057 0.0044011548 0.024053236 4278538409
-0.016424928 0.0045414716 0.023621282 4278603689
-0.014593828 0.0053981394 0.022490358 4278341548
-0.011108749 0.0078264177 0.019534389 4278799018
-0.009295959 0.0086821169 0.018407689 4279390618
-0.0069879033 0.0073911548 0.01937229 4279062688
-0.0043300726 0.0046705604 0.021726819 4278537644
-0.0011342987 -0.00019356608 0.026163308 4278602668
0.001749251 -0.0036251843 0.029201901 4278669478
0.0046595596 -0.0070547834 0.032234758 4278472873
0.0077768154 -0.011196896 0.035955727 4279194014
-0.036300663 0.00078769028 0.027450429 4279980178
-0.035217661 0.0059690475 0.022095149 4278275759
-0.03364386 0.008267507 0.019558528 4278931108
-0.031547327 0.007685408 0.019833526 4278931618
-0.029445294 0.0071037784 0.020107387 4278537389
-0.026917819 0.0043640584 0.02248277 4278602414
-0.02479678 0.003783986 0.022752652 4278275249
-0.022670258 0.0032043904 0.023021424 4278538154
-0.020982143 0.0047821552 0.021191718 4278603944
-0.019153938 0.0056405216 0.020062925 4278735014
-0.017177597 0.0057800412 0.019633302 4278668968
-0.015201136 0.0059196949 0.019203736 4278603434
-0.013541847 0.007495895 0.017380571 4278471854
-0.0024800487 0.0031737387 0.020097105 4278734504
3.4425408e-05 0.0011639372 0.021745032 4278603433
0.002387695 -0.00012774765 0.022696855 4278341293
0.0045717098 -0.00070182979 0.02295422 4279062689
0.008399982 0.00030041486 0.021392668 4279651738
-0.038426783 -0.00098887086 0.026685806 4278997154
-0.0374506 0.0049316436 0.020635517 4278669479
-0.035742115 0.0065144598 0.018804098 4278340784
-0.031818766 0.0067898184 0.01795 4278602923
-0.025220167 0.0035960674 0.020162584 4278668713
-0.023099292 0.0030138791 0.020430921 4278865318
-0.02156407 0.0053168237 0.017908039 4278603689
-0.019894242 0.0068977475 0.016085668 4278864808
-0.017928712 0.0070364922 0.015658373 4278733738
-0.015807278 0.0064547509 0.015926903 4279061413
-0.013997279 0.0073143244 0.014803952 4278734504
-0.012031369 0.0074534193 0.014376823 4278276013
-0.010229144 0.00831265 0.013255717 4278602668
-0.0077663362 0.0062923133 0.014909668 4278471853
-0.0056256615 0.0057124943 0.015174445 4278734248
-0.0031359717 0.0036942363 0.016822772 4278603433
-0.00080464408 0.0023965091 0.017775977 4278603434
0.0013602935 0.0018187538 0.018035734 4278668968
0.0047940649 0.0042582452 0.015102038 4278272443
-0.0390593 0.00027433038 0.022683883 4278931108
-0.037839878 0.0047618896 0.018049905 4278603943
-0.03600755 0.0056240633 0.016922794 4278866084
-0.034180354 0.0064859241 0.015796917 4278341549
-0.027892102 0.0047265068 0.01661245 4278341295
-0.025642756 0.0034172982 0.01757911 4278603434
-0.023817394 0.0042795688 0.016454028 4278668713
-0.022292417 0.0065882951 0.013938291 4278602923
-0.014293652 0.0064192489 0.01292756 4278537134
-0.012169614 0.0058357269 0.013194041 4278668968
-0.010203741 0.0059749037 0.012766993 4278931364
-0.0077389665 0.0039481372 0.014415566 4278931364
-0.0057648793 0.0040881485 0.01398691 4278734503
-0.0034474991 0.0027849227 0.014939742 4278669224
-0.0014679022 0.0029255301 0.014510056 4278341548
0.0021322854 0.0046493113 0.01227293 4279192228
0.002830822 0.0098361298 0.0070258956 4279979668
-0.039073143 -0.0020807609 0.022192689 4278799783
-0.037723992 0.0016930625 0.018266702 4278669224
-0.036015015 0.0032845587 0.01644171 4278931618
-0.034316521 0.0048754737 0.014619036 4279062944
-0.032360341 0.0050127655 0.014193177 4279062688
-0.030267242 0.0044238716 0.014463983 4278800549
-0.02816863 0.0038354546 0.014733726 4278603943
-0.026348714 0.0046994165 0.013611324 4278603688
-0.024533954 0.0055630803 0.012490178 4278537643
-0.022871803 0.0071520358 0.010675929 4278406319
-0.021220166 0.0087404028 0.0088640135 4279061159
-0.019120831 0.0081526041 0.0091339517 4278865828
-0.014431532 0.0048040599 0.011746576 4278602668
-0.01198633 0.0027691275 0.013394292 4278602923
-0.01017867 0.0036330819 0.012275277 4278931364
-0.0080440864 0.0030483305 0.012537967 4278472618
-0.0062415488 0.003912136 0.011420233 4278537898
-0.0041014478 0.0033280104 0.011681907 4278734248
-0.0021299943 0.0034680367 0.011253977 4278341293
-0.038964052 -0.0051694065 0.022396455 4279062179
-0.037482861 -0.0021135136 0.019174682 4278800293
-0.036022808 0.00094102323 0.01595759 4278603943
-0.034321401 0.0025364757 0.014137551 4278342059
-0.032362681 0.0026739091 0.013711119 4278931873
-0.030403797 0.0028114617 0.013284726 4278997664
-0.02858397 0.0036774278 0.012163941 4278735269
-0.026911203 0.0052712485 0.010350494 4278800548
-0.025248963 0.0068644807 0.0085393824 4278800039
-0.021656241 0.0085938722 0.0063085873 4278472363
-0.019715115 0.0087308288 0.0058865547 4278800549
-0.017308194 0.0066864118 0.0075374674 4278537134
-0.012285411 0.001874432 0.011518925 4278734249
-0.010317147 0.0020137727 0.011091335 4278603433
-0.0086805709 0.0036060363 0.0092865117 4278407083
-0.0070545487 0.0051977038 0.0074840281 4278472363
-0.0050966702 0.0053366348 0.0070589464 4278603944
-0.0031386949 0.0054756925 0.0066339355 4278472618
-0.0022400282 0.0099688321 0.0020909682 4278865318
-0.038855646 -0.0082664937 0.022593962 4279390109
-0.03736851 -0.0052014813 0.019377461 4278800293
-0.035645742 -0.0036003664 0.017555987 4278735013
-0.03406449 -0.0012687743 0.015042266 4278473129
-0.030540306 0.0011993349 0.012105679 4278473129
-0.02872042 0.0020674691 0.010986509 4278800803
-0.027189132 0.0043959841 0.0084839854 4278800803
-0.025529314 0.0059933364 0.0066767074 4278865829
-0.015495669 0.0052205771 0.005941283 4278406828
-0.012904823 0.0024424642 0.0082705524 4278800039
-0.010944702 0.0025811791 0.007844707 4278407083
-0.0096472986 0.0056345016 0.0046707205 4278537898
-0.0044928901 0.0089616701 0.00065953843 4279060649
-0.038870785 -0.010638252 0.02209056 4280307344
-0.037380379 -0.0075643137 0.018879892 4278735269
-0.03565469 -0.0059586614 0.017061053 4278997153
-0.033939499 -0.0043535829 0.015244545 4278669733
-0.032234777 -0.0027491748 0.013430435 4278538663
-0.030404355 -0.0018782616 0.012310512 4278407338
-0.028717954 -0.00027487427 0.01050052 4278538664
-0.027183574 0.002060324 0.00800227 4278604199
-0.025665041 0.0043945685 0.0055075232 4279259293
-0.024162348 0.0067278072 0.0030162986 4278931364
-0.022376496 0.0075961351 0.0019064862 4278996644
-0.020443644 0.0077324733 0.0014862251 4278734504
-0.018355809 0.0071373731 0.0017537698 4278669224
-0.015947495 0.0050799921 0.0033946093 4278734504
-0.013683241 0.0037551075 0.0043454114 4278668968
-0.011733931 0.003893055 0.0039219018 4278341293
-0.010446578 0.0069543198 0.00075671263 4278338489
-0.0069105029 0.0086901933 -0.0014539342 4279058098
-0.0049768239 0.0088275 -0.0018736925 4278272189
-0.038763527 -0.013750106 0.022277316 4280176529
-0.037392545 -0.0099312738 0.01837937 4278735014
-0.035407934 -0.009792313 0.01794708 4278407338
-0.033684511 -0.0081823394 0.016132034 4278669733
-0.031838212 -0.0073082596 0.0150102 4278669733
-0.030133087 -0.0056993365 0.013199324 4278538918
-0.028438468 -0.004091084 0.011390846 4278538408
-0.026754331 -0.0024834573 0.0095847342 4278407594
-0.024004277 0.0036672354 0.0032279883 4278538409
-0.022362363 0.0052722692 0.001431277 4278997154
-0.020426985 0.005408749 0.0010104384 4278997154
-0.018491492 0.0055453703 0.00058967434 4278800549
-0.0162412 0.0042149574 0.0015401542 4278734503
-0.01430013 0.0043521896 0.0011183433 4278603943
-0.011244323 0.0082920268 -0.0031442977 4278930344
-0.0094842762 0.0091614947 -0.0042462684 4279126183
-0.0073881596 0.0085654855 -0.0039816517 4279716254
-0.0054599568 0.0087023824 -0.0044002328 4279324063
-0.038656954 -0.016870402 0.022457825 4281553019
-0.037154693 -0.013778269 0.019257674 4279193503
-0.03554571 -0.011425361 0.016752589 4278800039
-0.03356107 -0.011286318 0.01632035 4278734759
-0.031842548 -0.0096722394 0.014509734 4278669733
-0.030134525 -0.0080588162 0.01270153 4278997408
-0.028436992 -0.0064459741 0.01089566 4278931618
-0.02674998 -0.00483381 0.0090921968 4278931618
-0.025073465 -0.0032222196 0.0072910637 4278604454
-0.023553934 -0.00087481737 0.0048060454 4278735269
-0.022050273 0.0014716387 0.0023245346 4278472618
-0.020258844 0.002344802 0.001216853 4278669479
-0.018472627 0.0032177046 0.00011039712 4278800804
-0.016691625 0.0040903836 -0.00099489652 4278735013
-0.015235458 0.0064339116 -0.0034656953 4278996898
-0.0097876824 0.0083134845 -0.0060853343 4278799528
-0.0073536076 0.0062454045 -0.0044595357 4278341039
-0.036542963 -0.019858718 0.022194589 4282012783
-0.034917574 -0.01749815 0.019690847 4279325084
-0.033307988 -0.015138514 0.017190611 4278669479
-0.031847212 -0.012040272 0.014006298 4278800549
-0.030136291 -0.010422327 0.012200724 4278604708
-0.02843586 -0.0088049471 0.01039749 4279062944
-0.026604977 -0.0079273134 0.0092825051 4278866339
-0.024922896 -0.0063110441 0.0074834749 4278800803
-0.023397636 -0.0039566606 0.0050020963 4278866338
-0.021739256 -0.0023418367 0.0032083858 4278341803
-0.018454112 0.00088597834 -0.00037193485 4278341804
-0.016827352 0.0024989843 -0.0021585319 4278407339
-0.015530389 0.0055867881 -0.0053063016 4278669989
-0.014092352 0.0079357177 -0.0077681928 4279062178
-0.010258276 0.0082073212 -0.0086009707 4278340018
-0.006077949 0.0070057958 -0.0080756787 4279323808
-0.032925863 -0.019745633 0.018738048 4281815669
-0.031586606 -0.015896082 0.014871862 4280243339
-0.030138362 -0.012789913 0.011696924 4279456664
-0.02843504 -0.011168033 0.0098963678 4279390873
-0.026601445 -0.010288008 0.0087823868 4279063198
-0.024773028 -0.0094082654 0.0076696631 4278801568
-0.023242015 -0.0070470124 0.0051919781 4278997153
-0.021578085 -0.0054274201 0.0034002941 4278669733
-0.019773234 -0.0045489818 0.0022929627 4278538408
-0.018281806 -0.002190128 -0.00017588865 4278473128
-0.016963042 0.0009078607 -0.0033219624 4279062433
-0.015506025 0.0032644793 -0.0057831071 4278669478
-0.013902817 0.0048803836 -0.0075611454 4278800548
-0.012145396 0.0057560429 -0.008657733 4278735268
-0.010560654 0.0073708221 -0.01043155 4278538408
-0.0083060898 0.0060282201 -0.0094914902 4278604199
-0.0062135607 0.0054255053 -0.0092309639 4279259548
-0.029734958 -0.017393082 0.01324158 4281553273
-0.028020758 -0.015766129 0.011441914 4280373134
-0.026317041 -0.014139734 0.0096445922 4279259803
-0.024767112 -0.011770695 0.0071675852 4279062943
-0.023087088 -0.010145798 0.0053756237 4279062943
-0.021417607 -0.0085214972 0.0035860557 4278801059
-0.019607387 -0.0076404959 0.002479136 4278669479
-0.017956298 -0.0060172677 0.0006937338 4278669733
-0.016472336 -0.0036522895 -0.0017684801 4278538663
-0.014844999 -0.0020304918 -0.0035485243 4278604454
-0.013552066 0.0010745823 -0.0066822567 4278800804
-0.011951175 0.0026947558 -0.0084563624 4278341548
-0.010360878 0.0043143183 -0.010228151 4278735524
-0.008271426 0.0037090704 -0.0099687036 4278997409
-0.0061765425 0.0031042695 -0.0097102989 4279260313
-0.024761502 -0.014137238 0.0066625755 4281289093
-0.023078609 -0.012507744 0.004873218 4279325338
-0.021406215 -0.010878906 0.0030862875 4278932129
-0.019593295 -0.0099955946 0.0019804556 4278342059
-0.017939318 -0.0083677769 0.00019765552 4278538918
-0.016452279 -0.0059960708 -0.0022603078 4278538663
-0.014662992 -0.0051140562 -0.0033607362 4278931618
-0.013040654 -0.0034881681 -0.0051363362 4279128479
-0.011264496 -0.0026068464 -0.0062337206 4278604198
-0.0096606389 -0.00098197162 -0.0080051739 4278342314
-0.0078976415 -0.0001013577 -0.0090995338 4278407594
-0.0059674941 3.5658479e-05 -0.0095185582 4279456665
-0.022779342 -0.016368732 0.0057244189 4281486209
-0.020950522 -0.015482247 0.0046166666 4280110739
-0.019428663 -0.013101801 0.002155859 4278800293
-0.017769117 -0.011469305 0.00037518237 4278931364
-0.016432542 -0.0083439797 -0.0027550934 4278604198
-0.014640566 -0.007459566 -0.0038545122 4279062943
-0.012853798 -0.0065754503 -0.0049526608 4279062944
-0.010908064 -0.0064377114 -0.0053753583 4278735014
-0.0091291107 -0.0055539161 -0.0064716367 4278538408
-0.0073554032 -0.0046703517 -0.0075666709 4278538408
-0.0057591572 -0.0030414388 -0.0093330126 4278866339
-0.0041734912 -0.0014131963 -0.011096919 4278999193
-0.0025984235 0.00021442026 -0.012858422 4279525003
-0.020792324 -0.018603824 0.0047822297 4282729588
-0.019415423 -0.015467197 0.0016495697 4279323553
-0.017906357 -0.013081074 -0.00080341101 4279389854
-0.016569171 -0.0099470019 -0.0039272448 4278997408
-0.014777157 -0.0090604275 -0.0050250394 4278801059
-0.012829002 -0.0089226589 -0.0054483665 4278866339
-0.011044767 -0.0080364272 -0.0065442389 4278800804
-0.0092657693 -0.0071504563 -0.0076388931 4278342059
-0.0076613724 -0.0055167824 -0.0094037643 4278997409
-0.0058955587 -0.0046314448 -0.010495405 4278866339
-0.0041349865 -0.0037464052 -0.011585775 4278866339
-0.0023796819 -0.0028616339 -0.012674908 4278866594
-0.00062965602 -0.001977101 -0.013762801 4279129499
0.0011150949 -0.0010928214 -0.014849456 4279392658
-0.041510183 -0.029293396 0.015141051 4282667114
-0.016082425 -0.014554113 -0.0024081171 4280897159
-0.014438201 -0.012913719 -0.0041787773 4279783828
-0.012965698 -0.010523237 -0.006618652 4279194268
-0.011181433 -0.0096348599 -0.0077129151 4278866339
-0.0097353868 -0.0072460547 -0.010146814 4278669734
-0.0077977777 -0.0071086735 -0.010567575 4279062944
-0.0058600865 -0.0069711655 -0.010988264 4278931874
-0.0040968284 -0.0060837194 -0.012077625 4278932129
-0.0025159754 -0.0044469833 -0.013833831 4279063198
-0.000945732 -0.0028109029 -0.015587646 4279063964
0.00079637766 -0.0019245893 -0.016672133 4278670754
0.002533216 -0.0010385811 -0.017755339 4279130773
0.0044525824 -0.00090163946 -0.018171495 4280050303
-0.013783693 -0.01828599 -0.0020007305 4282467193
-0.012458444 -0.015135147 -0.005108688 4279718293
-0.010990765 -0.012738407 -0.0075424644 4279063198
-0.009538997 -0.010342643 -0.00997274 4278866339
-0.0077651739 -0.0094525665 -0.011062897 4278800804
-0.0056533329 -0.010067046 -0.010816465 4278997409
-0.0042333119 -0.0076731294 -0.01323955 4279062943
-0.0024752654 -0.0067838132 -0.014325998 4278800804
-0.00090213493 -0.0051431581 -0.016077152 4278735524
0.0010249875 -0.0050059259 -0.016495185 4278735269
0.0025822185 -0.0033660978 -0.018242745 4278801059
0.0050669946 -0.0054820329 -0.016666763 4279063964
0.0073774867 -0.0068458542 -0.015757851 4279850384
0.0098916404 -0.0089594275 -0.014188039 4280310404
0.011639297 -0.0080699474 -0.015271566 4281164399
-0.0091771744 -0.014202446 -0.0091375858 4280177039
-0.007395342 -0.013309583 -0.010227878 4279652504
-0.0056187399 -0.012417018 -0.011316907 4279128224
-0.0043697618 -0.0092622489 -0.014401264 4278997154
-0.002788458 -0.0076168031 -0.016151018 4278669734
-0.0010383278 -0.0067257509 -0.017234012 4278342059
0.0008886382 -0.0065885261 -0.017652012 4278800804
0.0030004345 -0.0072045326 -0.017406724 4278866339
0.0056799203 -0.010079667 -0.01517463 4278866594
0.0085708685 -0.013706163 -0.012285039 4279326104
0.011488497 -0.017330617 -0.0094011314 4280767108
0.014041938 -0.019447759 -0.0078446493 4281160573
0.015224651 -0.016296566 -0.010913771 4281687403
-0.0070265941 -0.017179474 -0.0094022043 4282271353
-0.0052419677 -0.016284183 -0.010491345 4279848599
-0.004158318 -0.012363777 -0.014234908 4278996643
-0.0025714785 -0.01071354 -0.01598262 4278800804
-0.00081597269 -0.0098199248 -0.017065149 4278866339
0.0011161678 -0.0096823424 -0.017484277 4278931874
0.0030483603 -0.0095445961 -0.017903302 4278669989
0.0059168525 -0.013183698 -0.015017144 4278997154
0.0091918707 -0.0183312 -0.010815762 4279784083
0.01250422 -0.023475826 -0.0066223969 4280832644
0.015658669 -0.027862921 -0.0030962909 4281029248
0.01785554 -0.028474383 -0.0028705979 4281488758
-0.0032526366 -0.018507794 -0.011425491 4282533493
-0.002002392 -0.015335403 -0.014496904 4279914134
-0.00041526929 -0.013680726 -0.016241267 4278997154
0.00097951293 -0.01126869 -0.018643845 4278669734
0.0030959398 -0.011888735 -0.018402852 4278866339
0.0057789348 -0.014781021 -0.016184643 4278997409
0.0096216574 -0.02221597 -0.010017905 4279259804
0.013325311 -0.028889798 -0.0045208829 4279850384
0.016296718 -0.032532021 -0.0016649375 4281489013
0.018899349 -0.034658603 -0.00012888573 4282798694
0.00069985911 -0.02059567 -0.01278856 4280766599
0.0019321479 -0.017415635 -0.015849337 4279652759
0.003327392 -0.014996931 -0.018246945 4278866339
0.0062016733 -0.018657371 -0.015378457 4278538918
0.0096712634 -0.024594516 -0.01054388 4278932129
0.013375722 -0.031287849 -0.0050617913 4280046479
0.016153805 -0.03418161 -0.0028705057 4282536554
0.0044782162 -0.02192425 -0.014813241 4281095039
0.0068099946 -0.023308471 -0.013925397 4279915408
0.0099098682 -0.027738795 -0.010417205 4280177548
0.013233766 -0.032928333 -0.0062607615 4281881458
0.0095802546 -0.028599739 -0.012258847 4282863718
0.011085011 -0.030934736 -0.015708802 4282667878
0.01508911 -0.033041701 -0.017100232 4282143344
-0.0095071457 -0.032516658 -0.026706778 4282797928
-0.012074366 -0.031889707 -0.029383555 4282732138
