# .PCD v0.7 - Point Cloud Data file format
VERSION 0.7
FIELDS x y z rgba
SIZE 4 4 4 4
TYPE F F F U
COUNT 1 1 1 1
WIDTH 976
HEIGHT 1
VIEWPOINT 0 0 0 1 0 0 0
POINTS 976
DATA ascii
0.0091324747 0.018775711 0.070940644 4289931809
-0.021481365 0.025407787 0.06386511 4288623149
-0.020869382 0.031371184 0.05665648 4290127393
-0.019540884 0.034099158 0.053219303 4290127904
-0.017766926 0.034887031 0.052041605 4289669923
-0.015523531 0.033736594 0.05311805 4290455069
-0.013269294 0.032586992 0.054192126 4290389533
-0.010840677 0.0307926 0.056013703 4289931809
-0.0085621141 0.029644884 0.057082489 4290062879
-0.006441623 0.02914317 0.057400331 4290128158
-0.0043156669 0.028641948 0.057716958 4290193693
-0.0023584813 0.028785979 0.057284966 4290586138
-0.00075498968 0.030219343 0.055359229 4290586138
0.0010175109 0.031007515 0.054182172 4290259229
0.0033314787 0.029862633 0.055243388 4290978584
0.0069506019 0.02421038 0.061517954 4290978328
0.012868846 0.0108357 0.076716051 4290978328
-0.020888492 0.020549012 0.066423506 4286071364
-0.020711489 0.028479425 0.056973159 4289015593
-0.019376941 0.031216515 0.05354131 4290454813
-0.017597511 0.032006919 0.052364051 4290454814
-0.015823271 0.032796994 0.051187966 4289931810
-0.013732828 0.032290753 0.051510587 4290651419
-0.011473555 0.031137178 0.052580215 4290389789
-0.0090374276 0.02933681 0.054395117 4290585883
-0.0067538507 0.028185114 0.055459455 4289931809
-0.0046308152 0.027681429 0.055775076 4290062879
-0.0030244365 0.029119281 0.053851984 4290259229
-0.0014286116 0.030556371 0.051931307 4290716698
-2.2739172e-05 0.032639381 0.049268324 4290520348
0.0022774376 0.031489108 0.050329223 4290651163
0.0051425137 0.028401015 0.053618163 4289735204
0.010095611 0.018208623 0.065072909 4290062113
-0.020254694 0.024277074 0.058782443 4287969329
-0.019061215 0.027674437 0.054605834 4290127393
-0.017739117 0.030419333 0.051183436 4290127648
-0.016280364 0.032512344 0.048513472 4290455069
-0.014356021 0.03265366 0.048088498 4290913049
-0.012105193 0.031495027 0.049156658 4290913049
-0.0096777342 0.029687494 0.050968379 4291109143
-0.0074026138 0.028530745 0.052031249 4290258974
-0.005630184 0.029323066 0.050857402 4290258718
-0.0038629882 0.03011509 0.049684696 4290258718
-0.0024540164 0.032204755 0.047026038 4290520348
-0.0007026121 0.032995678 0.045856945 4290913049
0.001225397 0.03313766 0.045431469 4290062113
0.0038915463 0.030686039 0.047973324 4289538853
0.007702291 0.024346648 0.054958068 4289408038
0.013465106 0.011531014 0.069337606 4289604389
-0.019649759 0.019404178 0.061326638 4286530108
-0.019203469 0.026078278 0.053418815 4289342759
-0.018035594 0.029484659 0.049256235 4290127648
-0.016736619 0.032236584 0.04584565 4289931809
-0.015138272 0.033682242 0.043930784 4289277734
-0.013387471 0.034474976 0.042763244 4289015848
-0.010813706 0.032007426 0.045318551 4289997089
-0.0087233596 0.031496905 0.045637913 4290651163
-0.006627541 0.030986791 0.045956142 4290455068
-0.0050472058 0.032431386 0.044045456 4290062624
-0.0033011101 0.033224024 0.042879153 4290520348
-0.0013812743 0.033365328 0.04245542 4290520093
0.0005386509 0.033506691 0.042031705 4290716699
0.0030116327 0.031696253 0.043828651 4290716188
0.006248679 0.027285423 0.048580527 4290781468
0.010471512 0.019626264 0.057019368 4290584864
-0.019196123 0.015164871 0.063108407 4286268479
-0.019497745 0.025137434 0.051486269 4289081129
-0.018795915 0.030519443 0.04509721 4289996834
-0.01750689 0.033279303 0.041695476 4290782233
-0.015918884 0.034728486 0.039786264 4290324254
-0.014015857 0.034868218 0.039365984 4290651419
-0.011616409 0.033045486 0.041173793 4290781978
-0.0095370039 0.032531947 0.041493863 4290455069
-0.0076229051 0.032672644 0.041071258 4290127903
-0.0057086945 0.032813396 0.040648662 4290390044
-0.0041465946 0.034260996 0.038745414 4290258718
-0.0020587221 0.033748295 0.039063781 4290258718
3.4574419e-05 0.033236038 0.03938099 4289669669
0.0026856922 0.030765813 0.041912794 4289800483
0.005545035 0.027644612 0.045177884 4289996835
0.00899956 0.022568189 0.050649326 4290127138
0.014802514 0.0096683875 0.064953066 4290192674
-0.019639663 0.023543792 0.050301086 4287511348
-0.019554593 0.031571932 0.040951326 4290323744
-0.018432781 0.034996681 0.036815628 4290258718
-0.016857788 0.036449268 0.03491256 4290455069
-0.014805596 0.035931379 0.035236914 4290324508
-0.012417477 0.03410124 0.037042178 4290520604
-0.010181092 0.032928482 0.038103487 4289866784
-0.0082750767 0.033068553 0.037682638 4290193694
-0.00636895 0.033208691 0.03726181 4290193694
-0.0046386197 0.034004476 0.036102295 4289800994
-0.0025563538 0.033489153 0.036420204 4289800738
-0.00010614842 0.03166391 0.038212009 4290127903
0.0025441162 0.029184889 0.040737294 4289408294
0.0052158087 0.026707489 0.043257881 4289408293
0.0084767565 0.022267906 0.047981113 4289277479
0.013886487 0.010632645 0.060783096 4289146153
-0.0201573 0.031982772 0.037560381 4289866019
-0.018885523 0.034758709 0.034175791 4290258463
-0.017155845 0.035556257 0.033017807 4290193439
-0.014944222 0.034377184 0.034081131 4290127903
-0.012721792 0.033198994 0.035142064 4290193438
-0.010320835 0.031363253 0.036939539 4290062878
-0.0082445107 0.030845119 0.037256934 4289408548
-0.0061627254 0.030327452 0.037573177 4290128414
-0.0044269338 0.03112579 0.036414105 4290324509
-0.0021612048 0.029951066 0.037465692 4290258719
-6.5755099e-05 0.029434532 0.037779093 4289604643
0.0025863163 0.026946906 0.040297259 4289343269
0.0054462254 0.023803933 0.043545466 4288950824
0.0087110549 0.019349406 0.048256066 4288688939
0.014122518 0.0076750554 0.061027527 4288688939
-0.019317277 0.017710106 0.05089407 4286137409
-0.020142041 0.029760733 0.037140071 4288230703
-0.019180588 0.033868305 0.032282211 4289277478
-0.017293941 0.034006663 0.031865418 4289800738
-0.015244968 0.033484146 0.03218703 4289866784
-0.01286082 0.031640552 0.033983134 4290063134
-0.010628037 0.03045875 0.035038494 4289605154
-0.0083844662 0.029277841 0.036091469 4289932063
-0.0063029528 0.028757945 0.036406074 4289932063
-0.0042159855 0.028238509 0.036719523 4289866529
-0.0019453727 0.027059728 0.037766717 4290258973
0.00033599511 0.025881834 0.038811523 4290390044
0.0028116852 0.02404538 0.040587731 4289343268
0.0054896772 0.021550998 0.043093521 4288884778
0.0085668489 0.017740283 0.047059629 4288753708
0.013974702 0.0060264505 0.05980175 4288361264
-0.019511193 0.02487959 0.039670747 4287053368
-0.018691972 0.029664768 0.034081765 4289670178
-0.016794719 0.029803872 0.033662602 4289800993
-0.014897324 0.029943045 0.033243455 4289866529
-0.012670476 0.028756363 0.034296714 4289408549
-0.010432832 0.027570572 0.035347581 4289604899
-0.0081843808 0.026385641 0.036396112 4289539364
-0.0060977973 0.025863878 0.036707953 4289408294
-0.0040057637 0.025342613 0.037018593 4289669158
-0.001730293 0.024159841 0.038061291 4289800228
0.00055595487 0.022977896 0.039101716 4289996578
0.0032196678 0.020473668 0.041603904 4289734949
0.0055327751 0.019293852 0.04263844 4289342248
0.0086113662 0.015470169 0.046594188 4288884524
0.014018267 0.0037170462 0.059306383 4288491823
-0.018091027 0.0078453049 0.055886559 4285940804
-0.018882252 0.019976715 0.042185251 4286922553
-0.018361293 0.026109608 0.035132084 4290389789
-0.01645612 0.026249258 0.034711149 4290324253
-0.014712576 0.027054304 0.03355509 4290062624
-0.012645327 0.026528772 0.033869311 4289473573
-0.010405481 0.02533876 0.03491633 4289277223
-0.0083246268 0.024814337 0.035227638 4289015338
-0.006410785 0.024954932 0.034805022 4289341993
-0.0043216869 0.02443121 0.035114661 4289473064
-0.0020493604 0.023243839 0.036154699 4289930788
0.00059470534 0.02072937 0.038654465 4289734438
0.0028939098 0.019544097 0.039688662 4289800229
0.0053897053 0.017696086 0.041450415 4289538599
0.0086555257 0.013195816 0.046125669 4289210923
0.014252635 0.00074025989 0.059536606 4288818478
-0.018869556 0.017724592 0.041742455 4287249464
-0.018031735 0.022541532 0.036172722 4289931299
-0.01643648 0.024017151 0.034281809 4290192674
-0.014690146 0.024824554 0.033126783 4289996578
-0.012784772 0.024964301 0.032705862 4289407528
-0.010545403 0.02376987 0.033749618 4288884014
-0.0084648207 0.023243232 0.034059301 4289145388
-0.0065510608 0.023383791 0.033636678 4289145388
-0.0044622421 0.022857845 0.033944685 4289668904
-0.0021903813 0.021666065 0.034981463 4289930534
9.226054e-05 0.020475091 0.036015954 4290061349
0.0023856573 0.019285023 0.037048083 4289734693
0.0050610527 0.016764265 0.039534323 4289407273
0.0083227456 0.012248483 0.044198725 4289079853
0.014104331 -0.00091433898 0.058306359 4288949038
-0.019163951 0.016808875 0.039829243 4287641909
-0.018327527 0.021640908 0.03427149 4289668904
-0.016575895 0.022450769 0.033116888 4289800228
-0.014506675 0.021920893 0.033427231 4289930788
-0.012760103 0.022730518 0.032273844 4289799463
-0.010685265 0.022201186 0.032583047 4289014828
-0.0086049661 0.02167232 0.032891098 4288949038
-0.0066912808 0.021812845 0.032468472 4288884014
-0.0046027415 0.021284673 0.032774847 4289080364
-0.0025087669 0.020757008 0.033080027 4289734693
-0.0004093647 0.02022982 0.033384062 4290061348
0.0016954727 0.019703096 0.033686955 4289145643
0.0039911531 0.018508846 0.03471531 4289538089
0.0068618581 0.015312217 0.037919294 4288751923
0.012048457 0.0041068792 0.04982226 4288162619
-0.019304708 0.01522525 0.03865144 4287575354
-0.018311132 0.019400282 0.03383651 4289472554
-0.016715258 0.02088459 0.031952102 4290192419
-0.014807507 0.021024378 0.031530559 4289800229
-0.013227362 0.022507666 0.029649727 4289080109
-0.011158146 0.021975715 0.029958479 4288622383
-0.0090834685 0.021444224 0.030266069 4287835708
-0.0070033297 0.020913217 0.030572515 4287443010
-0.019751407 0.01499122 0.036012959 4286855234
-0.018917754 0.019853408 0.030479223 4289472044
-0.017171238 0.020667175 0.029329039 4289537069
-0.015429925 0.02148067 0.028180011 4289012278
-0.016060006 -0.07269305 0.012807705 4286462788
-0.015706442 -0.071352705 0.0034096669 4286724419
-0.013591319 -0.06661734 -0.0064505544 4286658883
-0.013733149 -0.068221107 -0.0076435339 4287314489
-0.01403239 -0.069050506 -0.0094890948 4287575863
-0.013032239 -0.064264223 -0.013836158 4286658628
-0.014488459 -0.069098994 -0.011982406 4286659904
0.0030710138 0.021367118 0.011341927 4282411859
0.0049473494 0.021505347 0.010927892 4282875448
0.0085762702 0.015501186 0.016929343 4283008559
0.014029821 0.0033599436 0.029330377 4282943533
-0.012913268 0.022158934 0.0099260984 4282017884
-0.010880508 0.021609003 0.010231216 4282740809
-0.0086691268 0.020373343 0.011251054 4282806854
-0.0062711202 0.018452454 0.012983917 4283069504
-0.0042140484 0.017904585 0.013283807 4283266618
-0.00215156 0.017357199 0.013582558 4283660848
-0.00026750565 0.01749575 0.013166632 4283792939
0.0010570437 0.019690229 0.010611844 4283793194
0.0029332303 0.019828375 0.010197789 4283729443
0.0046176091 0.020651465 0.0090719936 4283469853
0.0074638687 0.01736615 0.012214608 4283599904
0.01171726 0.0092914291 0.020325664 4283600158
-0.013049245 0.020631565 0.0087901978 4283139629
-0.011016771 0.020079419 0.0090936972 4283141158
-0.0088058896 0.018839352 0.01011028 4283140648
-0.0065842234 0.017600158 0.011124549 4283402789
-0.004351791 0.016361795 0.012136544 4283792684
-0.0024705864 0.01650003 0.011721167 4283924008
-0.00077295676 0.017326025 0.010593929 4283990564
0.00054674223 0.019526657 0.0080452124 4283798548
0.0020394996 0.021038909 0.0062108701 4283728934
0.003904961 0.021176323 0.0057992237 4283728423
0.00654779 0.018566357 0.0082258759 4283728424
0.010394044 0.011837907 0.014901833 4283793704
0.016290409 -0.0017512813 0.028649952 4283793959
-0.017654441 0.013854202 0.01389815 4283527229
-0.016584687 0.017448867 0.0099074459 4283924519
-0.015211899 0.019659242 0.0073514981 4283925028
-0.013687529 0.02117748 0.0055129891 4283860258
-0.011833481 0.02131339 0.0051033525 4283792684
-0.0094609745 0.019377513 0.0068316935 4283731484
-0.0070723407 0.017442854 0.0085565811 4283799059
-0.0048457496 0.016199742 0.0095664645 4283859748
-0.0033315681 0.017717643 0.0077305278 4283925028
-0.0016445182 0.018545011 0.006607282 4283991074
-0.00052113831 0.02144105 0.003356114 4283992604
0.0011473671 0.022267221 0.002237089 4283863318
0.0031935126 0.021714574 0.002536335 4283797019
0.0060215965 0.01840616 0.0056662438 4283862044
0.0090732127 0.014410947 0.0094976621 4283862299
0.013353743 0.0062861219 0.017562699 4283861788
-0.016835831 0.0081493184 0.017035034 4283332408
-0.016720735 0.01591767 0.0087686228 4283990563
-0.015676655 0.019521369 0.0047919815 4283994133
-0.01449186 0.022430014 0.0015334776 4283860259
-0.012648586 0.022565108 0.0011262 4283793194
-0.01046003 0.021314664 0.0021410016 4283793194
-0.0079101659 0.018679818 0.0045743929 4283794723
-0.0056947283 0.017431481 0.0055834381 4283926559
-0.0040103495 0.018260768 0.0044623269 4283990819
-0.0023312159 0.019089708 0.0033424813 4283990819
-0.00084327906 0.020610182 0.0015157918 4283990819
0.0008226335 0.02143837 0.00039895717 4283925793
0.0026745461 0.021574765 -9.7127631e-06 4283861279
0.005302269 0.018946255 0.0024069529 4283861279
0.0077547729 0.017010432 0.0041132346 4283925539
0.011020429 0.01231249 0.0086365649 4283925028
0.016342942 0.00071074814 0.020197261 4283990564
-0.016695015 0.01369093 0.0083417231 4283989289
-0.016304985 0.020088116 0.0015279446 4284056864
-0.015127521 0.023004889 -0.0017222846 4283993623
-0.013462085 0.023834566 -0.0028377688 4283928088
-0.011284694 0.022578936 -0.0018238537 4283994134
-0.0085713156 0.019239727 0.0013141995 4283993368
-0.0060089156 0.016597182 0.0037381919 4283991328
-0.0045075007 0.018122807 0.0019117268 4283991074
-0.002650544 0.018259315 0.0015017428 4284122144
-0.0011650063 0.019783983 -0.00032113492 4284056353
0.0010635667 0.018532593 0.00068192277 4284056354
0.0029207096 0.018669363 0.00027208962 4283990819
0.0049716458 0.018112795 0.00056699384 4283991074
0.0070279501 0.017556718 0.00086078141 4283925028
0.0092887245 0.016308047 0.0018570004 4283859238
0.013375932 0.0088246427 0.0091771977 4283858984
-0.016346548 0.01006408 0.0093320301 4283592509
-0.016439483 0.018574867 0.0004024813 4284055844
-0.015428223 0.02219793 -0.003550184 4284056354
-0.013765361 0.023029566 -0.0046634451 4283925028
-0.011763331 0.022466525 -0.0043599531 4283925029
-0.009231247 0.019812962 -0.0019360185 4283925029
-0.0068552792 0.017857889 -0.00022338144 4283990564
-0.0050038435 0.017993884 -0.00063223112 4283990819
-0.0029694475 0.017433526 -0.00033557508 4283991074
-0.0011151955 0.017569907 -0.00074490719 4284056609
0.00092732534 0.017010365 -0.00044995639 4284056098
0.0027843527 0.017147122 -0.00085976906 4284056608
0.004447896 0.017979588 -0.0019725803 4283991073
0.0061061196 0.018811788 -0.0030842004 4283994899
0.0083557181 0.017557949 -0.002088855 4283731739
0.01162377 0.012829836 0.0024106307 4283795744
0.017788321 -0.0016231909 0.016711928 4283795744
-0.015353829 0.0036237426 0.01314675 4283525954
-0.016245931 0.01566194 0.0006930111 4283989288
-0.015228458 0.019296294 -0.0032526981 4284056098
-0.013390839 0.019430917 -0.0036587683 4283990564
-0.011725131 0.020264991 -0.0047709476 4283925284
-0.0098899715 0.0203996 -0.005176344 4283925794
-0.0078773946 0.019835316 -0.0048767352 4283927579
-0.005679369 0.018572699 -0.0038738344 4283926814
-0.0036532879 0.018009586 -0.0035770684 4283990818
-0.0016218089 0.017446965 -0.003281422 4284056353
0.00041507185 0.016884815 -0.0029869098 4284122144
0.0022666641 0.017021168 -0.0033955239 4283991074
0.0039249472 0.017855402 -0.0045055198 4283992603
0.0055779368 0.01868936 -0.0056142621 4283794723
0.0072256252 0.019522987 -0.0067217848 4283859494
0.0098747872 0.016870227 -0.0043296954 4283861024
0.014177509 0.0086429603 0.0036503887 4283862809
-0.013719168 -0.0056563728 0.019766472 4283459143
-0.015397809 0.0099318698 0.0038024373 4283790133
-0.015195899 0.017088085 -0.0036671776 4284186914
-0.013524868 0.017924668 -0.0047789803 4284056609
-0.012030888 0.019462466 -0.0065940348 4283991328
-0.010372989 0.020298213 -0.0077027613 4283928853
-0.0085431971 0.020432491 -0.0081069246 4283928853
-0.0063536875 0.019164927 -0.0071055423 4283796764
-0.0041534267 0.017898217 -0.0061064074 4283926559
-0.0019424334 0.0166324 -0.005109638 4283990818
-9.6350908e-05 0.016768247 -0.0055171167 4283990819
0.0015593097 0.017604372 -0.0066249305 4283991074
0.0028233565 0.019840214 -0.0091311587 4283995664
0.0042672679 0.021375135 -0.010934542 4283795233
0.0062960088 0.020810578 -0.010639625 4283793703
0.0087324455 0.018847661 -0.0089497063 4283859239
0.01220404 0.01339002 -0.0037759957 4283859494
0.016337847 0.0058385171 0.0034790272 4283991583
-0.014551997 0.004175853 0.0068924883 4283657788
-0.0149974 0.014171649 -0.0033807149 4284120868
-0.013996765 0.017826542 -0.0073059746 4284056864
-0.012507837 0.019368285 -0.0091165965 4283990818
-0.011029489 0.020909401 -0.010924842 4283860003
-0.0093847588 0.021746431 -0.012028932 4283858983
-0.0072064176 0.020473685 -0.011028432 4283796763
-0.0046527572 0.017795857 -0.0086291237 4283926304
-0.0026325583 0.017228037 -0.0083343424 4283925283
-0.00079458952 0.017363267 -0.008740047 4283990819
0.0006628558 0.018903337 -0.010543222 4283990564
0.0021096766 0.020442726 -0.012343977 4283993113
0.0035458617 0.021981467 -0.014142358 4283797019
0.005367998 0.022115897 -0.014544284 4283993879
0.0077930614 0.020145629 -0.012856861 4283993624
0.010845035 0.01607246 -0.0090854364 4283993368
0.013929043 0.012001753 -0.0053210021 4284056609
0.018507851 0.0030264743 0.0032990715 4284055843
-0.013054751 -0.0044322424 0.012775389 4283657023
-0.014799621 0.01124673 -0.0031005712 4283989034
-0.014636602 0.018443577 -0.010528182 4283991073
-0.013498254 0.021400992 -0.013736336 4283992859
-0.012032952 0.02294543 -0.015538333 4283858473
-0.010224719 0.023078099 -0.015937759 4283858729
-0.0078781173 0.021094792 -0.014238602 4283859748
-0.004969161 0.016997322 -0.010446195 4283926558
-0.0031366982 0.017132053 -0.010850752 4283991584
-0.0013041757 0.017266875 -0.011255257 4284056099
-4.189834e-05 0.019515509 -0.013751169 4284122144
0.0015899651 0.020354301 -0.014850337 4284056863
0.0030210987 0.021896947 -0.016644236 4283991584
0.0050358884 0.021327015 -0.01634958 4283926558
0.0074575767 0.019349977 -0.014666425 4283991584
0.0098952875 0.017374258 -0.012986774 4283990819
0.012555122 0.014696397 -0.010616931 4284056098
0.016280163 0.0085042641 -0.0047865645 4284121379
-0.013938978 0.0054792389 -2.3372471e-05 4283593019
-0.014769528 0.01694902 -0.011639716 4284056099
-0.013972972 0.021331383 -0.016240636 4284058393
-0.012860533 0.02429565 -0.019436341 4283993624
-0.010886513 0.023719793 -0.019134928 4283928343
-0.0085486099 0.02172932 -0.017438866 4283994134
-0.0058308356 0.018325465 -0.014351709 4283926813
-0.0038245954 0.017752241 -0.014057211 4283990819
-0.0020001903 0.017886465 -0.014459923 4284056098
-0.00055553392 0.019434266 -0.016253615 4284056098
0.0012636408 0.019568276 -0.016655041 4284056098
0.0030828491 0.019702397 -0.017056396 4284056098
0.0050999969 0.019130465 -0.016763927 4283990309
0.0071225017 0.018559005 -0.016472585 4283991074
0.0091503747 0.017987996 -0.016182305 4284055844
0.011389483 0.016711961 -0.015201185 4283990054
0.01468215 0.011909943 -0.010765306 4283924263
0.021392029 -0.0041720755 0.0047155367 4283924008
-0.013754964 -0.061801035 0.065731011 4282607189
-0.011646956 -0.061647464 0.065264523 4282476629
-0.0095387846 -0.061493788 0.064798079 4283065933
-0.012914915 -0.0010248683 0.0037336554 4283526208
-0.014565654 0.014033686 -0.011353821 4284055333
-0.014275834 0.020560458 -0.018040244 4284056353
-0.012817986 0.022113042 -0.019833993 4284056863
-0.011017989 0.022245079 -0.020231619 4283991074
-0.0088598207 0.020957744 -0.019236661 4283990819
-0.0065092146 0.018961828 -0.017548377 4283925028
-0.0043269098 0.017676452 -0.016558608 4283990308
-0.0026949868 0.018519383 -0.017654613 4283990308
-0.00049924105 0.017235234 -0.016667701 4284056099
0.0013224818 0.017369434 -0.017069688 4284056353
0.0033392794 0.016795196 -0.016778897 4284121888
0.0047683306 0.018346462 -0.018565599 4284056354
0.0067878589 0.017772622 -0.018275261 4284056609
0.008203622 0.019323088 -0.020058889 4284058904
0.010637257 0.017334137 -0.018388277 4283862298
0.013712058 0.013223737 -0.01465171 4283795743
0.019773481 -0.00078723207 -0.0012734476 4283795743
-0.014054351 -0.062814251 0.063744269 4282410838
-0.012098674 -0.061946888 0.06257727 4282410838
-0.014026165 0.0096845217 -0.0096802711 4283658554
-0.014236577 0.018369213 -0.018443622 4284122144
-0.012949307 0.020638617 -0.020930506 4284122144
-0.010973226 0.0200585 -0.020632863 4283990564
-0.0091705956 0.020190801 -0.021031018 4283990564
-0.0071863756 0.019611506 -0.020735079 4283925284
-0.0051967613 0.019032709 -0.020440254 4283991329
-0.003014911 0.017743092 -0.019453693 4284056353
-0.00063281506 0.015743207 -0.017777111 4284055844
0.0011887848 0.015877392 -0.018179078 4284122399
0.0030104294 0.016011674 -0.018580981 4284122399
0.0046345927 0.016856581 -0.019673318 4284056354
0.0060532652 0.018411558 -0.021454364 4284057118
0.0078669898 0.018545544 -0.0218543 4283925793
0.0096807219 0.018679636 -0.022254158 4283858728
0.012535371 0.015265066 -0.019213103 4283860003
0.017103463 0.0061762631 -0.010677368 4283862553
-0.012400217 -0.062953487 0.060596198 4282410838
-0.012984235 0.0031735636 -0.0059334608 4283525699
-0.013856366 0.014744464 -0.017460503 4283790134
-0.012733944 0.017735457 -0.02063844 4284056609
-0.010928832 0.017867843 -0.021037217 4284056609
-0.0093022957 0.018714407 -0.02212894 4283992093
-0.0078623407 0.020274607 -0.023911875 4283928599
-0.0058810338 0.019693019 -0.023616891 4283928854
-0.0035210364 0.017684896 -0.021940514 4283796509
-0.0009556748 0.014964741 -0.019576974 4283796253
0.00086314231 0.015098717 -0.019978326 4284056353
0.0022926927 0.016658634 -0.021758594 4284121888
0.0035143122 0.018930545 -0.024225272 4284056863
0.0049199238 0.020488899 -0.026000105 4283927834
0.0063148923 0.02204651 -0.027772482 4283859493
0.0083151497 0.021467099 -0.027481079 4283793194
0.011152685 0.018040448 -0.024444643 4283858218
0.015070146 0.01105722 -0.017984275 4283859239
0.021174131 -0.0030373223 -0.0046819542 4283859239
-0.011106029 -0.0069530122 0.0012595477 4283590724
-0.012965921 0.0089563318 -0.014407502 4283592764
-0.012865558 0.016257197 -0.021737818 4284056354
-0.011412147 0.017822515 -0.023520552 4284056864
-0.010147776 0.020103378 -0.025992204 4283925283
-0.0085370913 0.020951094 -0.027078722 4283858983
-0.0067478903 0.021082575 -0.027473781 4283860004
-0.0042128079 0.018351417 -0.025110297 4283928854
-0.0018454641 0.016337406 -0.023440478 4283926049
-3.7435442e-05 0.016470581 -0.023839459 4283991074
0.0013817325 0.018034032 -0.02561406 4284122144
0.0027902499 0.019596836 -0.027386278 4283990819
0.0037885681 0.022588341 -0.030529413 4283994898
0.0053729229 0.023434835 -0.031609491 4283927833
0.0071570799 0.023566732 -0.032002833 4283927834
0.0099801756 0.020128174 -0.028971542 4283928089
0.013250861 0.015263837 -0.024577383 4283927068
0.018050712 0.0054063611 -0.015405243 4283992094
-0.012248017 0.0038613044 -0.012065313 4283461183
-0.012824208 0.014060352 -0.022146076 4283990054
-0.012245834 0.019223476 -0.027377877 4283926303
-0.010813396 0.020791637 -0.029152535 4283993369
-0.0093915537 0.022359127 -0.030924771 4283858728
-0.0072459579 0.0210537 -0.029940303 4283793448
-0.0050896332 0.019749163 -0.028958127 4283925794
-0.0025447458 0.017010137 -0.026603412 4283993113
-0.0009364225 0.017860176 -0.027687412 4283991074
0.00066660717 0.018709926 -0.028770164 4284056353
0.0018704757 0.020993562 -0.031222988 4284056354
0.0032579638 0.022559203 -0.032987121 4283990818
0.0048370734 0.023407476 -0.034064375 4283925539
0.0070256144 0.022106012 -0.03308877 4283925793
0.009432435 0.020089095 -0.031432137 4283991074
0.012275763 0.016641289 -0.02841356 4283990564
0.015571592 0.01176377 -0.024036577 4283991074
0.021923026 -0.0031307526 -0.010126337 4284056098
0.044240605 -0.062937424 0.046195094 4283990564
-0.01068167 -0.0048613995 -0.0062896386 4283525698
-0.012783211 0.01185941 -0.022557391 4283858218
-0.012902517 0.019921288 -0.030533269 4284057374
-0.011833932 0.022934536 -0.03367918 4283993114
-0.0100637 0.023064503 -0.034070142 4283927578
-0.0079266131 0.021754112 -0.033087131 4283993368
-0.0055927299 0.019724509 -0.031420015 4284059669
-0.0032428019 0.017696196 -0.029756363 4283991839
-0.001259625 0.017108506 -0.029466588 4283990818
0.00014673546 0.018679729 -0.031231739 4284056098
0.0015424713 0.020250203 -0.032994445 4284121888
0.0029275753 0.021820003 -0.03475472 4284121889
0.0051102638 0.020513671 -0.033781234 4284055843
0.0070988983 0.019926878 -0.033492282 4283990564
0.0093002804 0.018622069 -0.032522731 4284056353
0.011092201 0.018754749 -0.032917622 4284056863
0.013735024 0.016015187 -0.030590475 4283991074
0.018337697 0.0068163611 -0.022148861 4284056353
0.048199058 -0.070959151 0.05055492 4284057118
-0.012397476 0.0082079358 -0.021596339 4283527993
-0.013207577 0.01918648 -0.032304518 4284056099
-0.012141019 0.022208208 -0.035443351 4284056354
-0.010373574 0.022337975 -0.035833698 4284056864
-0.0082396604 0.021023 -0.034853328 4283991839
-0.0062808916 0.020431146 -0.03455998 4283991584
-0.0039396696 0.018395672 -0.03289941 4283990819
-0.002156008 0.018527029 -0.033293031 4284056353
-0.00017843768 0.017936854 -0.03300361 4284121888
0.0014114268 0.018790049 -0.034080062 4284121888
0.0031951889 0.01892172 -0.034473468 4284121889
0.0051808283 0.018332442 -0.0341856 4284121889
0.0073763505 0.017022774 -0.03321816 4284056353
0.0087537505 0.018596685 -0.034973212 4284056354
0.010330353 0.019449407 -0.036046352 4283927578
0.0125392 0.018141078 -0.035081659 4283796509
0.016480282 0.011073023 -0.028692942 4283795999
0.023524735 -0.0060691126 -0.012828222 4283795999
0.044693351 -0.06190883 0.039112527 4283796254
-0.010806464 -0.00053411722 -0.015842371 4283525953
-0.012462169 0.014105074 -0.029959485 4283989543
-0.012269996 0.020761536 -0.036519185 4284187423
-0.01050267 0.02089127 -0.036909521 4284122144
-0.0085522756 0.020296523 -0.036616076 4284121889
-0.0065964982 0.019702265 -0.036323749 4284056864
-0.0048236698 0.019832721 -0.03671506 4284056608
-0.003050793 0.019963281 -0.037106298 4283990819
-0.00069687143 0.017922431 -0.035453387 4283990564
0.0010840707 0.018053778 -0.035846256 4284121889
0.0028650425 0.01818525 -0.036239043 4284122399
0.0046460293 0.018316809 -0.036631763 4284056098
0.0066313632 0.017725451 -0.036345404 4284056099
0.0080010407 0.019303082 -0.038095385 4283925284
0.0093600377 0.020880068 -0.039842982 4283860513
0.011557717 0.01956653 -0.038879104 4283859239
0.014626028 0.015364919 -0.035210907 4283860004
0.020120641 0.0032231547 -0.024112873 4283599393
0.048656981 -0.069955423 0.043451808 4283860004
-0.0085306913 -0.012229819 -0.0073828483 4283591233
-0.011369035 0.0075474121 -0.026262756 4283660338
-0.011689015 0.016406376 -0.034861751 4284187169
-0.010451593 0.018717872 -0.037302464 4284187679
-0.0084988549 0.018121114 -0.037011217 4284056609
-0.0070971549 0.019704616 -0.038765565 4284057374
-0.0057060719 0.021287495 -0.040517524 4283995919
-0.0037531666 0.020691017 -0.040226027 4283994644
-0.0012144893 0.017917071 -0.037896495 4284060944
0.0007571429 0.017322166 -0.037608989 4284056608
0.0027341209 0.016727813 -0.037322614 4284122143
0.0043135136 0.017584769 -0.03839327 4284056098
0.0060917214 0.017716231 -0.038785297 4284056864
0.007249523 0.020022893 -0.041207656 4283993114
0.0090197399 0.02015396 -0.041597769 4283858729
0.010789949 0.020285139 -0.041987799 4283858474
0.013848959 0.016069837 -0.038327534 4283859239
0.017592346 0.0096842758 -0.032650888 4283925028
0.023805173 -0.0046620332 -0.019572189 4283925028
0.044892818 -0.060105179 0.031404428 4283858728
0.051524058 -0.07442005 0.044391263 4283858473
-0.0097547174 -0.0012292266 -0.020541832 4283659319
-0.011109561 0.012034081 -0.033217128 4283922479
-0.010220923 0.015811205 -0.03701742 4284121888
-0.0088110156 0.017399548 -0.038770322 4284056864
-0.0074117109 0.018987196 -0.040520817 4283992094
-0.0060230345 0.020574218 -0.042268928 4283860768
-0.0040731281 0.019975388 -0.041978482 4283926559
-0.0017312914 0.017920649 -0.040332895 4283928598
0.00082251057 0.0151392 -0.038013246 4283926559
0.0024046227 0.015998434 -0.039082915 4284056353
0.003981404 0.016857415 -0.040151373 4284056353
0.0053489432 0.018443456 -0.041894298 4284056099
0.0067058206 0.020028811 -0.043634798 4284061199
0.008052025 0.021613527 -0.045372903 4283993113
0.0098114498 0.021743901 -0.045760557 4283925793
0.012429282 0.018967934 -0.04345445 4283991328
0.015720222 0.014014412 -0.03913451 4284057884
0.019928221 0.0061588436 -0.032133691 4284058904
0.027311247 -0.0118565 -0.015742583 4284058904
0.049770884 -0.071077108 0.038407337 4283991838
0.05441051 -0.078900069 0.045313459 4284058904
0.056542818 -0.078741059 0.044844419 4284121888
-0.0079698078 -0.010780979 -0.014172487 4283593274
-0.010354511 0.0069129914 -0.030905187 4283725874
-0.010530252 0.015090138 -0.038776927 4284056099
-0.0093051679 0.017413767 -0.041204818 4283991838
-0.0080960318 0.019736359 -0.043629173 4283925539
-0.0065273233 0.020596351 -0.044694539 4283858474
-0.0047734901 0.020725496 -0.045081589 4283858728
-0.0024403706 0.018663645 -0.04343912 4283925029
0.00010452792 0.015872888 -0.041124158 4283925283
0.0018771105 0.016003706 -0.041515116 4283991073
0.0034486465 0.016864423 -0.042580709 4284056098
0.0046073645 0.019184038 -0.044993367 4284056099
0.0055436827 0.02223197 -0.048075955 4283991329
0.0072949864 0.02236164 -0.048461895 4284057884
0.0092580356 0.021762393 -0.048175339 4284058139
0.011655204 0.019706119 -0.046546351 4284058138
0.014502501 0.016193919 -0.043578353 4284057628
0.018035648 0.010498576 -0.038604278 4284056099
0.023835458 -0.0024754927 -0.026939172 4284121379
0.04710957 -0.064792126 0.029770944 4284057628
0.053791158 -0.079189718 0.042680189 4284056864
0.056151044 -0.07975851 0.042880036 4284121124
-0.0096013881 0.0017704144 -0.028609294 4283526209
-0.010839164 0.014373682 -0.040533002 4283922988
-0.010345206 0.019637041 -0.045664374 4284058394
-0.0087791495 0.020498885 -0.046727587 4283993114
-0.0072183684 0.021360442 -0.047789555 4283926049
-0.0054726563 0.021488983 -0.048174817 4283991839
-0.0033411421 0.020152532 -0.04721028 4283992858
-0.001003366 0.018084586 -0.045573711 4284057883
0.0011522137 0.01675009 -0.044614274 4284056098
0.0027158037 0.017612424 -0.0456765 4284056098
0.0040705428 0.019206183 -0.047409948 4284056098
0.0052083991 0.021530857 -0.049812932 4284121888
0.0069569126 0.021660337 -0.050198246 4284056098
0.0091285147 0.020327542 -0.049241945 4284055844
0.011524964 0.018264711 -0.047617786 4283989799
0.014154274 0.015472371 -0.045327444 4284055588
0.017243959 0.011220578 -0.041703723 4284121378
0.022587677 -0.00033260509 -0.031402815 4284121124
0.044907697 -0.059918802 0.022504903 4284055588
0.052942395 -0.078740507 0.039386954 4284121634
0.055759676 -0.080771253 0.040919155 4284121379
0.058357336 -0.082071289 0.041782428 4284120614
-0.0088501647 -0.003393691 -0.026329422 4283395139
-0.011147644 0.013661873 -0.042285636 4283791408
-0.010837149 0.019675791 -0.048080638 4284121633
-0.0098304525 0.022745378 -0.051166099 4284057374
-0.0079082139 0.022137895 -0.050874636 4284057883
-0.0059805885 0.021530859 -0.050584242 4284057373
-0.003854923 0.020189654 -0.049621742 4284057374
-0.0017185584 0.018849332 -0.048661526 4284056099
0.00042850524 0.017509857 -0.047703553 4284055588
0.0021848641 0.017639602 -0.048090838 4284121888
0.0039412305 0.017769443 -0.048478056 4284055843
0.005697608 0.017899396 -0.048865192 4283990053
0.0078713484 0.016562376 -0.047912803 4284055079
0.010055754 0.015226204 -0.046962645 4284055588
0.012678832 0.012424622 -0.044677675 4284055334
0.015106531 0.01035773 -0.043065298 4284122143
0.017988883 0.006826587 -0.040121581 4284188444
0.022895945 -0.0032955371 -0.031182513 4284122144
0.044300769 -0.060131054 0.019927584 4284188189
0.052094847 -0.078277916 0.03610374 4284188189
0.055368725 -0.081779346 0.038961738 4284121888
0.057963166 -0.083083913 0.039822407 4284121380
0.060092203 -0.082924858 0.039354309 4283658043
-0.007394813 -0.011531644 -0.021364881 4283591744
-0.010201495 0.0077894852 -0.039312817 4283592254
-0.010964613 0.018248156 -0.049142268 4284120358
-0.0099572614 0.02132646 -0.052221213 4284187679
-0.0082225129 0.021454062 -0.052604154 4284121633
-0.0061080493 0.020107545 -0.051642548 4284121378
-0.0037904046 0.018025054 -0.050011653 4284121124
-0.0018470623 0.017417267 -0.049726274 4284121378
0.00049730018 0.015336923 -0.048101053 4284055333
0.0024566837 0.014730528 -0.047819052 4283990054
0.0050308816 0.011916254 -0.045530282 4284055843
0.0070089363 0.011311464 -0.045252219 4283990308
0.0094093047 0.0092356764 -0.04363903 4283924518
0.011614498 0.0078967661 -0.042696815 4283924009
0.014044162 0.005823385 -0.0410899 4283989288
0.01605683 0.0052215829 -0.040819142 4284055334
0.018513104 0.0031503923 -0.039217919 4283989289
0.023647072 -0.0077363923 -0.0296381 4283989289
0.044376075 -0.062537313 0.019349005 4283989289
0.051478297 -0.078536019 0.033493854 4283989289
0.054513231 -0.081314787 0.035682168 4283989288
0.057099141 -0.082624361 0.036541428 4283922478
0.059457824 -0.083199456 0.036736775 4283656769
-0.0049962103 -0.058051284 0.019699316 4282869328
-0.0087207071 -0.00032902882 -0.034340389 4283591489
-0.0098205358 0.01164164 -0.045497127 4283988268
-0.009531118 0.017688736 -0.051260795 4284187168
-0.0076015368 0.017077453 -0.050974291 4284186659
-0.0054769441 0.015727371 -0.050018307 4284187424
-0.0031493455 0.013639085 -0.048394542 4284121889
-0.0011956692 0.013029892 -0.048113108 4284122145
0.00096100569 0.011682466 -0.047163911 4284056608
0.0031283461 0.010335997 -0.046217013 4283857963
0.0059152469 0.0067754649 -0.0432694 4283924264
0.0081119314 0.0054313354 -0.04232876 4283923498
0.010319263 0.0040881373 -0.041390441 4283923243
0.012326304 0.0034835488 -0.041120257 4283989289
0.014765901 0.0014044121 -0.039520521 4283989033
0.016572617 0.0015385225 -0.039918412 4283989288
0.019036159 -0.0005386211 -0.038323786 4283923498
0.024396634 -0.012194414 -0.028106444 4283989034
0.044677958 -0.06568417 0.019429825 4283989033
0.051321775 -0.080257758 0.032214299 4283923498
0.054355759 -0.083045229 0.034396183 4283989289
0.056706175 -0.083623216 0.034591593 4283922223
-0.0054730996 -0.058209646 0.017127346 4282411348
-0.0067070238 -0.010713231 -0.027382895 4283591234
-0.008679159 0.0050049387 -0.041874502 4283526463
-0.0083696656 0.011070818 -0.047629308 4283989798
-0.0066085346 0.011200365 -0.048018072 4284055843
-0.0044684708 0.0098470598 -0.047068786 4284056098
-0.0023177192 0.0084946938 -0.046121817 4283990308
-0.00015626475 0.0071431845 -0.04517708 4283924264
0.001818426 0.0065334812 -0.044901863 4283924009
0.0039985664 0.0051836185 -0.043961115 4283857963
0.0063921511 0.0030941293 -0.042356573 4283923754
0.0083908625 0.0024865419 -0.042086393 4283923243
0.010603011 0.0011393391 -0.041152399 4283989034
0.012615044 0.00053295121 -0.040884994 4283857964
0.014632395 -7.2933733e-05 -0.040618669 4283858219
0.016871145 -0.0014177822 -0.039690323 4283989289
0.019558037 -0.0042403601 -0.037439175 4283857964
0.024923224 -0.015930463 -0.027249429 4283857964
0.044525564 -0.067361981 0.018182877 4283989034
0.050935864 -0.081240669 0.030274838 4283857964
0.053502079 -0.08256042 0.031131666 4283858219
0.05631363 -0.084617391 0.032645304 4283987249
-0.0059491433 -0.058359023 0.014562131 4282216529
-0.0044527128 -0.055977117 0.012103694 4282741573
-0.0061266981 -0.015193943 -0.025821831 4283591999
-0.0077217221 -0.00091775134 -0.038943477 4283526208
-0.007394813 0.0051666684 -0.044688784 4283791664
-0.0054312497 0.0045535415 -0.044413112 4283792683
-0.0032730661 0.0031972826 -0.043471195 4283924009
-0.0011041835 0.0018418692 -0.042531513 4283924263
0.00068623573 0.0019739047 -0.042926487 4283924518
0.002476681 0.0021060407 -0.04332139 4283924009
0.0044670515 0.0014954507 -0.043051202 4283923754
0.0064627565 0.00088535249 -0.042782117 4283857963
0.0084638037 0.00027577206 -0.042514112 4283858218
0.010678083 -0.0010756105 -0.041583925 4283857963
0.012692448 -0.0016839765 -0.041318677 4283857963
0.014925353 -0.0030336939 -0.040392455 4283857963
0.017168913 -0.0043825731 -0.03946846 4283857964
0.020078762 -0.0079549402 -0.036564041 4283922988
0.025669858 -0.020420585 -0.025741622 4283857964
0.044599734 -0.069780365 0.017595276 4283922988
0.050550364 -0.082218871 0.028338868 4283857964
0.052881494 -0.082802728 0.028535109 4283923243
0.055452414 -0.084126323 0.02938769 4283921204
-0.0064243898 -0.058499333 0.012003574 4281172303
-0.0049328394 -0.056111332 0.009551256 4282740809
-0.0034571961 -0.053724352 0.0071024848 4283590468
-0.0059046708 -0.018198635 -0.025609631 4283722558
-0.0071287006 -0.0053735003 -0.037366666 4283526719
-0.006789729 0.00072915107 -0.043101382 4283792174
-0.0048158281 0.00011458248 -0.04282961 4283858729
-0.0028365664 -0.0004994534 -0.042558994 4283858474
-0.0010436513 -0.00036736205 -0.042954616 4283924008
0.0011380464 -0.0017259866 -0.042021032 4283924263
0.0029363483 -0.0015932694 -0.042417668 4283989289
0.0049343817 -0.0022055097 -0.042150795 4283923754
0.0065330006 -0.0013274923 -0.043210682 4283989034
0.008536391 -0.0019391105 -0.042944819 4283923753
0.01075279 -0.0032946169 -0.042018458 4283858219
0.013190217 -0.0053934976 -0.040433295 4283858219
0.015217559 -0.0060029514 -0.040172487 4283923243
0.017465902 -0.0073557496 -0.039252903 4283923243
0.020161595 -0.010194961 -0.037016984 4283988268
0.025309812 -0.02121051 -0.027540054 4283988268
0.043994486 -0.069973633 0.015032166 4283988268
0.049707241 -0.081706658 0.025092479 4284119339
0.052030019 -0.082293287 0.02528891 4284119084
0.054358076 -0.082879409 0.025484338 4283788603
-0.006404154 -0.060879927 0.01146005 4282281809
-0.0050770678 -0.057735641 0.0083431555 4282608974
-0.0034307837 -0.056091506 0.0065674996 4282870603
-0.0062179938 -0.018965367 -0.027403116 4284508469
-0.007260669 -0.0068520084 -0.038466137 4283857199
-0.0067367405 -0.0014803782 -0.043522544 4283988014
-0.0049467087 -0.0013487376 -0.043917712 4283924263
-0.0029677786 -0.0019649565 -0.043648679 4283924009
-0.00098348781 -0.0025806613 -0.043380737 4283989289
0.0012003593 -0.0039435141 -0.042450923 4283989544
0.0033948794 -0.0053054094 -0.041523412 4283924008
0.0054005533 -0.0059192143 -0.041259937 4283989289
0.0068050586 -0.0042914562 -0.042981062 4284054313
0.0086085908 -0.0041580237 -0.043378595 4284054824
0.010827124 -0.0055176988 -0.042456031 4284054824
0.013266491 -0.0076229163 -0.040876269 4284054568
0.015508985 -0.0089805759 -0.039958805 4283989288
0.017331136 -0.008845292 -0.040360078 4284119849
0.020244058 -0.012439054 -0.037472948 4284184874
0.024950191 -0.021995824 -0.029334981 4284315433
0.043390036 -0.070157781 0.012475745 4284184874
0.049094152 -0.081926093 0.022511415 4284315433
0.051411249 -0.082515314 0.022707436 4284445484
-0.0067136586 -0.06176063 0.0095778434 4282345558
-0.0052212514 -0.059359629 0.007135286 4282542673
-0.00374474 -0.056959625 0.0046962826 4282673743
-0.007211931 -0.0090810135 -0.038901154 4283922224
-0.0065007843 -0.0044445097 -0.04328312 4283857453
-0.0050775558 -0.0028117485 -0.045005582 4283923243
-0.0030989647 -0.0034301728 -0.044738155 4283923498
-0.0011150092 -0.0040480681 -0.0444718 4284054313
0.0014562868 -0.0069148466 -0.042222563 4284054824
0.0036555938 -0.0082807131 -0.041299433 4283989543
0.0056662783 -0.0088963397 -0.041038673 4283989288
0.0068743713 -0.0065146424 -0.043417312 4284054568
0.0086804256 -0.0063809976 -0.043815382 4284185894
0.010693785 -0.006996043 -0.043554995 4284185638
0.013342388 -0.0098564029 -0.041322265 4284250919
0.015161749 -0.0097214542 -0.041723024 4284577064
0.017196389 -0.010334563 -0.041467045 4284576553
0.019890226 -0.013191216 -0.039244007 4284706859
-0.005699724 -0.059475448 0.0045964411 4282476374
-0.0040582828 -0.057823088 0.0028285338 4282476884
-0.0029448718 -0.053910766 -0.00093019474 4282936648
-0.0075244941 -0.0098081902 -0.040664457 4283920439
-0.0066318512 -0.0059115924 -0.044374056 4283856433
-0.0050225705 -0.0050270297 -0.045431796 4284250409
-0.0028531849 -0.006399788 -0.044505659 4284185128
-0.0008642301 -0.0070195347 -0.044242039 4284054823
0.0013238713 -0.0083906613 -0.04331984 4284185638
0.0037191212 -0.01051271 -0.041740779 4284316453
-0.0060104057 -0.060338389 0.0027282936 4282345814
-0.004541032 -0.057925966 0.00030082744 4282346579
-0.0032598376 -0.054758895 -0.0027857693 4282283593
-0.0074760765 -0.012040958 -0.041102286 4284182578
-0.0065799393 -0.0081332959 -0.04480435 4284119338
-0.0049679503 -0.0072463788 -0.045861028 4284511784
-0.0029847026 -0.0078687817 -0.045597944 4284642599
-0.00099607557 -0.0084907226 -0.045335915 4284642088
-0.0064874329 -0.060438391 0.0002012914 4281626459
-0.004853528 -0.058777902 -0.0015583644 4281693269
-0.0035743788 -0.055602308 -0.0046379128 4282412368
-0.005673334 -0.057344448 -0.0053945752 4282149719
-0.0038884915 -0.056441117 -0.0064865658 4282084949
-0.0045528635 -0.044900049 -0.016802907 4283328583
-0.006660603 -0.055130851 -0.0098761106 4282345558
-0.0048890375 -0.05422638 -0.010963545 4282280788
-0.0052152276 -0.044177692 -0.019937951 4284115513
-0.0058876127 -0.051989537 -0.015424099 4282477648
-0.005876381 -0.043442022 -0.023063017 4282612288
-0.0067128986 -0.050497245 -0.019213576 4282216273
-0.0065363497 -0.042692985 -0.026178213 4282154564
-0.0072962195 -0.031061579 -0.036398664 4284311354
-0.0071943253 -0.050524782 -0.021683685 4281824084
-0.0068475306 -0.043467756 -0.027978472 4281893954
-0.0072544068 -0.033340659 -0.036870249 4283395904
-0.0073330738 -0.052085172 -0.022844195 4281822809
-0.0068110898 -0.045779329 -0.028473523 4281632068
-0.0063316189 -0.039476473 -0.034093361 4282547518
-0.0055368207 -0.034717325 -0.038404286 4283917888
-0.0053877346 -0.054278199 -0.023777433 4282673489
-0.020837374 0.013618153 0.07786978 4282991729
-0.018523753 0.0029756837 0.052264802 4282404209
0.00064139068 0.021475177 0.028884683 4280237474
0.0025527999 0.021615852 0.028462805 4280632979
0.0050279573 0.019746749 0.030214071 4280042909
0.0096154064 0.010511644 0.039923321 4280042909
-0.01911886 0.0033775456 0.04886486 4281880948
-0.0059297234 0.022177689 0.026081491 4280371094
-0.0040293448 0.022317331 0.025661875 4280109973
-0.0021288805 0.022457048 0.025242295 4279389088
-0.00041068345 0.02326937 0.024098843 4278536368
0.0014872774 0.023409041 0.023679923 4278534329
0.0033853203 0.023548786 0.023261037 4278600373
0.0073774792 0.016297221 0.030785799 4278272954
-0.019412465 0.0024386048 0.04693358 4281815669
-0.018100828 0.022488244 0.024529815 4278601649
-0.016694367 0.024655443 0.021931428 4279781534
-0.015140306 0.02614549 0.020062946 4279124653
-0.013098333 0.02560709 0.020374373 4279190443
-0.010713264 0.023717809 0.022135038 4279191464
-0.0083120652 0.02182975 0.023892246 4279454878
-0.006765537 0.023319539 0.022025656 4278603689
-0.0048759282 0.02345836 0.021608397 4278406828
-0.0028067268 0.022922313 0.02191408 4278339764
-0.0010964423 0.023736246 0.020773988 4278995368
0.00079343468 0.023875309 0.020356841 4279324829
0.0026833713 0.024014449 0.019939739 4278276269
0.011091638 0.0081184544 0.036383908 4278275759
-0.020489648 0.013870955 0.031483207 4279980433
-0.020127319 0.020799786 0.023794312 4279062689
-0.018712498 0.022974011 0.021199007 4278996389
-0.015767179 0.026640959 0.016743816 4278272954
-0.013733514 0.026099786 0.017055336 4278337978
-0.0091359019 0.022985756 0.019843973 4278603178
-0.007251814 0.023124086 0.019427866 4278864808
-0.0055442601 0.023939788 0.018289972 4278799273
-8.3833933e-05 0.025031602 0.016323682 4278667948
0.0017953366 0.025169924 0.015908934 4278865065
-0.020019494 0.0095741078 0.033216171 4280243594
-0.020420067 0.01993086 0.021916598 4278407083
-0.017931502 0.025652254 0.015292994 4278996134
-0.016229767 0.026469354 0.014157704 4279979414
-0.014367465 0.026605835 0.013746218 4278799274
-0.011999752 0.024702137 0.015500694 4278406064
-0.0097870268 0.023479624 0.016530257 4278471854
-0.0079110451 0.023617325 0.016115915 4278733738
-0.0060349591 0.023755116 0.015701614 4278930853
-0.0041587837 0.023892986 0.015287346 4278669224
0.0037262626 0.023088228 0.015065233 4278407594
0.006955266 0.018478708 0.019666668 4278801314
0.012172885 0.0070907846 0.031420741 4278932384
-0.018180758 -0.00089097768 0.041451164 4281356923
-0.019937903 0.015650295 0.023658749 4278866084
-0.016365703 0.024941372 0.013021319 4278472364
-0.008395467 0.023442011 0.013533085 4278734504
-0.0063485764 0.022897711 0.013838536 4278276013
-0.0046540685 0.023716839 0.01270689 4278473129
-0.0029648133 0.024535658 0.01157646 4278473383
-0.0010965802 0.024673076 0.01116405 4278736034
0.00077173114 0.024810584 0.010751686 4278801313
0.0032088384 0.022906082 0.012486224 4280113034
0.0056620352 0.021002816 0.014217327 4281490034
0.010080513 0.012297712 0.023089457 4281818474
-0.019457228 0.011352453 0.025388043 4280440198
-0.019595958 0.020400083 0.01559247 4278734249
-0.018523611 0.023962328 0.011576141 4278406573
-0.016664293 0.024098458 0.011165212 4278275504
-0.014804844 0.024234677 0.010754316 4278407084
-0.012777239 0.023686534 0.011062159 4278669733
-0.010573484 0.022454564 0.012087022 4278866593
-0.0085323229 0.021907564 0.012391987 4278801058
-0.0063096806 0.020677181 0.013412754 4278604709
-0.004433699 0.020814994 0.012998498 4278998429
-0.0023762397 0.020269388 0.013300092 4278998684
-0.00049742311 0.020407571 0.012885335 4279196054
0.0011947379 0.021228962 0.011756002 4279327889
-0.018051006 0.0029115789 0.031424668 4281226109
-0.019103684 0.016114131 0.017327681 4279194779
-0.018659152 0.022437021 0.010441705 4278669733
-0.016637426 0.021886086 0.010749034 4278802588
-0.014940578 0.022709303 0.0096198833 4279130263
-0.018298943 0.010431707 0.020485669 4280243338
-0.018156052 0.018154243 0.012176353 4280375174
-0.016610879 0.019669523 0.010329804 4281294704
-0.016869325 0.0019559935 0.026489113 4281619319
-0.01465179 -0.064826667 0.059781164 4281948778
-0.014949843 -0.065825894 0.057804801 4281882479
-0.015393525 -0.066097409 0.055136688 4281619318
-0.013450928 -0.065222442 0.053979151 4281750388
-0.015544593 -0.067810223 0.053862475 4281488504
-0.013601936 -0.066933125 0.052706569 4281684853
-0.015986994 -0.068068087 0.051204558 4281357434
-0.014049597 -0.067189217 0.050051477 4281488504
-0.016283043 -0.069046393 0.049243715 4281554294
-0.014644608 -0.066706896 0.046713326 4281619319
-0.013022013 -0.064368427 0.044186529 4282339948
-0.016723979 -0.069288313 0.046597574 4282144109
-0.015238412 -0.066211179 0.043385129 4281291643
-0.013623349 -0.063866839 0.040865023 4281553783
-0.015535418 -0.067169487 0.041439917 4281357178
-0.013772152 -0.065552294 0.039611198 4281422713
-0.015831992 -0.068123087 0.039498195 4281422969
-0.013920881 -0.067237452 0.038357593 4281291899
-0.012473717 -0.064145625 0.035167102 4282275179
-0.015833322 -0.070548117 0.038926441 4282143344
-0.014219642 -0.068184406 0.036421511 4281553784
-0.012927219 -0.064346418 0.032556046 4280833154
-0.016129397 -0.071496725 0.036988411 4282536554
-0.014817677 -0.067646667 0.033126872 4281684344
-0.013379913 -0.064538226 0.029951744 4280505224
-0.015115172 -0.068579882 0.031200983 4282862189
-0.013831787 -0.064720958 0.027354103 4281029248
-0.012419879 -0.061605681 0.024191476 4281750388
-0.015412211 -0.069508493 0.02927861 4281748603
-0.014130667 -0.065638885 0.02544044 4281225853
-0.012565993 -0.06325911 0.022961516 4281488759
-0.01070223 -0.062367957 0.021838214 4281948013
-0.014581084 -0.065805793 0.022854641 4282208369
-0.012712076 -0.064912245 0.02173179 4281160828
-0.010848254 -0.064018935 0.02061012 4281161338
-0.013012528 -0.065816656 0.019828867 4281291899
-0.011151336 -0.064921439 0.018709477 4281292153
-0.013158314 -0.067466974 0.01860122 4281749878
-0.011453975 -0.065819249 0.016812306 4281226108
-0.0096006021 -0.064922318 0.015696384 4280963969
