# .PCD v0.7 - Point Cloud Data file format
VERSION 0.7
FIELDS x y z rgba
SIZE 4 4 4 4
TYPE F F F U
COUNT 1 1 1 1
WIDTH 714
HEIGHT 1
VIEWPOINT 0 0 0 1 0 0 0
POINTS 714
DATA ascii
-0.02450256 -0.030674636 0.017362896 4286398018
-0.022690952 -0.028283507 0.01502994 4286659904
-0.020895369 -0.025893092 0.012699525 4287444538
-0.022712119 -0.030682683 0.014434964 4286725183
-0.020827875 -0.029049538 0.012778859 4287837494
-0.019042678 -0.026653141 0.010455179 4286987579
-0.022982135 -0.030787602 0.011831609 4286463044
-0.020932019 -0.03068237 0.011515689 4287575864
-0.018970028 -0.029811174 0.010532257 4287118648
-0.021036126 -0.032314859 0.010252767 4287182144
-0.018986024 -0.032209516 0.0099369334 4286987323
-0.017389931 -0.028264925 0.006293538 4286529343
-0.021310791 -0.032406531 0.0076606544 4286854468
-0.019178241 -0.033071637 0.0080099786 4286790209
-0.017493613 -0.029886425 0.005039175 4286463554
-0.015923828 -0.025932379 0.001408319 4286529343
-0.017687827 -0.03073547 0.0031228038 4286529343
-0.015933692 -0.028314814 0.00082429685 4286660413
-0.014387537 -0.02435118 -0.0027944203 4286790208
-0.018062547 -0.030031428 -0.00011103041 4286397508
-0.016223148 -0.028378859 -0.0017432142 4287379513
-0.014490236 -0.025952786 -0.0040333401 4286725183
-0.012773376 -0.023527361 -0.0063209133 4286724673
-0.016419038 -0.029210329 -0.0036453661 4286855490
-0.014688544 -0.02677796 -0.005930068 4286528068
-0.01277741 -0.025898218 -0.0068969666 4286463044
-0.010770477 -0.025794551 -0.0072057224 4287640633
-0.010772184 -0.028169319 -0.0077852178 4287772978
-0.0088662431 -0.027287468 -0.0087494459 4287446069
-0.010975756 -0.028987736 -0.0096756835 4287838258
-0.0087620504 -0.030443996 -0.0086773057 4288035884
-0.011279657 -0.029019296 -0.012214789 4288293433
-0.0090717822 -0.030480087 -0.011218915 4286464319
0.019617859 -0.0017613769 0.02507649 4282478158
0.023938315 -0.01331301 0.035744008 4282154563
0.028345279 -0.02485998 0.046398371 4282154563
0.010739494 0.010908991 0.01102765 4281891149
0.011401065 0.018326625 0.0038622683 4280266034
0.012962461 0.020623446 0.0015038298 4280201009
0.016175296 0.014147341 0.0073692137 4280395318
0.020853499 0.00036518276 0.020074096 4280264248
0.02621191 -0.016334385 0.035500467 4279938869
0.030518049 -0.027182639 0.045437008 4279155254
0.0077422932 0.01434835 0.0053068837 4281435464
0.0084131956 0.021787822 -0.0018431498 4281112379
0.009563785 0.026290812 -0.0062477859 4281242683
0.011362597 0.027125597 -0.0072281011 4281632323
0.014127813 0.022828057 -0.0034234682 4281111359
0.018199246 0.011935025 0.0065235281 4280915773
0.023217142 -0.0033508763 0.020553786 4281176384
0.028495496 -0.019363478 0.035248991 4281176384
0.032695651 -0.029508866 0.044471838 4281763139
0.035752758 -0.033790492 0.048232231 4281891659
0.0033161715 0.014773324 0.002641405 4280844629
0.0046600662 0.018556364 -0.0010799412 4280980034
0.0059769824 0.022338085 -0.0047970796 4281176893
0.0071363449 0.026854247 -0.0091929957 4280004659
0.008796446 0.028426435 -0.010853505 4281307199
0.010581754 0.029262654 -0.011830065 4281763139
0.013332479 0.024951473 -0.0080333343 4280785214
0.016398426 0.0191717 -0.0028787581 4280459833
0.020516243 0.0082490742 0.0070358692 4280525878
0.025302304 -0.0056087747 0.019660294 4281047099
0.03049005 -0.02093064 0.033629347 4281111613
0.0344215 -0.029634833 0.041463777 4281503039
0.037488401 -0.033928744 0.045212682 4281632834
-0.0031513982 0.015850343 -0.00040130317 4280384353
-0.0018943548 0.020383954 -0.004802498 4279674689
-7.1506947e-05 0.021223627 -0.0057836445 4279088954
0.0017459914 0.022063196 -0.0067639099 4280784704
0.0035581589 0.022902533 -0.0077432478 4281045823
0.0051095039 0.025217779 -0.010085174 4280850238
0.0065142438 0.028270219 -0.013105913 4279872313
0.0082968138 0.029108368 -0.014080505 4279416628
0.010209862 0.029208705 -0.014373624 4279741498
0.012815662 0.025621727 -0.011266096 4280068409
0.015730988 0.020561665 -0.0068033016 4280393788
0.0185402 0.016240902 -0.0030254796 4280980033
0.022115108 0.0082366318 0.0041418122 4281241408
0.026944268 -0.00565961 0.016727675 4281241663
0.032180209 -0.021023832 0.030653987 4281241663
0.036291569 -0.030488998 0.039142068 4281437759
0.039370954 -0.034795001 0.042879041 4281697603
-0.0056565218 0.017151609 -0.0040382408 4280058209
-0.0045075454 0.022439159 -0.009112508 4280066623
-0.0030459464 0.0255026 -0.012135657 4280654143
-0.0010084286 0.024861932 -0.011748728 4279806013
0.0030830055 0.023581736 -0.010977079 4280849984
0.0047541186 0.025162853 -0.012632704 4280980545
0.0062841736 0.027483568 -0.014966269 4280980545
0.0081970543 0.027583778 -0.015259449 4280980289
0.010245681 0.026944295 -0.014873673 4281045059
0.012853332 0.023346722 -0.01177491 4281045058
0.015488021 0.01975067 -0.0086802002 4281045058
0.017430712 0.019852892 -0.0089776088 4280783938
0.019519918 0.019216031 -0.008597726 4281045313
0.023106616 0.011188947 -0.0014507528 4281372479
0.028575704 -0.0057019368 0.013803714 4281502529
0.034169063 -0.02258613 0.029039275 4281502529
0.038313523 -0.032077335 0.037500456 4281826378
0.041408077 -0.036395267 0.041225098 4282476119
-0.0093340725 0.013166837 -0.0025950707 4280710499
-0.0081385337 0.018471636 -0.0076649128 4280977994
-0.0068694502 0.023031369 -0.012047921 4279937083
-0.0054048039 0.026103429 -0.015064889 4281176639
-0.0039616898 0.029174481 -0.018078467 4281502274
-0.0018240064 0.027787849 -0.017010575 4281111103
0.00032453984 0.026401944 -0.015944298 4280654653
0.002733469 0.023531698 -0.013521903 4280654653
0.0045267791 0.024374433 -0.014494901 4280654143
0.0065750442 0.023732617 -0.014110961 4280719168
0.0083630383 0.024575293 -0.015082967 4280849728
0.01041678 0.023933977 -0.014699704 4280784450
0.012752473 0.021809466 -0.012963601 4280784449
0.015245359 0.018944278 -0.010553552 4280915009
0.016897876 0.020529367 -0.012202439 4280849729
0.018246856 0.023596689 -0.015200638 4278828344
0.020617705 0.021474473 -0.013469578 4280001854
0.024977755 0.0097193122 -0.0029697437 4280523328
0.030968975 -0.0094404966 0.014259956 4280523328
0.036157608 -0.024148002 0.027424954 4280393024
0.040175281 -0.032924578 0.035185803 4279675708
0.043282285 -0.037254557 0.038898475 4281826379
-0.0098574646 0.014591053 -0.0065206978 4280781388
-0.0088887028 0.021401301 -0.012936533 4280783430
-0.0075240172 0.02522774 -0.016627807 4280197438
-0.0061862692 0.029052891 -0.020314867 4279938103
-0.0044094063 0.029896483 -0.021283986 4280394809
-0.002399452 0.029250063 -0.020896217 4279873844
0.00022552535 0.024880134 -0.017121211 4279091248
0.0025091358 0.022745878 -0.015382643 4280784703
0.0044270642 0.022846133 -0.015676772 4280784703
0.0063450374 0.022946507 -0.015970824 4280915264
0.0082630478 0.02304697 -0.016264811 4280719678
0.010316506 0.022403494 -0.015883183 4280915009
0.012375392 0.021760397 -0.015502308 4280980288
0.014439709 0.021117665 -0.015122131 4280980544
0.015935339 0.023449987 -0.017439887 4280589629
0.017122315 0.027268566 -0.021102777 4280654398
0.019324757 0.025882281 -0.020047281 4280913223
0.022599394 0.019294091 -0.014282026 4280521798
0.027620271 0.0045346469 -0.0011251522 4280326723
0.032749172 -0.010218926 0.012015252 4279153213
0.037347171 -0.021995485 0.022452012 4279153724
0.041706711 -0.032282047 0.031532902 4281566024
0.045481317 -0.039594471 0.037918448 4282217294
-0.0094296001 0.0093027651 -0.0043270066 4280711264
-0.0086627528 0.01762832 -0.012085928 4280977993
-0.0076223239 0.023708425 -0.017802898 4281174853
-0.0065113418 0.029039025 -0.022835948 4280917049
-0.0047398843 0.02988451 -0.023802606 4280785979
-0.0027356073 0.02923559 -0.023415621 4280720698
-0.00011701137 0.02485244 -0.019649766 4281046589
0.0021606311 0.022711493 -0.017915368 4281046078
0.0039458461 0.023558095 -0.01888375 4281176383
0.0057257041 0.024404526 -0.019851234 4281046078
0.0076327696 0.024504423 -0.020143535 4280980798
0.0098104179 0.023111984 -0.019088048 4281110848
0.011860929 0.022466272 -0.018707536 4281111358
0.013635486 0.023312911 -0.019673895 4281046079
0.015117906 0.025650926 -0.021984514 4279221044
0.0165841 0.027988236 -0.024292614 4280784959
0.018629234 0.027342726 -0.023910969 4281371203
0.021437194 0.022970691 -0.020173121 4281502784
0.025048483 0.014874354 -0.01308536 4281112123
0.029032955 0.0052910522 -0.0046654595 4280982074
0.033566393 -0.0065232143 0.005754211 4281177148
0.039159987 -0.022801667 0.020179152 4281177148
0.044377401 -0.036839686 0.032578088 4281306434
0.047349706 -0.040448874 0.035596814 4281435718
-0.0088976622 0.0032433271 -0.0014729975 4280843098
-0.0082213469 0.012343146 -0.0098924171 4280390218
-0.0074989349 0.020690121 -0.017625928 4281435719
-0.0064952448 0.026785534 -0.023323651 4281242429
-0.004721079 0.027633246 -0.024289016 4281046589
-0.002595447 0.026233137 -0.02322945 4281046079
-0.00021569431 0.023335509 -0.020822905 4280915518
0.0016883984 0.023434892 -0.021115027 4280850238
0.0032114387 0.025780849 -0.02342739 4280068664
0.0049777888 0.026628703 -0.024391118 4279352623
0.0070036463 0.025979374 -0.024008721 4279352623
0.0093052089 0.02383364 -0.022282667 4280655418
0.011209488 0.023933604 -0.022574376 4281176639
0.012832705 0.025529917 -0.024208747 4281111359
0.014301892 0.027873669 -0.026512291 4279677494
0.015900817 0.029468916 -0.028142776 4279482419
0.01793487 0.028820641 -0.027761076 4279873078
0.020731026 0.024435163 -0.024031568 4280198969
0.023713622 0.019304127 -0.01963765 4280590904
0.026734021 0.014175154 -0.015249373 4281242173
0.031227216 0.0023244396 -0.0048505282 4281241153
0.037266146 -0.016244233 0.011547829 4281241153
0.043275226 -0.034058765 0.027257994 4281306689
0.046733104 -0.0399196 0.032272637 4281305924
0.049042374 -0.040552303 0.032612991 4282018649
-0.0086832121 -0.00058540702 -0.00066396501 4280843353
-0.007673312 0.006284833 -0.0070406445 4281173578
-0.0069332942 0.014656253 -0.014758293 4280977228
-0.0057990476 0.020018086 -0.019771384 4280914498
-0.0043542534 0.023123495 -0.022758286 4281306179
-0.0025746152 0.023973748 -0.023722712 4281045824
-0.00055733696 0.02332136 -0.023341056 4280784449
0.00121703 0.024171561 -0.024304502 4280784194
0.0026053488 0.02727446 -0.027282394 4279611959
0.0043608993 0.028123908 -0.028242771 4280524603
0.0065079667 0.026721127 -0.0271894 4279612724
0.0090708546 0.023067459 -0.024126019 4278636074
0.010972295 0.023167282 -0.024417289 4280981053
0.012592949 0.024767727 -0.026047911 4281111868
0.013916619 0.027867939 -0.029015347 4280850493
0.015801888 0.027967248 -0.029303871 4281046078
0.017835654 0.027316794 -0.028923824 4281045823
0.020630818 0.022918411 -0.025204275 4281242430
0.023458377 0.018521845 -0.0214896 4281372733
0.026318323 0.014127098 -0.017779784 4281568318
0.030485086 0.0037401766 -0.0087402975 4281306433
0.036833502 -0.016381055 0.0089509441 4281306433
0.042504184 -0.032749623 0.023290068 4281306433
0.046117362 -0.039377034 0.028958671 4281433678
0.048248127 -0.039263666 0.028633457 4281757273
-0.0086798556 -0.0029182434 -0.001211565 4280909398
-0.0073425993 0.0017091632 -0.0055546341 4281499979
-0.0061481968 0.0070889592 -0.010565231 4281498958
-0.0049915165 0.01246696 -0.015569985 4281563983
-0.0038725585 0.017843112 -0.020568851 4281304139
-0.0024353713 0.02095677 -0.023547709 4280718150
-0.00077702478 0.02256269 -0.025181357 4280718658
0.0007465221 0.024921358 -0.027483754 4280327488
0.0020004101 0.028785586 -0.031123854 4281175619
0.0038746074 0.028883621 -0.031411231 4281371203
0.0062774569 0.025970489 -0.02902136 4281110338
0.0088367984 0.022305906 -0.025965873 4280915008
0.010735393 0.02240558 -0.026256707 4280720699
0.012493748 0.023257755 -0.027215481 4281177149
0.013960805 0.025614258 -0.029508591 4281111869
0.015994284 0.024961591 -0.029130299 4281177149
0.018181523 0.02355735 -0.028085962 4281371203
0.020983797 0.019146487 -0.024377603 4281502783
0.023972224 0.013985708 -0.020008113 4281437758
0.026529063 0.011081703 -0.017641013 4281371459
0.030699082 0.00066491961 -0.0086256294 4281370438
0.036725163 -0.018011548 0.007690425 4281370694
0.042063426 -0.032925196 0.020664375 4281369164
0.045502488 -0.03882128 0.025654908 4281629008
-0.0087817647 -0.0044987053 -0.002434019 4280909399
-0.0071206838 -0.0021271631 -0.0047530299 4281564748
-0.0054756999 0.00024372339 -0.0070694974 4281565003
-0.0041861758 0.0048817322 -0.011394951 4281695054
-0.0032764077 0.011785679 -0.017725673 4281172813
-0.0024151728 0.018687204 -0.02404885 4280782409
-0.0011176318 0.022564143 -0.027687378 4280979014
0.00015297532 0.026439782 -0.031321689 4278893624
0.0016498417 0.028803647 -0.033614881 4280654143
0.0035185069 0.028901391 -0.033901405 4281175363
0.0057832301 0.026734322 -0.032184958 4281175618
0.0083336271 0.023058563 -0.02913652 4280198714
0.010361388 0.022403114 -0.028759304 4281176128
0.01239457 0.021748058 -0.028382841 4281176383
0.014433164 0.021093413 -0.028007101 4281568829
0.016768197 0.018930592 -0.026300982 4281306433
0.019119436 0.016768768 -0.024597235 4281305923
0.022090532 0.011592001 -0.020237016 4281239113
0.024638571 0.0086788386 -0.017875398 4281369929
0.027364505 0.0050132573 -0.014853097 4281500234
0.031230554 -0.0039256662 -0.0071903761 4281695564
0.036940284 -0.02114854 0.0077563478 4281695564
0.041623242 -0.033091813 0.018045545 4281695054
0.044888493 -0.038252294 0.022361439 4281759824
-0.0073298588 -0.0029424578 -0.0066399644 4281104983
-0.0053564943 -0.0028400794 -0.0069431993 4281629773
-0.0037219599 -0.00046325475 -0.0092529021 4281630028
-0.0025662445 0.0049448013 -0.014233838 4281631049
-0.0019217357 0.013382286 -0.021880981 4281500743
-0.00097335503 0.019543752 -0.027516108 4281566023
-0.00019188225 0.026460625 -0.033811715 4280590394
0.0012998693 0.028830595 -0.036099039 4280067388
0.0031629801 0.028928056 -0.036384709 4279806524
0.0056854896 0.025239997 -0.033340514 4280132414
0.0082350336 0.021553487 -0.030300364 4280719168
0.010399785 0.020139031 -0.029259671 4280783939
0.012715332 0.01796855 -0.02755579 4281240644
0.014904417 0.0165556 -0.026518656 4281372224
0.017540425 0.012874089 -0.023491384 4281501763
0.019907296 0.010706648 -0.02179509 4281174854
0.022591904 0.0070279241 -0.01877507 4281369418
0.024996556 0.0048627257 -0.017084358 4281369164
0.027573559 0.0019426569 -0.014733809 4281695819
0.031443138 -0.007021755 -0.007091891 4281695819
0.036831684 -0.022782691 0.0064930012 4281695819
0.041347928 -0.034004956 0.016094632 4281825358
0.044609316 -0.039180636 0.020399328 4281628243
-0.0053479224 -0.0051718205 -0.0074908729 4281563983
-0.0034847669 -0.0043088943 -0.0084616542 4281630028
-0.0019735172 -0.0011658072 -0.01143179 4281630283
-0.001074966 0.0057762191 -0.017730387 4281696329
-0.00058774278 0.014995351 -0.026019337 4281762883
-0.00016526505 0.024211235 -0.034298245 4281241918
0.0010768063 0.028106928 -0.037911247 4281175108
0.0030661114 0.027444787 -0.037531745 4281240389
0.0055877753 0.023745969 -0.034495838 4281240389
0.0081364699 0.020048693 -0.031463977 4281305923
0.010437921 0.017870948 -0.02976314 4281306179
0.012895435 0.0149353 -0.027401594 4280980544
0.015374552 0.012000903 -0.025043273 4281110593
0.018020511 0.0083092004 -0.022025941 4281304904
0.020397607 0.006135866 -0.020336265 4281435464
0.022790896 0.0039635301 -0.01864896 4281434189
0.02504703 0.0025503039 -0.017625075 4281565004
0.027626015 -0.00037822872 -0.015281561 4281825868
0.031496432 -0.0093682781 -0.0076599531 4281826124
0.03656166 -0.023658834 0.0045701554 4281891404
0.041237034 -0.035671026 0.01480664 4281956174
0.044330422 -0.040104315 0.018440772 4282085458
-0.0052296184 -0.0082700402 -0.0073757283 4281167458
-0.0033610649 -0.0074047446 -0.0083456226 4281562710
-0.0018440187 -0.0042527542 -0.011309959 4281563474
-0.00058467686 0.00042244792 -0.015600304 4281629263
3.8359314e-05 0.0089060962 -0.023207063 4281762373
0.0003550835 0.018910393 -0.032132328 4281175363
0.0016111992 0.02281756 -0.035739116 4281371968
0.0036137179 0.022153966 -0.035363324 4281371458
0.0062796287 0.017683692 -0.031675149 4281305413
0.0088436753 0.013976499 -0.028654071 4281110084
0.011160761 0.011793122 -0.026960619 4280915009
0.013354372 0.01037173 -0.025930999 4281110339
0.015558802 0.0089510083 -0.024902886 4281305924
0.018064205 0.0060095862 -0.022555273 4281370438
0.020295639 0.0045904964 -0.02153112 4281696073
0.02268835 0.0024116784 -0.019848786 4281695564
0.025097238 0.00023390353 -0.018168863 4281760589
0.027989984 -0.0042233616 -0.014514573 4281761099
0.031866644 -0.013238817 -0.0069140797 4281891658
0.036614515 -0.026050039 0.0039670495 4282022218
0.040962167 -0.036577091 0.012861223 4281956173
0.044051837 -0.041023403 0.016485829 4281889365
-0.0034630038 -0.0089797378 -0.0095637701 4281232994
-0.0019455552 -0.0058192015 -0.012521457 4281497428
-0.00033168122 -0.0034239143 -0.014812708 4281563729
0.00066281855 0.0027912855 -0.020414483 4281434444
0.0013674572 0.010532439 -0.027334031 4281762374
0.0026484281 0.014451578 -0.03093617 4281435464
0.0044174492 0.015314542 -0.031888541 4281370439
0.0068383664 0.012359478 -0.02953515 4281240134
0.0092809089 0.0094056576 -0.027184974 4281174598
0.011608228 0.0072163865 -0.025498144 4281240133
0.013672657 0.0065544173 -0.025133189 4281240898
0.015742492 0.0058928281 -0.024768986 4281110084
0.018107643 0.0037059113 -0.023087662 4281435719
0.020636631 0.00075724721 -0.020750254 4281696328
0.023487907 -0.0037153065 -0.017099906 4281760843
0.02621852 -0.0074235946 -0.014112078 4281825358
0.029599102 -0.014179513 -0.0084992461 4281891148
0.033345141 -0.022457004 -0.0015800791 4281891148
0.037633985 -0.033017278 0.0072994167 4281825613
0.04101529 -0.039002225 0.012231392 4282083928
-0.0020470545 -0.0073853284 -0.01373272 4281037918
-0.00043291226 -0.0049835965 -0.016018957 4281368144
0.00092408061 -0.0010500476 -0.01962455 4281630028
0.0021309219 0.0036483482 -0.023886457 4281564748
0.0036831573 0.0060472041 -0.026162915 4281565003
0.0053478591 0.0076794326 -0.027777042 4281695819
0.007527031 0.0062483549 -0.026752234 4281630284
0.0097170472 0.0048179477 -0.025728919 4281565004
0.01191787 0.0033882484 -0.024707239 4281499979
0.0139901 0.0027245358 -0.024345167 4281565514
0.016209863 0.0012960508 -0.023326132 4281565003
0.018874846 -0.0024267808 -0.020336971 4281760844
0.021714322 -0.0069129094 -0.016695011 4281564749
0.024886612 -0.012926698 -0.011745051 4281368908
0.028102074 -0.018938065 -0.0068015875 4281368398
0.031516314 -0.025711477 -0.0012090635 4281366359
-0.00041644275 -0.0073116347 -0.016565248 4281168988
0.0013049059 -0.0056724772 -0.018185023 4281695054
0.002523236 -0.00096064061 -0.022438608 4281630028
0.0039607622 0.0022133589 -0.025370181 4281564494
0.0056336895 0.0038502887 -0.026982218 4281760334
0.0075581968 0.0039510652 -0.027277216 4281694798
0.0097504631 0.002516523 -0.026257675 4281630029
0.011953555 0.0010826588 -0.025239702 4281564493
0.014585271 -0.0026528984 -0.022253998 4281630540
0.017243987 -0.0063868538 -0.019272372 4281761098
0.020219032 -0.011653602 -0.014983647 4281890639
0.023526601 -0.018452272 -0.0093902322 4281890383
0.026582625 -0.023714527 -0.0051136436 4281430619
0.0013239421 -0.0080000088 -0.018731508 4281628498
0.0024227202 -0.0025047138 -0.02363272 4281629263
0.0039862841 -9.2454255e-05 -0.025900844 4281433424
0.0056620389 0.0015489236 -0.027509935 4281629008
0.0078511424 0.00010981411 -0.026493367 4281694799
0.010184806 -0.002098538 -0.024822779 4281629263
0.012807548 -0.005845353 -0.021844245 4281629774
0.015735544 -0.011129767 -0.017560277 4281694544
0.018984992 -0.017951034 -0.011973311 4281889874
0.02213851 -0.024000302 -0.007047595 4282280534
0.0025678128 -0.0055936649 -0.023515504 4281497938
0.0040115491 -0.002402246 -0.026434593 4281563218
0.0059465021 -0.0023010522 -0.026731294 4281368145
0.0085359514 -0.0060606152 -0.023756243 4281433169
0.011419579 -0.011362612 -0.019477449 4281694799
0.014477313 -0.017434418 -0.014550821 4281824848
0.017717227 -0.024275556 -0.0089776237 4281824593
0.020864042 -0.030342363 -0.0040644724 4282216274
0.0046633221 -0.0085890666 -0.023703925 4281563218
0.0069984607 -0.010810368 -0.022043876 4281563473
0.010003582 -0.016902305 -0.017122835 4281629263
0.013051905 -0.022991866 -0.012208333 4281825358
0.015871134 -0.027530909 -0.0086040255 4281890638
0.018722767 -0.032068148 -0.0050045941 4282411094
-0.010910973 -0.0034723505 0.050255205 4282601579
-0.0090156794 -0.0019321069 0.048523929 4278600373
-0.006210804 -0.0068339333 0.053132575 4279060138
-0.01395886 0.0012122765 0.042949628 4280176529
-0.010316145 0.0050167739 0.038798157 4279059628
-0.021594785 -0.0073563606 0.049279753 4281815159
-0.020015985 -0.0029231086 0.044737108 4278800548
-0.018469445 0.001508601 0.040199451 4278800804
-0.016681664 0.0037768558 0.037774615 4278341803
-0.013250846 0.0090315714 0.032230765 4279192483
-0.011116885 0.0084167495 0.032619257 4279127204
-0.0086714625 0.0056421235 0.035109717 4278930344
-0.0058902875 0.0007089749 0.039698426 4278799020
-0.0027490184 -0.006381385 0.0463816 4278733995
-0.024677247 -0.0011786297 0.040581103 4278930089
-0.022945583 0.0018203482 0.037454776 4278733229
-0.020978481 0.0026491657 0.03643705 4278864809
-0.019104965 0.0042007491 0.034718841 4278603943
-0.017242067 0.0057518408 0.033002395 4278538154
-0.006519556 0.0026695207 0.034928255 4278405554
-0.0039295182 -0.0008335039 0.038104761 4278996134
-0.00076263398 -0.0079439506 0.044767164 4278669224
0.0029089823 -0.017938085 0.054211672 4278932383
-0.028684378 -0.0052149966 0.042047728 4280242574
-0.027464628 0.0028732195 0.034014195 4278667948
-0.025903694 0.0073310658 0.029494364 4278274229
-0.019474208 0.0047438815 0.031357385 4278930343
-0.01752837 0.005573906 0.030344743 4278996388
-0.015681386 0.0071285516 0.028634187 4278734248
-0.013652485 0.0072334707 0.028322134 4278406318
-0.011524446 0.0066139773 0.028708119 4278471853
-0.0091874897 0.0045461282 0.030488506 4278471853
-0.0069386065 0.003203474 0.031569269 4278734249
-0.00489299 0.0033096448 0.031254958 4278537898
-0.0025178492 0.0012440756 0.03302972 4278800039
0.00066112354 -0.0058871508 0.039673444 4279193503
0.0044702664 -0.016633771 0.04978643 4279520668
-0.032654233 -0.0099932775 0.044210725 4282536809
-0.031435147 -0.0011499748 0.035484139 4278801058
-0.029758848 0.0025947765 0.031667978 4278603179
-0.028109342 0.0063382015 0.027856059 4278865065
-0.026406705 0.009352684 0.024747629 4279127714
-0.024312258 0.0087286979 0.025136609 4279192738
-0.021870881 0.0051956475 0.02831842 4278340784
-0.017632574 0.0039507076 0.029089149 4278930853
-0.015691988 0.0047826916 0.028079063 4278472363
-0.013756659 0.0056145042 0.027069859 4278800039
-0.011530053 0.0042661726 0.028150491 4278865573
-0.0092924908 0.0029184744 0.02922957 4278668969
-0.0071482547 0.0022978559 0.029611517 4278472108
-0.00079484284 0.0011643171 0.030058529 4278470068
0.006246455 -0.016764365 0.046765033 4278601394
-0.033380941 -0.0050815418 0.036632307 4280242573
-0.032184631 0.0037863404 0.027929459 4278866338
-0.030383222 0.0060804114 0.025522191 4278537389
-0.026748672 0.0099365413 0.021412883 4278733994
-0.024662599 0.00930994 0.021801431 4278406064
-0.017917946 0.0037862435 0.026441973 4278865574
-0.015982747 0.0046200603 0.025434379 4278734503
-0.014052816 0.0054537505 0.024427634 4278603689
-0.01183201 0.0041007698 0.025505811 4278734503
-0.0097016841 0.0034771711 0.025888111 4278668713
-0.0077740587 0.0043110102 0.024882007 4278340274
-0.0060653649 0.006601505 0.022489954 4278733229
-0.0041537359 0.0074347183 0.021486469 4278734248
-0.0015740693 0.0038990751 0.024639353 4278537644
0.0047252625 -0.0097181872 0.037158642 4278537899
0.0078919008 -0.016158797 0.043060903 4279455644
-0.033347502 -0.00818827 0.036757339 4281552253
-0.032144286 0.0007057339 0.028073605 4279521943
-0.030485734 0.0044709295 0.02427705 4278736034
-0.022503406 0.0056172088 0.022339214 4278472363
-0.02013775 0.0027948618 0.024807673 4278603689
-0.018383645 0.0050935 0.022413198 4278669479
-0.016366072 0.0051976442 0.022102747 4278472874
-0.014444228 0.0060330033 0.021098956 4278341548
-0.012133375 0.0039443299 0.022867981 4278800039
-0.01021127 0.0047798976 0.021864306 4278930853
-0.0045860671 0.0080160648 0.018167317 4278406319
-0.0023515821 0.006659992 0.019240409 4278472365
0.00023815036 0.0031142235 0.022383373 4278340529
0.0032074712 -0.002620019 0.027592529 4278340783
0.0062200874 -0.0083518401 0.032795083 4279062943
0.0098904893 -0.017729893 0.04143738 4279128478
-0.033177093 -0.012772597 0.038267639 4282011254
-0.031961553 -0.003852278 0.029602282 4279784083
-0.030514047 0.0021273568 0.023727175 4278473384
-0.028802238 0.0051679164 0.020637378 4278735523
-0.026873216 0.0060051531 0.019633673 4278996899
-0.024784975 0.0053743199 0.020018473 4278996643
-0.022691153 0.0047438219 0.020402532 4278668713
-0.020591781 0.0041137636 0.020785775 4278603178
-0.012532551 0.0045298636 0.019545753 4278734249
-0.010618538 0.0053671598 0.018545009 4279061669
-0.0088136606 0.0069371462 0.016854621 4278340274
0.0022798032 0.00086948276 0.021508683 4278734504
0.0050321519 -0.0034165978 0.025324829 4278603943
0.0079397559 -0.0084327832 0.029823691 4278735268
0.010257974 -0.0097882152 0.030880924 4278736034
-0.033007704 -0.017373897 0.039764877 4281880693
-0.031565957 -0.010637216 0.033199247 4280045969
-0.030098595 -0.0046394616 0.027334601 4279849108
-0.028520837 -0.00011653453 0.022862565 4279063198
-0.02681651 0.0029322505 0.019780774 4278735013
-0.024805225 0.003035605 0.019470926 4278603943
-0.022793785 0.0031390637 0.019161131 4278537644
-0.02086968 0.0039785206 0.018160041 4278537389
-0.017315879 0.0078635365 0.014089142 4278996898
-0.012930874 0.0051286593 0.016233705 4278733994
-0.010923963 0.005232513 0.015925094 4278734249
-0.0092280395 0.0075415 0.01355007 4278734248
-0.007335417 0.0083800256 0.012554449 4278865319
-0.005338978 0.0084836632 0.012247709 4278472618
-0.0031188317 0.0071182102 0.013316215 4278668458
-0.0010023043 0.0064879134 0.013695938 4278864808
0.0012369305 0.0051237345 0.01476165 4278799528
0.0033671372 0.0044943243 0.015139486 4278735779
-0.0346044 -0.025794663 0.045036927 4282600049
-0.033113196 -0.019036271 0.038478743 4281880183
-0.031456858 -0.014496736 0.034004569 4280045968
-0.029832713 -0.0099587366 0.029535439 4280112014
-0.028393894 -0.003945142 0.023688711 4279325083
-0.02676031 -0.00014893711 0.019921381 4278473639
-0.025071591 0.002907753 0.016848762 4278604198
-0.023234978 0.0044871494 0.015159671 4278734248
-0.02140902 0.0060661435 0.013472267 4278275249
-0.019503638 0.0069068074 0.012475855 4278931363
-0.017603539 0.0077473074 0.011480338 4279324829
-0.015517771 0.0071125105 0.011862499 4278602923
-0.011127919 0.0043694749 0.013999705 4278930854
-0.0094344169 0.0066847578 0.011630091 4278865318
-0.0074382201 0.0067882538 0.011323291 4278668969
-0.0054419264 0.0068918616 0.011016552 4278865573
-0.0033338554 0.0062588602 0.011395798 4278472108
-0.0016777664 0.0085726008 0.0090323212 4278668713
7.9255551e-05 0.010149188 0.0073564267 4279261844
-0.032876998 -0.024403922 0.040647324 4280767108
-0.031206474 -0.019850813 0.036181055 4280177039
-0.029568158 -0.015299246 0.031719837 4280177293
-0.02811487 -0.0092677921 0.025884338 4280045714
-0.026704602 -0.0032384545 0.02005554 4279128478
-0.025173694 0.0013079271 0.015611128 4279259549
-0.023421466 0.0036319047 0.013236941 4279062688
-0.017983206 0.0083799064 0.0081912288 4278338744
-0.011432271 0.0042505041 0.011391913 4278930854
-0.0095370412 0.0050933063 0.010399145 4278799783
-0.0076471083 0.0059359372 0.0094072772 4278603943
-0.0058712922 0.0075174198 0.0077316547 4278669988
-0.0043292381 0.010576263 0.0046892362 4279065238
-0.031170063 -0.022996761 0.036274679 4280242828
-0.029599242 -0.017689005 0.031134196 4280177039
-0.028066009 -0.012383118 0.025999617 4279980433
-0.026491404 -0.0078217089 0.021558437 4279521688
-0.025112383 -0.0017767698 0.015748058 4279128478
-0.023523249 0.0020388067 0.012004533 4278866849
-0.021960936 0.0058530867 0.008265269 4278931363
-0.020156145 0.0074395835 0.0065879496 4278931108
-0.018084563 0.0067996085 0.0069688065 4278668458
-0.01591225 0.0054181218 0.0080339992 4278996389
-0.013533261 0.0025538653 0.01046686 4278734248
-0.011534866 0.0026572347 0.010159521 4278275504
-0.0098461881 0.0049850643 0.0078007886 4278472109
-0.0083855987 0.0087948292 0.0040777596 4279195544
-0.030992635 -0.027641505 0.037736133 4282406249
-0.029483631 -0.021573089 0.031918932 4280373388
-0.027941495 -0.016251728 0.026794713 4280045968
-0.026279271 -0.012421936 0.023048211 4280111503
-0.024725392 -0.00784868 0.018620458 4279587479
-0.023287997 -0.0025323704 0.013512635 4279062943
-0.021801278 0.0020376295 0.0090953866 4279062688
-0.020257175 0.0058617741 0.0053674141 4278996388
-0.018278196 0.0059637874 0.0050627934 4278800039
-0.016109012 0.0045778602 0.0061250376 4278734249
-0.013635669 0.00096090883 0.0092346882 4278472363
-0.011637416 0.0010642409 0.0089273537 4278994348
-0.029368803 -0.025469728 0.032693878 4282011763
-0.027893752 -0.019385815 0.026895456 4280766598
-0.026225582 -0.015545025 0.023156449 4279980945
-0.024584226 -0.011705458 0.019421615 4279718549
-0.023053788 -0.0071204752 0.015007646 4279652758
-0.021642394 -0.0017904341 0.0099157421 4278407594
-0.020268656 0.0035378188 0.0048296833 4278931618
-0.018471532 0.005132556 0.0031603379 4278537643
-0.016400352 0.004488349 0.0035379389 4278668458
-0.014030837 0.0016063601 0.0059587816 4278406574
-0.011940528 0.00096334517 0.0063335979 4278863023
-0.010565728 0.0055410862 0.0019441852 4279328143
-0.027618885 -0.024776123 0.029038712 4281488248
-0.026172392 -0.0186764 0.023258202 4279914899
-0.024443813 -0.01557488 0.020213064 4279587479
-0.022820637 -0.011725485 0.016489562 4279784084
-0.020101629 -0.0002874285 0.0056506721 4278931618
-0.018572472 0.003557466 0.0019419203 4278931364
-0.016880646 0.0059044361 -0.00040246081 4278996133
-0.012443386 0.0023675114 0.00238821 4278406063
-0.010461487 0.0024700761 0.0020834552 4279521178
-0.026119694 -0.021816052 0.023353525 4281814904
-0.024547584 -0.017203346 0.018953245 4279914898
-0.02284003 -0.014094263 0.015918136 4279718293
-0.021240436 -0.010235265 0.012206775 4278604198
-0.019756913 -0.0056267977 0.0078203892 4278998429
-0.018489502 0.00048144162 0.0020813802 4279128224
-0.016981252 0.0043360591 -0.0016156593 4279259039
-0.015110575 0.0051880032 -0.0025964649 4278471854
-0.010357756 -0.00060930848 0.0022163233 4278276524
-0.024651311 -0.018831499 0.017693661 4280635019
-0.022943325 -0.015713833 0.014665219 4280111249
-0.021170415 -0.013350263 0.012318199 4278276524
-0.019591711 -0.0094815418 0.0086185401 4279521433
-0.018131673 -0.0048612654 0.0042459248 4279391639
-0.016892873 0.0012627244 -0.0014751414 4279259294
-0.015113972 0.0028695613 -0.0031314315 4279061924
-0.012846299 0.00071415305 -0.0014063912 4278864298
-0.010357141 -0.0029447228 0.0016672323 4279324828
-0.022879489 -0.018843845 0.014766044 4281878908
-0.021100894 -0.016473517 0.012423153 4278603944
-0.019427307 -0.013348855 0.009406901 4279718293
-0.017775171 -0.010225162 0.0063940519 4279914899
-0.016521893 -0.0040833429 0.00068427622 4279521688
-0.014826432 -0.0017168522 -0.0016454672 4279258784
-0.012847777 -0.0016146228 -0.0019498551 4278931364
-0.010561664 -0.0037754029 -0.00023262389 4279390618
-0.021118 -0.018847719 0.011847018 4279651993
-0.019441314 -0.015714332 0.008837021 4279783573
-0.017694548 -0.01333905 0.0065042889 4279849108
-0.016152278 -0.0094505847 0.0028272374 4279718804
-0.014539964 -0.0063201636 -0.00017258152 4279390873
-0.012749892 -0.0047040433 -0.0018238239 4279521179
-0.010663558 -0.0053580031 -0.0014567524 4279653269
-0.019455545 -0.01808387 0.008264075 4281944698
-0.017705821 -0.015701979 0.0059358841 4279980178
-0.016066238 -0.012561716 0.0029385043 4279784083
-0.014351327 -0.01018139 0.00061585382 4279784338
-0.012652509 -0.0078018308 -0.0017041899 4279653269
-0.010867599 -0.0061815828 -0.0033511966 4279325848
-0.017626084 -0.018830255 0.0060348986 4280700809
-0.015980691 -0.0156812 0.0030433824 4279980178
-0.014260136 -0.01329416 0.00072490331 4279587733
-0.012555651 -0.010907859 -0.0015910156 4279391129
-0.010867242 -0.008522287 -0.0039043128 4279260313
-0.0091949292 -0.0061374009 -0.0062151067 4280114054
-0.015895665 -0.018808916 0.003141812 4281486719
-0.014362447 -0.014888704 -0.00050852168 4279456663
-0.012657702 -0.012495965 -0.002819445 4278997153
-0.010969024 -0.010103978 -0.0051277503 4279915154
-0.0092964433 -0.0077126548 -0.0074335299 4279980943
-0.0073180683 -0.0076101348 -0.0077376366 4280112268
-0.014368359 -0.017248318 -0.0010753693 4279520924
-0.012660656 -0.014849029 -0.0033817114 4279586968
-0.01096902 -0.012450472 -0.0056854375 4280242829
-0.0090845563 -0.011582568 -0.0066563752 4280045969
-0.0072054006 -0.010714769 -0.0076264408 4280045968
-0.005221691 -0.010611877 -0.0079312809 4280311679
-0.014374509 -0.01961194 -0.0016453201 4280372113
-0.012762774 -0.01643867 -0.0046113329 4279849109
-0.01107087 -0.01403369 -0.0069100601 4280045713
-0.0091864131 -0.013163663 -0.007879328 4279980433
-0.0073072799 -0.012293741 -0.0088477172 4280045969
-0.0054334402 -0.011424027 -0.0098151714 4280046223
-0.0036773272 -0.0097877532 -0.011443894 4280178824
-0.040009953 -0.029488802 0.0071564587 4282469743
-0.037916631 -0.030156918 0.0075109648 4282928743
-0.012766052 -0.018797606 -0.0051780837 4281159553
-0.011071201 -0.016386032 -0.0074722664 4280504204
-0.0091840699 -0.015513718 -0.0084402673 4279914643
-0.0074091293 -0.013872415 -0.010068778 4279980945
-0.0059736185 -0.0099245757 -0.013678398 4280045969
-0.0042281784 -0.0082845762 -0.015302129 4279325338
-0.0023784861 -0.0074137449 -0.016263999 4280443768
-0.012868244 -0.020388782 -0.006408901 4282992240
-0.010970432 -0.019513883 -0.0073770033 4281158788
-0.0091819726 -0.017867774 -0.0090042921 4279849108
-0.0076176822 -0.014679492 -0.011949287 4279849363
-0.0061843395 -0.01072108 -0.015550178 4279325084
-0.0045536123 -0.0083058923 -0.017829072 4279718548
-0.0024796538 -0.0089749843 -0.017471477 4280243594
-0.00051777065 -0.0088728592 -0.017772689 4281033584
-0.0091801137 -0.020225823 -0.0095714154 4280766598
-0.0077193305 -0.016255416 -0.01316822 4279325084
-0.0063947476 -0.011512987 -0.017418418 4279259549
-0.0047664605 -0.0090915263 -0.019691888 4280242829
-0.0026954971 -0.0097628459 -0.019335557 4279915408
-0.00050166622 -0.011206657 -0.018323522 4280243338
0.0013427287 -0.010331586 -0.019281037 4280967538
-0.0077144839 -0.018606588 -0.013730516 4280504713
-0.0064956844 -0.013075739 -0.018627126 4279783829
-0.0048671439 -0.010647863 -0.020895611 4280045713
-0.0027964748 -0.011321336 -0.020540915 4279849364
-0.00048582256 -0.013544463 -0.018877454 4280111504
0.0017211139 -0.014991716 -0.017870761 4280244103
-0.0063785575 -0.01619333 -0.018526983 4280438669
-0.0048560761 -0.012981318 -0.0214452 4279914899
-0.002782993 -0.013656855 -0.021092508 4279521689
-0.00035311282 -0.016663417 -0.018781401 4279586968
0.0022182427 -0.020445816 -0.015820784 4280242319
0.0042040609 -0.020342223 -0.016125495 4282077809
-0.0060441792 -0.020878695 -0.017127907 4281158789
-0.004510507 -0.017657563 -0.020041119 4280438668
-0.0023126528 -0.019114137 -0.019039907 4280045968
0.00013001263 -0.022128619 -0.016737441 4280832388
0.0028336681 -0.026700199 -0.013136229 4282011763
0.0050802603 -0.028153792 -0.012142228 4282928998
-0.0017295368 -0.025374174 -0.016353516 4282797673
-0.0074899681 -0.033408232 -0.031842008 4282667368
-0.0056325495 -0.032505125 -0.032780018 4282667113
-0.0079129562 -0.032561637 -0.034954406 4282208368
