# .PCD v0.7 - Point Cloud Data file format
VERSION 0.7
FIELDS x y z rgba
SIZE 4 4 4 4
TYPE F F F U
COUNT 1 1 1 1
WIDTH 968
HEIGHT 1
VIEWPOINT 0 0 0 1 0 0 0
POINTS 968
DATA ascii
-0.014783535 0.013349261 0.026987161 4290257698
-0.012808982 0.013458639 0.026661929 4289734183
-0.010724302 0.012858212 0.027044889 4289472808
-0.008634083 0.012258191 0.027427014 4289211178
-0.0064229369 0.0109489 0.028515585 4289407783
-0.0042008869 0.0096403547 0.02960239 4289342759
-0.0022095405 0.009751115 0.029274743 4289277224
-0.00021808967 0.0098619759 0.028947156 4289800483
0.0015210733 0.011390936 0.027208667 4290323999
0.0038939938 0.0093751289 0.028997179 4289276968
0.0065463744 0.0059428811 0.032192316 4289145898
0.0098972768 -0.0010305792 0.038903851 4289210923
-0.025035005 0.013361227 0.025267314 4289867804
-0.023163129 0.014182594 0.024234045 4289539618
-0.021200094 0.014290955 0.023910414 4289277478
-0.019335959 0.015112076 0.022878569 4289146408
-0.017273534 0.014507968 0.023263276 4289407274
-0.015101109 0.013191886 0.024354503 4289864998
-0.013132062 0.013300944 0.024030164 4289472553
-0.011053037 0.012698013 0.024412338 4289407529
-0.0089684762 0.012095451 0.024793725 4289341993
-0.0069936477 0.012205098 0.024468645 4289604133
-0.0046648569 0.010179985 0.026259053 4289538598
-0.0028023683 0.011001725 0.025228031 4289146408
-0.00094516203 0.011823274 0.02419797 4289604133
0.00065463409 0.014066987 0.021761168 4290585374
0.0028820597 0.012754746 0.022844035 4290454558
0.0053832345 0.010021467 0.025331039 4290323744
0.0083084963 0.0051573589 0.029921997 4290585374
0.01113477 0.0010060072 0.033804767 4290258209
0.013853949 -0.0024330169 0.036980696 4289538599
0.016600177 -0.0058704764 0.040152293 4289472808
-0.029329289 0.013716321 0.022576544 4289871628
-0.027372289 0.013824046 0.022253666 4289343524
-0.025415104 0.013931882 0.02193084 4289604644
-0.023551259 0.014754925 0.020900562 4290323744
-0.021596428 0.014862802 0.020578254 4289603879
-0.019740347 0.015685599 0.019549403 4289538343
-0.017584663 0.014364172 0.020639922 4290257443
-0.015522342 0.013757918 0.021023043 4289930279
-0.013454501 0.013152111 0.021405295 4289799974
-0.011490833 0.013260923 0.021081883 4289669413
-0.0095270388 0.013369832 0.020758521 4289473319
-0.0075631179 0.013478845 0.020435214 4289604133
-0.0053634867 0.012160394 0.021518923 4289604133
-0.0032734536 0.011556279 0.021897878 4289473319
-0.0014243163 0.012379508 0.020870805 4289734948
0.00041951239 0.013202533 0.019844681 4289996578
0.0026438124 0.011885826 0.02092462 4289604133
0.0050102919 0.0098567717 0.022704165 4289734948
0.0076610036 0.006402947 0.025882732 4289473063
0.010065392 0.0043761954 0.027656183 4289342504
0.012067858 0.0044882074 0.02732721 4289604133
0.014212463 0.0038878843 0.027697779 4289538343
0.016507294 0.0025756508 0.028766625 4289080364
0.019550383 -0.0022964701 0.033326786 4290061093
-0.029350851 0.01143017 0.022076271 4289739029
-0.027567234 0.012973208 0.020339493 4289146918
-0.025703538 0.01379827 0.019310825 4289408294
-0.02375168 0.013905868 0.018988922 4289734949
-0.02189574 0.014730681 0.017961673 4289669159
-0.019946244 0.014838316 0.017640289 4289603623
-0.017895136 0.014229219 0.018023442 4289734183
-0.015734326 0.012903828 0.019109786 4289472553
-0.01366942 0.012295645 0.01949086 4289800228
-0.011708569 0.012404267 0.019167885 4289734949
-0.0099721067 0.01394552 0.017439522 4289800228
-0.0080164038 0.014054049 0.017117545 4290454814
-0.0058252737 0.012730766 0.018199306 4290585374
-0.0035029054 0.010692414 0.019980669 4290585374
-0.0015333891 0.010802004 0.019656647 4289734948
0.00031048059 0.011627175 0.018632203 4289604133
0.0024059154 0.011021461 0.019008778 4289604133
0.0046379752 0.0097009242 0.020084176 4289342249
0.0070147365 0.0076661035 0.021856982 4289800229
0.0094077624 0.0056322441 0.023627222 4289473319
0.011260074 0.006458357 0.022601757 4289538854
0.013107039 0.0072842762 0.02157725 4289604134
0.01494864 0.0081100352 0.020553652 4289734694
0.017226893 0.006792672 0.02162192 4289276713
0.020566199 0.00047705323 0.027564004 4288884268
0.024412295 -0.0079776794 0.035586353 4289080364
-0.029202361 0.0077002309 0.022983808 4288297513
-0.027498309 0.0099676847 0.020544 4288623403
-0.025719728 0.011514805 0.018811468 4288885034
-0.023858521 0.012341954 0.017784957 4288950058
-0.021906611 0.012449604 0.017463084 4289146153
-0.02015179 0.013995636 0.015734721 4289473063
-0.018103633 0.013384189 0.016116641 4289407529
-0.01604994 0.012773145 0.016497727 4289407783
-0.013884 0.011443797 0.017579906 4289342504
-0.012035388 0.012270797 0.016555898 4289734949
-0.010416236 0.01453438 0.014130729 4289603879
-0.008468736 0.014642436 0.01381009 4289669413
-0.0061686225 0.012596294 0.015589974 4289734949
-0.0038522072 0.010551106 0.017367288 4290389023
-0.0017653108 0.0099425726 0.017743435 4289734949
7.5880438e-05 0.010769721 0.016721088 4289800229
0.0021683462 0.010161672 0.017096456 4289800229
0.0041353032 0.010271389 0.016773071 4289865763
0.0063697062 0.0089468099 0.017844733 4289800484
0.0084785856 0.0083399378 0.018217679 4289342503
0.010592911 0.0077335015 0.018589761 4289604134
0.01214553 0.0099944994 0.016176332 4290323744
0.013826486 0.011538036 0.014461386 4290389024
0.016085424 0.010215327 0.01552941 4289669413
0.018804826 0.0067444071 0.018680271 4289604134
0.021856397 0.0018427595 0.023215596 4289669159
0.024790479 -0.0023406222 0.027050816 4289799719
0.027283017 -0.0043745637 0.028800286 4288949293
0.030113092 -0.0078388676 0.031933304 4288883248
-0.029054675 0.003957577 0.023881607 4288362538
-0.027254526 0.0055100545 0.022148788 4288427053
-0.025555376 0.0077837445 0.019714896 4288754474
-0.02368604 0.008613456 0.018688705 4288426798
-0.021917719 0.010164466 0.016961355 4289211689
-0.020160031 0.011714924 0.015235865 4289211689
-0.018311795 0.012543749 0.014213367 4289603878
-0.016364928 0.012651358 0.013892514 4289276968
-0.014311362 0.012038227 0.014271985 4289604134
-0.0124708 0.012866903 0.013250972 4290061858
-0.010747466 0.014415983 0.011531475 4289865509
-0.0086908266 0.0138033 0.011910659 4289015083
-0.0065113269 0.012470704 0.012987544 4289407783
-0.0040808246 0.0096986108 0.015458819 4289865253
-0.0021196455 0.009807691 0.015136139 4290126883
-0.00028382614 0.010636728 0.014116312 4289473063
0.0016748346 0.010745857 0.013794198 4289669414
0.0036335662 0.010855101 0.013472152 4289604133
0.0055923685 0.010964435 0.01315016 4289277224
0.0076874867 0.010354634 0.01352368 4289277224
0.0097880401 0.00974527 0.01389633 4289342504
0.011469129 0.011293065 0.012184613 4289473319
0.013139471 0.012840323 0.010474793 4290389279
0.015093125 0.012949873 0.010154047 4290389023
0.017645726 0.01018567 0.012606096 4290323488
0.020524792 0.0059861839 0.016440138 4290388769
0.02297087 0.0039430633 0.018192086 4289015083
0.025433134 0.0019009933 0.019941416 4289015084
0.027590547 0.0012955815 0.020305403 4289080109
0.030569457 -0.002897881 0.024123386 4288818224
-0.028992657 0.0009264648 0.024067421 4288166443
-0.02709939 0.0017594174 0.02303879 4288296749
-0.025301587 0.003316097 0.021309823 4288296238
-0.023514401 0.0048723072 0.019582625 4288295983
-0.02173781 0.0064280033 0.017857309 4288688429
-0.020070184 0.0087067001 0.015433828 4288753708
-0.018418569 0.010984566 0.013013101 4288818734
-0.016679276 0.012538526 0.011294107 4288949804
-0.014844205 0.013368942 0.010275594 4289015083
-0.013014402 0.014199145 0.0092580141 4289799974
-0.011189871 0.015029199 0.0082413396 4289930788
-0.0092561021 0.015136443 0.0079229204 4290192419
-0.0070878081 0.013798907 0.0089982664 4290323234
-0.0047887154 0.01173982 0.01076829 4290388513
-0.0025959462 0.010403886 0.011839717 4289734438
-0.00064289197 0.010512598 0.011518436 4289407528
0.0011822544 0.011343226 0.010502155 4289407783
0.0030020773 0.012173668 0.009486842 4289734948
0.0049499646 0.012282379 0.0091666421 4290454558
0.007034 0.011669837 0.0095402328 4290389279
0.0092622787 0.010336481 0.010606292 4289669668
0.011076942 0.011167023 0.0095921298 4289604133
0.012742065 0.012718283 0.0078865355 4289669669
0.014837075 0.012106746 0.0082586324 4289146153
0.017236659 0.010054402 0.010012952 4289146153
0.019804742 0.0072825626 0.012455785 4289276968
0.021929486 0.0066729933 0.012823247 4289276968
0.024217317 0.0053436533 0.013880135 4289342504
0.02635555 0.00473506 0.014245539 4289276968
0.028662253 0.0034069717 0.015299487 4289865763
0.031145491 0.0013599321 0.017040554 4290062114
0.034992654 -0.0064425692 0.024286486 4289669668
-0.027032491 -0.0012776703 0.023218974 4288100399
-0.025229122 0.00028362125 0.021492384 4288492844
-0.023343567 0.0011184588 0.020466845 4288492333
-0.021558728 0.0026789084 0.018743455 4288688428
-0.019784499 0.004238829 0.017021943 4288753708
-0.018323552 0.0079747252 0.013208716 4288818733
-0.016682263 0.010258589 0.010794762 4288818988
-0.015057001 0.012541626 0.008383573 4288818988
-0.013229877 0.013373852 0.0073680608 4289080619
-0.011519667 0.014930725 0.0056574857 4289276713
-0.0094770491 0.014312916 0.0060355728 4288753453
-0.0075459965 0.014420092 0.0057176678 4289407529
-0.0051358119 0.011629619 0.0081787622 4289799974
-0.0029488541 0.010289006 0.009247805 4289865253
-0.0008761771 0.0096732602 0.0096212542 4289669414
0.00094629452 0.01050587 0.0086070905 4289669413
0.0026328936 0.012062155 0.0069008889 4289996579
0.0044420213 0.012894243 0.005889087 4290389024
0.0066536292 0.011555541 0.0069544269 4290127649
0.0087374561 0.010940887 0.0073264865 4290716444
0.010685384 0.011049896 0.0070065083 4289342759
0.012489311 0.011882126 0.0059958259 4289538598
0.014581349 0.011268228 0.0063667698 4289473319
0.016828228 0.0099320114 0.007426708 4289146153
0.019238058 0.0078738406 0.0091744056 4289146153
0.021354431 0.0072616637 0.0095415534 4289342759
0.023476202 0.0066498965 0.0099079041 4289081129
0.025122704 0.0082050115 0.0082092071 4290454303
0.027084241 0.0083156005 0.0078876326 4289538598
0.029045761 0.0084262937 0.0075661419 4289342759
0.032185469 0.0034851059 0.012052043 4288884523
0.035875961 -0.0036185458 0.018590808 4288884523
-0.027140606 -0.0028663352 0.021995872 4288100654
-0.02515718 -0.0027572662 0.021668546 4288296749
-0.023266207 -0.0019199774 0.020643715 4288492334
-0.021380458 -0.0010829046 0.019619878 4288426544
-0.019696016 0.0012095645 0.017203692 4288557359
-0.0180276 0.0035012066 0.014790266 4288426544
-0.016478624 0.0065195933 0.011683793 4288426544
-0.01484498 0.0088095553 0.0092762141 4288557103
-0.013227347 0.011098694 0.0068714013 4288818733
-0.011625793 0.013387084 0.0044692699 4288753709
-0.0098118782 0.014220864 0.0034577996 4289080363
-0.0077694282 0.013600979 0.003834296 4289211178
-0.0056018792 0.012254909 0.0049030241 4289734439
-0.0034234375 0.010909498 0.0059700767 4289538344
-0.0013591237 0.010291122 0.0063432073 4289734438
0.00045527145 0.01112543 0.0053320499 4290061858
0.0021339506 0.012685567 0.0036305171 4289211689
0.004068099 0.012793496 0.0033125598 4288884779
0.0061381049 0.012175813 0.0036851205 4288949803
0.0083520375 0.010833018 0.0047467658 4289538853
0.01043563 0.01021634 0.0051172124 4289931299
0.012380768 0.01032529 0.0047977669 4289538854
0.014472529 0.0097092241 0.0051670661 4289407783
0.0165697 0.0090936124 0.0055355197 4289800484
0.01852032 0.0092031658 0.0052154092 4289473319
0.020625617 0.0085882246 0.0055827005 4289342503
0.022578944 0.0086981542 0.0052623143 4289473318
0.024212133 0.010256819 0.0035691755 4290062114
0.025671743 0.0125392 0.0011918731 4290389023
0.027777014 0.011924654 0.0015594829 4290062369
0.030560317 0.0084150136 0.0046666889 4289996834
0.033541426 0.0041832849 0.008454212 4290127393
0.036207758 0.0014006123 0.010868103 4289538853
0.037838072 0.0029597506 0.0091759274 4288689959
-0.027074475 -0.0059157759 0.022166446 4287512624
-0.02517556 -0.0050760731 0.021141939 4287969329
-0.023281876 -0.0042365491 0.020118371 4288426798
-0.021393415 -0.0033971742 0.0190957 4288361773
-0.019510183 -0.0025580302 0.018074006 4288099378
-0.017833356 -0.00025945157 0.015664194 4288361008
-0.016069274 0.0013086572 0.013951211 4288557359
-0.01431584 0.0028762743 0.012240059 4288491823
-0.012899075 0.0066314787 0.0084511666 4288753454
-0.011286415 0.0089268982 0.0060522361 4288557614
-0.0096898079 0.011221547 0.0036560418 4288688173
-0.0077590048 0.011328671 0.003338146 4289080619
-0.0058280937 0.011435892 0.0030203043 4289341993
-0.0038970858 0.011543237 0.0027025407 4289015083
-0.0020908415 0.012379121 0.0016943216 4289538343
-0.00028990582 0.013214804 0.00068704784 4289865764
0.0016359538 0.013322175 0.00037037395 4289996579
0.0032959878 0.01488566 -0.0013246536 4289735204
0.0053522252 0.014265038 -0.00095153041 4289996579
0.0076905787 0.012189474 0.00079732761 4290389279
0.010045171 0.010114886 0.002543644 4290062114
0.011984788 0.010223523 0.0022251038 4289931299
0.013778005 0.011059508 0.0012196684 4289538598
0.015714984 0.011168201 0.00090172235 4289407783
0.017803803 0.010550067 0.0012699394 4289277224
0.01974351 0.010659114 0.00095169898 4289407783
0.021683216 0.010768287 0.00063355919 4289407783
0.023143163 0.013057042 -0.0017388109 4289734948
0.025074767 0.013165951 -0.0020554718 4289669669
0.027171668 0.012548804 -0.0016881675 4289342503
0.029945999 0.0090278611 0.0014121262 4289276968
0.031893715 0.0091379881 0.00109307 4289277479
0.03384139 0.009248212 0.00077409577 4288951078
-0.023482483 -0.0050922856 0.018201448 4287707443
-0.021501657 -0.0049832389 0.017874654 4288231214
-0.019520659 -0.0048740581 0.01754792 4288099889
-0.017740387 -0.0033008978 0.015835539 4288296239
-0.015970748 -0.0017281696 0.014124942 4288426544
-0.014105927 -0.00088761002 0.013108197 4288361008
-0.012680467 0.0028788075 0.009326282 4288491823
-0.010836951 0.0037183911 0.008313206 4288295729
-0.0092265606 0.0060202256 0.0059197722 4288491823
-0.0072823912 0.0061280653 0.0055996655 4288818988
-0.0058153644 0.0091596767 0.0025206087 4289015339
-0.0041257851 0.01072865 0.00082381163 4288818989
-0.0023222193 0.011566512 -0.00018229987 4288688173
-0.00052396581 0.012404196 -0.0011874475 4289015338
0.0011388771 0.013972037 -0.0028796443 4289669670
0.0027909949 0.015539326 -0.0045699663 4289604134
0.0048388615 0.014916122 -0.0041972008 4289734948
0.0073067322 0.012103721 -0.0017653052 4290258208
0.0096553378 0.010022387 -2.3107044e-05 4289800484
0.011733014 0.0094011202 0.00034505036 4289407783
0.013377275 0.010968536 -0.0013436126 4289538599
0.015159748 0.011806168 -0.0023455154 4289735204
0.017088521 0.011914499 -0.0026620389 4290258209
0.019017305 0.012022953 -0.0029784706 4290519838
0.020946093 0.012131501 -0.0032948297 4290389024
0.023034643 0.011511512 -0.0029280116 4289538599
0.024966119 0.011620421 -0.0032446464 4289407783
0.026897572 0.011729434 -0.0035611955 4289080873
0.028996866 0.011110373 -0.003195886 4289343014
0.030589851 0.012675799 -0.0048753568 4289083424
-0.019628968 -0.0064598843 0.016327087 4287707699
-0.017647948 -0.006350629 0.016000412 4288034098
-0.015872765 -0.004773356 0.014292303 4288034864
-0.014002528 -0.0039303824 0.013276319 4288361519
-0.012245934 -0.0023538843 0.011571395 4288426544
-0.010388941 -0.0015114397 0.010557759 4288361008
-0.0086509697 6.4186752e-05 0.0088561056 4288492333
-0.0069236867 0.0016393811 0.0071562594 4288426798
-0.0053262375 0.0039470866 0.0047701998 4288361519
-0.0038667358 0.0069869608 0.001699199 4288557614
-0.0021796115 0.0085602142 6.1923638e-06 4288491823
-0.0006304346 0.010865577 -0.0023716586 4288753709
0.0010325685 0.012437701 -0.0040605296 4289015594
0.0024195686 0.015473962 -0.0071192719 4289146408
0.004326418 0.015580434 -0.0074326899 4289669669
0.0066474341 0.013490945 -0.0056910687 4289669669
0.0088439323 0.012134373 -0.0046365974 4289800484
0.011051271 0.010778479 -0.0035837763 4289473319
0.012977175 0.010886438 -0.0038999976 4289473319
0.014903098 0.010994509 -0.0042161332 4289407783
0.016677517 0.011833943 -0.0052149449 4289276968
0.018600775 0.011942074 -0.0055304826 4289669670
0.020837869 0.010588404 -0.0044821822 4290258463
0.022766527 0.010697059 -0.0047984314 4289604389
0.024857482 0.010075163 -0.0044336063 4289342504
0.026458789 0.011645161 -0.0061112312 4289146153
0.028049272 0.013214696 -0.0077870395 4289868569
-0.017956618 -0.0064636543 0.013400753 4287577393
-0.016083818 -0.0056185052 0.012385939 4288099889
-0.01411074 -0.0055095181 0.012060707 4288427054
-0.012245756 -0.0046645626 0.011047299 4288361008
-0.010275114 -0.0045554936 0.010722638 4288295729
-0.0085316002 -0.0029752776 0.0090234308 4288426544
-0.0067987479 -0.0013955459 0.0073260581 4288230704
-0.0051956065 0.00091895461 0.0049440656 4288295983
-0.0034868233 0.0024975613 0.0032508234 4288230704
-0.0016643479 0.0033408031 0.0022449205 4288491824
-0.00022848696 0.0063881427 -0.00081531052 4288884524
0.0011858977 0.0094343722 -0.0038718623 4289080618
0.0025787503 0.012479547 -0.0069248383 4289146153
0.004355669 0.013320677 -0.0079229176 4289342249
0.0065409131 0.011959016 -0.0068700188 4289800484
0.0084558204 0.012066148 -0.0071845972 4289342503
0.010514047 0.011439525 -0.0068166708 4289473319
0.012431722 0.011547014 -0.0071315435 4289800228
0.014498092 0.010921065 -0.0067647831 4289734949
0.016115762 0.012495752 -0.0084421355 4288753964
0.018030796 0.012603421 -0.0087563153 4288884779
0.020259362 0.01124499 -0.0077099842 4289015594
0.022658188 0.0091542602 -0.0059855268 4289800995
0.024262382 0.01072862 -0.0076603261 4289342504
0.025361177 0.014500514 -0.011370024 4289081638
-0.014429655 -0.0056120753 0.0094713094 4288823834
-0.012245815 -0.0069793016 0.010520135 4288296749
-0.010383401 -0.0061322376 0.0095089125 4288427054
-0.0086397082 -0.004547745 0.0078130225 4288361008
-0.0069067068 -0.0029637292 0.0061189821 4288165169
-0.0050655305 -0.0021175295 0.0051114969 4288230704
-0.0032296367 -0.0012715608 0.004105011 4288165168
-0.0016475581 0.0010483712 0.0017317412 4288295729
-8.1580132e-05 0.003367573 -0.00063882861 4288491823
0.0014682934 0.0056859627 -0.0030066827 4288492078
0.0030020587 0.0080035403 -0.0053717429 4288819499
0.0045196973 0.010320351 -0.0077341278 4288688684
0.0062966868 0.011163689 -0.0087304153 4288884269
0.0079278871 0.012743045 -0.010406995 4289080619
0.0099777393 0.012113787 -0.010039393 4289276713
0.011741363 0.012956686 -0.011033239 4289669158
0.013648137 0.013063692 -0.011346227 4290258208
0.015403714 0.01390636 -0.012338584 4289669668
0.017153904 0.014748842 -0.013329966 4289604389
0.019525167 0.01265005 -0.011606172 4290062624
0.021753304 0.011287346 -0.010563021 4289408293
0.02334417 0.012865312 -0.012232296 4288950824
-0.010823507 -0.0054887459 0.0062421197 4288689194
-0.0087477863 -0.0061199069 0.0066028507 4288295983
-0.0068986006 -0.0052712783 0.0055956794 4288492334
-0.0050547086 -0.0044228509 0.0045894589 4288099379
-0.0033375211 -0.002835162 0.0029015113 4288034099
-0.0016310327 -0.001248017 0.0012154412 4288426544
0.00019156188 -0.00040043145 0.00021299161 4288295729
0.0017498359 0.0019248724 -0.0021511884 4288295729
0.0032919943 0.0042493865 -0.0045126369 4288296238
0.0048180483 0.0065730661 -0.0068713101 4288557869
0.0064655468 0.0081575215 -0.0085472865 4288622894
0.0081023127 0.0097414367 -0.010221378 4289015083
0.0097283274 0.011324897 -0.011893656 4288688174
0.011197917 0.01364585 -0.014242714 4289276714
0.012948085 0.014490303 -0.015232624 4289669413
0.014843959 0.01459679 -0.01554375 4289146408
0.01658608 0.015440948 -0.016532132 4289997088
0.018322809 0.016284939 -0.017519534 4289604644
0.020372463 0.015654162 -0.017153079 4289081894
0.02194193 0.017235164 -0.018815445 4288364323
-0.0071224906 -0.0060991868 0.0037055109 4288692254
-0.0050441585 -0.0067321435 0.0040642861 4287773489
-0.0033241101 -0.0051400214 0.0023792181 4288099889
-0.001490809 -0.0042898208 0.0013765898 4288164148
0.00021053478 -0.002698563 -0.00030518509 4288098613
0.0019011572 -0.0011077523 -0.0019851569 4288230193
0.0035810731 0.00048255175 -0.0036632209 4288034099
0.0051155165 0.0028131679 -0.0060182731 4288165168
0.0066338442 0.005142957 -0.0083705457 4288557614
0.0082761571 0.0067315251 -0.010042219 4288557359
0.0096220672 0.0098002627 -0.013066947 4288687918
0.011237498 0.01138749 -0.014734002 4288753198
0.012990389 0.012234192 -0.015722634 4288950058
0.014888823 0.012340821 -0.016034175 4289146153
0.01632642 0.014666796 -0.018372713 4289146153
0.017747834 0.016991962 -0.020708516 4289476124
-0.0055075213 -0.0060700253 0.00081686117 4287775784
-0.0035531819 -0.0059615001 0.00049516745 4287839023
-0.0015987605 -0.0058528557 0.00017354824 4288099379
0.0003557466 -0.0057440847 -0.00014799275 4288164404
0.0019227304 -0.003405489 -0.0025034826 4288359988
0.0036054924 -0.0018107072 -0.0041787084 4288295729
0.0052775331 -0.00021647662 -0.0058520506 4288427054
0.0070761293 0.00063453615 -0.0068468931 4288361519
0.0087293983 0.002227962 -0.0085169664 4288688174
0.010086559 0.0053059086 -0.011536813 4288361263
0.011567555 0.0076404363 -0.01387768 4288557614
0.013328545 0.008489728 -0.014865964 4288753963
0.0149334 0.010080881 -0.016527735 4288753964
0.016067073 0.013897233 -0.020209761 4288688683
0.0002476871 -0.0073068589 -0.0013508052 4288429349
0.0019440241 -0.0057072118 -0.0030249599 4288033843
0.0037613921 -0.0048532784 -0.0040213466 4288230193
0.0054389797 -0.0032543987 -0.0056922752 4288164914
0.007105846 -0.001656048 -0.0073613133 4288295729
0.0089017972 -0.00080293417 -0.0083539598 4288361519
0.010407344 0.0015392452 -0.010693857 4288492334
0.011896737 0.0038806722 -0.013031061 4288427054
0.013517909 0.0054769218 -0.014692233 4288230959
0.014977697 0.0078169145 -0.017024402 4288295983
0.016114682 0.011644192 -0.020698546 4288624423
0.0017072596 -0.0065178275 -0.0048988964 4287970605
0.0035219304 -0.005661875 -0.0058932099 4288427564
0.0051969811 -0.00405889 -0.0075603239 4288230193
0.0071352832 -0.0039505959 -0.0078788605 4288099379
0.0090736225 -0.0038421974 -0.0081973225 4288295983
0.010869626 -0.0029868558 -0.0091881603 4288361519
0.012370121 -0.0006383732 -0.01152214 4288165168
0.013854451 0.0017093197 -0.013853375 4288295983
0.015021704 0.0055489168 -0.017524157 4288361519
0.016162008 0.0093871206 -0.021190431 4288560164
0.00689077 -0.0047506467 -0.0097429007 4287840044
0.0089658126 -0.0053914934 -0.009389624 4287838258
0.010761824 -0.0045340434 -0.010378804 4288034099
0.012262616 -0.0021791011 -0.012707781 4287969073
0.014042512 -0.0013222918 -0.013694113 4287969074
0.015516393 0.0010313615 -0.016018502 4288164658
0.016515076 0.0056292862 -0.020347271 4288626718
0.0084398687 -0.0046867058 -0.012590559 4287446579
0.010369878 -0.0045786425 -0.012907552 4287707188
0.012155142 -0.0037195161 -0.013893191 4287903284
0.014229983 -0.0043622032 -0.013541313 4288034098
0.015709568 -0.0020018145 -0.015861535 4288099634
0.016867258 0.0018588603 -0.019513879 4288692763
0.011758443 -0.0037534162 -0.016412487 4287642164
0.013827592 -0.004398562 -0.016061362 4287838004
0.015602123 -0.0035376698 -0.017043369 4288165168
0.016913142 -0.0004189238 -0.020021627 4288559398
0.015045103 -0.0028082654 -0.020218544 4287905834
-0.018604029 -0.040201239 0.0012474759 4287051329
-0.018615339 -0.042574011 0.00067716651 4287641399
-0.016910803 -0.040145405 -0.0016364651 4288230448
-0.015119288 -0.038490161 -0.0032869214 4287641143
-0.018724401 -0.044175677 -0.00055594556 4287771959
-0.017019574 -0.041740663 -0.0028646044 4288099633
-0.015022147 -0.041630648 -0.0031940951 4287968563
-0.013130181 -0.040745907 -0.0041818595 4287575864
-0.01146001 -0.038312428 -0.0064845169 4286724419
-0.018736068 -0.04655423 -0.0011307914 4286790208
-0.016928229 -0.044889659 -0.0027773287 4288164913
-0.015028309 -0.044002466 -0.0037648245 4287641909
-0.013133641 -0.043115459 -0.0047513708 4287968819
-0.011352386 -0.041451983 -0.0063932254 4287904048
-0.0093601532 -0.041341901 -0.0067215874 4287838768
-0.0077083297 -0.038902812 -0.0090159522 4288033844
-0.019039605 -0.04659877 -0.0036779027 4287444028
-0.017137121 -0.045709424 -0.0046642479 4288294709
-0.015034717 -0.046378329 -0.0043386575 4287837238
-0.013242658 -0.044710152 -0.0059790071 4287903539
-0.011353284 -0.043821171 -0.0069629047 4287576373
-0.009469185 -0.042932332 -0.0079458784 4288231724
-0.0075903758 -0.042043693 -0.0089278501 4288231468
-0.0058328994 -0.040376939 -0.010562112 4287706678
-0.0043235905 -0.037154324 -0.013500203 4286724164
-0.017146189 -0.048087254 -0.0052390676 4287508544
-0.015143838 -0.047977008 -0.005569404 4287116864
-0.01324651 -0.047085561 -0.0065530296 4287379513
-0.011570092 -0.044632509 -0.0088416357 4287510584
-0.009578187 -0.044522457 -0.0091699492 4288099634
-0.0076993853 -0.04363168 -0.010150233 4287772723
-0.005709976 -0.043521501 -0.010477928 4287903284
-0.0040762424 -0.04107035 -0.012759065 4287904304
-0.0024585985 -0.038619913 -0.015037493 4288296238
-0.00098100677 -0.03539028 -0.017963476 4287116099
-0.013670553 -0.046332248 -0.0097371247 4286593858
-0.011786588 -0.045439295 -0.010716787 4287510074
-0.0096871518 -0.046112292 -0.010393789 4287445049
-0.0078083649 -0.045219384 -0.011372408 4287641399
-0.0058191121 -0.04510922 -0.011700077 4287707188
-0.0039482154 -0.044216484 -0.012677187 4288230959
-0.0022037588 -0.04254166 -0.014302405 4288623404
-0.0005938299 -0.040085115 -0.016574437 4287641399
0.0011265315 -0.038411304 -0.018195529 4287248444
-0.011680156 -0.04859706 -0.01063945 4286724163
-0.0096858665 -0.048486881 -0.010968158 4287052349
-0.0079173073 -0.046806775 -0.012594333 4287117629
-0.0059282184 -0.046696626 -0.012921995 4287575863
-0.0039390437 -0.046586357 -0.013249567 4288230193
-0.0019497909 -0.046475954 -0.01357705 4287707188
-0.00033149123 -0.044012554 -0.015845379 4287903793
0.0013970807 -0.04233402 -0.017464472 4287641909
0.003502138 -0.043007933 -0.017143371 4287707699
0.0057443939 -0.044465311 -0.01617738 4287249974
0.0073252246 -0.042003438 -0.018439183 4286790718
-0.0059218444 -0.049070626 -0.013497023 4287051839
-0.0038119853 -0.049746983 -0.013178764 4287117629
-0.0020591915 -0.048063092 -0.014798699 4287380023
-0.00044060871 -0.045593254 -0.017062036 4287445558
0.0014143214 -0.044696748 -0.018032936 4287641908
0.0035217665 -0.045372717 -0.017713854 4287903793
0.0058978461 -0.047620155 -0.016107621 4287446323
0.0077529512 -0.046723269 -0.017078189 4287053113
-0.0041575022 -0.049760334 -0.015692683 4286659138
-0.0024099499 -0.048072495 -0.017308356 4287052604
-0.00079647824 -0.045596503 -0.019565878 4287576883
0.0011791363 -0.045486607 -0.019890925 4288165423
0.0034123436 -0.046953164 -0.018930247 4287838003
0.0057878196 -0.049207069 -0.01732895 4287315253
0.0077770539 -0.049096011 -0.01765593 4286922044
-0.0010284819 -0.04638163 -0.021420809 4288360244
0.00081835315 -0.045481309 -0.022386963 4288426033
0.0030457154 -0.046952426 -0.021428732 4287445049
0.0054152086 -0.049213119 -0.019831428 4287248699
-0.0012601651 -0.04716216 -0.023272222 4286593859
0.00070973858 -0.04705257 -0.023596322 4286855233
0.0030651055 -0.049320586 -0.022001898 4286855489
-0.051514868 0.019381139 0.041937213 4284638773
-0.042169679 -0.010148272 0.033578865 4283000399
-0.040500794 -0.0064020604 0.029730439 4282547263
-0.038716171 -0.0041114464 0.02729195 4283855159
-0.040540595 -0.0087327808 0.029198948 4282023494
-0.038824026 -0.0057063177 0.026063923 4282221374
-0.037055004 -0.0034100935 0.023633149 4284249134
-0.035225485 -0.0018435791 0.021905221 4284706349
-0.042124953 -0.016298965 0.033897705 4282804559
-0.040648837 -0.010335959 0.027964491 4281631304
-0.038789917 -0.008763805 0.02623494 4281763393
-0.037015211 -0.0064608082 0.023808219 4281959744
-0.035180103 -0.0048897639 0.022082757 4281959743
-0.033197548 -0.0047811642 0.021755248 4283006264
-0.031214777 -0.0046724603 0.021427777 4283727148
-0.042234179 -0.017919078 0.032650173 4282347088
-0.040688906 -0.012672581 0.027428426 4281631558
-0.038827125 -0.011096008 0.025701746 4281567809
-0.036975916 -0.0095198676 0.023976848 4281632834
-0.035135265 -0.0079442635 0.022253796 4281698113
-0.0332263 -0.0071022734 0.021228984 4281894464
-0.031404119 -0.0055274442 0.019509103 4282090304
-0.029339697 -0.0061517134 0.019877668 4282809149
-0.04227807 -0.020274945 0.032099813 4282217548
-0.040729206 -0.015013285 0.026889287 4281565769
-0.038864579 -0.013432257 0.02516542 4281436228
-0.03701048 -0.01185175 0.023443423 4281566789
-0.035166968 -0.010271676 0.021723218 4281762884
-0.033334028 -0.0086921379 0.020004865 4281697859
-0.031511668 -0.0071130395 0.018288285 4281762883
-0.029699896 -0.0055344626 0.016573589 4281698369
-0.027725067 -0.0054260567 0.016247537 4281764414
-0.025839601 -0.0045828447 0.015228567 4282611779
-0.023774941 -0.0052089319 0.015595582 4283918909
-0.040634107 -0.018834047 0.027736723 4281631304
-0.038902227 -0.015772529 0.024625998 4281304904
-0.037118476 -0.013449855 0.022212893 4281566789
-0.035198908 -0.012603112 0.021189526 4281762629
-0.033284519 -0.011756606 0.020167127 4281632324
-0.031456608 -0.010172985 0.018453017 4281697348
-0.029639263 -0.0085897818 0.016740706 4281370949
-0.027919184 -0.0062701032 0.014338513 4281306433
-0.026125763 -0.004688032 0.012630292 4281697348
-0.024158809 -0.0045798793 0.012305674 4282089283
-0.022096958 -0.0052082017 0.012671518 4283004224
-0.038588304 -0.02181714 0.027547341 4282545224
-0.037080307 -0.016527496 0.022367191 4281631813
-0.035306808 -0.014198832 0.019960847 4281500744
-0.033392403 -0.013350204 0.018940102 4281500999
-0.031402055 -0.013241209 0.018611275 4281566023
-0.029579166 -0.01165349 0.016901433 4281501764
-0.027939912 -0.0085878894 0.013813191 4281436484
-0.026143622 -0.0070013925 0.012107843 4281305669
-0.024266023 -0.0061542615 0.011093582 4281567554
-0.02239364 -0.0053073466 0.010080253 4282090814
-0.020331908 -0.0059377328 0.010444497 4282614074
-0.018464629 -0.00509087 0.0094321752 4284182324
-0.036386479 -0.026292026 0.028731052 4282412623
-0.034885455 -0.020987689 0.02356394 4281564239
-0.033265356 -0.017168835 0.019782636 4281434698
-0.031510007 -0.01483456 0.017384473 4281632068
-0.029603276 -0.013984032 0.016366813 4281631558
-0.027788129 -0.012392364 0.014661671 4281567300
-0.026072647 -0.01005996 0.012270332 4281567044
-0.024281409 -0.0084693655 0.010569253 4281763649
-0.022406336 -0.0076201782 0.0095571382 4282026043
-0.020536471 -0.0067711473 0.0085459808 4282418489
-0.032826524 -0.023975775 0.023367837 4281761098
-0.031375382 -0.018658973 0.018220894 4281762374
-0.029711153 -0.015574969 0.015141875 4281631049
-0.027809616 -0.014722504 0.014126818 4281567554
-0.026002225 -0.013126858 0.012426333 4281567554
-0.0241138 -0.012274899 0.011413612 4281633088
-0.022230636 -0.011423133 0.010401833 4281698368
-0.020449694 -0.0098286271 0.0087059634 4282091579
-0.018679377 -0.0082346424 0.0070119733 4283920694
-0.029735584 -0.017911389 0.014602716 4281496663
-0.027831357 -0.017056666 0.013588873 4281501254
-0.025932316 -0.016202115 0.012575972 4281436993
-0.024038505 -0.015347742 0.011564019 4281699134
-0.022149924 -0.014493503 0.010552973 4281632323
-0.020460289 -0.012149423 0.0081762457 4282221628
-0.018587586 -0.011295848 0.0071679885 4284050998
-0.028025184 -0.017899267 0.011680924 4280908888
-0.026040208 -0.01779037 0.011353136 4281108809
-0.024146374 -0.016933881 0.010342841 4281502019
-0.022257801 -0.016077526 0.009333455 4281500998
-0.020374443 -0.015221387 0.0083250673 4282222139
-0.018595729 -0.01361841 0.0066363784 4284116789
-0.022553351 -0.016162269 0.006753237 4281171283
-0.020578813 -0.016053647 0.0064274194 4282351934
-0.018901896 -0.013697289 0.0040628882 4284443189
-0.02078284 -0.016881295 0.0045333141 4282414664
-0.019009214 -0.015269987 0.0028521353 4284507959
0.0061296634 -0.0048297271 -0.01479714 4283461183
0.0058864318 -0.0056116432 -0.016647229 4282155329
0.0076689348 -0.0047485828 -0.017629275 4282090559
0.0095878653 -0.0046411678 -0.017944468 4282547774
0.011217885 -0.0030230805 -0.019590367 4283986229
0.0039919168 -0.0080121905 -0.01684742 4284510763
0.0059160106 -0.0079047084 -0.017163634 4282678844
0.0078401454 -0.0077971295 -0.017479785 4281828928
0.0093394332 -0.0054166541 -0.019788433 4282024514
0.010966912 -0.0037944391 -0.021430558 4282023749
0.012877669 -0.0036872402 -0.021744223 4283200063
0.0041520707 -0.011069559 -0.016702628 4283791409
0.0060814023 -0.010961823 -0.017019728 4282091068
0.0077332146 -0.0093341842 -0.018662669 4281436993
0.0092328005 -0.0069472641 -0.020966329 4281502019
0.010860428 -0.0053207502 -0.022605116 4281436739
0.012771036 -0.0052135587 -0.022918751 4281698368
0.014382534 -0.0035876706 -0.024554748 4281829184
0.016135529 -0.0027214289 -0.025528084 4282875194
0.017573226 -0.00033739209 -0.02782112 4284116279
0.0043116622 -0.014135309 -0.016564202 4283529778
0.0061102808 -0.013265029 -0.017543949 4282090814
0.0079035722 -0.012395002 -0.018522702 4281305923
0.0094088577 -0.010001369 -0.020822208 4281436739
0.011042017 -0.0083702281 -0.022458591 4281436993
0.01266443 -0.006739594 -0.024093064 4281568064
0.014574911 -0.0066322982 -0.024406591 4281633088
0.016181182 -0.0050022975 -0.026038282 4281829183
0.017776687 -0.0033728257 -0.027668063 4282026044
0.019046413 -0.00022184104 -0.03061245 4284447014
0.0043375716 -0.016444832 -0.017092764 4282676804
0.0060031004 -0.01480794 -0.018731371 4281695818
0.0077963918 -0.013935767 -0.019708443 4281304904
0.009443149 -0.012299731 -0.021343753 4281240134
0.010935284 -0.0099002346 -0.023635991 4281240644
0.012704413 -0.0090290606 -0.024608821 4281371714
0.014318906 -0.0073944256 -0.026238587 4281241153
0.016226552 -0.007287167 -0.026551552 4281436739
0.017979555 -0.0064165294 -0.027521443 4281109828
0.01941248 -0.0040198192 -0.02980347 4281698878
0.020989263 -0.0023868158 -0.031426664 4282026554
0.022880727 -0.0022799969 -0.031736609 4283334704
0.024772175 -0.0021730661 -0.032046463 4284509489
0.0058959462 -0.016350545 -0.019918565 4280909144
0.0076892339 -0.015476227 -0.020893957 4281042764
0.0096182004 -0.01536826 -0.021210805 4281108809
0.011116024 -0.012962073 -0.023498915 4281110083
0.012744118 -0.011322536 -0.02512766 4281241153
0.014510576 -0.010449223 -0.026098251 4281436228
0.016271651 -0.0095760897 -0.02706787 4281175364
0.017872844 -0.0079376772 -0.028691903 4281305159
0.019463263 -0.0062998012 -0.030314043 4281567808
0.021202788 -0.0054275319 -0.03127984 4281764414
0.022936903 -0.0045553967 -0.032244705 4282222648
0.02499618 -0.0052131787 -0.031901348 4282680373
0.026892841 -0.0051058009 -0.032211941 4283857453
0.011152606 -0.015264004 -0.024023734 4280845904
0.012929816 -0.01438807 -0.024994507 4281108299
0.014552694 -0.012744389 -0.026618924 4281305159
0.016316466 -0.011868969 -0.027587306 4281304649
0.017920498 -0.010226116 -0.029208452 4281305158
0.019670803 -0.0093512163 -0.03017443 4281501254
0.021255983 -0.0077092052 -0.031792242 4281567043
0.022830363 -0.0060676709 -0.033408243 4281043783
0.024724206 -0.0059605837 -0.033718474 4281044038
0.027121484 -0.0081538856 -0.03207412 4281242174
0.029364375 -0.0095794275 -0.031083386 4282287928
0.031098384 -0.0087047219 -0.032046128 4283593018
0.011188917 -0.017569922 -0.024551623 4280449633
0.012822699 -0.015921533 -0.026174534 4280844628
0.014594529 -0.015043564 -0.027142685 4281173834
0.016360998 -0.014165871 -0.028109837 4281304138
0.018122073 -0.013288341 -0.029076003 4281369928
0.019720867 -0.011641361 -0.030692827 4281435973
0.021468475 -0.010764353 -0.031656597 4281436228
0.023048405 -0.0091182441 -0.033270095 4281567043
0.025112454 -0.0097799972 -0.032930914 4281306944
0.027684875 -0.012748234 -0.030642968 4281371968
0.03061953 -0.017252773 -0.027059682 4281699133
0.032894261 -0.018680729 -0.026077382 4281960764
0.034125227 -0.015496813 -0.028987881 4282744379
0.014784753 -0.018119007 -0.027018238 4280975443
0.016707953 -0.018010885 -0.027333759 4281172814
0.018169014 -0.015586935 -0.029600367 4281500744
0.01977066 -0.013935588 -0.031214271 4281501508
0.021361515 -0.012284651 -0.032826334 4281567298
0.023265846 -0.012177087 -0.033138376 4281502274
0.025170162 -0.012069404 -0.033450317 4281763903
0.028079551 -0.016588397 -0.029873025 4281894719
0.031531855 -0.023418322 -0.024357703 4281959998
0.034859687 -0.029474504 -0.019497551 4282350149
0.037528198 -0.032445513 -0.017231766 4282479179
0.019139061 -0.022533797 -0.026235361 4280971363
0.020603109 -0.020103164 -0.028497338 4281761863
0.022050992 -0.017673291 -0.030756567 4281763649
0.023482714 -0.015244283 -0.033013009 4281763903
0.025227582 -0.014362834 -0.033972811 4281763903
0.028305963 -0.019667856 -0.029759329 4281829184
0.032442354 -0.029609315 -0.021675378 4281829184
0.036475975 -0.038773686 -0.014248469 4281892934
0.023375502 -0.026186697 -0.026118305 4281564748
0.024184458 -0.020646952 -0.030956786 4281567043
0.025778275 -0.018987022 -0.032562416 4281697604
0.028866205 -0.024306484 -0.028362256 4281632323
0.033351049 -0.035825819 -0.019012682 4281566789
0.027807076 -0.03062766 -0.025372032 4282216274
0.030427616 -0.033627443 -0.023118827 4281696329
0.034427691 -0.042845264 -0.015726769 4281696584
-0.029760268 -0.02025184 0.014060448 4280574073
-0.029868279 -0.021846205 0.012832853 4279457173
-0.028132897 -0.019487217 0.010458292 4279064473
-0.026236515 -0.01862856 0.0094491662 4279786123
-0.029810321 -0.024944805 0.012966667 4279325593
-0.028154898 -0.021826938 0.0099160327 4279194013
-0.026344161 -0.020214066 0.008228437 4279194524
-0.024635088 -0.01784984 0.0058633843 4279458958
-0.029752914 -0.028051667 0.013094044 4279325594
-0.028006148 -0.025679223 0.010727662 4279128733
-0.026275385 -0.023307502 0.0083639724 4278866593
-0.024560604 -0.020936534 0.0060030194 4279194268
-0.02286182 -0.018566392 0.003644825 4279063964
-0.020986531 -0.017704286 0.00264272 4279784849
-0.019116472 -0.016842403 0.0016415948 4282078829
-0.029861335 -0.029653743 0.011860487 4279129243
-0.028028939 -0.028031282 0.010175898 4278932383
-0.026295166 -0.025652982 0.007816744 4278735779
-0.02457739 -0.02327548 0.0054603638 4278997919
-0.022782203 -0.021654673 0.0037821475 4278866849
-0.020805392 -0.021545999 0.0034558922 4278932383
-0.019026067 -0.019925885 0.0017805127 4279587478
-0.017155875 -0.019061707 0.00078108627 4282470508
-0.029887203 -0.032014288 0.011302787 4279325594
-0.028137159 -0.029628806 0.0089458721 4278604963
-0.026315201 -0.028002471 0.0072664162 4278539429
-0.024594437 -0.025618412 0.0049145613 4278997664
-0.022703122 -0.024751328 0.0039130971 4278932129
-0.020817038 -0.023884363 0.0029125437 4278932129
-0.019034866 -0.022259824 0.0012400411 4278866594
-0.017060619 -0.02215109 0.0009143725 4278931873
-0.015398387 -0.019769616 -0.0014274055 4279063454
-0.013431963 -0.019661076 -0.0017516082 4281685364
-0.029583853 -0.03742224 0.013437792 4279522198
-0.028075214 -0.03274741 0.0090630976 4279522709
-0.026423227 -0.029595412 0.0060399389 4278998173
-0.024521288 -0.028725728 0.0050383024 4278801059
-0.022624578 -0.027856238 0.0040376 4278997919
-0.020637278 -0.027747013 0.0037095882 4278997919
-0.018846873 -0.026117757 0.0020390749 4279063198
-0.017067116 -0.024488904 0.00037037954 4278407848
-0.015609715 -0.020581521 -0.0033076475 4278866338
-0.013539542 -0.021232687 -0.0029614526 4279521943
-0.011791732 -0.019605286 -0.0046245637 4280112013
-0.027674172 -0.038925879 0.011861361 4280242573
-0.026093189 -0.035001688 0.00817079 4280177038
-0.024358381 -0.032603987 0.005826625 4279784338
-0.02245358 -0.031731904 0.0048262691 4279128734
-0.020745393 -0.029335417 0.0024866909 4279194524
-0.018954847 -0.027701877 0.00081950799 4278997663
-0.017174933 -0.026068747 -0.00084586814 4278932128
-0.015509445 -0.023674272 -0.0031781383 4278931873
-0.013647061 -0.022803962 -0.0041710506 4278800803
-0.011789963 -0.021933816 -0.0051629911 4278997663
-0.0098262951 -0.021825224 -0.0054865736 4279325593
-0.0080915876 -0.020194046 -0.0071439887 4279915919
-0.0064848028 -0.017802231 -0.0094661182 4282275688
-0.023835693 -0.03955368 0.009282439 4281683324
-0.02209774 -0.037149332 0.0069429195 4279849619
-0.020662416 -0.032452382 0.0026008291 4279456663
-0.019161019 -0.028521396 -0.0010678545 4278866848
-0.017383646 -0.026884191 -0.0027294233 4278473638
-0.015616942 -0.025247395 -0.004389178 4279128733
-0.013754558 -0.02437494 -0.0053804219 4279128734
-0.012006458 -0.022739008 -0.0070368946 4278997919
-0.0099339411 -0.023394115 -0.0066942722 4279129243
-0.0080847032 -0.022522032 -0.0076830573 4279325848
-0.0064749271 -0.020123616 -0.010000638 4279523218
-0.0047614388 -0.018489107 -0.011651031 4279851658
-0.021928702 -0.041054465 0.0077088093 4281882224
-0.02057996 -0.035577662 0.0027086241 4280112013
-0.019072589 -0.031635664 -0.00095266569 4279586969
-0.017289694 -0.029993832 -0.0026118387 4278735268
-0.015517455 -0.028352506 -0.0042691119 4279390618
-0.013755847 -0.026711613 -0.0059245899 4279063198
-0.012004912 -0.025071226 -0.0075781681 4279194268
-0.010153089 -0.024197012 -0.0085658208 4279063453
-0.008192312 -0.024088472 -0.0088888481 4279194524
-0.0065822378 -0.021683633 -0.011201449 4278866849
-0.0047489852 -0.02081006 -0.012185745 4278801058
-0.0030433498 -0.019171588 -0.013831388 4279128989
-0.0012234151 -0.018298484 -0.014813352 4279718804
0.0005912073 -0.017425589 -0.015794307 4282340968
-0.017095674 -0.033880249 -0.0018363977 4282989944
-0.015315186 -0.032234214 -0.003491689 4280372624
-0.01365139 -0.029820465 -0.0058084843 4279718038
-0.011894923 -0.028175451 -0.0074596666 4279062688
-0.010149106 -0.026530959 -0.0091089569 4279259803
-0.008071702 -0.027189977 -0.0087704211 4279128733
-0.006455943 -0.024778448 -0.01107889 4278932383
-0.0048562661 -0.022367649 -0.013384651 4278473128
-0.0032726713 -0.019957595 -0.015687656 4278997663
-0.0013305582 -0.019849636 -0.016007252 4279260059
0.00061162189 -0.019741558 -0.016326755 4279784083
0.0024236143 -0.018866546 -0.017305501 4280702083
-0.01511379 -0.036128454 -0.0027239891 4282075258
-0.013335753 -0.03447815 -0.0043754401 4280962184
-0.011676922 -0.032058142 -0.0066862931 4279390364
-0.010034148 -0.029638879 -0.0089943968 4279128478
-0.0081795342 -0.028760113 -0.0099790618 4278801314
-0.0063302182 -0.027881518 -0.010962758 4278604709
-0.0047248602 -0.025463983 -0.013264421 4278408103
-0.003013555 -0.023816638 -0.014904298 4278997919
-0.0014376715 -0.021400504 -0.017200917 4279063454
0.00037694722 -0.020523325 -0.018178511 4279194523
0.0021862388 -0.019646339 -0.019155145 4279391128
0.0038574003 -0.0180007 -0.020788074 4279457684
0.005788818 -0.017892845 -0.021105528 4278998683
0.007582102 -0.017016381 -0.022079233 4279788418
-0.0098086298 -0.033527307 -0.008227081 4281420928
-0.008173544 -0.03110195 -0.010528803 4279521688
-0.0063215382 -0.030221067 -0.011511266 4278866593
-0.0047131889 -0.027796991 -0.013808355 4279128734
-0.0029990561 -0.02614516 -0.015445367 4279128733
-0.001295615 -0.024493866 -0.017080508 4278801314
0.00052439049 -0.023614272 -0.01805732 4278801314
0.0023390539 -0.022734798 -0.019033197 4278867359
0.0040157512 -0.021084614 -0.020663641 4278801314
0.0056817159 -0.019434854 -0.022292264 4278735779
0.0073369592 -0.017785616 -0.023918979 4279064219
0.0094036497 -0.018448316 -0.023581095 4279654543
-0.0080541708 -0.03422197 -0.010424566 4280568719
-0.0063131265 -0.03256461 -0.012062849 4279521434
-0.0047017969 -0.030133955 -0.014355395 4279521433
-0.0029848255 -0.028477706 -0.015989542 4279063453
-0.001402963 -0.026048429 -0.018277038 4278932894
0.00041702762 -0.025166698 -0.01925217 4278801314
0.0023615025 -0.025058374 -0.019571971 4278932129
0.004041031 -0.023403704 -0.021199565 4278538663
0.0057098381 -0.021749564 -0.022825262 4278801059
0.0072300248 -0.019323044 -0.025102157 4278997918
0.0092964098 -0.019987911 -0.024765912 4279063453
0.011081669 -0.019107379 -0.02573476 4279196563
-0.0046906658 -0.032474928 -0.014905527 4282664309
-0.0029708557 -0.030814283 -0.016536742 4281027463
-0.0012617446 -0.029154047 -0.018166125 4279521688
0.00056362152 -0.028269894 -0.019140482 4278735268
0.0023836754 -0.02738589 -0.020113852 4278408103
0.0041983947 -0.026502073 -0.02108625 4278342314
0.0057376772 -0.024068214 -0.02336137 4278538918
0.007260859 -0.021635115 -0.02563373 4278801314
0.0091891997 -0.021527193 -0.02595048 4278669989
0.010974448 -0.020644508 -0.026917644 4278866338
0.013045974 -0.021310963 -0.026583716 4278735779
0.015271422 -0.022751383 -0.025600938 4279587733
0.017356437 -0.023416847 -0.025269039 4280378233
-0.0012452155 -0.03149014 -0.018713564 4280503948
0.00045602396 -0.029826008 -0.020338174 4278931874
0.0022760592 -0.028939895 -0.021309886 4278800549
0.003958568 -0.027276494 -0.022931248 4278801059
0.0059001409 -0.027168103 -0.023250386 4278538918
0.0075665861 -0.025505394 -0.024868879 4278669989
0.0093625747 -0.024620108 -0.025836226 4278801059
0.011153191 -0.02373495 -0.026802644 4278800548
0.013375472 -0.025179937 -0.025822785 4278735269
0.015756898 -0.02740068 -0.024196647 4278866849
0.018305538 -0.030396655 -0.021925576 4279718548
0.020568242 -0.031839013 -0.020952068 4281096824
0.0025565587 -0.032832608 -0.020557456 4281355903
0.0043793358 -0.031944066 -0.021527827 4279784084
0.0061967745 -0.031055726 -0.02249724 4279063198
0.0077340007 -0.028609 -0.024761841 4278670244
0.0093952306 -0.026942179 -0.026376024 4278669989
0.011045724 -0.025275789 -0.027988389 4278931873
0.013267539 -0.026725106 -0.027011823 4278736289
0.015944771 -0.030509539 -0.024097998 4278735779
0.018799845 -0.035070844 -0.020542644 4279718548
0.021840841 -0.040408559 -0.016347026 4280439434
0.024138089 -0.041853063 -0.015382471 4281226874
0.025969164 -0.040962763 -0.016353199 4282144618
0.0049308389 -0.037410252 -0.01949013 4282336379
0.0066271387 -0.035737462 -0.021106925 4279914388
0.0080381297 -0.032502316 -0.024014734 4279194524
0.0095676035 -0.030049495 -0.02627293 4278735269
0.011080947 -0.02759748 -0.028528348 4278735524
0.013304994 -0.029050909 -0.027555544 4278474149
0.01598401 -0.032845952 -0.024650399 4279194524
0.019292969 -0.039761931 -0.019172717 4279980688
0.022650408 -0.046675034 -0.013702868 4280636039
0.025431765 -0.050463922 -0.010814214 4281095038
0.0098792277 -0.033948533 -0.025531862 4279718294
0.011400942 -0.031489573 -0.027783647 4278931874
0.013342172 -0.031380706 -0.028102335 4278473638
0.016170878 -0.035969339 -0.024562858 4278997918
0.019483715 -0.04290434 -0.019100888 4279980433
0.022998311 -0.050619103 -0.013004662 4281159810
0.01228955 -0.0385359 -0.024479669 4280437649
0.013959341 -0.036855467 -0.026085034 4279783573
0.016800445 -0.041456237 -0.022557642 4279325594
0.019974764 -0.047624849 -0.017753677 4280635529
0.017280918 -0.046177097 -0.021208426 4282929254
0.020013746 -0.050001085 -0.018337185 4282601578
-0.0059930868 -0.048894487 -0.028796002 4282994278
-0.006334763 -0.048852481 -0.031267315 4282862698
-0.035542134 0.015948981 0.061674781 4284900913
-0.033586051 0.016747057 0.060605727 4285688353
-0.038255636 0.019711763 0.054888584 4284901934
-0.036540244 0.022575453 0.051626179 4285820444
-0.034616444 0.023373846 0.050564099 4285755164
-0.032301452 0.020732477 0.053161912 4285755164
-0.029472861 0.01396583 0.060144313 4285886489
-0.040786494 0.022130687 0.049585927 4284967979
-0.039005172 0.024312045 0.047062531 4285689883
-0.037092324 0.025111869 0.046003845 4285755164
-0.035184648 0.025911514 0.044946022 4285623583
-0.033044744 0.024640668 0.046079561 4285689374
-0.030484755 0.019920923 0.050859753 4285689629
-0.027971316 0.015893061 0.054904528 4285755419
-0.025338072 0.011177491 0.059672751 4285427489
-0.045134801 0.023082729 0.046086874 4284967723
-0.043217238 0.023884758 0.045028862 4285361954
-0.041236613 0.023993704 0.044702027 4285558814
-0.039255742 0.024102729 0.044375204 4285624348
-0.037421796 0.025596891 0.042589698 4286018323
-0.035522137 0.026398156 0.041534889 4285952533
-0.033390727 0.025122512 0.042666357 4285952534
-0.031003293 0.021771278 0.045980167 4285755929
-0.028588679 0.018421616 0.049289543 4285624349
-0.026495147 0.017840631 0.049685989 4285624604
-0.02457555 0.01864339 0.048628122 4285624093
-0.022568706 0.018754404 0.04829745 4285754908
-0.019990716 0.014717411 0.052321635 4285819934
-0.045556385 0.024967086 0.041213691 4285689629
-0.043586876 0.025075298 0.040888593 4285755163
