# .PCD v0.7 - Point Cloud Data file format
VERSION 0.7
FIELDS x y z rgba
SIZE 4 4 4 4
TYPE F F F U
COUNT 1 1 1 1
WIDTH 975
HEIGHT 1
VIEWPOINT 0 0 0 1 0 0 0
POINTS 975
DATA ascii
0.051326845 0.0068820268 -0.0096417647 4280850493
0.05679395 -0.0045277476 0.00080121309 4280981054
0.072507203 -0.041749388 0.035156775 4280980799
-0.039051995 -0.0059004128 0.012576325 4281695308
-0.03729225 -0.0043086186 0.010776093 4281697859
-0.035347924 -0.0041809753 0.010379108 4281567554
-0.033603773 -0.0025899708 0.0085821562 4281567553
-0.031767219 -0.0017310381 0.007486891 4281568319
-0.029935814 -0.00087233633 0.0063927453 4281567553
-0.028001316 -0.0007449463 0.0059980657 4281502784
-0.026288405 0.0008443594 0.0042078365 4281307453
-0.024358869 0.00097160041 0.0038143061 4281241918
-0.022661619 0.0025601089 0.0020273775 4281242429
-0.020855963 0.0034176111 0.00093886629 4281242173
-0.019055493 0.0042748675 -0.00014851894 4281306944
-0.017384455 0.005861938 -0.0019298783 4281241919
-0.01547008 0.0059887171 -0.0023199124 4281241154
-0.013555549 0.006115593 -0.0027099093 4281633343
0.021281116 0.0069662333 -0.0083513707 4284713745
0.022661444 0.0092744976 -0.010792218 4281701173
0.023842633 0.012307882 -0.013912831 4280005933
0.025002427 0.015339926 -0.017029019 4280655673
0.02670623 0.016193435 -0.018094691 4279352114
0.032229822 0.0099206641 -0.012732161 4281045824
0.034536496 0.0085998774 -0.011759115 4281110594
0.036455519 0.0087299272 -0.01214784 4280980289
0.038576379 0.0081352293 -0.01185713 4280980033
0.039884437 0.010439612 -0.014282564 4280979779
0.041176409 0.012743026 -0.016704649 4281110083
0.042452291 0.015045401 -0.019123359 4281045313
0.044987384 0.013002276 -0.017475868 4281110593
0.047753725 0.010236405 -0.015154896 4281307453
0.051848862 0.0031297207 -0.0087817749 4280850749
0.057762124 -0.0097616091 0.0029848553 4280850748
0.066004232 -0.029879913 0.021481946 4280850748
0.07258863 -0.044202439 0.034553327 4280784703
-0.039086573 -0.0082298145 0.012096249 4282284359
-0.037418634 -0.0058993846 0.0095992498 4281567554
-0.035474412 -0.005771786 0.0092022587 4281436484
-0.033630021 -0.0049102828 0.0081069451 4281175363
-0.031790741 -0.0040489659 0.0070127081 4281110339
-0.029956594 -0.0031879544 0.0059196372 4281240133
-0.028019562 -0.0030604452 0.0055244006 4281371459
-0.02619303 -0.0021997169 0.0044330359 4281306434
-0.024144895 -0.0028050542 0.0047340654 4281436738
-0.022439398 -0.0012117401 0.0029487666 4281372478
-0.020625681 -0.00035154819 0.0018602479 4281372734
-0.018938541 0.0012408048 7.8810379e-05 4281111104
-0.017013773 0.0013681278 -0.00031344686 4281241664
-0.015215591 0.0022275895 -0.001398568 4281175619
-0.013422593 0.0030868128 -0.0024825567 4281894974
0.020264484 0.0090395957 -0.012924625 4282092853
0.021631841 0.011353508 -0.015357876 4280854829
0.02316609 0.012938164 -0.017106323 4281373244
0.024504054 0.015250284 -0.019533401 4281633088
0.026579123 0.014649786 -0.019235544 4281372224
0.029232452 0.011866562 -0.016899038 4281046078
0.031713545 0.0098124221 -0.015246129 4280719933
0.033818051 0.0092142671 -0.014953971 4280980289
0.035927895 0.0086165741 -0.01466281 4281111104
0.038043071 0.0080193579 -0.014372641 4280849984
0.039141845 0.011056751 -0.017469268 4280523583
0.040219173 0.014092818 -0.020561451 4279351349
0.041904151 0.014948115 -0.02162098 4278830638
0.048268605 0.0064925402 -0.014286593 4280524860
0.052587535 -0.0013613626 -0.0072567565 4281241663
0.058948889 -0.015742809 0.0058265068 4281176894
0.067201808 -0.035921231 0.024275158 4281176894
0.072669685 -0.046659477 0.033946864 4281241153
-0.038937747 -0.012036338 0.013009934 4281761609
-0.037450433 -0.0082261935 0.0091204345 4281698113
-0.035600856 -0.0073623061 0.0080256164 4281502019
-0.033656538 -0.0072346404 0.0076286495 4281240644
-0.031814538 -0.0063710585 0.0065355301 4281240644
-0.029977687 -0.0055076778 0.0054434817 4281174853
-0.028145961 -0.0046445727 0.0043526068 4281175619
-0.026319399 -0.003781721 0.0032628514 4281240898
-0.024271548 -0.0043892711 0.0035622697 4281306689
-0.022334062 -0.004261449 0.0031671561 4281176383
-0.020396389 -0.0041335151 0.0027720835 4281242173
-0.018701017 -0.0025363192 0.00099230558 4281175873
-0.016768351 -0.0024085045 0.00059841201 4281502274
-0.014962107 -0.0015463531 -0.00048671383 4281110848
-0.013161063 -0.00068441033 -0.0015707491 4281894209
-0.011365198 0.00017726421 -0.0026536016 4283592253
0.017704558 0.0095456094 -0.015734047 4284646679
0.019249674 0.011135139 -0.017481554 4281373499
0.020784125 0.012724005 -0.019226773 4280916794
0.022490658 0.013581827 -0.020289857 4279678003
0.024006419 0.01516971 -0.022031153 4280524858
0.026075831 0.014566619 -0.021733746 4280329528
0.028532151 0.012504227 -0.020080892 4279743539
0.031004539 0.010442972 -0.018431168 4280720189
0.033100694 0.0098420829 -0.018138969 4280980033
0.035003379 0.0099710301 -0.018524384 4280915008
0.036906049 0.010100082 -0.018909711 4280719168
0.038196191 0.012416318 -0.021321589 4280915264
0.039677091 0.014002703 -0.023055086 4280850494
0.041775793 0.013402537 -0.022762978 4280720189
0.044728566 0.0098889694 -0.019776167 4278960434
0.048137791 0.004920736 -0.015447902 4279481398
0.052889671 -0.0044134408 -0.0070900992 4281241664
0.059913244 -0.021021992 0.0079766717 4281241664
0.067951396 -0.040532976 0.025705699 4281241664
0.072524801 -0.048393048 0.032666191 4281501509
-0.038148202 -0.021026492 0.018791497 4282282573
-0.036727779 -0.016465217 0.014208416 4281696584
-0.034951128 -0.014859281 0.012414621 4281434699
-0.033284619 -0.012515739 0.00992788 4281369928
-0.031531572 -0.010911122 0.008139018 4281502019
-0.029894024 -0.00856933 0.0056583788 4281108808
-0.02805692 -0.0077037364 0.0045680273 4281174344
-0.026114583 -0.00757581 0.0041717589 4281305414
-0.024059013 -0.0081850663 0.0044679195 4281305668
-0.022345074 -0.006582506 0.0026874263 4281110083
-0.020404868 -0.0064544156 0.0022918228 4281175618
-0.018706605 -0.004852742 0.00051472522 4281110593
-0.016771391 -0.0047247782 0.00012029707 4281437248
-0.01496242 -0.0038602874 -0.00096374378 4281110593
-0.013029575 -0.0037322864 -0.0013575358 4282286909
-0.011228338 -0.002868101 -0.0024398444 4284050744
0.017577477 0.007993862 -0.01688106 4283794723
0.01894559 0.010320753 -0.01930465 4281307199
0.020297691 0.01264663 -0.021724867 4281111104
0.021816328 0.014238928 -0.023463532 4280980033
0.023509543 0.015098136 -0.02452218 4280850494
0.025573269 0.01449253 -0.024225319 4280785214
0.027832968 0.013155267 -0.023252783 4280915518
0.030103356 0.011818878 -0.022282375 4280980545
0.03218849 0.011215068 -0.021989588 4280980289
0.034080334 0.011343263 -0.022372814 4281045314
0.035972156 0.011471599 -0.022755934 4280654144
0.037455991 0.013062418 -0.024486812 4280002874
0.038929082 0.014652669 -0.026215464 4281176129
0.041228779 0.013318911 -0.025250426 4281436739
0.044175159 0.0097940564 -0.022270575 4281110594
0.048006985 0.0033492297 -0.016608985 4280915264
0.053408444 -0.0082042217 -0.0062585138 4280915008
0.068254106 -0.043702006 0.025783263 4281240898
0.072379932 -0.050126284 0.031385764 4281370438
-0.032217793 -0.023000836 0.017065823 4282608209
-0.030636832 -0.019909464 0.013887716 4282152779
-0.028972186 -0.017559364 0.011406433 4281696329
-0.027645931 -0.012990758 0.0068528261 4281173578
-0.026020944 -0.010643035 0.0043798108 4281238858
-0.024186075 -0.0097752362 0.0032917 4281108809
-0.022356384 -0.0089076832 0.0022047255 4281239368
-0.020531833 -0.008040309 0.0011188406 4281173833
-0.018712476 -0.0071732104 3.4140423e-05 4281239623
-0.016774721 -0.0070451051 -0.00036081858 4281502019
-0.014963053 -0.0061783046 -0.0014437903 4281370948
-0.013027661 -0.0060501397 -0.0018381104 4282483769
-0.011092134 -0.0059218556 -0.0022323765 4284247094
0.017624803 0.0057070628 -0.017349575 4283525188
0.019173037 0.0073054358 -0.01909107 4282740554
0.020530872 0.0096382573 -0.021507543 4281891914
0.021872684 0.011970118 -0.023920674 4281304649
0.023568615 0.012831658 -0.024978232 4281304903
0.025446951 0.012958519 -0.025359049 4281305414
0.027706148 0.011616871 -0.024389714 4281240644
0.029782945 0.011010192 -0.024096986 4281176638
0.031473536 0.011871859 -0.025153102 4281110593
0.033158749 0.012733303 -0.02620809 4281240898
0.03503973 0.012860902 -0.026589021 4281045313
0.03651309 0.014455374 -0.028314453 4279547699
0.038182184 0.015316021 -0.02936588 4279743028
0.040473342 0.013977379 -0.028402459 4280329528
0.043622479 0.0097082183 -0.024758335 4280134964
0.048305199 0.00031273067 -0.016429558 4280199733
0.054577682 -0.014205247 -0.0034274794 4280524860
0.062496074 -0.033841804 0.014236467 4280524860
0.068556085 -0.046879441 0.025854614 4281045824
0.072009869 -0.05112727 0.029437631 4281630793
-0.022367977 -0.011236891 0.0017189551 4280645473
-0.020658761 -0.0096258968 -5.3929165e-05 4280844884
-0.018960066 -0.0080155432 -0.0018245485 4281041234
-0.017148495 -0.0071467012 -0.0029059462 4281303373
-0.015090026 -0.0077596232 -0.0026133098 4281434444
-0.012897328 -0.0091126561 -0.0016358122 4282220864
-0.011087969 -0.0082436204 -0.0027164947 4284246073
0.018020172 0.0019410253 -0.016467761 4283264833
0.019576643 0.0035443529 -0.018207662 4282479434
0.020942919 0.0058842078 -0.020620853 4281891913
0.02229315 0.0082231462 -0.023030737 4281174343
0.023997147 0.009087421 -0.024088271 4281043784
0.025883369 0.0092148036 -0.024470696 4280913478
0.027959839 0.0086058304 -0.024179634 4280914243
0.029848743 0.0087336153 -0.02456243 4281174853
0.031346463 0.010333732 -0.026289761 4281371714
0.033031717 0.011197373 -0.027343096 4281305923
0.034711614 0.012060702 -0.028395226 4281372479
0.036386136 0.012923785 -0.029446181 4281308474
0.038055275 0.013786618 -0.030495953 4281306944
0.040136963 0.01317881 -0.030205328 4281306433
0.043070544 0.0096313655 -0.027239395 4280981308
0.048388384 -0.0019974485 -0.016924873 4281046588
0.055310745 -0.018762872 -0.0019516172 4281111870
0.063234769 -0.038457699 0.015666619 4281111870
0.068412662 -0.048596725 0.024585947 4281111358
0.071415134 -0.051389411 0.026826553 4282021198
-0.015216947 -0.009340629 -0.0037825964 4280516443
-0.013153277 -0.0099553019 -0.0034926124 4281826379
0.018066484 -0.00035828352 -0.016945528 4283069503
0.019802537 0.00050996244 -0.018008187 4282545478
0.0213539 0.002117388 -0.01974367 4281565259
0.022894606 0.0037241727 -0.021476865 4281173833
0.02479405 0.0038523376 -0.021862052 4281174344
0.026693506 0.0039806068 -0.022247158 4281370184
0.028592965 0.0041089952 -0.022632178 4281305668
0.030299697 0.0049759895 -0.023688339 4281240644
0.031610228 0.0073193312 -0.026084794 4281109828
0.033300888 0.0081854537 -0.027137537 4281174598
0.035186939 0.00831341 -0.027519476 4281174854
0.036869526 0.0091792196 -0.028570401 4281240134
0.038752843 0.009307228 -0.028951613 4281436483
0.040636122 0.0094353333 -0.02933274 4281567043
0.043576684 0.0058775246 -0.026376449 4281305669
0.048899487 -0.0057856515 -0.01608938 4281240389
0.063752532 -0.042354062 0.016418293 4281240389
0.068047076 -0.049577206 0.02265225 4281240644
0.018112466 -0.0026616678 -0.017426293 4282547519
0.020027734 -0.0025328174 -0.017814979 4281762629
0.021405488 -0.00017915666 -0.020220596 4281499978
0.023130924 0.00069082528 -0.021279316 4281434443
0.025035571 0.00081934035 -0.021665558 4281369673
0.027127452 0.00020690262 -0.021380965 4281369673
0.0288449 0.0010767058 -0.022437796 4281370693
0.030557016 0.0019462258 -0.023493405 4281240389
0.032068543 0.0035559684 -0.025216933 4281174853
0.033767249 0.00442487 -0.026269685 4281175363
0.035661183 0.0045533627 -0.026653219 4281175363
0.037555087 0.0046819597 -0.027036674 4280979779
0.039243035 0.0055504292 -0.028086942 4280913988
0.041134194 0.0056790784 -0.028469656 4280718658
0.044081733 0.002110891 -0.025523029 4280912713
0.049623474 -0.010325909 -0.014598016 4280846668
0.063611284 -0.0440467 0.015167806 4280977229
0.067459896 -0.049814358 0.02005833 4281172304
0.018331781 -0.0057132691 -0.017238231 4282416704
0.020075914 -0.0048400834 -0.018299269 4281761353
0.021456733 -0.0024797171 -0.020700561 4281565769
0.023003198 -0.00086381286 -0.022428364 4281435209
0.025276415 -0.0022221208 -0.021475261 4281369673
0.027373306 -0.0028363541 -0.021193378 4281435208
0.029475555 -0.0034500957 -0.020912487 4281305414
0.030813649 -0.0010920018 -0.023304656 4281370949
0.032525778 -0.00022013485 -0.024358567 4281240388
0.034430284 -9.1053545e-05 -0.024744336 4281370693
0.03613437 0.00078044832 -0.025796402 4281109829
0.03783308 0.0016517192 -0.026847284 4281109829
0.039526414 0.0025227293 -0.027896985 4281174853
0.041839629 0.0011682436 -0.026951212 4281109829
0.045007914 -0.0031517148 -0.023350561 4281108809
0.050773568 -0.016366109 -0.011791959 4281631559
0.057934165 -0.034021139 0.0037262049 4281631559
0.06412743 -0.04796207 0.01590544 4281631303
0.067317046 -0.051524103 0.018795244 4281494878
0.018376917 -0.0080269724 -0.01772663 4281958469
0.019947615 -0.0064053312 -0.019456225 4281565513
0.021507647 -0.0047843382 -0.021183532 4281434954
0.023238506 -0.0039096847 -0.022240007 4281173579
0.02533238 -0.0045264214 -0.021959264 4281108299
0.027431622 -0.005142644 -0.021679495 4281173579
0.029346697 -0.0050132126 -0.022067688 4281174344
0.031261768 -0.0048836321 -0.022455771 4281108808
0.032981966 -0.0040091127 -0.023509637 4281174344
0.034696802 -0.0031348169 -0.024562307 4281174853
0.036206041 -0.0015162453 -0.026278622 4281240644
0.037907466 -0.00064262003 -0.027328398 4281044548
0.039809074 -0.00051336735 -0.02771331 4281044548
0.041918889 -0.0011279285 -0.02743496 4281175109
0.045510463 -0.0069483295 -0.022519216 4281501763
0.051280722 -0.020201482 -0.010991239 4281567300
0.058228545 -0.037164941 0.0038250592 4281697603
0.063547768 -0.048174143 0.013328593 4281697859
0.066730969 -0.051747456 0.016211458 4282018648
0.018595036 -0.011093192 -0.017549444 4280777819
0.020171292 -0.0094668865 -0.019276835 4280909653
0.021736871 -0.0078411475 -0.021002015 4281499468
0.023291793 -0.0062160417 -0.022724897 4281237839
0.025204025 -0.00608702 -0.023112677 4280912203
0.027489597 -0.0074530244 -0.022168634 4281108299
0.02959655 -0.0080708265 -0.02189195 4281108299
0.031516828 -0.0079409033 -0.022281086 4281108808
0.03324239 -0.0070637986 -0.023334434 4281174344
0.034962613 -0.006186977 -0.024386551 4281240134
0.036677465 -0.0053103864 -0.025437489 4281240133
0.038386941 -0.0044340417 -0.026487241 4280979778
0.040091038 -0.0035579503 -0.027535822 4280980034
0.041997813 -0.0034282133 -0.027921673 4280914499
0.045590449 -0.009265855 -0.023019377 4281371458
0.051786795 -0.02404967 -0.010199985 4281436739
0.05852221 -0.040317141 0.003917696 4281567298
0.063187614 -0.049122572 0.011417869 4281632579
0.029467376 -0.009637706 -0.023049926 4280449123
0.031963009 -0.011755943 -0.021449503 4280974933
0.034085672 -0.01237461 -0.021177471 4281237583
0.036016475 -0.012243718 -0.021568544 4281109318
0.037547532 -0.010614991 -0.023282688 4281175363
0.039067879 -0.0089869052 -0.024994509 4281175619
0.040577494 -0.0073593706 -0.026704114 4280782664
0.042076379 -0.0057325065 -0.028411416 4281108554
0.0456701 -0.011587471 -0.023522485 4281042763
0.052078556 -0.027162649 -0.010077039 4280977483
0.058599271 -0.042730071 0.0033458583 4281108299
0.038447224 -0.02358482 -0.014146318 4281693779
0.04021294 -0.022700444 -0.015204255 4281761098
0.04136622 -0.01956372 -0.018239234 4281501764
0.042293049 -0.015677668 -0.021928653 4281174088
0.04360852 -0.013294309 -0.024295874 4281043019
0.047011644 -0.018414944 -0.020081948 4281108043
0.052795708 -0.031784311 -0.0086458009 4281107533
-0.025835618 -0.016802877 0.00477718 4282275433
-0.024552561 -0.012210891 0.00025232881 4279392403
-0.022610247 -0.01208286 -0.00014384836 4278999704
-0.025743917 -0.019895442 0.0049664602 4282077554
-0.024454594 -0.015290037 0.0004502181 4278998429
-0.022622094 -0.014415845 -0.00063243322 4278801823
-0.020677067 -0.014287539 -0.0010290947 4279063198
-0.018972591 -0.012668118 -0.0027943663 4279128989
-0.017155617 -0.011794619 -0.0038735922 4279325848
-0.015469514 -0.010176234 -0.0056349076 4278932894
-0.013537213 -0.010048337 -0.0060286466 4279064218
-0.011735827 -0.0091755316 -0.0071044434 4281161084
-0.025652826 -0.022996455 0.0051495563 4282012018
-0.024581611 -0.016881213 -0.00072678458 4278998174
-0.02286391 -0.015256867 -0.0024915943 4278671008
-0.020921685 -0.015128762 -0.0028876951 4278866849
-0.018979304 -0.015000544 -0.0032837493 4279063454
-0.017036751 -0.014872223 -0.0036797626 4279063198
-0.015345119 -0.013249099 -0.0054389592 4279128478
-0.013535805 -0.012373731 -0.0065148305 4278735524
-0.01160083 -0.012245566 -0.0069090351 4278932384
-0.0095321611 -0.012864053 -0.0066232197 4279784338
-0.0075942278 -0.012735456 -0.0070178509 4280178313
-0.0057950765 -0.011860304 -0.0080913007 4282143599
-0.025453083 -0.026856422 0.0060096141 4281749624
-0.024484582 -0.019972846 -0.00053814892 4278997663
-0.02276133 -0.018343799 -0.0023007942 4278736033
-0.020931229 -0.017465368 -0.0033796141 4278801059
-0.019106328 -0.016587168 -0.0044572735 4278866339
-0.017163917 -0.016458854 -0.0048532682 4279062944
-0.015346721 -0.015580893 -0.0059292419 4278997408
-0.013278641 -0.016201869 -0.0056450916 4278538663
-0.01133579 -0.016073197 -0.0060409131 4279128478
-0.0093927979 -0.015944406 -0.0064366916 4279194268
-0.0075857118 -0.015066639 -0.0075102439 4279521944
-0.0056451261 -0.014937781 -0.0079053538 4279718038
-0.0037044287 -0.014808781 -0.0083003864 4279653013
-0.0020517223 -0.013183169 -0.010047715 4279522708
-0.00011614338 -0.013054267 -0.010441523 4279915918
0.0015207268 -0.011429459 -0.012185447 4280178060
0.0036032423 -0.012048379 -0.011903487 4281030269
0.0055364408 -0.01191929 -0.012296543 4282143599
-0.025472626 -0.029223762 0.0054969583 4281750133
-0.024500012 -0.02232039 -0.0010367995 4278931618
-0.022888377 -0.019934423 -0.0034773638 4278669988
-0.020941079 -0.019806035 -0.0038745338 4278931873
-0.019113466 -0.01892551 -0.0049511259 4278735524
-0.017168522 -0.018797055 -0.0053476514 4279062944
-0.015348613 -0.017916799 -0.0064224945 4279128479
-0.013278194 -0.018539779 -0.0061405348 4278473384
-0.011332802 -0.018410951 -0.0065368908 4278735269
-0.0093872771 -0.018281996 -0.0069331797 4279128479
-0.0075774863 -0.017401949 -0.0080056088 4279259548
-0.0059114546 -0.015771307 -0.0097525865 4279390873
-0.0041147806 -0.014891893 -0.01082216 4279390873
-0.0023233443 -0.014012732 -0.011890601 4279391383
-0.00039058179 -0.01388403 -0.012283843 4279522710
0.0013930537 -0.013005123 -0.013350494 4279587989
0.0034752414 -0.013626263 -0.013070129 4279981199
0.0054082945 -0.013497189 -0.013463162 4280112269
0.0070269145 -0.011868864 -0.015199851 4280243848
0.0084750056 -0.0094918087 -0.017605556 4280833919
0.010232307 -0.008614026 -0.018666448 4281750899
0.01248017 -0.0099835917 -0.01771545 4282537319
-0.025383472 -0.032350011 0.0056612957 4281880949
-0.024180822 -0.02693624 0.0004999619 4280111249
-0.022558101 -0.024543032 -0.00193791 4278735268
-0.020600267 -0.024413973 -0.0023372481 4278735523
-0.019001253 -0.022022121 -0.004770129 4279062944
-0.017173454 -0.021139316 -0.0058450373 4278866338
-0.015350811 -0.020256735 -0.0069188019 4278800803
-0.01340571 -0.020128042 -0.0073151896 4278604198
-0.011460468 -0.019999251 -0.0077115307 4278473128
-0.0095150918 -0.019870326 -0.0081078103 4279128478
-0.0077052712 -0.018988118 -0.0091786059 4279128733
-0.0059006736 -0.01810611 -0.010248301 4279063453
-0.0042423271 -0.01647158 -0.011990287 4279128988
-0.00216344 -0.017095469 -0.011711177 4279391129
-7.9102814e-05 -0.017718874 -0.011433084 4279194523
0.0018616319 -0.017589539 -0.011827872 4279325593
0.0038024634 -0.017460085 -0.012222589 4279325593
0.005588986 -0.0165786 -0.013288007 4279718804
0.0070560984 -0.014193878 -0.015692718 4279784338
0.008666981 -0.012561619 -0.017424461 4279653778
0.010429673 -0.011681348 -0.018484749 4279587733
0.012847465 -0.01380612 -0.016869433 4279653269
0.014778044 -0.013676628 -0.01726152 4279325338
0.016538225 -0.012796104 -0.018321056 4278997664
0.018119998 -0.011165231 -0.020046376 4278998683
0.020218484 -0.011786349 -0.019770138 4279457428
0.021786958 -0.01015611 -0.021492561 4279589264
0.02352589 -0.009276554 -0.022547429 4279852678
-0.023862973 -0.031569183 0.0020240024 4282668134
-0.02222918 -0.0291688 -0.0004111547 4280833409
-0.020377606 -0.028282501 -0.0014894474 4280504968
-0.018650718 -0.026639998 -0.0032428652 4279325849
-0.016934343 -0.024998114 -0.0049940189 4278932129
-0.015228517 -0.023356766 -0.0067429664 4279062944
-0.013278209 -0.023227766 -0.0071404362 4278931618
-0.011327758 -0.023098633 -0.0075378427 4278472873
-0.0095100179 -0.022213861 -0.008608711 4278801059
-0.0076974854 -0.021329328 -0.0096784243 4278604963
-0.006028384 -0.019689821 -0.011419446 4278866848
-0.0042289719 -0.018805921 -0.012486299 4279128733
-0.0021477416 -0.019431837 -0.012209331 4279325339
-6.1050057e-05 -0.020057321 -0.011933328 4278932383
0.0018822178 -0.01992783 -0.012328637 4279128733
0.0035224631 -0.018289648 -0.014063333 4279456664
0.0054605529 -0.018160269 -0.014457413 4279391129
0.0072418414 -0.017276824 -0.015520022 4279456664
0.0090178587 -0.016393639 -0.016581483 4279522198
0.010950841 -0.016264223 -0.016974241 4279194524
0.012718964 -0.015381306 -0.018033903 4279391129
0.014816988 -0.016005009 -0.017759509 4278932128
0.016409602 -0.014369145 -0.019483861 4278735268
0.018337455 -0.014239572 -0.019875195 4279062943
0.020089734 -0.013357237 -0.020931266 4279062944
0.021836698 -0.012475118 -0.02198616 4279063964
0.023216411 -0.010088623 -0.0243674 4279260823
0.025131013 -0.009959437 -0.02475566 4279326614
0.027231934 -0.010582075 -0.02448119 4279523219
0.02971619 -0.012707785 -0.022883475 4279327378
0.032791458 -0.017086953 -0.019304197 4279853443
-0.019806042 -0.034440055 0.0013744067 4282339439
-0.018062919 -0.032792173 -0.00037905388 4281552763
-0.016330302 -0.03114488 -0.0021302123 4281094784
-0.014608234 -0.029498175 -0.0038791504 4279783828
-0.012769371 -0.028610051 -0.0049528982 4279848854
-0.010935709 -0.027722195 -0.0060254578 4279194013
-0.0091072619 -0.02683457 -0.0070968661 4279063453
-0.0074193552 -0.025189616 -0.008838525 4278997409
-0.0056040138 -0.024302617 -0.0099070761 4279128479
-0.0037938803 -0.023415841 -0.01097448 4278998174
-0.0018456355 -0.023286268 -0.011370992 4279063453
-4.33065e-05 -0.022399761 -0.012436614 4278866594
0.0019024722 -0.022270136 -0.01283246 4279063198
0.0036969781 -0.021383911 -0.013896302 4279063453
0.0054862127 -0.020497873 -0.014959035 4279325594
0.007270202 -0.019612096 -0.016020551 4279325594
0.0092082992 -0.019482486 -0.01641446 4278997918
0.011146478 -0.019352719 -0.016808268 4279063453
0.013084717 -0.019222826 -0.017202001 4278801313
0.015023015 -0.019092813 -0.017595652 4278801313
0.016621187 -0.017452292 -0.019317806 4278604964
0.018554237 -0.017322369 -0.019710194 4278932639
0.020311888 -0.016437501 -0.020765703 4278670243
0.02188611 -0.014798179 -0.02248276 4278867103
0.023449674 -0.013159469 -0.024197498 4278801314
0.025369473 -0.01302994 -0.024586821 4278932639
0.02766154 -0.014408521 -0.02365398 4278670243
0.030341923 -0.017294168 -0.021402195 4278801568
0.034192562 -0.024700776 -0.015194883 4279195289
0.038484994 -0.033610798 -0.0076794382 4280768383
-0.0071422234 -0.029062718 -0.0080080312 4282925428
-0.0053188279 -0.028173037 -0.0090765934 4281878398
-0.0035006627 -0.027283579 -0.010143997 4280635019
-0.0016877428 -0.026394285 -0.011210276 4280110738
0.00011996552 -0.025505267 -0.012275351 4279521179
0.0019224137 -0.02461648 -0.013339272 4279325338
0.0035684183 -0.022969306 -0.015068517 4279129754
0.0053576753 -0.022081107 -0.016129611 4279195034
0.0072982311 -0.021951437 -0.016524097 4279064219
0.0090796351 -0.021063559 -0.017583365 4278604963
0.010855775 -0.020175904 -0.018641461 4278670243
0.012626622 -0.019288488 -0.019698389 4278604453
0.014726657 -0.019916385 -0.019427698 4278604453
0.016662173 -0.019786462 -0.019820705 4278670498
0.018770322 -0.02041357 -0.019551467 4278801568
0.020358097 -0.018769152 -0.021268025 4278735778
0.022113129 -0.017882168 -0.022321265 4278997918
0.023682233 -0.016238712 -0.024033882 4278801313
0.025790501 -0.016865298 -0.023764279 4278866593
0.027718175 -0.016735129 -0.024155114 4278866338
0.03077762 -0.021141589 -0.020592473 4278538918
0.035208218 -0.03083726 -0.012427853 4279063964
0.039708331 -0.040528148 -0.0042771725 4279260569
0.00042824447 -0.029380403 -0.01145432 4282401658
0.0020903796 -0.027727902 -0.013183696 4280503438
0.0037419349 -0.026076004 -0.014910759 4280504204
0.0053828806 -0.024424717 -0.016635591 4279849618
0.0073259473 -0.024294883 -0.017030599 4279718293
0.0089510083 -0.022644356 -0.018752055 4279325084
0.010888882 -0.022514619 -0.019145811 4278931873
0.012662426 -0.021624863 -0.02020165 4278604964
0.01459774 -0.021495044 -0.020594697 4278932638
0.016533103 -0.021365121 -0.020987671 4278670243
0.018468518 -0.021235049 -0.02138054 4278604708
0.020228889 -0.020345666 -0.022433318 4278801058
0.0221617 -0.020215526 -0.022825483 4278866338
0.023914114 -0.019326404 -0.023876436 4279062943
0.025844298 -0.019196197 -0.024267875 4279062943
0.028146032 -0.020582795 -0.023343593 4278669733
0.031400692 -0.025760032 -0.019134967 4278997408
0.03603062 -0.036241561 -0.010336628 4278866084
0.0092990063 -0.026512213 -0.01793558 4283317874
0.011083201 -0.025619701 -0.018992031 4282271353
0.012697905 -0.023965277 -0.020707896 4280176273
0.014635734 -0.023835309 -0.021101465 4279653269
0.016573615 -0.023705207 -0.021494942 4279653013
0.018683769 -0.024336524 -0.021229422 4279456153
0.020274617 -0.022683248 -0.022940012 4279062943
0.022387512 -0.023314126 -0.022674853 4278604453
0.02396505 -0.02166146 -0.024382539 4278800803
0.025897749 -0.021531083 -0.024774492 4278866084
0.028016053 -0.02216123 -0.024510138 4278800549
0.031457573 -0.028114259 -0.019657074 4279062178
0.035896555 -0.037865773 -0.011536939 4279127713
0.01975859 -0.031265177 -0.017797934 4280438668
0.021368328 -0.029606245 -0.019509116 4280111503
0.023144819 -0.028711326 -0.020561771 4279521943
0.024735916 -0.027053416 -0.022268916 4279128734
0.026499091 -0.026159123 -0.023318676 4278800804
0.028442344 -0.026027888 -0.023712656 4278997153
0.031702187 -0.031235158 -0.019528167 4279062944
0.035762507 -0.039489716 -0.01273705 4279390874
0.027829256 -0.033865057 -0.019261422 4282209133
0.029238038 -0.031437352 -0.021618655 4281029504
0.032134026 -0.035129324 -0.018752994 4280374154
0.035628486 -0.041113317 -0.013936914 4280308618
0.038972445 -0.046329796 -0.0097807869 4282011253
0.033315707 -0.042104304 -0.015383939 4282338673
0.035875283 -0.044270277 -0.013835966 4282534513
0.031665072 -0.050195143 -0.015987642 4282274668
-0.041396268 0.023397159 0.045689199 4285558559
-0.039605305 0.024896074 0.04381045 4285820698
-0.036984518 0.020237081 0.048573978 4285951514
-0.044179164 0.02714381 0.038991984 4285493024
-0.042579919 0.030019317 0.035645176 4285558559
-0.040730245 0.030833934 0.034512892 4285689118
-0.038512915 0.028902903 0.036326379 4285820189
-0.035799995 0.02354221 0.04181473 4285885724
-0.033142596 0.018870439 0.046559248 4285688864
-0.030548707 0.014887039 0.050561607 4285558049
-0.044647098 0.028299723 0.03486352 4285558558
-0.04297027 0.030494303 0.032261021 4285624348
-0.041218862 0.031999256 0.03039683 4285689373
-0.039198861 0.03143793 0.030738529 4285755164
-0.036886223 0.02881204 0.033281077 4285952534
-0.034355216 0.024811223 0.037286259 4285821208
-0.03209497 0.022876684 0.0390861 4285624348
-0.029922143 0.021631066 0.040150356 4285559068
-0.028057523 0.022449207 0.039016951 4285624603
-0.026525177 0.025329515 0.035690788 4285755929
-0.024678826 0.026146632 0.034561172 4285820698
-0.022036776 0.022153612 0.038544063 4285886233
-0.018659927 0.014041219 0.046898238 4285886488
-0.04687804 0.02796343 0.03261188 4285362208
-0.045113549 0.029473368 0.030748229 4285624858
-0.043359466 0.030982729 0.028886709 4285952533
-0.041525662 0.031800523 0.027760871 4285952534
-0.039511271 0.03123663 0.02810197 4286018324
-0.037204757 0.028601516 0.030639142 4286084113
-0.034974791 0.026658256 0.032440122 4285624094
-0.03293024 0.026096564 0.032775234 4285624349
-0.030880116 0.025535319 0.033109259 4285624348
-0.029143006 0.027044006 0.031251621 4285755929
-0.027634121 0.02993143 0.02793682 4285623583
-0.025811762 0.030749049 0.026813757 4285558049
-0.023537628 0.028809201 0.028606035 4285623583
-0.020428911 0.022046562 0.035491247 4285689374
-0.017146893 0.014598582 0.043093096 4285559068
-0.047250584 0.028457653 0.029237747 4285493534
-0.04540921 0.029277936 0.028111875 4285558814
-0.043485589 0.029404704 0.027719487 4285623839
-0.0415617 0.029531542 0.027327083 4285689374
-0.03954491 0.028965566 0.027665984 4285689373
-0.037522495 0.028399993 0.028003842 4285624094
-0.035396516 0.027142335 0.029070776 4285624349
-0.03346093 0.027270246 0.028676216 4285624349
-0.03152512 0.027398232 0.028281659 4285558558
-0.029801115 0.028910369 0.026429962 4285952789
-0.028196305 0.03111377 0.023852386 4285821209
-0.026273184 0.031241152 0.023460593 4285689119
-0.024007693 0.029294092 0.025249664 4285821463
-0.021142341 0.023891617 0.030667458 4285887254
-0.017995134 0.017109755 0.037528288 4285625113
-0.049618788 0.029535066 0.025532421 4285361443
-0.047867388 0.031052668 0.023677923 4285820699
-0.045873009 0.030482769 0.024019539 4285886489
-0.043698743 0.028522354 0.025821637 4285820954
-0.041508183 0.026563089 0.027620468 4285624093
-0.039578795 0.026690315 0.027226958 4285558303
-0.03764914 0.026817627 0.026833452 4285624348
-0.035719261 0.026945021 0.026439946 4285559068
-0.033889621 0.027767118 0.025318366 4285624348
-0.032065116 0.028588925 0.024197929 4285624349
-0.0304574 0.030798931 0.021624636 4285624348
-0.028756991 0.032313891 0.019781087 4285886999
-0.026622273 0.031052783 0.020843178 4285887253
-0.024248898 0.028405052 0.023353778 4285755928
-0.021387711 0.022984762 0.028759167 4285624603
-0.017887384 0.014100716 0.037777044 4285559069
-0.051429689 0.025743369 0.02695528 4285098028
-0.04998076 0.030058797 0.022178106 4285886489
-0.048155509 0.030882191 0.021058694 4285820188
-0.046251029 0.031007502 0.020670056 4285952534
-0.044085391 0.029039968 0.022468861 4285953044
-0.041813821 0.026376072 0.024993036 4285689883
-0.039797574 0.025805585 0.025328651 4285624349
-0.037870705 0.025932651 0.024935663 4285559068
-0.036041215 0.02675676 0.023815718 4285624603
-0.034317181 0.02827736 0.021970451 4285624349
-0.03250061 0.029100794 0.020853203 4285558558
-0.030794814 0.030620348 0.019011769 4285623838
-0.028882802 0.030746821 0.018622108 4285558303
-0.026637517 0.028785169 0.020405218 4285558304
-0.024262249 0.026128802 0.022908777 4285558558
-0.021283545 0.019995451 0.029023755 4285559069
-0.017304078 0.0083010718 0.040909912 4285559069
-0.051859595 0.026968502 0.022869762 4285624093
-0.050184056 0.029195178 0.020291988 4285623839
-0.048442841 0.030720748 0.018446051 4285492003
-0.046543799 0.030845642 0.018058483 4285557793
-0.044470891 0.029570919 0.019126005 4285689629
-0.042118691 0.026198003 0.022372294 4285755418
-0.040015906 0.024925429 0.023433786 4285624093
-0.037996992 0.024352964 0.023767214 4285558813
-0.036362402 0.02657745 0.021198176 4285624604
-0.034743607 0.028801028 0.018632378 4285755673
-0.032934964 0.029626027 0.017518412 4285886998
-0.030920461 0.029053573 0.017852969 4285887253
-0.02890037 0.028481562 0.018186454 4285952789
-0.026763871 0.027211715 0.019241523 4285558813
-0.024389431 0.02454653 0.021738589 4285559068
-0.021063805 0.016299687 0.030003604 4285559069
-0.016366176 0.00038219988 0.046186514 4285559069
-0.053895786 0.025275003 0.022100061 4285295654
-0.052212074 0.02750862 0.019525487 4285689884
-0.050465532 0.029038776 0.017681681 4285886999
-0.048648104 0.029865894 0.016567092 4285820953
-0.04675182 0.029990546 0.016180042 4285886743
-0.044768661 0.029413275 0.016518902 4285886998
-0.042512029 0.026730839 0.019032791 4285755418
-0.040417723 0.025453307 0.020092662 4285624349
-0.038407095 0.024877999 0.020426117 4285624348
-0.036682785 0.026407205 0.018587243 4285690139
-0.035068914 0.028636888 0.016027417 4285821208
-0.033162899 0.028762706 0.01563878 4285689629
-0.031151325 0.02818783 0.015972245 4285755419
-0.028810203 0.025511522 0.018469319 4285886998
-0.026668817 0.024237629 0.01952 4285624603
-0.024289832 0.021563981 0.022009481 4285559068
-0.020729028 0.01189094 0.031693801 4285493534
-0.016024873 -0.0040762797 0.047837265 4285493534
-0.054312639 0.026527677 0.01803216 4285361953
-0.052639194 0.028767098 0.015464596 4285558814
-0.050746195 0.028891336 0.015078064 4285624094
-0.048934035 0.029720273 0.013966119 4285689628
-0.046875633 0.028435696 0.01502984 4285689883
-0.044892751 0.027856156 0.015367048 4285624094
-0.042815141 0.026572991 0.016426962 4285624349
-0.040818393 0.025994521 0.016761463 4285558558
-0.039004974 0.026823863 0.015649579 4285624349
-0.037196651 0.02765299 0.014538752 4285755929
-0.03549324 0.029185146 0.012707507 4285820954
-0.033595353 0.029310387 0.012320492 4285623329
-0.031592079 0.028732736 0.012653956 4285492258
-0.029259771 0.026047084 0.01514617 4285689629
-0.02679538 0.022660304 0.018353414 4285755674
-0.024077691 0.017870452 0.02299295 4285558558
-0.020511448 0.0081672072 0.032652933 4285493023
-0.016396016 -0.0043393895 0.04516872 4285361443
-0.054436341 0.024968937 0.016878974 4285361444
-0.052611299 0.025800657 0.015765943 4285361954
-0.050869569 0.02733903 0.013929687 4285492514
-0.048976392 0.027463298 0.013543135 4285492769
-0.046999373 0.026881073 0.013879793 4285558559
-0.045103021 0.027005691 0.013492698 4285624349
-0.043206416 0.027130403 0.013105609 4285558558
-0.041401163 0.027961265 0.011996957 4285558558
-0.039601035 0.028791908 0.010889359 4285624349
-0.037709035 0.028916549 0.010503387 4285690138
-0.035816833 0.029041272 0.010117425 4285953043
-0.033924371 0.02916611 0.0097314846 4285952534
-0.031926729 0.02858581 0.010064447 4285887254
-0.029708222 0.026596028 0.011832906 4285821718
-0.027032189 0.021788042 0.01646924 4285689628
-0.02397953 0.01486871 0.023249615 4285558559
-0.0204105 0.0051351041 0.032885827 4285558559
-0.017121419 -0.0024805292 0.040358387 4285756183
-0.054341733 0.021281999 0.017897319 4285492513
-0.052508593 0.022116363 0.01678424 4285558814
-0.050602436 0.022241347 0.016394936 4285623584
-0.048696019 0.022366427 0.016005632 4285689628
-0.046789333 0.022491593 0.015616331 4285558303
-0.045054577 0.024034079 0.013784893 4285624603
-0.043330252 0.025575917 0.011955692 4285559069
-0.041616373 0.027117196 0.010128642 4285559068
-0.039912932 0.028657813 0.0083038174 4285558814
-0.038026378 0.028782051 0.0079189222 4285558813
-0.036239058 0.029614091 0.0068157203 4285624349
-0.034354731 0.029738329 0.0064313933 4285624094
-0.032365374 0.029155314 0.0067643188 4285624604
-0.030155547 0.027158339 0.0085295904 4285559068
-0.027268574 0.020920418 0.014588485 4285493278
-0.024107635 0.013272129 0.022068787 4285362209
-0.020541184 0.0035078079 0.031682312 4285362208
-0.018199481 0.0015199035 0.033420973 4285102618
-0.054030389 0.015447196 0.02107257 4285294379
-0.052105904 0.015573252 0.020679422 4285426469
-0.050259069 0.016410712 0.019565213 4285491749
-0.048417285 0.017247908 0.018452097 4285557793
-0.046747103 0.019506801 0.015900087 4285557793
-0.044920817 0.020343151 0.014790257 4285492004
-0.043276832 0.022600476 0.012243712 4285492004
-0.041466102 0.023435954 0.011137173 4285624093
-0.039660461 0.024271164 0.010031726 4285558558
-0.037763327 0.024396047 0.009644635 4285493023
-0.03606452 0.025940869 0.0078241099 4285493279
-0.034172282 0.026065599 0.0074381419 4285558814
-0.032279827 0.026190426 0.0070521925 4285493278
-0.030065253 0.024187181 0.0088114981 4285493279
-0.027284592 0.018639054 0.014140196 4285427744
-0.024123028 0.010966808 0.021602128 4285427743
-0.020902403 0.0032984987 0.029052138 4285691669
0.0048735142 0.0050118342 0.023805395 4285558559
0.0067044869 0.0058507696 0.022696272 4285819933
0.010084789 -0.00037241727 0.028641026 4285754398
-0.053938203 0.011727929 0.022066958 4285098029
-0.052005813 0.011854447 0.021672148 4285360678
-0.050073162 0.011981055 0.021277338 4285426468
-0.048301026 0.013534404 0.019444745 4285492258
-0.046622388 0.015800342 0.016895946 4285492258
-0.044873789 0.017352339 0.015068222 4285492004
-0.042958781 0.017478112 0.014677262 4285426468
-0.041134611 0.018316593 0.013569592 4285624094
-0.039128035 0.017729927 0.013895364 4285624349
-0.03730873 0.018568259 0.012788819 4285624349
-0.035593644 0.020118419 0.010968292 4285558303
-0.033990793 0.022379946 0.0084353872 4285558814
-0.032090425 0.022505235 0.0080477837 4285624603
-0.029761344 0.01978435 0.010514038 4285559324
-0.027081311 0.014930744 0.015114687 4285493278
-0.024026215 0.0079461187 0.021844808 4285296164
-9.2595816e-05 0.0073788315 0.019177224 4285362208
0.0015802532 0.0089278594 0.017366569 4285558814
0.0032425076 0.010476314 0.01555809 4285755419
0.0051993728 0.010607041 0.015160264 4285689884
0.0079327524 0.0071959645 0.018280782 4285886744
0.011482779 0.00024586916 0.024911407 4285886489
0.014122635 -0.0024524629 0.027315848 4285558814
0.01629407 -0.0030257329 0.027609922 4285493279
0.017806984 -0.00076788664 0.025097068 4285296163
0.019809909 -0.00063346326 0.024690345 4285164583
0.021984234 -0.0012062192 0.024984077 4285098538
-0.053846955 0.0079957992 0.023051817 4285163563
-0.052056447 0.0095545277 0.021218553 4285492004
-0.050198771 0.010396942 0.020105362 4285426469
-0.048426405 0.011954606 0.018275984 4285492259
-0.046664461 0.01351171 0.016448747 4285426723
-0.044827349 0.014353015 0.015339937 4285492514
-0.042818874 0.013764087 0.015663508 4285492514
-0.040804788 0.013175622 0.01598601 4285492513
-0.03878513 0.012587547 0.016307469 4285492513
-0.036952406 0.013428926 0.015199749 4285492513
-0.035124786 0.014270011 0.014093185 4285492513
-0.033505499 0.016539101 0.011561854 4285492259
-0.03158918 0.016665418 0.011170976 4285493023
-0.029458784 0.015364274 0.012203813 4285493023
-0.026769385 0.010496072 0.016790904 4285493024
-0.024042346 0.0056303889 0.021370433 4285427999
-0.00094494596 0.0093258321 0.014466213 4285427999
0.00086181611 0.010167234 0.013365181 4285821973
0.0025136024 0.011719286 0.011562172 4285623838
0.004307203 0.01256004 0.010463918 4285557794
0.0067159794 0.010558255 0.012174992 4285689629
0.0094564632 0.0071368963 0.015285814 4285755674
0.011902902 0.0051378235 0.01698938 4285558814
0.014039218 0.0045600086 0.017288916 4285493789
0.01568355 0.0061121732 0.015487889 4285493533
0.017317235 0.007663779 0.013689065 4285493023
0.01911144 0.0085052475 0.012591276 4285820444
0.021943413 0.0050906464 0.015683994 4285819934
0.025684796 -0.0018676817 0.022259742 4285885213
-0.053900786 0.0056872666 0.022592485 4285228843
-0.052107349 0.0072505027 0.0207619 4285426213
-0.050246932 0.0080952123 0.019649759 4285426468
-0.048391595 0.0089396685 0.018538713 4285492259
-0.046541318 0.0097838789 0.017428763 4285492258
-0.044696137 0.010627836 0.016319916 4285492513
-0.042679921 0.010037191 0.016640216 4285492258
-0.040748842 0.010164 0.016245965 4285492514
-0.03881754 0.010290906 0.015851729 4285492514
-0.037078142 0.011851251 0.014032692 4285492514
-0.03505297 0.011261493 0.014351465 4285492514
-0.033326492 0.012821145 0.012535177 4285558049
-0.031402275 0.012947932 0.012142653 4285492769
-0.029371083 0.012358889 0.012460368 4285426979
-0.026677661 0.0074756145 0.017035067 4285360933
-0.024170853 0.0040261447 0.020183891 4285361698
-0.0015070364 0.009868063 0.011176795 4285493789
0.00014484674 0.0114244 0.0093769394 4285821974
0.0017861649 0.012980089 0.0075793546 4285953043
0.0037213713 0.013109341 0.0071859043 4285886998
0.0061214417 0.011100449 0.0088937171 4285887254
0.0085376762 0.0090927035 0.010598367 4285690139
0.010489233 0.0092233419 0.010201823 4285558813
0.012603831 0.0086418837 0.010504112 4285558813
0.014061339 0.010909006 0.0080124605 4285690138
0.015671156 0.012463346 0.0062217806 4285689884
0.017270334 0.014017042 0.0044333842 4285558048
0.019900836 0.011301145 0.0068268571 4285492768
0.022905484 0.0071642026 0.010608163 4285624349
0.026300346 0.0016072243 0.015774082 4285558559
0.029192999 -0.0018138736 0.018846441 4285493279
0.031928081 -0.0045222864 0.021219023 4285165093
-0.051785775 0.0013411194 0.023877949 4285229099
-0.050063692 0.0036291704 0.021334916 4285426214
-0.048277482 0.0051963478 0.019509252 4285360934
-0.046501704 0.0067629516 0.017685723 4285426469
-0.044565879 0.0068898499 0.017290339 4285426468
-0.042717725 0.0077362061 0.016182553 4285426724
-0.040784091 0.0078631341 0.015787743 4285426468
-0.039036676 0.0094281808 0.013970314 4285492259
-0.037203833 0.010273837 0.012865817 4285492259
-0.035178915 0.0096818358 0.013182959 4285492513
-0.033249691 0.0098088235 0.012789311 4285492258
-0.031320244 0.009935908 0.01239568 4285426979
-0.029390588 0.010063097 0.012002079 4285426724
-0.026914388 0.006600596 0.015148778 4285426979
-0.024747074 0.0052933395 0.016167507 4285099558
-0.0038640574 0.0095788762 0.0089929122 4285428254
-0.0019239858 0.0097081065 0.0085982159 4285493788
-0.00042392686 0.011983857 0.0061023142 4285558303
0.0015083663 0.012112781 0.0057093631 4285558303
0.0035928339 0.011526704 0.0060157906 4285623838
0.0058375001 0.01022616 0.007019978 4285624094
0.0079355538 0.0096412003 0.007323809 4285558558
0.0097188577 0.01048585 0.0062312093 4285559069
0.011659667 0.010615855 0.0058369134 4285558813
0.013435099 0.0114602 0.0047460813 4285624604
0.015037119 0.01301831 0.0029603262 4285887509
0.016628485 0.014575869 0.0011767689 4285755674
0.018729649 0.013991736 0.0014804434 4285689884
0.021364704 0.011267558 0.0038664509 4285690138
0.024200067 0.0078316033 0.0069420766 4285624858
0.026880719 0.005110696 0.0093189906 4285362209
0.029398624 0.0031042844 0.010998826 4285429274
-0.046050794 0.00012396276 0.02149586 4285097774
-0.0442665 0.0016955137 0.019673932 4285294889
-0.042580351 0.003987968 0.017143451 4285294889
-0.040819593 0.0055581555 0.015326463 4285425959
-0.039162338 0.0078489035 0.012802023 4285426724
-0.03732942 0.0086966828 0.011699118 4285426724
-0.0353048 0.0081024617 0.012014639 4285493023
-0.03337568 0.0082293898 0.011620983 4285427233
-0.031550109 0.0090769604 0.010519786 4285426979
-0.02962324 0.0092039481 0.010126732 4285361188
-0.02747798 0.0078906938 0.011146592 4285360934
-0.0042747632 0.0094282925 0.0064199418 4285493789
-0.0026278906 0.010992862 0.0046276171 4285624859
-0.00069851801 0.011121474 0.0042351689 4285689883
0.001380194 0.010532662 0.0045410618 4285623839
0.0034643486 0.0099443644 0.0048458874 4285624094
0.0057085231 0.0086394101 0.005846845 4285558559
0.0076490343 0.0087691769 0.0054524485 4285624349
0.0095896274 0.008899048 0.0050581042 4285559068
0.011367712 0.0097456276 0.0039682928 4285559069
0.012809966 0.012024797 0.0014896095 4285558814
0.014236227 0.014302965 -0.00098570809 4285624348
0.015817117 0.015864164 -0.002763832 4285756183
0.018253878 0.013845332 -0.0010728221 4285690394
0.020706758 0.011827692 0.00061500072 4285624859
0.023533054 0.0083802491 0.0036841985 4285493789
0.025660805 0.0077960417 0.0039810501 4285231649
-0.039102152 0.0048231184 0.013050064 4285098028
-0.037263811 0.0056733638 0.011947734 4285098284
-0.035430595 0.0065233484 0.010846507 4285296419
-0.03350161 0.0066502243 0.010452842 4285361953
-0.031779543 0.0082226396 0.0086473655 4285295143
-0.02985546 0.0083493739 0.0082548354 4285361188
-0.027931176 0.008476235 0.0078623481 4285165348
-0.0064753592 0.0084380358 0.0049450267 4285100579
-0.0049667135 0.010727197 0.0024570692 4285559069
-0.0030429512 0.010855317 0.0020656642 4285820953
-0.00082634762 0.0095438361 0.0030686762 4285887253
0.0015501194 0.0075134784 0.0047662426 4285887509
0.0034876131 0.0076428279 0.0043722875 4285690139
0.0054252148 0.0077722669 0.0039783772 4285558814
0.0073629096 0.0079018325 0.0035845321 4285559069
0.0091409571 0.0087504387 0.0024962816 4285559069
0.010913733 0.0095988363 0.0014092047 4285558814
0.012516126 0.011165597 -0.00037015416 4285558558
0.01410789 0.012731716 -0.0021472238 4285558303
0.015859451 0.013579033 -0.0032298043 4285558559
0.018125102 0.012271851 -0.0022359174 4285492768
0.0204015 0.010965556 -0.0012441669 4285559069
0.022867139 0.0089423656 0.00043619238 4285427998
0.024805389 0.0090729147 4.2963773e-05 4285495064
-0.035360232 0.0034940839 0.011089319 4285034279
-0.033627465 0.0050713643 0.0092849061 4285033768
-0.031905159 0.0066480935 0.0074826572 4285099304
-0.030087262 0.0074994862 0.00638639 4285230884
-0.02816578 0.0076261088 0.0059944391 4285099813
-0.00715556 0.0097489133 0.00098826364 4285559324
-0.0053755641 0.010599136 -9.9333003e-05 4285493023
-0.0034572743 0.010726854 -0.00048964377 4285492514
-0.0012464896 0.009410575 0.00051126815 4285558049
0.0011239685 0.0073732808 0.0022050906 4285755418
0.0032075122 0.0067805499 0.0025067013 4285624348
0.0051423013 0.0069097951 0.0021133553 4285558813
0.0072340779 0.006317839 0.002413461 4285559069
0.0090121664 0.0071686357 0.0013268534 4285624604
0.010622736 0.0087401643 -0.00045095384 4285624604
0.012057774 0.011031851 -0.0029182229 4285821208
0.014147185 0.010440163 -0.0026173107 4285886999
0.015901484 0.011289798 -0.0036987513 4285689883
0.018342249 0.0092582032 -0.0020185299 4285493023
0.020447895 0.0086678863 -0.0017206259 4285559068
0.022737231 0.0073582083 -0.00073472969 4285428254
-0.0096088648 0.010225721 -0.0018704515 4285100323
-0.0076963007 0.010352843 -0.0022597611 4285690393
-0.0059242845 0.01120463 -0.0033440627 4285821209
-0.0038708113 0.010607384 -0.003038248 4285558559
-0.0018118843 0.010010615 -0.0027334485 4285492768
0.00054988265 0.0079661906 -0.0010428429 4285690138
0.0027764402 0.0066468492 -4.8339367e-05 4285690393
0.004859779 0.00605198 0.00025177561 4285558813
0.0067918636 0.0061811358 -0.00014095102 4285558813
0.0085646361 0.0070337653 -0.0012248848 4285624348
0.010332149 0.0078861341 -0.0023076069 4285689883
0.011764903 0.010184206 -0.004769519 4285755163
0.013851337 0.0095901042 -0.0044696108 4285755674
0.01577308 0.0097191036 -0.0048598256 4285821719
0.018040415 0.0084033757 -0.0038729403 4285493023
0.020143062 0.0078107193 -0.0035761241 4285427743
0.022251114 0.0072184801 -0.0032802876 4285231139
-0.010140345 0.01084362 -0.0051102098 4285297184
-0.0082359463 0.01097016 -0.0054978877 4285493534
-0.0063314214 0.01109682 -0.0058855098 4285690649
-0.0042836182 0.010496959 -0.0055801626 4285756183
-0.0023761727 0.010624021 -0.0059682149 4285690648
0.000125397 0.0078462884 -0.0035890639 4285690649
0.0021949485 0.0072482005 -0.0032878947 4285559069
0.0042699501 0.0066506267 -0.0029877974 4285493278
0.0061938688 0.0067792237 -0.0033788672 4285558813
0.0082770735 0.0061824247 -0.0030802703 4285755929
0.0098800734 0.0077620894 -0.0048498921 4285623839
0.011307873 0.010066368 -0.0073058307 4285426468
0.013221398 0.010194704 -0.007694466 4285426723
0.015304893 0.009598352 -0.0073955897 4285558558
0.017738976 0.0075532049 -0.005723903 4285624604
0.019838624 0.0069581792 -0.0054281317 4285427999
0.021943677 0.0063636154 -0.0051333746 4285626643
-0.010130905 0.0085576028 -0.0055684242 4285296163
-0.0083616003 0.0094134659 -0.0066490248 4285361953
-0.0065975115 0.010269046 -0.007728437 4285361953
-0.0046956688 0.010395624 -0.0081154406 4285493534
-0.0027937144 0.010522291 -0.0085023977 4285493534
-0.00029831752 0.007735379 -0.0061285738 4285493533
0.0017655641 0.0071347803 -0.0058279522 4285559068
0.0035275482 0.0079907477 -0.0069065318 4285559069
0.0052842721 0.0088464916 -0.0079839509 4285558814
0.0073537864 0.0082465708 -0.0076842364 4285624603
0.0091053359 0.0091021806 -0.0087604336 4285887509
0.01052282 0.01141227 -0.011209337 4285690139
0.012258455 0.012267038 -0.012282129 4285624603
0.014497977 0.010940604 -0.011296317 4285690903
0.016920686 0.0088881627 -0.0096272845 4285493534
0.019184407 0.0075635836 -0.0086462013 4285362464
-0.011766911 0.0046775043 -0.0042572608 4284902443
-0.0099869967 0.0055360794 -0.0053384202 4285295654
-0.0080748498 0.0056630895 -0.0057277111 4285361188
