# .PCD v0.7 - Point Cloud Data file format
VERSION 0.7
FIELDS x y z rgba
SIZE 4 4 4 4
TYPE F F F U
COUNT 1 1 1 1
WIDTH 975
HEIGHT 1
VIEWPOINT 0 0 0 1 0 0 0
POINTS 975
DATA ascii
-0.053375766 0.029105697 0.015883053 4280044183
-0.051755942 0.030631054 0.01401381 4280372113
-0.050271854 0.032849841 0.011422947 4278800548
-0.048675537 0.034373656 0.0095590651 4278735014
-0.046959013 0.035203032 0.0084204003 4278472363
-0.045647547 0.038112663 0.0051163882 4278340019
-0.044357158 0.041020788 0.001817232 4279192994
-0.042810604 0.042541236 -3.5224482e-05 4279455388
-0.040850632 0.041982196 0.00027589221 4278668713
-0.038741194 0.040730868 0.0013056397 4278274229
-0.03647431 0.038787916 0.0030521359 4278602669
-0.034639135 0.038923241 0.0026393449 4278472618
-0.033107698 0.040442925 0.00079062767 4278341548
-0.031432144 0.041269977 -0.00033828802 4278669224
-0.029604495 0.041404981 -0.00074920524 4278930854
-0.027456827 0.040156975 0.00027225167 4279127204
-0.025460966 0.039601207 0.00057577528 4279061414
-0.023624904 0.039737076 0.00016315281 4278799273
-0.021788739 0.039873026 -0.00024943892 4278537898
-0.019952442 0.040009081 -0.00066198688 4278734759
-0.017769497 0.03876406 0.00035190862 4278669224
-0.015399866 0.036829598 0.0020759851 4278407083
-0.013728533 0.037657067 0.00094857346 4278734504
-0.01188118 0.03779427 0.00053379219 4278471853
-0.01021767 0.038621329 -0.0005917307 4278471599
-0.0083728284 0.038758501 -0.0010058256 4278667694
-0.0067171678 0.039585151 -0.0021294579 4278339764
-0.0044910014 0.03834397 -0.0011248635 4279059629
0.0078498274 0.015345272 0.021676784 4278535603
0.012422036 0.0065409765 0.030427987 4280633488
-0.059776507 0.03134365 0.011656417 4281816433
-0.055428699 0.038716588 0.0031712372 4278403768
-0.053238787 0.036760729 0.0049295202 4278797744
-0.051282965 0.036198705 0.0052395277 4278865318
-0.049577191 0.037029348 0.0041048527 4278472618
-0.048006974 0.038555585 0.0022502355 4278733738
-0.037048191 0.039361805 -0.00021617953 4279061414
-0.03492292 0.038107447 0.00080673024 4278800039
-0.033242106 0.038936947 -0.00032179989 4278800038
-0.031412035 0.039072011 -0.00073335133 4278538154
-0.02973891 0.039901111 -0.0018600225 4278472618
-0.027751468 0.039342441 -0.0015563499 4278668968
-0.025758579 0.038784228 -0.0012538545 4278537898
-0.024090357 0.039613221 -0.0023792293 4278602669
-0.020599172 0.040577319 -0.0039141262 4278730168
-0.015888039 0.036693081 -0.00046967622 4278471853
-0.014221948 0.037522316 -0.0015942669 4278603433
-0.012561098 0.038351253 -0.0027176077 4278734249
-0.0077991374 0.041527838 -0.0067881839 4279323298
-0.0055867955 0.040281266 -0.0057838196 4278865829
-0.0029749423 0.037653193 -0.0033682045 4278930853
0.00084067881 0.030880958 0.0032797856 4278602669
0.0049093924 0.023421973 0.010621499 4278536879
0.0094415899 0.014586378 0.019360049 4278930344
0.01363302 0.0071367323 0.026674377 4279389089
-0.063287891 0.02745147 0.013539286 4279325083
-0.062412888 0.033883981 0.0066019185 4278603688
-0.061250597 0.038214691 0.0018465538 4278733994
-0.059777088 0.040445372 -0.00073224772 4278537389
-0.057968438 0.040577754 -0.0011398243 4278866084
-0.053739071 0.037349343 0.0016517602 4278667694
-0.051791511 0.036784492 0.0019619297 4278405808
-0.050093628 0.037616678 0.00083065405 4278799784
-0.048661374 0.039844792 -0.0017385101 4278734248
-0.047244884 0.042071819 -0.0043040668 4278865319
-0.039583229 0.04051226 -0.003781965 4278864808
-0.037474595 0.039252207 -0.0027587255 4278734504
-0.035355143 0.037992992 -0.0017378144 4278865318
-0.03337644 0.037431214 -0.001434058 4278800039
-0.031700708 0.038262557 -0.0025597513 4278734503
-0.029873259 0.038397498 -0.0029706582 4278734503
-0.028045677 0.03853251 -0.0033815531 4278537898
-0.026217952 0.038667619 -0.0037924107 4278668203
-0.023232315 0.04171953 -0.0074586179 4278403513
-0.021244675 0.041158989 -0.0071564275 4278534074
-0.014892742 0.03809116 -0.0048392494 4278472363
-0.013420664 0.039616022 -0.0066673136 4278603178
-0.011775631 0.040446036 -0.0077853887 4278340274
-0.00067647919 0.034194022 -0.0027885716 4278471088
0.0025731474 0.029481445 0.0017236117 4278865063
0.006871134 0.021307856 0.009744389 4278668968
0.011642866 0.011754006 0.019156409 4279651739
-0.063847147 0.028730914 0.009516323 4279718549
-0.062981129 0.035182253 0.0025959359 4278669478
-0.058567114 0.041893244 -0.0051240944 4278472363
-0.052298829 0.037383698 -0.0013058465 4278668203
-0.050608814 0.038217448 -0.0024337126 4278800038
-0.049054019 0.039751202 -0.0042783292 4278668968
-0.047376908 0.040584162 -0.0054031727 4278472363
-0.045569539 0.040716931 -0.0058100917 4278668458
-0.043347843 0.038750671 -0.0040686168 4278669224
-0.041532114 0.038884223 -0.0044772937 4278734759
-0.0398596 0.039717156 -0.0056008617 4278407083
-0.038192242 0.040549833 -0.0067232549 4278537134
-0.036232643 0.039984297 -0.0064169159 4278340274
-0.033964813 0.038021885 -0.0046855542 4278537134
-0.031834893 0.03675922 -0.0036702231 4278276013
-0.030007556 0.036894105 -0.0040811449 4278407083
-0.028498784 0.038425371 -0.0059147156 4278864808
-0.02567751 0.042183511 -0.010284639 4278798509
-0.0238683 0.042317402 -0.010691221 4279061668
-0.021888953 0.041754059 -0.01038884 4279126439
-0.019386139 0.039099745 -0.0079625994 4278274229
-0.017037235 0.037144043 -0.0062488364 4278799018
-0.015206277 0.037279889 -0.0066600423 4278603433
-0.013555918 0.038112365 -0.0077777342 4278668969
-0.01209414 0.039640933 -0.0096001467 4278865318
-0.010456938 0.040472604 -0.010714748 4278603434
-0.0088250078 0.041303977 -0.011828096 4278799783
-0.0064329915 0.039352003 -0.010123611 4278734503
-0.0040249415 0.037401363 -0.0084226932 4278865573
-0.0012075081 0.034061253 -0.0053193942 4279259039
0.0016366318 0.030723244 -0.0022219978 4278866338
0.005719468 0.023217477 0.0050800126 4278800803
0.010270309 0.014326695 0.013771245 4279128223
0.014475813 0.0068303309 0.021045858 4279913878
-0.063663229 0.025098477 0.010558344 4281356924
-0.063330546 0.035090275 4.5194291e-05 4278931874
-0.053054005 0.039402008 -0.0059987241 4278669224
-0.051122785 0.038831592 -0.0056882044 4278537898
-0.049186043 0.038261659 -0.0053788726 4278603689
-0.047243774 0.037692171 -0.0050706821 4278603689
-0.045431197 0.037825275 -0.0054788128 4278800039
-0.043480568 0.037256598 -0.0051724245 4278734504
-0.041805468 0.038091782 -0.0062950035 4278733738
-0.036959611 0.041296683 -0.010367548 4278336959
-0.034551963 0.038625926 -0.0079271048 4278402493
-0.03243053 0.037358295 -0.0069132568 4278733229
-0.030454785 0.03679204 -0.0066120825 4278930853
-0.028951056 0.038327221 -0.0084411697 4278538154
-0.024335891 0.042228926 -0.013205979 4278601903
-0.022362176 0.041662961 -0.012904012 4278930599
-0.015697196 0.037172191 -0.0091829216 4278734504
-0.013871595 0.037307698 -0.0095928777 4278734504
-0.012045909 0.03744331 -0.010002779 4278603688
-0.010220151 0.03757903 -0.010412619 4278735014
-0.0082058571 0.037016682 -0.010119308 4278931363
-0.0059950314 0.035756893 -0.0091246087 4278997154
-0.0033858754 0.033102475 -0.0067283595 4278800549
-0.00095181167 0.031147271 -0.0050381664 4278735014
0.0016974173 0.028496012 -0.0026507778 4278276524
0.009513557 0.014835116 0.010504289 4278538663
0.013708765 0.007314045 0.017762924 4279390108
-0.063028738 0.030769911 0.0018179761 4279128989
-0.062423833 0.038669631 -0.0065015014 4278603689
-0.060967475 0.040918499 -0.0090615842 4278669478
-0.059061348 0.04034372 -0.0087473476 4278669224
-0.057149686 0.039769419 -0.0084342984 4278603689
-0.055354171 0.039900847 -0.0088389078 4278472618
-0.053558454 0.040032357 -0.0092435144 4278603689
-0.051635504 0.039459072 -0.008932787 4278276013
-0.049577363 0.038181663 -0.0079086097 4278538409
-0.047508381 0.036905125 -0.0068868096 4278407083
-0.045563556 0.036333673 -0.006580831 4278537898
-0.043750897 0.036466841 -0.0069889412 4278406573
-0.040696964 0.039548211 -0.010651853 4278602159
-0.039331369 0.041791365 -0.013190776 4279060393
-0.037388332 0.041220255 -0.012884114 4278666928
-0.033024929 0.037970744 -0.010146424 4278602414
-0.031370081 0.038807079 -0.011262427 4278996134
-0.029720433 0.039643116 -0.012377199 4278472363
-0.028075956 0.04047887 -0.013490727 4278603689
-0.017832421 0.03623721 -0.010585925 4278472619
-0.01547683 0.034269001 -0.0088835927 4278669223
-0.013465729 0.033703968 -0.0085914331 4278735014
-0.011632163 0.033840142 -0.0090031195 4278669478
-0.0094272941 0.032575332 -0.0080105094 4278866339
-0.0073999837 0.03201177 -0.0077217827 4278604198
-0.0047944449 0.029348269 -0.005331452 4278342059
-0.0023611486 0.027386419 -0.0036461968 4278276524
0.0021556988 0.024865638 -0.0016844245 4278407594
0.0056397952 0.019410491 0.0034840824 4278866084
0.0095751025 0.012560356 0.01003892 4279390108
0.013563739 0.0057142898 0.016581858 4280437649
-0.062187336 0.02289021 0.0071672779 4280898434
-0.062221691 0.03506504 -0.0054434147 4278538664
-0.060870379 0.038029026 -0.0087171113 4278603944
-0.0590754 0.038160212 -0.0091217542 4278603433
-0.057280213 0.038291499 -0.0095263859 4278537898
-0.052020177 0.039392948 -0.01145387 4278271679
-0.049708873 0.036696963 -0.0090055959 4278337468
-0.047772527 0.03612265 -0.0086994991 4278864554
-0.045830674 0.035548821 -0.0083945803 4278538154
-0.044295691 0.037094273 -0.010224611 4278734248
-0.039899081 0.042432234 -0.01640974 4279323299
-0.037816219 0.041152786 -0.015393992 4279257763
-0.035571776 0.039168932 -0.013672356 4278537134
-0.031815045 0.038729567 -0.013775172 4278734248
-0.030011855 0.038862675 -0.014180657 4278603433
-0.028208539 0.038995877 -0.014586108 4278735014
-0.026405096 0.039129183 -0.014991518 4278866083
-0.024434783 0.038558476 -0.014692222 4278931363
-0.02262843 0.038692169 -0.015098146 4278997154
-0.019961543 0.035307385 -0.011986627 4279062944
-0.017617412 0.033331685 -0.010286797 4278997154
-0.015079778 0.030653965 -0.0078882268 4278997153
-0.013060998 0.030087296 -0.0075994749 4278604199
-0.010854058 0.028818205 -0.0066107889 4278538664
-0.0084509552 0.026847266 -0.0049239104 4278407849
-0.0062198862 0.025580168 -0.0039404919 4278735779
-0.0037873387 0.023611598 -0.0022600805 4278539174
-0.0017255768 0.023048598 -0.0019806186 4278538918
0.00034156814 0.022486106 -0.0017022789 4278604453
0.0026128367 0.021222323 -0.00072755292 4278866849
0.0059018135 0.016451821 0.0037293173 4278866594
0.010044426 0.0088787787 0.010963133 4279521688
0.013212005 0.0048159547 0.014705308 4281027974
-0.061467238 0.027895492 -0.00081660692 4280178059
-0.060887314 0.035841212 -0.0090939291 4278735269
-0.059205763 0.036682591 -0.010213662 4278800039
-0.057529323 0.037523638 -0.011332144 4278734249
-0.054563642 0.041333176 -0.015703425 4278929323
-0.052530617 0.040045056 -0.014680358 4278405298
-0.048432052 0.037471399 -0.012641322 4278537898
-0.046770364 0.038311854 -0.01375611 4278603433
-0.045388356 0.040568948 -0.016289001 4278930854
-0.043742269 0.041408416 -0.017400149 4278668203
-0.03405679 0.038528532 -0.015876992 4278472363
-0.032103255 0.037953995 -0.015575824 4278865829
-0.030144274 0.03737998 -0.015275864 4278800549
-0.028341062 0.037513159 -0.015681304 4278342058
-0.026209936 0.036233447 -0.014679407 4278866339
-0.02406802 0.034954585 -0.013679822 4278800803
-0.021746118 0.032970555 -0.011980178 4278669733
-0.019236233 0.03028186 -0.009582188 4278473129
-0.01687948 0.028300554 -0.0078901891 4278407594
-0.014329426 0.025615029 -0.0055010733 4278407594
-0.01229763 0.025047146 -0.005216911 4278604454
-0.010077871 0.023774654 -0.0042344322 4278604453
-0.0076621547 0.021798097 -0.0025553852 4278342314
-0.005418282 0.020527579 -0.0015781801 4278735523
-0.0029731169 0.018553421 9.4408169e-05 4278669988
-0.0012847558 0.019397832 -0.0010248479 4278735523
0.00079006702 0.018833719 -0.00074990746 4278735524
0.0028702579 0.018270113 -0.00047608931 4278867104
0.0061630718 0.013484612 0.0039683264 4279063964
0.0099009611 0.0072949417 0.0097937826 4279587478
0.01265417 0.0046256073 0.012138125 4281092234
-0.060494848 0.019265998 0.0052125212 4281028993
-0.060451999 0.030799676 -0.0066201538 4278997409
-0.059567638 0.036629621 -0.012731036 4278341293
-0.056593627 0.040450394 -0.017096078 4278864553
-0.054940611 0.041292012 -0.018207531 4279062433
-0.053039826 0.040710509 -0.017896926 4278996134
-0.050875351 0.038707018 -0.01616787 4278995878
-0.048958212 0.038126823 -0.015860783 4278471854
-0.047304422 0.038968876 -0.016972199 4278537643
-0.046066992 0.041942514 -0.020206423 4278603434
-0.04429172 0.0420729 -0.020606136 4278734249
-0.042658687 0.042913679 -0.021712687 4278799783
-0.040740669 0.042333979 -0.02140547 4278865318
-0.038669474 0.041044928 -0.020393852 4278930853
-0.036286674 0.038337417 -0.017974492 4279062178
-0.034188539 0.037050538 -0.016968792 4278997154
-0.03192389 0.035055235 -0.015261579 4279062944
-0.029643126 0.033061214 -0.013557923 4278735268
-0.027507283 0.031777389 -0.012560492 4278669734
-0.025524385 0.031203128 -0.012267447 4278669989
-0.023203298 0.029212356 -0.010572649 4278277034
-0.020697076 0.026514579 -0.0081805661 4278342568
-0.018341139 0.024526615 -0.0064934981 4278539173
-0.016492192 0.024663609 -0.0069088866 4278604453
-0.01411207 0.022677582 -0.0052270647 4278735523
-0.012075264 0.022107881 -0.0049457001 4278866593
-0.0096683316 0.020124041 -0.0032697516 4278866594
-0.00761538 0.019555736 -0.0029918607 4278866594
-0.0053693317 0.018280972 -0.0020184284 4278866594
-0.0031125769 0.017007153 -0.0010473663 4278735523
-0.0012311265 0.017147243 -0.001469532 4278669988
0.00065036863 0.017287433 -0.0018916354 4278801059
0.0029285811 0.016015511 -0.00092516001 4278801058
0.0060215443 0.011920761 0.0028136969 4279194524
0.0091465041 0.0078285486 0.0065454151 4279325594
0.011684459 0.0058553442 0.0081926417 4282399874
-0.060131483 0.026451118 -0.0048741661 4280112013
-0.05981306 0.03587126 -0.014530577 4278603688
-0.055316731 0.041259918 -0.020705033 4278275504
-0.053421572 0.04067577 -0.020394858 4278406573
-0.047703013 0.038926236 -0.019471355 4278800039
-0.046059586 0.039769705 -0.020578697 4278472363
-0.044281751 0.039900247 -0.020979011 4278734504
-0.042361565 0.03931845 -0.020674087 4278603433
-0.040291011 0.038024899 -0.019665727 4278931364
-0.038209632 0.036732193 -0.018659687 4278996388
-0.035817087 0.034016665 -0.016249193 4278931618
-0.033403084 0.031302799 -0.013843458 4278603944
-0.026836656 0.026726671 -0.010159917 4278538919
-0.024677232 0.025440261 -0.0091710221 4278539174
-0.022340875 0.023444116 -0.0074846949 4278408359
-0.019988403 0.021449212 -0.0058018789 4278735523
-0.017962854 0.020876195 -0.0055198809 4278604453
-0.016106028 0.021013759 -0.0059370482 4278539429
-0.013895456 0.019731611 -0.0049592815 4278670243
-0.01167414 0.018450409 -0.0039838888 4278866594
-0.009259928 0.016460557 -0.0023145797 4278932128
-0.0073841214 0.016599916 -0.0027357154 4278866594
-0.0051332712 0.015321203 -0.001766732 4278801059
-0.0028716996 0.014043383 -0.00080008153 4278670243
-0.0013706684 0.015601244 -0.0026110848 4278538918
0.00090166181 0.014324427 -0.0016466919 4278735524
0.0029865578 0.013756759 -0.0013772231 4278473384
0.0062816665 0.0089409947 0.0030433601 4278866084
0.0088002235 0.0069597363 0.0046898797 4279456409
0.011540927 0.0042720586 0.0070237312 4283251574
-0.059135914 0.017784625 0.0011201864 4281225853
-0.059711784 0.032967806 -0.014197955 4278800293
-0.058982275 0.039546207 -0.020982977 4278865318
-0.051521271 0.037916869 -0.020457735 4278276014
-0.04948137 0.036616251 -0.019446149 4278734758
-0.04743062 0.035316482 -0.018436898 4278603688
-0.045505755 0.034732647 -0.01813484 4278669224
-0.043436021 0.03343448 -0.017129771 4278735014
-0.041639507 0.033566445 -0.017534256 4278472873
-0.039553478 0.032269619 -0.016532673 4278341804
-0.037456654 0.030973699 -0.01553351 4278407339
-0.034899004 0.02753653 -0.012431275 4278276269
-0.032772586 0.026242934 -0.011438584 4278407594
-0.03032472 0.023522928 -0.0090470631 4278801059
-0.028487362 0.023658451 -0.0094603142 4278866594
-0.026167937 0.021654323 -0.00777533 4278866593
-0.024159022 0.021077596 -0.0074914843 4278866593
-0.021978676 0.019788455 -0.0065105557 4278801314
-0.019956209 0.01921292 -0.0062296139 4278670498
-0.017756995 0.017925374 -0.0052527743 4278604963
-0.015721001 0.017351028 -0.0049747271 4278670243
-0.013856221 0.017489262 -0.0053936229 4278997663
-0.01181205 0.016915724 -0.0051172604 4278801314
-0.0095805153 0.015631013 -0.0041474244 4278866848
-0.0075228587 0.015058629 -0.0038738931 4278736033
-0.00527253 0.013775513 -0.0029081265 4278670753
-0.00282152 0.011782177 -0.0012518261 4278670243
-0.0009323284 0.011922814 -0.0016757483 4279128734
0.0015427619 0.0099315159 -2.4740584e-05 4279259804
0.0036379956 0.0093624368 0.00024074409 4279521688
0.0063404143 0.0066630468 0.0025763372 4280569483
0.0088609159 0.0046753995 0.0042174384 4282468724
-0.058804683 0.025024414 -0.0089157829 4280898433
-0.058874741 0.036654234 -0.020643272 4278669734
-0.057342187 0.038220603 -0.02245672 4278538409
-0.055573672 0.038349889 -0.022855375 4278931363
-0.053427398 0.036325261 -0.021137267 4279193503
-0.051521994 0.035737537 -0.020832708 4279128479
-0.049348734 0.033715069 -0.01912054 4278931874
-0.047159337 0.031693906 -0.017411992 4278800548
-0.044953793 0.029673964 -0.015706975 4278669479
-0.042871252 0.028372359 -0.014708135 4278473384
-0.038673736 0.025771767 -0.012717505 4278473639
-0.036705919 0.025189191 -0.012426494 4278735523
-0.034433007 0.023174707 -0.01073633 4278735523
-0.032296434 0.02187749 -0.0097492617 4278473638
-0.03014908 0.020581204 -0.0087645883 4279062944
-0.028306521 0.020717088 -0.0091790296 4279063199
-0.026142918 0.019422192 -0.0081978627 4279063198
-0.02396854 0.018128142 -0.0072190086 4278866848
-0.021783389 0.01683503 -0.0062425439 4278801314
-0.019755896 0.016257629 -0.0059643616 4278866849
-0.017722994 0.015680768 -0.0056873667 4278866849
-0.015684657 0.015104406 -0.0054115183 4278866849
-0.013817329 0.015242815 -0.0058309953 4279128733
-0.011591725 0.013953194 -0.0048632403 4278932129
-0.00935537 0.012664434 -0.0038977806 4278866594
-0.0067394301 0.009949252 -0.0015498493 4278932894
-0.0046633855 0.0093761832 -0.0012820875 4279063454
-0.0022024363 0.0073770545 0.00036698952 4279194269
-0.00011028722 0.0068053976 0.00063130073 4280372879
0.0025724918 0.0040955916 0.0029645385 4280962184
0.0046833828 0.0035255477 0.003224805 4280895883
-0.057670936 0.015599992 -0.0022498332 4281095039
-0.058061823 0.02942922 -0.01607535 4279784339
-0.056868747 0.03316316 -0.020005826 4278473128
-0.054964036 0.032572996 -0.019702934 4278276013
-0.052928142 0.03126312 -0.018697217 4278669478
-0.051009737 0.030674137 -0.018397281 4278472874
-0.048954852 0.029365811 -0.01739572 4278276524
-0.044540003 0.025313061 -0.013996642 4278473639
-0.042447314 0.02400782 -0.013003436 4278669989
-0.040343821 0.02270342 -0.012012549 4278408359
-0.03822954 0.021399949 -0.011024064 4278473383
-0.036398314 0.021534603 -0.011436257 4278604453
-0.034267724 0.020232473 -0.010451252 4278932128
-0.032278612 0.019649498 -0.010166612 4278604708
-0.030129112 0.018348999 -0.0091857631 4278801059
-0.028284013 0.018485039 -0.0096007977 4278932129
-0.026278518 0.017903574 -0.0093196109 4278866849
-0.023941718 0.015887681 -0.0076484135 4278866594
-0.02175441 0.01459033 -0.0066757179 4278801314
-0.019724596 0.01401094 -0.0063997875 4278866849
-0.017689336 0.013432071 -0.0061249905 4278998174
-0.015648656 0.012853686 -0.0058513451 4278736034
-0.013778791 0.012992263 -0.0062714089 4278931874
-0.01155103 0.011698391 -0.0053074248 4279455899
-0.0091309734 0.0096894205 -0.0036544409 4279783574
-0.0065106265 0.0069658533 -0.0013141548 4280438158
-0.05713442 0.021446478 -0.010828943 4280636293
-0.056156851 0.026638556 -0.016163805 4279128478
-0.054356627 0.026770089 -0.016569661 4278604454
-0.052305289 0.02545698 -0.015570833 4278473384
-0.050499357 0.025589105 -0.015977841 4278538918
-0.048562452 0.024999361 -0.015683686 4278735523
-0.046353139 0.022966504 -0.013989591 4278801058
-0.044536024 0.023099706 -0.014398924 4278801313
-0.042441189 0.021790199 -0.013409501 4278670243
-0.040335536 0.020481631 -0.012422482 4278670498
-0.038363174 0.019894946 -0.012135963 4278539429
-0.036385328 0.01930875 -0.011850614 4278539173
-0.034551434 0.019443657 -0.012263363 4278604708
-0.032413214 0.018137809 -0.011283346 4278604708
-0.030573688 0.018273335 -0.011697209 4278801313
-0.028576635 0.017688941 -0.011415885 4278932128
-0.026414052 0.016385227 -0.010441169 4278801568
-0.024077967 0.014362752 -0.0087748012 4278735779
-0.021560404 0.011622123 -0.0064186342 4278997919
-0.019357525 0.010321692 -0.0054527465 4278932128
-0.017314591 0.0097411536 -0.0051813042 4279194014
-0.015266247 0.0091611557 -0.0049110511 4279324829
-0.013036434 0.0078630149 -0.0039509805 4280241808
-0.010438468 0.0051288567 -0.0016124928 4282336634
-0.056679614 0.016325213 -0.0084215496 4281095039
-0.055927433 0.022983432 -0.015151986 4279783828
-0.054119341 0.023115501 -0.015559646 4279062944
-0.052185766 0.022523072 -0.015266524 4278735523
-0.050118774 0.021206833 -0.014274493 4278669988
-0.048302121 0.021339796 -0.014683874 4278735523
-0.04621879 0.020024892 -0.013695343 4278801313
-0.044396468 0.02015844 -0.014105875 4278735778
-0.042296812 0.018844958 -0.013120919 4278670243
-0.040327579 0.018255755 -0.012835446 4278604964
-0.038352877 0.017667025 -0.012551149 4278539429
-0.036372662 0.017078765 -0.012267958 4278801313
-0.03453622 0.017213836 -0.012681304 4278735778
-0.032395862 0.015903816 -0.011705155 4278669733
-0.030244716 0.014594696 -0.010731349 4278604453
-0.028082781 0.013286434 -0.0097598508 4278736033
-0.025910057 0.011979103 -0.0087907473 4278604963
-0.023564041 0.0099508166 -0.0071316138 4279194523
-0.021201923 0.0079238117 -0.0054760231 4279653269
-0.018823717 0.0058981553 -0.0038240105 4279849619
-0.016770463 0.0053162351 -0.0035566064 4279979668
-0.01436542 0.0032927133 -0.0019104285 4282596733
-0.056460865 0.012636982 -0.007431943 4281094783
-0.055579297 0.018588301 -0.013449331 4279391383
-0.054127954 0.020901885 -0.015958507 4279063454
-0.052066982 0.019580726 -0.014968537 4279063198
-0.050250642 0.01971354 -0.015377948 4278735778
-0.048303701 0.019120108 -0.015089433 4278801568
-0.046351276 0.018527139 -0.01480203 4278735523
-0.044393338 0.017934699 -0.014515847 4278604708
-0.042429924 0.017342761 -0.014230829 4278866848
-0.040178902 0.015300147 -0.012555911 4278669988
-0.0384866 0.016160373 -0.013664283 4278997408
-0.036506712 0.015569896 -0.013382699 4279062944
-0.034819417 0.016429942 -0.014489792 4279063964
-0.032530539 0.014390506 -0.012823109 4279260569
-0.030225545 0.012352347 -0.011159968 4279391639
-0.02774743 0.0095911026 -0.0088084564 4280832643
-0.025407583 0.0075557604 -0.0071530542 4282077809
-0.02305162 0.0055216551 -0.0055011581 4283320934
-0.056477033 0.010394953 -0.0078504561 4281095038
-0.055710971 0.017093208 -0.014554217 4279522454
-0.05401469 0.01795508 -0.015662368 4278932384
-0.052198663 0.018087741 -0.016071806 4279063453
-0.050254889 0.017491788 -0.015784327 4278604708
-0.048305608 0.016896289 -0.01549797 4278866848
-0.046085089 0.014844649 -0.013821453 4278604708
-0.044119485 0.014250576 -0.013538676 4278473894
-0.042286582 0.014384948 -0.013951556 4278473894
-0.040312648 0.013791624 -0.013670471 4278604708
-0.038333237 0.013198856 -0.013390578 4279128733
-0.036348365 0.012606591 -0.013111847 4279260058
-0.034506835 0.012741968 -0.013526378 4279457684
-0.03221067 0.01069653 -0.011866322 4280964479
-0.056376785 0.0074170828 -0.0075743054 4281684854
-0.055484407 0.013403859 -0.013567658 4279653268
-0.05402416 0.0157311 -0.016068982 4279063964
-0.052080892 0.015132762 -0.015783101 4279063199
-0.050259463 0.015265882 -0.01619371 4279128989
-0.048307829 0.014668413 -0.015909601 4278801568
-0.046085343 0.012610361 -0.01423853 4278932639
-0.044117391 0.012014214 -0.013957919 4278932383
-0.042281948 0.012148742 -0.014371394 4279719823
-0.040305674 0.01155344 -0.014092555 4280440454
-0.055616513 0.011902753 -0.014677009 4279587734
-0.054033943 0.013502996 -0.016478579 4279521944
-0.052212827 0.013635967 -0.016889215 4279456664
-0.050264359 0.013035942 -0.016606163 4279260313
-0.048310377 0.012436427 -0.016324272 4279719824
-0.045820959 0.0089065321 -0.013273666 4280178568
-0.043980502 0.0090412982 -0.013688372 4280966264
-0.055629544 0.0096660592 -0.01509233 4280505733
-0.054287374 0.012742192 -0.018277809 4280046479
-0.052220412 0.011403937 -0.017302506 4280112524
-0.050269581 0.010801893 -0.01702166 4281030523
0.030790765 -0.025119573 -0.00020918809 4279984769
0.032528006 -0.024239413 -0.0013148915 4279719824
0.036124274 -0.029213637 0.0029000314 4279195799
0.041407742 -0.039305791 0.011756979 4278933914
0.026263621 -0.025560647 -0.0018514935 4279656073
0.02845072 -0.026147611 -0.0016255807 4279261843
0.030643106 -0.026734062 -0.0014007594 4278998683
0.032610584 -0.026585862 -0.0018409248 4279325593
0.03644082 -0.0323091 0.0030254582 4279195034
0.041726664 -0.042431436 0.011858687 4279129499
0.017633986 -0.025546283 -0.0032815244 4282405738
0.01980219 -0.026137322 -0.0030534174 4280964733
0.021542363 -0.025253206 -0.0041569155 4279718804
0.023715865 -0.02584359 -0.0039297957 4279260568
0.026116673 -0.027170427 -0.0030396683 4278801569
0.028303426 -0.027759582 -0.0028153388 4279128733
0.030722789 -0.02908475 -0.0019292263 4278735268
0.032922782 -0.029672697 -0.0017076163 4278931873
0.036756583 -0.035412975 0.0031446787 4278801058
0.042044792 -0.045565508 0.011954177 4279128989
0.015117222 -0.025815345 -0.005357875 4280439433
0.017699398 -0.027889103 -0.0037999628 4280112014
0.019869933 -0.028482169 -0.003573983 4279915409
0.02182929 -0.028335169 -0.0040127812 4279456408
0.023788629 -0.02818805 -0.0044514821 4279129243
0.02641334 -0.030258119 -0.0029027266 4279063708
0.028605074 -0.030849069 -0.0026811538 4279128988
0.030802101 -0.03143955 -0.0024606502 4278932383
0.033004396 -0.03202945 -0.0022412529 4278997408
0.036606658 -0.037048668 0.001937543 4278735268
0.041656811 -0.046493694 0.010065023 4279063454
0.0083251409 -0.02487909 -0.0078899581 4280767619
0.010466008 -0.025476992 -0.0076594003 4280046734
0.012817841 -0.02681686 -0.0067655244 4279522198
0.015388638 -0.028898127 -0.0052100741 4279718549
0.017975405 -0.030978099 -0.0036581261 4279652758
0.019937288 -0.030831024 -0.00409758 4279325594
0.021899156 -0.03068383 -0.0045369407 4279063454
0.02386101 -0.030536532 -0.0049762046 4279194524
0.026266037 -0.031871647 -0.0040936721 4278997918
0.028457418 -0.032464795 -0.0038736826 4278866849
0.031107945 -0.034539223 -0.0023354283 4279128733
0.033544812 -0.035871655 -0.0014597131 4279128989
0.037153509 -0.040905565 0.0027060471 4279456409
0.041739061 -0.048897743 0.0094950832 4279653268
5.1580369e-05 -0.025554284 -0.008657461 4281096059
0.0021760203 -0.02615612 -0.0084252115 4280309385
0.0045005977 -0.027502842 -0.0075289109 4279456663
0.0066384077 -0.028103396 -0.007299515 4279259804
0.0085814577 -0.027958348 -0.0077352175 4278604454
0.010524532 -0.027813196 -0.0081708487 4279063453
0.013083925 -0.029901944 -0.0066179102 4278801313
0.015659301 -0.031989388 -0.0050684614 4279063198
0.018039878 -0.033331186 -0.0041841483 4279063198
0.019790854 -0.032439873 -0.0052851913 4278866593
0.02218473 -0.033780426 -0.0044036647 4279194268
0.024151752 -0.033632725 -0.0048440797 4279063199
0.026782967 -0.035715342 -0.0033066561 4278997919
0.028981982 -0.036310069 -0.0030900231 4278670244
0.031866468 -0.039133504 -0.00090030953 4279194523
0.034772202 -0.04195524 0.0012847409 4279390873
0.038163275 -0.046260551 0.0047788434 4279718549
0.04229036 -0.052790821 0.010234706 4280111503
-0.0066125616 -0.02457495 -0.011192555 4282013548
-0.0045072697 -0.025180712 -0.010957992 4280899454
-0.0023965985 -0.025785938 -0.010724539 4279981454
-9.1284513e-05 -0.02713868 -0.0098274071 4279784338
0.0020328015 -0.027742729 -0.0095967483 4279195034
0.0043568388 -0.029093832 -0.0087036369 4279128478
0.0066915415 -0.030444041 -0.0078128381 4278735269
0.0088370275 -0.031046093 -0.0075866757 4278735524
0.010785272 -0.030900538 -0.0080234548 4279063453
0.012938766 -0.031501733 -0.0077989539 4278932383
0.015721288 -0.034342356 -0.0055936938 4278997663
0.018314537 -0.036434785 -0.0040531596 4279063198
0.020284098 -0.036287159 -0.0044943425 4279063198
0.022469539 -0.036885485 -0.004276569 4278931873
0.025097355 -0.038974941 -0.0027434826 4278735268
0.027962327 -0.041808769 -0.00055621192 4278866339
0.030400839 -0.043149978 0.00031233579 4278801314
0.033302989 -0.045980714 0.0024914369 4279391128
0.036684789 -0.050299913 0.0059776269 4280242573
0.039866604 -0.053871699 0.0088015031 4281421438
-0.014608689 -0.025968 -0.011297027 4279590539
-0.012690447 -0.025826044 -0.01172811 4279130519
-0.01077212 -0.025683962 -0.012159126 4278999193
-0.0086752884 -0.026292808 -0.011924462 4278933148
-0.0065730736 -0.026901074 -0.011690954 4279063964
-0.004281722 -0.028259456 -0.010794207 4279194524
-0.0021660775 -0.028866515 -0.010563544 4279325339
0.00014402345 -0.03022328 -0.009670767 4279128733
0.0022730753 -0.030829072 -0.0094429133 4279128478
0.0044074878 -0.03143435 -0.0092161698 4278866594
0.0067443252 -0.032788739 -0.0083290925 4278539173
0.0088921096 -0.03339278 -0.0081051653 4278801059
0.010640493 -0.032497808 -0.0092026917 4278932639
0.0125886 -0.032352135 -0.0096393405 4278997918
0.015367517 -0.035201743 -0.0074399072 4278932383
0.018167708 -0.038049549 -0.0052451785 4279194268
0.020776186 -0.040147245 -0.0037128776 4279521688
0.023616295 -0.042991877 -0.0015268512 4279914643
0.026696023 -0.046582803 0.0013111047 4279783828
0.029581336 -0.049423762 0.0034872061 4281291644
0.032264248 -0.051515371 0.0050032325 4282340458
-0.019245077 -0.02480749 -0.014264118 4279853188
-0.017002627 -0.026174612 -0.013360219 4279129753
-0.01474946 -0.027540773 -0.012458681 4279063964
-0.012831364 -0.02739884 -0.012889742 4278932129
-0.010737617 -0.028010204 -0.01265614 4278735524
-0.0086384751 -0.02862101 -0.012423697 4278997918
-0.0063530505 -0.02998428 -0.01152902 4279194523
-0.0046075694 -0.029088244 -0.012624911 4279260058
-0.0024949349 -0.029697686 -0.012395232 4279063199
-0.00037692487 -0.030306593 -0.012166652 4278997409
0.0019380003 -0.031667233 -0.011278174 4278997409
0.0042636022 -0.033026904 -0.01039205 4278932128
0.0067967325 -0.035137497 -0.0088484054 4278539428
0.0091463402 -0.036495134 -0.0079674795 4278932894
0.010900091 -0.035597593 -0.0090645468 4279129499
0.013058204 -0.036202744 -0.0088443831 4279259804
0.015636656 -0.038309477 -0.0073105278 4279456663
0.018861555 -0.042667285 -0.0038097836 4279587733
0.022118397 -0.047022648 -0.00031606108 4280634764
0.024976175 -0.049874566 0.0018593399 4281682049
0.028291535 -0.054225281 0.0053401459 4282535023
-0.02319866 -0.026652567 -0.014561385 4279787143
-0.021453809 -0.025755376 -0.015656222 4279457429
-0.019219987 -0.027127594 -0.014753785 4279326104
-0.016975425 -0.028498843 -0.013853717 4279194268
-0.014890186 -0.029113226 -0.013620096 4278800803
-0.012799524 -0.029727116 -0.01338756 4278538918
-0.010703467 -0.030340455 -0.013156182 4278408103
-0.0084239803 -0.031708643 -0.012263591 4278932383
-0.0063144714 -0.032320723 -0.012035037 4278997918
-0.0041995756 -0.032932326 -0.011807571 4279063453
-0.0020793006 -0.033543363 -0.011581245 4279128733
4.6335161e-05 -0.034153894 -0.011356047 4279194523
0.0019860193 -0.034009472 -0.011791288 4279194524
0.0045077354 -0.036127537 -0.010250139 4278932128
0.0072421059 -0.038998321 -0.0080543533 4279325083
0.0095991455 -0.040359721 -0.0071783923 4279849619
0.011360921 -0.039459415 -0.0082756169 4280897414
-0.026335232 -0.042308502 -0.0024283081 4280442238
-0.025458254 -0.036849424 -0.0075309533 4279850894
-0.024305277 -0.032911249 -0.011294155 4279654033
-0.022860326 -0.03049276 -0.013721484 4279522198
-0.021269336 -0.02883409 -0.015480791 4279128989
-0.019195259 -0.029451713 -0.015246506 4278998174
-0.017115772 -0.030068807 -0.015013344 4278735778
-0.014861006 -0.031443574 -0.014118752 4278669988
-0.01294056 -0.031301498 -0.014550361 4278473384
-0.010669675 -0.03267476 -0.013659227 4278801059
-0.0085659064 -0.033289574 -0.013431157 4278801313
-0.0062762424 -0.034661263 -0.01254402 4279063453
-0.0043421984 -0.034517661 -0.012978296 4278998174
-0.0020364597 -0.035887852 -0.012094623 4279129498
9.149313e-05 -0.036500372 -0.01187159 4279653523
0.0024159625 -0.037868977 -0.010991886 4279718803
0.0049449019 -0.039992973 -0.0094573796 4280373644
0.0076863095 -0.04287187 -0.0072697736 4280635019
0.010050792 -0.044237107 -0.0063987598 4283122798
-0.024984553 -0.041482508 -0.0060453527 4280308618
-0.023976475 -0.036771297 -0.010466806 4279915663
-0.022841156 -0.032823481 -0.01421767 4279259549
-0.021085575 -0.031921178 -0.015311624 4278670244
-0.019335225 -0.031019174 -0.016404331 4278801314
-0.017256089 -0.031638488 -0.016172759 4278866594
-0.015171528 -0.032257237 -0.015942302 4278801059
-0.012909237 -0.033635676 -0.015052619 4278604708
-0.010811221 -0.034253217 -0.014825004 4278604453
-0.0083525106 -0.036389738 -0.013280234 4278408103
-0.006058082 -0.037765354 -0.01239752 4278997664
-0.0037529543 -0.039140083 -0.011517126 4279456409
-0.0014371127 -0.040513895 -0.010638982 4279784339
0.00088941306 -0.041886762 -0.0097631924 4279587224
0.0032266341 -0.043258741 -0.0088896565 4281682813
-0.024972886 -0.043841593 -0.0065611005 4280898433
-0.024273485 -0.037590154 -0.012298044 4280111759
-0.023140006 -0.033631667 -0.016040236 4278931363
-0.021387041 -0.032727405 -0.017131954 4278670244
-0.019475155 -0.032586336 -0.017561939 4278932129
-0.017229542 -0.033970527 -0.016672041 4279063454
-0.014803741 -0.036116377 -0.015125136 4279260059
-0.012534022 -0.037498549 -0.014240474 4279325339
-0.010253575 -0.038879842 -0.013358086 4279259804
-0.0079624206 -0.040260166 -0.012478042 4280110229
-0.0056605563 -0.041639626 -0.011600282 4281551234
-0.024961576 -0.046204738 -0.0070798551 4281881203
-0.024414077 -0.039170034 -0.01346517 4280570249
-0.023121148 -0.035966128 -0.016539201 4279324829
-0.021365486 -0.035059534 -0.017629895 4278931874
-0.019123178 -0.036448501 -0.016742643 4279063198
-0.01670352 -0.038601361 -0.015199449 4279390874
-0.014267817 -0.040752977 -0.013659731 4279719059
-0.011816077 -0.04290323 -0.012123555 4280504203
-0.0096974671 -0.04352361 -0.011903834 4280896394
-0.024243079 -0.042285368 -0.013313912 4281748859
-0.02262732 -0.040607668 -0.01506573 4279850129
-0.020538785 -0.041233033 -0.014841426 4279654289
-0.018117294 -0.043392465 -0.013303678 4281814394
-0.015846182 -0.044783443 -0.012426134 4283057774
-0.023606047 -0.047719166 -0.011196472 4282667113
-0.021818507 -0.046805993 -0.012291182 4281816179
-0.019553453 -0.04820206 -0.01141575 4282536298
-0.012161911 -0.054743528 -0.02751644 4282535534
0.055280089 0.0093444884 0.042434499 4285229609
0.055497065 0.014179885 0.037041135 4285361443
0.057756513 0.013661984 0.037299447 4285820189
0.061071806 0.010470089 0.040375926 4285820189
0.044311896 0.008939784 0.041342117 4285229608
0.046810187 0.0077466406 0.042306937 4285688609
0.049072593 0.0072264262 0.042562649 4285492003
0.051091097 0.0073785 0.042111091 4285427489
0.051850528 0.01088874 0.038131729 4285493278
0.052837644 0.01372562 0.034863375 4285690139
0.053803302 0.016560972 0.031599894 4285689373
0.055786684 0.016710717 0.031156434 4285492258
0.058819763 0.014177252 0.033525839 4285558048
0.063464746 0.0076218173 0.040106155 4285624094
0.039196856 0.0096824579 0.038190581 4285033004
0.03976737 0.013881776 0.03350123 4285492769
0.041269537 0.01538026 0.031644553 4285754908
0.043978926 0.013505924 0.033319078 4285820699
0.046950471 0.010958701 0.035695195 4285755928
0.049445413 0.0097611435 0.036657594 4285559068
0.050441343 0.012607362 0.033393897 4285559068
0.051415838 0.015452042 0.030135056 4285690139
0.052368887 0.018295188 0.026881071 4285887509
0.054338839 0.018443946 0.026440637 4285821463
0.057357695 0.015900735 0.028806595 4285821464
0.061457418 0.010667957 0.033971794 4285821208
0.066134796 0.0040932894 0.040528312 4285690139
0.035650183 0.011950735 0.033184312 4285624094
0.036457274 0.015485916 0.029210599 4286214928
0.037713762 0.017665111 0.02665359 4285623328
0.03943561 0.018489625 0.025509635 4285492004
0.042369023 0.015930716 0.027887633 4285623583
0.045569737 0.012697086 0.030964462 4285689629
0.048050851 0.011494149 0.031926639 4285689883
0.049536936 0.012996156 0.030077098 4285558814
0.050504141 0.015849039 0.02682657 4285558813
0.051963352 0.01734915 0.024983222 4285624349
0.053930555 0.017497722 0.024543418 4285624348
0.056945842 0.014945555 0.026903542 4285624348
0.059982311 0.01239508 0.029258994 4285624348
0.063039951 0.0098462701 0.031609766 4285493278
0.068009093 0.0025769807 0.038843036 4285559069
0.034338616 0.013716258 0.028454853 4285557793
0.035368465 0.016582012 0.025196539 4285886234
0.036376916 0.019446243 0.021943079 4286148884
0.03832607 0.019592915 0.0215069 4285952024
0.041004725 0.017703235 0.023178345 4285886744
0.044436861 0.013779048 0.026952 4285821718
0.046906807 0.012570929 0.02791336 4285624349
0.048884925 0.012720123 0.027470959 4285559069
0.050101355 0.014903408 0.024928259 4285559068
0.051814735 0.015729934 0.023788301 4285558814
0.054041017 0.015200946 0.024047477 4285559069
0.056534372 0.01399501 0.025003916 4285624349
0.059038226 0.012789983 0.025958026 4285624349
0.061285414 0.012262825 0.026212709 4285624348
0.064077482 0.010382544 0.027859436 4285886233
0.070155516 0.00038445741 0.037854105 4285886489
0.03404627 0.018377494 0.02049295 4285623838
0.035279755 0.02056808 0.017951103 4285690139
0.03769879 0.019351576 0.018920297 4285755673
0.040614404 0.016773935 0.021289 4285690139
0.043796912 0.01351719 0.024353297 4285558558
0.045764364 0.013665523 0.023913236 4285558558
0.047982704 0.013133541 0.024172353 4285558558
0.049952619 0.013282217 0.023731867 4285624349
0.051922411 0.013430979 0.023291478 4285559068
0.05389208 0.013579808 0.022851178 4285558814
0.056123272 0.013049129 0.023107672 4285624348
0.057831019 0.01387769 0.021970855 4285690139
0.059533298 0.014705908 0.020835312 4285755163
0.061769381 0.014175858 0.021090915 4285755163
0.066461414 0.0075372122 0.027594449 4285820443
0.033900041 0.016776189 0.019311035 4285623583
0.035371482 0.018289778 0.01747454 4285558558
0.037552558 0.017752483 0.017740076 4285559069
0.040224474 0.015849266 0.019403083 4285624349
0.04291229 0.013947371 0.021062547 4285624348
0.044623524 0.014777895 0.019926244 4285755419
0.0468309 0.014242936 0.020186173 4285821464
0.049296964 0.013026029 0.021141907 4285821464
0.052285805 0.010445658 0.023487924 4285624348
0.053484347 0.012640882 0.020959375 4285558558
0.055189673 0.013471384 0.019824719 4285558814
0.056361299 0.015664745 0.017302321 4285821718
0.058050357 0.016494192 0.016171433 4285755419
0.060003377 0.016642127 0.015735131 4285557539
0.063860983 0.012023319 0.020147936 4285492258
0.069679134 0.0026419647 0.029397393 4285558304
0.036174588 0.013949957 0.019091476 4285558558
0.037886165 0.014782492 0.017956538 4285559324
0.04007753 0.01424386 0.018218238 4285690139
0.042028882 0.014390942 0.017781751 4285690139
0.043236364 0.01659305 0.015255945 4285886998
0.04517952 0.016739678 0.014821419 4285886743
0.048135586 0.014148057 0.017168066 4286018579
0.051368773 0.010873754 0.020204695 4285952788
0.053076994 0.011706591 0.019071009 4285624350
0.053996012 0.014591057 0.015858158 4285558814
0.054893576 0.017473985 0.012650162 4285690393
0.056302838 0.018988203 0.010831637 4285821973
0.058509015 0.01845159 0.011090642 4285821973
0.06207988 0.014499612 0.014804054 4285755929
0.067055419 0.0071352571 0.021962991 4285755929
0.072643831 -0.0015900433 0.030488713 4285755929
0.037499808 0.013867278 0.016076839 4285558813
0.039203413 0.014701452 0.01494547 4285690138
0.040901609 0.015535299 0.013815375 4285886489
0.042098925 0.017743211 0.011296859 4285623584
0.044031318 0.017889049 0.010864755 4285623583
0.04697581 0.015287872 0.013207356 4285820699
0.05070867 0.010628644 0.017624453 4285821208
0.052411642 0.011463348 0.016493592 4285624348
0.053587094 0.013670001 0.01398034 4285558814
0.054218985 0.017247479 0.0100882 4285558814
0.055356842 0.019451506 0.0075834412 4285690394
0.057554722 0.018912129 0.0078426655 4285624349
0.061116282 0.014946416 0.011548212 4285624349
0.064984038 0.010298014 0.01593563 4285559069
0.069165945 0.0049675629 0.021003114 4285493279
0.076187208 -0.0072071329 0.032938167 4285493279
0.036874332 0.013646677 0.013505572 4285557794
0.038088311 0.015862215 0.010988193 4285689628
0.039531086 0.01738704 0.0091683399 4286280208
0.040963087 0.018911168 0.0073509067 4285820698
0.042884715 0.019056223 0.0069212317 4285689118
0.045564789 0.017134443 0.0085677654 4285689373
0.049027279 0.013147675 0.012285093 4285821463
0.051488921 0.011917632 0.013232039 4285558813
0.053178549 0.012753617 0.012105912 4285559069
0.054335713 0.01496553 0.0096018258 4285493534
0.055476729 0.017176371 0.0071013756 4285493533
0.057945818 0.015947245 0.0080469307 4285493534
0.061239906 0.01265635 0.011053765 4285558814
0.064834625 0.0086802207 0.014742024 4285493533
0.068184316 0.0053937249 0.017736578 4285559324
0.074634865 -0.005447112 0.028272221 4285559068
0.036974818 0.017040774 0.0070440564 4285556263
0.038162574 0.019260932 0.0045376625 4285820954
0.039828859 0.02009692 0.0034180991 4285886743
0.042239688 0.018858433 0.0043728892 4285887254
0.044913724 0.016929686 0.0060157962 4285821719
0.048369568 0.012929391 0.0097246617 4285624604
0.050825357 0.011694621 0.010669569 4285493534
0.053291693 0.010460701 0.011612236 4285493788
0.054978613 0.011298768 0.010488462 4285493533
0.056926042 0.011446346 0.010053458 4285427998
0.059410613 0.010214057 0.010992242 4285493279
0.062448263 0.007603202 0.013301244 4285426978
0.065233104 0.0056836046 0.014919899 4285492513
0.068587013 0.0023865514 0.017905278 4285492513
0.074480966 -0.0071106181 0.027044958 4285557793
0.037773859 0.018381245 0.002685681 4285623839
0.039437585 0.019219179 0.0015684031 4285558814
0.042095024 0.01728259 0.0032099858 4285624349
0.045020789 0.014653943 0.0055368748 4285558814
0.048222873 0.011333864 0.008547293 4285559069
0.050678149 0.010094725 0.0094890092 4285559323
0.053404413 0.0081636943 0.01111548 4285559578
0.055883411 0.0069265403 0.012052042 4285624859
0.058107167 0.0063825734 0.012300558 4285492768
0.060336106 0.0058391169 0.012547929 4285492258
0.06338349 0.0032203309 0.014848139 4285426468
0.06617827 0.0012949929 0.016459614 4285492513
0.069265291 -0.0013206154 0.018751107 4285493024
0.075443357 -0.011539139 0.028549274 4285492258
0.040281296 0.01486636 0.0031639906 4285492258
0.042948678 0.012924023 0.0047983881 4285558814
0.045884185 0.010287441 0.0071164705 4285558558
0.048840888 0.0076525845 0.0094298422 4285558558
0.051303655 0.0064096414 0.01036662 4285558559
0.05377695 0.0051676445 0.011301087 4285558558
0.055997871 0.0046212226 0.011548527 4285558303
0.058489542 0.0033807941 0.01247902 4285558304
0.060991712 0.0021412708 0.013407253 4285493025
0.064317085 -0.0011798143 0.016382298 4285426978
0.066848248 -0.0024169609 0.017304197 4285426979
0.069942333 -0.0050406903 0.019587493 4285426978
0.076125242 -0.015291452 0.029359674 4285361443
0.041370109 0.009798158 0.0054335929 4285557283
0.043551326 0.0092461482 0.0056878589 4285623839
0.046241872 0.0072991475 0.0073121767 4285492768
0.049202994 0.0046559051 0.009617975 4285558304
0.051670562 0.0034090541 0.010550343 4285492513
0.054408714 0.0014659353 0.012164241 4285558304
0.056637302 0.00091799349 0.012408281 4285492258
0.059136458 -0.00032620877 0.013333863 4285492258
0.06137808 -0.00087299198 0.013575129 4285427234
0.06416627 -0.002811946 0.015178137 4285426978
0.066970266 -0.0047495514 0.016777644 4285427234
0.070618123 -0.0087736174 0.020414347 4285361188
0.04245691 0.0047083274 0.0076872502 4285490984
0.044401955 0.004855264 0.007252425 4285492259
0.046598744 0.004302375 0.0075016338 4285492514
0.04956428 0.0016507879 0.0097998213 4285492513
0.052293837 -0.00029956549 0.011410605 4285492258
0.055039257 -0.0022486299 0.013017913 4285492259
0.057275519 -0.00279814 0.013258606 4285492259
0.059516978 -0.0033471659 0.013498208 4285492258
0.062031455 -0.0045944452 0.014417127 4285427233
0.064826891 -0.0065392926 0.016013516 4285492513
0.068184473 -0.0098794699 0.018964849 4285426723
0.072395951 -0.015311882 0.023946134 4285426724
0.043049075 0.0010018572 0.0085579045 4285557029
0.044753022 0.0018517151 0.0074384175 4285492258
0.046954818 0.0012970604 0.0076848716 4285558304
0.049670458 -0.00066095591 0.0092937239 4285492513
0.052401938 -0.0026176199 0.010899071 4285492514
0.054889675 -0.0038715452 0.011820439 4285492258
0.057650205 -0.0058258101 0.013419451 4285426724
0.060691558 -0.0084799305 0.015694376 4285426978
0.064021692 -0.011833236 0.018643402 4285427233
0.067378283 -0.015184432 0.021586595 4285427234
0.071034327 -0.019234046 0.025201557 4285295144
0.04339391 -0.0020127073 0.008737158 4285491748
0.045600828 -0.002569288 0.008980779 4285558304
0.047812961 -0.0031253174 0.009223273 4285492513
0.050284415 -0.0043849349 0.010144796 4285493024
0.053279944 -0.0070514977 0.012423104 4285427233
0.056296669 -0.0097163469 0.01469676 4285361444
0.059858751 -0.013786465 0.018322408 4285230118
0.06371741 -0.018557385 0.022618813 4285295654
0.068148062 -0.024731569 0.028261257 4285229864
0.043246131 -0.0036220029 0.007549582 4285492004
0.045701295 -0.0048874319 0.008471325 4285492769
0.047664531 -0.0047389418 0.0080325697 4285493024
0.049881559 -0.0052966624 0.0082724039 4285427233
0.053643204 -0.010090441 0.012578638 4285361444
0.058478922 -0.017704822 0.019585857 4285230119
0.063896894 -0.026726067 0.027933562 4284902188
0.043098349 -0.0052310005 0.0063622352 4285426723
0.045801356 -0.0072096661 0.0079588629 4285295908
0.048018169 -0.0077696443 0.0081970263 4285230374
0.050240196 -0.0083291382 0.0084340982 4285164583
0.055287458 -0.016679205 0.016109342 4285230374
-0.034492642 0.010499895 -0.013953467 4285032493
-0.032345824 0.0091772154 -0.012988728 4285163563
-0.029880308 0.0063974969 -0.010647777 4285229864
-0.027236737 0.0028907098 -0.0076228785 4285361189
-0.024566434 -0.0006140098 -0.0046039186 4285361188
0.013148297 -0.011140019 -4.2255037e-05 4285688098
0.015084714 -0.01099512 -0.00047620665 4285492003
0.017233677 -0.0115747 -0.00023393799 4285492513
0.01917275 -0.011429384 -0.00066830683 4285426978
0.021329684 -0.012008131 -0.00042764563 4285426723
-0.038028702 0.0072504431 -0.012862025 4285032238
-0.035888031 0.0059227832 -0.011899435 4285229353
-0.033885002 0.0053275563 -0.011628067 4285294888
-0.031876497 0.0047327802 -0.011357815 4285361188
-0.029708788 0.0034074113 -0.010401078 4285360933
-0.02737385 0.0013519526 -0.0087595806 4285426723
-0.024863742 -0.0014329255 -0.0064351913 4285359913
0.0089298543 -0.012291253 -0.0010245191 4285622054
0.011067811 -0.012874223 -0.00078165811 4285622818
0.013004079 -0.012729451 -0.0012156675 4285558049
0.015150044 -0.013311535 -0.00097445678 4285493025
0.017088983 -0.013166338 -0.0014088852 4285427233
0.019027919 -0.013021007 -0.0018432206 4285426979
0.021402184 -0.014328353 -0.00093081687 4285295654
-0.041723259 0.0047260933 -0.012461617 4285098283
-0.039871924 0.0048618354 -0.012878628 4285229353
-0.037734583 0.003529463 -0.011918704 4285294888
-0.035732023 0.0029318556 -0.011648939 4285360933
-0.033872239 0.0030685142 -0.01206763 4285360933
-0.031861417 0.0024717748 -0.011799615 4285426979
-0.029845133 0.0018755198 -0.011532759 4285361188
-0.027823374 0.0012797862 -0.01126704 4285361188
0.0024054348 -0.01211971 -0.0029265257 4285557283
0.0045269802 -0.012706377 -0.0026819529 4285426468
0.0068527088 -0.014022514 -0.0017626127 4285492258
0.0089876503 -0.014607988 -0.0015208153 4285558304
0.011127915 -0.015192926 -0.0012801802 4285624094
0.013273528 -0.015777327 -0.0010406515 4285624349
0.015214989 -0.015632048 -0.0014757337 4285492769
0.016944315 -0.014757663 -0.0025836201 4285492769
0.019097917 -0.015341133 -0.0023456169 4285360933
0.021256832 -0.015924081 -0.0021087145 4285361189
-0.054175958 0.0097723864 -0.017998636 4284966959
