# .PCD v0.7 - Point Cloud Data file format
VERSION 0.7
FIELDS x y z rgba
SIZE 4 4 4 4
TYPE F F F U
COUNT 1 1 1 1
WIDTH 970
HEIGHT 1
VIEWPOINT 0 0 0 1 0 0 0
POINTS 970
DATA ascii
0.0069290698 0.009356603 0.027785372 4284512293
0.011301722 0.0013181716 0.035880864 4284512293
0.018357709 -0.01558622 0.053229228 4284512293
-0.014607158 0.012370493 0.024793766 4284708899
-0.01247362 0.011833455 0.025050189 4284315943
-0.01050932 0.011983562 0.024587851 4284054059
-0.0085448846 0.012133762 0.024125542 4283727404
-0.0065803304 0.012284067 0.023663271 4283075624
-0.00443298 0.011748455 0.023916721 4282096424
-0.0022801943 0.01121331 0.024169009 4282224944
-0.00012199208 0.010678705 0.024420042 4282093618
0.0018509664 0.010830019 0.023956072 4281898799
0.0038240179 0.010981429 0.023492146 4280075548
0.0063850731 0.0090779215 0.025165983 4280723758
0.010352578 0.0023821816 0.031819649 4280072233
0.017392712 -0.014578216 0.049130566 4280072233
-0.017859209 0.0069947913 0.028129891 4283921204
-0.016883995 0.011282038 0.023357905 4283335724
-0.014756221 0.010742258 0.023613956 4282681395
-0.012966674 0.011581041 0.022435617 4282157624
-0.010833297 0.011041876 0.02269049 4281960763
-0.0086944774 0.010503221 0.022944149 4281048629
-0.0067300349 0.010653481 0.022481885 4282026298
-0.004765477 0.010803845 0.022019666 4281897013
-0.0028008074 0.010954317 0.021557488 4281962549
-0.00064824149 0.010417078 0.021808188 4281570868
0.0013192892 0.010567948 0.021345478 4281049648
0.0034800284 0.010031484 0.021594446 4280399144
0.0056461468 0.0094955638 0.021842167 4281112889
0.0094050989 0.0034641251 0.027771417 4279810094
0.015423944 -0.010118306 0.041496314 4279484203
-0.017354313 0.0025884584 0.029809758 4282285633
-0.016866345 0.0089646578 0.022896096 4281504313
-0.015074197 0.0098057166 0.021718707 4281440563
-0.013458863 0.011337757 0.019827578 4280267054
-0.011331122 0.010795895 0.02008215 4280007208
-0.0091979317 0.010254592 0.020335466 4279878434
-0.0070593022 0.0097137913 0.020587575 4281504824
-0.0050975122 0.009863928 0.020125996 4281635383
-0.0035054758 0.011394601 0.018240731 4281831224
-0.0013612024 0.010854516 0.018491723 4281179189
0.00059823319 0.011004742 0.018030901 4280593198
0.0027506612 0.010465477 0.018280119 4281698879
0.0051040538 0.0092373192 0.019237492 4281633599
0.0084592886 0.0045639798 0.02373616 4281307964
0.013458885 -0.0056184009 0.033891033 4281178169
0.020573758 -0.02268257 0.051102169 4281178169
-0.016850971 -0.0018352419 0.031477027 4281759823
-0.017015163 0.0073370114 0.021716658 4281308474
-0.015729278 0.010261212 0.018398788 4281047099
-0.013778746 0.010410096 0.017939556 4281699134
-0.01182808 0.010559063 0.017480355 4281504060
-0.0095237531 0.0093220398 0.01844551 4281113398
-0.0075675212 0.0094716325 0.017985146 4281243958
-0.0056111626 0.0096213296 0.017524824 4281439543
-0.0038394369 0.010463588 0.016354244 4281569848
-0.0018855259 0.010613281 0.015894633 4281374009
-0.00012157112 0.0114551 0.014726073 4280006953
0.0020225644 0.010912981 0.014975574 4280593198
0.0045628287 0.0089881346 0.016639452 4280917814
0.0075151511 0.0056817606 0.019713882 4280722483
0.011698212 -0.0017696843 0.027021233 4281112888
0.017973235 -0.016126625 0.041373871 4281439034
-0.016185895 -0.0069725886 0.033845354 4282216018
-0.016998015 0.0050135627 0.02125043 4281305923
-0.016214509 0.010034304 0.015801091 4279680299
-0.014440645 0.010878433 0.014631283 4280006188
-0.012324158 0.010331277 0.014885176 4280852534
-0.010025695 0.0090894401 0.015848357 4280331824
-0.0077164583 0.0078484714 0.016809106 4280788019
-0.0055783577 0.007303305 0.017058089 4281634873
-0.003803879 0.0081478953 0.015888523 4281569593
-0.0020346232 0.0089922398 0.014720239 4281504314
-0.00027057528 0.0098362416 0.013553288 4281243194
0.0016807318 0.0099859126 0.013094421 4281307964
0.004217606 0.0080542043 0.014754139 4281178424
0.0065726787 0.0068174824 0.015704591 4281374008
0.0099408515 0.0021145493 0.020177238 4281636403
0.015377639 -0.0095174909 0.031684093 4281766709
0.022551259 -0.026686557 0.048799202 4281766709
-0.016649749 0.0012894422 0.022204131 4281698369
-0.016530488 0.0091184899 0.01392075 4281243704
-0.014759202 0.009964522 0.012753211 4280787508
-0.012819391 0.010112617 0.012296531 4280982073
-0.010879461 0.010260817 0.011839889 4281374263
-0.0085813813 0.009014599 0.012799967 4281896503
-0.0062725618 0.0077693462 0.013757546 4281896249
-0.0039530061 0.0065249652 0.014712717 4281895993
-0.0019966774 0.0066748112 0.014252517 4281962549
-0.00022990257 0.007521227 0.013086505 4281833773
0.0015316457 0.0083673 0.011921845 4282684708
0.0034829192 0.0085170642 0.011463065 4284317984
-0.01630263 -0.0024476424 0.02314844 4281827653
-0.016341485 0.006106481 0.014171533 4281699643
-0.01490647 0.0083552599 0.011587124 4281569849
-0.013140261 0.0092031807 0.010422483 4282224433
-0.011379249 0.010050789 0.009259142 4283399218
-0.0090870224 0.008799769 0.010217246 4284118318
-0.0066025779 0.0068503618 0.011879019 4283792683
-0.0041020811 0.0049023032 0.013537101 4283726384
-0.016121972 -0.0054949522 0.023375064 4282481983
-0.015942078 -0.0085507855 0.023595512 4283525188
0.034283683 -0.050141908 0.034162968 4284640558
0.036612608 -0.050696991 0.034348618 4284180794
0.0062999912 0.0079013631 -0.021940632 4282492693
0.0088089556 0.0058827773 -0.020338098 4281709333
0.012600595 -0.0004606992 -0.014652877 4281578519
0.019432919 -0.016891927 0.00054723397 4281837854
0.027469615 -0.036916718 0.019117754 4281837854
0.033026062 -0.048284911 0.029503282 4282616369
0.036450073 -0.052444272 0.033083301 4282680374
-0.011338126 0.0072174892 -0.021144187 4284052529
-0.0094631873 0.0073608905 -0.021585392 4283206693
-0.007588163 0.0075044334 -0.022026533 4282354993
-0.0053337328 0.006198369 -0.021098714 4282418744
-0.0032609142 0.0056178272 -0.020857126 4282353464
-0.001377698 0.0057623237 -0.02129994 4281963059
0.00050557777 0.0059069395 -0.021742679 4281766963
0.0021886081 0.0067757443 -0.022867352 4281569338
0.0036634468 0.00836806 -0.024671974 4281309238
0.0051276982 0.0099596754 -0.026474025 4280655928
0.0076226294 0.0079334453 -0.024873126 4280198713
0.011188108 0.0022923723 -0.019878536 4279809073
0.017572526 -0.012744673 -0.0060689636 4278898469
0.025149647 -0.031387046 0.011105526 4278898469
0.031113861 -0.04423774 0.022826973 4279159079
0.035179861 -0.050579198 0.028433383 4281567808
-0.015889678 0.00013722479 -0.016139042 4284574259
-0.01540605 0.0061063319 -0.02207269 4283073584
-0.013534084 0.0062492713 -0.022513377 4282355759
-0.012025025 0.0078477114 -0.024323495 4280598043
-0.010342333 0.0087179542 -0.025446907 4281117734
-0.0082912631 0.0081333891 -0.025202053 4281181229
-0.0056664161 0.0053681284 -0.022909787 4279551779
-0.0035966039 0.0047852322 -0.022669163 4281373499
-0.0015214011 0.0042028129 -0.022429682 4281374010
-3.3129007e-05 0.0058003291 -0.024234407 4281308473
0.0016446672 0.0066708699 -0.025356162 4280915518
0.002911713 0.0089932457 -0.02783609 4280719679
0.0041628703 0.011314463 -0.03031216 4281045058
0.0064383782 0.010006428 -0.029391997 4281110593
0.0097780973 0.0050721243 -0.025084876 4281045824
0.014648583 -0.0049357414 -0.016045714 4280980543
0.022185715 -0.023637988 0.0010955036 4280980543
0.028767612 -0.038705409 0.014824428 4281177149
0.033911727 -0.048691772 0.023799639 4281437248
0.036666315 -0.050703831 0.025335245 4282283083
-0.014819752 -0.0065439492 -0.01248002 4283789369
-0.015371956 0.0038257837 -0.022511633 4281895739
-0.014390662 0.007619299 -0.026371755 4281503804
-0.012891944 0.0092212558 -0.028176127 4281243959
-0.011219814 0.010092907 -0.029295463 4281766454
-0.0091797002 0.009505257 -0.029049641 4280854063
-0.0067556947 0.0074596703 -0.027442519 4280656693
-0.0045075752 0.0061444417 -0.026519664 4280916283
-0.0026379153 0.0062878728 -0.026959309 4281111869
-0.0011626519 0.0078887716 -0.028757688 4281176383
0.00030205026 0.0094888955 -0.030553469 4280720443
0.0017561615 0.011088397 -0.032346703 4279024949
0.003404893 0.011959106 -0.033459824 4280002363
0.0054640397 0.011373874 -0.033217832 4280067388
0.0083705485 0.0078786463 -0.030271901 4280002874
0.01279578 -0.00070643425 -0.022602551 4279417393
0.019658772 -0.017285869 -0.0075227842 4279417393
0.026643947 -0.033855759 0.0075283814 4280459578
0.032424539 -0.046055242 0.018508282 4281047099
0.036057554 -0.050981514 0.022735484 4281371713
0.038821988 -0.052999213 0.024263963 4281889619
-0.015865564 0.0037385523 -0.025001924 4281697348
-0.015245583 0.0090072155 -0.030217178 4280135474
-0.013757214 0.010612722 -0.032015849 4280981819
-0.011911891 0.010753836 -0.03245011 4281633599
-0.0098800957 0.010163397 -0.032204028 4281437759
-0.0072757304 0.0073790997 -0.02992007 4280721209
-0.0052251853 0.0067903325 -0.029678214 4280590648
-0.0031692721 0.0062020868 -0.02943754 4281046078
-0.0016990453 0.0078068972 -0.031231424 4281111360
-0.00023939833 0.0094110668 -0.033022769 4280915264
0.00120968 0.011014469 -0.034811519 4280589119
0.0028531626 0.011886973 -0.035921756 4280327999
0.0046990141 0.012029141 -0.03635538 4280457283
0.0075963996 0.008522287 -0.033415508 4280653888
0.011159226 0.0028287545 -0.028459642 4281111359
0.017136339 -0.010885082 -0.016105818 4280981308
0.024523994 -0.028966218 0.00026122667 4280981308
0.031381674 -0.044849977 0.014580637 4280916028
0.036120392 -0.053436473 0.022157058 4281045568
0.038434237 -0.054003403 0.022338305 4281108553
-0.01583159 0.0014564171 -0.025442032 4281566024
-0.015920624 0.0096785277 -0.033369083 4280655163
-0.014439955 0.011287812 -0.035162665 4279157804
-0.01241919 0.010694232 -0.034915712 4280004659
-0.010393038 0.010101184 -0.034669932 4280004659
-0.008172635 0.0087749586 -0.033747226 4280069683
-0.0059415512 0.0074497089 -0.03282699 4281046078
-0.0038939305 0.0068585873 -0.032585971 4281176639
-0.0022346005 0.007734172 -0.033698611 4280980799
-0.00077999011 0.0093422681 -0.035485454 4280915518
0.0008661747 0.010217018 -0.036594786 4281045569
0.0025070496 0.01109153 -0.037702821 4281176385
0.0043501072 0.011233494 -0.038135782 4281241153
0.0066133924 0.0099114776 -0.037222467 4281110848
0.0099510774 0.0049313307 -0.032949273 4281307708
0.01483383 -0.0051671639 -0.023981798 4281437504
0.021971617 -0.022573978 -0.0083194645 4281437504
0.029457593 -0.040701941 0.007983597 4281437504
0.035065971 -0.052240551 0.018225864 4281241153
0.037820883 -0.054272041 0.019746691 4281436229
-0.015271831 -0.0030404627 -0.023846269 4282085713
-0.015882261 0.007416591 -0.033795226 4280719933
-0.015121441 0.011976384 -0.038299717 4280850748
-0.012742292 0.0099074058 -0.036696963 4280981309
-0.010719132 0.0093119368 -0.036452129 4280915518
-0.0083132796 0.0072452426 -0.034855474 4281110848
-0.006082736 0.0059155747 -0.033938397 4281176385
-0.0038415007 0.0045868084 -0.033023708 4281241153
-0.0021794438 0.0054647326 -0.034135304 4281110849
-0.00072192773 0.0070774555 -0.035919599 4281111104
0.00092695281 0.00795459 -0.037027933 4281111613
0.0027751438 0.0080968216 -0.037462197 4281046333
0.0042088851 0.0097080767 -0.039240636 4281307453
0.0060518272 0.009850122 -0.039673492 4280851259
0.0085324459 0.0077902377 -0.038093619 4280459068
0.01253544 0.00059497356 -0.03182568 4281046334
0.019205894 -0.015399396 -0.017534558 4281046334
0.027316293 -0.035785049 0.00074324571 4281046334
0.03334368 -0.048827052 0.012302447 4281176639
0.036982559 -0.053798616 0.01649398 4281631559
-0.014188118 -0.0097718015 -0.02022898 4282607699
-0.015488621 0.0036728755 -0.0328696 4281046333
-0.015079718 0.0097237155 -0.038719878 4280654654
-0.013064947 0.0091252849 -0.038474817 4280915518
-0.011416372 0.01000388 -0.039581962 4281111358
-0.0093961321 0.0094061047 -0.039338 4280980543
-0.0069883093 0.0073331743 -0.037746686 4281045313
-0.0045644864 0.005261533 -0.036159016 4281175874
-0.002713915 0.0054035932 -0.0365941 4281176129
-0.00086329877 0.0055457726 -0.03702911 4281111358
0.00098736584 0.0056880713 -0.037464045 4281177148
0.0028380714 0.0058304965 -0.037898898 4281046844
0.0040677004 0.0081829429 -0.040345274 4281111869
0.0054911189 0.0097978041 -0.042117901 4279414588
0.007540971 0.0092033595 -0.041880112 4279482163
0.01088617 0.0041933283 -0.037631504 4279808309
0.016880419 -0.0096434057 -0.025375128 4279612724
0.025178704 -0.030828245 -0.0064682085 4279612724
0.031847261 -0.046117887 0.0070683733 4278963239
0.036145471 -0.053311616 0.013251018 4281241663
0.038213991 -0.053151265 0.012765862 4282151248
-0.013457123 -0.015051089 -0.017986618 4282280533
-0.014918502 -0.00082479417 -0.031277463 4281763648
-0.014858089 0.0067261383 -0.03846788 4280655419
-0.013021283 0.0068665519 -0.038900174 4280916794
-0.011741191 0.0092284605 -0.041354217 4279025714
-0.0099121891 0.0093685165 -0.041784495 4279221553
-0.0078922175 0.0087685958 -0.041541994 4279026224
-0.005286213 0.0059497505 -0.03928455 4279157039
-0.003247533 0.0053515062 -0.039046273 4281176638
-0.0012035035 0.004753828 -0.038809203 4281242684
0.0002413094 0.0063743889 -0.040583886 4281242428
0.0024922676 0.005038105 -0.039677687 4281046589
0.0033060499 0.0088745579 -0.043456495 4281372479
0.0049312562 0.0097545907 -0.044555724 4281567809
0.0067633092 0.009895917 -0.044985943 4281567554
0.010098957 0.004869923 -0.040746599 4280654653
0.014993962 -0.0053191483 -0.031850774 4280068664
0.022604611 -0.024356 -0.014982429 4280068664
0.02968503 -0.041169211 -0.00014198758 4280654653
0.035309646 -0.052811101 0.010017846 4281044293
0.038282335 -0.055600107 0.012190428 4281370184
0.04058405 -0.056176379 0.012368135 4282673234
-0.012902867 -0.019608587 -0.016434783 4281823318
-0.014527388 -0.0045965165 -0.030372072 4282020689
-0.014457136 0.0029769763 -0.037548415 4281110338
-0.013343461 0.0060894042 -0.040674426 4280850239
-0.012250938 0.0092003345 -0.04379537 4280328763
-0.010991536 0.011567317 -0.046239547 4281045569
-0.0089851767 0.01096417 -0.045995481 4280004150
-0.0065867566 0.0088775232 -0.044411719 4279157804
-0.0041723326 0.0067921802 -0.042831585 4281177404
-0.0021392629 0.0061914846 -0.042593583 4281177403
-0.00050348043 0.0070741475 -0.04369393 4281307964
0.001331009 0.0072153136 -0.044124976 4280981308
0.0023390166 0.010320704 -0.047225341 4279743793
0.0039536618 0.011202104 -0.04832045 4281111613
0.005986888 0.010602012 -0.048082031 4281567554
0.0090984143 0.0063003898 -0.044517409 4281436993
0.01311079 -0.00095944107 -0.038300741 4280848963
0.01915542 -0.014875092 -0.026118334 4280392003
0.027081383 -0.034701079 -0.0086507071 4280392003
0.034024648 -0.050817937 0.0054684989 4280652869
0.037894562 -0.056574285 0.010287333 4281239624
-0.012175601 -0.02492898 -0.014222213 4281886813
-0.014314666 -0.0076356232 -0.030148668 4282476628
-0.014596995 0.0014507025 -0.038654305 4281631304
-0.013847739 0.0060620308 -0.043116689 4280460599
-0.012574665 0.0084364414 -0.045559213 4280523839
-0.011129607 0.010065161 -0.047327839 4281240899
-0.0093140975 0.010204282 -0.047754869 4281240898
-0.0071122125 0.0088550001 -0.046844061 4280915518
-0.0048996732 0.0075067133 -0.045935709 4280524860
-0.002676446 0.0061593279 -0.045029733 4281177149
-0.0012470335 0.0077874288 -0.046794247 4281176893
0.00037558004 0.0086713731 -0.047889765 4281307199
0.001167208 0.012527939 -0.051646978 4279677748
0.0033958778 0.01118147 -0.050741978 4279937593
0.0056351945 0.0098359063 -0.049839348 4280394043
0.0085283034 0.0062635019 -0.046947472 4280524604
0.01144797 0.0026932582 -0.044061758 4280850749
0.016151788 -0.0068123713 -0.035881039 4281241664
0.023370512 -0.024474382 -0.020434242 4281241664
0.03139168 -0.044351764 -0.0030330438 4281307198
0.036368906 -0.053835854 0.0050837994 4281372479
0.039342251 -0.056642056 0.0072432011 4281696838
-0.013925672 -0.011430897 -0.02926035 4282541653
-0.015096195 0.0014196485 -0.041100822 4281175618
-0.01489817 0.0082854405 -0.047561713 4280654909
-0.013452917 0.0099183731 -0.049327157 4278699059
-0.011830565 0.010803763 -0.050421521 4280132668
-0.0098328665 0.010195639 -0.050178744 4280067389
-0.0078298002 0.0095880181 -0.049937151 4279480378
-0.0054301433 0.0074884444 -0.048363388 4280719679
-0.0034110472 0.0068823025 -0.048125379 4280916284
-0.0017884187 0.0077683106 -0.049219362 4281046334
-0.00017105415 0.0086540431 -0.050312012 4281241919
0.001028575 0.011030342 -0.052731685 4281241409
0.0028389469 0.011169869 -0.053156905 4281371203
0.0050723925 0.0098195449 -0.052256197 4281306179
0.0079590306 0.0062357336 -0.049371004 4281306178
0.010655388 0.0033986717 -0.047153626 4281044548
0.014470456 -0.0031585544 -0.041635878 4281175618
0.021443393 -0.02013056 -0.026883278 4281175618
0.029437646 -0.040068895 -0.0095199971 4281175618
0.03530065 -0.052558273 0.0012179427 4281307199
0.038492516 -0.056117684 0.0040321015 4281632579
-0.01300738 -0.017488562 -0.026373057 4282476374
-0.015415058 0.0006480068 -0.042871915 4281304648
-0.015400156 0.0082827583 -0.04998602 4281110594
-0.013959952 0.0099197067 -0.051747046 4280654398
-0.011967961 0.0093087703 -0.051504627 4280132158
-0.010160696 0.0094472542 -0.051929723 4280393024
-0.0079678819 0.0080885962 -0.051023386 4280458304
-0.0057643838 0.0067308396 -0.050119422 4280980034
-0.0035502315 0.0053740665 -0.049217917 4281241153
-0.0017268322 0.0055142492 -0.04964646 4281307198
0.00029996037 0.0049067587 -0.049411725 4281240899
0.0019200705 0.0057949796 -0.050503299 4281240133
0.003952235 0.0051881298 -0.050269652 4281239878
0.0057784095 0.0053290203 -0.050698478 4281305669
0.0084605217 0.0024820343 -0.048484392 4281109318
0.011163875 -0.00036320835 -0.046275206 4281305158
0.014546338 -0.0054463968 -0.042092551 4281435974
0.021073194 -0.02097594 -0.028694741 4281435974
0.028834518 -0.040227622 -0.012031945 4281370438
0.034461305 -0.052008733 -0.0019773655 4281500999
0.038103849 -0.057071313 0.0021446943 4281761354
-0.014657814 -0.0046299994 -0.040636271 4281104729
-0.015355501 0.0060342476 -0.05040399 4281046334
-0.014096972 0.0084271953 -0.052828398 4281111614
-0.012105323 0.0078140572 -0.052587539 4281436483
-0.010108314 0.0072014853 -0.052347895 4281435973
-0.0081059374 0.0065894425 -0.052109428 4281043783
-0.0057077892 0.0044766814 -0.050545134 4281370183
-0.003689386 0.0038661212 -0.050310247 4281304903
-0.0014651194 0.0025058761 -0.049414307 4281304903
0.00056664646 0.0018965378 -0.049182341 4281109574
0.0028095581 0.00053796917 -0.04829061 4281043783
0.0046461783 0.0006795302 -0.048721984 4280848198
0.0066939406 7.1838498e-05 -0.048493534 4281109318
0.0091745891 -0.0020337552 -0.046948008 4281174854
0.011671171 -0.004137978 -0.045406114 4281174344
0.014840927 -0.0084871501 -0.041894279 4281304393
0.020925166 -0.022565231 -0.029845588 4281304393
0.028456608 -0.041125566 -0.013880725 4281304649
0.034304366 -0.05369024 -0.0031948909 4281434699
0.037485898 -0.057272241 -0.00039468333 4281630028
-0.013723467 -0.010683693 -0.037750695 4282214489
-0.014402568 1.2487173e-05 -0.047499865 4281499469
-0.013312031 0.0031667799 -0.050587572 4281438269
-0.011307467 0.0025524944 -0.050351433 4281306688
-0.0094872229 0.0026919395 -0.050779596 4281175108
-0.0072822422 0.0013254955 -0.04988268 4280914244
-0.0050665736 -4.0046871e-05 -0.048988126 4280979013
-0.002840247 -0.0014046133 -0.048096046 4281044038
-0.00080357119 -0.0020158291 -0.047866996 4280977228
0.0012384504 -0.0026265308 -0.047639128 4281043528
0.0034914352 -0.0039887205 -0.046752989 4281043274
0.0059633218 -0.0061017573 -0.045210488 4281239879
0.0080293119 -0.0067102239 -0.044987969 4281239879
0.010100625 -0.0073181689 -0.044766605 4281435464
0.012177251 -0.00792557 -0.044546388 4281369673
0.015134716 -0.01153636 -0.041702203 4281239113
0.020777164 -0.024154209 -0.030996218 4281434444
0.02785496 -0.041268319 -0.016381102 4281434444
0.033466913 -0.0531203 -0.006375432 4281563729
0.036409803 -0.055963784 -0.0042350516 4281759314
-0.013452001 -0.0060353577 -0.044614576 4281954899
-0.012344897 -0.002871044 -0.047699675 4281172814
-0.010511596 -0.0027307123 -0.048131 4281174598
-0.0086782351 -0.0025902763 -0.048562266 4281239369
-0.0068448111 -0.0024496987 -0.04899345 4281435974
-0.0048165359 -0.0030639917 -0.048764259 4281369928
-0.0025854632 -0.0044325441 -0.047876555 4281304904
-0.0007439293 -0.0042909756 -0.048309367 4281370184
0.0013004132 -0.0049037039 -0.048083633 4281434953
0.0033500753 -0.0055158734 -0.047859099 4281238603
0.005613137 -0.006881468 -0.046978544 4281239113
0.0078868419 -0.0082461834 -0.046100363 4281369928
0.0097444318 -0.0081027672 -0.046536494 4281304394
0.011818051 -0.0087125748 -0.046317205 4281303883
0.014771696 -0.012334533 -0.043480296 4281500234
0.020850513 -0.026495822 -0.031492546 4281499979
0.027254164 -0.04140196 -0.018874878 4281499979
0.03285737 -0.053289488 -0.0088933408 4281695564
0.035564683 -0.055389807 -0.007410232 4282019413
-0.012866475 -0.010592788 -0.04307184 4281891148
-0.01193209 -0.0066608489 -0.046814289 4281826633
-0.0097177029 -0.0080355778 -0.045926269 4281435208
-0.0080605075 -0.0071365163 -0.047020569 4281108809
-0.0060246885 -0.0077525601 -0.046794895 4281304904
-0.0041780844 -0.0076108351 -0.047229074 4281434953
-0.0023314394 -0.0074690133 -0.047663189 4281369928
-0.00048474967 -0.0073270351 -0.048097201 4281370184
0.001767084 -0.0086981133 -0.047217485 4281369928
0.0038243681 -0.0093119144 -0.046996336 4281304649
0.005886972 -0.009925127 -0.046776384 4281239369
0.0079549104 -0.010537818 -0.046557598 4281435464
0.0098150037 -0.010394193 -0.046994299 4281304393
0.012106735 -0.011761576 -0.046123479 4281303883
0.015282998 -0.016149506 -0.042642586 4281499979
0.021365747 -0.030351862 -0.030686853 4281369164
0.027549312 -0.044546306 -0.018754687 4281369164
0.032248668 -0.053449556 -0.011404678 4281564238
0.03494988 -0.055556849 -0.0099250823 4282476118
-0.012644783 -0.013646595 -0.042862117 4281758039
-0.011704229 -0.0097033605 -0.046597809 4281696583
-0.0096715353 -0.010322049 -0.046373207 4281303883
-0.0080116279 -0.009420611 -0.047466513 4281238603
-0.0061652325 -0.009279035 -0.04790074 4281239369
-0.0043187812 -0.0091373399 -0.048334893 4281369929
-0.0026693307 -0.0082363561 -0.049425475 4281435209
-0.00042605028 -0.0096125528 -0.0485471 4281500743
0.0018278845 -0.010987878 -0.047671102 4281435463
0.0040924624 -0.012362212 -0.046797551 4281501254
0.0061600171 -0.012977228 -0.046580404 4281500234
0.0082329027 -0.013591692 -0.046364404 4281369418
0.010524079 -0.014963642 -0.045496773 4281631304
0.013041485 -0.017092355 -0.043979466 4281500743
0.016229641 -0.021492437 -0.040511187 4281434699
0.022100696 -0.034978122 -0.029239589 4281434699
0.027620103 -0.046941943 -0.019290864 4281433933
0.032093264 -0.055114418 -0.012610145 4281563729
-0.012604792 -0.015946314 -0.043317199 4281692248
-0.011293557 -0.013516754 -0.045729451 4281630283
-0.009439487 -0.01337485 -0.046165682 4281434699
-0.0077742375 -0.012470797 -0.047258656 4281108043
-0.0059226863 -0.012328841 -0.047694113 4281108043
-0.0038768873 -0.012948364 -0.047473907 4281434954
-0.0018257424 -0.013567343 -0.047254924 4281631049
0.00043024495 -0.014946923 -0.046382807 4281696329
0.0033033267 -0.018608525 -0.043552093 4281435208
0.005793374 -0.020746432 -0.042033605 4281632069
0.0085068196 -0.023643538 -0.039866343 4281696838
0.01082129 -0.025018111 -0.039007589 4281564494
0.013571911 -0.027912095 -0.036848877 4281499724
0.016128361 -0.030044369 -0.035345592 4281761354
0.01891879 -0.032935016 -0.03319601 4281630794
0.023496184 -0.041900203 -0.025856914 4281499979
0.027913891 -0.050101057 -0.019181285 4281629008
0.031485833 -0.055260658 -0.015111525 4282149719
-0.012565162 -0.018250123 -0.043775246 4281692503
-0.01106745 -0.016578384 -0.045526884 4281630540
-0.0090221986 -0.01720047 -0.045308523 4281369164
-0.0067828819 -0.018586256 -0.044436112 4281369673
-0.0047242343 -0.01920706 -0.044220697 4281435208
-0.0024662465 -0.020591125 -0.043352537 4281630029
0.00019568577 -0.023501404 -0.041180104 4281760078
0.0030781701 -0.027173303 -0.038359877 4282152523
0.0059872307 -0.030843005 -0.035545796 4282348618
0.0087182485 -0.033747606 -0.033389308 4282675019
0.011470519 -0.036650412 -0.031237712 4282804304
-0.011262234 -0.025926985 -0.0396479 4281821278
-0.0095598809 -0.02501604 -0.040746484 4281889873
-0.007119447 -0.027171686 -0.0392268 4281825868
-0.0048515201 -0.02855961 -0.038364436 4281761098
-0.0027640536 -0.029180363 -0.038157433 4281761864
-0.00047743693 -0.030566618 -0.03729922 4282608974
-0.0076899566 -0.03503079 -0.034687929 4281953114
-0.0050354861 -0.037959576 -0.032527208 4282346833
-0.0027362816 -0.039349474 -0.031675421 4282739789
-0.012000017 -0.035316356 0.026738036 4282340459
-0.011822235 -0.038454987 0.026896954 4282274668
-0.011645202 -0.041602083 0.027049661 4282143344
-0.011634476 -0.044028811 0.026507795 4281881204
-0.011769284 -0.034399629 0.017082144 4282798438
0.043633819 -0.052389041 0.025882859 4282731628
-0.011789463 -0.045728475 0.025276046 4281946738
-0.011249747 -0.03899432 0.018616192 4282536554
-0.011944406 -0.047427833 0.02404451 4282340460
-0.010731757 -0.043606214 0.020137701 4281881459
-0.012429196 -0.047655873 0.02144577 4282602088
-0.011053406 -0.044559002 0.018231306 4281946483
-0.011374582 -0.045507081 0.016328331 4282141558
-0.011212368 -0.037242234 0.0083599053 4281750134
-0.011695314 -0.046450444 0.014428761 4282861933
-0.01068436 -0.041859031 0.0098748542 4281946738
-0.024479132 -0.046826228 0.014035404 4282732138
-0.01234965 -0.045905322 0.011175968 4282797419
-0.011006255 -0.042784683 0.007988872 4282273649
-0.011062559 -0.033733785 -0.00060957484 4282143599
-0.022916902 -0.046856403 0.010986052 4282797928
-0.012669079 -0.046834864 0.0092863999 4283190374
-0.011158232 -0.044449523 0.0067824107 4282338928
-0.010695916 -0.037603289 0.00022944622 4281881459
-0.011479441 -0.045367986 0.0049016774 4282535788
-0.010502346 -0.040739819 0.00038531981 4281554039
-0.010652974 -0.042388678 -0.00080953352 4280832134
-0.011624679 -0.029523194 -0.012696994 4281750898
-0.010803558 -0.044037208 -0.0020041484 4281684344
-0.010726966 -0.035634711 -0.0098441523 4281881458
-0.011125423 -0.044933014 -0.0038676485 4282339183
-0.010527518 -0.038763367 -0.0096840691 4281881204
-0.011446852 -0.045824051 -0.0057277717 4282534769
-0.010155044 -0.042654894 -0.0088632358 4281487483
-0.010651615 -0.042776048 -0.011378235 4281946483
-0.011324055 -0.031279236 -0.021812392 4281881969
-0.01149407 -0.041370526 -0.015214062 4282208623
-0.011646196 -0.032117531 -0.023632592 4281619319
-0.012334898 -0.039947122 -0.019036947 4282470253
-0.012319554 -0.03142944 -0.026772389 4281028993
-0.012719423 -0.021394819 -0.035815775 4281753193
-0.012816034 -0.031490952 -0.029242517 4280963458
-0.012862213 -0.022953838 -0.036945418 4281424753
-0.013666064 -0.038577624 -0.025326034 4282404718
-0.013136271 -0.032308526 -0.031047789 4281028739
-0.012826897 -0.02527757 -0.037417173 4281095804
-0.01328085 -0.033888884 -0.032192938 4281159044
-0.012258328 -0.029906988 -0.035923574 4280767108
-0.012725312 -0.038547292 -0.030717308 4282141558
-0.011513662 -0.035323031 -0.033787973 4280897923
-0.009782169 -0.034407794 -0.034891866 4281030778
0.0020276047 0.018634751 0.068308309 4285099049
0.0031509958 0.022034757 0.064110905 4285689374
0.0050030984 0.02283977 0.062888883 4285754654
0.0081901737 0.019108109 0.066859648 4285820189
-0.012123875 0.022503801 0.062512457 4285885213
-0.0099273883 0.022007108 0.062780753 4285885213
-0.0073801465 0.020207487 0.064536691 4285819933
-0.0046415068 0.017757691 0.06703268 4285492769
-0.0027711876 0.018566016 0.065807812 4285361954
-0.0014478751 0.021327257 0.062356539 4285427744
-0.000145711 0.024086937 0.05891028 4285558814
0.0013212077 0.026194394 0.056210339 4285623839
0.0035266727 0.025698788 0.056476913 4285557794
0.0061200634 0.023903199 0.058222294 4285689118
0.010086913 0.01755847 0.065139897 4285754909
-0.016816381 0.022472996 0.060009331 4285427488
-0.015127163 0.023936428 0.058045022 4285558558
-0.013615515 0.026053429 0.05533915 4285557793
-0.011270814 0.024898708 0.056354329 4285623329
-0.0089153163 0.023744922 0.057366975 4285754908
-0.0061988458 0.021284603 0.059861548 4285689628
-0.0043496788 0.02209346 0.058643274 4285624093
-0.0028665103 0.02420859 0.055944338 4285624349
-0.0013991632 0.02632254 0.053249225 4285886998
5.2329153e-05 0.028435372 0.050557852 4285952533
0.0024299212 0.027283669 0.051565588 4285820699
0.0052003674 0.024827871 0.054047756 4285755419
0.0087670423 0.019764714 0.059476234 4285886744
0.013750978 0.010140471 0.070055082 4285886743
-0.017455079 0.02276586 0.056562409 4285493533
-0.015937757 0.024889771 0.053860076 4285952534
-0.014269307 0.026355986 0.051904008 4285820699
-0.012272201 0.026508842 0.051434129 4285820954
-0.009758275 0.024693463 0.053187907 4285952278
-0.0072282143 0.022879343 0.054937981 4285755163
-0.0052146874 0.023033664 0.054464392 4285624093
-0.0041020401 0.026465561 0.050294094 4285624093
-0.0021015443 0.026618998 0.049823657 4285624093
-0.00047196075 0.028082699 0.047877088 4285755418
0.0020880029 0.026271239 0.049620323 4285820953
0.0042823516 0.025770444 0.049886174 4285755418
0.0076431632 0.02134322 0.054568142 4285624093
0.011825982 0.014301855 0.062183693 4285558558
-0.018092487 0.023072187 0.053125232 4285427234
-0.016582608 0.025202028 0.050429612 4285624603
-0.014755119 0.026013326 0.049219437 4285755419
-0.012763415 0.026165731 0.048750803 4285755418
-0.010599524 0.025659855 0.049021825 4285689884
-0.0079061128 0.023180179 0.051508531 4285624093
-0.0060780086 0.023991749 0.050298452 4285624093
-0.004435055 0.02546069 0.048351906 4285689884
-0.0024372935 0.0256139 0.047882095 4285624349
-0.00043942407 0.025767185 0.047412314 4285624094
0.0017465465 0.025263444 0.047678411 4285623839
0.003747303 0.025417097 0.047208056 4285689628
0.0065213703 0.022944037 0.049676195 4285689629
0.01010067 0.017846741 0.055075325 4285689629
0.016106103 0.0048774257 0.069264852 4285689629
-0.018083882 0.020746589 0.052659892 4285361443
-0.016898502 0.024205521 0.048488617 4285559068
-0.014907036 0.024357803 0.048019961 4285624349
-0.013084587 0.025170885 0.046812676 4285623839
-0.011095468 0.025323126 0.046344668 4285623838
-0.0087572262 0.02415476 0.047351487 4285689628
-0.0064082257 0.022987328 0.048355788 4285689629
-0.0044080205 0.02314062 0.047885329 4285624093
-0.0024076961 0.023293998 0.047414899 4285624348
-0.00022213161 0.022787943 0.047679365 4285624093
0.0014055446 0.024260283 0.045739837 4285755418
0.003022667 0.025731925 0.043802805 4286018324
0.0055947565 0.023908284 0.045533419 4285886744
0.0089659467 0.019451145 0.050189868 4285886489
0.014160221 0.009070538 0.061423428 4285886489
-0.017753642 0.017089631 0.053669348 4285164074
-0.016886637 0.02188687 0.04802762 4285493534
-0.015391503 0.024028786 0.045345306 4285624603
-0.013743192 0.025506567 0.043403834 4285821208
-0.011933755 0.026320927 0.042201251 4285952279
-0.0092581101 0.023822211 0.044678926 4286018069
-0.0067379698 0.02198755 0.046416461 4285952278
-0.00438134 0.020816345 0.047415689 4285689629
-0.0025607012 0.0216318 0.046210721 4285624349
-0.00074524432 0.022446945 0.045007035 4285689629
0.00031470135 0.025907844 0.04087396 4285755419
0.0021090992 0.026721507 0.039675325 4285689119
0.0042840429 0.026212644 0.039940797 4285557794
0.007637728 0.021738809 0.044589743 4285689373
0.011821624 0.014625065 0.052150682 4285755164
0.018474638 -0.00041007251 0.068452321 4285689373
-0.016875103 0.019564059 0.047563516 4285493534
-0.015708987 0.023043443 0.043413252 4285624859
-0.014400523 0.025855754 0.040004693 4285754909
-0.012770355 0.027336612 0.038070772 4285492003
-0.010280322 0.025492951 0.039810359 4285689373
-0.0074207298 0.022321511 0.043013327 4285754908
-0.0047137849 0.019816533 0.045477137 4285755164
-0.0030777305 0.021298096 0.043542087 4285624349
-0.0014522113 0.022778966 0.041609526 4285624349
-0.00039931759 0.026250277 0.037486341 4285952788
0.0011971816 0.027729027 0.035560768 4285886744
0.0033611916 0.027217094 0.03582713 4285820699
0.0061166771 0.024716288 0.038279857 4285755163
0.010081585 0.018239718 0.045098968 4285886744
0.015303815 0.0077910721 0.056273215 4285886743
-0.017353613 0.019240383 0.044891074 4285362208
-0.016689543 0.024733059 0.038546678 4285821208
-0.015225116 0.02688577 0.035881471 4285755673
-0.013434064 0.027703006 0.034686502 4285755164
-0.010778833 0.025185108 0.037155744 4285755418
-0.008102186 0.022668924 0.039619997 4285887254
-0.0055833347 0.020821035 0.041347899 4285624348
-0.0041394457 0.022972509 0.038687855 4285558814
-0.0023424067 0.023790609 0.037491705 4285558813
-0.0011120625 0.026606195 0.034108486 4285558813
0.00066659227 0.027422987 0.032916814 4285755929
0.0026325062 0.027573932 0.032454636 4285755673
0.0051839501 0.025728963 0.034175262 4285690394
0.0083448589 0.021889959 0.038073029 4285624604
0.01274058 0.014063932 0.04632137 4285493278
0.020044012 -0.0030630603 0.064714655 4285493278
-0.01750518 0.017585777 0.043692179 4285230118
-0.017170973 0.024435665 0.03589483 4285559323
-0.015879698 0.027264122 0.032503437 4285756183
-0.014096498 0.028082911 0.031311937 4285887254
-0.011797477 0.026893854 0.032314692 4285887509
-0.0089587159 0.023698818 0.035506029 4285821974
-0.0066301785 0.022512209 0.036501899 4285558813
-0.0048357956 0.023332149 0.035307992 4285558813
-0.0030466095 0.024151772 0.034115367 4285558814
-0.0012626462 0.024971116 0.032923978 4285493023
0.00051611662 0.025790099 0.031733919 4285558814
0.0024819337 0.025941014 0.031271745 4285558814
0.0050326772 0.024089389 0.032987576 4285558814
0.0077970587 0.021571752 0.035425056 4285427233
0.011584122 0.015720177 0.041481227 4285493279
0.01805714 0.0012023821 0.056939587 4285558814
-0.017819505 0.016603585 0.041761555 4285230119
-0.017651502 0.024147298 0.033249576 4285493534
-0.016196683 0.026312362 0.030596461 4285493278
-0.014416039 0.027133115 0.029407185 4285492768
-0.011946719 0.025268022 0.031136736 4285492769
-0.0094613135 0.023404274 0.032862522 4285493278
-0.0073173791 0.022883769 0.033128317 4285559069
-0.0051679797 0.022363711 0.033392932 4285559069
-0.0033813603 0.023185354 0.032202497 4285559324
-0.0014131814 0.023336269 0.03173963 4285559068
0.00055510551 0.023487281 0.031276803 4285493023
0.002715569 0.022968393 0.03153906 4285624349
0.005270917 0.021110561 0.033248805 4285624349
0.0076449104 0.019923534 0.034231134 4285624093
0.01122997 0.014721438 0.039549753 4285623838
0.017290315 0.0014930144 0.053528577 4285558304
-0.017470039 0.021171235 0.033529501 4285361953
-0.016177326 0.024017278 0.030150902 4285427743
-0.014223322 0.024166618 0.029691003 4285493024
-0.012095902 0.023642424 0.029958945 4285493024
-0.0097871162 0.022445384 0.03095277 4285690139
-0.0074675679 0.021249257 0.031944122 4285624348
-0.005318474 0.02072696 0.032207143 4285689883
-0.0031639487 0.020205203 0.032468904 4285624093
-0.0011905506 0.020356495 0.032004792 4285689628
0.00078295544 0.020507891 0.031540722 4285689884
0.0029484294 0.019987214 0.031800088 4285689628
0.0053138621 0.018795043 0.032781061 4285624093
0.0078871921 0.016932074 0.034481682 4285558814
0.011475846 0.011712652 0.039786302 4285361443
0.017739831 -0.0022308603 0.054452755 4285361443
-0.017124224 0.017510146 0.034531288 4285559068
-0.015655093 0.019689392 0.031884644 4285690393
-0.013690554 0.019839495 0.031422235 4285755419
-0.011898916 0.020665485 0.03023367 4285755163
-0.0099367462 0.02081557 0.029771939 4285689628
-0.0077960789 0.020290364 0.03003516 4285689884
-0.0054689087 0.019090444 0.031021509 4285755419
-0.0033146888 0.018566445 0.031281676 4285755674
-0.0011550449 0.018042941 0.031540621 4285755673
0.00082102418 0.018194508 0.031075936 4285755674
0.0029888488 0.01767179 0.031333081 4285689883
0.0055507533 0.015801225 0.033031415 4285624348
0.0081287026 0.013931978 0.034726042 4285558304
0.011920601 0.0080215111 0.040736549 4285426979
0.018188173 -0.0059677735 0.055367544 4285426979
-0.016614679 0.013157435 0.036250088 4285163308
-0.015469488 0.016700875 0.032154072 4285689884
-0.013499726 0.016851339 0.031690408 4285689628
-0.012048382 0.019035943 0.029052995 4285689883
-0.010086317 0.01918599 0.028591264 4285624349
-0.0079459473 0.018658545 0.028852895 4285624349
-0.005800128 0.018131595 0.029113304 4285558558
-0.003648866 0.017605107 0.029372539 4285624349
-0.0016783327 0.017756142 0.028909072 4285624349
0.00066991895 0.016553711 0.029887285 4285624093
0.0032203831 0.014675587 0.031583291 4285689884
0.0057868846 0.01279882 0.033275541 4285558813
0.0081726499 0.011599492 0.034245178 4285558813
0.011965264 0.005669333 0.040240675 4285493533
0.018635331 -0.0097176954 0.056272909 4285493023
-0.016930059 0.012191415 0.034331929 4285229098
-0.015619289 0.015065037 0.030968767 4285755418
-0.013819635 0.015895914 0.029781457 4285755419
-0.012197789 0.017406646 0.027872492 4285624348
-0.010411132 0.018236656 0.026688404 4285558813
-0.0080957711 0.017026965 0.02767079 4285493534
-0.0061308816 0.017177362 0.0272085 4285493278
-0.0041658878 0.017327871 0.026746258 4285624859
-0.002014827 0.016799282 0.027003895 4285559069
0.00070747361 0.014234196 0.029418044 4285559069
0.0032598786 0.012349632 0.031108636 4285559069
0.005634401 0.011144977 0.032077495 4285559324
0.0082162358 0.0092628449 0.033761304 4285559068
0.012208804 0.0026348308 0.040458523 4285493789
0.018879388 -0.012802593 0.056452729 4285493278
-0.017244998 0.011230107 0.032417104 4285295143
-0.016103305 0.014795128 0.028338332 4285624349
-0.014139079 0.014945108 0.027875919 4285558814
-0.012174696 0.015095193 0.027413536 4285624604
-0.010210179 0.015245367 0.026951183 4285428253
-0.0080677718 0.014713634 0.027208995 4285362974
-0.0061003268 0.01486421 0.026746083 4285297439
-0.0043158606 0.01569647 0.025564335 4285362973
-0.0021651164 0.015165642 0.025820386 4285428764
0.00017946213 0.013954088 0.026792895 4285362974
0.0027258396 0.012062449 0.028479945 4285297694
0.0049008019 0.011533741 0.028730497 4285232669
0.007473927 0.0096443817 0.030411351 4285166623
0.011655416 0.0023132414 0.037809633 4285166369
0.018517576 -0.013855569 0.054482833 4285230883
-0.017887991 0.011643879 0.029062372 4285427744
-0.016753364 0.01521929 0.024993472 4285624858
-0.014627632 0.014683794 0.025253341 4285428253
-0.012324192 0.01346419 0.026231769 4285428508
-0.010534678 0.014298756 0.025050275 4285297183
-0.0083952397 0.013764571 0.025307115 4285231138
-0.0066107847 0.014598917 0.024126936 4285165858
-0.0042829029 0.013381541 0.025099881 4284970019
-0.0021298006 0.012848623 0.025353752 4285035553
0.00021691248 0.011632871 0.026322406 4285036574
0.0023834966 0.01110122 0.0265732 4285036574
-0.016901974 0.013595246 0.023816675 4285101344
0.005631879 0.007971108 0.011708267 4285165603
0.0085873157 0.0046431795 0.014765587 4285296164
0.012989918 -0.0035505667 0.022735618 4285295654
0.01951229 -0.018691383 0.037711456 4285361444
-0.0001895763 0.005202055 0.012616783 4284904228
0.0015747063 0.0060505569 0.01145307 4285166369
0.0031390116 0.0075969473 0.0095877461 4285297184
0.004692737 0.0091426522 0.0077249277 4285820444
0.0072362646 0.0071985051 0.0093733482 4285885979
0.011012167 0.0010699555 0.015224673 4285885979
0.016889833 -0.012028985 0.028069567 4285754908
0.0239088 -0.028606087 0.04439006 4285754908
-0.016153231 0.0030859932 0.014416087 4284903463
-0.014712397 0.0053417087 0.01183527 4285166113
-0.013114106 0.0068942979 0.0099645667 4285427998
-0.011526294 0.0084461421 0.0080964603 4285755674
-0.0095917955 0.0085939765 0.0076411348 4285951514
-0.0071134083 0.0066375732 0.009299349 4285885979
-0.0046189576 0.0046824664 0.010953903 4285623839
-0.0022950284 0.0034297258 0.011901513 4285493789
-0.00033885986 0.003579624 0.011441398 4285493788
0.0014255084 0.0044303015 0.010279298 4285559324
0.0024064369 0.0080824196 0.0063130409 4285624349
0.0039524958 0.0096318647 0.0044553559 4285492258
0.0064872988 0.0076805055 0.0061008353 4285557793
0.010050736 0.002231285 0.011240184 4285755164
0.015093043 -0.0081118718 0.021261744 4285689373
0.0214622 -0.022645317 0.035454199 4285689373
-0.015965704 5.6914985e-05 0.01465448 4285165093
-0.014859948 0.0037285835 0.010666367 4285427998
-0.013261382 0.0052855462 0.0087988749 4285558814
-0.011849031 0.0075458288 0.0062298235 4285623838
-0.0099173039 0.0076934323 0.0057751425 4285688864
-0.0072612576 0.0050265342 0.0081321057 4285886743
-0.0049512461 0.0037682354 0.0090796128 4285689883
-0.0030032657 0.0039173812 0.0086213276 4285624349
-0.00086615607 0.0033636093 0.0088641308 4285559069
0.0010846592 0.0035131797 0.0084053352 4285624603
0.0022581704 0.006473437 0.0051474702 4285953043
0.0034104921 0.0094321892 0.0018946659 4285689373
0.0057395957 0.0081759691 0.0028381441 4285623584
0.0088886619 0.0041125864 0.0065707862 4285820954
0.013094582 -0.0034574121 0.013782445 4285820953
0.019020118 -0.016635738 0.026553672 4285821209
0.026098186 -0.033313237 0.042781413 4285689628
-0.016281661 -0.00086002797 0.012773365 4285164074
-0.015518136 0.0042357892 0.0073862132 4285427488
-0.013927244 0.0057964846 0.0055238493 4285821463
-0.012522396 0.0080627725 0.0029614326 4285623838
-0.010598768 0.0082097352 0.0025086422 4285689374
-0.0081324577 0.0062392056 0.0041598473 4285689628
-0.0058336258 0.0049756914 0.0051066335 4285755928
-0.0037102289 0.0044185519 0.0053509232 4285624348
-0.0017702542 0.0045671761 0.0048945937 4285558813
0.00016980991 0.004715912 0.0044383202 4285624349
0.0013333745 0.0076841563 0.0011893567 4285755929
0.003262952 0.0078323036 0.00073570944 4285886999
0.0053920634 0.0072760805 0.00097909383 4285821209
0.0083350055 0.0039034709 0.0040064957 4285755928
0.011714131 -0.00087501109 0.0084190816 4285624603
0.016582541 -0.010577336 0.017688446 4285559068
0.023626337 -0.027310006 0.033884775 4285559068
0.029734021 -0.040515691 0.046582192 4285559069
-0.016597144 -0.0017722249 0.010895602 4285032493
-0.016175058 0.0047565252 0.0041158516 4285493534
-0.014764532 0.0070296377 0.0015569776 4285887254
-0.01336984 0.0093016922 -0.00099813752 4285952533
-0.011278961 0.0087395608 -0.00074808113 4285886999
-0.009002015 0.0074698254 0.00020051934 4285821719
-0.0065310299 0.0054932162 0.0018457118 4285624348
-0.0044159256 0.0049332008 0.0020903461 4285558813
-0.0024840496 0.0050811842 0.0016359072 4285559068
-0.00074338168 0.0059365705 0.00048427843 4285624349
0.001186002 0.0060845912 3.0593947e-05 4285558558
0.0031154528 0.0062327087 -0.00042303838 4285558559
0.005244229 0.0056742653 -0.00018122979 4285623839
0.0073783696 0.0051163808 5.9356913e-05 4285558303
0.010131601 0.0024403036 0.0023810454 4285624349
0.014356736 -0.0051762015 0.0095520504 4285559068
0.021368917 -0.02196382 0.025716349 4285624604
0.028083628 -0.03733027 0.040466338 4285493789
-0.016577836 -0.0041023791 0.010423783 4284900913
-0.016491059 0.0038685575 0.0022565201 4285493534
-0.015255202 0.0068589523 -0.0009969566 4285559069
-0.013690185 0.00842648 -0.0028466061 4285624348
-0.011780094 0.0085723549 -0.0032962505 4285624094
-0.0096894465 0.0080081075 -0.0030477177 4285624350
-0.0070440583 0.0053141415 -0.00070789643 4285624349
-0.0045630671 0.0033317804 0.00093012117 4285624349
-0.0026313253 0.0034797415 0.00047570281 4285558558
-0.0010816604 0.0050467551 -0.0013699178 4285624348
0.00084493682 0.0051945522 -0.0018229559 4285624604
0.0029679909 0.0046333969 -0.0015815832 4285624348
0.0048973784 0.0047816113 -0.0020351242 4285689884
0.0066251047 0.0056385621 -0.003181709 4285886999
0.0089606829 0.0043698996 -0.0022494737 4285886998
0.012756109 -0.0018554255 0.003523415 4285821209
0.018905923 -0.015865251 0.016888816 4285886234
0.026223786 -0.033405878 0.033682443 4285820444
0.031954579 -0.045275234 0.044924974 4285623583
-0.016297713 0.00084540248 0.0024976656 4285296419
-0.015228145 0.0045580715 -0.0014490467 4285427998
-0.013835151 0.0068430677 -0.003993934 4285624348
-0.012102786 0.0077015981 -0.0051406939 4285624093
-0.010195371 0.0078473762 -0.0055896323 4285689629
-0.0075562224 0.0051441714 -0.0032549258 4285689629
-0.0050812997 0.0031548068 -0.0016204659 4285689628
-0.0025903359 0.0011667237 1.0335818e-05 4285624348
-0.0010377392 0.0027383491 -0.0018326808 4285624348
0.00089138001 0.0028863028 -0.0022863355 4285558813
0.0024281926 0.0044568777 -0.0041254405 4285690139
0.0043521263 0.0046046451 -0.0045777187 4285755164
0.0056715943 0.006885089 -0.0071045067 4285755418
0.0079960003 0.0056111813 -0.0061729383 4285689373
0.011365179 0.00078609586 -0.0017924551 4285951768
0.01665693 -0.010428146 0.0087862462 4286017559
0.023730841 -0.027315892 0.024857242 4285951514
0.030287953 -0.042064182 0.038833134 4285754398
-0.015373543 0.0029683933 -0.0026009604 4285362463
-0.014154803 0.0059750453 -0.0058372188 4285690139
-0.01242502 0.0068355873 -0.0069817789 4285755673
-0.010700442 0.0076957941 -0.008124996 4285952533
-0.0082502551 0.0056978017 -0.006489696 4285952533
-0.0055986643 0.002986908 -0.0041644145 4286083859
-0.0033017769 0.0017058998 -0.0032301992 4285755419
-0.0015662052 0.0025673583 -0.0043756943 4285624349
-2.9187649e-05 0.004142195 -0.0062116589 4285558813
0.001693245 0.0050029308 -0.0073539298 4285689883
0.0032117926 0.0065765753 -0.0091853794 4285755164
0.0051223673 0.0067234263 -0.009634437 4285492258
0.0070329867 0.006870389 -0.010083416 4285492258
0.01018336 0.0027416721 -0.0064002573 4285689118
0.014621325 -0.0056591034 0.0014038477 4285754653
0.021030476 -0.020464845 0.015379906 4285624094
0.027980454 -0.036685936 0.030703466 4285624094
0.033749212 -0.048626594 0.041881323 4285492769
-0.015175123 -5.595386e-05 -0.0023622755 4285230374
-0.014474005 0.0051117465 -0.0076771444 4285559068
-0.012923989 0.006691277 -0.0095133828 4285624094
-0.011384498 0.0082701296 -0.011347062 4285557793
-0.0093080252 0.0076982677 -0.011100094 4285623328
-0.0066706575 0.0049775168 -0.0087780505 4285820953
-0.0043875948 0.0036910549 -0.0078438874 4285624093
-0.0024747588 0.00383766 -0.0082937945 4285624093
-0.0011412427 0.0061319321 -0.010814296 4285558813
0.00056798384 0.006993793 -0.011951778 4285690394
0.0022719651 0.0078553408 -0.013087954 4285953043
0.0039706752 0.0087166131 -0.014222803 4285755674
0.0062753893 0.0074324757 -0.013293231 4285690139
0.0090036094 0.0047195628 -0.010991899 4285756183
0.012798484 -0.001564756 -0.0052631777 4285821973
0.017911581 -0.012131825 0.0045694076 4285624604
0.025033906 -0.029120661 0.020550266 4285493024
0.032283809 -0.046099558 0.0365013 4285493024
-0.015835848 0.00050963461 -0.0055978224 4285033003
-0.015315738 0.0064115301 -0.011592573 4285625113
-0.013776086 0.0079946816 -0.013423144 4285755673
-0.012246948 0.0095770806 -0.015251115 4285558303
-0.0099991336 0.0082833171 -0.014312116 4285624094
-0.007740587 0.0069904625 -0.013375511 4285755673
-0.0054713413 0.0056985617 -0.012441387 4285755929
-0.0035719238 0.0058441013 -0.012888163 4285558813
-0.0022512116 0.0081439614 -0.015400721 4285558814
-0.00016402826 0.0075712353 -0.015157465 4285493278
0.0011355579 0.0098696798 -0.017664902 4285624859
0.0032228455 0.0092972293 -0.017421544 4285624859
0.0053154975 0.0087253004 -0.017179372 4285625114
0.0080321357 0.0060027614 -0.014881883 4285559324
0.011187818 0.0018482655 -0.011219562 4285362208
0.015433013 -0.0058867484 -0.0041434802 4285427998
0.022521069 -0.022930682 0.011806011 4285427743
0.0303872 -0.042113326 0.029774632 4285427743
0.035104387 -0.050544545 0.037474107 4285164074
-0.015981704 0.0070075765 -0.0148037 4285427999
-0.014803313 0.010037422 -0.018010711 4285690649
-0.012928292 0.01018066 -0.018452073 4285756439
-0.010688983 0.0088818669 -0.01751437 4285756694
-0.0082541928 0.0068630949 -0.015890175 4285559579
-0.0061782077 0.0062870234 -0.01564623 4285493789
-0.0040968172 0.0057114363 -0.015403427 4285559324
-0.0027809516 0.0080174655 -0.017909937 4285493788
-0.0010901801 0.0088822618 -0.019039806 4285493788
0.00059531629 0.0097467899 -0.020168412 4285427998
0.0024762638 0.0098913386 -0.020610522 4285428255
0.0047639683 0.0085971057 -0.019683482 4285362718
0.0070623234 0.007303834 -0.018758914 4284904483
-0.016646393 0.0076171234 -0.018005051 4285296674
-0.015298709 0.0099314228 -0.020514581 4285559069
-0.013249896 0.0093507543 -0.020266132 4285427743
-0.01101378 0.0080473274 -0.019330967 4285296418
