# .PCD v0.7 - Point Cloud Data file format
VERSION 0.7
FIELDS x y z rgba
SIZE 4 4 4 4
TYPE F F F U
COUNT 1 1 1 1
WIDTH 971
HEIGHT 1
VIEWPOINT 0 0 0 1 0 0 0
POINTS 971
DATA ascii
-0.031885207 0.011747614 0.022415992 4280590138
-0.030212425 0.013302393 0.020589039 4280785468
-0.028682947 0.015567459 0.018055975 4281567809
-0.026491903 0.014278103 0.019065402 4281438013
-0.024151847 0.012279056 0.020779891 4281243194
-0.021936439 0.010991558 0.021784298 4280917814
-0.019853689 0.010415003 0.022080434 4281113399
-0.01791162 0.010548897 0.021669893 4281047354
-0.015820574 0.009973146 0.021964377 4281049393
-0.013724048 0.0093978718 0.022257783 4284708134
-0.045142852 -0.006624572 0.040194787 4281694033
-0.04347866 -0.0043446273 0.03763748 4280977994
-0.041941516 -0.0013511404 0.034372307 4280849219
-0.040653393 0.0030696616 0.029690258 4281240388
-0.039047226 0.0053459182 0.027145464 4281111104
-0.037337579 0.00690718 0.025313701 4281045823
-0.035638407 0.0084678605 0.023484185 4280980799
-0.033949725 0.010027871 0.021657011 4280981053
-0.032526113 0.013014145 0.01841631 4280785724
-0.030993722 0.015285809 0.015887478 4280069174
-0.029079273 0.015417289 0.015482387 4280785724
-0.027029343 0.014835965 0.015783565 4281047354
-0.02455999 0.01211708 0.018200539 4280266288
-0.022491053 0.011537291 0.0184978 4281049649
-0.020273313 0.010245673 0.019498473 4281702449
-0.018190719 0.009667024 0.019792994 4282880294
-0.04517179 -0.008976385 0.039702229 4281825869
-0.043396063 -0.0074066594 0.03785947 4281566024
-0.04174187 -0.0051208138 0.03530927 4281305414
-0.040103495 -0.0028359368 0.032762498 4281110084
-0.038713753 0.00088062882 0.028802074 4281110339
-0.037112296 0.0031631663 0.026263263 4281175618
-0.035526641 0.0054446608 0.02372792 4281176384
-0.033956826 0.0077252164 0.021195956 4281306434
-0.032657042 0.011435993 0.017254855 4281175874
-0.031254008 0.014429633 0.014025167 4280654653
-0.029474795 0.015276138 0.012915494 4280329528
-0.027295396 0.013977196 0.013920732 4280526898
-0.024829559 0.011249319 0.016331822 4280852789
-0.022623114 0.0099523887 0.017331531 4281374518
-0.020405874 0.0086563528 0.018328989 4282619684
-0.018469401 0.008789815 0.017919587 4284643108
-0.044884264 -0.013490126 0.041334242 4281695308
-0.043422379 -0.0097580552 0.037366539 4281305159
-0.041765101 -0.0074655041 0.034820609 4281435719
-0.040123604 -0.0051739141 0.032278106 4281240644
-0.038381658 -0.0036019012 0.030445978 4281175618
-0.036650181 -0.0020304993 0.028616145 4281306434
-0.035050765 0.00025846809 0.026082762 4281175874
-0.033467174 0.0025464669 0.023552813 4281110849
-0.032153249 0.006269075 0.019616948 4281045058
-0.030995466 0.010707594 0.014982689 4281176128
-0.029604994 0.013709139 0.011762302 4280784958
-0.027561016 0.013123043 0.012061361 4281047099
-0.025236309 0.011103235 0.013764158 4281308983
-0.023176 0.010518454 0.014059903 4282946084
-0.021110192 0.0099341422 0.014354553 4284642853
-0.044598095 -0.018021107 0.04295354 4281823318
-0.043340907 -0.012834832 0.037577577 4281435719
-0.041788608 -0.0098142847 0.034328919 4281305923
-0.040030621 -0.008236967 0.032496579 4281436994
-0.038399182 -0.0059394762 0.029961202 4281435974
-0.036664769 -0.0043635592 0.028134029 4281436484
-0.034819447 -0.00350862 0.02701332 4281436484
-0.032979272 -0.0026539117 0.025893725 4281371204
-0.031524472 0.00036054105 0.022666158 4281305158
-0.03022027 0.0040934607 0.018740673 4280979523
-0.0289426 0.0078246444 0.014820872 4281241918
-0.027287178 0.0093957409 0.013010861 4281765434
-0.025367424 0.0095276907 0.012604728 4282814248
0.020034026 0.0010158718 0.014698207 4284318494
0.022396186 -0.00027666241 0.015660189 4281831223
0.023559723 0.0027206019 0.012496393 4280523839
0.022863843 0.012148149 0.0031568557 4282151249
-0.041149057 -0.016506933 0.03806325 4280980033
-0.039825052 -0.012031563 0.033413097 4281566533
-0.03830108 -0.0090040937 0.030177154 4281502274
-0.036561117 -0.0074234232 0.02835203 4281501764
-0.034710392 -0.0065659806 0.027231798 4281501254
-0.032864809 -0.0057087988 0.026112728 4281500998
-0.0312775 -0.0034074262 0.023591928 4281305923
-0.029835276 -0.00038505346 0.020373683 4281240389
-0.028282337 0.0019140914 0.017860329 4281240644
-0.026879795 0.0049339533 0.014650639 4281308474
-0.025361232 0.0072309896 0.012144681 4284379184
0.014252527 0.0055902228 0.0081500206 4284512038
0.016192721 0.0057258084 0.007741252 4282812974
0.018132923 0.0058615133 0.0073325718 4281700408
0.019079674 0.0095833018 0.0034928974 4279813408
0.019395608 0.015454322 -0.0023980062 4280857379
-0.037972204 -0.013527386 0.031791016 4281433424
-0.03657648 -0.0097668543 0.027862251 4281369673
-0.03496512 -0.007457599 0.025341164 4281434954
-0.032998435 -0.0073229894 0.024924669 4281566533
-0.03128434 -0.0057394728 0.023108525 4281435974
-0.029451676 -0.0048808232 0.021993976 4281632579
-0.027887635 -0.0025743619 0.019483168 4281567298
-0.026473828 0.0004549101 0.016277712 4281632834
0.013546124 0.0061592609 0.004921197 4283009579
0.015091836 0.0077338219 0.0031426679 4281962804
0.016431047 0.010027282 0.00068135932 4281504059
0.016960194 0.015197314 -0.004514968 4281831478
-0.036001138 -0.015749998 0.030869097 4281825359
-0.034856841 -0.010525323 0.02555199 4281434188
-0.033008471 -0.0096636489 0.024435591 4281631559
-0.03141769 -0.0073490515 0.021923894 4281500998
-0.029584959 -0.0064882338 0.020810967 4281567043
-0.028020501 -0.0041752383 0.018305 4281698368
-0.026337661 -0.0025892779 0.016499031 4281828928
0.010916993 0.0066074505 0.0021076398 4283074858
0.012460254 0.0081860423 0.00033288077 4281831988
0.013220929 0.012651868 -0.0041760653 4281308729
0.013753923 0.017837271 -0.0093616806 4280529194
0.014844466 0.020855464 -0.012490376 4283331133
-0.034507826 -0.015059799 0.027152076 4281432659
-0.032895453 -0.012737326 0.024640657 4281500233
-0.031172886 -0.011144631 0.022829315 4281172303
-0.029332109 -0.010281123 0.021716302 4281435463
-0.027890593 -0.0072326586 0.018518014 4281631814
-0.026202187 -0.0056419373 0.016714107 4281829184
0.0079357848 0.0085197315 -0.0020677694 4283533604
0.01003357 0.0079284906 -0.001786795 4282027318
0.010996018 0.011683717 -0.0056052729 4281373243
0.011546195 0.016885448 -0.010783045 4281309493
0.012058973 0.02208472 -0.015952898 4284510509
-0.029465817 -0.011894509 0.020528879 4281367889
-0.027892523 -0.0095679015 0.018030897 4281368653
-0.026201218 -0.0079727024 0.016229695 4281894209
-0.024110883 -0.0085687563 0.016508983 4283397179
0.0053473189 0.0090020746 -0.0048661698 4283664674
0.0070648864 0.0098615363 -0.0059497599 4281312553
0.0089644045 0.0099940673 -0.0063501224 4280920109
0.0099142902 0.013759278 -0.010157716 4281113654
0.010067057 0.020428091 -0.016683187 4284183344
-0.027894758 -0.011907235 0.017540762 4281105494
-0.026200563 -0.010307513 0.015742224 4281763138
-0.024244212 -0.010173194 0.015328236 4283788858
0.0034926012 0.0065812394 -0.0049295933 4282420528
0.0046703145 0.0096309632 -0.0080573801 4281767729
0.0060111061 0.01195024 -0.010499615 4279290404
0.0080841966 0.011352919 -0.010216748 4280396594
0.0094036832 0.013670899 -0.012654275 4280271133
0.0011038966 0.0063516498 -0.0070380908 4284253214
0.0030030161 0.0064837858 -0.0074386452 4281504824
0.0041759908 0.0095418766 -0.010558834 4281047354
0.0058803 0.010404773 -0.011636337 4281306943
0.0079530627 0.0098052546 -0.011355044 4281502783
0.0094625279 0.011398882 -0.013109496 4281702448
0.01076908 0.013722651 -0.015539305 4283399218
-0.022415832 -0.013983406 0.013240797 4284573239
-0.0016197041 0.0076004043 -0.01050215 4282484278
9.2517585e-05 0.008465685 -0.011579929 4281307709
0.0017994493 0.0093306825 -0.012656529 4280916539
0.0035010837 0.010195456 -0.013731895 4279938103
0.0051974095 0.011059999 -0.014806116 4280982328
0.0074485466 0.0097244158 -0.013847487 4281113144
0.009331651 0.0098558962 -0.014244316 4280925209
0.011214763 0.0099874809 -0.014641067 4284248114
-0.0014037378 0.0045806095 -0.01028332 4282287419
-0.0002136454 0.0076570511 -0.013394123 4281306433
0.0013121478 0.0092601106 -0.015145805 4280980034
0.0030084811 0.010126643 -0.016218441 4281046078
0.0048833676 0.010257341 -0.016613701 4280917304
0.0069448017 0.0096526667 -0.016333325 4280591923
0.0090116113 0.0090484545 -0.016053947 4281445663
0.011083774 0.0084447786 -0.015775643 4284313394
-0.0011884905 0.0015523955 -0.010070746 4282157114
0.00018319488 0.0038995519 -0.012499998 4281502528
0.0017172359 0.0055074841 -0.014250088 4281372224
0.0028786473 0.0085908547 -0.017348086 4281308984
0.0042024069 0.010934994 -0.019766917 4281307453
0.0064418353 0.0095899254 -0.018812461 4281505079
0.0086919665 0.0082457289 -0.017860176 4282094384
0.010952808 0.006902352 -0.016910017 4284379694
-0.002027072 -0.0053212717 -0.0060839094 4284509488
-0.0004555434 -0.0037065819 -0.0078388397 4282745654
0.00075443089 -0.00061137229 -0.010940657 4281697859
0.0022993758 0.0010016635 -0.012689763 4281239623
0.0032912642 0.0048346967 -0.016457032 4281304903
0.0046234354 0.0071859881 -0.01887274 4281895994
0.0064980686 0.0073167607 -0.019267874 4281700663
0.0091280006 0.0044890195 -0.016975716 4282420018
0.01120485 0.0038813278 -0.016701695 4284575279
-0.0019892789 -0.007634528 -0.0065648351 4284444463
-0.00041486323 -0.0060153231 -0.0083171017 4282549049
0.0011489429 -0.0043967515 -0.010066984 4281632579
0.0028800741 -0.0035213605 -0.011142083 4281566534
0.0040640421 -0.00041903555 -0.014231657 4281370184
0.0052266866 0.0026819184 -0.017316639 4281241663
0.0069258958 0.0035554394 -0.018384743 4281503038
0.0091856793 0.0022032037 -0.01744109 4282745653
0.011073563 0.0023351237 -0.017838847 4284443699
-0.0019518174 -0.0099518672 -0.0070487596 4284379183
-0.00054693967 -0.00758297 -0.0094702952 4282417979
0.0010170899 -0.0059600547 -0.01121694 4281435719
0.0029260181 -0.005827263 -0.011619585 4281566534
0.0046545677 -0.0049497858 -0.012692414 4281631303
0.0061946958 -0.0033281073 -0.014433779 4281435974
0.0077241845 -0.0017071143 -0.01617277 4281697348
0.0096199103 -0.0015747622 -0.016572263 4281631559
0.011133421 4.5403838e-05 -0.018307749 4281827908
0.012830064 0.00092127919 -0.019373391 4283986738
0.014521366 0.0017968714 -0.020437833 4284706093
-0.0019146986 -0.012273274 -0.0075356928 4284181559
-0.00067898631 -0.0091503337 -0.010623284 4282351679
0.0010601729 -0.0082701892 -0.011696896 4281369928
0.0027940534 -0.0073902756 -0.012769291 4281434954
0.0048831291 -0.0080041438 -0.012503175 4281566533
0.0064288303 -0.0063777938 -0.014242385 4281566533
0.0083350651 -0.0062448457 -0.014644198 4281567299
0.009676531 -0.0038731098 -0.017046856 4281435463
0.011192944 -0.0022484288 -0.018779613 4281370184
0.01269868 -0.00062434375 -0.020510074 4281829439
0.014390023 0.00025343895 -0.021572866 4282681393
0.00092820078 -0.0098350719 -0.012848018 4281564493
0.0026621073 -0.0089529976 -0.013918785 4281369418
0.0045707896 -0.008820124 -0.014321296 4281371204
0.0062967762 -0.0079383552 -0.015390217 4281436738
0.008202862 -0.0078053921 -0.015791971 4281239879
0.0097328126 -0.0061755106 -0.017524432 4281044038
0.011252113 -0.0045462996 -0.019254511 4281043018
0.012954168 -0.003665708 -0.020318002 4280977483
0.014454793 -0.0020375177 -0.022044014 4281108809
0.016143503 -0.0011576265 -0.023104511 4281109829
0.017625453 0.00046948344 -0.024826344 4282416193
0.019504894 0.00060141832 -0.025221858 4284444208
0.0027074069 -0.011266731 -0.014402052 4280974933
0.0044387318 -0.010382555 -0.01547054 4281174599
0.0061647482 -0.0094986111 -0.016537812 4281175109
0.0077002347 -0.0078641102 -0.018268228 4280978758
0.009600848 -0.0077314451 -0.018668775 4280978503
0.011310931 -0.006848231 -0.019732403 4280978248
0.013015695 -0.005965285 -0.020794818 4280913223
0.014519211 -0.0043325499 -0.022518147 4280912204
0.016210634 -0.0034502819 -0.023577563 4281108299
0.017695474 -0.001818642 -0.02529672 4281697094
0.019781342 -0.0024359822 -0.025032384 4281959998
0.021872532 -0.0030528232 -0.024769075 4283791409
0.024178294 -0.0044182763 -0.023847483 4284573749
0.0062151179 -0.011811681 -0.017021915 4280449888
0.0075684488 -0.0094197169 -0.019412376 4280977229
0.0094689205 -0.009287037 -0.019812874 4280978248
0.011179041 -0.0084016621 -0.020874867 4281175109
0.012883831 -0.007516548 -0.021935647 4281174088
0.014387574 -0.0058794394 -0.023655724 4281239624
0.016079031 -0.0049950033 -0.024713505 4281370694
0.017765144 -0.0041108206 -0.02577007 4281435973
0.020260796 -0.0062334761 -0.024190277 4281371458
0.023185225 -0.0098577663 -0.021297324 4281763393
0.02613632 -0.013480075 -0.0184099 4282675018
0.027420245 -0.011091717 -0.020784786 4283000908
0.0078064129 -0.01248531 -0.019234046 4280909399
0.0097120628 -0.01235228 -0.01963564 4280911439
0.011617746 -0.012219101 -0.020037133 4281304903
0.013137713 -0.010576643 -0.021757431 4281305158
0.014451493 -0.0081804618 -0.024134193 4281435719
0.01594745 -0.0065394342 -0.025849234 4281566279
0.018035326 -0.0071610883 -0.025588702 4281631814
0.02073914 -0.010043733 -0.023357641 4281369928
0.024289105 -0.015939362 -0.018504515 4281697093
0.028090624 -0.022585265 -0.013004208 4282153798
0.030459356 -0.023954801 -0.012102393 4282673998
0.031553477 -0.020805068 -0.015132275 4283000399
0.012815367 -0.019077115 -0.01657534 4281302608
0.013583552 -0.01440198 -0.020927561 4281565768
0.014710398 -0.011242077 -0.023958443 4281632324
0.016211919 -0.0095963702 -0.025671333 4281633088
0.018304795 -0.01021985 -0.025413496 4281697859
0.021216396 -0.013866879 -0.022534391 4281763139
0.02497874 -0.020535201 -0.017040744 4281762884
0.029623846 -0.03022258 -0.0089393016 4282021964
0.033492889 -0.036883153 -0.0034679123 4282476628
0.015183231 -0.022793762 -0.016169835 4281691993
0.01613953 -0.018864714 -0.019854963 4281956429
0.017069139 -0.014937408 -0.023534376 4281567043
0.01877404 -0.014045402 -0.024589963 4281763649
0.021692561 -0.017702781 -0.021720536 4281698369
0.025872732 -0.02590622 -0.014936203 4281893699
0.030737095 -0.036378875 -0.006205576 4282089284
0.019307988 -0.025625259 -0.016838899 4283001163
0.020243708 -0.021686539 -0.020511277 4281894209
0.022979518 -0.024592988 -0.018306687 4281633598
0.027381813 -0.03357935 -0.010892073 4281502783
0.028887935 -0.041287132 -0.006873413 4282346834
-0.034521729 -0.017417513 0.026651092 4280113289
-0.033029452 -0.014357209 0.023448385 4279001489
-0.034535922 -0.019779347 0.026147131 4280046734
-0.033163376 -0.015976809 0.022256315 4278736289
-0.03144034 -0.014375426 0.02045143 4279457683
-0.03491085 -0.019938149 0.023561366 4279391129
-0.033542864 -0.01612509 0.019679794 4278604708
-0.031573966 -0.015990369 0.019262802 4278997919
-0.029733062 -0.015120424 0.018154638 4279587733
-0.027897306 -0.014250688 0.01704767 4279457173
-0.026200213 -0.012646392 0.015251756 4280836979
-0.034925111 -0.022301532 0.023056176 4279063198
-0.033431061 -0.01921507 0.019872822 4278866594
-0.031707555 -0.017605029 0.018074382 4278866594
-0.029866591 -0.016732894 0.016967855 4279129499
-0.02803079 -0.015861012 0.015862504 4278867103
-0.026200168 -0.014989339 0.014758278 4279785359
-0.024238758 -0.014854737 0.014343176 4281489523
-0.034939662 -0.024669029 0.022548012 4279325084
-0.033442348 -0.021573685 0.019370543 4278669734
-0.031590849 -0.020698763 0.018263271 4278932129
-0.029744506 -0.019824125 0.017157234 4278997409
-0.028033763 -0.018210389 0.015364952 4279063198
-0.026333563 -0.016597226 0.013574939 4279194268
-0.024372287 -0.016462646 0.013159852 4279325338
-0.022549316 -0.015589163 0.012059094 4280308619
-0.020449303 -0.016193129 0.01232983 4281816178
-0.034476109 -0.030009583 0.024789132 4279849109
-0.033087149 -0.026162542 0.020927783 4279062434
-0.031474799 -0.023800962 0.018446002 4278669479
-0.029623076 -0.02292382 0.017340446 4278931874
-0.028037079 -0.020563841 0.014864404 4278735269
-0.02620101 -0.019687511 0.013762351 4278669479
-0.024370149 -0.018811457 0.012661455 4278931874
-0.022682756 -0.017194621 0.010877606 4279521689
-0.021005876 -0.015578449 0.0090961028 4279784083
-0.019195937 -0.014703438 0.0079998635 4281947249
-0.032367073 -0.033001371 0.02453002 4281159809
-0.031109907 -0.028399773 0.019993145 4278932383
-0.029629745 -0.025288053 0.016832609 4278800803
-0.02804067 -0.022921331 0.01436086 4278669733
-0.026201904 -0.022042714 0.013259841 4278866339
-0.024232909 -0.021907635 0.012843089 4278931874
-0.02267804 -0.019542925 0.010378843 4278997919
-0.020998284 -0.01792223 0.0086000115 4279194524
-0.019329056 -0.016302086 0.0068234513 4279128989
-0.017670367 -0.014682584 0.0050492631 4279521944
-0.015873481 -0.013806134 0.0039576348 4281488248
-0.030621842 -0.03376203 0.022211351 4281356923
-0.029254995 -0.029894583 0.018371297 4279915409
-0.02778475 -0.026774742 0.015219528 4278866849
-0.025805384 -0.026639096 0.014800472 4278866339
-0.02409634 -0.02501224 0.013018506 4278931874
-0.022535726 -0.02264069 0.010558005 4279325339
-0.020991005 -0.020270072 0.0081009138 4279128733
-0.019318886 -0.018645428 0.0063270805 4278997408
-0.017657313 -0.01702138 0.0045555113 4278997408
-0.015857715 -0.016142577 0.0034649437 4279652759
-0.014063325 -0.015264004 0.0023755739 4279849874
-0.028627522 -0.036014818 0.021260422 4282208623
-0.027140692 -0.032885171 0.01811171 4281750133
-0.025542639 -0.0305048 0.015648024 4280636039
-0.023960434 -0.028125323 0.013187762 4279390108
-0.022531837 -0.024999298 0.010051647 4279127713
-0.020843625 -0.02336935 0.008277595 4278932129
-0.019309022 -0.020992815 0.0058276551 4278735524
-0.017498825 -0.02011124 0.0047364002 4278801059
-0.015990663 -0.017736286 0.0022922317 4278866594
-0.014196251 -0.01685556 0.0012044879 4279259804
-0.012253311 -0.016721502 0.00079383608 4279718294
-0.010310274 -0.01658731 0.00038326811 4280569994
-0.0085262172 -0.015706941 -0.00070201466 4282405993
-0.023690335 -0.031996749 0.014029028 4280765578
-0.022390701 -0.028111711 0.01021995 4280045459
-0.02097737 -0.024977989 0.0070937825 4278997663
-0.019299492 -0.023344271 0.0053252345 4278408359
-0.017632145 -0.021711193 0.0035590576 4278801568
-0.01597536 -0.020078667 0.0017951643 4278997664
-0.014178243 -0.019195609 0.00070847664 4278932129
-0.012386341 -0.018312775 -0.00037700776 4279521689
-0.010755911 -0.016681708 -0.0021350537 4279783829
-0.0089771599 -0.015799545 -0.0032175747 4279914898
-0.0073652156 -0.014169566 -0.0049714972 4280308363
-0.02252499 -0.02972874 0.0090299156 4281943933
-0.021111079 -0.026586331 0.0059101861 4279652759
-0.019432977 -0.024948239 0.0041448912 4278669989
-0.017910793 -0.022559427 0.0017075231 4279062943
-0.016108412 -0.021673948 0.00062128063 4278866339
-0.01431125 -0.020788714 -0.00046376605 4278866339
-0.012519319 -0.019903734 -0.0015476244 4278866339
-0.010888673 -0.018268317 -0.0033024373 4279194014
-0.0089511797 -0.018134415 -0.0037117684 4278997153
-0.0073363483 -0.016499899 -0.0054630125 4278800803
-0.0054040104 -0.016366109 -0.0058710696 4279260059
-0.0036383197 -0.015482329 -0.0069489186 4280112269
-0.0018778965 -0.014598779 -0.0080255615 4280310659
-0.017608266 -0.026417218 0.002550574 4279979669
-0.016093571 -0.024022289 0.00011982303 4279324573
-0.014293712 -0.023134716 -0.00096416241 4278931619
-0.012499075 -0.022247374 -0.0020469474 4278931618
-0.010865536 -0.020607464 -0.0037990371 4279128223
-0.0089255162 -0.020473406 -0.0042089233 4278997408
-0.0071466193 -0.019586742 -0.0052881474 4278407593
-0.0053729638 -0.018700354 -0.0063661197 4279194523
-0.0036045685 -0.017814226 -0.0074429074 4279128988
-0.0021798611 -0.015424535 -0.0098539116 4279063963
-0.00059921294 -0.01378756 -0.011594281 4279392403
-0.015783694 -0.027885795 0.00095660798 4281747328
-0.013975788 -0.026995502 -0.00012743287 4279455644
-0.01232614 -0.025350221 -0.0018797866 4279127713
-0.010375697 -0.025215574 -0.0022919714 4279193248
-0.0085835047 -0.024325989 -0.0033724061 4278866083
-0.0069575682 -0.022682041 -0.0051194327 4278735524
-0.0056696013 -0.019529797 -0.0081985937 4279194524
-0.0039038472 -0.018641688 -0.0092731835 4279128733
-0.0024814047 -0.016245633 -0.01167876 4279128733
-0.00055983663 -0.016112238 -0.012084275 4279325593
0.00066434592 -0.012963928 -0.015149599 4279458704
0.0027523749 -0.013584517 -0.014888305 4279457684
-0.012001064 -0.029218912 -0.0010509398 4281879418
-0.010198262 -0.028326571 -0.0021320861 4279586968
-0.0084007047 -0.027434461 -0.0032120286 4279062944
-0.0069300644 -0.025028951 -0.0056231483 4278933148
-0.0054753497 -0.022624418 -0.0080308104 4279128989
-0.0037042201 -0.021733753 -0.0091048824 4278997918
-0.0024448819 -0.018574566 -0.012171236 4278998429
-0.00052079931 -0.018441007 -0.012577289 4278867359
0.00070663914 -0.015283786 -0.015636716 4278998428
0.0026201531 -0.015150703 -0.016040348 4278539684
0.0043542087 -0.014261983 -0.017106121 4278999194
0.0060829669 -0.013373516 -0.01817069 4279787654
-0.010021534 -0.031445973 -0.0019784663 4281288839
-0.0085345693 -0.029032983 -0.004388148 4279914389
-0.0070635304 -0.026620947 -0.0067944243 4279260313
-0.0056084245 -0.024209879 -0.0091972398 4279063453
-0.003671281 -0.024075657 -0.0096062394 4279063198
-0.0020713732 -0.022424459 -0.011340906 4278997663
-0.00013943762 -0.022290364 -0.011748624 4279128733
0.0010965876 -0.01912386 -0.014803284 4278604709
0.0026646405 -0.01747451 -0.016530957 4278538918
0.004222054 -0.015825704 -0.01825631 4278867103
0.006314829 -0.016450062 -0.01799912 4278999449
0.0085976534 -0.017831288 -0.017083433 4279131029
-0.0067155622 -0.030496158 -0.0059765559 4282468723
-0.0052520521 -0.028077997 -0.0083762053 4281027719
-0.0036386624 -0.026421644 -0.010110533 4279652503
-0.0020358935 -0.024765871 -0.011842569 4278997408
-0.0004437156 -0.023110762 -0.013572229 4278472873
0.001137834 -0.021456204 -0.015299593 4278538918
0.0027087703 -0.01980231 -0.017024577 4278735524
0.0042690672 -0.018148966 -0.018747255 4278866594
0.0063641891 -0.018775381 -0.018492162 4278801314
0.009018112 -0.021679796 -0.016264431 4278801824
0.011880562 -0.025341861 -0.013383767 4279588244
0.014200252 -0.02672454 -0.012478979 4280964989
-0.003440775 -0.029534653 -0.0099576358 4280700044
-0.0020007342 -0.027111366 -0.012347223 4279456154
-0.00023473054 -0.026214339 -0.013415111 4279062688
0.0011787564 -0.023792662 -0.015798846 4278866594
0.0027525611 -0.022134192 -0.017521195 4278735524
0.0043157488 -0.020476356 -0.019241158 4278801314
0.0064131878 -0.021104746 -0.018988244 4279194523
0.0092531815 -0.024779372 -0.016111176 4279063963
0.012493808 -0.02997499 -0.011928191 4279391638
0.015392564 -0.03364531 -0.0090632681 4280439688
0.0173565 -0.033507936 -0.0094769429 4281095293
0.00014433265 -0.030091129 -0.012606641 4280962439
0.0015662089 -0.027662329 -0.014987266 4280110739
0.0029721297 -0.025234602 -0.017364407 4278997153
0.0045408607 -0.023572005 -0.019082285 4278735524
0.0064618513 -0.023438163 -0.01948731 4278997919
0.0093034282 -0.027123533 -0.016618798 4278998173
0.012732066 -0.033097968 -0.011793425 4279653269
0.016203411 -0.039069295 -0.00697695 4280766599
0.019141108 -0.042747565 -0.0041283919 4281094783
0.0024723522 -0.033845238 -0.012219099 4281878398
0.0037187561 -0.03064324 -0.015249519 4279586969
0.0047652647 -0.026676126 -0.018929584 4278931873
0.0068726949 -0.027308129 -0.01868205 4278801824
0.0097211972 -0.031003885 -0.015823228 4278932638
0.01334279 -0.037761077 -0.01035983 4280111758
0.016823165 -0.043749146 -0.0055584116 4281095038
0.019770442 -0.047437593 -0.0027201022 4281684854
0.0058809929 -0.033631638 -0.015520083 4282143853
0.0074635297 -0.031959333 -0.017234178 4279457428
0.010321628 -0.035665236 -0.014385583 4279326104
0.013765644 -0.041673265 -0.0095897941 4280439943
0.017063297 -0.04691039 -0.0054532248 4282209643
0.011104152 -0.041114174 -0.012310709 4281750899
0.014373641 -0.046368517 -0.0081798313 4281946739
-0.0091380626 -0.043346062 -0.022768684 4282667113
-0.0055566728 0.0061700419 0.033043753 4284971804
-0.0037388504 0.0070095435 0.031918526 4285296418
-0.00093367696 0.0036362708 0.035033241 4285624094
0.0029069111 -0.0039463192 0.042377595 4285754399
-0.0068124272 0.0094767883 0.026905943 4285362464
-0.0051758066 0.011021569 0.025080949 4285755419
-0.0030540563 0.010452941 0.02537274 4285820444
8.0641359e-05 0.0056603029 0.029889047 4285885979
0.0039352104 -0.0019452721 0.037212383 4285820443
-0.009694282 0.011265993 0.02261108 4285428254
-0.0080655403 0.012814477 0.02079097 4285690903
-0.0064473972 0.014362365 0.018973129 4285558304
-0.0041795895 0.013083734 0.019970516 4285492259
-0.0015655532 0.010393448 0.022370949 4285558048
0.0017515868 0.0048803389 0.027575336 4285689373
0.0051115714 -0.00062967837 0.03277076 4285624348
0.0085144006 -0.0061366409 0.037957225 4285493278
-0.011930425 0.010241851 0.021142399 4285297439
-0.010455742 0.012504019 0.018621583 4285493789
-0.0088374577 0.014056113 0.016806964 4285821719
-0.0070675388 0.014898755 0.015696822 4285821719
-0.0048082545 0.013615187 0.016692648 4285821464
-0.0022030845 0.01091551 0.019088376 4285755673
0.00076398253 0.0068008676 0.022880582 4285755929
0.0035903081 0.0033966526 0.025966182 4285624604
0.0060923174 0.0014102161 0.027647525 4285493789
0.0086104274 -0.00057499856 0.029325556 4285427743
0.011325523 -0.0032664761 0.031698447 4285427489
0.014796419 -0.0087858289 0.036857568 4285098539
-0.016251311 0.0098008215 0.019383071 4285296673
-0.014463104 0.010646485 0.018270398 4285558558
-0.012680098 0.011491887 0.017158894 4285689629
-0.010902334 0.012337022 0.016048575 4285558559
-0.0092891455 0.013893154 0.014238285 4285624349
-0.0073625036 0.014026564 0.013831438 4285624349
-0.004941687 0.012027524 0.015524639 4285690139
-0.0025047474 0.010029696 0.017214512 4285624348
0.00011833757 0.0073226765 0.019599874 4285624349
0.0024174787 0.0060377643 0.020584246 4285624349
0.004727371 0.0047537461 0.021566385 4285624603
0.0065138638 0.0056003258 0.020454859 4285624348
0.0082950704 0.0064466223 0.019344514 4285886489
0.010987975 0.0037449449 0.021715591 4285820443
0.015004814 -0.0039206594 0.028950568 4285885979
0.032454282 0.01897417 0.0032371758 4285426724
0.034373425 0.019109324 0.0028336318 4285689373
0.038527474 0.012177229 0.0093062129 4285754653
-0.016829733 0.010351658 0.016106723 4285689884
-0.015049476 0.011198923 0.014997354 4285886488
-0.013274454 0.012045965 0.013889125 4286017558
-0.010878667 0.010038339 0.015582414 4285821464
-0.0091034062 0.010885552 0.01447433 4285624348
-0.0071715452 0.011019312 0.014066372 4285558814
-0.0049105734 0.0097271129 0.015055215 4285559069
-0.0024716444 0.0077228695 0.016739698 4285558814
-0.00018645078 0.0064325556 0.017723577 4285558813
0.0017644651 0.0065680668 0.017311918 4285558814
0.0035402551 0.0074159428 0.016204199 4285624348
0.0054886341 0.0075514689 0.015793229 4285690138
0.0068954378 0.0098229051 0.013297327 4285623838
0.0093855523 0.0078228638 0.014971502 4285558049
0.012263514 0.0044009537 0.018030083 4285689119
0.016299609 -0.0032872185 0.025242951 4285820443
0.029108636 0.021521661 -0.001642934 4285427488
0.029703891 0.025911421 -0.0061658258 4285558559
0.031370204 0.02675344 -0.0072491341 4285558304
0.034594268 0.022632688 -0.0035293056 4285820189
0.040110152 0.011426851 0.007038191 4285820188
-0.019038901 0.0093502626 0.014648167 4285297438
-0.017258726 0.010199629 0.013540337 4285689884
-0.015634716 0.011764839 0.011734148 4285689119
-0.013713993 0.011897497 0.011328297 4285820953
-0.01116794 0.0091670901 0.013716323 4285821463
-0.0089183524 0.0078695342 0.014704101 4285690139
-0.0069812909 0.0080036148 0.014295017 4285558814
-0.0048797876 0.0074226037 0.014582761 4285559324
-0.0029398501 0.0075571015 0.014173239 4285559069
-0.00099983066 0.0076917186 0.013763783 4285558813
0.00094026327 0.0078264549 0.013354393 4285624349
0.0025304109 0.0093902573 0.011556068 4285690139
0.0042876117 0.010239132 0.010454001 4286018324
0.0058591589 0.011801891 0.0086597092 4285689628
0.0079691634 0.011222161 0.0089462623 4285492513
0.010455951 0.0092155039 0.010616222 4285624349
0.013523929 0.0050693527 0.014357947 4285755929
0.016624024 0.00092551857 0.018093035 4285493024
0.019562479 -0.0025027469 0.021130845 4285427489
0.026222393 0.022674318 -0.0051369416 4285361954
0.027039142 0.026365839 -0.0089652846 4285886743
0.028046906 0.029344041 -0.012102388 4285689373
0.029694557 0.030186974 -0.013180152 4285557539
0.032675542 0.026762865 -0.010150402 4285557794
0.037037954 0.019075107 -0.0030232496 4285623839
0.041230604 0.01210238 0.0034083631 4285755164
0.044783212 0.0072652027 0.0077807382 4285754909
-0.023587607 0.010378815 0.011498407 4285296929
-0.021670215 0.010510825 0.011092935 4285493789
-0.019752696 0.010642923 0.010687502 4285690903
-0.018131249 0.012212224 0.0088850167 4285558559
-0.016218796 0.012344189 0.0084808152 4285492513
-0.014306232 0.012476251 0.0080766622 4285624094
-0.011456799 0.0083005279 0.011853671 4285689884
-0.0090515837 0.0062805787 0.013535071 4285690138
-0.0069531798 0.0056970492 0.013821715 4285558813
-0.0051775947 0.0065488294 0.012717007 4285559069
-0.0035740882 0.0081175715 0.010918899 4285558813
-0.0019811839 0.0096857548 0.0091230888 4285558814
0.00011758134 0.0091026276 0.0094100237 4285558558
0.0016972721 0.010670103 0.0076171625 4285624093
0.0034438372 0.011520393 0.0065189749 4285689884
0.0050049312 0.013086788 0.0047301892 4285821464
0.0072867759 0.011787996 0.0057086051 4285821464
0.0095793381 0.010490112 0.0066848043 4285821973
0.012447193 0.0070457906 0.0097290631 4285559069
0.015150946 0.0043190196 0.012078268 4285362209
0.017682571 0.0023092255 0.013734104 4285231393
0.023778414 0.022417866 -0.0072511481 4285296419
0.024816265 0.025406748 -0.010388167 4285559068
0.026047621 0.027680315 -0.012836115 4285690138
0.02682771 0.031380307 -0.016648451 4285952788
0.028682334 0.031510957 -0.017038401 4285886743
0.031651575 0.028075103 -0.014014378 4285821208
0.035549872 0.021788802 -0.0082671391 4285821464
0.038811389 0.017644733 -0.0045747864 4285689884
0.041412037 0.015641332 -0.0029323786 4285558814
0.043327775 0.015776813 -0.003334777 4285493534
0.045243427 0.015912402 -0.0037370711 4285427743
0.048353806 0.012487136 -0.00074223801 4285361698
-0.023718603 0.008805722 0.010340802 4285362464
-0.021943934 0.0096588135 0.0092372429 4285559069
-0.020319715 0.011232503 0.0074374238 4285624859
-0.018706039 0.012805559 0.0056399116 4285821973
-0.016801722 0.012936935 0.0052374117 4285756184
-0.014590763 0.011627726 0.0062265471 4285821719
-0.012057111 0.0088790134 0.0086039677 4285821974
-0.0093433708 0.005411908 0.011671592 4285624604
-0.0072479546 0.004825972 0.011957208 4285558813
-0.0056389458 0.0063993484 0.01016116 4285624604
-0.0043737963 0.0094109848 0.0069814567 4285690139
-0.0027913563 0.010982759 0.005191125 4285755674
-0.00070358813 0.010396682 0.0054787304 4285689628
0.0013895743 0.0098111406 0.0057652313 4285624094
0.0031335205 0.010663435 0.0046692546 4285558303
0.0046921782 0.012233995 0.0028842781 4285558558
0.0066055283 0.012367278 0.0024808422 4285559069
0.0090749077 0.010346264 0.0041445848 4285493534
0.011748359 0.0076085404 0.006493479 4285493534
0.020312574 0.025754508 -0.012783546 4285427489
0.02197119 0.026602175 -0.013860615 4285624094
0.023836503 0.026733272 -0.014253043 4285624093
0.025272328 0.028296594 -0.01601105 4285624093
0.02626262 0.031291068 -0.019131292 4285624093
0.028111776 0.031421341 -0.019520082 4285689884
0.030851852 0.02868969 -0.017184151 4285690139
0.034289487 0.023813713 -0.012810868 4285624348
0.03753639 0.01965557 -0.0091253305 4285624349
0.039892223 0.018359587 -0.0081643695 4285558813
0.041091505 0.020638224 -0.0106001 4285624603
0.042038586 0.023630328 -0.013710671 4285624604
0.04391928 0.023763545 -0.014105543 4285820698
0.048214335 0.016755063 -0.0077280286 4285886234
0.055247981 0.0018965304 0.0060816826 4285886233
-0.023570076 0.0057860017 0.010577397 4285558048
-0.021932416 0.0073648468 0.0087779388 4285493024
-0.020450361 0.009666197 0.0062848795 4285493023
-0.018984206 0.011966556 0.0037952503 4285558813
-0.017233111 0.01282043 0.0026985789 4285624093
-0.015027963 0.011506408 0.0036856756 4285624349
-0.012656286 0.0094709247 0.0053641349 4285558813
-0.010110036 0.0067144483 0.0077323597 4285558813
-0.00786452 0.0054035261 0.0087111574 4285624603
-0.0060995333 0.0062589496 0.0076119211 4285690139
-0.004839126 0.0092789456 0.0044398047 4285952789
-0.0032617711 0.010854691 0.0026539043 4285886744
-0.001179684 0.010266066 0.0029409919 4285952788
0.0010822862 0.0089568421 0.0039167423 4285886998
0.0031778626 0.0083693787 0.0042011533 4285624604
0.0047394335 0.009944506 0.0024188664 4285559069
0.0066553168 0.010077961 0.0020148922 4285493789
0.0089415386 0.0087708458 0.0029858407 4285428253
0.017906252 0.025529828 -0.01488368 4285559068
0.019355772 0.027098157 -0.016641499 4285755164
0.021212962 0.027228571 -0.017032301 4285952278
0.02349386 0.025922235 -0.016059436 4286018579
0.024927258 0.027489752 -0.017813621 4285624093
0.02613271 0.029774725 -0.02024617 4285558559
0.028201621 0.029187135 -0.019954823 4285558813
0.030720938 0.027164605 -0.018305399 4285559068
0.03370668 0.023708295 -0.015301301 4285559068
0.036491171 0.020971306 -0.012981129 4285559068
0.038374677 0.021104425 -0.013376822 4285558813
0.03955837 0.023388505 -0.015804309 4285690139
0.040254127 0.027105022 -0.019581812 4285623839
0.041877419 0.027953498 -0.020648878 4285558049
0.044942804 0.024503458 -0.017661031 4285623329
0.049498353 0.016758308 -0.010628361 4285820443
0.055592146 0.0047214255 0.00043908227 4285885978
-0.023003578 0.00058082491 0.012893964 4285492258
-0.02149453 0.0028904006 0.010400085 4285689628
-0.020146288 0.0059242994 0.0072153462 4285821463
-0.018671691 0.0082317516 0.0047288705 4285558558
-0.017062761 0.0098132566 0.0029390063 4285559069
-0.015158594 0.0099446848 0.0025365911 4285624859
-0.013254307 0.010076232 0.0021342281 4285558814
-0.010875195 0.0080348179 0.0038062371 4285558814
-0.0089626871 0.0081671402 0.0034022983 4285624604
-0.0070500858 0.0082995892 0.0029984266 4285821464
-0.0054699108 0.0098797604 0.0012151282 4285623839
-0.0035624877 0.010012068 0.00081251375 4285492258
-0.001483392 0.009421058 0.0010985844 4285689628
0.00094967335 0.0073839873 0.0027597416 4285690139
0.0028679892 0.0075173676 0.0023550726 4285624348
0.004606735 0.0083738044 0.0012635216 4285493789
0.0067047775 0.0077845007 0.0015459731 4285493788
0.0086232349 0.0079182386 0.0011415351 4285625879
0.016315624 0.022429444 -0.014249618 4285296928
0.016961413 0.026887663 -0.018734038 4285624348
0.018606817 0.027738616 -0.019805055 4285623329
0.020455865 0.027868465 -0.020194137 4285755418
0.022939928 0.025836505 -0.01854256 4285952789
0.025011281 0.025246698 -0.018253535 4285689628
0.026870914 0.025377639 -0.018644582 4285558814
0.0287305 0.025508661 -0.019035559 4285558813
0.030812401 0.024919931 -0.018748496 4285559068
0.033124633 0.023611933 -0.017785069 4285559068
0.035219759 0.023024328 -0.017500643 4285559068
0.037089784 0.023156539 -0.017893471 4285558814
0.038260557 0.025446244 -0.020313295 4285821719
0.039179496 0.028453842 -0.023404777 4285887253
0.040792171 0.029303767 -0.024467949 4285623584
0.043363672 0.027279139 -0.022833867 4285558304
0.047169771 0.021663893 -0.01783587 4285492768
0.051264904 0.015333582 -0.012173809 4285624604
0.056404307 0.0061347857 -0.0038324133 4285559323
-0.022438854 -0.004645966 0.015194612 4285295908
-0.020916052 -0.0023289472 0.012702748 4285426468
-0.019409128 -1.2859702e-05 0.010214299 4285492258
-0.018212855 0.0037567988 0.0063451128 4285689884
-0.016743064 0.0060705468 0.0038646748 4285624349
-0.014831021 0.006202504 0.003460574 4285493023
-0.013229631 0.0077880397 0.0016757548 4285559069
-0.011480764 0.0086464137 0.00058308244 4285559069
-0.0098978765 0.010230921 -0.0011977125 4285624603
-0.0081621632 0.011088602 -0.0022874437 4285953299
-0.0062656403 0.011220023 -0.0026878547 4285689884
-0.0043690354 0.01135157 -0.0030881912 4285492769
-0.001958102 0.0093063116 -0.0014274106 4285624348
0.00012074411 0.0087132156 -0.0011428543 4285887508
0.0022049956 0.008120589 -0.00085936533 4285493278
0.004115209 0.0082535073 -0.0012622499 4285427999
0.0062075779 0.0076616853 -0.00098029198 4284969509
0.013525024 0.023662597 -0.01770784 4285427743
0.014980378 0.025239877 -0.019460488 4285755673
0.016221572 0.027539864 -0.021891017 4285689628
0.017652858 0.029115692 -0.023638422 4285492003
0.019699903 0.028521795 -0.023346089 4285557794
0.02238675 0.025759868 -0.021019068 4285689629
0.024880778 0.023722183 -0.019374456 4285689883
0.026957113 0.023130663 -0.019088041 4285624349
0.028599735 0.023984153 -0.020156406 4285558813
0.030459138 0.024115287 -0.020547245 4285559068
0.032318484 0.024246525 -0.02093799 4285559068
0.034177765 0.024377875 -0.021328639 4285624349
0.035806779 0.025230825 -0.022393821 4285558558
0.037197497 0.026804857 -0.024131896 4285624349
0.038341928 0.029099301 -0.026541106 4285821719
0.039946638 0.029950887 -0.027600992 4285887254
0.042268559 0.028639875 -0.026642404 4285821719
0.046062343 0.023006335 -0.021654952 4285821718
0.04989874 0.017375961 -0.016676413 4285624603
0.055022195 0.0081477612 -0.0083530936 4285493533
0.061724305 -0.0053953752 0.0039766729 4285427743
-0.022293441 -0.0077042654 0.015402865 4285230119
-0.020623036 -0.0061101392 0.013606289 4285295399
-0.019107692 -0.0037870184 0.011121018 4285426978
-0.017755445 -0.0007353574 0.0079486836 4285624093
-0.016124688 0.00085637718 0.006160737 4285623838
-0.014351957 0.00171832 0.0050644903 4285558303
-0.012739651 0.0033089519 0.003280648 4285558559
-0.011453688 0.0063564852 0.0001226617 4285558814
-0.010188993 0.0094026476 -0.0030307551 4285559069
-0.0087823384 0.011719085 -0.0054925065 4285624604
-0.0070598535 0.012578115 -0.0065777246 4285887763
-0.0050055087 0.011980899 -0.0062898267 4285887254
-0.0027745143 0.01065632 -0.0053175576 4286018834
-0.00035887212 0.0086050108 -0.0036626779 4285493278
0.0018962994 0.0072823092 -0.0026953504 4285427998
0.00398295 0.0066877902 -0.002413929 4285363738
0.010952853 0.024189051 -0.020477112 4285362464
0.012207832 0.026496377 -0.02290578 4285493278
0.013848018 0.027351096 -0.023972567 4285690393
0.015279571 0.028931137 -0.025716778 4285953044
0.016700411 0.030510578 -0.027458694 4285821208
0.018736465 0.029913694 -0.027165649 4285755673
0.021834349 0.025692225 -0.02348889 4285821718
0.024750287 0.022197951 -0.020495161 4285821719
0.02704295 0.020879596 -0.019534502 4285558814
0.028468981 0.02245992 -0.021277044 4285558814
0.029662274 0.024763875 -0.023692008 4285624349
0.031288818 0.025618628 -0.024755169 4285624349
0.033364605 0.025025338 -0.024469953 4285689884
0.035215676 0.025156222 -0.024858786 4285624093
0.036833987 0.026010718 -0.025919978 4285624093
0.038446873 0.026864935 -0.026979949 4285623838
0.040292345 0.026995737 -0.027367366 4285624348
0.042378403 0.02640371 -0.0270839 4285558558
0.046173219 0.020752847 -0.022109848 4285558813
0.050502703 0.013660006 -0.015805341 4285493534
0.056377664 0.0022368133 -0.0054973019 4285427999
-0.022287712 -0.010038763 0.014914297 4285164328
-0.020614415 -0.0084401146 0.013120379 4285361189
-0.018807307 -0.0075739697 0.012018247 4285426723
-0.017446451 -0.0045130178 0.0088506825 4285426723
-0.015657775 -0.0036479309 0.0077526048 4285426723
-0.01402666 -0.0020517707 0.0059679979 4285492259
-0.01225109 -0.0011873394 0.0048728744 4285360679
-0.01111155 0.0026006177 0.0010324391 4285492259
-0.0099986047 0.0063868091 -0.0028022476 4285493279
-0.0089122728 0.010171272 -0.0066312384 4285427743
-0.0073554367 0.01176285 -0.0083997287 4285493533
-0.0056408346 0.012623616 -0.0094815549 4285493789
-0.0032473207 0.010564111 -0.0078270566 4285493534
-0.00066398457 0.0077759773 -0.0054925983 4285362973
0.0015880056 0.0064487159 -0.0045278915 4285363993
0.011019155 0.021945581 -0.020912666 4285295144
0.011881709 0.025715917 -0.024693361 4285427234
0.01311842 0.02802854 -0.027113121 4285558813
0.014542183 0.029612437 -0.028852433 4285624859
0.016161036 0.030468069 -0.029912904 4285689884
0.018399859 0.029141266 -0.028944451 4285755674
0.021282701 0.025633678 -0.02595209 4285690139
0.024406025 0.02140101 -0.022290442 4285558558
0.026479049 0.020804923 -0.02200662 4285558814
0.027461709 0.023842555 -0.025092144 4285558813
0.028201148 0.027605228 -0.028846182 4285690139
0.029811718 0.028461054 -0.02990433 4285886489
0.032098308 0.027138367 -0.028945347 4285952278
0.034625344 0.025090616 -0.02731706 4286018324
0.036935829 0.023769848 -0.026362933 4285755418
0.039021753 0.023175444 -0.026081234 4285624093
0.040637285 0.024032138 -0.027140023 4285559068
0.042968877 0.02271314 -0.026190044 4285559068
0.046770047 0.017045379 -0.021230543 4285559069
0.052088875 0.0070322081 -0.012271525 4285427999
0.05872491 -0.0065984502 9.4249845e-06 4285427999
-0.022421122 -0.011642948 0.013733771 4285098284
-0.020464614 -0.011508442 0.013319882 4285294888
-0.018940434 -0.0091716424 0.01084258 4285426724
-0.017285321 -0.0075697079 0.0090560131 4285426468
-0.015491258 -0.0067020878 0.0079584345 4285426724
-0.013550248 -0.006568186 0.0075481739 4285360933
-0.011918806 -0.0049675182 0.005766822 4285294633
-0.010455441 -0.0026344061 0.0033028284 4285360423
-0.0094885491 0.0018966049 -0.0012110705 4285426469
-0.0082279071 0.0049599931 -0.0043503745 4285624604
-0.0069885366 0.0080220029 -0.0074850977 4285559579
-0.0052658767 0.0088854805 -0.0085669905 4285493788
-0.0033776164 0.0090165362 -0.0089655071 4285428253
-0.00096869469 0.006951645 -0.0073190709 4285298203
0.011669822 0.017506421 -0.019319879 4285492003
0.012543857 0.02128844 -0.023094745 4285624094
0.013391178 0.025068708 -0.026863888 4285690138
0.014617607 0.027387302 -0.029276498 4285558814
0.016444772 0.027515538 -0.029661037 4285558813
0.01868844 0.026184682 -0.028696854 4285559069
0.021364629 0.023395907 -0.026387371 4285493278
0.02406214 0.02060879 -0.024082329 4285558814
0.025915897 0.020739339 -0.024472125 4285493534
0.026893849 0.023785308 -0.027550008 4285624604
0.02762875 0.027558554 -0.031294845 4285689883
0.029009741 0.029144667 -0.033021197 4285623328
0.031287823 0.027817003 -0.032063674 4285623584
0.034035761 0.0250341 -0.029768728 4285952534
0.037037294 0.02152488 -0.026808895 4285886743
0.039360553 0.020200744 -0.025860608 4285689884
0.041694392 0.018877514 -0.024914498 4285624349
0.044519439 0.016100448 -0.02263538 4285493534
0.049066614 0.0082350671 -0.01569155 4285493533
0.054409355 -0.0018068627 -0.0067606224 4285493534
0.060571689 -0.014023609 0.0041523762 4285427744
-0.020456791 -0.013848744 0.012826361 4285097773
-0.018785574 -0.01224149 0.011039583 4285295399
-0.016978238 -0.011370875 0.0099407099 4285361444
-0.015325446 -0.0097646639 0.0081580002 4285361189
-0.013531219 -0.008894749 0.0070621166 4285426468
-0.011587564 -0.0087605715 0.006651368 4285426469
-0.0099584609 -0.0071556196 0.0048738774 4285360423
-0.008979924 -0.0026108027 0.00036743749 4285361189
-0.0077080019 0.00046204776 -0.0027676588 4285427233
-0.0064573511 0.0035335496 -0.005898173 4285492768
-0.0047239661 0.0043999404 -0.0069806846 4285493024
-0.0031665266 0.0060004666 -0.0087425588 4285230119
0.012124311 0.013782762 -0.018415244 4285426724
0.013204537 0.016843766 -0.021508779 4285558048
0.014263393 0.019903369 -0.02459774 4285623838
0.015503608 0.02222947 -0.027008289 4285624348
0.017138589 0.023090594 -0.028068852 4285558559
0.01876821 0.023951449 -0.029128201 4285427488
0.020813949 0.02334889 -0.028842086 4285493534
0.022651585 0.023478195 -0.029228577 4285559324
0.024489183 0.023607623 -0.029614968 4285559324
0.025670474 0.0259302 -0.032012574 4285624603
0.026614256 0.028982621 -0.035076644 4285755673
0.028208898 0.029841725 -0.036128175 4285557794
0.030478463 0.028509121 -0.03517215 4285492258
0.033446953 0.024986587 -0.032213695 4285623839
0.036674179 0.020735979 -0.028593114 4285689884
0.039463811 0.017947517 -0.026313303 4285624348
0.042512167 0.014430977 -0.023371356 4285558814
0.046307489 0.0087278932 -0.018437017 4285493534
0.051116589 0.00011063367 -0.010849937 4285361954
0.056480579 -0.0099602193 -0.0019465275 4285031983
0.061422922 -0.018567741 0.00561273 4285097773
-0.016965125 -0.013708413 0.0094479583 4284901169
-0.015309442 -0.012097634 0.0076678786 4285295398
-0.013512503 -0.01122538 0.0065730531 4285360933
-0.011720795 -0.010353372 0.0054794196 4285426723
-0.010091476 -0.0087440535 0.0037051775 4285426724
-0.008632537 -0.0063981041 0.0012520831 4285426723
-0.0071895234 -0.0040530935 -0.0011975984 4285426978
-0.0057624541 -0.0017090663 -0.0036438326 4285426978
-0.004015673 -0.00083958358 -0.0047275303 4285426978
-0.0027856454 0.0022393987 -0.0078469357 4285230373
0.012577694 0.010046296 -0.017520091 4285426978
0.013863754 0.012381859 -0.019935481 4285492514
0.015333639 0.013981927 -0.021674696 4285558304
0.016792852 0.015581325 -0.023411529 4285624093
0.018036142 0.01791428 -0.025817696 4285689884
0.01947129 0.01951221 -0.027549298 4285558559
0.02089571 0.021109544 -0.029278597 4285559068
0.022309434 0.022706207 -0.031005511 4285559324
0.02371243 0.024302226 -0.03273008 4285559324
0.024886126 0.026630841 -0.035121188 4285558813
0.026264986 0.028225407 -0.036840573 4285887509
0.027857028 0.029086482 -0.037889853 4285821463
0.029896822 0.02848199 -0.037603632 4285821463
0.032858908 0.024948105 -0.034652021 4285887254
0.036543362 0.019219484 -0.029707873 4285821464
0.040035885 0.014226012 -0.025438027 4285624604
0.043802947 0.0085034594 -0.020511063 4285493278
0.048572369 -0.00014282018 -0.012935507 4285427743
0.053163148 -0.0080528706 -0.0060371049 4285493534
0.057812564 -0.015958704 0.00084911566 4285295398
-0.01559167 -0.012954228 0.00581103 4285032748
-0.013797361 -0.012079976 0.0047184099 4285295143
-0.011853989 -0.011945859 0.0043076985 4285426723
-0.010224439 -0.010332197 0.0025366917 4285426723
-0.0087650977 -0.0079797059 8.8445842e-05 4285492769
-0.0071593821 -0.0063674524 -0.0016773506 4285492514
-0.0053992867 -0.0054950044 -0.0027623097 4285492768
-0.0038120896 -0.0038838461 -0.0045239772 4285492769
-0.0024058223 -0.0015345141 -0.0069606947 4285297183
0.012641314 0.0077711195 -0.017978894 4285558049
0.014324475 0.0086396784 -0.019046597 4285426979
0.015802618 0.010244645 -0.020784203 4285558049
0.017472431 0.011112452 -0.021848882 4285492513
0.018931851 0.012716368 -0.023582423 4285492259
0.020172887 0.015055761 -0.025983045 4285558049
0.021187494 0.018130139 -0.029049139 4285558049
0.022180706 0.021203127 -0.032110654 4285558558
0.023368221 0.023539133 -0.034499802 4285493023
0.024758067 0.025138695 -0.036218219 4285493279
0.025916116 0.027472842 -0.038601018 4285559069
0.027281824 0.029070918 -0.040314194 4285624859
0.029089566 0.029198702 -0.040693954 4285690394
0.032500673 0.024184085 -0.036418747 4285624859
0.036644287 0.016968843 -0.030157994 4285559069
0.041075632 0.0090231523 -0.023244482 4285493278
0.045565613 0.0010818169 -0.016343202 4285427743
0.050353989 -0.0075891912 -0.0087913908 4285361699
-0.01051414 -0.011178173 0.00068986975 4285098283
-0.0087381676 -0.01030267 -0.00039697625 4285360678
-0.0069674477 -0.009427458 -0.001482645 4285426723
-0.005201973 -0.008552447 -0.0025670901 4285492769
-0.0034417696 -0.0076776519 -0.0036503822 4285492513
0.012898732 0.0047526434 -0.017770063 4285426468
0.014587285 0.0056237131 -0.018837214 4285623584
0.016270502 0.0064945146 -0.019903161 4285492258
0.018150536 0.0066263601 -0.020298898 4285492258
0.01941603 0.0089739263 -0.022699844 4285492258
0.020665487 0.011320487 -0.025097327 4285492514
0.022109082 0.01292783 -0.026824016 4285492259
0.023329109 0.01527255 -0.029215137 4285492259
0.024317555 0.01835401 -0.032268971 4285492258
0.025284605 0.021434039 -0.035318181 4285624349
0.026230233 0.024512712 -0.038362838 4285624859
0.02737798 0.026852779 -0.040738422 4285493533
0.02964066 0.02550672 -0.039790858 4285493533
0.033058338 0.020477328 -0.035528496 4285559324
0.037902571 0.011030801 -0.027297029 4285559324
0.042816143 0.0015893281 -0.019080009 4285493534
0.047325265 -0.0063745454 -0.012200858 4285427489
0.051653467 -0.013598107 -0.0059950729 4285163054
-0.008711569 -0.012629725 -0.00088540697 4285032238
-0.0071000718 -0.011008449 -0.0026458092 4285295144
-0.0053345673 -0.010131307 -0.0037286431 4285492258
