# .PCD v0.7 - Point Cloud Data file format
VERSION 0.7
FIELDS x y z rgba
SIZE 4 4 4 4
TYPE F F F U
COUNT 1 1 1 1
WIDTH 839
HEIGHT 1
VIEWPOINT 0 0 0 1 0 0 0
POINTS 839
DATA ascii
0.0077889115 -0.023330733 -0.0033966769 4286985538
0.010493737 -0.026189372 -0.0011033816 4286920513
0.00050487369 -0.020110823 -0.0081056338 4286659393
0.0029898472 -0.022232421 -0.0064808633 4287641398
0.0054909177 -0.024352878 -0.0048591821 4287903539
0.0081814881 -0.02722133 -0.0025696596 4287641143
0.010893496 -0.030088209 -0.00028430205 4287379513
0.013448186 -0.032204799 0.0013270974 4286136644
-0.0016016774 -0.021864928 -0.0088888947 4287510328
0.00070934743 -0.023241945 -0.0079382937 4287968563
0.0028632358 -0.023866363 -0.0076601449 4288623403
0.0055341944 -0.026744969 -0.0053733354 4287969073
0.0080533642 -0.028870679 -0.0037599904 4287576118
0.01094044 -0.032497592 -0.00081209745 4286725438
-0.0099519491 -0.022487819 -0.0098413322 4287248443
-0.0081314221 -0.021607168 -0.010903316 4287967799
-0.0060021728 -0.0222359 -0.010622317 4287706678
-0.003867507 -0.022864155 -0.010342298 4287641909
-0.0014027059 -0.02500046 -0.0087234732 4287903284
0.00091316178 -0.02638147 -0.0077771051 4287968819
0.0029043593 -0.026253887 -0.0081703868 4288753708
0.0054067671 -0.028387383 -0.006558693 4288099124
0.008271385 -0.032026805 -0.00361457 4287445049
0.011162803 -0.03566438 -0.00067563727 4286529089
-0.01628723 -0.022971615 -0.01118437 4287181379
-0.014171995 -0.023603939 -0.0109026 4287312959
-0.011902511 -0.024993084 -0.0099508855 4287314234
-0.0099252164 -0.024867184 -0.010342008 4287510839
-0.0076395161 -0.026255064 -0.0093932617 4287968818
-0.0056567267 -0.026128538 -0.009785274 4287577139
-0.0035143606 -0.026758514 -0.0095084067 4287642673
-0.0013665818 -0.027387969 -0.0092324829 4287903794
0.00095146894 -0.028773285 -0.0082897609 4287968819
0.0029451847 -0.028645523 -0.0086835315 4288688173
0.0052793659 -0.030029498 -0.0077438345 4288033589
0.0077971891 -0.032168441 -0.0061399629 4287117373
-0.020348735 -0.024838902 -0.011572553 4287575863
-0.018520616 -0.023954026 -0.012633344 4287706678
-0.016411133 -0.024589077 -0.012352107 4288099634
-0.014004305 -0.026742943 -0.010732165 4288426799
-0.011878602 -0.027376667 -0.010453998 4288034099
-0.0097474605 -0.028009959 -0.010176766 4287838259
-0.0074569248 -0.029401891 -0.0092322817 4287641909
-0.0056256056 -0.028516069 -0.010293073 4287641654
-0.0036402345 -0.02838923 -0.010685488 4287576118
-0.0016548038 -0.028262287 -0.011077831 4287706678
0.00082476437 -0.030410655 -0.0094715683 4287183418
0.0029856823 -0.031041205 -0.0091996742 4287967798
0.0053220391 -0.032429419 -0.0082636476 4287705659
-0.021765314 -0.030393459 -0.0089982329 4286463809
-0.020196773 -0.027980775 -0.011400397 4287511093
-0.018503703 -0.026331224 -0.013129934 4288034608
-0.016391896 -0.026968293 -0.012850839 4288099634
-0.014128841 -0.028366722 -0.011904432 4288099378
-0.011854991 -0.029764377 -0.010960023 4288295728
-0.0097215176 -0.030399695 -0.010684929 4288099378
-0.0075826123 -0.031034507 -0.010410811 4287706678
-0.0057512894 -0.030146502 -0.011469985 4287379513
-0.0037660785 -0.030019723 -0.011862393 4287183419
-0.0019426569 -0.029131927 -0.012919801 4286921278
0.00036902726 -0.030526362 -0.011982347 4286528324
0.0023570694 -0.030398972 -0.012375004 4287181634
-0.024003409 -0.031381711 -0.010450385 4286268479
-0.021889538 -0.032021247 -0.010173547 4286267968
-0.020458244 -0.02883745 -0.013239219 4287183928
-0.018767692 -0.02718363 -0.01496506 4288230704
-0.016801819 -0.027058847 -0.015354215 4288099633
-0.014253348 -0.029990204 -0.013076476 4288099378
-0.012128308 -0.030628353 -0.01280143 4288099124
-0.0099978298 -0.031266071 -0.012527316 4287379003
-0.0080155805 -0.031139724 -0.012919328 4286528324
-0.020719334 -0.029689424 -0.015074658 4286529343
-0.019171387 -0.027264811 -0.017462933 4287706679
-0.017068245 -0.027906805 -0.017185373 4287902519
-0.014814205 -0.02931463 -0.016243644 4287771193
-0.01269751 -0.029955514 -0.015968561 4287051839
-0.010575391 -0.030595906 -0.015694458 4287050819
-0.019574411 -0.027336858 -0.019954305 4286855489
-0.017619558 -0.027212791 -0.020341288 4286724418
0.027675183 0.0085253194 0.043231729 4282476374
0.027174968 0.017550558 0.033551056 4281045313
0.028603338 0.019733146 0.0310128 4280132158
0.0324458 0.013710968 0.037025783 4280067134
0.022283288 0.010679156 0.038537916 4281435463
0.022988576 0.01561705 0.033144414 4281110595
0.023850599 0.019866243 0.028470714 4280981819
0.024483426 0.024799682 0.023091592 4281307198
0.026076999 0.026300587 0.021276325 4281697859
0.029278558 0.022314034 0.0251491 4281177404
0.034972586 0.010101385 0.037538134 4280916794
0.011117306 0.019499384 0.027513243 4280392769
0.012397971 0.022386082 0.024264384 4280001853
0.014940981 0.020446487 0.026009757 4280066368
0.01750008 0.018508039 0.027751967 4280589373
0.019320246 0.019326478 0.026643984 4281175874
0.020560712 0.022210963 0.023403343 4280849474
0.021973848 0.024405546 0.020877779 4279872824
0.022977246 0.02797604 0.016935039 4279417139
0.024951247 0.028103676 0.016546004 4280263484
0.027733888 0.025479164 0.018993586 4280068664
0.032381635 0.016664997 0.027814571 4279482164
0.038344271 0.003729105 0.040870395 4280133689
0.0071547218 0.016898759 0.02782594 4281434954
0.0072337873 0.024639688 0.019588765 4281502528
0.0081431698 0.028917756 0.014924772 4281567554
0.0099231228 0.029735494 0.013826128 4281241919
0.012797069 0.026404031 0.016996086 4280329528
0.015697848 0.023074403 0.020160817 4280980289
0.017871115 0.022511154 0.020479616 4280915264
0.019667175 0.023330376 0.019378047 4281046589
0.021069977 0.025530886 0.016859405 4280915519
0.022260025 0.028421115 0.013635373 4280328508
0.024425175 0.027857792 0.013956023 4280067643
0.026999656 0.025914308 0.015690807 4280263229
0.030818261 0.019831352 0.021664612 4280849984
0.034892451 0.013061665 0.028335456 4281110594
0.040700566 0.00077746809 0.040643539 4281110338
0.0048509762 0.015811659 0.026316732 4281826378
0.005303219 0.022189714 0.019515269 4281110594
0.0060572475 0.027176339 0.014145859 4280134454
0.0073068365 0.030078482 0.010916134 4281371713
0.0094368495 0.029509988 0.011241568 4281502274
0.011938343 0.027554553 0.012985298 4280719933
0.014827421 0.024213128 0.016144242 4280328764
0.016989652 0.023647018 0.016463544 4280915008
0.019157238 0.023081347 0.016781867 4280915519
0.02055506 0.025288187 0.014269052 4280784704
0.022133246 0.026801202 0.012466522 4280784703
0.0242981 0.026235666 0.012785604 4280849728
0.027073763 0.02359309 0.015221594 4280980289
0.029870838 0.020951994 0.017653421 4281045569
0.032274935 0.01969669 0.018671297 4280849473
0.03657854 0.012214415 0.026026506 4280654909
0.043491676 -0.0035654753 0.041816238 4280654398
0.0048925169 0.013464414 0.025836218 4281955664
0.005004555 0.021255702 0.017628264 4281174853
0.0055821426 0.026954047 0.011560945 4280525368
0.0070044398 0.029168453 0.0090477355 4278960944
0.0093116835 0.027901445 0.010080742 4279742264
0.01162966 0.026635271 0.01111166 4279742264
0.014143944 0.024674125 0.012848103 4280915009
0.016297828 0.024105281 0.013167426 4280980289
0.018648008 0.022841446 0.014192266 4280980289
0.020428069 0.023664139 0.013097188 4280915008
0.022202764 0.024486549 0.012003295 4280849984
0.024370003 0.023918971 0.012320284 4280849728
0.026744235 0.022657111 0.013340695 4280915518
0.028720483 0.02278512 0.012951383 4280785214
0.030282639 0.024301969 0.011155544 4278897194
0.033301901 0.020958923 0.014281319 4279809073
0.03889643 0.0092896372 0.025828879 4280003128
0.046302523 -0.0079243034 0.042972334 4280003128
0.0056109577 0.008317098 0.028189175 4281823828
0.0053941868 0.017531194 0.018578947 4281368908
0.0058064014 0.023946337 0.011814764 4280848708
0.0070571229 0.026866104 0.0085978247 4280588354
0.0095465854 0.024896607 0.010334084 4280850238
0.011686752 0.024324462 0.010654327 4281045824
0.013832305 0.023752734 0.010973629 4281110849
0.015418991 0.025274847 0.0091756806 4281175874
0.017757978 0.024005905 0.010199474 4281175363
0.019914234 0.02343522 0.010516858 4281045569
0.022468073 0.021470442 0.012240918 4281176385
0.024640378 0.020901017 0.012555296 4281241663
0.026415063 0.021725826 0.011463178 4281046334
0.027571864 0.02464062 0.0082654878 4280916283
0.02912084 0.026161011 0.0064755045 4280981054
0.031706661 0.024198823 0.0081936512 4281437249
0.036006123 0.016668089 0.015513904 4280198459
0.04186869 0.0042689741 0.027723521 4280849985
0.048697952 -0.01090724 0.042712636 4280719168
0.006327711 0.0031480044 0.030526403 4282085204
0.006126456 0.012391604 0.02093431 4281694288
0.0062045008 0.020229191 0.012768904 4281499723
0.0072866455 0.023859017 0.0088508204 4280522818
0.0096009802 0.022583716 0.0098758712 4281046843
0.011743538 0.022009484 0.010194058 4280851004
0.013335802 0.02353625 0.0083981827 4281045824
0.014729464 0.025762364 0.0059007443 4278830638
0.016678764 0.02588813 0.0055163726 4278699569
0.019594364 0.022515796 0.008645853 4279352114
0.022340816 0.019844756 0.01106791 4281111359
0.024115566 0.020671733 0.0099773053 4281306944
0.025079712 0.02429489 0.0060831867 4280916283
0.026220996 0.027217478 0.0028950684 4279547953
0.028167449 0.027343683 0.0025117248 4281241664
0.030951247 0.024675585 0.0049268119 4281632579
0.033968456 0.021310575 0.0080368202 4281567553
0.038515385 0.013059624 0.016031373 4281046589
0.043561347 0.0034168437 0.025409345 4280916284
0.050002709 -0.010408372 0.038957488 4281176639
0.0063669682 0.00077066571 0.030024242 4282347088
0.006342113 0.0093399584 0.021157704 4281890639
0.0062529556 0.01790522 0.012303937 4281237584
0.0071615092 0.022249117 0.007688988 4281043273
0.0091160126 0.022374801 0.0073032845 4280980288
0.011070531 0.022500582 0.006917648 4280850494
0.012469925 0.024733596 0.0044238362 4280850494
0.013853252 0.026965629 0.001933312 4280525114
0.015982106 0.026388686 0.0022527687 4280133689
0.022213573 0.018219359 0.0098951086 4279351349
0.02378992 0.019750021 0.0081060231 4281241665
0.024550993 0.024085373 0.0035208706 4281175873
0.02568748 0.027016453 0.00034021586 4280263483
0.027421959 0.027843289 -0.00074055232 4278894388
0.029987708 0.025866665 0.00097174942 4279742264
0.032993197 0.022489935 0.0040759463 4279807288
0.036669046 0.017013639 0.009265773 4279740479
0.040822126 0.010139681 0.01584005 4280783428
0.046128236 -0.00023125857 0.025883332 4281175108
0.0055619664 0.001917325 0.025997426 4281692503
0.0060427189 0.0083960742 0.019263566 4280647769
0.0063011125 0.015577093 0.011836043 4280322388
0.0070364028 0.020639524 0.0065273717 4280846923
0.0084522329 0.022879966 0.0040350333 4281175363
0.010216396 0.023709968 0.0029493384 4280589374
0.011605462 0.025948849 0.00046248361 4280067898
0.013353541 0.026778072 -0.00061991997 4281567299
0.015476743 0.026198525 -0.00030093081 4281306178
0.01876278 0.021395154 0.0042144395 4281176129
0.021303959 0.019409806 0.0059263688 4280784703
0.023068072 0.020240478 0.0048411116 4281175873
0.024022967 0.023885034 0.00096510537 4281045314
0.025358304 0.026121192 -0.0015106071 4280914753
0.026883818 0.027653292 -0.0032861792 4280914753
0.029443573 0.025669679 -0.0015775133 4281175618
0.032654386 0.021578707 0.0022156592 4281175619
0.036326028 0.016084589 0.0073933154 4281305413
0.039606392 0.011998348 0.011172948 4281305668
0.044896357 0.0015934333 0.021195024 4281240133
0.052268241 -0.015125416 0.037445184 4281175109
0.0054010935 0.008872211 0.015968386 4279863134
0.0061749592 0.013952345 0.010663455 4279928414
0.0070879757 0.018322922 0.0060670953 4279929434
0.0079688653 0.022691511 0.0014772061 4281303883
0.0091816336 0.025644232 -0.001706101 4280916283
0.010742383 0.02718211 -0.0034859441 4279611958
0.01285455 0.026599586 -0.0031665359 4279742264
0.01497208 0.026017524 -0.0028480943 4279806778
0.017865933 0.022610851 0.00026126951 4279806778
0.020591158 0.019912094 0.0026679989 4280523583
0.022545388 0.020038523 0.0022829156 4280980289
0.024298802 0.020870775 0.0012015235 4281045058
0.026046816 0.021702804 0.00012128241 4281045569
0.02799557 0.02182918 -0.00026249699 4281110083
0.030361919 0.020545252 0.00074342266 4281306178
0.03337346 0.017146952 0.0038301628 4281175618
0.036625922 0.013045646 0.0076054707 4281175874
0.039910484 0.0089464858 0.011374587 4281240133
0.045422591 -0.0021956787 0.022064388 4281370438
0.052798193 -0.018966958 0.038274802 4281370694
0.0045894012 0.010071732 0.011982376 4279144033
0.006222643 0.011618219 0.010191156 4279144544
0.0074922144 0.014583148 0.0070029795 4278948704
0.008202862 0.01967486 0.0017220248 4279277908
0.0092397071 0.02334591 -0.0021544248 4281110083
0.010434287 0.026306357 -0.0053275581 4280915519
0.012543475 0.025721401 -0.0050091445 4280784448
0.014847912 0.02442833 -0.0039948355 4280719934
0.0175482 0.021719076 -0.0015897732 4281045313
0.020074675 0.019719601 0.00011529215 4281175618
0.022419266 0.018429436 0.0011219252 4281306179
0.02477455 0.017140083 0.0021265317 4281240898
0.026937239 0.016559258 0.0024348982 4281046334
0.029105233 0.015978925 0.0027422551 4280719933
0.031487186 0.014691629 0.0037418511 4280720189
0.034091145 0.012697838 0.0054321513 4281241154
0.036925133 0.0099981278 0.0078115277 4281305668
0.040213864 0.0058861151 0.011570027 4281435208
0.046386536 -0.0074112192 0.024306666 4281435464
0.05310506 -0.022114947 0.038404565 4281500489
0.0094791465 0.020332061 -0.0019087885 4279798109
0.010863993 0.022590496 -0.0043802075 4281175109
0.012793876 0.022714905 -0.0047608186 4281241665
0.0151032 0.0214177 -0.0037506949 4281240643
0.017615624 0.019410685 -0.0020478517 4281044549
0.0203392 0.01669427 0.0003462024 4280979013
0.022688674 0.015400045 0.001348624 4280912968
0.025249284 0.013396412 0.0030422509 4280913733
0.02782594 0.011393942 0.00473281 4280979524
0.030212827 0.010102488 0.0057281125 4280914754
0.032193426 0.01023107 0.0053381622 4281044803
0.034596294 0.0089408085 0.0063305274 4281240644
0.037009805 0.0076513961 0.007320825 4281370183
0.040733084 0.0021080896 0.0124494 4281696329
0.046691149 -0.01052171 0.024464745 4281631049
0.052967466 -0.023853861 0.037150215 4281565514
0.010262426 0.015168987 0.0004166048 4279666273
0.011292689 0.018861681 -0.0034422036 4281107788
0.01323048 0.018986605 -0.0038243812 4281173833
0.015736893 0.01697249 -0.0021253182 4280848963
0.018259399 0.014959492 -0.00042929221 4280914244
0.020797964 0.012947649 0.0012636483 4281044549
0.023154996 0.011649512 0.002261322 4280979269
0.025522729 0.010352157 0.0032570306 4281174853
0.02749525 0.010480002 0.0028685145 4281174853
0.02987897 0.0091839433 0.0038611963 4280783683
0.032273363 0.0078886971 0.0048518553 4280914499
0.034467444 0.007305868 0.0051510464 4281305414
0.037094135 0.0053005591 0.0068271756 4281435208
0.041034903 -0.00097151846 0.012630964 4281434954
0.046995051 -0.013640687 0.024616648 4281434954
0.05260817 -0.024881519 0.035208702 4281369418
0.010318678 0.012847282 -4.8596412e-05 4279274339
0.011904383 0.014404327 -0.0018203584 4280454988
0.014039453 0.013814516 -0.0015119528 4280977993
0.016369242 0.01250989 -0.00051241275 4280913479
0.01870976 0.011206038 0.00048515387 4281240644
0.02106097 0.009903051 0.0014806539 4281240134
0.023225468 0.0093155727 0.0017835833 4281239879
0.025395306 0.0087285414 0.0020855982 4281108808
0.027570456 0.0081420019 0.0023865998 4281108808
0.029956374 0.0068417117 0.0033756085 4281109318
0.032352973 0.005542174 0.0043626279 4281044548
0.034760218 0.0042435005 0.0053476077 4281174854
0.037605111 0.0015182048 0.0077053644 4281108809
0.042200729 -0.006913811 0.015553866 4281238858
0.047517121 -0.017481543 0.025448784 4281304138
0.052692275 -0.027330764 0.034642205 4281433933
0.010374609 0.010521472 -0.00051676016 4279340639
0.011963204 0.012083083 -0.0022858428 4281043018
0.014287151 0.010773592 -0.0012884764 4281303883
0.016621836 0.00946486 -0.00029309746 4281173323
0.018967213 0.0081569776 0.00070021674 4281304904
0.02112874 0.0075670332 0.001002036 4281435463
0.023492858 0.006260559 0.0019918755 4281370693
0.025667727 0.0056717023 0.0022912323 4281304904
0.028050523 0.0043667033 0.0032775197 4281305414
0.030649282 0.0023460612 0.0049491897 4281240133
0.033679977 -0.001105912 0.0079914853 4281044548
0.036737412 -0.0045560375 0.011028595 4281043784
0.039821576 -0.0080043077 0.014060531 4281238603
0.044012442 -0.015029363 0.020513639 4281238603
0.048256822 -0.022050887 0.026956324 4281368909
0.052776039 -0.029784113 0.034072757 4281888343
0.010249242 0.0089117363 -0.0016784156 4279276378
0.012021698 0.0097577348 -0.0027542887 4280975954
0.014347846 0.0084440112 -0.0017605936 4281303883
0.016873747 0.0064113662 -7.9957768e-05 4281304138
0.019224009 0.0050993785 0.00090919435 4281304904
0.021196198 0.0052268803 0.00052050315 4281370183
0.023562493 0.0039162114 0.0015066247 4281370439
0.026738461 -0.00026959181 0.0052380878 4281632068
0.029744126 -0.0037343875 0.0082770176 4281371204
0.03298166 -0.0079160109 0.01199656 4281239879
0.036043495 -0.011376902 0.015024619 4281239369
0.039552994 -0.016272523 0.019416913 4280978759
0.043099951 -0.021165617 0.023801982 4281303884
0.0464685 -0.025338188 0.027496073 4281824339
0.010123894 0.0073023066 -0.002839854 4279339873
0.012263374 0.0067060813 -0.0025372859 4281041489
0.014594398 0.0053882226 -0.0015477631 4281173579
0.016936135 0.0040712282 -0.00056031719 4281108809
0.019288592 0.0027549937 0.00042515062 4281174344
0.021263313 0.002882652 3.5963953e-05 4281500489
0.024419377 -0.0013177022 0.003761515 4281238858
0.028405856 -0.0084006116 0.010221833 4281500489
0.032445889 -0.015479915 0.016671706 4281761353
0.035924673 -0.020393156 0.021058552 4282020944
0.012321066 0.0043702722 -0.0030132085 4280778584
0.014654279 0.0030482188 -0.0020274092 4281108044
0.017186895 0.0010028705 -0.00035782531 4281173068
0.019544207 -0.00031738728 0.0006233938 4280977228
0.021718182 -0.00091312081 0.00091787428 4281041999
0.024881113 -0.0051262304 0.0046323836 4280714069
-0.00095948577 0.0012786761 0.024585221 4281225088
0.0002425313 0.0049485639 0.020667449 4280110994
-0.0065323897 -0.0036139712 0.0273997 4282471273
-0.0057441108 0.0022024885 0.021368258 4279388324
-0.0016790256 0.011111721 0.011751674 4279454625
0.00013054907 0.011948355 0.010659765 4279064219
-0.011158191 -0.0034018978 0.024884939 4281551744
-0.010035016 0.0010072961 0.020265777 4279258784
-0.0089438856 0.0054145679 0.015653037 4278930854
-0.0075750798 0.0083937496 0.012451105 4278339508
-0.0059125125 0.0099458024 0.010656817 4279321769
-0.0026193149 0.013048291 0.0070747919 4278995368
-0.00082311034 0.01388631 0.0059871208 4279128224
-0.020181045 -0.0012795851 0.021057326 4281421948
-0.019009225 0.0031453893 0.01643794 4278599863
-0.017021574 0.0032716095 0.016044512 4278994093
-0.014889821 0.0026819631 0.016353849 4279323554
-0.013045929 0.0035243854 0.01525782 4278603943
-0.011356652 0.0050822347 0.013461214 4278406828
-0.0083193444 0.0096267685 0.0084733889 4278733484
-0.0066672862 0.011182569 0.0066844504 4279585694
-0.0048658252 0.012022868 0.0055971742 4279192228
-0.0030696392 0.012862913 0.004511077 4278406064
-0.0011133291 0.012988128 0.0041245818 4279192484
0.00084303319 0.013113461 0.0037381668 4278472363
-0.023531124 -0.0074972659 0.024882436 4281749368
-0.022976018 0.00053804368 0.016746696 4279848344
-0.021936551 0.0056949779 0.011433586 4278403768
-0.020519093 0.0086941123 0.0082345102 4278599354
-0.016166069 0.0067886785 0.0095617026 4279059629
-0.014050573 0.0061958581 0.0098727476 4278407338
-0.012078807 0.0063213632 0.0094826855 4278603943
-0.010410655 0.0078823641 0.0076935813 4278275249
-0.0015684217 0.012811475 0.0015685763 4278930343
0.00021450967 0.013653085 0.00048688054 4278735015
0.0025039688 0.012345083 0.0014938042 4278277034
-0.034101821 -0.0076309219 0.023568001 4282405739
-0.032091528 -0.0075042173 0.023169387 4281158279
-0.030081056 -0.0073773786 0.022770833 4280830348
-0.028694943 -0.0036425516 0.018856052 4279127714
-0.027080283 -0.0013520941 0.016352061 4278800293
-0.025611818 0.001658693 0.013149116 4278668969
-0.022874296 0.0083974525 0.0060550049 4279519649
-0.021195769 0.0099628866 0.004266724 4278865319
-0.018963955 0.0086455569 0.0052808635 4278733229
-0.016721308 0.0073289871 0.0062929764 4278471088
-0.014760494 0.0074536875 0.0059049986 4278668713
-0.012799576 0.0075784922 0.0055170693 4278799783
-0.010838561 0.0077034235 0.0051292144 4278734504
-0.0090318322 0.0085482076 0.0040439703 4278668713
-0.0055939183 0.010956362 0.0011805892 4278668714
-0.0038057119 0.011800282 9.9305063e-05 4278734248
-0.0018577129 0.011924937 -0.0002855612 4278930599
-0.00024520606 0.013487428 -0.0020599244 4278931364
0.0018679723 0.012893334 -0.0017493358 4278735268
-0.037719749 4.9844384e-06 0.013621967 4280701829
-0.034604862 0.0053226575 0.0079194307 4278403513
-0.030192174 0.0026744977 0.0099502504 4278865064
-0.028351776 0.0035224333 0.0088591613 4278406828
-0.026646666 0.005093582 0.0070686005 4278472363
-0.015030541 0.0065622255 0.0040424243 4278865319
-0.013072446 0.0066868365 0.0036550499 4278865573
-0.011114247 0.0068115667 0.003267739 4278603688
-0.0093101636 0.0076583251 0.0021846704 4278669224
-0.0076682195 0.0092265904 0.0004074499 4278996643
-0.0060369335 0.010794327 -0.0013676314 4278668714
-0.0042540468 0.011640079 -0.0024462482 4278733993
0.0015735812 0.012013346 -0.0035973666 4278864809
0.0036891624 0.011417307 -0.0032888046 4279587478
-0.041249998 -0.0055047646 0.01674727 4280897414
-0.040262587 0.0011615977 0.010028265 4278866594
-0.038981572 0.005645074 0.005425455 4278864808
-0.037732497 0.01012665 0.00082906894 4279125674
-0.035680883 0.0095220879 0.0011469796 4278273463
-0.030938253 0.004684411 0.0052801222 4278537389
-0.028983966 0.0048078746 0.0048928261 4278799528
-0.027419291 0.0071083456 0.0024085678 4278996134
-0.024202459 0.010981373 -0.0018523065 4278340018
-0.02226904 0.011103943 -0.0022351528 4278274484
-0.020054244 0.0097767338 -0.0012241723 4278471854
-0.017685302 0.0077254996 0.00048114359 4278865319
-0.015738159 0.0078492686 9.5833093e-05 4279061923
-0.013642255 0.0072487369 0.00040588155 4278669479
-0.011540893 0.0066486597 0.00071493536 4278603433
-0.0094340816 0.0060490444 0.0010230038 4278472363
-0.0077919401 0.0076217055 -0.00075101852 4278603434
-0.0060010701 0.0084700137 -0.001829694 4278602924
0.002873823 0.012708344 -0.0072060553 4278996643
-0.04336147 -0.0072666705 0.015959438 4281487228
-0.042565495 0.00087926537 0.0078466404 4278735269
-0.041273087 0.0053765327 0.0032511801 4278340784
-0.039671525 0.0076852515 0.00076399185 4278734249
-0.038202226 0.01072178 -0.002420078 4279061923
-0.036158927 0.010114484 -0.0021021487 4278996134
-0.033866674 0.0080509111 -0.00038718339 4278668204
-0.031433798 0.0052602664 0.0020230934 4278471854
-0.029487677 0.005383186 0.0016373992 4278603434
-0.027800933 0.0069619343 -0.00014311075 4278537898
-0.025992304 0.0078124255 -0.0012245169 4278603178
-0.024188891 0.0086627081 -0.0023047989 4278800038
-0.02225294 0.0087854192 -0.0026881574 4278669224
-0.020176411 0.0081811026 -0.0023761643 4278537898
-0.017951265 0.0068502575 -0.0013704114 4278538408
-0.011966817 0.0064948723 -0.0018312857 4278407338
-0.0095579699 0.0044400766 -0.00013845786 4278472618
-0.007759098 0.0052909628 -0.0012171753 4278603688
-0.0048247911 0.0098953471 -0.0061354367 4278536879
-0.0030525103 0.010744885 -0.0072086425 4278996389
-0.00095103681 0.010143317 -0.0069007268 4278930344
0.00081598759 0.010992765 -0.0079727089 4278602413
0.0025776848 0.011842042 -0.0090435976 4279061670
0.0043340698 0.012691043 -0.010113305 4279194015
-0.043379501 -0.009634994 0.015477907 4281094273
-0.042903684 0.0007295236 0.0052818507 4278735014
-0.041615754 0.0052395836 0.00069703721 4278405808
-0.031804062 0.0051193163 -0.00052732602 4278603434
-0.029863432 0.0052418634 -0.00091195293 4278603178
-0.028052248 0.0060945675 -0.0019923449 4278537898
-0.026114009 0.0062171966 -0.0023763254 4278603433
-0.024310581 0.0070696324 -0.0034550223 4278603434
-0.022374764 0.0071923211 -0.003838364 4278734248
-0.020438835 0.0073151439 -0.0042216405 4278472363
-0.0099891797 0.0042884424 -0.0026817806 4278472363
-0.0083520226 0.0058695674 -0.0044483878 4278472618
-0.0067254826 0.0074500963 -0.0062127467 4278537134
-0.001408577 0.010005347 -0.0094275586 4278537389
0.0019370615 0.012435034 -0.012252386 4278407084
0.0036854222 0.013285756 -0.013318936 4278801059
0.0063174404 0.010501333 -0.010952831 4279128478
0.0095123313 0.005537957 -0.0065335762 4278344099
0.017059952 -0.00062140822 -0.0015298687 4279918469
0.019607961 -0.0026721731 0.0001318492 4279458449
0.021784313 -0.0032699704 0.00042430311 4279392403
0.025538372 -0.0096734166 0.0061765257 4279260824
0.030137528 -0.018975943 0.014647601 4279195289
0.035008214 -0.028999299 0.023786616 4279653779
0.038317189 -0.033215731 0.027462885 4282405739
-0.042701088 -0.0030791834 0.0062160641 4279980688
-0.041625649 0.0029114634 0.00024328753 4278406828
-0.040139399 0.0059664473 -0.002931267 4278864808
-0.038210213 0.0060878098 -0.0033139642 4278668458
-0.036280885 0.0062093064 -0.0036966056 4278733993
-0.034229994 0.0055981129 -0.0033833403 4278865319
-0.032297671 0.0057200044 -0.0037664231 4278668969
-0.030365199 0.0058420226 -0.0041494407 4278537898
-0.028432593 0.0059641376 -0.0045324247 4278538154
-0.026367761 0.0053543299 -0.0042216349 4278341548
-0.024432205 0.0054768696 -0.0046050251 4278537643
-0.022633977 0.0063312724 -0.0056809857 4278537388
-0.020981126 0.0079170689 -0.0074479757 4278668204
-0.017270751 0.0088932365 -0.0089021679 4278667693
-0.01026617 0.0034152046 -0.0045290776 4278733993
-0.0087876767 0.0057310984 -0.0069808699 4278537898
-0.0073251911 0.0080460832 -0.009429425 4278734248
0.0021588095 0.0093939826 -0.012022647 4278669478
0.0040875077 0.009517841 -0.012403374 4278997154
0.0067267306 0.0067251101 -0.010045197 4279193503
0.0095677003 0.0032048747 -0.0070069879 4279128733
0.01206952 0.0011441261 -0.0053412654 4279261589
0.014587402 -0.00091540813 -0.0036786608 4279261334
0.017121371 -0.0029738396 -0.0020190971 4279391894
0.019862425 -0.0057594031 0.00031945482 4279129499
0.022043796 -0.0063590035 0.0006092526 4279260314
0.025605138 -0.012053989 0.0056651477 4278867359
0.030005524 -0.020657219 0.01343458 4279129499
0.034873635 -0.03071142 0.022551376 4280112013
0.03797701 -0.034213625 0.025538731 4282668134
-0.042175911 -0.0091081783 0.009231599 4280635783
-0.041304253 -0.0016276836 0.0018756706 4279260059
-0.040033147 0.0029076859 -0.0026862733 4278603943
-0.038330495 0.0044999719 -0.0044606514 4278931108
-0.036401309 0.0046214238 -0.0048432909 4278537388
-0.034593165 0.0054779574 -0.0059201047 4278733994
-0.027016915 0.006699048 -0.0081399083 4278603433
-0.025092207 0.0068208948 -0.0085211545 4278538154
-0.023304656 0.0076767951 -0.0095933955 4278865318
-0.019460022 0.0079207495 -0.010354521 4278930089
-0.017537549 0.0080429167 -0.010734985 4278996644
-0.01531899 0.0066986755 -0.0097375344 4278800038
-0.013089627 0.0053552017 -0.0087420903 4278733994
-0.011002824 0.0047454983 -0.0084366016 4278406318
-0.0092226267 0.0056017637 -0.0095067658 4278603434
-0.0076064244 0.0071904138 -0.011262661 4278668969
-0.0060008578 0.0087784678 -0.013016319 4278537898
-0.0042419024 0.0096337572 -0.014082077 4278735269
-0.0023215078 0.0097567365 -0.014461427 4279062433
0.0001071915 0.007684119 -0.012786588 4279062688
0.0023799092 0.0063443556 -0.011799011 4279062688
0.0046633631 0.0050054789 -0.010813495 4278866084
0.0073124655 0.0022045895 -0.0084637664 4278931618
0.0099830218 -0.0005947724 -0.0061181746 4278669478
0.012492202 -0.0026615635 -0.0044588149 4278866848
0.015017468 -0.0047272518 -0.0028024921 4278932638
0.017182469 -0.0053303465 -0.0025112638 4278801569
0.019734517 -0.0073940679 -0.0008600438 4278801569
0.022109088 -0.0087262318 0.00010812469 4278605219
0.025867779 -0.015168823 0.0058302227 4278473638
0.030271305 -0.023798168 0.013579616 4279063198
0.034537509 -0.031693377 0.020638034 4280898943
-0.041760348 -0.014425315 0.011532955 4280767364
-0.040984139 -0.0061841682 0.00349552 4280046733
-0.039814502 -0.00089724362 -0.0017532688 4278866593
-0.038335025 0.0021748766 -0.0049133953 4278603433
-0.036521681 0.0030338243 -0.0059897713 4278406574
-0.035076678 0.0061040372 -0.0091429465 4278471599
-0.027269401 0.0058522001 -0.009973662 4278339764
-0.025347501 0.0059738606 -0.010354355 4278603434
-0.023699738 0.0075679496 -0.012113955 4278930853
-0.011431735 0.0046234652 -0.010958645 4278669223
-0.0095010102 0.0047466159 -0.011340395 4278669223
-0.0074116886 0.0041350573 -0.011036821 4278735268
-0.0054781511 0.0042586252 -0.011418954 4278735524
-0.0037084594 0.0051168054 -0.01248521 4279062943
-0.0016109124 0.0045061484 -0.012182977 4278473129
0.00066126138 0.0031618923 -0.011198677 4278342059
0.0029441863 0.0018184483 -0.010216407 4278669734
0.005412478 -0.00025796145 -0.0085540712 4278604454
0.0077195764 -0.0015996024 -0.0075763911 4278669988
0.01039733 -0.0044072643 -0.005238709 4278669988
0.012731254 -0.005746983 -0.0042660953 4278735778
0.015075888 -0.0070858374 -0.0032955417 4278932383
0.017055251 -0.0069580972 -0.0036858143 4278997663
0.019606631 -0.0090284273 -0.0020393254 4278473894
0.021980707 -0.010364987 -0.0010742852 4278473384
0.025737692 -0.016827397 0.0046335403 4278670243
0.029940279 -0.024751 0.011686588 4279391129
0.034000367 -0.031938598 0.018051334 4280964988
-0.041453905 -0.019023962 0.013124926 4281094784
-0.040555127 -0.011497997 0.0057960358 4280505223
-0.03970965 -0.0039752498 -0.0015221825 4279521944
-0.038570918 0.0013251528 -0.0067534167 4278603434
-0.036996625 0.0036651194 -0.0092107747 4278602924
-0.035680011 0.0074829683 -0.01304703 4278733994
-0.033772178 0.007603243 -0.013425304 4279323809
-0.031737976 0.0069846436 -0.013113515 4279061669
-0.029569373 0.0056276247 -0.012113301 4278602413
-0.027521513 0.0050101206 -0.011804048 4278799274
-0.025736712 0.0058700666 -0.012872608 4278603178
-0.024231032 0.0082064942 -0.015315779 4278930854
-0.022601679 0.0098039135 -0.017068403 4278668458
-0.020413734 0.0084486827 -0.016071526 4278865319
-0.018214978 0.0070942566 -0.015076768 4278799783
-0.016153075 0.0064783469 -0.01476978 4278865573
-0.014085725 0.0058628693 -0.014463795 4278734758
-0.011859924 0.0045104921 -0.013474073 4279062689
-0.0096233375 0.0031589791 -0.012486432 4278866083
-0.007375963 0.0018082485 -0.01150078 4278669734
-0.0051178224 0.00045833737 -0.010517228 4278604199
-0.0028489009 -0.00089079887 -0.0095356628 4278276524
0.0036788881 -0.0034609362 -0.0079652667 4278539174
0.0059854835 -0.0048071519 -0.0069907727 4278735523
0.0081256926 -0.0054167435 -0.0066982815 4278931873
0.010630857 -0.0074971095 -0.0050479108 4278866593
0.012969632 -0.0088408366 -0.0040795403 4279063198
0.015133981 -0.0094484985 -0.0037915306 4279063198
0.017115869 -0.0093205944 -0.0041823024 4278866593
0.019288264 -0.0099275261 -0.003895645 4278539173
0.022045529 -0.01273822 -0.0015796842 4278604453
0.025999341 -0.019954853 0.0047895852 4278604708
0.03020522 -0.027902283 0.011824107 4279194523
0.033665143 -0.032908894 0.01614641 4281685109
-0.041041389 -0.024382278 0.015396522 4281094528
-0.040127717 -0.016833507 0.0080808755 4280701318
-0.039492749 -0.0078037754 -0.00060623791 4280045969
-0.038806431 0.00048009306 -0.0085900053 4278604454
-0.037352502 0.003568247 -0.011732075 4278473128
-0.032235719 0.0076366886 -0.01631364 4278733994
-0.025856987 0.0042939335 -0.014010629 4278603178
-0.024487734 0.0073775351 -0.017135328 4278537898
-0.022860862 0.0089791119 -0.018884186 4278537898
-0.020818204 0.0083595216 -0.018575205 4278865829
-0.018335663 0.0055202469 -0.016213106 4279128224
-0.016126588 0.0041622296 -0.015223548 4279128223
-0.013606388 0.0013255849 -0.012868732 4278866083
-0.011370365 -3.053993e-05 -0.011884287 4278603943
-0.0092790686 -0.00064641982 -0.011584472 4278342059
-0.0071823522 -0.0012618601 -0.011285663 4278735523
-0.0047584698 -0.0033548921 -0.0096247606 4278604453
-0.0024820119 -0.0047078803 -0.0086479746 4278669988
-0.00019478425 -0.006060116 -0.0076731974 4278801313
0.0019342899 -0.0066729859 -0.0073804008 4278342568
0.0038971752 -0.0065470412 -0.0077679725 4278604453
0.0060343556 -0.0071591437 -0.007476599 4278866593
0.0081769228 -0.0077707693 -0.0071861865 4278801314
0.010684099 -0.0098575875 -0.0055410946 4279063198
0.013025053 -0.011205561 -0.0045763971 4279062944
0.015191771 -0.011815302 -0.0042904364 4278866339
0.017176185 -0.011687241 -0.0046816999 4278735014
0.019541245 -0.013033263 -0.0037214728 4278473128
0.022496026 -0.016589366 -0.00073770992 4279260059
0.026455991 -0.023827516 0.0056141112 4279391383
0.03046949 -0.031062052 0.0119555 4280570759
0.033531316 -0.03461089 0.014918495 4282668134
-0.039921619 -0.020701863 0.0089700464 4281029249
-0.039276771 -0.011645257 0.00030041859 4281028993
-0.038695946 -0.0025926158 -0.0083563719 4279587224
-0.037589766 0.002736479 -0.013558377 4278931618
-0.027893327 0.0025968626 -0.014768837 4278865574
-0.025977224 0.0027180985 -0.015148433 4278734504
-0.024334215 0.0043249503 -0.016897338 4278866084
-0.022562519 0.0051886514 -0.017959908 4278734759
-0.020512141 0.0045673549 -0.017654084 4278669223
-0.013428353 -0.001745224 -0.01265024 4278669478
-0.011187475 -0.0031053647 -0.011670042 4278800548
-0.0092464872 -0.0029815957 -0.012053851 4278735524
-0.0071474127 -0.0035990775 -0.011757128 4278669733
-0.0047215112 -0.0056985617 -0.010101506 4278931873
-0.0024428666 -0.0070557967 -0.0091284001 4278866338
-0.00015345588 -0.0084122643 -0.0081572877 4278866593
0.0018092394 -0.0082864836 -0.0085449265 4278276779
0.0039433837 -0.0089010894 -0.0082546705 4278866594
0.0062570125 -0.010255635 -0.0072880695 4278735779
0.0087581389 -0.012349479 -0.0056467736 4278867104
0.011275358 -0.014442228 -0.004008526 4279063198
0.013808662 -0.016533814 -0.002373362 4279194523
0.015988432 -0.017144851 -0.0020916294 4279259803
0.017986082 -0.017015919 -0.0024854969 4279063454
0.020364027 -0.01836551 -0.0015310626 4279718548
0.023331184 -0.021931775 0.0014421437 4280374153
0.027107146 -0.028452083 0.0071024355 4280243083
0.03073309 -0.034230344 0.012080818 4280571268
0.033598378 -0.037051179 0.014362805 4282340969
-0.039826177 -0.023836441 0.0091614593 4281159808
-0.038837031 -0.016992562 0.0025735088 4281028993
-0.038356021 -0.0071663558 -0.0067542391 4280636038
-0.037473537 -0.00032897294 -0.013320861 4278997153
-0.036518663 0.0057595149 -0.019191546 4278537898
-0.034868062 0.007370688 -0.020939184 4279193504
-0.033102319 0.0082356259 -0.021999391 4278996644
-0.030699708 0.0053730309 -0.019634992 4278996644
-0.028275564 0.002511926 -0.017274763 4279062434
-0.025963664 0.00039744377 -0.015602389 4278931364
-0.024044909 0.00051894784 -0.015982438 4278668968
-0.021986917 -0.00010424107 -0.015679803 4278341804
-0.017710112 -0.0020935684 -0.014396075 4278735523
-0.015485935 -0.0034594461 -0.013415962 4278473128
-0.013101153 -0.0055685863 -0.011757483 4278997408
-0.011005215 -0.0061887503 -0.011461911 4279062944
-0.0089038461 -0.0068084002 -0.011167352 4278997153
-0.0067970678 -0.0074275807 -0.010873773 4279062944
-0.004684858 -0.0080463067 -0.010581189 4278997409
-0.0024040267 -0.0094078481 -0.0096117342 4279128478
-0.00027832389 -0.010025434 -0.009321616 4278866594
0.0016842186 -0.0098996684 -0.009709225 4278669479
0.0041605234 -0.012001991 -0.0080680568 4279063199
0.0064790063 -0.013360545 -0.007105683 4279652758
0.0093380138 -0.016945504 -0.0041198377 4279849109
0.011865273 -0.019044168 -0.0024884362 4280111503
0.014590567 -0.021883696 -0.00018600561 4280701574
0.016783394 -0.022496089 9.1524795e-05 4282272628
0.01916888 -0.023849703 0.0010411348 4282666604
-0.03851109 -0.021612905 0.0041446332 4281226108
-0.037787609 -0.013254493 -0.0037930207 4280832898
-0.037240371 -0.0041512921 -0.012404222 4280046224
-0.036516719 0.0034516379 -0.0196332 4278867359
-0.034986161 0.0058153272 -0.022062348 4279062943
-0.032969229 0.0051868111 -0.021753682 4278931618
-0.030562073 0.0023157373 -0.019396676 4278603944
-0.028264321 0.00019361079 -0.017726421 4278407083
-0.025950387 -0.0019273683 -0.016059292 4278472874
-0.023756564 -0.0032999888 -0.01507681 4278538664
-0.021690868 -0.0039248541 -0.014777382 4278473384
-0.019761331 -0.0038024411 -0.015159384 4278735523
-0.017543085 -0.0051732063 -0.014181432 4278866338
-0.015314057 -0.0065431371 -0.013205578 4278669734
-0.013074219 -0.0079122931 -0.012231723 4278866339
-0.011128269 -0.0077883378 -0.012616613 4278866339
-0.0090272278 -0.0084102154 -0.01232363 4279062944
-0.006763082 -0.0097774044 -0.011354347 4278866594
-0.0046485215 -0.010398157 -0.011063837 4278931618
-0.0023655035 -0.011763938 -0.010098061 4279128479
-0.00040316209 -0.011638291 -0.010485722 4279194014
0.0020644069 -0.013747901 -0.0088477936 4279062179
0.0045480728 -0.015856259 -0.007212976 4279586458
0.007221587 -0.018708266 -0.0049070995 4280175763
0.01009297 -0.02230338 -0.001931807 4280633743
0.012632947 -0.024407789 -0.00030776765 4282862445
0.015370779 -0.027255274 0.0019857045 4282535533
0.017945569 -0.029357158 0.0036029983 4282863463
-0.038074419 -0.027001403 0.0063879658 4281554039
-0.037335888 -0.018617995 -0.0015348699 4280963969
-0.036890782 -0.0087370351 -0.010813271 4280570249
-0.036274955 -0.00036111474 -0.018711576 4279587223
-0.034981467 0.0035101101 -0.022502709 4278538408
-0.032836765 0.002129443 -0.021514073 4278538408
-0.030425087 -0.000750117 -0.019164452 4278276524
-0.028253384 -0.0021287873 -0.018181035 4278276269
-0.026070841 -0.0035066828 -0.017199619 4278342058
-0.023877501 -0.0048837438 -0.016220309 4278801058
-0.021534547 -0.0070092231 -0.014563614 4278800803
-0.019741267 -0.0061374679 -0.015625514 4278735778
-0.017376721 -0.0082612932 -0.013972969 4278866593
-0.015142806 -0.0096353367 -0.013001283 4278801059
-0.012898121 -0.011008523 -0.012031675 4278473383
-0.010794807 -0.011632569 -0.01174085 4278801059
-0.0085312128 -0.013004363 -0.010774767 4278932129
-0.0064143576 -0.013627283 -0.010486426 4278997664
-0.0046124756 -0.012754135 -0.011549396 4279259549
-0.0023272894 -0.014124103 -0.010587333 4279521434
0.00013421476 -0.016240783 -0.0089531671 4281813118
-0.037343919 -0.020991534 -0.0020227078 4280963458
-0.03689412 -0.011081859 -0.011280997 4280635784
-0.03591428 -0.0049392805 -0.017117802 4279783574
-0.034364261 -0.0025612935 -0.019541049 4279062688
-0.03220401 -0.0039453134 -0.01855878 4278800549
-0.030160815 -0.0045764819 -0.018258512 4278931618
-0.028242737 -0.0044552833 -0.018638615 4279062944
-0.026324525 -0.0043339655 -0.019018661 4278800804
-0.023998402 -0.0064672157 -0.0173636 4278866339
-0.021794714 -0.0078479126 -0.016389437 4278932129
-0.019862801 -0.0077253655 -0.016771931 4279063198
-0.017642871 -0.0091047809 -0.015800873 4279063454
-0.015412144 -0.010483369 -0.014831849 4279063198
-0.012871981 -0.013362586 -0.012513464 4278800803
-0.010614306 -0.014739238 -0.011549527 4279194013
-0.0083458647 -0.016115047 -0.01058769 4279784338
-0.0063813329 -0.015989669 -0.010976071 4280570249
-0.0042567179 -0.016614176 -0.010690814 4281486209
-0.037466623 -0.022614092 -0.003194524 4281487739
-0.036897756 -0.013430797 -0.011751687 4280963204
-0.035914034 -0.007270515 -0.01757626 4279783828
-0.034238614 -0.0056403205 -0.019315897 4279062943
-0.032198541 -0.0062739998 -0.019016717 4278735269
-0.030152984 -0.0069072768 -0.018718507 4278800804
-0.028232373 -0.0067859292 -0.019099122 4278800804
-0.026178554 -0.0074183941 -0.018802404 4278931874
-0.023847722 -0.0095579103 -0.017153138 4278473384
-0.021639176 -0.010942645 -0.016183244 4278735524
-0.019560948 -0.011573188 -0.015891081 4278866594
-0.01733347 -0.012956537 -0.014924717 4278997663
-0.015095197 -0.014339022 -0.013960427 4279063198
-0.012398697 -0.017979443 -0.010975854 4279783573
-0.010282647 -0.018607073 -0.01069081 4279847833
-0.0081611574 -0.019234277 -0.010406697 4280699789
-0.036901668 -0.015783839 -0.012225291 4281094783
-0.035794549 -0.010362752 -0.017359385 4280308619
-0.034113586 -0.0087279081 -0.019096855 4278736289
-0.031943575 -0.010120086 -0.018123018 4278801058
-0.029890321 -0.01075501 -0.017827997 4278407594
-0.027961828 -0.010633186 -0.018210186 4278735269
-0.025767356 -0.012023509 -0.017240891 4278866084
-0.023562089 -0.013412975 -0.01627369 4278931109
-0.021346003 -0.014801666 -0.015308486 4279324574
-0.019260064 -0.015433922 -0.015019489 4280896649
-0.016881429 -0.017576553 -0.013384322 4282140283
-0.036789186 -0.018900283 -0.012024624 4281291643
-0.035795085 -0.01270435 -0.017825404 4280112268
-0.033989191 -0.011823945 -0.018883983 4278735524
-0.031814292 -0.013220243 -0.017914323 4278538918
-0.029628597 -0.014615692 -0.016946761 4278931873
-0.027432069 -0.016010351 -0.015981259 4278931364
-0.024959199 -0.018920854 -0.013669563 4279455899
-0.022871122 -0.019555412 -0.013382791 4280109974
-0.020777583 -0.020189546 -0.013096975 4281091723
-0.03543824 -0.017334118 -0.01626884 4280636293
-0.033621632 -0.016450889 -0.017327948 4278932384
-0.031311966 -0.01861193 -0.015689446 4278997408
-0.029113375 -0.020010956 -0.014727691 4280504203
-0.026774034 -0.022169895 -0.0130949 4283320168
-0.034963652 -0.022744767 -0.014051205 4282405229
-0.033133641 -0.021858476 -0.015111333 4281226364
-0.03093566 -0.023262061 -0.014152797 4282666349
-0.028726853 -0.024664871 -0.013196269 4282993259
0.0078926049 -0.032516167 -0.016567633 4282600303
0.010410445 -0.034681089 -0.014983006 4282862699
0.011915918 -0.034656428 -0.017870262 4282140794
0.01341109 -0.034623317 -0.020748653 4282667369
-0.035928093 -0.030808195 -0.022324361 4282077299
-0.038339905 -0.030190647 -0.025081147 4281880693
-0.040734246 -0.029558562 -0.027831357 4282733159
-0.042892031 -0.030479439 -0.029253278 4282602089
-0.014742501 -0.035027213 -0.02937106 4282797418
-0.015305623 -0.034275226 -0.032481138 4282732138
-0.03169997 -0.032127522 -0.034484129 4282208879
