# .PCD v0.7 - Point Cloud Data file format
VERSION 0.7
FIELDS x y z rgba
SIZE 4 4 4 4
TYPE F F F U
COUNT 1 1 1 1
WIDTH 974
HEIGHT 1
VIEWPOINT 0 0 0 1 0 0 0
POINTS 974
DATA ascii
0.007817667 0.015597671 0.068847507 4283990564
0.013173543 0.0042460002 0.081897169 4283990308
-0.018457592 0.01269776 0.072679684 4283920948
-0.018433221 0.021207254 0.062408958 4284056354
-0.016627014 0.021992527 0.061216701 4283925794
-0.014825974 0.022777481 0.060025621 4283860514
-0.01255136 0.021633485 0.061097894 4283860004
-0.010265905 0.020490279 0.06216782 4283925283
-0.0079696327 0.019347962 0.063235343 4283925028
-0.0056625269 0.018206436 0.064300522 4284056609
-0.0040256605 0.019634234 0.06235658 4284056608
-0.0017076172 0.018493606 0.063419402 4284056609
9.4421208e-05 0.019279035 0.062228341 4284056354
0.0022477806 0.018781025 0.062538341 4283990564
0.0038637705 0.020207515 0.060599197 4283861533
0.0063872039 0.018427556 0.06240603 4283730209
0.010789469 0.010239378 0.07169044 4283795743
-0.017858103 0.0078132451 0.075255156 4283722814
-0.018272117 0.01828943 0.062739596 4284056099
-0.016614512 0.019722775 0.060794044 4283991073
-0.014810689 0.020510076 0.059603963 4283926048
-0.012852646 0.020651976 0.059167515 4283862044
-0.010732368 0.020149047 0.059482921 4283862299
-0.0084418692 0.019001832 0.060548458 4283926814
-0.0059731677 0.017210985 0.062362235 4284056863
-0.0043386519 0.01864293 0.060422119 4284056608
-0.0021964759 0.018141812 0.060732815 4284056609
-0.00039963424 0.018928988 0.059544567 4283991329
0.0012139082 0.020359585 0.057609249 4283860258
0.0028168783 0.0217895 0.055676285 4283797273
0.005326312 0.020001901 0.057481278 4283796253
0.0091544054 0.013713442 0.064508289 4283730973
0.01567843 -0.0015725717 0.081966251 4283863574
-0.017658122 0.013419282 0.065321803 4284055333
-0.016756199 0.018096443 0.059616257 4284056863
-0.01510876 0.019533411 0.057676319 4283991583
-0.013631053 0.02161701 0.054987874 4283797528
-0.011683583 0.021758158 0.054553796 4283730464
-0.0094068833 0.02060551 0.055619095 4283798548
-0.0067849718 0.018160252 0.058180127 4283925794
-0.0049909428 0.018949326 0.056994002 4283990564
-0.0028570294 0.01844533 0.057304908 4284056609
-0.0012432933 0.019880289 0.055372734 4283926558
0.00035989657 0.021314504 0.053442992 4283864338
0.0019525066 0.022748038 0.051515598 4283727658
0.0044506118 0.020952994 0.053318165 4283792174
0.0078942515 0.015932329 0.058841731 4283858729
0.013077646 0.0051082633 0.071054578 4283859239
-0.017348006 0.009827368 0.066386044 4283922479
-0.017051481 0.017120175 0.057688136 4283991329
-0.015875418 0.020510489 0.053502433 4283925284
-0.014407866 0.022599911 0.050821159 4283793958
-0.012471147 0.022740241 0.05038945 4283793193
-0.010041233 0.020933224 0.052201953 4283861789
-0.0077622011 0.019776404 0.053263396 4283925794
-0.0058116987 0.019917903 0.052828744 4283924773
-0.0040334165 0.020708019 0.051647842 4284056609
-0.0020853505 0.020849464 0.051213823 4283991073
-0.00067020208 0.022935452 0.048544586 4283798549
0.0010897219 0.02372445 0.047367856 4283863064
0.0033934824 0.022569736 0.048424102 4283862809
0.0068221502 0.017530372 0.053937819 4283861788
0.011235394 0.009257257 0.063155562 4283927324
0.017819453 -0.0061299652 0.080521226 4283926304
-0.017038971 0.0062223971 0.067440733 4283590723
-0.017499767 0.01680064 0.055014525 4283925029
-0.016640466 0.021505458 0.049341485 4283862553
-0.015183061 0.02360066 0.046667427 4283795489
-0.013257086 0.023740169 0.046238087 4283860768
-0.010674357 0.021274399 0.048794556 4283861788
-0.0084037818 0.020112496 0.049854614 4283992094
-0.0066308454 0.020904331 0.048676483 4284056609
-0.0050352812 0.022346646 0.046754844 4284056353
-0.0029258132 0.021836521 0.047067862 4283990563
-0.00098837167 0.021977225 0.046636235 4283926049
0.0007690154 0.022768179 0.045461752 4283861533
0.0030696467 0.021608813 0.046515379 4283861533
0.0057520196 0.019150756 0.049050003 4283926049
0.0092085041 0.014095869 0.0545444 4283925029
0.014616115 0.0025500506 0.067434445 4283990563
-0.016580388 0.0019497946 0.06923382 4283656259
-0.017793976 0.015835848 0.053094611 4284121124
-0.017247945 0.021864131 0.04594015 4283992348
-0.015639443 0.023311447 0.044018663 4283927579
-0.013718862 0.023450531 0.043590501 4283927068
-0.011142317 0.020975441 0.046141785 4283992349
-0.0088775456 0.019808723 0.047199778 4283990563
-0.0069405437 0.019949181 0.046768084 4283990563
-0.0051753595 0.020742686 0.045593351 4284121634
-0.0032407902 0.020883095 0.045162298 4284056609
-0.0013060942 0.021023575 0.044731263 4284056354
0.00080866367 0.020511724 0.045041524 4283925793
0.0027462244 0.02065254 0.044609949 4283925029
0.0050544851 0.019489383 0.045658626 4283859493
0.0077494457 0.017023448 0.048183948 4283859748
0.01237224 0.0080429204 0.058093671 4283859748
-0.015521564 -0.0049672686 0.073999122 4283787073
-0.017322227 0.01159291 0.054906245 4284120359
-0.017075405 0.018954547 0.046273701 4284056608
-0.015619684 0.021062776 0.043609783 4283991073
-0.013857622 0.021857973 0.042437173 4283991074
-0.01177321 0.021341322 0.042752255 4283991329
-0.0095168874 0.020169526 0.043808863 4283990819
-0.0070806816 0.018343236 0.045605127 4284056608
-0.005143635 0.018483726 0.045173451 4284121888
-0.0030320212 0.017969266 0.045482703 4284056863
-0.00091497228 0.017455302 0.045790754 4284056608
0.00084798038 0.018251007 0.044618279 4284056864
0.0024232455 0.019700846 0.042707898 4283861278
0.0041730404 0.020495718 0.041538447 4283730973
0.0064809024 0.019328218 0.042583913 4283731229
0.010513555 0.012277011 0.050262868 4283730718
0.017308611 -0.0039207749 0.068242773 4283730718
-0.016546149 0.0060149357 0.058193285 4283722304
-0.016592432 0.014719166 0.048087873 4284120614
-0.015442006 0.018151481 0.043940701 4284056864
-0.013996307 0.020265602 0.041283965 4283927068
-0.0122393 0.021062657 0.040114157 4283864084
-0.010155033 0.020543827 0.040427648 4283665184
-0.0075585805 0.018052656 0.042961381 4283731738
-0.0052838027 0.016877946 0.044010617 4283925029
-0.0031724647 0.016361233 0.044318266 4284056608
-0.0014095157 0.017159084 0.043147326 4284056609
0.00034821033 0.017956585 0.041977644 4283926559
0.001553949 0.02072366 0.038596682 4283860769
0.0032931827 0.02151995 0.037431218 4283727404
0.0055899099 0.020347182 0.038475901 4283727914
0.0092291534 0.014583007 0.044668145 4283729698
0.014845738 0.0022637844 0.058200944 4283794723
-0.01546691 -0.00091125071 0.062946022 4283722559
-0.016266324 0.011127096 0.049147494 4284053804
-0.01573918 0.017213287 0.0420416 4284122399
-0.014456354 0.019994184 0.038649619 4283860003
-0.012867969 0.02145325 0.036742501 4283794213
-0.010958027 0.021591591 0.03631673 4283795488
-0.0085417926 0.019750565 0.03810757 4283730209
-0.0062808245 0.018570423 0.039156571 4283859238
-0.0040090606 0.017391089 0.040203258 4284056864
-0.0022566617 0.018190302 0.039036337 4284056608
-0.00068889186 0.019648271 0.037134111 4283926049
0.00050419569 0.022423211 0.033762544 4283797529
0.0018607564 0.024537994 0.031131085 4283729954
0.0041383207 0.023359451 0.032176681 4283729189
0.0075670034 0.018232197 0.037624624 4283794724
0.012387544 0.0085016899 0.048197664 4283795743
-0.014543176 -0.0072094649 0.066932514 4284049214
-0.016406842 0.0095108896 0.047976956 4283986483
-0.01635161 0.017605329 0.038666531 4284187679
-0.015076093 0.020394461 0.035282739 4283993624
-0.013495408 0.021857284 0.033380643 4283860514
-0.011593543 0.021995004 0.032956645 4283793958
-0.009354502 0.020808781 0.034007169 4283861534
-0.0071046874 0.019623399 0.035055336 4283927069
-0.0048440546 0.018438842 0.0361012 4284056863
-0.0031022243 0.019239469 0.034938261 4284056608
-0.0011864342 0.019378535 0.03451141 4283991328
2.0004809e-06 0.022161905 0.031147439 4283926813
0.0013537109 0.024282942 0.028521933 4283862298
0.0034382679 0.023760233 0.028832436 4283928854
0.0062877052 0.020596098 0.032071821 4283927068
0.01031911 0.013472304 0.039696805 4283991328
0.01616611 0.00041216239 0.053890567 4283990818
-0.016237315 0.0065644681 0.048283853 4283789114
-0.016805161 0.017345849 0.036039241 4284186148
-0.015534297 0.020143351 0.032663073 4283926558
-0.01395864 0.021610212 0.030765317 4283928599
-0.012062199 0.021747505 0.030342504 4283928089
-0.0099972971 0.021220658 0.030655358 4283927578
-0.0079269297 0.020694245 0.030967101 4283990564
-0.0058511235 0.020168323 0.03127763 4283990563
-0.0035935454 0.018979227 0.032320868 4284056353
-0.0016831756 0.019117886 0.031895213 4284056099
-0.0001360476 0.020583134 0.030004237 4283925028
0.0012161508 0.022710787 0.027383544 4283924773
0.0031134263 0.022848707 0.026960962 4283991074
0.0053901337 0.021661317 0.02800025 4283991074
0.0086392649 0.017162394 0.032688715 4283925538
0.013485901 0.0073679127 0.043206647 4283990818
-0.016068488 0.0036094896 0.048584454 4283788094
-0.016785473 0.015093725 0.035627864 4283988014
-0.015831534 0.019234329 0.030785747 4284056609
-0.014095441 0.020038519 0.029627066 4283991073
-0.012364559 0.020842399 0.0284696 4283925028
-0.010470748 0.020979544 0.028047401 4283858983
-0.0084060058 0.020450532 0.028358679 4283924774
-0.0061623305 0.019255903 0.029401708 4283990054
-0.0039078966 0.018062167 0.030442342 4284056353
-0.0018214881 0.017534941 0.030748956 4284056863
8.8881701e-05 0.017673649 0.030323338 4284056609
0.0018151924 0.018477708 0.029167272 4283990818
0.0035362579 0.019281464 0.028012436 4283925794
0.0052520484 0.020084908 0.026858825 4283797273
0.0077311471 0.018229287 0.028621245 4283730718
0.011979669 0.010394327 0.036933232 4283795488
-0.014663491 -0.0047111101 0.054762315 4283657024
-0.016451586 0.011498608 0.036683045 4283789879
-0.015808448 0.016991409 0.030380316 4283990563
-0.014069591 0.017798007 0.0292226 4283925029
-0.01250121 0.019273093 0.027333096 4283925284
-0.010943379 0.020747529 0.025445946 4283929873
-0.0090548545 0.020884335 0.025024958 4283929364
-0.0066463947 0.019016413 0.026797827 4283928599
-0.0042218119 0.017149739 0.028567165 4283990819
-0.0024955757 0.017955825 0.027412638 4284056609
-0.00023075193 0.016758572 0.028447762 4283990818
0.0013090558 0.018232103 0.026565012 4283991839
0.0032114908 0.018370375 0.026141264 4283794724
0.0045461431 0.020510027 0.023534417 4283795234
0.0068246089 0.019314071 0.024566729 4283794469
0.010086931 0.014785368 0.029229328 4283862809
0.016148712 0.00092821568 0.04404651 4283862809
-0.015647516 0.0058755018 0.039928548 4283525954
-0.015625939 0.01407291 0.030704431 4284055589
-0.014206488 0.016224537 0.028083041 4283991073
-0.01296797 0.019046143 0.0247338 4283993114
-0.011582911 0.021195395 0.022120241 4283730974
-0.0095320754 0.020660922 0.022431288 4283730464
-0.007129617 0.018785957 0.024200551 4283731483
-0.004886806 0.017582539 0.025237165 4283991074
-0.0031684712 0.018390222 0.024086025 4284056609
-0.0012743026 0.018527715 0.023663983 4283925029
0.00061996281 0.018665293 0.023241982 4283926559
0.0019550286 0.020811489 0.020639913 4283601688
0.0034632534 0.022287253 0.018767586 4283597863
0.0055361465 0.021754993 0.019074181 4283661104
0.0089754313 0.016540714 0.024454057 4283661103
0.013442934 0.0079859719 0.033446077 4283728678
-0.015603695 0.011819433 0.030291259 4283988779
-0.014992211 0.017345129 0.024021834 4283926048
-0.013598785 0.019501464 0.021411261 4283925029
-0.012221254 0.021656772 0.018804243 4283791919
-0.010348931 0.021792354 0.018386828 4283726893
-0.0079578124 0.019909948 0.020153664 4283794978
-0.0055505969 0.018028824 0.021916924 4283859748
-0.0038401671 0.018838113 0.020769173 4283925029
-0.0021349788 0.019647097 0.019622648 4283991329
-0.00043505058 0.020455776 0.018477349 4283992093
0.00088715553 0.0226076 0.015883056 4283668499
0.0025712363 0.023415288 0.014741411 4283469599
0.0044416003 0.023551343 0.014324894 4283469088
0.0072831921 0.020331813 0.017524993 4283534114
0.011136021 0.013759598 0.024332795 4283663144
0.017437113 -0.00085761398 0.039794307 4283663144
-0.015900493 0.010913469 0.028416175 4283790134
-0.015938357 0.019159283 0.019244751 4283925538
-0.014557797 0.021321246 0.016641948 4283797018
-0.012691017 0.02145632 0.016225692 4283730208
-0.010824122 0.021591481 0.015809465 4283797274
-0.008439023 0.019702071 0.017572654 4283798803
-0.0063885413 0.019163249 0.01788062 4283860258
-0.0045106485 0.019299448 0.017462125 4283925029
-0.0029940829 0.020784374 0.015594264 4283925539
-0.0013047233 0.021594463 0.014452953 4283860258
0.00037937984 0.022404252 0.013312872 4283794724
0.0022469163 0.022540009 0.012896916 4283467303
0.0039231479 0.023349384 0.011758706 4283335979
0.0063702464 0.021465104 0.013508549 4283334959
0.0094235353 0.017562609 0.017418256 4283660848
0.014702033 0.0062599964 0.029246714 4283660848
-0.015878532 0.0086560249 0.028000109 4283526208
-0.016558859 0.019639974 0.015938336 4283990818
-0.015350323 0.022485664 0.012615429 4283861278
-0.013327144 0.021942455 0.012927603 4283664928
-0.011468343 0.022077007 0.012513164 4283533604
-0.0094369352 0.021534547 0.012823621 4283531053
-0.0074000694 0.020992523 0.013132965 4283596588
-0.0053577796 0.020451007 0.013441114 4283859239
-0.0036710799 0.021263009 0.012301967 4283793448
-0.0016232766 0.02072205 0.012609007 4283596588
0.00042992458 0.020181572 0.012914905 4283465773
0.0023000352 0.020317508 0.012498366 4283201338
0.0035966672 0.022480791 0.0099197365 4282279768
-0.015379932 0.004353568 0.029759753 4283459908
-0.016693208 0.018093929 0.014818596 4283924009
-0.015648324 0.0216283 0.010777047 4283858474
-0.013795082 0.021762343 0.010363769 4283661614
-0.012111366 0.02257601 0.0092266183 4283266619
-0.010432869 0.023389345 0.0080907438 4282673744
-0.008409638 0.022844164 0.0084014311 4282280789
-0.0060256757 0.020941569 0.010155143 4282674253
-0.0041665696 0.021076448 0.0097408649 4282675018
-0.0033202693 -0.065124512 0.021761363 4282738259
-0.0023237392 -0.060547281 0.01723426 4283000398
-0.0034646168 -0.066788226 0.020556336 4282281298
-0.002806332 -0.060716201 0.014682787 4282087753
-0.004109215 -0.066222027 0.017320512 4281498448
-0.0032881051 -0.06087606 0.012137936 4283067464
-0.0049191788 -0.064896986 0.013419101 4282410838
-0.0047286265 -0.061300967 0.0045429152 4282411349
-0.005038552 -0.062176172 0.0026944075 4281955919
-0.0058534406 -0.060784761 -0.0011559706 4282411093
-0.0079669431 -0.044870857 -0.018086988 4282804048
-0.0089566559 -0.042644549 -0.022543652 4282281043
-0.0094327368 -0.042677198 -0.024994869 4282020688
-0.010248765 -0.041175615 -0.02876256 4282086223
-0.010976687 -0.029604848 -0.039092649 4284311353
-0.010212362 -0.043480035 -0.029217783 4281890384
-0.010762081 -0.032640774 -0.038865302 4283135549
-0.0091563836 -0.050390366 -0.025726011 4281888598
-0.009167023 -0.041819397 -0.033382215 4282153799
-0.0081842914 -0.037851918 -0.037082501 4284245818
-0.0067134947 -0.05488636 -0.024650015 4282609738
-0.0049896017 -0.05398019 -0.025728999 4282935884
0.0052650459 0.023291854 0.0087849665 4279980945
0.0077141933 0.021401173 0.010529529 4279717784
0.01217122 0.012760092 0.019459844 4279914643
-0.0021244027 0.020532867 0.010047501 4281687913
-7.6815486e-05 0.019989735 0.010353046 4280443259
0.0015995316 0.020803437 0.0092179682 4278672793
0.0028886534 0.022972709 0.0066459766 4278604453
0.0067932531 0.022565069 0.0065382067 4278404023
0.010640014 0.015926611 0.013298118 4278272954
0.016960051 0.00116596 0.028647039 4278272954
-0.015781771 0.020093495 0.009665465 4280376448
-0.014262199 0.021591345 0.0078064464 4279850893
-0.0066923723 0.021445619 0.0068789367 4278338488
-0.0044811219 0.020217977 0.0079062413 4278734758
-0.002624698 0.020352719 0.0074926056 4278472363
-0.00076820701 0.020487551 0.0070790146 4278603688
0.0019910336 0.024158312 0.0026644329 4279061158
0.0034474507 0.025652401 0.00082009844 4279651993
0.0058738925 0.023746876 0.0025598472 4279193503
0.013998311 0.0090693906 0.017470958 4278667948
-0.015671667 0.0095265768 0.018359177 4281228403
-0.015751224 0.017874641 0.0092759039 4278736034
-0.01472849 0.021429377 0.0052557308 4278734758
-0.013393782 0.023614461 0.0026828637 4278405298
-0.012074951 0.025798434 0.00011363998 4279782044
-0.0071806014 0.021279776 0.0043314025 4278271934
-0.0047952458 0.019364173 0.0060749901 4278799018
-0.0033067949 0.020864638 0.0042265505 4278537898
-0.0016436689 0.021681609 0.003097659 4278472363
0.0029275641 0.025495155 -0.001712231 4278536113
0.0051520467 0.024264624 -0.00069082808 4278667949
0.0079830438 0.020989561 0.0024706535 4278274483
-0.015721016 0.015651617 0.0088833086 4278735013
-0.013864115 0.023467779 0.00014470797 4278471088
-0.012550149 0.025658002 -0.0024185674 4279388833
-0.010205664 0.023732658 -0.00067093782 4278798764
-0.005468417 0.019885769 0.0028137052 4278274739
-0.0038052797 0.020704839 0.0016863793 4278537898
-0.002332475 0.022208629 -0.00015523378 4278669224
-0.0010579973 0.024396451 -0.0027092854 4278341293
0.010504097 0.016856866 0.0037968569 4278406574
0.016237155 0.0040040687 0.016898006 4278734248
-0.016181771 0.015490547 0.0063317344 4278866084
-0.010860275 0.024282195 -0.0039164573 4278272698
-0.0059608445 0.019733256 0.00027730875 4278734249
-0.0041207373 0.019866766 -0.00013272837 4278603178
-0.002835203 0.02206192 -0.0026844344 4278537898
-0.0011904947 0.022882013 -0.0038058856 4278406828
0.00063914806 0.023015022 -0.0042133979 4278864808
0.0024688356 0.023148123 -0.0046208533 4278800039
0.0041030385 0.023967711 -0.0057397708 4278734504
0.0065247826 0.022042211 -0.0040137465 4278603434
0.0091634542 0.019431919 -0.0015808563 4278603688
0.013858978 0.0099650882 0.0079447813 4278603433
-0.016151633 0.013265803 0.005937878 4279259294
-0.016786538 0.023760924 -0.0052229315 4278603178
-0.015308395 0.025273317 -0.0070595895 4278536879
-0.013498098 0.025404306 -0.0074632498 4278733229
-0.011339661 0.024155036 -0.0064374944 4278602414
-0.0091704652 0.022906683 -0.0054141078 4278603434
-0.0068111643 0.020969383 -0.0036795321 4278603433
-0.0049818344 0.021102106 -0.0040871729 4278472363
-0.003337115 0.021924287 -0.0052070646 4278407083
-0.0016976707 0.022746215 -0.0063257609 4278668969
0.0005065687 0.021500798 -0.0053098141 4278537898
0.0025288388 0.020945095 -0.0050067366 4278603178
0.0039704405 0.022455664 -0.0068345526 4278668203
0.0076244846 0.022721915 -0.0076479511 4278533309
-0.015958682 0.010343783 0.0062564602 4280374664
-0.016751315 0.021565292 -0.0055964161 4278603688
-0.015438717 0.023775002 -0.008144727 4278538154
-0.013457369 0.023213405 -0.0078347167 4278603433
-0.011644412 0.023344651 -0.0082389247 4278930599
-0.0098313577 0.023475988 -0.0086430917 4279126694
-0.0074807443 0.021531463 -0.0069115157 4279061159
-0.0052958652 0.020279977 -0.0058947438 4278799273
-0.0034692362 0.020412581 -0.0063017234 4278603434
-0.0016425475 0.020545259 -0.0067086648 4278407083
0.00037403032 0.019986849 -0.0064060367 4278537643
0.0022035055 0.020119922 -0.0068134549 4278405808
0.003057234 0.023707157 -0.010762467 4278405554
0.0046756268 0.024530096 -0.011874573 4278534328
0.0062887296 0.025352703 -0.012985386 4278599609
-0.014788613 0.0032410994 0.010852031 4281946993
-0.016053867 0.016584883 -0.0031198496 4278735013
-0.015232377 0.020886984 -0.0078043286 4278603178
-0.013587944 0.021713099 -0.0089212758 4278537643
-0.0083280914 0.022801213 -0.010844021 4278337213
-0.0036013313 0.018901108 -0.0073962156 4278537643
-0.0021486878 0.02042101 -0.0092201876 4278668713
-0.00013774633 0.019859979 -0.0089179557 4278864808
0.0013016872 0.021379059 -0.010738805 4278340019
0.0023405664 0.024283532 -0.013970705 4278536369
0.0037534274 0.025800863 -0.015785499 4279323809
0.0055562407 0.025932258 -0.016186783 4278865318
0.0081709363 0.023294024 -0.013768235 4278668458
0.012246437 0.015811656 -0.0064238049 4278930344
0.018463604 0.001413215 0.0079452377 4278799274
-0.013133224 -0.0059892386 0.017558986 4282012273
-0.015192859 0.010885309 5.2574091e-05 4280897668
-0.015026774 0.01799044 -0.0074701868 4278538153
-0.013889246 0.02091 -0.010718134 4278537899
-0.012599494 0.023131302 -0.013251364 4278536879
-0.011149555 0.024655016 -0.015071731 4278865318
-0.0041016005 0.018781936 -0.0099055665 4278864554
-0.0024672374 0.019610001 -0.011018186 4278864808
-0.0010275878 0.021133425 -0.012835918 4278668969
0.00040145218 0.022656118 -0.014651183 4278405809
0.0050250329 0.02583052 -0.018674511 4278667439
0.016452333 0.0060906224 0.00048848707 4278406064
-0.014334079 0.0051595196 0.0032060696 4281488248
-0.015157722 0.016484065 -0.0085611837 4278735269
-0.013422325 0.024436252 -0.017164322 4278471088
-0.011806857 0.02526479 -0.018271426 4279324319
-0.0096608773 0.023997199 -0.017255925 4278930088
-0.0031585321 0.020199718 -0.014223468 4278864808
-0.0017265938 0.021726921 -0.01603616 4278865319
-0.00049719959 0.023951093 -0.01855059 4278799273
0.010131005 0.019032724 -0.014941535 4278537134
0.014236674 0.011504475 -0.0076398798 4278668969
-0.013312504 -0.0012941994 0.007048998 4281619573
-0.015456349 0.015679505 -0.010359878 4279325848
-0.0054671392 0.019971633 -0.0163131 4278471853
-0.0036622323 0.020102685 -0.016715223 4278800038
-0.0024244264 0.022333944 -0.019226681 4278668968
-0.0010108352 0.023864273 -0.021031952 4278668714
0.00058650225 0.024694327 -0.022132896 4278733994
0.0021785647 0.025524056 -0.023232548 4278995878
0.0041647553 0.024955001 -0.022929465 4278734504
0.006358698 0.02368735 -0.021927301 4278603434
0.0089734234 0.021022851 -0.019528341 4278603434
0.012232635 0.016264036 -0.015037157 4278668713
0.018474571 0.0017293878 -0.0007768292 4278668713
-0.015084397 0.012064509 -0.0093300398 4279522199
-0.015811797 0.022750305 -0.0203226 4278668714
-0.014371779 0.024286265 -0.022130981 4278930343
-0.012766801 0.025118355 -0.023232441 4279061413
-0.010810692 0.024544157 -0.02292487 4278733738
-0.0086683109 0.023267642 -0.021915128 4278864808
-0.0061481334 0.020586731 -0.019502249 4278930854
-0.0041651428 0.020014776 -0.019200444 4278865574
-0.0027433373 0.021549975 -0.021004347 4278603433
-0.0013321526 0.023084551 -0.022805844 4278472363
0.0006509982 0.022512842 -0.022503827 4278668714
0.0024426579 0.022643309 -0.022902716 4278602923
0.0040348172 0.023475368 -0.024000727 4278799273
-0.014378864 0.0070246011 -0.0069002388 4281487738
-0.01543019 0.019155968 -0.019279979 4278734759
-0.014327269 0.022108098 -0.022493962 4278538154
-0.012719557 0.02294256 -0.023594409 4278668458
-0.011473108 0.025187181 -0.026098264 4278668713
-0.0095198825 0.024610667 -0.025791625 4278667694
-0.0071945824 0.022624968 -0.024083845 4278536624
-0.0048532337 0.020640526 -0.022379577 4278930344
-0.0030618273 0.020770688 -0.022778623 4278275758
-0.0014617145 0.021605209 -0.023876995 4278537898
0.00032712519 0.021735374 -0.024275325 4278603178
0.0021159984 0.021865632 -0.0246736 4278602669
0.0035062507 0.023403304 -0.026466906 4278733229
-0.012672298 -0.0022861846 -0.00026766863 4281815669
-0.014540251 0.013424698 -0.016139291 4279062688
-0.014110625 0.019217994 -0.022158062 4278275758
-0.013022937 0.022177825 -0.025361983 4278471853
-0.0086053647 0.026099561 -0.030048326 4278271679
-0.00572595 0.021986648 -0.026247898 4278403004
-0.0033799075 0.019996114 -0.024549562 4278406573
-0.0017823763 0.020832593 -0.025645675 4278472363
-0.00019012392 0.02166879 -0.026740538 4278799784
0.001200363 0.023210755 -0.028530696 4278405808
0.0041512214 0.02558702 -0.031408377 4279453858
0.0059213936 0.025716212 -0.031802267 4279454368
0.0085201226 0.023024356 -0.029419346 4278667438
0.012398977 0.016103648 -0.022879547 4278536113
0.018880768 0.00072821602 -0.008035522 4278864044
-0.01399181 0.009087652 -0.014419341 4279718549
-0.014411565 0.018449334 -0.023929248 4278341295
-0.0133259 0.02141781 -0.027126217 4278668458
-0.01261672 0.025804058 -0.0317166 4278537644
-0.011038013 0.026640961 -0.032807183 4278866083
-0.0042623989 0.021352677 -0.028407285 4278799529
-0.0022935644 0.020773284 -0.028107127 4278930854
-0.00090019405 0.022319777 -0.029894767 4278799784
0.00028628483 0.024573812 -0.032374881 4278405808
-0.0090809837 -0.06741409 0.060025949 4281884008
-0.013275433 0.0040208474 -0.012012677 4278407084
-0.014539983 0.016973158 -0.024998346 4278472874
-0.012920886 0.025061665 -0.033467241 4279192483
-0.011524871 0.026612243 -0.035252564 4279128224
-0.0099566877 0.027450651 -0.036339097 4278996134
-0.0076520704 0.025443809 -0.034641407 4278930088
-0.0053314082 0.023438225 -0.032947227 4278406319
-0.0029947162 0.021433948 -0.031256586 4278930854
-0.0014156513 0.022273552 -0.032345243 4278603178
-0.00023404881 0.024533847 -0.034819398 4278865319
0.0011303425 0.026082741 -0.036597133 4278274739
0.0098320767 0.020919738 -0.032637268 4278275504
0.013730798 0.013956804 -0.026134577 4278734248
-0.011025548 -0.070730105 0.060642052 4282406759
-0.0095373169 -0.067715973 0.057367694 4282209898
-0.012560919 -0.0010677055 -0.0096217692 4281094019
-0.014840264 0.016211655 -0.026764359 4278932129
-0.0058347806 0.023406353 -0.035390384 4278667948
-0.0035041012 0.021395022 -0.033703275 4278799783
-0.0019302964 0.022236431 -0.03478913 4278537898
-0.00075357035 0.024502916 -0.037257299 4278472618
0.00060574338 0.026055871 -0.039030671 4278537898
0.0023568757 0.026183562 -0.039420404 4278800294
0.0043119229 0.025599239 -0.039120041 4278669224
0.006685406 0.023591677 -0.037442051 4278734503
0.0088656805 0.022297034 -0.036456294 4278537898
0.012116019 0.01744579 -0.032031819 4278538154
0.017763719 0.0047729798 -0.020051699 4278538154
0.047744952 -0.073003098 0.054168459 4278537898
-0.011175528 -0.072467566 0.059383396 4282667624
-0.0099928156 -0.068008751 0.054716092 4282078063
-0.011341125 -0.0083284453 -0.0051582577 4281159808
-0.014453258 0.012588356 -0.025744909 4279652503
-0.014929753 0.022031369 -0.035178222 4278341548
-0.012316447 0.025865918 -0.039429795 4278405809
-0.0084609017 0.02468748 -0.038821422 4278799273
-0.006149631 0.022668066 -0.03713499 4278930854
-0.0042030662 0.022080466 -0.036834799 4278668969
-0.0022511259 0.02149337 -0.036535725 4278472618
-0.00068521127 0.022336468 -0.037618123 4278603689
0.00087540969 0.023179298 -0.038699262 4278407083
0.0026317574 0.023307377 -0.039090149 4278734504
0.0043881126 0.023435554 -0.039480969 4278799784
0.0061444864 0.023563838 -0.039871708 4278930343
0.0079008639 0.023692204 -0.040262394 4278602159
-0.010294612 -0.069012567 0.052769154 4282077553
-0.0082121231 -0.068862751 0.052304149 4282470763
-0.014067367 0.0089521743 -0.024734864 4280570504
-0.014881875 0.019861609 -0.03553585 4278406828
-0.014184557 0.024299471 -0.040084325 4278734248
-0.012442045 0.024425721 -0.040472746 4278996134
-0.01088164 0.02527011 -0.041552659 4278734503
-0.0089568086 0.024678536 -0.04124942 4278603433
-0.0068390965 0.023369797 -0.040256955 4278668968
-0.0047106557 0.022061905 -0.039266754 4278472618
-0.0027643591 0.021472195 -0.038968064 4278276013
-0.0012037046 0.022317117 -0.040047646 4278472874
0.00054981932 0.022444872 -0.040438 4278407083
0.0025042035 0.021856057 -0.04014089 4278472108
0.0040569454 0.022700708 -0.041218475 4278471853
0.0093177035 0.023085229 -0.042388633 4278270914
0.012998726 0.016772183 -0.036618635 4278402238
0.020413727 -0.0017010123 -0.019233955 4278402238
-0.010901369 -0.068566918 0.049432632 4282012018
-0.0088269934 -0.068417713 0.048969425 4282208879
-0.01282591 0.001697924 -0.020272495 4281553784
-0.014312349 0.015525207 -0.033821262 4278931874
-0.01378002 0.0206977 -0.039053693 4278537898
-0.012208957 0.021544941 -0.040134426 4278668713
-0.011007134 0.023832364 -0.042593807 4278602669
-0.0055974126 0.023491766 -0.043068521 4279058609
-0.0034694523 0.022179609 -0.042081453 4279126438
-0.0015261061 0.021587595 -0.041783676 4278538154
0.00042261556 0.020996027 -0.041486982 4278734504
0.0021760426 0.021123886 -0.041877225 4278602668
0.0037261732 0.021970574 -0.042952642 4278274484
0.0050650276 0.023535423 -0.044711359 4278732974
0.0063932277 0.0250996 -0.04646764 4278930853
0.0083446652 0.024508789 -0.046171203 4278274738
0.047607422 -0.072382361 0.044436023 4278274738
0.053887092 -0.078523412 0.049614545 4278799528
0.056016024 -0.078366682 0.049141854 4279783573
-0.011201907 -0.069556892 0.047495726 4282143854
-0.009285517 -0.068683505 0.046338789 4282340204
-0.011245202 -0.0070376694 -0.014453974 4281684853
-0.013744317 0.011171483 -0.032119222 4279128988
-0.013729516 0.018528609 -0.039411478 4278472108
-0.012513991 0.020823527 -0.041869119 4278471599
-0.010315169 0.026132455 -0.047461294 4278404789
-0.0087758228 0.02697986 -0.048533101 4278271933
-0.0043658055 0.023622183 -0.045871042 4278341039
-0.0020431913 0.02158419 -0.044201657 4278537898
-0.00029790774 0.021711353 -0.04459016 4278734248
0.0014473908 0.021838602 -0.044978611 4278864808
0.0056411885 0.025823552 -0.049555637 4278866084
0.0075843111 0.025229946 -0.049258985 4278865574
0.0099603087 0.023196585 -0.047600925 4278668713
0.01430019 0.014685243 -0.0398205 4278406573
0.021552324 -0.003177803 -0.023213372 4278406573
0.044535637 -0.064770222 0.034351818 4278734504
0.05092071 -0.078281716 0.046779402 4278799783
0.05585961 -0.080125719 0.047868833 4279062944
0.058223419 -0.080687404 0.048072785 4281619064
-0.011197403 -0.071995646 0.046948805 4282275179
-0.0097432137 -0.068940222 0.04371478 4282209134
-0.0079949088 -0.067338958 0.041869834 4282536809
-0.012656949 0.0046247505 -0.028364126 4281356924
-0.013503093 0.015630402 -0.039084345 4278668969
-0.012166042 0.024580991 -0.04810939 4279061669
-0.010808289 0.026155129 -0.049866393 4278735014
-0.0092742108 0.027004352 -0.050935388 4278341549
-0.0069870241 0.024957055 -0.049263224 4278602669
-0.0048760623 0.023634855 -0.048278883 4278537134
-0.0027544163 0.022313574 -0.047296897 4278799273
-0.0010172576 0.022440126 -0.047683612 4278603434
0.00051968172 0.023290083 -0.048752844 4278406828
0.01244067 0.018996231 -0.046314076 4278275249
0.017696328 0.0075739846 -0.035848256 4278472363
0.052656326 -0.079156607 0.044364247 4278275249
0.055470988 -0.081163511 0.04592054 4278473128
0.057596892 -0.08100684 0.045448642 4279128988
0.059722722 -0.08085005 0.044976849 4282013038
-0.011193238 -0.074438483 0.046398945 4282405993
-0.0098905414 -0.070645332 0.042479601 4281881459
-0.0081419833 -0.069039702 0.040637851 4282340204
-0.011572201 -0.001952529 -0.024631096 4281619064
-0.01380565 0.014905334 -0.040822469 4278734758
-0.011300605 0.026186898 -0.052264921 4278274738
-0.0097717978 0.027037948 -0.053331155 4278799274
-0.0030749775 0.021604646 -0.049017943 4278799784
-0.0015380047 0.022456676 -0.050085641 4278472363
-0.00020641088 0.024033947 -0.051833134 4278407083
0.00091183931 0.0263358 -0.054258555 4278734504
0.0026302785 0.026461305 -0.054640859 4278996388
0.0041406713 0.027311809 -0.055702332 4278668714
0.0062778853 0.025987931 -0.054726604 4278930853
0.0088525191 0.023215871 -0.052397028 4278865829
0.011448458 0.020445462 -0.050072119 4278800038
0.015377954 0.013331972 -0.043690622 4278800038
0.023566831 -0.0075322241 -0.024471523 4278800038
0.048569374 -0.075273752 0.038167592 4278865829
0.052271515 -0.080182865 0.042423539 4278865574
0.054618701 -0.080750227 0.042627841 4278473129
0.056971166 -0.081317142 0.042831104 4278866593
-0.01034699 -0.070888177 0.039865632 4281815669
-0.0087607913 -0.068547785 0.037339296 4282012528
-0.01358011 0.011996686 -0.040502902 4280177039
-0.01431939 0.022333562 -0.050473846 4278341548
-0.0055104271 0.022230947 -0.051712491 4278734758
-0.0035896674 0.021628475 -0.051416207 4278800294
-0.0020579696 0.022482345 -0.052481145 4278800549
-0.00053156167 0.0233359 -0.053544771 4278735013
0.0011920631 0.023461666 -0.053928323 4278800549
0.002915699 0.023587558 -0.054311782 4278735269
0.0048471987 0.022986455 -0.054017521 4279194014
0.0069945678 0.021658882 -0.053047292 4278997409
0.0093657672 0.019605512 -0.051402882 4278997408
0.011321232 0.019006476 -0.051113717 4278735014
0.014811626 0.013323613 -0.046098657 4278735269
0.022768214 -0.0068786517 -0.027599199 4278735014
0.04728312 -0.073376685 0.03354679 4278997408
0.05142875 -0.079753235 0.039140422 4278800803
0.053767614 -0.080323458 0.039344978 4278735269
0.056346223 -0.081618249 0.040220156 4278866594
0.058223933 -0.080737293 0.039079677 4282602854
-0.010957021 -0.070388734 0.036570281 4282077554
-0.0092213303 -0.068775281 0.03473787 4281880949
-0.013003893 0.0076162033 -0.038823158 4280176783
-0.01408669 0.019447507 -0.050139282 4278341548
-0.013444364 0.023960304 -0.054616515 4278668969
-0.011731777 0.024084538 -0.054998156 4278996643
-0.0098327734 0.023477979 -0.054698899 4279061923
-0.0075503699 0.021410652 -0.053040393 4278931364
-0.0054436177 0.020074995 -0.052064963 4278996898
-0.0035205185 0.019470565 -0.051770866 4278931619
-0.0017890781 0.019596696 -0.052156307 4278931874
0.00014206395 0.018993054 -0.051863849 4278735268
0.0018762164 0.019119602 -0.052249737 4278473129
0.0040203892 0.017787216 -0.051282227 4278538664
0.0079200454 0.016583417 -0.050705053 4278408104
0.011840988 0.015381623 -0.05013229 4278342569
0.015337685 0.0096817426 -0.045131721 4278538918
0.023517661 -0.011309884 -0.026005512 4278538918
0.051503103 -0.08222115 0.038552418 4278342569
0.053612627 -0.082065791 0.038084067 4278801059
0.055722088 -0.081910282 0.037615851 4279195034
-0.011565879 -0.069875732 0.033284727 4282339183
-0.0098379366 -0.068258554 0.031457338 4280372879
-0.011902634 0.0010169074 -0.035111174 4280897923
-0.013676558 0.015819341 -0.049129955 4278997664
-0.013025213 0.020345856 -0.05359935 4278538664
-0.01148827 0.021203889 -0.054662548 4278931874
-0.0092119463 0.019129442 -0.053007685 4278800548
-0.0072972365 0.01852194 -0.052713484 4278669478
-0.0049941912 0.016449653 -0.051064409 4278342059
-0.003063418 0.01584354 -0.050773628 4278407594
0.0010136515 0.013900809 -0.049519241 4278276524
0.0029631332 0.013296422 -0.04923242 4278276779
0.0051227733 0.011960804 -0.048271611 4278538918
0.0070855878 0.011357613 -0.047987591 4278735778
0.0088436007 0.01148624 -0.048378535 4278736033
0.01081441 0.010883853 -0.048096132 4278998174
0.012790546 0.010281924 -0.047814786 4278998174
0.01651698 0.0038347468 -0.042157821 4278802078
0.024486382 -0.016488988 -0.023752742 4278802078
0.046525452 -0.075356677 0.02971625 4278998173
0.050433166 -0.081043333 0.034612797 4278802078
0.052763321 -0.081618503 0.034815986 4278932894
0.054864638 -0.08146359 0.034349579 4279653269
-0.012173526 -0.069349289 0.03000899 4283058794
-0.010610029 -0.066990897 0.02750241 4281619319
-0.0090623759 -0.064633533 0.024999455 4282012529
-0.011329979 -0.0034047812 -0.033461276 4281488760
-0.012911577 0.010706551 -0.046771176 4280242828
-0.01242654 0.015982836 -0.051912762 4278669988
-0.010512266 0.015372939 -0.051620305 4278735523
-0.0084066316 0.014028259 -0.050651316 4278408103
-0.0062903054 0.012684494 -0.049684674 4278539174
-0.004354585 0.012076482 -0.049396761 4278473639
-0.0024134964 0.011468966 -0.049109958 4278473383
-0.00046703592 0.010861918 -0.048824217 4278473383
0.0014847629 0.010255408 -0.048539631 4278669988
0.0034419075 0.0096494034 -0.048256144 4278801313
0.0054043904 0.0090438947 -0.047973771 4278670498
0.0073722191 0.0084388442 -0.047692463 4278932639
0.0093453676 0.0078343377 -0.047412291 4278801569
0.010898627 0.0086969472 -0.048476584 4279194523
0.01330762 0.006626837 -0.046855241 4278998429
0.017040174 0.00016040727 -0.04121431 4278867614
0.025453156 -0.021689784 -0.021515734 4278932894
0.046599075 -0.077804267 0.029143579 4279128989
0.050279152 -0.082776204 0.033358701 4278867614
0.052377708 -0.082621589 0.032892823 4279195034
0.054242298 -0.081735179 0.031760089 4278932638
-0.011067569 -0.067184508 0.024925582 4282012273
-0.0092065074 -0.066299707 0.023792528 4282143343
-0.010583691 -0.008581996 -0.031145522 4281685108
-0.01214847 0.0055720024 -0.04442808 4280570758
-0.011648916 0.010864679 -0.049561493 4279195034
-0.0099047683 0.010991167 -0.04995019 4278801059
-0.0077890083 0.0096428879 -0.048986778 4278735778
-0.0058509782 0.0090327077 -0.048701044 4278866848
-0.0039075911 0.0084230639 -0.048416469 4278670243
-0.0021526068 0.0085507855 -0.048807248 4278866594
-4.734844e-06 0.0072052851 -0.047850657 4278866848
0.0015565418 0.0080701038 -0.048915513 4278670498
0.0037177876 0.0067257583 -0.04796169 4278736033
0.005480852 0.006854523 -0.048353925 4278735779
0.0076580867 0.0055116042 -0.047403533 4278998429
0.009216737 0.00637668 -0.048467472 4278998174
0.011194877 0.0057704747 -0.048189957 4278867104
0.013393402 0.0044294521 -0.04724405 4278998429
0.01734448 -0.00279174 -0.040949054 4279259804
0.025095589 -0.022502627 -0.023304377 4278932894
0.045769431 -0.077317804 0.02589944 4278998429
0.049439978 -0.082305685 0.030105203 4279259804
0.051761441 -0.082885817 0.030307084 4279456408
0.053620741 -0.081997558 0.029177174 4280767874
-0.02304858 -0.071207792 0.027793817 4282863719
-0.011680618 -0.066627204 0.021674367 4282274158
-0.0096685216 -0.06648241 0.021225115 4281815923
-0.0073330738 -0.067820251 0.02213545 4282144363
-0.011742443 0.001896318 -0.043453179 4280570759
-0.011053439 0.0064648502 -0.04790156 4279522198
-0.0094816945 0.007331945 -0.048967618 4279259804
-0.0075440481 0.0067194775 -0.048683569 4278932384
-0.0057892837 0.0068469495 -0.049074471 4278997919
-0.0038435608 0.006235294 -0.048792053 4278997919
-0.0020860471 0.0063632056 -0.049183387 4278997919
-0.00013227016 0.0057523549 -0.048902601 4279063454
0.0018268712 0.0051419772 -0.048622865 4278866849
0.0037913509 0.0045321211 -0.048344299 4278932639
0.0055569373 0.0046610795 -0.04873709 4278866848
0.0075294226 0.004052043 -0.048460126 4278867104
0.0095072351 0.0034435093 -0.048184268 4278867104
0.011278156 0.0035731941 -0.048577994 4278932639
0.013693709 0.001490403 -0.046967883 4279063964
0.017648021 -0.0057523251 -0.040689979 4278997664
0.025178866 -0.024785127 -0.023756102 4279063964
0.045166492 -0.077554494 0.023330595 4279063964
0.049058393 -0.083294734 0.028191447 4278997664
0.051145986 -0.083140925 0.02772801 4279259804
0.053233515 -0.082987025 0.027264666 4282078318
-0.021453381 -0.07124497 0.024765179 4282993768
-0.011980243 -0.067544356 0.019791687 4282732138
-0.009970963 -0.067399785 0.01934305 4281946738
-0.0078001395 -0.067998663 0.019572651 4281816688
-0.0056238696 -0.068597019 0.019801131 4282015078
-0.011337537 -0.0017923489 -0.042487599 4281422204
-0.010819606 0.003532216 -0.047602247 4279456409
-0.0096079409 0.0058859512 -0.050014731 4279128989
-0.0076706298 0.0052712746 -0.049732238 4278932129
-0.005915992 0.0053987503 -0.050123107 4278866849
-0.0035891533 0.0033019111 -0.048498929 4279128989
-0.0014396943 0.0019476637 -0.047549311 4279194523
0.00052440539 0.0013353825 -0.047272459 4279063454
0.0022951514 0.0014644861 -0.047666572 4279128989
0.0040659159 0.0015937015 -0.048060603 4278997919
0.0058366917 0.0017230287 -0.04845456 4278997919
0.0078141689 0.0011121817 -0.048180334 4279194523
0.0095876232 0.0012419298 -0.048574716 4278735779
0.011573099 0.00063185021 -0.048302054 4278866849
0.013778564 -0.00071740523 -0.047364231 4278867104
0.017733451 -0.0079819262 -0.041102789 4278801569
0.025041748 -0.026332352 -0.024875958 4278801569
0.044564366 -0.077782124 0.020768378 4278867104
0.04799322 -0.08206284 0.024290979 4278867359
0.050069999 -0.081909835 0.023829941 4279260824
0.052613378 -0.083233401 0.024693415 4282602598
-0.010272976 -0.068312407 0.017464353 4282012019
-0.008266408 -0.068167925 0.017016398 4281291644
-0.0064236149 -0.067277715 0.015892522 4281357689
-0.011288181 -0.0040045939 -0.042877432 4281356669
-0.010766376 0.001335483 -0.047981467 4279128989
-0.0093690827 0.0029517934 -0.049717952 4279063199
-0.0076119713 0.0030793175 -0.050109465 4278866849
-0.0056669526 0.0024631247 -0.04983025 4278997664
-0.0033354983 0.00036007166 -0.048211992 4279129499
-0.0011812374 -0.00099819526 -0.047266722 4279063964
0.00059200078 -0.00086902454 -0.047661476 4278867359
0.0025637969 -0.0014828704 -0.047387842 4278866594
0.0043397509 -0.001353275 -0.047783028 4278932128
0.0065233894 -0.0027089305 -0.04684395 4279391639
0.0083046816 -0.0025787316 -0.047240164 4279719314
0.010085981 -0.0024483986 -0.047636285 4279850638
0.011867277 -0.0023179464 -0.048032314 4280178314
0.01407754 -0.0036711991 -0.047098801 4280768640
0.018035682 -0.010957368 -0.040854394 4280965754
0.025564095 -0.030103821 -0.02400497 4280965754
0.04396303 -0.07800059 0.018212739 4280900218
0.047157425 -0.081553936 0.021065261 4281490799
-0.010416184 -0.069968536 0.016264688 4282076024
-0.0087318644 -0.068328127 0.014466772 4281028994
-0.0072217919 -0.065940529 0.011996856 4281817963
-0.011062156 -0.0069678016 -0.042598836 4281095804
-0.010354135 -0.0023586005 -0.04702206 4279325339
-0.0091309473 9.0636313e-06 -0.049427308 4278866849
-0.0075536668 0.00088325143 -0.050489668 4278801569
-0.0057939887 0.0010110736 -0.050881673 4279129499
-0.0034632534 -0.0010985732 -0.049268156 4279129499
-0.001309514 -0.0024612471 -0.048326038 4279719313
0.00085490942 -0.0038230568 -0.047386158 4279850383
0.002633363 -0.0036934242 -0.047782011 4279981454
0.0048138015 -0.0050537921 -0.046845563 4279784849
0.0065976121 -0.0049235001 -0.04724241 4280703358
0.0085877366 -0.0055378005 -0.046974272 4281817453
-0.011033945 -0.06937325 0.013043264 4282011764
-0.0091965273 -0.06847921 0.011923743 4281684344
-0.0075278282 -0.066835403 0.010132631 4281882478
-0.011367347 -0.0076924451 -0.044335902 4282406249
-0.01066098 -0.0030702651 -0.048748955 4279325848
-0.0090757087 -0.0021934845 -0.049811512 4279195289
-0.0074957088 -0.0013169646 -0.050872806 4279260824
-0.0096603855 -0.068621188 0.0093872529 4282012019
-0.007670112 -0.06847778 0.0089430045 4281750389
-0.0060117319 -0.066830263 0.0071575884 4281884519
-0.0099629462 -0.069508627 0.0075276047 4282141815
-0.0081386417 -0.068611085 0.0064143585 4281028739
-0.0068169832 -0.06545122 0.0032952102 4281554294
-0.0090952404 -0.066465572 0.0018881271 4281750134
-0.0079518966 -0.062541515 -0.0018890933 4281816435
-0.011367366 -0.067474648 0.00048323814 4282601324
-0.010049906 -0.06429781 -0.0026219808 4282012019
-0.0090845078 -0.059605177 -0.0070541631 4281357433
-0.01084007 -0.062868774 -0.0064511211 4282142323
-0.0098843127 -0.058163729 -0.010871353 4280898179
-0.011466276 -0.062185001 -0.0096040573 4281290369
-0.010682553 -0.056704503 -0.014675593 4280373898
-0.0097682811 -0.051989261 -0.01907669 4281557099
-0.012091309 -0.06148776 -0.012747241 4281814904
-0.011314392 -0.05599251 -0.01780585 4280439434
-0.010072075 -0.052794654 -0.020874579 4281490799
-0.012553167 -0.06154466 -0.015220555 4282469744
-0.011286397 -0.058336455 -0.018288324 4280701064
-0.0097061545 -0.056664009 -0.020033421 4280505988
-0.012366965 -0.064671382 -0.015053285 4282926959
-0.010765318 -0.062993154 -0.016799996 4281225089
-0.0088399462 -0.06285423 -0.017229619 4280702594
-0.007593669 -0.059638534 -0.020286089 4281556589
-0.020968802 -0.073139578 -0.008771508 4281354119
-0.028217591 -0.070552871 -0.015061985 4282207858
-0.016328346 -0.07127589 -0.016339112 4282535534
0.002900701 -0.0066555291 -0.047514036 4284901168
0.0050859451 -0.0080199577 -0.046581887 4284966959
0.0070783943 -0.0086363703 -0.046315975 4285294888
0.008870054 -0.0085054152 -0.0467145 4285294889
0.010870494 -0.0091210045 -0.046450187 4285295143
0.012664817 -0.0089896023 -0.046849117 4285361188
0.014673233 -0.0096043944 -0.046586417 4285360933
0.018854616 -0.017679822 -0.039715137 4285360679
0.043437034 -0.080646798 0.01509887 4285360679
0.045944259 -0.081986368 0.015960388 4285294888
-0.0052988157 -0.0048939548 -0.05032035 4284966703
-0.0027689189 -0.0077662803 -0.048053402 4285229609
-0.00060292333 -0.0091367923 -0.047120549 4285163819
0.0015737563 -0.010506462 -0.046189949 4285098028
0.0035631694 -0.011125527 -0.045925181 4285229099
0.0057585351 -0.012493569 -0.044998541 4285295143
0.0073547661 -0.011612833 -0.046061248 4285360934
0.009151604 -0.011481494 -0.046460919 4285426723
0.010948453 -0.011350013 -0.04686049 4285426723
0.012745298 -0.011218425 -0.047259975 4285426978
0.014756048 -0.011835262 -0.04699938 4285426978
0.019154364 -0.02068292 -0.039486833 4285295398
0.04306208 -0.081592277 0.013215873 4285295398
0.045566078 -0.082936406 0.014074806 4285294889
-0.010377876 -0.0082457289 -0.04886226 4284966704
-0.0084209777 -0.008870054 -0.048592418 4285031983
-0.0064586997 -0.0094938502 -0.048323672 4285228843
-0.004303962 -0.010869794 -0.047391757 4285294633
-0.001948759 -0.012997303 -0.045798391 4285295143
0.00023002923 -0.014371306 -0.044871613 4285360933
0.0020293221 -0.014240257 -0.045272183 4285360679
0.0040263832 -0.014860924 -0.045010738 4285295399
0.0060287863 -0.015481111 -0.044750407 4285360933
0.0078334659 -0.015349295 -0.045151897 4285426978
0.0094324276 -0.014466099 -0.046213444 4285426979
0.011234447 -0.014334258 -0.046614181 4285361188
0.012825422 -0.013451405 -0.047673773 4285426469
0.015265904 -0.015571591 -0.046098627 4285360934
0.019453375 -0.023694549 -0.039264612 4285360678
0.042687539 -0.082533017 0.011336304 4285360678
0.045415342 -0.084631458 0.012848094 4285360678
-0.0097898468 -0.012731403 -0.047264583 4285360678
-0.0080042183 -0.012601942 -0.047662552 4285295143
-0.0058500357 -0.013982445 -0.046733823 4285295144
-0.0036851764 -0.015362013 -0.045807421 4285361189
-0.0015096143 -0.016740728 -0.044883285 4285360933
0.0004843846 -0.017364044 -0.044622976 4285360933
0.0024837442 -0.017986875 -0.044363774 4285360934
0.004488457 -0.018609177 -0.044105675 4285360934
0.0062982924 -0.018477116 -0.044508405 4285360934
0.0079052746 -0.017591286 -0.045570206 4285360933
0.0095069446 -0.016705688 -0.046630722 4285360934
0.011311483 -0.016573649 -0.047031999 4285295398
0.01332688 -0.017194588 -0.046775825 4285360934
0.015347589 -0.017815005 -0.046520751 4285360934
0.019535432 -0.025961939 -0.039704777 4285426214
0.041865073 -0.081964821 0.0081512704 4285426214
0.044584155 -0.084070489 0.0096601509 4285360678
-0.0095607638 -0.015719194 -0.047005147 4285228843
-0.0075885691 -0.016346786 -0.046741996 4285360933
-0.0056109913 -0.016973849 -0.046479933 4285426469
-0.00344133 -0.018357474 -0.04555783 4285360933
-0.0014503598 -0.018983316 -0.045298565 4285360934
0.00054596737 -0.019608673 -0.045040421 4285360933
0.002352953 -0.019477073 -0.045442712 4285360933
0.0043573268 -0.020101573 -0.045186162 4285360934
0.0059669986 -0.019213486 -0.046247017 4285295399
0.007976722 -0.019837353 -0.04599148 4285295399
0.0095811002 -0.018949408 -0.047050968 4285360933
0.012012169 -0.021083642 -0.045483653 4285295143
0.01403787 -0.021705981 -0.045231406 4285295144
0.016495544 -0.023838032 -0.043669824 4285295143
0.020697063 -0.032007892 -0.036874868 4285295143
0.041267775 -0.082137465 0.0056288689 4285360934
0.043754149 -0.083495975 0.0064819306 4285294633
-0.010424841 -0.021885533 -0.043703955 4285294124
-0.0093324222 -0.018715452 -0.046751931 4285294378
-0.0073552281 -0.019344885 -0.046491455 4285360424
-0.0055565313 -0.019214366 -0.046892259 4285360934
-0.0033847503 -0.02060217 -0.045973949 4285360678
-0.0013914555 -0.021230038 -0.045716837 4285426978
0.00060719624 -0.021857377 -0.045460835 4285426979
0.0024166964 -0.021725599 -0.045863684 4285295143
0.0042262226 -0.021593686 -0.046266437 4285294889
0.0066352524 -0.023736428 -0.044699382 4285360678
0.0086552799 -0.024361733 -0.044447772 4285295398
0.010885794 -0.025744457 -0.043541852 4285230118
0.013126951 -0.027126197 -0.042638231 4285164328
-0.01037886 -0.02413724 -0.044122383 4285228844
-0.0091048069 -0.021720242 -0.046504814 4285294633
-0.0069416426 -0.023113277 -0.045588024 4285360423
-0.005318772 -0.022220571 -0.046649087 4285360934
-0.0027695298 -0.025135238 -0.044419196 4285360933
-0.00057694688 -0.026525762 -0.043508686 4285360933
0.0018179752 -0.028676439 -0.041943658 4285360934
0.0038402639 -0.029304136 -0.041694462 4285360423
0.0060648769 -0.030692 -0.040790759 4285294379
0.0088990517 -0.034360278 -0.037924416 4285228843
0.011557553 -0.037266251 -0.035718292 4285228843
0.014237341 -0.040170502 -0.033516854 4285294889
0.016523205 -0.041553367 -0.032626394 4285163564
0.018819695 -0.042935316 -0.031738259 4285097519
-0.0083434731 -0.027026076 -0.044289485 4285163564
-0.005805891 -0.029950548 -0.042063694 4285163819
-0.0036139265 -0.031345721 -0.041156486 4285163563
