# .PCD v0.7 - Point Cloud Data file format
VERSION 0.7
FIELDS x y z rgba
SIZE 4 4 4 4
TYPE F F F U
COUNT 1 1 1 1
WIDTH 982
HEIGHT 1
VIEWPOINT 0 0 0 1 0 0 0
POINTS 982
DATA ascii
0.012158625 -0.010886237 -0.010824635 4283200319
0.014077857 -0.010769516 -0.011169857 4282610248
0.016156144 -0.011397183 -0.01084303 4282543693
0.018239833 -0.012024388 -0.010517073 4282478413
0.020000122 -0.011162817 -0.011534016 4282740299
0.021755043 -0.010301456 -0.012549895 4282741574
0.02333482 -0.0086964145 -0.014234792 4283983424
-0.028929081 -0.024726018 0.0044795237 4280710498
-0.026977416 -0.024609834 0.0041265246 4280909143
-0.025225077 -0.022993028 0.0024115704 4281302099
-0.023176003 -0.023626983 0.0027401447 4281630284
-0.021331642 -0.022760689 0.0017077774 4281957450
-0.019384701 -0.022644356 0.0013559666 4283725108
0.012349632 -0.01392518 -0.010656259 4282807363
0.014117923 -0.0130613 -0.011673219 4282282574
0.016039733 -0.012944311 -0.012018821 4282152014
0.017961565 -0.012827203 -0.012364338 4281956429
0.019883417 -0.012709975 -0.012709755 4281892168
0.021638364 -0.01184646 -0.013723969 4281893189
0.023218319 -0.01023709 -0.015405547 4281826633
0.024787528 -0.0086283311 -0.017085083 4282218568
0.026345972 -0.0070200413 -0.018762613 4283657278
0.028071331 -0.0061578602 -0.019771149 4284180794
-0.02349573 -0.023692705 0.00018845499 4280974169
-0.021551739 -0.023576669 -0.00016291812 4281629773
-0.019499976 -0.024212435 0.0001636371 4283853629
0.012233373 -0.015474133 -0.011833507 4282676294
0.014001679 -0.014608115 -0.012848812 4281955918
0.015923344 -0.014491141 -0.013194385 4281956174
0.017845031 -0.014374048 -0.013539876 4281826378
0.019766741 -0.014256835 -0.013885277 4281630793
0.021521702 -0.013391152 -0.014897811 4281500743
0.02310184 -0.011777483 -0.016576085 4281370183
0.024843367 -0.010912381 -0.017586023 4281566279
0.026579512 -0.010047518 -0.018594917 4281566024
0.028310273 -0.0091828555 -0.019602742 4281696838
0.030215831 -0.0090659335 -0.019944698 4281762883
0.032121364 -0.0089488775 -0.020286553 4281959743
0.034212437 -0.009578906 -0.019964457 4282482238
0.036120586 -0.0094614699 -0.02030661 4282938434
0.038410585 -0.010837615 -0.019322872 4283135038
0.041098561 -0.013706416 -0.01701612 4284181558
0.04341533 -0.015080735 -0.016036961 4284376889
0.010343477 -0.017891176 -0.011995848 4284508214
0.012270294 -0.017774135 -0.012342542 4283000908
0.014041308 -0.016905814 -0.013356666 4282283339
0.016124047 -0.017539665 -0.013035659 4281826889
0.018050965 -0.017422251 -0.013382088 4281696583
0.019813996 -0.01655405 -0.014394492 4281435208
0.021571659 -0.01568605 -0.015405844 4281370694
0.023323957 -0.014818281 -0.016416147 4281435208
0.025070878 -0.013950713 -0.017425384 4281369928
0.026987076 -0.013833359 -0.01776943 4281500743
0.029080607 -0.014465719 -0.017449707 4281500998
0.030639384 -0.012848571 -0.019120425 4281501508
0.032552835 -0.012731031 -0.019463703 4281698113
0.034466255 -0.012613386 -0.019806881 4281763903
0.03656774 -0.013244852 -0.019488208 4281502019
0.039056107 -0.015373848 -0.017847922 4281567044
0.04291486 -0.022743769 -0.01158499 4281698113
0.046434984 -0.028612912 -0.0066521731 4281959234
0.010227259 -0.019441709 -0.013174322 4284640813
0.012306932 -0.020078205 -0.012854589 4283001164
0.014236331 -0.019960873 -0.013201648 4282348363
0.016324136 -0.020596579 -0.012883224 4281957703
0.018095221 -0.019725867 -0.013895513 4281696839
0.019860938 -0.018855304 -0.014906775 4281501254
0.021621309 -0.017984986 -0.015916936 4281435719
0.023376312 -0.017114893 -0.01692605 4281435209
0.025469553 -0.01774966 -0.016608138 4281369673
0.027393665 -0.017631821 -0.016953595 4281304649
0.029140584 -0.016761862 -0.017960981 4281370183
0.030882109 -0.015892118 -0.018967304 4281305669
0.032618232 -0.015022568 -0.019972548 4281436739
0.034348939 -0.014153197 -0.020976786 4281437248
0.036450114 -0.014786825 -0.020659711 4280979778
0.039890945 -0.020678259 -0.015726279 4280783173
0.010111064 -0.020991936 -0.014352567 4283985464
0.012190431 -0.0216306 -0.014034452 4282086988
0.014275204 -0.022268757 -0.013717253 4281760843
0.016523588 -0.023661792 -0.012737185 4281826378
0.01830006 -0.022788584 -0.013748758 4281631559
0.019907597 -0.021160617 -0.015422074 4281501764
0.021836936 -0.021042809 -0.015768742 4281434954
0.023597315 -0.020170182 -0.016777188 4281369929
0.025695629 -0.020806856 -0.016461829 4281173578
0.027276296 -0.019179977 -0.018129963 4281174088
0.029200248 -0.01906202 -0.018475298 4281370184
0.030944478 -0.018189952 -0.019480433 4281240133
0.032683305 -0.017318085 -0.020484488 4281045059
0.034416724 -0.016446441 -0.021487501 4281110084
0.036708035 -0.017835528 -0.020514112 4281044038
0.040343232 -0.0244973 -0.014936745 4281044294
0.011921279 -0.022424839 -0.015877202 4280972893
0.014003057 -0.023065388 -0.015561098 4281104728
0.016248278 -0.024462938 -0.014583819 4281105494
0.018182807 -0.024345055 -0.014931612 4281434444
0.01995394 -0.023469895 -0.015940458 4281434699
0.021885816 -0.02335196 -0.016287599 4281565259
0.023986492 -0.023990691 -0.015974458 4281434444
0.026092542 -0.024628982 -0.015662193 4281303883
0.027681457 -0.022997357 -0.017328434 4281303883
0.029082749 -0.020609893 -0.019651417 4281304649
0.030826995 -0.019735657 -0.020654868 4281370184
0.032565836 -0.018861637 -0.021657258 4281175109
0.034484193 -0.018743671 -0.022001315 4281109828
0.036590107 -0.01938124 -0.021688454 4281239879
0.040604245 -0.027573481 -0.0148132 4281239879
0.027002463 -0.030740343 -0.012897965 4281233504
0.029129688 -0.031379364 -0.012591072 4281432658
0.030555496 -0.028983921 -0.014913432 4281302353
0.032144558 -0.027347744 -0.016576163 4281108044
0.033722833 -0.025712043 -0.018236902 4281108044
0.035475094 -0.024834916 -0.019239929 4281238603
0.037221946 -0.023958027 -0.020241901 4281305158
0.041244864 -0.032173358 -0.013386593 4281370693
0.03453479 -0.039557077 -0.0085937055 4282084949
0.035968959 -0.037154414 -0.010912349 4281236309
0.037571568 -0.035512842 -0.01257397 4281171794
0.039163385 -0.033871755 -0.014233598 4281369929
0.042833976 -0.040589407 -0.0087076891 4281369419
0.0096830912 0.029896166 0.022715107 4279061669
0.0066117682 0.0330486 0.016855894 4278931110
0.0092039667 0.038790323 0.010435823 4279913369
0.011398986 0.03752774 0.011529382 4279323808
0.014552142 0.032135226 0.016915923 4278339254
0.0044462904 0.032085493 0.015312722 4281814138
0.0067563243 0.039227605 0.0074716341 4278273719
0.0083280653 0.040723503 0.0057038199 4279389598
0.010509204 0.039455727 0.0067964979 4279192483
0.013016604 0.036807455 0.0093156304 4278733484
0.015866406 0.032779686 0.013258271 4278274738
0.018259238 0.030824801 0.015055625 4278930343
0.020170856 0.030941363 0.01471201 4278537898
0.022082487 0.031058004 0.014368452 4278602923
0.023480577 0.033244126 0.011889739 4278733483
0.0034666769 0.034710646 0.0098553691 4278603434
0.0046196803 0.038292341 0.0059435517 4278341295
0.01478928 0.035398856 0.0078184158 4278471854
0.017002419 0.034128942 0.0089021605 4278603178
0.018563826 0.035628922 0.0071398672 4278406828
0.02011447 0.037128314 0.0053795641 4278471344
0.021654358 0.038627185 0.0036212215 4278339764
0.023357192 0.039433636 0.0025744997 4279258273
0.025231039 0.039548211 0.0022379179 4278800039
0.027821263 0.036896963 0.0047359318 4279257253
0.031160148 0.031481922 0.010062713 4278340529
0.034357615 0.026760694 0.014674207 4278472619
0.037218388 0.023423828 0.017864618 4278669478
0.042056967 0.027233273 0.013292655 4278865319
0.043585781 0.028732233 0.011536967 4278534839
0.0017483793 0.03168121 0.010464804 4282208368
0.0026329868 0.036666341 0.0051312791 4278538154
0.0037732422 0.040258072 0.0012301486 4278864808
0.0057825595 0.039675541 0.0016077189 4279061668
0.0074933097 0.040484004 0.0005607605 4279126694
0.0098175295 0.038511742 0.0023601213 4278995879
0.012000561 0.037235461 0.0034458339 4278996134
0.014514573 0.034570344 0.0059503783 4278930854
0.016399033 0.034685157 0.0056115743 4278799528
0.017787114 0.036883488 0.0031446228 4278668968
0.022722235 0.04000311 -0.00069869123 4278273209
0.024764147 0.039423387 -0.00032634661 4278405044
0.032580934 0.031446785 0.0071394611 4279061669
0.035042539 0.029483862 0.0089149494 4278996388
0.03676144 0.030293997 0.0078673642 4278734248
0.039012466 0.036069356 0.0015509268 4278995880
0.040698908 0.036877718 0.0005094111 4278866083
0.0013520159 0.031550139 0.0078797396 4279783574
0.0020884983 0.03724812 0.0018470995 4278799273
0.0053715371 0.039567336 -0.00095624942 4278273973
0.0073806532 0.038982715 -0.00058026053 4278603178
0.0097042732 0.037003912 0.0012141513 4278538154
0.01172965 0.036420397 0.0015873872 4278341548
0.013760444 0.035837337 0.0019596647 4278538154
0.015471425 0.036648292 0.00091459323 4278472619
0.017177034 0.037459038 -0.00012949854 4278472618
0.018541291 0.039662428 -0.0025870302 4278406828
0.020572169 0.039079703 -0.0022145109 4278274484
0.029293863 0.034665912 0.0013811504 4278799784
0.031912126 0.031999305 0.0038607828 4278669224
0.033804521 0.032115355 0.0035211379 4278537898
0.035507347 0.032926634 0.0024781721 4278406828
0.03792211 0.038022596 -0.00311678 4279454368
0.039595149 0.03883234 -0.0041542491 4279455388
0.042063955 0.036863793 -0.0023847683 4279257763
0.048695236 0.027376629 0.0067497268 4278471344
0.051650509 0.02402465 0.0099069253 4278537643
0.053999398 0.02275588 0.010960802 4278407083
0.055076398 0.025649883 0.0078184754 4278276013
0.055265959 0.031316634 0.0018857922 4278799783
0.060173981 0.028085843 0.0046936283 4278730934
0.00025174394 0.034929469 0.0017491486 4278800038
0.0028168634 0.040755596 -0.0045991838 4278271679
0.0095910542 0.035496332 6.836839e-05 4278406573
0.011616163 0.034910634 0.0004399661 4278537898
0.013486926 0.035024513 0.00010354631 4278472618
0.015032813 0.03653647 -0.0016459925 4278603433
0.016402829 0.038746618 -0.0040995837 4278472618
0.017756704 0.040955909 -0.0065502496 4278668713
0.019947067 0.039671868 -0.0054723057 4278734248
0.022321431 0.03769023 -0.003691548 4278668969
0.02471194 0.035709646 -0.001913636 4278603433
0.026939977 0.034428168 -0.00084226113 4278407083
0.029178776 0.033147391 0.00022728834 4278669479
0.031244323 0.032565057 0.00059223641 4278603688
0.032941867 0.033378098 -0.00044815894 4278341548
0.034444608 0.03488826 -0.0021892921 4278865318
0.047344133 0.03001013 0.0013832394 4278537388
0.050074115 0.027342469 0.0038367547 4278734248
0.051771019 0.028156281 0.0027970262 4278668968
0.052394498 0.032449 -0.0017286255 4278341039
0.052769296 0.037435446 -0.0069453334 4278667694
0.054420125 0.038246658 -0.0079766177 4279192994
0.057173766 0.035580873 -0.0055270162 4278931363
0.061070561 0.029440627 0.00039620046 4278799274
-0.00048585981 0.026985541 0.0073233992 4281484934
-0.00014242902 0.034827121 -0.00081409235 4278274739
0.0010025762 0.038451437 -0.0046909759 4279061413
0.002559159 0.039967813 -0.0064394334 4279259549
0.0045515262 0.039377734 -0.0060638832 4278341803
0.0070039071 0.036682643 -0.0035686274 4278405298
0.0093236528 0.034690626 -0.0017836052 4278733483
0.011031989 0.035505548 -0.0028249905 4278799273
0.013054162 0.034917623 -0.0024545356 4278799783
0.014757182 0.035732403 -0.0034948238 4278603178
0.015794929 0.039350882 -0.0073518809 4278471599
0.019493338 0.039576616 -0.0080165025 4278271168
0.022207821 0.036187157 -0.0048337393 4278336959
0.024949221 0.032799426 -0.0016557416 4278929835
0.027003773 0.032214075 -0.0012906408 4278669224
0.028882563 0.032329146 -0.0016279593 4278472874
0.030577507 0.033144116 -0.0026662648 4278341548
0.031893998 0.035358202 -0.0051047145 4278603433
0.033383526 0.036871847 -0.0068400633 4278472874
0.034862228 0.038384914 -0.0085733999 4278472618
0.036524691 0.039198279 -0.0096056527 4278275504
0.040833145 0.037329979 -0.0081761209 4278340274
0.043708682 0.033951335 -0.0050215297 4278799784
0.046405707 0.031272929 -0.0025688773 4278800039
0.048708066 0.029992651 -0.0015134532 4278668968
0.050388902 0.030807611 -0.0025485642 4278472874
0.053648029 0.038832411 -0.011205932 4278601904
0.056171328 0.036855008 -0.0094557852 4278798764
0.058934834 0.034181293 -0.007014588 4278602414
-0.0021167733 0.033211716 -0.0016209362 4280633743
0.00046112388 0.039073024 -0.0079449089 4278274484
0.0021558292 0.039888933 -0.0089824302 4278865829
0.0041425489 0.03929634 -0.0086075505 4278275249
0.010919042 0.034002773 -0.0039670989 4278734249
0.012940947 0.033412665 -0.0035982803 4278603178
0.014319781 0.035636231 -0.0060434439 4278471854
0.017029043 0.040080748 -0.010924964 4278731189
0.019210476 0.03878748 -0.0098520909 4278993328
0.021748453 0.036089644 -0.0073784124 4278271679
0.024483541 0.032690719 -0.0042076805 4278469048
0.026710708 0.031400543 -0.0031428672 4278472363
0.028586695 0.031515449 -0.0034796773 4278668969
0.030095352 0.033034422 -0.0052152299 4278603433
0.031593196 0.034552865 -0.0069488171 4278472618
0.03865917 0.036413692 -0.009680979 4278537898
0.040718488 0.035827186 -0.0093178572 4278472874
0.04318811 0.033839371 -0.0075635328 4278603944
0.04567378 0.031852677 -0.0058120573 4278603689
0.047759775 0.031268034 -0.0054534748 4278669224
0.049429901 0.032084562 -0.0064850105 4278472874
0.050241515 0.035701543 -0.010291873 4278668713
0.053095531 0.038731627 -0.013732069 4278337468
0.055612873 0.036747359 -0.011985829 4278403769
0.058370233 0.034064651 -0.0095502269 4278273209
-0.0034155175 0.02806107 0.001104801 4282336123
-0.0029176213 0.035244137 -0.0062928689 4278668969
-0.001209572 0.036062822 -0.007331267 4278275504
0.0083282553 0.035210922 -0.0075863763 4278668713
0.010336384 0.034617715 -0.0072168387 4278734248
0.01203141 0.035436239 -0.0082524018 4278799784
0.013883039 0.035549022 -0.0085853292 4278275249
0.016916998 0.038595542 -0.012053627 4278931364
0.018927958 0.038002923 -0.011684195 4278800548
0.020944297 0.037410744 -0.011315724 4278668713
0.025705544 0.033409633 -0.0077865249 4278799273
0.027748764 0.032819368 -0.0074226679 4278799784
0.029430365 0.033637863 -0.0084552066 4278537643
0.030920366 0.035160109 -0.010183977 4278471853
0.040603828 0.034324631 -0.010459406 4278800039
0.043072846 0.032330316 -0.0087099969 4278407083
0.045147881 0.031742804 -0.0083512245 4278538154
0.047020499 0.031858396 -0.0086867381 4278538409
0.048261814 0.034081638 -0.011100996 4278669479
0.049486898 0.036303915 -0.013512241 4278407083
0.050911497 0.037823148 -0.015228575 4278734248
0.052762173 0.037937716 -0.015559899 4278865318
0.055497378 0.035244942 -0.013127087 4278668969
0.058477812 0.031851888 -0.010007515 4278538153
-0.0037980974 0.027966693 -0.0014548795 4281485444
-0.0028913431 0.033043727 -0.0067220964 4279259039
-0.0011805482 0.033864722 -0.007759321 4278537898
0.00038199127 0.035394289 -0.0094988821 4278603688
0.002225142 0.035506032 -0.0098306891 4278406828
0.0039200075 0.036326364 -0.010864888 4278538154
0.0060626678 0.035021465 -0.0097922441 4278734504
0.007908687 0.035133645 -0.010124365 4278865573
0.0097547472 0.03524591 -0.01045643 4278603434
0.011282638 0.036773946 -0.012189387 4278668969
0.012799799 0.038301382 -0.013920295 4278537643
0.024879979 0.034734011 -0.011716427 4278930854
0.027092805 0.03343438 -0.010655625 4278799783
0.028766371 0.034254581 -0.011685086 4278471853
0.031531155 0.03801227 -0.015826236 4278798764
0.032988995 0.03953705 -0.017545737 4279454368
0.040688634 0.032116983 -0.01090755 4278668969
0.042957578 0.030821517 -0.0098562585 4278538408
0.045032337 0.030231846 -0.0094991038 4278734503
0.046489753 0.031757191 -0.011218144 4278800038
0.047095381 0.036100671 -0.015700297 4278537898
0.055381864 0.033742771 -0.014268143 4278406319
0.05947978 0.026819605 -0.0077123744 4278734503
-0.0023156852 0.027993992 -0.0043436848 4278931618
-0.00059137866 0.028817959 -0.0053816689 4279586968
0.00098482519 0.030352656 -0.0071203467 4281094783
0.0028413124 0.030465182 -0.0074545741 4279193759
0.0042533278 0.032709781 -0.009891009 4278800549
0.0062527433 0.032111533 -0.0095234076 4278931619
0.0077969134 0.03364465 -0.011256036 4278931619
0.0094866157 0.034467056 -0.012287373 4278669479
0.010853089 0.036709256 -0.014715327 4278734759
0.012526713 0.037530866 -0.015743632 4278800293
0.014194977 0.038352281 -0.016770946 4278734759
0.015690867 0.039882913 -0.018494543 4278537644
0.017685123 0.039284982 -0.018125519 4278472109
0.019684765 0.038687475 -0.01775739 4278275504
0.021864882 0.037381344 -0.016694214 4278668969
0.024055744 0.036076002 -0.01563294 4278800294
0.026076891 0.03548003 -0.015268428 4278603433
0.027920231 0.035593044 -0.015599294 4278734248
0.032493841 0.039472748 -0.020056551 4279585948
0.034517493 0.038877383 -0.019692134 4279520414
0.037136313 0.0361594 -0.017252475 4278404789
0.042438302 0.030727705 -0.012384527 4278734503
0.044712108 0.029428314 -0.01133739 4278603434
0.045959678 0.03166486 -0.013742734 4278734248
0.046560816 0.036021058 -0.01821398 4278602923
0.055266336 0.032240838 -0.015409011 4278271934
0.059809513 0.023883916 -0.0074951942 4278406064
-0.0018788427 0.023636285 -0.0026826053 4279587478
-3.7923455e-06 0.023749735 -0.0030203327 4279522199
0.0017287023 0.024576418 -0.0040580672 4279915154
0.0036012232 0.024689917 -0.0043951827 4279653014
0.0050297529 0.026941989 -0.0068295626 4279521943
0.0065929182 0.028480485 -0.0085623236 4279390618
0.0081453584 0.030018458 -0.010293134 4279259548
0.0096870959 0.031555835 -0.012021899 4278800803
0.011218112 0.033092648 -0.013748668 4279128479
0.012738384 0.034628958 -0.015473465 4279062943
0.01441209 0.03545282 -0.016500037 4279128478
0.015746716 0.037699819 -0.018917028 4279324573
0.017743386 0.037099876 -0.01855012 4279062433
0.01974545 0.03650032 -0.018184058 4278800293
0.021927804 0.035190038 -0.017124688 4278800549
0.023765687 0.035302542 -0.01745471 4278735014
0.025603553 0.03541512 -0.01778467 4278735013
0.027075406 0.036949165 -0.019500155 4278800294
0.039264128 0.033366952 -0.01733247 4278537643
0.04212153 0.029933259 -0.014216537 4278603689
0.044187665 0.029338777 -0.013861163 4278734503
0.045430258 0.031581469 -0.01626052 4278537388
0.045607094 0.037368454 -0.022096887 4278340529
0.046803754 0.039608538 -0.024487916 4278866084
0.048845295 0.039012894 -0.024127856 4278538408
0.051764008 0.035583489 -0.021022443 4278471599
0.055150796 0.030739162 -0.016549679 4278668203
0.060361899 0.020231642 -0.0065988824 4278603688
-0.0017174445 0.020692747 -0.0024332926 4279980689
0.00030264631 0.020091034 -0.0020730793 4279456665
0.0021857321 0.020205051 -0.0024121907 4279456663
0.0040688962 0.020319175 -0.0027512377 4279390873
0.0055085532 0.022578381 -0.0051826001 4279783573
0.0070826858 0.024121862 -0.00691398 4279390618
0.0086461008 0.025664814 -0.0086434139 4279194268
0.010354731 0.026492666 -0.0096748164 4278735779
0.011899412 0.028034639 -0.01140068 4278735524
0.01375597 0.028147716 -0.011734497 4278473639
0.016802393 0.031229535 -0.015178201 4278603944
0.018478863 0.032055914 -0.016203446 4278342059
0.020322025 0.032168549 -0.016534563 4278538664
0.021990415 0.032994661 -0.017558258 4278801059
0.023653423 0.033820495 -0.018580869 4278997664
0.025311032 0.034646109 -0.019602427 4278801058
0.02696324 0.035471465 -0.020622954 4278866084
0.028424501 0.037009321 -0.022333149 4278539429
0.030063188 0.037834033 -0.023351107 4279062689
0.03169645 0.038658515 -0.024368009 4278931364
0.033711463 0.038058363 -0.024005432 4278931364
0.035928082 0.036746621 -0.022954978 4278669223
0.038553357 0.034011882 -0.020529807 4278735014
0.040998422 0.03199023 -0.018796196 4278603689
0.042846475 0.032104284 -0.019127322 4278669479
0.044073299 0.034352548 -0.021518849 4278342058
0.048516847 0.03824833 -0.025933996 4278668204
0.051214106 0.035518661 -0.02352123 4278275248
-0.0016936027 0.018458635 -0.0028881533 4279783574
0.00032890216 0.017854895 -0.0025300626 4279980944
0.0022145584 0.017969057 -0.0028696451 4279849874
0.0041002892 0.01808333 -0.0032091625 4279849873
0.0056907125 0.019631989 -0.0049402174 4279521944
0.0072704218 0.021180157 -0.0066692997 4279521944
0.0089925043 0.022010889 -0.0077015222 4279194268
0.01086501 0.022124738 -0.0080383616 4278997664
0.012579106 0.022955183 -0.0090689948 4279259548
0.014448989 0.023069065 -0.0094052153 4279062944
0.016318906 0.023183044 -0.009741365 4278670243
0.017689265 0.025445182 -0.01215471 4278604453
0.019381925 0.026274696 -0.013181191 4278735523
0.02106921 0.027104001 -0.014206622 4278604964
0.024250325 0.02947728 -0.016944885 4278408103
0.025918743 0.030305702 -0.017966714 4278407848
0.027581763 0.031133898 -0.01898749 4278735779
0.029239357 0.031961888 -0.020007275 4278997409
0.030515447 0.034218982 -0.02240305 4279325083
0.032156818 0.035046183 -0.023419764 4279521688
0.033792771 0.035873074 -0.024435405 4279521434
0.035815518 0.035271358 -0.024075799 4278997408
0.038042404 0.033955999 -0.023030415 4278866084
0.040078465 0.033355284 -0.02267305 4278800548
0.041711461 0.034182377 -0.023687867 4278407593
0.0431321 0.0357228 -0.025386836 4278800549
0.044122767 0.038689319 -0.028453127 4278603434
-0.0015332699 0.015500501 -0.0026500174 4279783829
0.00035487488 0.015614696 -0.0029901383 4280046479
0.0022430979 0.015728995 -0.0033302004 4279915409
0.0039865598 0.016562883 -0.0043648258 4279456664
0.0057247132 0.017396554 -0.0053984132 4279390618
0.0074575432 0.018229995 -0.0064309733 4279456410
0.0091850348 0.019063264 -0.0074625313 4279456664
0.011218414 0.018458545 -0.0071075941 4279325593
0.012940612 0.01929168 -0.0081380522 4279456663
0.014818452 0.019406043 -0.0084757032 4278997664
0.016532648 0.020238843 -0.0095045296 4278866594
0.01840784 0.020353239 -0.0098415548 4278801059
0.01994494 0.021903761 -0.011559053 4278997663
0.021643022 0.022735924 -0.012584789 4278670243
0.023161298 0.024285492 -0.014298754 4278538918
0.025023045 0.024399448 -0.014633065 4278604964
0.028563974 0.025344871 -0.015989287 4278277034
0.03023777 0.026175983 -0.017010245 4278277034
0.034646809 0.03081757 -0.022124708 4278472874
0.036486775 0.030930882 -0.022454573 4278603944
0.038128037 0.031760469 -0.023469329 4278669733
0.039562512 0.033305854 -0.025167504 4279062943
0.04119017 0.034134842 -0.026179714 4278670244
0.042605653 0.035679247 -0.027874343 4278735778
0.044010296 0.03722306 -0.02956697 4278931619
0.04540408 0.038766339 -0.031257622 4279324573
0.047860917 0.036732975 -0.029535787 4279259039
0.050333764 0.034700722 -0.027816802 4278996898
0.054804083 0.026235659 -0.019970471 4278603689
-0.0013735294 0.012533896 -0.0024182484 4281094018
0.00038056076 0.013370425 -0.0034533176 4280504968
0.0022713542 0.013484873 -0.0037938464 4280439944
0.004017543 0.01432107 -0.0048272931 4279522709
0.0057584234 0.015157048 -0.0058597103 4279522198
0.0076440386 0.015271485 -0.0061990684 4279521943
0.009376958 0.016107172 -0.0072299046 4279587734
0.011259984 0.01622165 -0.0075686444 4279521943
0.012826785 0.017777935 -0.0092884852 4279325339
0.014382873 0.019333638 -0.011006271 4279259804
0.016255233 0.019447763 -0.011342864 4278866594
0.018127613 0.019561984 -0.011679388 4278997409
0.020168889 0.018956132 -0.011327199 4278997409
0.021872399 0.019790735 -0.012352197 4278473894
0.023744792 0.019905254 -0.012688489 4278736033
0.025440222 0.020739567 -0.013711878 4278867103
0.027130241 0.021573689 -0.014734261 4278998173
0.028997207 0.021688178 -0.015069343 4279129244
0.03086414 0.021802768 -0.015404344 4278801313
0.03254332 0.022636481 -0.016424505 4278604453
0.034026671 0.024188817 -0.018128384 4278407594
0.0354992 0.02574062 -0.019830298 4278473128
0.036960922 0.027291831 -0.021530138 4278276268
0.038610302 0.028124094 -0.02254466 4278276524
0.040455393 0.028237928 -0.022875285 4278407338
0.042096559 0.029069878 -0.02388818 4278276524
0.0435257 0.030619496 -0.025581935 4278407849
0.044944007 0.032168504 -0.027273627 4278276524
0.046351451 0.033716977 -0.028963348 4278735014
0.048391882 0.033112712 -0.028609734 4279062688
0.050872199 0.031074444 -0.026897045 4279128478
0.055348463 0.022583861 -0.019071896 4278931873
-0.00094151869 0.008110337 -0.00080732256 4282338673
0.00082337484 0.0089496113 -0.001842632 4280963204
0.0027248003 0.0090646781 -0.0021850923 4280701318
0.0044817887 0.0099036992 -0.0032188045 4280045968
0.0060862526 0.011466131 -0.0049423487 4280242829
0.007829912 0.012304571 -0.0059735575 4280111503
0.0094156712 0.013866078 -0.0076935687 4279849618
0.011301257 0.013980705 -0.0080327764 4279587478
0.012555029 0.016987491 -0.011127613 4279390873
0.014269277 0.017824505 -0.012153172 4279128734
0.016141515 0.017938618 -0.012489746 4278735524
0.0181798 0.017330322 -0.012138781 4278931874
0.020054754 0.017444793 -0.012475695 4278866849
0.02210113 0.016837202 -0.012126022 4278604963
0.023804676 0.017674066 -0.013149266 4278736033
0.025679626 0.01778885 -0.013485936 4278801568
0.027195595 0.019347124 -0.01519261 4278998174
0.029065127 0.019461773 -0.015528151 4279194779
0.030749755 0.020297933 -0.016547728 4278997918
0.03261653 0.020412605 -0.016882624 4278735524
0.034483261 0.020527393 -0.017217424 4278538663
0.036157012 0.021363132 -0.018234778 4278538408
0.038020946 0.021477945 -0.018568922 4278800549
0.039884817 0.021592855 -0.01890298 4278735014
0.041346617 0.023148578 -0.020599332 4278342059
0.042797573 0.024703797 -0.022293689 4278604198
0.044444077 0.02553834 -0.023305783 4278342058
0.046085112 0.026372656 -0.024316814 4278341803
0.0084643699 0.0071522295 -0.0036882358 4282991983
0.010063771 0.0087188706 -0.0054073567 4282010234
0.011497345 0.011010353 -0.0078122569 4280242319
0.012757026 0.014026091 -0.010901405 4279914643
0.014316194 0.015590634 -0.012613089 4279980178
0.016354173 0.014980055 -0.01226383 4279586713
0.018231679 0.015094586 -0.012601276 4279063454
0.020277767 0.014484666 -0.012253268 4278932639
0.021986727 0.015323959 -0.013275928 4279063199
0.023864247 0.01543881 -0.013613135 4279391129
0.02574176 0.01555375 -0.013950264 4279390873
0.027439941 0.016392656 -0.014970706 4279325594
0.028950712 0.017955028 -0.016673014 4278998174
0.030820085 0.01806977 -0.017008446 4278997663
0.032502029 0.018908042 -0.018025775 4278997664
0.034558725 0.018299583 -0.017679039 4278473383
0.036235191 0.019137707 -0.018695235 4278800804
0.038101695 0.019252684 -0.01902983 4278735269
0.039968133 0.019367758 -0.019364342 4278669734
0.0418345 0.019482937 -0.019698758 4278473128
0.043293744 0.021042939 -0.021391205 4278538663
0.045154579 0.021157969 -0.021724474 4278735269
0.046806417 0.021995123 -0.022735748 4278669734
0.048664372 0.022110175 -0.023068354 4278473128
0.050093662 0.023668762 -0.024755172 4278735269
0.05237997 0.02234054 -0.023733281 4278801059
0.057093158 0.013077933 -0.015275242 4278801059
0.013588946 0.0081469268 -0.0079391031 4282794104
0.01516445 0.0097167715 -0.0096503841 4281224324
0.016892243 0.010559019 -0.010674953 4280438414
0.018780384 0.010674212 -0.011014304 4279784083
0.020668525 0.010789488 -0.011353587 4279522198
0.022556685 0.010904871 -0.011692789 4279456663
0.024271064 0.011746731 -0.012714614 4279259804
0.025980053 0.012588352 -0.013735401 4279521943
0.027504485 0.01415582 -0.015436931 4279325593
0.029199993 0.014996827 -0.016455133 4279129243
0.030705558 0.016563304 -0.018153071 4279063454
0.032761995 0.015952632 -0.017808072 4278866594
0.034443945 0.016793117 -0.018823601 4278801059
0.036313064 0.016908169 -0.019158736 4278801059
0.038182132 0.017023321 -0.019493781 4278801059
0.040051132 0.017138567 -0.019828741 4278735524
0.041719384 0.017978657 -0.020841543 4278735269
0.043178841 0.019543 -0.022530667 4278866339
0.044833504 0.020382404 -0.023540836 4278407849
0.046691436 0.020497382 -0.023873489 4278473384
0.048760697 0.019888397 -0.023530096 4278604453
0.050621118 0.020003725 -0.02386304 4278473384
0.052698229 0.019395426 -0.023520891 4278604709
0.05807298 0.0079343431 -0.013061565 4278670244
0.026393998 0.0088862665 -0.012846352 4283124073
0.027568731 0.011914905 -0.015906179 4280964223
0.029448641 0.012030214 -0.016243564 4280243338
0.031144142 0.01287353 -0.017260049 4279326104
0.033021297 0.012988873 -0.017596783 4278736033
0.03470866 0.013831869 -0.018611591 4279128478
0.036198165 0.015401978 -0.020303056 4279456664
0.038067102 0.015517138 -0.020638067 4278866849
0.039738156 0.01635946 -0.021649767 4278866849
0.041604273 0.016474657 -0.021984115 4278669989
0.043267131 0.017316639 -0.022994142 4279062944
0.045130402 0.017431855 -0.02332782 4278604453
0.046993583 0.017547168 -0.023661405 4278735524
0.049067933 0.016936366 -0.023320578 4278604453
0.050933611 0.017052043 -0.02365445 4278735524
0.053449094 0.014990136 -0.021968115 4278735524
0.0588318 0.0034950748 -0.011536995 4278604963
0.033279959 0.010016687 -0.017391823 4282013038
0.034783147 0.011591911 -0.019082496 4280636039
0.036467813 0.012437001 -0.020095065 4279653269
0.038341999 0.012552492 -0.020431012 4279522198
0.040216129 0.012668088 -0.020766864 4279260313
0.041689511 0.014241852 -0.022451825 4279129499
0.043558121 0.014357299 -0.022786539 4279063199
0.045426644 0.014472865 -0.023121141 4278735268
0.047086671 0.01531709 -0.024128862 4278604198
0.048741236 0.016161047 -0.025135472 4278473128
0.050604101 0.016276561 -0.02546883 4278604453
0.0535492 0.012751944 -0.022443473 4278866594
0.059370108 -0.00023335963 -0.010696668 4278604708
0.045722213 0.011505533 -0.022920869 4280178313
0.047387667 0.012352228 -0.023927825 4279327124
0.049258571 0.012468155 -0.024262687 4278998428
0.050915767 0.013314553 -0.025267996 4278867359
0.054081582 0.009049233 -0.021581735 4278801824
0.059907421 -0.003974542 -0.0098659415 4278736289
0.051226746 0.010344185 -0.025073584 4282079083
0.054180678 0.0067985952 -0.022066526 4281030013
0.060443722 -0.0077284425 -0.0090448726 4281030013
-0.032502238 -0.030295417 0.0073964614 4280505989
-0.030903812 -0.027167179 0.0043177195 4279196054
-0.029043999 -0.026298262 0.0032838844 4279392658
-0.032617632 -0.031878144 0.0061927754 4280177039
-0.030927312 -0.029496305 0.0037997728 4278997408
-0.029064786 -0.028625108 0.0027670991 4279128478
-0.027304206 -0.026999339 0.0010572299 4279129499
-0.025554191 -0.025374159 -0.00065060705 4279195034
-0.023508396 -0.026012659 -0.0003248211 4279588243
-0.021561872 -0.025896505 -0.00067668036 4279391893
-0.019507717 -0.026534297 -0.0003522411 4280113289
-0.017668393 -0.025663815 -0.0013802052 4281815668
-0.032555867 -0.034975246 0.0063453075 4279914643
-0.030951079 -0.031829461 0.0032787612 4279128478
-0.029085856 -0.030955978 0.0022472506 4279194268
-0.027322393 -0.029325806 0.0005402267 4278932384
-0.025569525 -0.02769611 -0.0011648275 4279260569
-0.023623299 -0.027580097 -0.0015167333 4279456663
-0.021572281 -0.02822037 -0.0011935066 4279194268
-0.01962306 -0.028103948 -0.001545772 4279195034
-0.017783713 -0.027231336 -0.0025720824 4279522708
-0.016062293 -0.025603019 -0.0042709894 4279916939
-0.014120724 -0.025486708 -0.00462161 4280506499
-0.012060951 -0.026125878 -0.0042995196 4281816944
-0.032759849 -0.035802171 0.0044624405 4279783828
-0.030975107 -0.034166649 0.0027546836 4278932128
-0.029107179 -0.033290863 0.0017243428 4278932128
-0.027244423 -0.032415278 0.0006950153 4279128733
-0.025386881 -0.031539895 -0.00033327285 4279063199
-0.023432743 -0.03142342 -0.0006866185 4279194013
-0.021478456 -0.031306848 -0.0010399139 4279062944
-0.019524004 -0.031190135 -0.0013931403 4279062943
-0.017679263 -0.030315049 -0.0024187644 4279522199
-0.015839782 -0.02944015 -0.0034434092 4279653268
-0.014005508 -0.028565481 -0.0044669663 4279784849
-0.012176495 -0.027690999 -0.0054894877 4279784849
-0.010232132 -0.027574323 -0.0058404543 4279981198
-0.0082876496 -0.027457535 -0.0061913542 4280308873
-0.0064690188 -0.026583336 -0.0072117299 4280898433
-0.0045270175 -0.026466437 -0.0075619854 4281226108
-0.032875244 -0.037386164 0.0032577729 4279587734
-0.031181235 -0.03498482 0.00087910052 4278932638
-0.029222358 -0.034868419 0.00052462425 4278932383
-0.027359594 -0.033990704 -0.00050304923 4279062944
-0.025403071 -0.033874229 -0.0008569276 4279194013
-0.023446385 -0.033757627 -0.0012107501 4279259549
-0.021489549 -0.033640914 -0.0015645148 4279128479
-0.019532565 -0.033524066 -0.0019182125 4278800803
-0.017575432 -0.033407092 -0.0022718506 4279325338
-0.015842933 -0.031769536 -0.0039660973 4279325593
-0.01400597 -0.030892521 -0.0049885293 4279784339
-0.012174245 -0.030015759 -0.0060098809 4279980943
-0.010227334 -0.029898934 -0.0063613136 4280242574
-0.0084034465 -0.029022411 -0.0073810709 4280308363
-0.0065848082 -0.028146073 -0.0083997846 4280832643
-0.004642956 -0.028029196 -0.0087500252 4280963969
0.00091005862 -0.026160233 -0.011132296 4282142834
-0.032814439 -0.040497519 0.0033994578 4279784339
-0.031114716 -0.038089454 0.0010247836 4278867103
-0.029150624 -0.037972778 0.00066933688 4278932638
-0.027186353 -0.037855953 0.00031396281 4279325084
-0.025320727 -0.036975771 -0.00071251858 4279325083
-0.023460303 -0.036095865 -0.0017379457 4278931618
-0.021500919 -0.035979003 -0.0020921761 4278931873
-0.019541394 -0.035862014 -0.0024463432 4278866338
-0.017472181 -0.036507472 -0.0021312768 4278997408
-0.01573414 -0.03486529 -0.0038231956 4279325339
-0.01389179 -0.033985876 -0.0048448974 4279653269
-0.012054678 -0.03310664 -0.0058655562 4279718548
-0.010222845 -0.032227561 -0.0068852203 4279849618
-0.0083962418 -0.031348735 -0.0079038115 4280177293
-0.0065749101 -0.030470096 -0.0089213522 4279915409
-0.0046305172 -0.030353092 -0.0092720659 4280701573
-0.0026860274 -0.030235946 -0.0096226977 4282404973
0.0010668263 -0.029240347 -0.01098806 4281291134
0.0028698035 -0.028362215 -0.012001827 4281553529
0.0046674609 -0.027484238 -0.013014574 4282273649
0.0064598285 -0.026606508 -0.014026243 4281486974
0.0083940104 -0.026489273 -0.014374461 4279980178
0.010028601 -0.02485165 -0.016046418 4279980944
0.011957511 -0.024734497 -0.016393499 4280046733
0.013886459 -0.024617203 -0.016740484 4280243339
0.015973326 -0.02525942 -0.016426913 4280505734
0.018065583 -0.025901206 -0.016114231 4280572034
0.019836728 -0.025023907 -0.017121404 4280245378
-0.028799634 -0.043382481 0.0028190557 4281094528
-0.026918042 -0.042499393 0.0017912928 4280177548
-0.025140312 -0.040851094 9.5037743e-05 4279456663
-0.023271818 -0.03996855 -0.00093017984 4279391639
-0.021304544 -0.039851233 -0.0012858557 4278997919
-0.019657191 -0.03743913 -0.0036455742 4279062944
-0.017697658 -0.037322052 -0.0039996663 4278800803
-0.015962135 -0.035675742 -0.0056878002 4279128478
-0.01389296 -0.036323115 -0.0053742202 4279325339
-0.012170594 -0.034677364 -0.0070597986 4279653269
-0.010338739 -0.033796132 -0.0080777975 4279849618
-0.0083893239 -0.033679083 -0.0084296139 4279718294
-0.0065652914 -0.032798141 -0.0094459699 4279718549
-0.0047465451 -0.031917393 -0.01046129 4280242828
-0.0028022043 -0.031800285 -0.010811911 4281160318
-0.00099131465 -0.030919783 -0.011825626 4281684599
0.00081427395 -0.030039459 -0.012838285 4281160318
0.0026145652 -0.029159307 -0.01384994 4280308619
0.004692778 -0.02980499 -0.013537023 4279653779
0.0064878277 -0.028924897 -0.014547542 4279456663
0.0084245503 -0.028807521 -0.014896218 4279718293
0.010061998 -0.027165428 -0.016565356 4279784084
0.012145787 -0.027810238 -0.016253099 4279980944
0.013924923 -0.02693069 -0.017260339 4279521944
0.015856437 -0.026813105 -0.017607681 4279653014
0.017787971 -0.02669543 -0.01795496 4279718803
0.019556444 -0.025816135 -0.018959982 4279784849
0.021982668 -0.02798228 -0.017334454 4279589008
0.025098898 -0.033192009 -0.013084107 4279786125
0.028595049 -0.039921246 -0.0075275763 4280310659
-0.026459362 -0.048695162 0.0045923386 4282207858
-0.024763841 -0.046274096 0.0022286382 4281486464
-0.022881921 -0.045388609 0.0012026522 4281225344
-0.021109063 -0.043736145 -0.00048916228 4280439433
-0.019346792 -0.04208412 -0.0021790206 4280242063
-0.017485905 -0.04119955 -0.0032009273 4279455899
-0.015630249 -0.040315174 -0.0042218096 4279390364
-0.013665218 -0.040197559 -0.0045767291 4279652760
-0.011934642 -0.038546957 -0.0062604891 4279587479
-0.010214668 -0.036896929 -0.0079421969 4279718294
-0.0085053369 -0.035247371 -0.009621934 4279456664
-0.0066812895 -0.034364283 -0.010636629 4279456663
-0.0047345124 -0.03424716 -0.010987797 4280046479
-0.0030490421 -0.032598726 -0.012662907 4280636549
-0.0011074506 -0.032481663 -0.013012943 4280898689
0.00083422661 -0.032364473 -0.013362893 4280439434
0.0029147305 -0.033012256 -0.013052211 4279718804
0.005000677 -0.033659585 -0.012742397 4279719314
0.0068038069 -0.032776907 -0.013752666 4279195034
0.0086016133 -0.031894423 -0.014761873 4278932638
0.0103941 -0.031012163 -0.015770044 4279456663
0.01218126 -0.030130029 -0.01677718 4279325593
0.014272839 -0.030776441 -0.016467866 4279456664
0.016054686 -0.029894412 -0.017473876 4279522199
0.01799145 -0.029776394 -0.017822076 4279194523
0.019765295 -0.028894641 -0.018826403 4279260314
0.022030644 -0.030303523 -0.017862432 4279063709
0.02548486 -0.037054777 -0.012313564 4278932893
0.029671408 -0.046855599 -0.0041541364 4278801823
-0.011933837 -0.040892109 -0.0067964024 4282533493
-0.010211013 -0.039237626 -0.0084753009 4281027464
-0.0083763339 -0.038351886 -0.0094903493 4280504203
-0.0064217411 -0.038234413 -0.0098430114 4279980944
-0.0045949183 -0.037348904 -0.010856465 4280177549
-0.0029039048 -0.035695799 -0.012529285 4280308874
-0.0010903217 -0.034810841 -0.013540161 4280112269
0.00085388497 -0.034693494 -0.013890562 4279980943
0.0029367618 -0.035343304 -0.013581985 4279784849
0.0050250776 -0.035992652 -0.013274279 4279522710
0.0066869296 -0.034340739 -0.014941324 4279259803
0.0086314045 -0.034222871 -0.015291394 4279391128
0.010426581 -0.033338308 -0.01629838 4279325594
0.012368459 -0.033220358 -0.01664779 4279128988
0.014310379 -0.033102296 -0.016997125 4279522199
0.016252328 -0.0329841 -0.017346364 4279522198
0.018194299 -0.032865785 -0.017695505 4279325849
0.019973531 -0.031981528 -0.018699117 4279063453
0.022078305 -0.032628752 -0.018393509 4278736033
0.025701735 -0.040164798 -0.012206214 4278932383
0.030233022 -0.051523969 -0.002762808 4279063453
-0.0042005479 -0.041999102 -0.0094130952 4281813374
-0.0024986193 -0.040341064 -0.011084491 4281224323
-0.00067428499 -0.039453328 -0.012095643 4280177039
0.0012805052 -0.039335363 -0.012447974 4280046223
0.0032353736 -0.039217271 -0.012800222 4279915409
0.0050491877 -0.03832978 -0.013809176 4279784084
0.0068576932 -0.037442446 -0.014817124 4279587733
0.0086608864 -0.036555342 -0.015823968 4279456664
0.010458764 -0.03566847 -0.016829778 4278867358
0.012403179 -0.035550363 -0.017179642 4279260059
0.014347617 -0.035432145 -0.017529428 4279325593
0.016292099 -0.035313815 -0.017879132 4279391128
0.018396523 -0.035963438 -0.017575301 4279325594
0.020018522 -0.034308784 -0.019231163 4279194523
0.022290958 -0.035725787 -0.018275186 4278866848
0.025917966 -0.043283097 -0.012105236 4278932383
0.030622683 -0.055441856 -0.0020358628 4279259803
0.007171493 -0.041323781 -0.014044544 4282011509
0.0092754103 -0.041976243 -0.013742799 4280897925
0.01108671 -0.041086383 -0.014749346 4279652759
0.012740996 -0.039425962 -0.016408058 4279718805
0.014384564 -0.03776601 -0.018064775 4279522198
0.016331572 -0.037647516 -0.01841493 4279653268
0.01827861 -0.037528872 -0.018764973 4279195034
0.020063218 -0.036640018 -0.019766234 4279195289
0.022502987 -0.038831189 -0.018163152 4278933149
0.026133578 -0.046409771 -0.012010543 4279260314
0.013684019 -0.046405904 -0.013039762 4280962949
0.015346561 -0.044740565 -0.014696529 4281028993
0.01699838 -0.043075703 -0.016351303 4279850384
0.018958684 -0.042956263 -0.016703738 4279784338
0.020756725 -0.042064428 -0.01770574 4279391639
0.022879343 -0.042716995 -0.017408328 4279129498
0.026348552 -0.049544744 -0.011922235 4279391639
0.030036431 -0.0571412 -0.0057965284 4280046734
0.023913965 -0.049712598 -0.014072927 4282405739
0.026730385 -0.0534622 -0.011193174 4282405484
0.029743828 -0.05798395 -0.0076715639 4282732904
0.021186158 -0.062535331 -0.010551192 4282536044
-0.021263901 -0.057121933 -0.019862205 4282929254
-0.048379693 0.0074077956 0.05059389 4285820443
-0.046254534 0.0061386302 0.051698275 4285951258
-0.052835602 0.009742897 0.045700729 4285098028
-0.051183451 0.01334152 0.041688688 4285689373
-0.049292717 0.014154147 0.040604096 4285689118
-0.047200192 0.012878697 0.041710932 4285688863
-0.04488172 0.0095165484 0.045004867 4285886234
-0.04238743 0.0047647916 0.049752355 4285689373
-0.033903565 0.0010710545 0.052674882 4285099049
-0.032156821 0.0032757781 0.050131507 4284901679
-0.029611837 -0.00077241287 0.054127503 4285097518
-0.053438064 0.013738137 0.038649052 4285361444
-0.051679786 0.01594935 0.036108103 4285754908
-0.049871225 0.017461445 0.034299012 4285623583
-0.047866706 0.016878534 0.034677453 4285623583
-0.045713585 0.014900148 0.036510911 4285820954
-0.043395724 0.011527169 0.039796572 4285886999
-0.041204493 0.0095511414 0.041623287 4285624604
-0.039076429 0.0082736947 0.042720504 4285624604
-0.03726634 0.0097862519 0.040911496 4285624604
-0.035551678 0.011995453 0.038378816 4285690138
-0.03376529 0.013506744 0.036574215 4285755674
-0.031447638 0.0108364 0.0391193 4285886233
-0.028643351 0.0046840124 0.04528122 4285951769
-0.025694784 -0.0021619126 0.052158073 4285886233
-0.055501368 0.012046341 0.037803054 4285098283
-0.053795513 0.014965169 0.034537259 4285559323
-0.052047584 0.017182235 0.032003134 4285821464
-0.050315481 0.019398417 0.029471911 4285952789
-0.048324648 0.018812511 0.029851057 4285886998
-0.046256844 0.017526839 0.03095565 4285952788
-0.043881956 0.013442006 0.034961808 4285690138
-0.041781422 0.012158416 0.036060579 4285624349
-0.039669897 0.010875601 0.037157379 4285624348
-0.037957776 0.013091017 0.034630105 4285689883
-0.036261525 0.015305504 0.032105789 4285689118
-0.034493741 0.016819995 0.030307818 4285557793
-0.032285783 0.014838796 0.032126714 4285557538
-0.029968638 0.012159798 0.034665193 4285623839
-0.027438778 0.0080848075 0.038643803 4285820953
-0.024581838 0.0019162185 0.044781178 4285624094
-0.055905025 0.013986144 0.032968935 4285361698
-0.054091159 0.015506897 0.031165443 4285558813
-0.052287761 0.017027143 0.029363856 4285624349
-0.050494846 0.018546794 0.027564261 4285624093
-0.048575427 0.018660951 0.027217008 4285689628
-0.046513397 0.017370597 0.028319191 4285624094
-0.044218782 0.013974458 0.031592209 4285624349
-0.042126734 0.012686025 0.032689068 4285624349
-0.040102888 0.01210016 0.033060744 4285558558
-0.038401138 0.014321338 0.030540381 4285821719
-0.036630657 0.015840184 0.028745182 4285886489
-0.034783404 0.016657095 0.027673788 4285754909
-0.032761339 0.016071413 0.028046016 4285754908
-0.030641038 0.014785074 0.029138155 4286017813
-0.028319072 0.012097795 0.031669024 4285755163
-0.025779296 0.0080104172 0.035635836 4285623584
-0.022904877 0.0018234402 0.041754954 4285688608
-0.058008287 0.013012175 0.031403195 4285229864
-0.056249399 0.015242595 0.028876957 4285558558
-0.054325487 0.015356768 0.02852869 4285689373
-0.052338336 0.014766026 0.028904986 4285755163
-0.05047686 0.015585352 0.027832165 4285624093
-0.048552159 0.015699778 0.027483914 4285624094
-0.046556178 0.015109774 0.027858783 4285624349
-0.044407178 0.013111584 0.029677793 4285624348
-0.042547371 0.013931058 0.028605539 4285624349
-0.040613618 0.014046308 0.028255876 4285624093
-0.038843144 0.015569314 0.026463985 4285624093
-0.036829848 0.014980737 0.026835956 4285820953
-0.035072345 0.016503163 0.025046483 4285886743
-0.032966111 0.015211541 0.026137721 4285952534
-0.030941408 0.014623877 0.026507806 4285755163
-0.028530363 0.011224464 0.029751755 4285624094
-0.026092235 0.0078267492 0.03299088 4285492258
-0.058231447 0.012865182 0.028766416 4285426979
-0.056534972 0.015809163 0.025522228 4285951768
-0.054619204 0.015922785 0.025175385 4285886489
-0.052640352 0.015329376 0.025551416 4286018069
-0.050524909 0.013322402 0.027371295 4285821464
-0.048597608 0.013436921 0.027022533 4285689884
-0.046599206 0.012844879 0.027395189 4285624348
-0.044668715 0.01295973 0.027045958 4285689883
-0.043042894 0.01590002 0.023814939 4285624093
-0.041201573 0.016720567 0.022747722 4285689629
-0.039283801 0.016834881 0.02240096 4285689374
-0.037112933 0.014831763 0.024211176 4285623583
-0.035186645 0.014946748 0.023862999 4285623584
-0.033260141 0.015061807 0.023514837 4285624094
-0.031148735 0.013766199 0.024601802 4285624348
-0.028836291 0.011060923 0.027120925 4285624094
-0.05856308 0.014146667 0.024691001 4285624349
-0.05676223 0.015679404 0.022899698 4285623838
-0.054851923 0.015792649 0.022553802 4285557539
-0.052878696 0.015196647 0.022929173 4285689374
-0.050834496 0.013891954 0.024024267 4285755163
-0.048779313 0.012587991 0.025117427 4285689883
-0.046642456 0.010575883 0.026928458 4285624094
-0.044709373 0.010690838 0.026578721 4285624348
-0.043232467 0.015056886 0.021916207 4285755419
-0.041551281 0.017296102 0.019414455 4285886998
-0.039641667 0.017409895 0.019069139 4285952534
-0.037311178 0.013983652 0.02231054 4285886999
-0.035300862 0.01339056 0.022679675 4285689883
-0.033284951 0.012797844 0.023047905 4285558813
-0.031171281 0.011498049 0.024131026 4285558813
-0.028856907 0.008784201 0.026643045 4285558049
-0.060694169 0.013908856 0.022416927 4285427489
-0.058893356 0.015445735 0.020628935 4285821463
-0.057045903 0.016270306 0.019563444 4285820954
-0.055083919 0.015671384 0.019939028 4285755163
-0.053178791 0.015784331 0.019594075 4285952279
-0.051143061 0.014474768 0.020687304 4285886744
-0.049164202 0.013877016 0.021060042 4285689629
-0.047109168 0.012568746 0.022149891 4285624349
-0.045116406 0.011972006 0.022520177 4285690139
-0.043497551 0.014929052 0.019303767 4285755164
-0.041821357 0.017174363 0.016807958 4285886744
-0.039835941 0.016577419 0.017179755 4285689118
-0.037592988 0.013850305 0.019697694 4285886744
-0.035501655 0.012544651 0.020781333 4285821209
-0.033488702 0.011949591 0.021148335 4285624348
-0.031286109 0.009935502 0.022942893 4285558559
-0.029067185 0.0079224668 0.02473456 4285623839
-0.062862247 0.014395203 0.019427445 4285295908
-0.061064187 0.015936162 0.017643167 4285493534
-0.05927657 0.017476525 0.015860872 4285624348
-0.057328511 0.016874496 0.016237203 4285821463
-0.055434484 0.016986657 0.015894163 4285821208
-0.053353187 0.014957976 0.017704934 4285821209
-0.051385563 0.014357314 0.01807788 4285624350
-0.049412329 0.013757069 0.018449878 4285624348
-0.047433469 0.01315723 0.018820912 4285624349
-0.045522075 0.013270784 0.018475011 4285624348
-0.043761928 0.014810104 0.016698148 4285886743
-0.042090733 0.017061587 0.014208194 4285623329
-0.040110935 0.01646211 0.014579298 4285557794
-0.037874099 0.01372594 0.017091587 4285623839
-0.035702061 0.011703342 0.018886471 4285820954
-0.033692051 0.011105899 0.019252295 4285624093
-0.031492729 0.0090850852 0.021042375 4285492259
-0.062876105 0.011424761 0.019695582 4284966449
-0.061123889 0.013686735 0.017195379 4285493023
-0.059333358 0.015231531 0.015415872 4285558814
-0.057496492 0.016059656 0.014355553 4285624349
-0.055486243 0.014739688 0.01544648 4285624349
-0.05346502 0.013420396 0.016535524 4285624349
-0.051497649 0.012817506 0.0169068 4285624349
-0.049727287 0.014361516 0.015131179 4285624349
-0.047897179 0.015189618 0.014072381 4285624349
-0.045999307 0.015302327 0.013728889 4285624349
-0.044252362 0.016845126 0.011957727 4285887254
-0.042437661 0.017672531 0.010901883 4285886999
-0.040385205 0.016355675 0.01198565 4285952279
-0.038238142 0.014324967 0.013779907 4285952789
-0.036074754 0.012295369 0.015571238 4285755673
-0.033984032 0.01098099 0.016648313 4285558304
-0.031698946 0.0082392655 0.01914533 4285557539
-0.062841877 0.0077270716 0.020674372 4285097774
-0.061029959 0.0092773698 0.018894203 4285755419
-0.059228476 0.010827076 0.017116018 4285624604
-0.057380814 0.011657946 0.016055383 4285690139
-0.055478919 0.011770461 0.015710833 4285624604
-0.053452726 0.010447133 0.016795529 4285624604
-0.051544946 0.01056014 0.016450025 4285559068
-0.04977167 0.012108546 0.014677238 4285559069
-0.048008908 0.013656441 0.012906367 4285558814
-0.046183858 0.014486428 0.011850176 4285559069
-0.044363972 0.015316181 0.010794979 4285558814
-0.042627316 0.016862772 0.0090290233 4285558559
-0.040658776 0.016258162 0.0093987714 4285624094
