# .PCD v0.7 - Point Cloud Data file format
VERSION 0.7
FIELDS x y z rgba
SIZE 4 4 4 4
TYPE F F F U
COUNT 1 1 1 1
WIDTH 968
HEIGHT 1
VIEWPOINT 0 0 0 1 0 0 0
POINTS 968
DATA ascii
0.026554829 -0.0086927786 -0.0043202341 4287576373
0.028034426 -0.0070896819 -0.0060957652 4287576373
0.029503342 -0.0054872334 -0.0078688283 4287970094
-0.030476544 -0.0078275725 0.00096340105 4287839023
-0.028583828 -0.0076864585 0.0005323533 4288166188
-0.026690956 -0.0075452477 0.0001013428 4287904303
-0.02494562 -0.006667912 -0.0010147914 4287969073
-0.023055088 -0.0065266639 -0.0014451146 4287838768
-0.020858336 -0.0078565404 -0.00050742365 4287642673
-0.018650834 -0.0091854706 0.00042784959 4287773488
-0.016749237 -0.0090430677 -4.7367066e-06 4288428074
-0.016689684 -0.043141998 -0.0081421128 4287509053
-0.014594834 -0.04376474 -0.0079249246 4287705659
-0.012494549 -0.044386953 -0.0077088801 4287903029
-0.010388855 -0.045008674 -0.0074939346 4287772469
-0.0084437467 -0.044862762 -0.0079362234 4288229683
-0.006161198 -0.046250433 -0.0070675304 4288426034
-0.0042105913 -0.046103872 -0.0075108884 4288491314
-0.0019119084 -0.04749012 -0.0066456194 4288491823
4.4193119e-05 -0.047342882 -0.0070900205 4288165169
0.002358973 -0.048727617 -0.0062282528 4288098868
0.0041385703 -0.047813848 -0.0073261256 4288622384
0.0060975291 -0.047666013 -0.0077708955 4288099378
0.0080565587 -0.047518015 -0.0082155457 4287902774
0.010205567 -0.048135191 -0.0080095194 4287772214
0.012745138 -0.050281949 -0.0065044984 4287772469
0.015495952 -0.053192258 -0.0043536089 4286660414
-0.018312063 -0.047182173 -0.0069069411 4286332484
-0.016677957 -0.045496702 -0.0086632399 4288492079
-0.014580805 -0.046121448 -0.0084482534 4288360754
-0.012157209 -0.048284948 -0.0069230567 4288361009
-0.010043882 -0.048908219 -0.0067115421 4288230449
-0.0077593178 -0.050300255 -0.0058467011 4288361518
-0.0059694573 -0.049384184 -0.0069457362 4288819499
-0.0041848272 -0.048468329 -0.0080435239 4289343269
-0.0018840432 -0.049858764 -0.0071820766 4289016360
0.00042745098 -0.051248223 -0.0063229986 4288427308
0.0025705434 -0.051868498 -0.0061176755 4288295983
0.0043554939 -0.050952166 -0.0072151087 4288688684
0.0061351955 -0.050036073 -0.0083112419 4288361518
0.0082837977 -0.050655559 -0.0081068687 4288230959
0.010248031 -0.050507084 -0.008552637 4288034098
0.012789506 -0.052660182 -0.0070530362 4288230449
0.015542012 -0.055578984 -0.0049091689 4286660413
-0.014567126 -0.048482209 -0.0089745298 4288622894
-0.012301922 -0.049880207 -0.0081088394 4288361518
-0.010188952 -0.050505683 -0.0078989193 4288230704
-0.0080705658 -0.051130682 -0.0076901056 4288296493
-0.0061150417 -0.050983883 -0.0081346855 4288362029
-0.0041594207 -0.050836921 -0.0085791647 4289081639
-0.0020301342 -0.051460654 -0.0083725676 4289343269
0.00010455027 -0.052083865 -0.0081670955 4288688938
0.0022446327 -0.052706525 -0.0079627521 4288296493
0.0042085312 -0.052558452 -0.0084087253 4289146408
0.0061724894 -0.05241023 -0.0088546276 4288165423
0.0081365146 -0.052261889 -0.0093004331 4288165423
0.010100592 -0.052113414 -0.0097461566 4288099633
0.0126413 -0.054273054 -0.008251369 4288230193
-0.014868718 -0.049298599 -0.010809977 4288950059
-0.012766827 -0.049927235 -0.010599248 4288688684
-0.010496758 -0.051329069 -0.0097378939 4288296239
-0.0082159489 -0.052730031 -0.008878842 4288099889
-0.0060925037 -0.053356618 -0.0086727738 4287969073
-0.0041343942 -0.053209499 -0.009117838 4288754219
-0.0023495853 -0.052289262 -0.010212235 4289016103
-0.00039396435 -0.052142076 -0.010656536 4287968563
0.0015617423 -0.051994734 -0.011100754 4287838004
0.0036988705 -0.052619651 -0.010897294 4288556849
0.0058413818 -0.053244039 -0.010694966 4287706678
0.0078025907 -0.053095922 -0.011140142 4287510329
0.0097638443 -0.05294764 -0.011585221 4287706169
0.012301136 -0.055114023 -0.010094643 4287705913
-0.015012633 -0.050886758 -0.011990521 4288622384
-0.012751177 -0.052293733 -0.011130579 4288687663
-0.010641567 -0.052923769 -0.010923222 4287968053
-0.0085265413 -0.053553276 -0.010716993 4287444793
-0.0062382147 -0.054957867 -0.0098628774 4287575864
-0.0042802617 -0.054810777 -0.010307923 4287641144
-0.0024954081 -0.053888373 -0.011400659 4288229683
-0.00071580335 -0.0529662 -0.012492154 4287379513
0.0014156029 -0.053593874 -0.012289111 4287314234
0.0035523698 -0.054221004 -0.012087256 4288033334
0.0055107027 -0.0540732 -0.012531862 4287182908
0.0074690953 -0.053925291 -0.012976397 4286790209
0.0094275251 -0.053777248 -0.013420846 4286986049
0.011769596 -0.055176571 -0.012578085 4286789698
-0.017869879 -0.048726171 -0.015981123 4287706170
-0.015627671 -0.050139025 -0.015120219 4288556083
-0.013055313 -0.053107634 -0.012963302 4288621618
-0.010948703 -0.053740069 -0.012756929 4286986303
-0.0088366866 -0.05437196 -0.012551684 4286659394
-0.0067192689 -0.055003338 -0.012347572 4286267204
-0.0047667846 -0.054856658 -0.012791373 4286724673
-0.002641201 -0.055487201 -0.012588877 4286986303
-0.0010372102 -0.053785734 -0.014324289 4286528834
0.0010911673 -0.05441577 -0.014122274 4286332484
0.0028629899 -0.053491816 -0.0152101 4287639869
0.016407162 -0.0095314384 -0.0046591479 4283921203
0.018527029 -0.010117717 -0.0044210441 4283136569
0.020234428 -0.0092406869 -0.0055266004 4282809913
0.022359645 -0.0098263174 -0.0052895304 4282612799
0.023847509 -0.0082184821 -0.0070637688 4282287674
0.025758492 -0.0080728978 -0.0074965879 4282418234
0.027230356 -0.0064660087 -0.009267075 4281960254
0.029358193 -0.0070509836 -0.0090302471 4282155838
0.031491343 -0.0076354817 -0.0087944865 4282548284
0.033629775 -0.008219406 -0.0085598771 4282549049
0.035313096 -0.0073433071 -0.0096592829 4282483003
0.037456762 -0.0079266131 -0.0094256829 4282287928
0.039370179 -0.0077800453 -0.0098584387 4282418489
0.04175989 -0.0090916753 -0.008961793 4282220609
0.045123562 -0.013318263 -0.0054112189 4282089794
0.050954096 -0.024829775 0.004766698 4281958724
-0.047872666 -0.0091628134 0.0023089666 4284313903
-0.046105396 -0.0082828104 0.0011886209 4284248879
-0.044101331 -0.0088833943 0.0014487375 4284248623
-0.042215366 -0.0087435246 0.0010186508 4284118318
-0.040329192 -0.0086035356 0.00058861077 4283855924
-0.038313914 -0.0092030168 0.00084637105 4283659318
-0.036293138 -0.0098019615 0.0011029672 4283594293
-0.034535285 -0.0089220777 -1.4768913e-05 4283070269
-0.03291947 -0.0073034912 -0.0018172245 4282809149
-0.031035025 -0.0071631372 -0.002246493 4282743358
-0.029150423 -0.0070226789 -0.0026757284 4282679353
-0.027120788 -0.0076204538 -0.0024207546 4282613819
-0.025233198 -0.0074795485 -0.0028504948 4282483004
-0.023195293 -0.0080765188 -0.0025972608 4282417979
-0.021151904 -0.0086729601 -0.0023451671 4282418233
-0.019103061 -0.0092689395 -0.0020942129 4282941494
0.013947703 -0.0097759962 -0.0067329574 4284313904
0.016059235 -0.010365225 -0.0064946748 4282876213
0.018176097 -0.010953881 -0.0062575508 4281828164
0.0200896 -0.010808453 -0.0066912025 4281762119
0.02200311 -0.010662913 -0.0071247667 4281631049
0.023702603 -0.0097840801 -0.0082266852 4281632834
0.025613446 -0.0096385032 -0.0086594634 4281829694
0.027524274 -0.0094928294 -0.0090921633 4281698369
0.029657096 -0.010079578 -0.0088581257 4281567554
0.031570543 -0.0099334642 -0.0092912316 4281307709
0.033938624 -0.011251524 -0.0083933733 4281372989
0.03585732 -0.011104763 -0.0088274851 4281438269
0.037775975 -0.010957904 -0.0092615038 4281829183
0.039694577 -0.010810934 -0.0096954219 4281763649
0.042089082 -0.012126572 -0.0088031553 4281893953
0.046419255 -0.019290343 -0.0026137577 4281893954
-0.047895554 -0.011452436 0.0018477514 4281829693
-0.046007458 -0.011312634 0.0014170185 4281961273
-0.044119153 -0.011172712 0.00098631531 4281896249
-0.04223064 -0.011032671 0.00055563822 4281896249
-0.040215891 -0.011634484 0.00081175938 4282026809
-0.038195606 -0.01223582 0.0010667406 4281831224
-0.036169823 -0.012836576 0.0013205204 4281765944
-0.034674656 -0.010471426 -0.0011667609 4281763394
-0.032921884 -0.0095896721 -0.0022816174 4281762883
-0.03103492 -0.009449169 -0.0027114917 4281762883
-0.029147778 -0.009308517 -0.0031413026 4281567298
-0.027405132 -0.0084272027 -0.0042536128 4281372224
-0.025520328 -0.0082865357 -0.0046827435 4281240899
-0.023335431 -0.0096260607 -0.0037491769 4281372224
-0.021292377 -0.010224722 -0.003498707 4281699133
-0.019399162 -0.010083102 -0.0039295033 4282288694
0.014204774 -0.01281181 -0.006554462 4283530544
0.016118094 -0.01266662 -0.006988246 4281829439
0.01823728 -0.01325728 -0.0067533217 4281501763
0.019944802 -0.012375906 -0.0078555755 4281044294
0.021858167 -0.012230381 -0.0082891062 4281044294
0.023557719 -0.011349387 -0.0093893781 4281175618
0.025684901 -0.011938952 -0.0091558956 4281240898
0.027817396 -0.01252801 -0.0089235343 4281176128
0.029955193 -0.013116539 -0.0086922869 4281111104
0.031873822 -0.012970015 -0.0091265514 4281110594
0.034019563 -0.013557762 -0.0088968799 4281045313
0.035940781 -0.013410807 -0.0093315654 4281176128
0.037861958 -0.013263732 -0.0097661354 4281371969
0.039312854 -0.011649087 -0.011524674 4281502274
0.041941918 -0.01370278 -0.0099735856 4281698878
0.046750773 -0.022354975 -0.0024787309 4281763903
-0.04791877 -0.013746135 0.001383502 4281239623
-0.045910235 -0.014350936 0.0016391687 4281370948
-0.044016737 -0.014210656 0.0012072641 4281567554
-0.041999836 -0.0148146 0.0014611259 4281437758
-0.039977428 -0.015418015 0.0017138217 4281372734
-0.038078014 -0.015277006 0.0012807939 4281306944
-0.036178421 -0.015135877 0.00084779784 4281110594
-0.034546304 -0.013507582 -0.00095183216 4281175363
-0.032651667 -0.01336664 -0.0013835523 4281240644
-0.03061771 -0.013968684 -0.0011330992 4281175618
-0.028861862 -0.013084367 -0.0022468567 4281110594
-0.026966717 -0.012943037 -0.0026784278 4281044803
-0.025218543 -0.012059018 -0.0037903171 4280980033
-0.023175959 -0.012660056 -0.0035414565 4281045569
-0.021280359 -0.012518369 -0.0039728805 4281240388
-0.019384626 -0.012376592 -0.0044042766 4281763648
0.016379561 -0.015710436 -0.0068172351 4281829184
0.018092448 -0.014826611 -0.0079191253 4281370439
0.020008327 -0.014681004 -0.0083533153 4281043784
0.021924211 -0.014535278 -0.0087874178 4281174598
0.024053717 -0.015126951 -0.0085562207 4281175364
0.026188552 -0.015718147 -0.0083260909 4281306434
0.028547626 -0.017045893 -0.0074331206 4281175618
0.03025252 -0.016161971 -0.0085326619 4280980033
0.032176331 -0.016015068 -0.0089681111 4281045569
0.034100108 -0.015868016 -0.0094034486 4280915008
0.03602384 -0.015720859 -0.0098386891 4281045569
0.037715293 -0.014837489 -0.010934822 4281241153
0.03940136 -0.013954394 -0.012029707 4281436993
0.0422699 -0.016750112 -0.0098242396 4281241153
0.047321733 -0.026163578 -0.0016907426 4281371714
-0.049048532 -0.02141498 0.0061541786 4282345813
-0.047712218 -0.01753813 0.0022881543 4281630793
-0.045813743 -0.01739762 0.0018550092 4281306434
-0.044035401 -0.016510293 0.00073714461 4281110594
-0.042139176 -0.01636976 0.00030465424 4280981308
-0.040117074 -0.016975388 0.00055573788 4280981308
-0.038346115 -0.016088322 -0.00056021288 4280850494
-0.036318336 -0.016693331 -0.00031027477 4280980289
-0.034552325 -0.015806422 -0.001424944 4281110339
-0.032382566 -0.017156303 -0.00049502309 4281110339
-0.030479912 -0.017014667 -0.00092849415 4281305924
-0.028577078 -0.016872913 -0.0013619373 4281305924
-0.026818361 -0.01598613 -0.002474614 4281044804
-0.025064792 -0.015099607 -0.0035860357 4281240644
-0.023166817 -0.014957897 -0.0040181191 4281240898
-0.021116462 -0.015560374 -0.0037726653 4281436738
-0.019060645 -0.016162328 -0.0035283663 4281895229
0.0162347 -0.017281629 -0.0079844613 4281633088
0.018153077 -0.017135948 -0.0084193097 4281174599
0.020279583 -0.017730296 -0.0081892358 4281175109
0.022200644 -0.017584175 -0.0086245062 4281044294
0.024121709 -0.01743792 -0.0090596722 4281305668
0.026258843 -0.018031061 -0.0088317813 4281240898
0.028401293 -0.018623687 -0.008605008 4281110849
0.030770443 -0.019954875 -0.0077175507 4281044803
0.032702088 -0.019807331 -0.0081547508 4281175619
0.034406982 -0.01892101 -0.0092524411 4281240644
0.0363359 -0.018773451 -0.0096888477 4281240644
0.038032733 -0.017887488 -0.010784526 4281371459
0.039958891 -0.017739929 -0.011220147 4281501763
0.042834461 -0.020543762 -0.0090229297 4281435973
0.048131503 -0.030722618 -0.00025465153 4281370949
-0.048851918 -0.025231197 0.0070430385 4282346069
-0.047621612 -0.020593598 0.0024989164 4281434698
-0.045717951 -0.020452738 0.0020645587 4281371203
-0.04393423 -0.019562885 0.00094710756 4281110594
-0.041909996 -0.020170651 0.0011959383 4281046079
-0.0401312 -0.019280955 7.9766847e-05 4281045823
-0.038229395 -0.019139834 -0.00035386067 4280980289
-0.036327396 -0.018998586 -0.00078744907 4281110594
-0.034291785 -0.0196051 -0.00054089446 4281175363
-0.032250676 -0.020211145 -0.00029547419 4281174853
-0.030481588 -0.019321606 -0.0014090659 4281175109
-0.028717656 -0.018432401 -0.0025213794 4281174853
-0.026814792 -0.018290542 -0.0029547405 4281240133
-0.024911795 -0.018148586 -0.0033880738 4281174853
-0.022859249 -0.018753186 -0.0031448775 4281175363
-0.020801235 -0.019357324 -0.002902803 4281959998
-0.018892486 -0.0192146 -0.003337183 4282484023
0.01649503 -0.020337954 -0.0078226672 4281568064
0.01821335 -0.019449368 -0.0089224549 4281305668
0.02055005 -0.020787962 -0.0080314437 4281043784
0.022476286 -0.020641439 -0.0084678838 4281175109
0.024189306 -0.01975292 -0.0095662074 4281239879
0.026328757 -0.02034805 -0.0093404995 4281175364
0.028692052 -0.021684125 -0.0084551284 4281175874
0.031287182 -0.023760572 -0.006911871 4281175618
0.033674382 -0.025094584 -0.0060317307 4281436738
0.035619155 -0.02494593 -0.0064718137 4281436738
0.037793085 -0.025537878 -0.0062534111 4281501763
0.039740428 -0.025388777 -0.0066938857 4281240898
0.04215673 -0.026720062 -0.0058199516 4281370949
0.044583626 -0.02805049 -0.004948297 4281370693
-0.047646392 -0.02290611 0.0020207232 4281631304
-0.045740176 -0.022765085 0.001585762 4281435463
-0.043833766 -0.022623934 0.0011508456 4281370694
-0.041804556 -0.023233518 0.0013968507 4281306179
-0.040020365 -0.022341304 0.00028109085 4281175619
-0.038113374 -0.022199802 -0.00015373062 4281045313
-0.036075618 -0.022808447 9.0568326e-05 4281175618
-0.03416561 -0.022666529 -0.00034478772 4281175109
-0.032255415 -0.022524491 -0.00078009907 4281240133
-0.030760724 -0.020133272 -0.0032472005 4281239879
-0.028999377 -0.0192421 -0.0043572607 4281175109
-0.027387064 -0.017601959 -0.0061421324 4281174853
-0.025199112 -0.018958762 -0.0052227234 4281240133
-0.023000371 -0.020314649 -0.0043056803 4281306689
-0.020942692 -0.020920984 -0.0040652072 4281893953
-0.018879581 -0.021526769 -0.0038259355 4282483004
-0.017125327 -0.020635463 -0.0049338648 4284247603
0.013827298 -0.019823559 -0.01054673 4282417469
0.016147457 -0.021168023 -0.0096554393 4281566789
0.018068202 -0.021022156 -0.010090825 4281173834
0.019988962 -0.020876169 -0.010526114 4281042763
0.022120086 -0.021474332 -0.010300369 4281043018
0.0238305 -0.020583853 -0.011396443 4281043019
0.02639829 -0.022669069 -0.0098522017 4280977483
0.029418712 -0.026240319 -0.006993161 4280977738
0.033349715 -0.032783262 -0.001505835 4281174344
0.036433943 -0.036349371 0.0013389643 4281370184
0.038413148 -0.036198087 0.00089108758 4281239114
0.04062131 -0.036789551 0.0011000987 4281565514
0.043066364 -0.038123101 0.0019641044 4281369418
0.045756321 -0.040198177 0.003481389 4282739279
-0.046755809 -0.031251639 0.0069883289 4281826633
-0.044825856 -0.031108893 0.0065479176 4281762374
-0.042895671 -0.030965999 0.0061075641 4281435719
-0.040965293 -0.030823007 0.0056672217 4281305414
-0.039034713 -0.030679896 0.0052269176 4281371203
-0.037231702 -0.029783979 0.0041085538 4281371458
-0.035564188 -0.02813597 0.0023140013 4281240644
-0.033907112 -0.02648861 0.00052192155 4281305414
-0.032531906 -0.023337796 -0.0026202435 4281174089
-0.031039421 -0.020940289 -0.0050818818 4281174089
-0.029421683 -0.019295521 -0.0068647442 4280846924
-0.027527075 -0.01915434 -0.0072962744 4280580959
-0.025485989 -0.019764282 -0.0070539238 4280449378
0.039577663 0.03211521 0.022062343 4279454624
0.043897532 0.031063277 0.022608548 4278532799
0.055442266 0.031946849 0.019996934 4279128224
0.0049050897 0.034844309 0.021112073 4278733739
0.014079802 0.029995468 0.025114175 4279126183
0.016400252 0.028785501 0.026108753 4278799528
0.018113539 0.029608488 0.024959944 4278603688
0.019612893 0.031108353 0.023099303 4278472873
0.019833907 0.036669191 0.016966343 4278733994
0.022530781 0.040339328 0.012553451 4278404789
0.031305294 0.031304661 0.021210432 4278800293
0.033219207 0.03145051 0.020776987 4278603944
0.034443244 0.033623077 0.018218864 4278276268
0.035651244 0.035794485 0.015664425 4278733739
0.035902116 0.04066525 0.010285561 4278602669
0.037781198 0.04080876 0.0098602464 4278865319
0.047107089 0.031124908 0.019154094 4278734758
0.049274452 0.03059765 0.019424044 4278538664
0.051447056 0.030070815 0.019692905 4278604453
0.05184735 0.03426047 0.015040866 4278341803
0.05384801 0.039266042 0.0092668524 4279127459
0.056260765 0.0380648 0.01024183 4279062179
0.0015313625 0.030959968 0.022966381 4279193504
0.0017475896 0.03723231 0.01608859 4278340274
0.0028647296 0.040097274 0.012800132 4279191973
0.0043454655 0.041599605 0.010946688 4279259293
0.0065959767 0.040379703 0.011953642 4278799019
0.0092527159 0.037800387 0.01438594 4278667439
0.01193082 0.035222806 0.016813405 4278340529
0.014021043 0.034686133 0.017098185 4278472363
0.015910868 0.034829535 0.016669724 4278996644
0.017175458 0.037011076 0.014106945 4278275249
0.019442979 0.042049669 0.0082822507 4279127203
0.021306217 0.042191356 0.0078600543 4279520924
0.023826674 0.040297531 0.0095649967 4278667694
0.027028363 0.03636995 0.013391671 4278339764
0.029139971 0.035835531 0.013672086 4278537898
0.031256877 0.035301633 0.013951319 4278800294
0.032460105 0.03747914 0.01140293 4278865574
0.0366868 0.041973367 0.0058943862 4278536879
0.039035864 0.040762328 0.0068799807 4278798764
0.042610876 0.036168568 0.011381284 4278405299
0.047885388 0.032400317 0.014739576 4278537898
0.049542241 0.033222519 0.013606259 4278669224
0.050178755 0.03674797 0.009669452 4278274739
0.00028285012 0.033499159 0.017514888 4279717784
0.00085859746 0.038423635 0.012084723 4278273719
0.0060652941 0.040212218 0.0093892431 4278405298
0.010586794 0.037765522 0.011391933 4278274739
0.012660719 0.03722547 0.011678687 4278668713
0.014328901 0.038049378 0.010543448 4278668968
0.015783574 0.039554492 0.0086996565 4278276013
0.018447423 0.043243706 0.0043108528 4278272444
0.028323563 0.036324099 0.010400374 4278800039
0.029978428 0.037147634 0.0092686461 4278734503
0.031168843 0.039330691 0.0067281807 4278472874
0.03257544 0.040832862 0.0048958324 4278275504
0.044849291 0.033401385 0.011201474 4278865318
0.046746548 0.033546627 0.010772307 4278800039
0.048142001 0.035048492 0.0089429049 4278472874
0.048766121 0.03858389 0.0050172806 4278668969
-4.3045729e-05 0.032637075 0.015651312 4279718038
-2.8748065e-05 0.039632697 0.0080940286 4278472108
0.010045301 0.037597381 0.0088301906 4278799783
0.011910912 0.037738845 0.0084071467 4278603434
0.013571206 0.038564321 0.0072753606 4278538154
0.015018173 0.040073246 0.0054366207 4278668968
0.018093526 0.042405531 0.0024735676 4278471089
0.02266765 0.039955251 0.0044584963 4278602668
0.025634713 0.036683299 0.0075629586 4278996134
0.027508382 0.036826029 0.0071385922 4278800039
0.029155353 0.037651137 0.0060103247 4278800038
0.030567633 0.039158024 0.0041799815 4278538409
0.032201212 0.039982274 0.0030548712 4278407083
0.034064073 0.040124506 0.0026332 4278930343
0.035926886 0.040266812 0.002211594 4279061413
0.038269617 0.039046615 0.0031919573 4279061413
0.041108273 0.036465108 0.0055707078 4278996134
0.043968171 0.033885311 0.0079447171 4278996388
0.046105325 0.033349279 0.0082165347 4278668968
0.046994444 0.03621611 0.0049945125 4278603689
0.048115466 0.038401127 0.0024753343 4278603689
0.049220413 0.040584944 -4.0103681e-05 4278538154
0.0510852 0.040728033 -0.00046166871 4278472618
0.053211167 0.040191535 -0.00018702168 4278669224
0.056134276 0.037617132 0.0021731183 4278603943
0.060945019 0.030289687 0.0093930131 4278669478
-8.4936619e-07 0.030404154 0.015215161 4280046223
-0.00016847253 0.038109362 0.0069621475 4278668969
0.0013077743 0.039624274 0.0051196618 4278472363
0.0029652677 0.040451288 0.0039898632 4278734758
0.0048119761 0.040591076 0.003570918 4278930343
0.0072501972 0.038670745 0.0052789943 4278930343
0.0097044595 0.036751702 0.0069834897 4278799784
0.011567302 0.036892958 0.0065610716 4278603434
0.013225019 0.037720446 0.0054314947 4278800038
0.015085254 0.037861668 0.0050097946 4278537898
0.016314089 0.040060099 0.0024702763 4278603433
0.018166361 0.040200874 0.0020504976 4278537898
0.01980282 0.04102708 0.0009259982 4278799783
0.022307852 0.039112478 0.0026194351 4278668713
0.025050003 0.036514267 0.0050128531 4278603689
0.027365841 0.035287201 0.0059955949 4278472874
0.029012918 0.036114499 0.0048689824 4278407083
0.030425504 0.037625764 0.0030419193 4278538154
0.032059189 0.038452208 0.0019184714 4278603689
0.03392195 0.038594447 0.0014968272 4278668968
0.035310399 0.040104158 -0.00032462459 4278405809
0.040237263 0.036971804 0.0023285029 4278340019
0.043088254 0.034382641 0.00469785 4279061413
0.045464896 0.033160962 0.0056674005 4278472874
0.046850316 0.034670811 0.0038469918 4278669734
0.048478093 0.035497449 0.0027253758 4278538409
0.049588874 0.0376883 0.00021360535 4278603433
0.050942011 0.039195918 -0.0015993156 4278799783
0.0549348 0.038800701 -0.0017482042 4278271679
0.058933254 0.033492692 0.0033763889 4278665398
0.00022462383 0.027477119 0.015486334 4281356414
-0.00012186915 0.03589654 0.0065402025 4278603434
0.00097943842 0.038795032 0.0032820413 4278537898
0.0040897354 0.041141808 0.00032024831 4278534328
0.0065192543 0.03921432 0.0020252289 4278338998
0.0089648105 0.037288103 0.0037266845 4278864809
0.011021834 0.036740229 0.0040122382 4278538154
0.012674335 0.037569448 0.0028855605 4278407083
0.014736746 0.037022151 0.0031700199 4278472363
0.016383965 0.03785114 0.0020446666 4278406573
0.018025862 0.038679805 0.00092058256 4278274739
0.02446612 0.036354229 0.002469427 4278271168
0.026999718 0.034435496 0.0041514654 4278864298
0.029096756 0.033891425 0.0044285338 4278537898
0.030512312 0.035407275 0.002604153 4278406828
0.032380357 0.035549834 0.0021812525 4278603433
0.033545565 0.03775074 -0.00033830013 4278537898
0.044825293 0.032981593 0.0031249877 4278341293
0.046455935 0.033810578 0.0020043571 4278603944
0.048334062 0.033954583 0.0015796954 4278734759
0.049189791 0.036836449 -0.0016212417 4278341293
0.050282329 0.03903253 -0.0041237888 4278537134
0.051619682 0.040543381 -0.0059297225 4278533564
0.054000508 0.039318182 -0.004964069 4278599609
-0.00010096282 0.026617981 0.013624857 4281881204
-0.0004477948 0.035063401 0.0046988912 4278603434
0.00027403235 0.039353818 3.2768585e-05 4278602668
0.0035628118 0.041014649 -0.002214205 4278336448
0.010477215 0.036596447 0.0014701225 4278472363
0.012329224 0.036736958 0.001050218 4278538154
0.014388666 0.036187254 0.0013336735 4278537643
0.015823234 0.037708346 -0.00049217418 4278602668
0.018875841 0.040058598 -0.003434848 4278797234
0.021153383 0.03881976 -0.002450244 4278795958
0.026410619 0.034277476 0.00161108 4278864044
0.028954141 0.032353081 0.0032859333 4278537643
0.030369999 0.033873297 0.0014648214 4278800038
0.032006551 0.034704328 0.00034408271 4278734248
0.032935549 0.037599862 -0.0028672321 4278275249
0.034079898 0.039805777 -0.0053769834 4278536624
0.035926364 0.039946962 -0.0057947882 4279454368
0.044186499 0.032811228 0.00058927201 4278602668
0.045811903 0.033642042 -0.00052853487 4278603689
0.047431901 0.034472484 -0.001645009 4278341548
0.048280355 0.037362516 -0.0048375917 4278340274
0.049365435 0.03956452 -0.0073333783 4278601393
0.050955787 0.040392973 -0.0084430072 4279062178
0.053330801 0.039162975 -0.0074793128 4279193758
0.062680013 0.025050316 0.0061617745 4278274994
-0.00079253316 0.027152017 0.010352601 4283315068
-0.00077328458 0.034234866 0.0028610025 4278537899
0.0012089945 0.040758125 -0.0043272628 4278930853
0.0028428584 0.041589931 -0.0054466412 4279194013
0.0078876652 0.037014801 -0.0013501048 4278602669
0.010135293 0.035768829 -0.00036245678 4278406574
0.011575449 0.037294477 -0.0021863165 4278734503
0.013212182 0.038126923 -0.0033060224 4278799273
0.016257167 0.040482976 -0.0062421337 4278601393
0.018090483 0.040622406 -0.0066575417 4279127459
0.020141656 0.040070247 -0.006373615 4278800039
0.022639219 0.038135607 -0.0046934607 4278733994
0.025152752 0.036202282 -0.0030168472 4278537134
0.027908111 0.033579197 -0.00064633042 4278603433
0.029542118 0.034412168 -0.0017649308 4278800039
0.03093959 0.035935435 -0.0035784515 4278799784
0.03299284 0.041050576 -0.0092832549 4278798509
0.035067733 0.040500876 -0.0090041254 4279324318
0.037389725 0.03926187 -0.0080323238 4278930599
0.040211324 0.036644451 -0.0056763315 4278537134
0.04305416 0.034028742 -0.0033250777 4278799273
0.044669028 0.034860902 -0.0044387686 4278472874
0.046278458 0.035692766 -0.0055512111 4278538409
0.050292719 0.04025152 -0.010949564 4278732973
0.052661881 0.039016798 -0.009987914 4279192483
0.055839039 0.035718895 -0.0069632283 4278865063
-0.001655411 0.035499834 -0.0010881806 4279061669
0.00049816817 0.041345254 -0.0075532659 4278668204
0.002317816 0.041482944 -0.0079661142 4278995878
0.0051192492 0.038143322 -0.0048664846 4278537133
0.009793818 0.034945786 -0.0021915636 4278602923
0.011435945 0.035780732 -0.0033108857 4278865318
0.012658753 0.038004719 -0.0058291066 4278668459
0.013446264 0.041616511 -0.009742544 4278601138
0.01687636 0.042587686 -0.011266801 4278273973
0.027315008 0.033436622 -0.0031737718 4278668713
0.028943798 0.034271341 -0.0042894646 4278800039
0.030105243 0.03649145 -0.0067931735 4278734503
0.030783361 0.040095702 -0.010681228 4278273463
0.04217042 0.034572385 -0.0065352339 4278603434
0.044276658 0.034023315 -0.0062646335 4278734503
0.045631252 0.035548344 -0.0080645746 4278669479
0.046465155 0.038454693 -0.011240461 4278538408
0.049370151 0.040809676 -0.014137486 4278338743
-0.0023504011 0.036084078 -0.0043209167 4279389343
0.007012669 0.03608001 -0.0056999312 4278472618
0.0090498291 0.035521884 -0.0054165223 4278800294
0.010479905 0.037055474 -0.0072314786 4278668969
0.011899367 0.038588319 -0.0090439012 4278407083
0.012679782 0.042210422 -0.012947385 4278537898
0.014282081 0.04304482 -0.014055848 4278406319
0.016308673 0.042486321 -0.013769717 4278405809
0.021478435 0.037891667 -0.0097238189 4278537389
0.023534296 0.037335701 -0.0094441567 4278734504
0.025820926 0.03608476 -0.0084713772 4278865573
0.027890055 0.035529986 -0.0081945853 4278800038
0.029041346 0.037755854 -0.010690967 4278603433
0.030176617 0.039980546 -0.013183615 4278473129
0.031531949 0.041509509 -0.014980816 4278276778
0.034070455 0.0395656 -0.013319462 4278277033
0.036383428 0.038317248 -0.012352276 4278865829
0.038951099 0.036375746 -0.01069739 4278997154
0.041534677 0.034435552 -0.0090460302 4278931873
0.043635283 0.033883899 -0.0087758061 4278669478
0.045236938 0.034719519 -0.0098830666 4278866339
0.046833154 0.035554849 -0.010989081 4278604453
0.047909118 0.037775785 -0.013467705 4278669733
0.049489155 0.03861 -0.014569884 4278604709
0.051063731 0.039443925 -0.015670806 4278735523
0.053694505 0.037507951 -0.014029656 4278865828
0.057413403 0.032804593 -0.0096536744 4278800803
0.064959683 0.018416647 0.0042896671 4278800803
-0.0024882741 0.034579702 -0.0054387441 4279717273
-0.0014074706 0.037520029 -0.0086588804 4278603689
0.00022394583 0.038358022 -0.009772799 4279127968
0.0024299473 0.037095547 -0.0087859062 4279127968
0.0046466477 0.035834007 -0.0078014163 4279062433
0.0066754408 0.035273008 -0.0075179115 4278996898
0.0085083283 0.035411939 -0.0079335794 4278931619
0.010137323 0.036250219 -0.0090465881 4278800549
0.011761013 0.037088178 -0.010158332 4278734758
0.013170119 0.038624719 -0.01196504 4279062178
0.014780521 0.039461847 -0.013073631 4278996388
0.017029384 0.038203336 -0.01209591 4278996388
0.019506149 0.036247537 -0.010426178 4279127714
0.021998905 0.034293007 -0.0087599494 4279127713
0.023617277 0.035131115 -0.0098700644 4279193504
0.025680795 0.034573656 -0.0095937364 4279062689
0.027749613 0.034016706 -0.0093185278 4278931619
0.029131992 0.03555188 -0.011118588 4278931874
0.030736899 0.036389347 -0.01222543 4278931873
0.032100536 0.03792328 -0.014021102 4278997153
0.034646317 0.035973419 -0.012366403 4278997153
0.036725532 0.035417706 -0.012093205 4278866338
0.03954171 0.032773871 -0.0097559877 4278866338
0.041639429 0.032219753 -0.009486841 4278800803
0.043742385 0.031666137 -0.009218798 4278735523
0.045598689 0.031808577 -0.0096384427 4278538919
0.047454897 0.031951107 -0.01005799 4278473384
0.048539344 0.03417927 -0.012533554 4278538664
0.050387345 0.034321338 -0.012951115 4278800548
0.051972691 0.035158247 -0.014052738 4278669479
0.054878596 0.032522 -0.011735262 4278342059
0.057537809 0.030581836 -0.010105439 4278341804
0.064270765 0.018230639 0.0017562071 4278341804
-0.0017006621 0.029561348 -0.0030562449 4280306324
-0.00060585141 0.032511391 -0.0062729008 4278407338
0.0010389723 0.033352572 -0.0073881904 4278800039
0.0030646883 0.032788977 -0.0071058068 4278866083
0.0050957985 0.032225844 -0.006824526 4278669223
0.0069338679 0.03236508 -0.0072414353 4278800548
0.0085708946 0.033206079 -0.0083547216 4278669479
0.012241878 0.033484623 -0.0091870157 4278407083
0.014077403 0.033624034 -0.0096030654 4278407083
0.02251816 0.030681513 -0.0078056837 4278341548
0.025990767 0.031663191 -0.009333984 4278342059
0.037548885 0.031112496 -0.010465753 4278277034
0.039643697 0.030555926 -0.010197667 4278342314
0.04174377 0.029999826 -0.0099307122 4278342314
0.0480754 0.028334491 -0.0091364514 4278276779
0.053404678 0.029461388 -0.011082361 4278473384
0.05553063 0.028907921 -0.010820759 4278277034
0.058197096 0.026961863 -0.0091976188 4278538918
0.064663917 0.015268303 0.0019523501 4278604453
-0.00073011965 0.023816314 8.6277723e-06 4280110739
0.0001938045 0.027481157 -0.0039029713 4278801058
0.0020422526 0.027620893 -0.0043224567 4278538918
0.0038907565 0.027760729 -0.0047418806 4278277034
0.0075879246 0.028040681 -0.005580557 4278407849
0.0092357062 0.028884612 -0.0066945748 4278342314
0.011081725 0.029024646 -0.0071131391 4278276779
0.013133969 0.028461345 -0.0068380879 4278603943
0.014982697 0.028601751 -0.0072571356 4278538408
0.017254502 0.02733621 -0.0062913583 4278603943
0.01932276 0.026774421 -0.006019712 4278538408
0.021396354 0.026213124 -0.0057492084 4278472874
0.023036232 0.02705713 -0.0068609179 4278473384
0.024670769 0.027900808 -0.0079713557 4278473384
0.026749641 0.027340207 -0.0077018184 4278538918
0.029061332 0.026078273 -0.0067446404 4278604453
0.031153457 0.025518857 -0.0064779692 4278407849
0.033250868 0.024959944 -0.0062124212 4278407849
0.034647059 0.026505072 -0.0080087651 4278407849
0.036508866 0.026647523 -0.0084299687 4278407849
0.038370602 0.026790056 -0.0088510904 4278473384
0.040232271 0.026932683 -0.0092721218 4278538918
0.042586166 0.025674671 -0.0083240308 4278342314
0.044701815 0.025117714 -0.0080621773 4278342314
0.046822689 0.024561264 -0.0078014275 4278538918
0.04844052 0.0254048 -0.008907211 4278407849
0.050309718 0.025548458 -0.0093295937 4278538918
0.052178808 0.025692198 -0.0097518796 4278407849
0.054309905 0.025136899 -0.0094931563 4278669988
0.056446217 0.02458204 -0.0092355041 4278538918
0.059390053 0.021931555 -0.0069398722 4278604708
0.06586659 0.010201871 0.004179541 4278866848
-0.00031601265 0.020167056 0.00096382108 4280438414
0.00080414489 0.023136348 -0.002245252 4278932638
0.0026631244 0.023276865 -0.0026671411 4278538918
0.0045221709 0.023417495 -0.0030889604 4278604453
0.0063812658 0.023558211 -0.0035107243 4278538918
0.0078444071 0.025111422 -0.0053199357 4278800803
0.009698268 0.02525194 -0.005740359 4278669733
0.011755489 0.024686761 -0.0054681762 4278538663
0.01381807 0.024122067 -0.0051971427 4278538663
0.015677337 0.024263278 -0.0056185792 4278604198
0.017747954 0.023699354 -0.0053491672 4278342314
0.019823894 0.023135979 -0.005080929 4278342314
0.021471854 0.023982666 -0.0061928807 4278473384
0.023114473 0.02482909 -0.0073035881 4278407849
0.024529781 0.026379555 -0.0091012754 4278407849
0.026832975 0.025112584 -0.0081456229 4278604198
0.029146809 0.023846474 -0.0071922624 4278866593
0.031931195 0.02117373 -0.0048682177 4278866594
0.033806309 0.021317028 -0.0052925656 4278866593
0.035446066 0.022163801 -0.0064021861 4278800804
0.037080452 0.023010232 -0.0075104637 4278735524
0.038950063 0.023153394 -0.0079333456 4278604453
0.040819608 0.023296636 -0.0083561493 4278538663
0.042935025 0.022737421 -0.0080959657 4278735268
0.045055695 0.022178669 -0.0078368494 4278407849
0.047181588 0.021620445 -0.007578888 4278407849
0.048804834 0.022466589 -0.0086842151 4278473384
0.050679248 0.022610672 -0.0091077564 4278538918
0.052553549 0.022754848 -0.0095311953 4278604453
0.054427736 0.022899102 -0.009954541 4278735523
0.056301791 0.023043443 -0.010377782 4278735523
0.059511971 0.019683279 -0.0074104825 4278538918
0.066527382 0.0065152682 0.0050357599 4278538918
-0.0002720356 0.01792372 0.00051915646 4282205308
0.0012257695 0.019483514 -0.0012948746 4278997664
0.003282439 0.01891562 -0.0010246187 4278736034
0.004767064 0.020474609 -0.0028355094 4278539173
0.0066313669 0.020615712 -0.0032584649 4278408103
0.0081001073 0.022173733 -0.0050656507 4278538918
0.0099591762 0.022314638 -0.0054872632 4278604453
0.011818275 0.022455633 -0.0059088161 4278604198
0.013883211 0.021888915 -0.0056399358 4278538663
0.015953481 0.021322735 -0.0053722393 4278538663
0.018029088 0.02075706 -0.0051056771 4278473384
0.020110032 0.020191904 -0.0048402352 4278604453
0.021763409 0.021041177 -0.0059517426 4278538918
0.023411445 0.021890149 -0.0070619555 4278669988
0.024832357 0.023445413 -0.0088576283 4278473384
0.02714037 0.02217444 -0.0079063466 4278669988
0.029458992 0.020904403 -0.0069574518 4278669733
0.03201801 0.018929288 -0.0053259516 4278735268
0.033895671 0.019072786 -0.0057508657 4278604453
0.035773281 0.019216366 -0.006175709 4278866593
0.037650835 0.019360051 -0.0066004535 4278931874
0.039768741 0.018798687 -0.0063426336 4278866593
0.041405741 0.019647695 -0.0074496763 4278735524
0.043037344 0.020496376 -0.0085554281 4278669988
0.045160342 0.01993569 -0.0082985377 4278473384
0.047037508 0.020079818 -0.0087228315 4278473384
0.048914578 0.02022405 -0.0091470173 4278407849
0.05053515 0.021072268 -0.010249983 4278538918
0.052409336 0.02121646 -0.010673377 4278473384
0.054545131 0.020657226 -0.010419018 4278669988
0.056950498 0.019395195 -0.0094886916 4278604453
0.060434576 0.015321605 -0.005854757 4278866339
-0.00022840872 0.015676249 7.1486458e-05 4282336633
0.0010853782 0.017952003 -0.0024328562 4279128224
0.00295211 0.018093087 -0.0028565158 4278997664
0.0044343546 0.019656222 -0.0046635391 4278538663
0.0062958784 0.019797117 -0.0050858594 4278669733
0.0081574433 0.0199381 -0.0055081267 4278604198
0.010219321 0.019368812 -0.0052404227 4278473128
0.012286555 0.018800039 -0.0049738586 4278669733
0.014359143 0.018231772 -0.0047084289 4278604198
0.016228821 0.018373769 -0.0051322291 4278604198
0.018098524 0.01851587 -0.0055559492 4278604453
0.020181805 0.017948721 -0.0052927104 4278735523
0.021837926 0.018800378 -0.006403164 4278538918
0.023707619 0.018942773 -0.0068266587 4278604453
0.025134156 0.020502768 -0.0086202174 4278735523
0.027446955 0.019227874 -0.0076733986 4278538918
0.029543482 0.018662225 -0.0074127773 4278735268
0.031874876 0.017388888 -0.0064699845 4278866594
0.033752415 0.017532386 -0.0068948669 4278866594
0.035629906 0.017675977 -0.0073196692 4278801314
0.037744891 0.017112132 -0.0070629222 4278866848
0.039624929 0.017256118 -0.0074881436 4278801059
0.041504886 0.01740019 -0.0079132756 4278604453
0.043139238 0.018251281 -0.0090179602 4278866594
0.045264579 0.017688632 -0.008763249 4278735524
0.04714429 0.017832972 -0.0091881035 4278800803
0.049023908 0.017977405 -0.0096128611 4278407849
0.050903421 0.018121943 -0.010037507 4278604454
0.05304167 0.017560661 -0.0097854277 4278473384
0.05492362 0.017705567 -0.010210481 4278670243
0.057333805 0.016439546 -0.0092845252 4278669733
0.061088681 0.011648059 -0.0049866661 4278735269
-0.00018515438 0.013424724 -0.0003792746 4282139775
0.0013185218 0.014993653 -0.0021880311 4278866083
0.0031904541 0.015135117 -0.0026128837 4278801314
0.0050624572 0.015276693 -0.0030376636 4278735779
0.0069345012 0.015418351 -0.0034623961 4278604709
0.0090040155 0.014847342 -0.0031981259 4278800549
0.01087882 0.014989413 -0.003623323 4278735524
0.012550917 0.015844002 -0.0047361548 4278998429
0.014423121 0.015986092 -0.0051605985 4278736289
0.01629534 0.016128279 -0.005584979 4278736289
0.018167578 0.016270578 -0.0060092709 4278604453
0.020253213 0.015701391 -0.0057481932 4278735268
0.022128118 0.015844084 -0.0061729453 4278932129
0.024221722 0.015275747 -0.0059135607 4278997664
0.026099268 0.015418857 -0.0063387486 4279063198
0.028200824 0.014851324 -0.0060810107 4278932129
0.030080985 0.01499483 -0.0065066325 4279063199
0.031961106 0.015138432 -0.0069321743 4278932384
0.033841193 0.015282139 -0.0073576267 4278866849
0.035721224 0.015425928 -0.007782999 4278867359
0.037838545 0.014860112 -0.007528435 4278932894
0.039721124 0.015004307 -0.0079542194 4278867614
0.041846305 0.014439292 -0.0077012791 4278736544
0.043240726 0.016002081 -0.0094835339 4278801824
0.045368411 0.015437447 -0.0092310179 4279128989
0.047000006 0.016290709 -0.010333243 4279325593
0.049132828 0.015726678 -0.010081726 4279063708
0.051014885 0.015871421 -0.010506941 4278997918
0.053155474 0.015308183 -0.010257032 4278671264
0.055301297 0.014745388 -0.010008195 4279064218
0.057716269 0.01347547 -0.0090866759 4279129243
0.06147493 0.0086690709 -0.0048012864 4279522198
-0.00032614917 0.011885062 -0.001523355 4282402168
0.0015509203 0.012026809 -0.00194945 4279455643
0.0036172643 0.011453107 -0.0016864231 4279194269
0.0056889951 0.010879915 -0.0014245389 4279390619
0.0075715743 0.011022374 -0.0018516574 4279062433
0.0098486133 0.0097350255 -0.00090414472 4279259038
0.011536725 0.010592882 -0.0020190263 4279128478
0.013422091 0.010735866 -0.0024465397 4279521688
0.015307486 0.01087895 -0.0028739776 4279521433
0.017192898 0.011022143 -0.0033013429 4279390364
0.019078327 0.011165429 -0.0037286375 4279455644
0.020750578 0.012022562 -0.0048394799 4279324574
0.022417508 0.012879394 -0.0059490371 4280110484
0.024734616 0.011595946 -0.0050100219 4279849109
0.026841205 0.011026502 -0.0047551133 4279652503
0.028729258 0.01117051 -0.0051826034 4279849363
0.030390777 0.012027379 -0.006290663 4280046223
0.032276105 0.01217138 -0.0067173801 4280242829
0.034393221 0.011603143 -0.0064645447 4279981199
0.036046624 0.012459699 -0.0075705331 4279522708
0.038168963 0.011892069 -0.0073187221 4279719058
0.039816923 0.012748413 -0.0084233172 4280047498
0.041701969 0.012892902 -0.0088495798 4280178314
0.043341815 0.013748791 -0.0099521391 4280374664
0.045471836 0.013182186 -0.0097018052 4280570760
0.047356632 0.013326969 -0.010127768 4280767108
0.049494468 0.012761135 -0.0098789949 4280898944
0.05138173 0.012906298 -0.010305367 4281161084
0.053527329 0.012341291 -0.010058245 4281619829
0.055417031 0.012486856 -0.010485005 4281686129
0.057834137 0.011212789 -0.0095672868 4282013548
0.06186033 0.0056816749 -0.0046222084 4282407014
0.011964511 -0.022284299 -0.010615037 4282471529
0.013882395 -0.022138901 -0.011049957 4280900219
0.016002495 -0.022740468 -0.010823612 4279262354
0.017923083 -0.022594623 -0.011258961 4279196564
0.019843694 -0.022448644 -0.011694216 4279327378
0.021764316 -0.022302575 -0.012129401 4279393423
0.023684938 -0.022156358 -0.012564474 4279196563
0.026682932 -0.025740243 -0.0097087631 4279262608
0.030798193 -0.033051163 -0.0035712849 4279720844
0.035187434 -0.041103557 0.0032111639 4280572799
-0.032536928 -0.025654912 -0.0031076944 4279524748
-0.031179499 -0.022496678 -0.0062390892 4279066003
-0.029420692 -0.021601424 -0.0073452806 4279392914
-0.027523559 -0.021460056 -0.0077773901 4279327378
-0.025480147 -0.022072002 -0.007537243 4279131029
-0.023282472 -0.023436651 -0.0066266349 4279000468
-0.021376919 -0.02329433 -0.0070604114 4279196563
-0.019163016 -0.024657577 -0.0061532846 4279719569
-0.017095115 -0.025267243 -0.0059183552 4279522708
-0.01518121 -0.025123954 -0.0063537648 4280177549
-0.013429262 -0.024228305 -0.0074576968 4279915919
-0.011682518 -0.023332931 -0.0085603604 4280047244
-0.0094387792 -0.024693325 -0.0076596187 4279982219
-0.007524427 -0.024549529 -0.0080947662 4279719824
-0.0052645355 -0.025908515 -0.0071974746 4279719568
-0.0035200603 -0.025012784 -0.0082992921 4279981709
-0.0016027726 -0.024868406 -0.0087348307 4279391638
0.0004952997 -0.025474787 -0.0085059004 4279456663
0.0025987439 -0.026080593 -0.008278151 4279326105
0.0047075786 -0.026685879 -0.0080515239 4279457429
0.0066331215 -0.026540391 -0.0084885638 4279391128
0.0081760474 -0.024894699 -0.010249388 4279129499
0.0099023618 -0.023999512 -0.011346445 4279063708
0.011623416 -0.023104616 -0.01244215 4279326103
0.013937123 -0.024458341 -0.011556149 4278867358
0.016059522 -0.025061846 -0.011332025 4278932894
0.017982626 -0.024915814 -0.011767947 4278670754
0.019698456 -0.024020836 -0.012862102 4278801314
0.021618925 -0.023874752 -0.013297235 4278932384
0.023964621 -0.025225371 -0.012418044 4278997918
0.027182048 -0.029567964 -0.008915076 4278801823
0.031738989 -0.038396157 -0.0014836928 4278670753
0.036800936 -0.048714936 0.0072439695 4279195289
-0.033924114 -0.031144634 -0.00046775304 4281816433
-0.032812927 -0.026463285 -0.0049441881 4278998683
-0.031043593 -0.025565155 -0.0060512493 4278474148
-0.029279415 -0.02466736 -0.0071570193 4278800804
-0.027377103 -0.024525635 -0.0075903283 4278866594
-0.025620583 -0.02362819 -0.008694184 4278998429
-0.023423437 -0.024997205 -0.0077867908 4278801569
-0.021366764 -0.025610164 -0.0075511178 4278866849
-0.019304667 -0.026222542 -0.0073166373 4278801314
-0.017237116 -0.026834413 -0.0070833038 4278801059
-0.015164133 -0.027445748 -0.0068511176 4279062688
-0.013409462 -0.02654776 -0.0079540219 4278865828
-0.01166001 -0.025650024 -0.0090556471 4278801058
-0.0095813535 -0.026260585 -0.0088244742 4278997664
-0.0074972846 -0.026870608 -0.008594444 4278932128
-0.0052352734 -0.028233781 -0.0077009625 4278735779
-0.0031377189 -0.028842561 -0.0074738171 4278735524
-0.0012126081 -0.028697602 -0.0079111401 4278997409
0.0007125847 -0.028552525 -0.0083483886 4278866339
0.0026378483 -0.028407305 -0.0087855551 4278800804
0.0043773614 -0.027509369 -0.009884188 4278931618
0.0061116181 -0.026611701 -0.010981524 4278604198
0.0080317371 -0.026466504 -0.011417245 4278604198
0.0097581036 -0.025569141 -0.012512644 4278735524
0.01187212 -0.026175752 -0.012288438 4278604453
0.014190592 -0.027533367 -0.011406867 4278735524
0.016519725 -0.028890073 -0.010527635 4278866593
0.018450659 -0.028743461 -0.010965334 4278538918
0.020174515 -0.027845696 -0.012059635 4278604708
0.021893065 -0.026948228 -0.013152653 4278408103
0.024455946 -0.02905345 -0.011622326 4278801059
0.027464921 -0.0326581 -0.0087857228 4278801314
0.0320246 -0.041511953 -0.0013749404 4278866848
-0.033800673 -0.034237489 -0.00029512122 4281684344
-0.032683123 -0.029542714 -0.0047630365 4278736033
-0.03090841 -0.028642103 -0.005869647 4278538918
-0.028998431 -0.028499931 -0.0063047986 4278277034
-0.027231384 -0.02759967 -0.0074094883 4278473638
-0.025615249 -0.025941849 -0.0091819288 4278604708
-0.02356438 -0.026557483 -0.0089467429 4278473638
-0.021508042 -0.027172633 -0.0087126624 4278408103
-0.01944628 -0.027787223 -0.0084797777 4278669733
-0.017222691 -0.029158272 -0.0075814873 4278604198
-0.015147369 -0.029771663 -0.0073514599 4278669479
-0.013390008 -0.028871253 -0.0084533598 4278538408
-0.011637848 -0.027971178 -0.0095539559 4278538408
-0.0095568784 -0.028583735 -0.0093249772 4278931618
-0.0074704885 -0.029195808 -0.0090970974 4278800549
-0.0052063726 -0.030563109 -0.0082074832 4278669733
-0.0032814927 -0.030418299 -0.0086448509 4278538663
-0.0010012537 -0.031784132 -0.0077586938 4278669733
0.0009291023 -0.031638682 -0.0081971344 4278538663
0.0028595366 -0.031493083 -0.0086354781 4278604198
0.0044188052 -0.02983778 -0.010393573 4278604198
0.0063440464 -0.029692337 -0.010830561 4278604198
0.0082693323 -0.029546767 -0.011267459 4278538918
0.01019467 -0.029401056 -0.011704268 4278473384
0.012120046 -0.029255219 -0.012140995 4278735523
0.014045462 -0.029109262 -0.012577629 4278538918
0.01637404 -0.030470327 -0.011701601 4278407849
0.018304821 -0.030323714 -0.012139259 4278604198
0.020442519 -0.030930176 -0.011921695 4278669733
0.022375986 -0.030783124 -0.012359789 4278538918
0.024733867 -0.032141455 -0.01149 4278801059
0.027747001 -0.03575661 -0.0086626541 4278670243
0.032091904 -0.043883875 -0.0019250801 4278932129
-0.033942487 -0.035816863 -0.0014695153 4281618808
-0.032688979 -0.031869829 -0.0052579381 4278670243
-0.030773971 -0.031727403 -0.0056943297 4278604963
-0.028999057 -0.030824542 -0.0067992527 4278342568
-0.02737217 -0.029161759 -0.0085708741 4278277034
-0.025464687 -0.029019572 -0.009005297 4278735778
-0.023260634 -0.03039676 -0.0081061553 4278670243
-0.021196689 -0.031013474 -0.0078755356 4278539173
-0.019434322 -0.03011094 -0.0089771487 4278473128
-0.01720861 -0.031486228 -0.0080826413 4278669733
-0.014972154 -0.032860532 -0.0071905162 4278735014
-0.013209421 -0.031957619 -0.008291943 4278407338
-0.011451885 -0.031054974 -0.0093920883 4278407338
-0.0095327497 -0.030910969 -0.009828439 4278669479
-0.0074440576 -0.031525008 -0.0096028093 4278735014
-0.0053499527 -0.032138512 -0.0093783047 4278342059
-0.0034252256 -0.031993732 -0.0098156612 4278473128
-0.0011455342 -0.033363923 -0.0089327041 4278604198
0.00096478313 -0.033975907 -0.0087115746 4278735268
0.002714958 -0.033072904 -0.0098094288 4278538663
0.0046452992 -0.0329272 -0.010247672 4278407594
0.0063876286 -0.032024607 -0.011343518 4278538918
0.0085061565 -0.032635421 -0.011123909 4278604198
0.010243271 -0.031732954 -0.012218369 4278669733
0.012171153 -0.031586923 -0.012655666 4278538663
0.01429778 -0.03219676 -0.012437614 4278604198
0.016429767 -0.032806069 -0.012220612 4278342059
0.018363059 -0.032659262 -0.01265884 4278735268
0.020503048 -0.033267669 -0.012443503 4278801059
0.022648361 -0.03387557 -0.012229292 4278932128
0.024799002 -0.034482911 -0.012016168 4278669988
0.027598966 -0.037353992 -0.0098491255 4278669988
0.0319415 -0.045505226 -0.0031293025 4278931618
-0.033555966 -0.040448479 3.1414442e-05 4281422204
-0.032290999 -0.036489807 -0.003751325 4279784083
-0.030777652 -0.034058467 -0.0061928127 4278866338
-0.028859977 -0.033915751 -0.0066297352 4278866339
-0.027227547 -0.032248229 -0.0083993524 4278604453
-0.025024172 -0.033629961 -0.0075034462 4278604453
-0.022958037 -0.034248807 -0.0072750803 4278604453
-0.020886462 -0.03486713 -0.0070478674 4278735524
-0.01911607 -0.03396187 -0.0081496593 4278735269
-0.017038915 -0.034579515 -0.0079235192 4278800804
-0.014956314 -0.035196662 -0.0076985378 4279062944
-0.013029579 -0.035052352 -0.0081368182 4278800548
-0.011430632 -0.033386417 -0.009898046 4278865828
-0.0093423836 -0.034002759 -0.009674063 4278865574
-0.0074179806 -0.033858262 -0.010111539 4278865574
-0.0053215735 -0.034473762 -0.0098892283 4278472873
-0.0035689138 -0.033568859 -0.010986252 4278538663
-0.0012897737 -0.034943432 -0.010106498 4278801059
0.00082019344 -0.035557583 -0.0098869447 4278735524
0.0027529784 -0.035411827 -0.010325843 4278604453
0.0046858229 -0.035265937 -0.010764653 4278407849
0.0066187344 -0.035119914 -0.01120338 4278735524
0.0087422282 -0.035732515 -0.010986565 4278801314
0.010677896 -0.035586014 -0.011425717 4278801314
0.012417756 -0.034681082 -0.012519056 4278408103
0.014549341 -0.035292685 -0.012303786 4278472873
0.016485114 -0.035145819 -0.012742678 4278735269
0.01862473 -0.035756528 -0.01252901 4278669988
