# .PCD v0.7 - Point Cloud Data file format
VERSION 0.7
FIELDS x y z rgba
SIZE 4 4 4 4
TYPE F F F U
COUNT 1 1 1 1
WIDTH 979
HEIGHT 1
VIEWPOINT 0 0 0 1 0 0 0
POINTS 979
DATA ascii
-0.023913763 -0.0053387731 0.012201738 4281565513
-0.022197671 -0.0037649125 0.010379106 4281631049
-0.020492062 -0.0021917224 0.0085587911 4281565768
-0.018927939 0.00010102987 0.0060378872 4281631558
-0.017246023 0.0016728416 0.0042227339 4282090559
0.020346977 0.009342581 -0.0087926909 4282616369
0.022084389 0.010191396 -0.0098874327 4281700663
0.023431607 0.012471847 -0.012360865 4280395829
0.024567714 0.015467003 -0.015520168 4280980033
0.026077976 0.017029718 -0.017297357 4281436484
0.028780244 0.014299497 -0.014942687 4280979778
0.032722618 0.0072797388 -0.0084662726 4280393534
0.036924239 -0.00045126677 -0.0013138168 4280328764
0.04139309 -0.0088928863 0.0065129213 4281241153
0.053885445 -0.029904805 0.025803868 4281760588
0.057937223 -0.03618703 0.031527665 4282345813
-0.02833914 -0.017484665 0.022131588 4282282574
-0.027274713 -0.011563845 0.016076427 4281762374
-0.025772303 -0.0085379928 0.012844305 4281762374
-0.023922689 -0.007682085 0.011725549 4281564749
-0.022078231 -0.0068264231 0.010607954 4281499468
-0.020495184 -0.004525952 0.0080878846 4281565768
-0.018797189 -0.0029488206 0.0062725078 4281763139
-0.01697623 -0.0020943806 0.005160071 4282025278
0.019467343 0.010630682 -0.012703674 4281765688
0.02138368 0.010762639 -0.013105666 4281308474
0.022531064 0.013767205 -0.016260872 4280526643
0.02365707 0.016770452 -0.019411556 4279612724
0.025354462 0.017619081 -0.020496057 4280263484
0.027847582 0.015597064 -0.018832721 4279937593
0.031168479 0.0107067 -0.014428286 4279807288
0.034526773 0.0058190823 -0.010031634 4280849984
0.037505902 0.0023681819 -0.0070126774 4281372223
0.040511727 -0.0010807365 -0.0039992016 4281567808
0.043116998 -0.0030944198 -0.002358932 4281372223
0.047036055 -0.0094056502 0.0033778269 4281241154
0.057899721 -0.031327032 0.023689691 4280196674
0.062221978 -0.038341381 0.030070886 4281046079
0.06591662 -0.043204717 0.034397811 4281763138
-0.026703551 -0.017549664 0.019102674 4282607444
-0.0256643 -0.011613041 0.013066005 4281696584
-0.023931921 -0.01002951 0.011246365 4281565513
-0.022210009 -0.0084466189 0.0094290413 4281303883
-0.020498611 -0.0068643093 0.0076139793 4281631558
-0.018797718 -0.005282633 0.0058012418 4281697859
-0.016840748 -0.0051502287 0.0053889677 4282352953
-0.015155546 -0.0035693645 0.0035796557 4284313648
0.014959648 0.010953486 -0.015112964 4283140649
0.016499672 0.012526445 -0.016890259 4281831225
0.018402487 0.012657352 -0.017289501 4281568574
0.020305324 0.012788378 -0.017688664 4281307709
0.022016121 0.013639845 -0.018774468 4281176639
0.02333211 0.015931375 -0.021231441 4280589373
0.025224296 0.016061999 -0.021628119 4280523583
0.027716732 0.014033392 -0.019969545 4280523328
0.030833445 0.0098472461 -0.016260795 4280784449
0.033160523 0.0085410401 -0.015294362 4280914753
0.035498254 0.0072357208 -0.014330124 4280980288
0.03721435 0.0080883428 -0.015416449 4281175364
0.038925067 0.0089406967 -0.016501563 4279153213
0.041494858 0.0069181249 -0.014858685 4280066368
0.046268493 -0.0022879839 -0.0064077592 4279870274
0.052440323 -0.015798949 0.0061121956 4279544893
0.058041245 -0.02714844 0.016570982 4279284283
0.062820375 -0.03562016 0.024294164 4278830893
0.067204602 -0.04265181 0.030646205 4281633854
-0.022341721 -0.010066524 0.0082503408 4281040213
-0.020502321 -0.0092067868 0.0071371254 4281369673
-0.018798545 -0.0076205283 0.0053269938 4281501509
-0.016839042 -0.0074879825 0.0049141571 4282221628
-0.015150934 -0.0059026107 0.0031075384 4284379183
0.012742773 0.0099759996 -0.016541995 4283271209
0.014104471 0.012276672 -0.019004064 4281509924
0.015266318 0.01529941 -0.022149514 4281177914
0.017339494 0.014706329 -0.021859108 4279351348
0.019607246 0.013390958 -0.020884037 4280069174
0.021693826 0.012799025 -0.020596281 4280980799
0.023396665 0.01365222 -0.021678708 4280653888
0.025488617 0.013060898 -0.021391897 4280784704
0.027785797 0.011748061 -0.020422693 4280783938
0.030093677 0.010436036 -0.019455599 4280849218
0.032001741 0.010568097 -0.019855354 4281045058
0.033909786 0.010700278 -0.020255011 4281110594
0.035396624 0.012275063 -0.022017043 4280588863
0.036872759 0.013849184 -0.023776684 4281110083
0.039201863 0.01253923 -0.022813668 4281435719
0.042416036 0.0083473846 -0.019134583 4280522564
0.047432404 -0.0016060621 -0.010030336 4279872824
0.052747473 -0.012274474 -0.00026322901 4279742263
0.058369242 -0.023657307 0.010165067 4281437248
0.064535022 -0.036473975 0.021930207 4281568063
0.069405124 -0.044965319 0.029614918 4281566789
-0.020506345 -0.011553317 0.0066572409 4280974424
-0.01879967 -0.0099625215 0.0048497543 4281302608
-0.01697056 -0.0091010928 0.0037404876 4282351934
-0.015417844 -0.0067827702 0.0012417212 4284443954
0.010180637 0.010455407 -0.019342536 4283534879
0.012077704 0.010585569 -0.019740833 4281571123
0.013250791 0.013617717 -0.022882177 4281112889
0.014769901 0.015197929 -0.024648499 4281698114
0.016837414 0.014602251 -0.024358559 4280394553
0.019288331 0.012557268 -0.022701474 4279287344
0.021755312 0.010513447 -0.021047635 4280850494
0.023655234 0.010644495 -0.021446018 4280980799
0.025752205 0.01005131 -0.021161914 4280915264
0.027654804 0.010182776 -0.021560684 4280915009
0.029557403 0.010314345 -0.021959377 4281045314
0.031049877 0.01189363 -0.023719424 4281110849
0.032739371 0.012748674 -0.024796985 4281110849
0.034213077 0.01432693 -0.026552975 4278699569
0.035676084 0.01590452 -0.0283066 4280198714
0.037775584 0.015312299 -0.028022429 4281240898
0.040535636 0.012551919 -0.025705449 4281045314
0.04464354 0.0054569915 -0.019328583 4280849729
0.049028575 -0.0023565963 -0.012285977 4280719934
0.055057351 -0.015222251 -0.00052172691 4280915264
0.062556863 -0.032413915 0.015276771 4281175618
0.068330303 -0.04382088 0.02564735 4281110083
-0.01723478 -0.0099829808 0.0018727444 4281494113
0.0076359808 0.010949545 -0.022136612 4283794213
0.0095248409 0.011079021 -0.022533285 4282288694
0.011057455 0.012664296 -0.024299338 4280460599
0.012217775 0.015704308 -0.027431458 4281046078
0.014090747 0.015833046 -0.027824529 4281697604
0.016149916 0.015234608 -0.027534472 4281176384
0.018592142 0.013182409 -0.025880447 4280785468
0.021050408 0.01113148 -0.024229728 4280850494
0.023330553 0.0098084584 -0.02326362 4280915263
0.025227668 0.0099394247 -0.023661332 4280849984
0.02692526 0.01079689 -0.024739198 4280849728
0.028415293 0.012380309 -0.026495589 4281110593
0.030099506 0.013237059 -0.027570492 4281241153
0.031778358 0.014093548 -0.028644182 4281306433
0.033241615 0.015675459 -0.030394707 4280524093
0.034694158 0.017256692 -0.032142863 4279937593
0.036782648 0.016661543 -0.031858012 4280002874
0.039312907 0.014616691 -0.030221481 4280001853
0.043405458 0.0074988604 -0.023857763 4280654398
0.047774963 -0.00033985078 -0.016829908 4280979780
0.05446564 -0.015419558 -0.0030675679 4280979780
0.061955187 -0.032664306 0.012693696 4280979268
0.067720175 -0.044106863 0.023039926 4281109573
0.07122793 -0.048303694 0.026638471 4281369164
0.073582985 -0.048879296 0.026868291 4282019159
0.00544874 0.0099972188 -0.023554543 4282747694
0.0069894791 0.01158718 -0.025319215 4281829438
0.0085195862 0.013176583 -0.027081599 4281307453
0.010039065 0.014765307 -0.028841639 4280589119
0.011367254 0.017083332 -0.031281959 4279742264
0.0132294 0.017211311 -0.031672765 4279937848
0.015463553 0.015880406 -0.030700546 4279742774
0.018085722 0.013091803 -0.028368738 4278830639
0.020537961 0.011033848 -0.026721636 4281111358
0.022812245 0.0097061023 -0.025757611 4281176639
0.024703881 0.0098367035 -0.02615417 4280980543
0.026196826 0.011424519 -0.027907953 4280980799
0.027477061 0.01374016 -0.030337526 4280329274
0.029355315 0.013870172 -0.030731019 4280133688
0.031440921 0.013272256 -0.030447416 4281176128
0.032901734 0.014858376 -0.032194149 4280980288
0.034351841 0.016443815 -0.03393852 4281045314
0.036437336 0.015846271 -0.033654679 4280783939
0.039400321 0.012340121 -0.030672869 4280783684
0.04371427 0.004473418 -0.023651468 4280522563
0.048310328 -0.0041160285 -0.015968606 4280718404
0.055231035 -0.019968025 -0.0015683826 4281240134
0.062269203 -0.035811737 0.012807358 4281109573
0.067110777 -0.044383645 0.020439107 4281499469
0.070377856 -0.047867894 0.023357838 4282281809
0.0077236667 0.0063774809 -0.023030706 4281436993
0.0087420046 0.010169402 -0.026838973 4281110340
0.0099114664 0.013227396 -0.029960016 4281175619
0.010879152 0.017016061 -0.033757489 4281110339
0.01273581 0.017143689 -0.034147132 4280914753
0.014964111 0.015808046 -0.033177007 4281045569
0.01758007 0.013010219 -0.03085041 4280915008
0.020026281 0.010945313 -0.029206939 4281046079
0.022294708 0.0096127838 -0.028244969 4281046334
0.023984369 0.010473944 -0.029317982 4280980799
0.025270361 0.012796402 -0.031743959 4280067898
0.02654033 0.015117846 -0.034166418 4280458813
0.028612262 0.014516734 -0.033881709 4279026224
0.033401635 0.011125833 -0.031290896 4281045569
0.035285018 0.011256568 -0.0316852 4281045314
0.037598729 0.0099281073 -0.030732008 4281110339
0.040576678 0.0064120814 -0.027761513 4280979524
0.044683959 -0.00074846298 -0.021433547 4280783428
0.049290992 -0.0093632638 -0.013772629 4280913989
0.056220822 -0.025262691 0.00058970042 4280913989
0.062353928 -0.038238876 0.012243915 4281565259
0.06673336 -0.045379892 0.018515304 4282020943
0.069762796 -0.048146963 0.020756874 4282086479
0.0081115291 0.0026157275 -0.022120129 4281372224
0.0093135834 0.005684562 -0.025241563 4281175619
0.010316715 0.009486489 -0.02903837 4281110593
0.011473469 0.012552403 -0.032150082 4281110084
0.012974769 0.014148884 -0.033899635 4281240644
0.015207909 0.012809172 -0.032933749 4281045058
0.017263465 0.012204051 -0.032647762 4280915009
0.019515343 0.010865889 -0.03168568 4281045824
0.021390658 0.010995254 -0.032078899 4281176639
0.023069672 0.01185786 -0.03314805 4280654908
0.024544375 0.013453178 -0.034891449 4281110848
0.025806727 0.015780676 -0.037307467 4281501254
0.028074637 0.01444421 -0.036348306 4280980543
0.030974191 0.01091136 -0.033369914 4280589374
0.033900432 0.0073804855 -0.030397024 4280980033
0.036216356 0.0060476586 -0.029447619 4281175873
0.038757935 0.0039838403 -0.02782825 4281044293
0.042186189 -0.0010053739 -0.023525972 4280979780
0.046092484 -0.0074548721 -0.017889418 4281436994
0.050269816 -0.01463218 -0.011592393 4281435208
0.056306012 -0.027654529 5.2569434e-05 4281435208
0.062209927 -0.039939165 0.011008214 4282152268
0.066356324 -0.046371423 0.016594939 4282543439
0.069382191 -0.049147472 0.018830709 4282215508
0.0067581534 -0.0020268634 -0.020137712 4284513569
0.0084983483 -0.0011589304 -0.021218866 4281697348
0.0098837502 0.001182422 -0.023656666 4281697603
0.011430606 0.0027861223 -0.025412641 4280979269
0.012426537 0.006598562 -0.029199697 4281175109
0.013944089 0.0082005262 -0.030949386 4281174854
0.015451007 0.0098018646 -0.032696702 4281307199
0.017323468 0.0099307746 -0.033089511 4280850749
0.0188144 0.011531234 -0.034833305 4281177658
0.020681553 0.011660002 -0.035224825 4281308729
0.022156471 0.013259634 -0.036965132 4279353133
0.023620714 0.014858589 -0.038703069 4280785214
0.025074251 0.016456969 -0.040438727 4281435718
0.02753778 0.014380738 -0.038808256 4281110338
0.03063773 0.010101937 -0.035164524 4280589374
0.033769708 0.0058254674 -0.031527404 4280458813
0.03672158 0.0022855252 -0.028567918 4281241153
0.040129736 -0.0027204901 -0.024272975 4281305923
0.043792747 -0.008457683 -0.019315764 4281109573
0.047278266 -0.013458066 -0.015036806 4280783173
0.051023964 -0.019189276 -0.01009673 4281043784
0.056616351 -0.030783825 0.00018076785 4281108808
0.062294118 -0.042372242 0.010440469 4281499978
0.066210508 -0.048091188 0.01534513 4282347854
0.068768442 -0.049410477 0.016241353 4282345558
0.0067974031 -0.004338339 -0.020602651 4284118063
0.0083684027 -0.002728872 -0.022360619 4281500744
0.0099287815 -0.0011200011 -0.024116261 4281631559
0.011655759 -0.00025051087 -0.025192872 4281305159
0.013377454 0.00061869621 -0.02626824 4281109318
0.014728673 0.0029645935 -0.028693695 4281370184
0.015878655 0.006047748 -0.031790726 4281175618
0.017195206 0.0083914995 -0.034208737 4280979778
0.018495757 0.010734268 -0.036623299 4281307453
0.020166837 0.011600591 -0.037687603 4281308728
0.021440696 0.01394175 -0.040096387 4280981564
0.022897147 0.015544545 -0.04182943 4279221553
0.024342909 0.017146714 -0.043560132 4280067898
0.026797723 0.015063364 -0.041932795 4280198203
0.030095043 0.01003398 -0.037626296 4279872569
0.033848308 0.0035341084 -0.031987481 4280719678
0.037437651 -0.002225861 -0.027028155 4281306433
0.041284334 -0.0087190121 -0.021408718 4281567298
0.045179039 -0.015208729 -0.015799247 4281371714
0.048681825 -0.020223215 -0.011535299 4281433169
0.052667227 -0.026706353 -0.005944619 4281171793
0.057376575 -0.0353925 0.0016361419 4281564239
0.062377937 -0.044809401 0.0098697655 4281825103
0.065834053 -0.049075454 0.01343004 4282215763
0.0071744286 -0.0081370696 -0.019716859 4283464244
0.0084102079 -0.0050398707 -0.022825867 4281697348
0.0099734738 -0.0034264401 -0.024578847 4281108554
0.011880226 -0.0032956675 -0.024979223 4281239114
0.013787027 -0.0031647384 -0.025379494 4281370438
0.01514665 -0.0008117184 -0.027801819 4281501509
0.016305227 0.0022807941 -0.030894164 4281436484
0.018005684 0.003151089 -0.031963166 4281174599
0.019129582 0.0062414408 -0.03504806 4281044548
0.020618301 0.0078505874 -0.036784768 4281372478
0.021117561 0.013157837 -0.04187537 4281371713
0.022571564 0.014764819 -0.043604627 4281306688
0.024014872 0.016371246 -0.045331579 4281241664
0.026670093 0.013541892 -0.043038849 4280849729
0.030172415 0.0077581555 -0.038074501 4280653888
0.034344763 -0.00023890287 -0.031113718 4280980798
0.038575843 -0.0082318187 -0.024165105 4281306433
0.042436734 -0.014743634 -0.018563349 4281827144
0.046128526 -0.020513684 -0.013638337 4282085714
0.049863003 -0.026280686 -0.0087221321 4282019159
0.054085065 -0.033520348 -0.002483489 4282149974
0.058585614 -0.041493893 0.0044092052 4282150739
0.062461406 -0.047250636 0.0092960969 4282281553
0.0068749227 -0.0089736059 -0.021541413 4282742338
0.0084516928 -0.0073549747 -0.023294106 4281435209
0.010017842 -0.0057369918 -0.02504443 4280977738
0.011927117 -0.005606018 -0.025445312 4281043783
0.014015973 -0.0062179714 -0.025173143 4281370438
0.015563574 -0.0046008974 -0.026919298 4281435973
0.016915623 -0.0022417232 -0.029335041 4281501509
0.018439244 -0.00062604249 -0.031075969 4281371714
0.019761965 0.0017313585 -0.033485368 4281437248
0.021068677 0.004087761 -0.035891332 4281111104
0.021968234 0.0079270452 -0.039633095 4280917049
0.023237579 0.010281071 -0.042030998 4281308218
0.024490882 0.012634151 -0.044425491 4281371458
0.026949655 0.010537922 -0.042808756 4281111359
0.030661952 0.0039958209 -0.037190858 4280850749
0.035466909 -0.0062478706 -0.02824872 4281111360
0.039711826 -0.014263794 -0.021321025 4281111360
0.043372661 -0.020053625 -0.016402662 4282085713
0.047076184 -0.025840342 -0.011493137 4282280533
0.051261581 -0.033104494 -0.0052632522 4282345558
0.055500329 -0.040364794 0.00095558167 4282345558
0.059342526 -0.046141498 0.0058363676 4282345049
0.010061875 -0.008051604 -0.025512971 4280909908
0.011973664 -0.0079204813 -0.025914401 4280912203
0.013885502 -0.0077892318 -0.026315749 4281304648
0.015615351 -0.0069128126 -0.027387839 4281565768
0.017155182 -0.0052917823 -0.029129004 4281501508
0.018871725 -0.0044159889 -0.030198168 4281371713
0.02039291 -0.0027960017 -0.031935241 4281501763
0.021710709 -0.00043226779 -0.034338616 4281436739
0.022817101 0.0026745647 -0.03740659 4281306433
0.024100201 0.0050361007 -0.039802462 4281109574
0.025567988 0.0066529438 -0.041528016 4280979013
0.028042089 0.0045512542 -0.039919373 4281633598
0.031768598 -0.002009511 -0.034319166 4281893188
0.036586851 -0.012282826 -0.025402695 4281827908
0.04042279 -0.018835753 -0.019825209 4281955663
0.044306759 -0.025385231 -0.014257694 4282280533
0.048238747 -0.031931214 -0.0087001156 4282476374
0.052438159 -0.03921622 -0.0024895128 4282476118
0.056246743 -0.045012817 0.0023851618 4282607189
0.011843368 -0.0094914287 -0.02705681 4280581724
0.013755061 -0.0093601868 -0.027458124 4280977484
0.016030498 -0.010723323 -0.026520833 4281239114
0.017578546 -0.0090973228 -0.028260499 4281239878
0.019115951 -0.0074719936 -0.029997803 4281175108
0.020642687 -0.0058472008 -0.031732805 4281435974
0.022158762 -0.0042230636 -0.033465445 4281436484
0.023664156 -0.0025995374 -0.035195809 4281370694
0.02496101 -0.00023050606 -0.037589662 4281174088
0.026642919 0.00064565241 -0.038649432 4280978504
0.029132329 -0.0014614686 -0.037048936 4281044548
0.032667175 -0.0072953105 -0.032130603 4281305923
0.037078939 -0.016107649 -0.024566513 4281892168
0.041132301 -0.023424983 -0.018341945 4282020178
0.045239024 -0.030738473 -0.012128448 4282345813
0.049615659 -0.038792953 -0.0052640541 4282476374
0.053612523 -0.045353934 0.00026533753 4282541654
0.017447829 -0.01066801 -0.029402606 4280975954
0.019359462 -0.010536395 -0.029803626 4281041998
0.020891763 -0.0089069158 -0.031536493 4281239369
0.022221038 -0.0065293089 -0.033932477 4281239369
0.023534296 -0.0041526929 -0.036325015 4281043273
0.025029238 -0.002525419 -0.038049772 4281108299
0.027114572 -0.0031431466 -0.037781008 4281304394
0.029814329 -0.0060043186 -0.035523746 4281238349
0.033152536 -0.011107199 -0.031282984 4281498959
0.037569933 -0.019945279 -0.02373971 4281824593
0.041840352 -0.028031439 -0.016871205 4282281809
0.046383165 -0.036860555 -0.0093539944 4282411603
0.050557248 -0.044191025 -0.0031708255 4282410584
0.019602284 -0.013609335 -0.029615585 4280844118
0.021329619 -0.012726121 -0.030682005 4281173324
0.022282965 -0.0088396445 -0.034402486 4281108554
0.023599306 -0.0064563155 -0.036790721 4281043783
0.024899621 -0.0040739179 -0.039175548 4281043018
0.027184794 -0.0054441914 -0.038246226 4281173324
0.030292034 -0.0098142698 -0.03467267 4281238094
0.034047835 -0.016431883 -0.029122692 4281434954
0.038476214 -0.025295362 -0.021601303 4281889873
0.042968653 -0.034154311 -0.014093192 4282215509
0.047098055 -0.041509829 -0.0079171015 4282215509
0.022145048 -0.018064812 -0.028511256 4281037409
0.023496471 -0.015672602 -0.030902088 4281369164
0.024247931 -0.01102268 -0.035274431 4281304394
0.025361998 -0.0078802854 -0.038317785 4281108554
0.027254676 -0.0077493638 -0.038714372 4280715598
0.030768644 -0.013637051 -0.033830989 4280846669
0.035146639 -0.022530332 -0.026318686 4281303118
0.040004682 -0.032923006 -0.017501993 4281694799
0.043884084 -0.039551407 -0.01199239 4282150228
0.047598161 -0.045424744 -0.0071504861 4282345559
0.027203273 -0.016983822 -0.03285278 4281826379
0.028722871 -0.015341587 -0.034572855 4281696584
0.032256573 -0.02124539 -0.029706627 4281500744
0.037063852 -0.031672224 -0.020902252 4281173834
0.041530222 -0.040585421 -0.013427957 4281499724
0.044797689 -0.044970118 -0.0099072931 4282150483
0.034550764 -0.031915471 -0.022980364 4281695818
0.038362522 -0.038588032 -0.017486149 4281435208
0.042014655 -0.044500768 -0.012657639 4281432913
-0.025796473 -0.013241649 0.011880901 4279917193
-0.025689423 -0.016329229 0.012093391 4279392149
-0.024073504 -0.014007181 0.0095808841 4279589264
-0.022348464 -0.012415394 0.0077694152 4279788419
-0.025702424 -0.018693469 0.011602584 4279064219
-0.024205498 -0.015633039 0.0083977934 4278932893
-0.022230767 -0.015499845 0.007981468 4279129499
-0.020638086 -0.013172671 0.0054789539 4278998938
-0.01906126 -0.010846406 0.0029798299 4279393423
-0.025715716 -0.021061853 0.011108842 4279194523
-0.024093635 -0.018726319 0.0086048283 4279063198
-0.022238277 -0.017859153 0.0074930005 4279063198
-0.020642526 -0.015525177 0.0049947072 4278801824
-0.01893273 -0.013925515 0.0031931195 4278998683
-0.017100863 -0.013059556 0.0020864625 4279851403
-0.025848359 -0.022698052 0.0099181719 4278931618
-0.024225898 -0.020355985 0.0074189566 4279062433
-0.022246093 -0.0202225 0.0070015192 4278931619
-0.02064728 -0.017881796 0.0045074597 4279063198
-0.018675141 -0.017748609 0.0040918123 4278932384
-0.01696761 -0.016144648 0.0022940282 4278932128
-0.0150005 -0.016011581 0.0018796027 4279652759
-0.01344642 -0.013673455 -0.00060469285 4280504968
-0.011627428 -0.012805909 -0.0017067343 4282537574
-0.025743209 -0.025810778 0.010112328 4279652759
-0.024236545 -0.022723556 0.0069250483 4278669224
-0.022254214 -0.022589922 0.0065070651 4279062689
-0.020525448 -0.020980418 0.0047078934 4278800803
-0.018677659 -0.020109162 0.0036010314 4279063198
-0.016967244 -0.018500656 0.0018059108 4279063198
-0.015132487 -0.0176301 0.00070200302 4279128734
-0.013578013 -0.015285417 -0.0017774887 4279390363
-0.011758968 -0.014415696 -0.0028779097 4279849364
-0.0099451244 -0.013546206 -0.0039771535 4282472038
-0.025401309 -0.030413263 0.011681736 4281028993
-0.02376204 -0.028057009 0.0091887508 4279521434
-0.022138588 -0.025701746 0.0066992305 4279062689
-0.020530976 -0.023347408 0.0042130873 4278866594
-0.018680483 -0.022473842 0.0031073187 4279259804
-0.016967192 -0.020860776 0.0013147891 4279194268
-0.015264414 -0.019248322 -0.00047538802 4279063198
-0.013709553 -0.016897082 -0.002950076 4278931873
-0.011890471 -0.016025193 -0.0040488802 4278866338
-0.010076597 -0.015153542 -0.00514651 4279194524
-0.0081225373 -0.015020922 -0.0055578658 4279653269
-0.006464459 -0.013410889 -0.0073382417 4281685108
-0.023289271 -0.033412114 0.011436682 4281554549
-0.021775946 -0.030306898 0.0082611423 4279456409
-0.020410299 -0.02646073 0.0044027288 4279325594
-0.018812798 -0.024100475 0.0019237269 4278867359
-0.017099299 -0.022483036 0.00013441779 4279129499
-0.015261777 -0.021607973 -0.00096683204 4278932383
-0.013566643 -0.019991577 -0.0027520563 4279128734
-0.011742197 -0.019117117 -0.0038504172 4278997664
-0.010065466 -0.017501742 -0.0056315968 4279128479
-0.0081088878 -0.017368987 -0.0060435077 4279456154
-0.0065958127 -0.01501359 -0.008504157 4279457684
-0.0049480721 -0.013399817 -0.01027896 4279916684
-0.019911252 -0.031815976 0.0066436939 4279456918
-0.018429026 -0.028703973 0.0034814328 4280373643
-0.016967982 -0.025593258 0.00032367744 4280045968
-0.015125103 -0.024715617 -0.00077711046 4279391129
-0.013424419 -0.023094498 -0.0025602486 4279194524
-0.011594594 -0.022217557 -0.0036580805 4279194268
-0.01005467 -0.019854024 -0.0061196582 4278407593
-0.0080955699 -0.019721106 -0.0065321112 4279128734
-0.006579414 -0.017358959 -0.0089885006 4278932384
-0.0049288049 -0.015740663 -0.010760668 4279063198
-0.0035948195 -0.012637593 -0.013890952 4279718293
-0.0018149838 -0.011763319 -0.014977712 4280308365
0.00027633086 -0.012373887 -0.014705144 4282471274
-0.016574353 -0.030204535 0.001872981 4281617788
-0.015123256 -0.027085662 -0.0012760628 4280438669
-0.013419695 -0.025459945 -0.0030565914 4279718038
-0.01172667 -0.023834914 -0.004834787 4279259804
-0.010044187 -0.022210404 -0.0066107074 4278735014
-0.0082274005 -0.021331936 -0.007703987 4279456154
-0.0067108497 -0.018963218 -0.010155563 4279390364
-0.0050600395 -0.017340571 -0.011924523 4279259294
-0.0034197718 -0.01571849 -0.01369115 4279849109
-0.0017900951 -0.01409696 -0.015455497 4279652503
0.00030357018 -0.014709547 -0.015185058 4279915153
0.0019200966 -0.013088726 -0.01694642 4279981709
-0.015121728 -0.02945973 -0.0017780177 4282466683
-0.013551936 -0.027081355 -0.0042362791 4281682049
-0.011719376 -0.0261999 -0.0053314511 4279652503
-0.010034002 -0.024570897 -0.0071046818 4278931363
-0.0083591864 -0.022942439 -0.0088756392 4279128734
-0.0066949092 -0.021314628 -0.010644247 4279127968
-0.0050412193 -0.019687362 -0.012410571 4279324829
-0.0032454059 -0.018807799 -0.013497551 4279193503
-0.0016101748 -0.017181598 -0.015259773 4279324829
0.00033049285 -0.01704935 -0.015667912 4278866338
0.0017892197 -0.014677428 -0.018101979 4278669733
0.0035587028 -0.013799161 -0.019183047 4279128989
0.0051569045 -0.012174949 -0.02093716 4279456663
0.0069131926 -0.011297338 -0.02201527 4279654543
-0.0098823383 -0.027685404 -0.006924009 4282467449
-0.0083464533 -0.02530244 -0.009369975 4279914643
-0.0068264492 -0.022920467 -0.011812457 4279651993
-0.0048728995 -0.022787735 -0.012223602 4279324319
-0.0029192306 -0.022654861 -0.012634666 4279390108
-0.0012757853 -0.021023691 -0.014395391 4279062433
0.00035708398 -0.019393198 -0.016153779 4278997408
0.00165838 -0.016265832 -0.019257322 4278603944
0.0034279004 -0.015385374 -0.020336762 4278866848
0.0050263032 -0.013756797 -0.022087663 4278801824
0.0066141225 -0.01212886 -0.023836192 4278998428
0.0083624944 -0.011249498 -0.024910923 4279130263
-0.0081897229 -0.028418511 -0.0091917422 4282074749
-0.0065170452 -0.026781395 -0.010955652 4281092998
-0.0047052726 -0.025896505 -0.012042822 4279455899
-0.0028987192 -0.02501186 -0.013128793 4279259038
-0.0012523979 -0.023376167 -0.01488688 4278931619
0.00022571534 -0.020990014 -0.017315289 4278473128
0.0016878843 -0.0186048 -0.019740298 4278866338
0.0034601018 -0.017721996 -0.020818688 4278932384
0.0050614066 -0.016088918 -0.022566892 4278801314
0.0068204105 -0.015206695 -0.02364235 4278801314
0.0084031597 -0.013574645 -0.025386464 4279195034
0.0099752769 -0.011943132 -0.027128298 4279392149
0.011889439 -0.01181186 -0.027530231 4279128989
0.013803646 -0.011680439 -0.027932078 4279786633
-0.003030654 -0.02661933 -0.014298132 4281682560
-0.0015389174 -0.024225809 -0.016724652 4279259549
-6.3098967e-05 -0.021833301 -0.019147696 4278866338
0.0017170683 -0.020947859 -0.020226264 4278735779
0.0034919791 -0.020062692 -0.021303581 4279063198
0.0052616373 -0.019177765 -0.022379711 4278604709
0.0068578757 -0.017540552 -0.024123497 4279063198
0.0084434934 -0.015903883 -0.025864992 4278932384
0.0098450184 -0.013515651 -0.028271899 4278801058
0.011582877 -0.0126324 -0.029340968 4278604454
0.013673075 -0.013252988 -0.029075615 4279194524
0.015768666 -0.013873123 -0.028811257 4279392659
0.017869618 -0.014492728 -0.028547976 4280115328
-0.001361195 -0.02733773 -0.016548792 4281289604
0.00043491274 -0.026449144 -0.017629163 4279979669
0.0020658374 -0.024805591 -0.019377274 4279194013
0.0035235323 -0.022407487 -0.021791464 4279259294
0.0052958764 -0.021520205 -0.02286653 4278801058
0.0070629641 -0.020633146 -0.023940386 4278866338
0.0084834993 -0.018237203 -0.026346494 4278800803
0.010061387 -0.016596623 -0.028082956 4278800803
0.011628635 -0.014956623 -0.029817156 4278800803
0.013721187 -0.015579276 -0.029553883 4279128733
0.015819095 -0.016201399 -0.029291693 4278801568
0.017922379 -0.016823016 -0.029030532 4279391129
0.0022537746 -0.027918659 -0.019205006 4282794868
0.0038796477 -0.026270956 -0.02094868 4281355393
0.0056600273 -0.025380939 -0.022023803 4279390108
0.0072673522 -0.023734212 -0.023763435 4279062433
0.0085231848 -0.020574644 -0.026830908 4278276524
0.0097577088 -0.017416365 -0.029893849 4278669733
0.01149828 -0.016528539 -0.030960284 4278866338
0.013590489 -0.017153397 -0.030698571 4279062943
0.015869197 -0.018533722 -0.029775079 4278931618
0.018158611 -0.019913234 -0.028853703 4279455388
0.021018106 -0.023558773 -0.025949242 4279980178
0.023715183 -0.026446864 -0.023711519 4280898689
0.025474634 -0.025557019 -0.024781296 4280899963
0.0058581829 -0.028495193 -0.021855107 4280699534
0.0073034614 -0.026084661 -0.024256667 4279717274
0.0087327883 -0.023675062 -0.026654834 4278931873
0.0099732243 -0.020507663 -0.029712487 4278931873
0.011894774 -0.020375893 -0.030115988 4279062943
0.013459831 -0.018727221 -0.031843048 4278997408
0.015918948 -0.020870149 -0.03026145 4279194014
0.01839412 -0.023011886 -0.028683081 4279717528
0.022003017 -0.029699393 -0.023147048 4280045969
0.025282059 -0.034868121 -0.01894022 4280242829
0.028215278 -0.038519263 -0.016059145 4280702084
0.030009445 -0.037624665 -0.017134501 4281489524
0.0094519556 -0.029067323 -0.02449912 4281421694
0.010706302 -0.025890253 -0.027553173 4280308363
0.012114778 -0.023475349 -0.029941842 4279325084
0.013685372 -0.021821901 -0.031666841 4278736289
0.015787609 -0.022450268 -0.031410456 4278867613
0.018812373 -0.026879236 -0.027859448 4279326104
0.022427468 -0.033585921 -0.022339409 4279719313
0.026279394 -0.041049011 -0.016171355 4280373898
0.029227525 -0.044709988 -0.013301611 4280898178
0.031814147 -0.046850011 -0.01175116 4282208878
0.012127884 -0.034347042 -0.022770504 4282663033
0.013210285 -0.030397996 -0.026477842 4280176783
0.014266036 -0.026450597 -0.030179465 4279456154
0.016198032 -0.02631785 -0.030584959 4278801824
0.019229542 -0.030759387 -0.027045203 4278932638
0.023036752 -0.038247481 -0.020884188 4279784594
0.026708778 -0.04496973 -0.015390672 4280439433
0.029472597 -0.047879279 -0.013186388 4282143343
0.016968183 -0.031727836 -0.028455837 4281552508
0.019828714 -0.035417005 -0.025584323 4280045459
0.023273159 -0.041397482 -0.020752173 4281422204
0.026760316 -0.047374889 -0.015928909 4282798438
0.020060703 -0.038558334 -0.02544466 4281290624
0.023323301 -0.04378932 -0.021280147 4280633999
0.028105849 -0.048985243 -0.02003932 4282602343
0.00033085793 -0.043182038 -0.033962123 4282863209
4.2185187e-05 -0.043990731 -0.035768662 4282731884
-0.028255202 0.024262417 0.058479089 4285754399
-0.031634204 0.029792368 0.049463306 4285624093
-0.029760882 0.030593701 0.048297483 4285820189
-0.027192004 0.027396902 0.051613953 4285819933
-0.023998946 0.020871371 0.058656316 4285885979
-0.035954252 0.029219452 0.04761054 4285230118
-0.034189902 0.030691843 0.04569931 4285886489
-0.032324739 0.031494699 0.044536758 4285689373
-0.030578583 0.032965947 0.042629499 4285557794
-0.028259926 0.031094015 0.044450756 4285558049
-0.02544792 0.026549883 0.04924747 4285754909
-0.022354409 0.020672072 0.055524569 4285755163
-0.019586407 0.016801551 0.059560817 4285558559
-0.038378261 0.029462945 0.044597227 4285295654
-0.036510833 0.03026795 0.043435689 4285624094
-0.034756884 0.031743933 0.041529946 4285820953
-0.032902308 0.03254823 0.040371172 4285952279
-0.030939072 0.03268132 0.039957769 4285886488
-0.028626375 0.03080231 0.04177535 4285886999
-0.026059248 0.02758339 0.045075711 4285886998
-0.023465171 0.024366379 0.048370462 4285558813
-0.021217428 0.023161788 0.049433727 4285493278
-0.01946722 0.024638023 0.047529068 4285427744
-0.017338149 0.024104163 0.047849212 4285427234
-0.014408834 0.01955292 0.052609954 4285492004
-0.040884867 0.030395199 0.040844947 4285819679
-0.038922727 0.030527893 0.040431537 4285885723
-0.036960319 0.030660667 0.040018111 4285689628
-0.035105892 0.031466987 0.038860962 4285623839
-0.033256568 0.032273028 0.037704937 4285624094
-0.031185195 0.031732593 0.038035236 4285624093
-0.028992012 0.030519638 0.039106496 4285624094
-0.026550137 0.027962051 0.041658424 4285558558
-0.024329796 0.026751079 0.042724069 4285558558
-0.022222802 0.026213333 0.043047067 4285690139
-0.020744853 0.029037051 0.039669968 4285755673
-0.018769704 0.029171303 0.039254323 4285886743
-0.016397566 0.027290106 0.041054733 4285951258
-0.013064593 0.020708505 0.048018541 4285885978
-0.0089899041 0.010773249 0.058658879 4285951513
-0.043270782 0.030670557 0.037845619 4285623839
-0.041517064 0.032155011 0.035946198 4285885724
-0.039362952 0.030934632 0.037022106 4285951513
-0.037197895 0.029715106 0.03809572 4285886743
-0.035238005 0.029847711 0.037682831 4285624093
-0.03338857 0.030655894 0.036528386 4285624093
-0.031204097 0.029437874 0.037598051 4285624349
-0.029124752 0.028895762 0.037925079 4285624349
-0.026921123 0.027679179 0.038990825 4285624349
-0.025070764 0.028487708 0.037836388 4285624349
-0.023101479 0.028621372 0.03742183 4285690139
-0.021765687 0.032127168 0.033316318 4285821209
-0.019809343 0.032260101 0.032904599 4285558048
-0.017588615 0.031045046 0.033967011 4285557793
-0.014683224 0.026461434 0.038709767 4285623583
-0.011602797 0.021206826 0.044180553 4285689628
-0.0081991851 0.014608152 0.051113192 4285624093
-0.04721687 0.028113615 0.038238376 4285426978
-0.045544557 0.030281939 0.035596021 4285690139
-0.043693639 0.031092018 0.034442604 4285623584
-0.041947648 0.032580242 0.032548103 4285426468
-0.039801992 0.031354878 0.033622414 4285623583
-0.037645407 0.030130323 0.034694474 4285755164
-0.035370022 0.028228659 0.036504842 4285689629
-0.033409975 0.028361298 0.036091931 4285624349
-0.031223275 0.027138945 0.037157848 4285624349
-0.02948916 0.028626818 0.035266113 4285624348
-0.027528413 0.028759707 0.034853209 4285624349
-0.025688656 0.029569652 0.033702612 4285624094
-0.023977928 0.031056158 0.031815965 4285689629
-0.022404216 0.033218592 0.02919504 4286018579
-0.020458654 0.033350743 0.028785553 4285886744
-0.018117182 0.031454246 0.030582447 4285821208
-0.015490316 0.028206732 0.033845853 4285821718
-0.012836553 0.024961147 0.037103612 4285690393
-0.0097361058 0.019690383 0.042557064 4285427998
-0.0050241016 0.0069918111 0.056066934 4285427999
-0.049481571 0.027728338 0.035988916 4284966959
-0.04771477 0.02922209 0.034093115 4285427233
-0.046052687 0.031396233 0.031457786 4285821209
-0.044115342 0.031526931 0.031049363 4285952279
-0.042377092 0.033018954 0.029159725 4285821208
-0.040239878 0.03178858 0.030232497 4285886999
-0.03798674 0.029878702 0.032042526 4285886998
-0.035609648 0.027289916 0.034588087 4285624349
-0.033652335 0.027422305 0.034175716 4285624349
-0.03180784 0.0282345 0.033025555 4285624349
-0.030199833 0.030405533 0.030402035 4285689883
-0.028252527 0.03053746 0.029991925 4285755419
-0.026062928 0.029311132 0.031054031 4285755164
-0.024233565 0.030122589 0.029907271 4285624094
-0.022535712 0.031612594 0.028026693 4285624094
-0.02071929 0.032423321 0.026882775 4285689629
-0.018381126 0.030519981 0.028675403 4285624348
-0.015757956 0.027261239 0.031931296 4285558814
-0.013107873 0.024004389 0.035181575 4285493278
-0.0097321346 0.017359864 0.042087156 4285427489
-0.0048785806 0.0039417893 0.056297567 4285493279
-0.049345799 0.024066158 0.037040014 4285295654
-0.047753684 0.026931562 0.033664294 4285493024
-0.046276808 0.030478787 0.029552937 4285558558
-0.044535875 0.031975247 0.027665928 4285755928
-0.042606369 0.032105424 0.027259156 4285689883
-0.040574431 0.031553037 0.027590815 4285690139
-0.038327254 0.029636126 0.029397134 4285558814
-0.036063813 0.027720429 0.031200036 4285558814
-0.034004457 0.027170103 0.031526074 4285624348
-0.032278039 0.028666001 0.029642433 4285690138
-0.030677587 0.03084306 0.027025398 4285886999
-0.028738387 0.030974384 0.026616953 4285886744
-0.026557267 0.029742997 0.027677566 4285952789
-0.024488784 0.029193666 0.028001953 4285689883
-0.022540934 0.029325809 0.027591866 4285558814
-0.020721756 0.030138876 0.02644898 4285559068
-0.018250026 0.027548339 0.028968506 4285559324
-0.015488267 0.023598414 0.032946922 4285493533
-0.012420498 0.018290121 0.038380891 4285493789
-0.009030655 0.011624604 0.045266997 4285493788
-0.049033716 0.019019477 0.039560925 4285425959
-0.047518954 0.022580098 0.035449695 4285557794
-0.046218544 0.027509786 0.029867049 4285427233
-0.04456865 0.029696193 0.027244091 4285558814
-0.042636558 0.029826481 0.026836731 4285558814
-0.040602222 0.029272012 0.027166203 4285559068
-0.038562313 0.028717976 0.027494539 4285558813
-0.036516815 0.028164361 0.027821805 4285493023
-0.034685723 0.028979894 0.026677579 4285690139
-0.032972395 0.030479237 0.024799943 4285689629
-0.031269521 0.031977955 0.022924569 4285557793
-0.029223107 0.031424735 0.023251817 4285557794
-0.026929766 0.029504791 0.02504373 4285689883
-0.024620205 0.027585987 0.026832327 4285755674
-0.022546448 0.027034853 0.027153991 4285558813
-0.020595826 0.027167212 0.026743338 4285559323
-0.018119566 0.024568178 0.029255316 4285493788
-0.014951549 0.018557239 0.035413243 4285494043
-0.011735238 0.012549661 0.041561071 4285888529
-0.008331269 0.0058631375 0.048427749 4285624348
-0.047012158 0.016147863 0.039434884 4285492003
-0.045598119 0.020406619 0.034596372 4285623838
-0.044119366 0.023975845 0.030500997 4285690393
-0.042369619 0.025481615 0.028618656 4285559068
-0.040630296 0.026986796 0.026738524 4285559324
-0.038692459 0.027117554 0.026330013 4285559324
-0.036968656 0.028621804 0.024453312 4285558814
-0.035145484 0.029438894 0.023312401 4285755929
-0.033327423 0.03025572 0.022172619 4285821209
-0.031514481 0.031072315 0.021033928 4285492258
-0.029353179 0.029830638 0.022092011 4285558049
-0.027180985 0.028589819 0.02314781 4285755928
-0.02499789 0.027349774 0.024201423 4285690138
-0.023055591 0.027481452 0.023792431 4285493278
-0.02072756 0.02555747 0.025572248 4285493534
-0.017858565 0.020894323 0.030264948 4285427488
-0.014684275 0.014864028 0.036406741 4285624349
-0.011734746 0.010206558 0.041082572 4285426978
-0.0084692016 0.0041826442 0.047205288 4285295143
-0.046689659 0.011065021 0.041925985 4285425704
-0.044980451 0.013268389 0.039300229 4285425959
-0.043383256 0.016160388 0.035943095 4285557794
-0.041906103 0.019740481 0.031856276 4285492259
-0.04035376 0.022629607 0.028508712 4285492258
-0.038718224 0.024828259 0.025898751 4285493024
-0.037205413 0.027714867 0.022559632 4285493278
-0.035604104 0.02991141 0.019956961 4285624604
-0.033906259 0.031418372 0.018089078 4285821974
-0.031988941 0.031547997 0.017685082 4285887509
-0.029718459 0.029613186 0.019471832 4285887509
-0.027552076 0.02836749 0.020525575 4285821718
-0.025251806 0.026434846 0.022306163 4285558813
-0.023060948 0.025190983 0.023354881 4285493533
-0.020345896 0.02119812 0.027313344 4285427489
-0.01772958 0.017894804 0.030537654 4285821718
-0.014819026 0.013219163 0.035210136 4285690139
-0.012143552 0.0099200234 0.038422111 4285624859
-0.0090241209 0.0045625791 0.043805774 4285296929
-0.046550408 0.0073448047 0.042932641 4285360168
-0.044645853 0.0081712008 0.041777428 4285425959
-0.04293859 0.010380983 0.039157055 4285492003
-0.041345865 0.013281457 0.035807434 4285557794
-0.039875664 0.016872056 0.031730305 4285557794
-0.038431905 0.020460997 0.027658768 4285558049
-0.037014581 0.024048179 0.023592897 4285690394
-0.035623737 0.027633656 0.019532666 4285559069
-0.034035079 0.029835898 0.016937651 4285558814
-0.032117851 0.029965471 0.016533636 4285558813
-0.029848032 0.028023977 0.018315554 4285558813
-0.027682088 0.026773833 0.019366078 4285493278
-0.025259644 0.024144463 0.021869406 4285493278
-0.022941127 0.022206515 0.023641251 4285493279
-0.020093754 0.017511036 0.028315391 4285821718
-0.017601252 0.014886666 0.03080415 4285624093
-0.01508721 0.012263842 0.03328843 4285624859
-0.012823924 0.011020847 0.034318797 4285493789
-0.0098555759 0.0063339546 0.03896768 4285362973
-0.0061420836 -0.0017941147 0.047226708 4285232159
-0.046593316 0.0050003305 0.042464543 4285294633
-0.044686019 0.0058290884 0.041310299 4285360934
-0.042879723 0.0073515698 0.039425697 4285492003
-0.041182443 0.0095673054 0.036812317 4285492259
-0.039602168 0.012475729 0.033471905 4285558049
-0.038042992 0.015382774 0.030136049 4285426468
-0.036611542 0.018981863 0.02607533 4285557539
-0.035206534 0.022579204 0.02202028 4285492513
-0.0336041 0.024788897 0.01942724 4285493023
-0.031902865 0.026304875 0.017565146 4285426978
-0.029860221 0.0257424 0.017886531 4285427998
-0.02769208 0.024488013 0.018933229 4285361953
-0.025022544 0.020465512 0.022881389 4285361444
-0.022446036 0.017137323 0.026097476 4285821719
-0.019842632 0.013811029 0.029307947 4285689883
-0.017734863 0.013253383 0.02961592 4285624349
-0.015354954 0.011313237 0.031370077 4285624859
-0.013230801 0.010756873 0.031674732 4285428254
-0.044726439 0.0034827963 0.040840182 4285425959
-0.043012977 0.005706057 0.03822821 4285361188
-0.04131525 0.0079283491 0.035619628 4285492514
-0.039532192 0.0094537288 0.033743266 4285558048
-0.03775955 0.01097855 0.031869132 4285558049
-0.036210187 0.013893716 0.02854193 4285426468
-0.034791067 0.017502952 0.024492029 4285557794
-0.033286609 0.020415258 0.021174408 4285558049
-0.031574421 0.021936316 0.019313261 4285558558
-0.029404283 0.020677511 0.020356201 4285492768
-0.027223259 0.01941957 0.021396868 4285427233
-0.02478642 0.016773555 0.023883969 4285755929
-0.022453159 0.014823332 0.025642842 4285624603
-0.020231441 0.013568401 0.026675142 4285624859
-0.018129334 0.013008185 0.026982587 4285493789
-0.016021676 0.012448423 0.027288932 4285362718
-0.013772704 0.011195548 0.028315719 4284970274
-0.041349724 0.0055913404 0.035154913 4285360423
-0.039462842 0.0064232275 0.03400835 4285492513
-0.037684605 0.007952705 0.032136321 4285493024
-0.035916813 0.0094816014 0.030266505 4285492003
-0.034377284 0.012404896 0.026947957 4285492259
-0.032858871 0.015326902 0.023633882 4285492259
-0.031133085 0.016853217 0.021773107 4285492258
-0.029183917 0.016984884 0.021362312 4285426978
-0.026995331 0.015722986 0.022398122 4285492514
-0.024673603 0.013765305 0.024154361 4285493534
-0.022585504 0.013201691 0.024463002 4285494044
-0.020619489 0.013334848 0.024048921 4285297694
-0.018522993 0.012772001 0.024355877 4285166369
-0.040992223 0.00044838339 0.037591856 4284900914
-0.039394118 0.0033841357 0.034267243 4285426724
-0.037506886 0.0042182133 0.033122305 4285426723
-0.035836905 0.0064519122 0.03052951 4285426724
-0.03418269 0.0086846426 0.027940113 4285360934
-0.032655671 0.01161591 0.024630737 4285426213
-0.030921623 0.013147078 0.022771515 4285492004
-0.028964549 0.013279237 0.022359025 4285426723
-0.026768424 0.012013473 0.023389891 4285426979
-0.02468349 0.011447318 0.023697454 4285427998
-0.022842541 0.012279011 0.022562761 4285494299
-0.020879298 0.012411937 0.022149231 4285166369
-0.035863526 0.0041158423 0.030063372 4285229609
-0.034097649 0.0056533068 0.028200552 4285294633
-0.032342225 0.0071902052 0.026339959 4285360168
-0.030711152 0.0094280243 0.023760498 4285426213
-0.028979309 0.0109635 0.021905001 4285361188
-0.027019463 0.011095881 0.021491956 4285427234
-0.025059409 0.011228368 0.021078933 4285362719
-0.023099147 0.011360973 0.02066594 4285101343
0.0033554211 0.0089031607 0.019569919 4285165348
0.0058198273 0.0069433451 0.021287337 4285624349
0.0091237016 0.0014940426 0.026554007 4285754909
-0.03610184 0.0031842664 0.028151654 4285033259
-0.034230009 0.0040217787 0.027013309 4285164074
-0.032474332 0.0055630282 0.025155913 4285360678
-0.0307291 0.0071036071 0.023300823 4285426468
-0.029110752 0.0093472302 0.020728942 4285295398
-0.027270064 0.010182977 0.01959743 4285360933
-0.025312796 0.010315239 0.019184966 4285231903
-0.023355313 0.010447592 0.018772516 4284971549
0.0024253353 0.01077655 0.01483408 4285558814
0.0043902695 0.010910764 0.014421079 4285689373
0.0068487562 0.0089440495 0.016134877 4285754399
0.010159172 0.0034777671 0.021387111 4285885723
0.013852108 -0.0033854321 0.028045971 4285754654
-0.032717243 0.0046422556 0.023253486 4285361188
-0.030974425 0.0061870366 0.021402162 4285295143
-0.02935832 0.0084370077 0.01883563 4285426724
-0.027876876 0.01139164 0.015555654 4285428254
-0.0017910078 0.0095929354 0.013773214 4285231903
-0.00014165416 0.011132881 0.011942703 4285690394
0.0011792071 0.014078051 0.0086976085 4285886744
0.0029636733 0.014913671 0.0075806919 4285623328
0.0052358061 0.013641447 0.0085868482 4285558049
0.0081866086 0.0095605999 0.012417819 4285689374
0.011508893 0.0040776804 0.01765449 4285820954
0.014357068 0.00070380419 0.020765364 4285493279
0.017757032 -0.0047735944 0.025985882 4285493533
-0.029489428 0.006823495 0.017661553 4285033513
-0.0046394244 0.01137127 0.0094675291 4285231648
-0.0025376901 0.010798544 0.0097657125 4285428254
-0.00058659911 0.010931566 0.009355437 4285624604
0.0007295236 0.013885155 0.0061178785 4285886999
0.0021858141 0.016132429 0.003591178 4285821209
0.0042826384 0.015559774 0.0038906969 4285886744
0.0072188675 0.011464782 0.007714875 4285821974
0.010356732 0.0066676736 0.012236986 4285624604
0.012843531 0.004690066 0.01393516 4285559069
0.01499683 0.0041216463 0.014223166 4285559069
0.017155539 0.0035537481 0.014510073 4285493023
0.019679978 0.0015790164 0.016200628 4285558559
0.023317505 -0.0046152472 0.022098493 4285360679
-0.0071630739 0.011757836 0.0065874029 4285493278
-0.0052230395 0.01188989 0.0061792862 4285689373
-0.0029763803 0.010606669 0.0071839523 4285689373
-0.0011866614 0.011446789 0.0060690288 4285624093
0.00012204051 0.014408618 0.0028395802 4285624349
0.0017319843 0.015954833 0.001023991 4285624349
0.0038231611 0.015379537 0.0013230871 4285558814
0.0067528188 0.011270948 0.005138794 4285558814
0.0095453672 0.0078712255 0.0082448479 4285558814
0.011676885 0.0072990507 0.0085356552 4285558813
0.01328994 0.0088459626 0.0067198519 4285624603
0.015069649 0.0096862763 0.0056076143 4285690138
0.017204043 0.0091145635 0.0058980919 4285820698
0.020074435 0.0057207122 0.0089881998 4285820699
0.02408356 -0.0019040704 0.01627044 4285952024
-0.0096691772 0.012159139 0.0037138052 4285166113
-0.0081805699 0.014421247 0.0011896845 4285886489
-0.0059558973 0.013132021 0.0021955986 4286017303
-0.0035673641 0.011133805 0.0039040167 4286018068
-0.0013183877 0.0098464563 0.0049049817 4285755673
0.00030772388 0.01139804 0.0030891802 4285624349
0.0020843372 0.012239642 0.0019787885 4285559069
0.0040194616 0.012371853 0.0015720781 4285558814
0.0064539723 0.010377258 0.003271265 4285559069
0.0085663944 0.0098014623 0.003564354 4285559069
0.010684237 0.0092261583 0.0038563963 4285559069
0.0124586 0.010068119 0.0027468633 4285690394
0.014050554 0.011618108 0.00093879923 4285558303
0.015811671 0.012459382 -0.0001677908 4285492514
0.018297367 0.010468937 0.0015211292 4285492513
0.021354571 0.0063566864 0.0053007696 4285624094
0.024819531 0.00083172321 0.01046868 4285558813
0.027946314 -0.0032755286 0.014233872 4285362209
-0.012015529 0.011862412 0.0015519951 4285166113
-0.010234237 0.012705885 0.00044178031 4285427999
-0.0084581487 0.013549112 -0.00066725723 4285689119
-0.0063868426 0.012967572 -0.00036772154 4285623328
-0.0040043071 0.010962337 0.0013370793 4285886999
-0.0017611869 0.0096702203 0.0023359265 4285755419
0.00017627701 0.0098023713 0.0019285548 4285624348
0.0019529462 0.010646135 0.00081977062 4285559069
0.0037243739 0.01148966 -0.00028782524 4285559069
0.0056567863 0.011621773 -0.00069390424 4285559069
0.0077582076 0.011043027 -0.00040015019 4285558814
0.0096934512 0.011175551 -0.0008066576 4285558814
0.0114545 0.012018785 -0.0019117612 4285755928
0.012856379 0.014282659 -0.0044118892 4285887509
0.014960736 0.013704538 -0.0041184332 4285821719
0.017252773 0.012416795 -0.0031290147 4285756183
0.019925468 0.0097101629 -0.00074895658 4285756439
0.022619568 0.0070051253 0.001626635 4285493024
0.025335098 0.0043016374 0.0039978623 4285427489
-0.014350019 0.011575654 -0.00060538016 4285362973
-0.012571476 0.012421012 -0.001713464 4285625114
-0.010942839 0.013980962 -0.0035236571 4285821209
-0.0093247443 0.01554025 -0.0053315135 4285558049
-0.0072671175 0.014955577 -0.0050307475 4285492258
-0.0047459118 0.012228519 -0.0026263949 4285689629
-0.0020478368 0.0087889433 0.0004745014 4285690138
0.00020292774 0.0074930713 0.0014685411 4285624348
0.0021430366 0.0076254755 0.0010606702 4285624349
0.0035930723 0.0098986253 -0.0014450233 4285624348
0.0051932186 0.011457458 -0.0032486003 4285624349
0.0071202368 0.011589304 -0.0036534686 4285624350
0.0088759288 0.012434252 -0.0047558937 4285558559
0.010278165 0.0147046 -0.0072512608 4285558814
0.011841185 0.016261287 -0.0090466738 4285624348
0.014111284 0.014967583 -0.0080560669 4285624603
0.016574237 0.012962431 -0.006372219 4285558814
0.019053273 0.010958508 -0.0046916585 4285427744
0.021735828 0.0082438737 -0.0023201574 4285427744
0.023869421 0.0076660067 -0.0020341538 4285231903
-0.014479376 0.0099939778 -0.001756072 4285428254
-0.012842633 0.011558734 -0.0035647862 4285493789
-0.011505447 0.014556855 -0.0067744162 4285755928
-0.0096007735 0.014686316 -0.0071752369 4285887509
-0.0078458302 0.015532568 -0.0082765557 4285886998
-0.0051809698 0.012079671 -0.0051769596 4285821719
-0.0026444569 0.009344995 -0.0027823094 4285624348
-0.00024433434 0.0073279962 -0.0010909159 4285624349
0.0013692267 0.0088918582 -0.0028941575 4285690139
0.0029721856 0.010455154 -0.0046951324 4285755419
0.0045645498 0.012017794 -0.0064937528 4285821208
