# .PCD v0.7 - Point Cloud Data file format
VERSION 0.7
FIELDS x y z rgba
SIZE 4 4 4 4
TYPE F F F U
COUNT 1 1 1 1
WIDTH 984
HEIGHT 1
VIEWPOINT 0 0 0 1 0 0 0
POINTS 984
DATA ascii
-0.021958277 0.029079322 0.023663422 4284056354
-0.02006948 0.029212372 0.023251256 4283925793
-0.018453844 0.030688303 0.021362087 4283930128
-0.016709365 0.031492352 0.020213185 4283862299
-0.014828011 0.031625088 0.019802799 4283861279
-0.012657106 0.030416213 0.02086593 4283992859
-0.01003328 0.027196173 0.024135316 4284059414
-0.0076826438 0.025319029 0.025927713 4283991583
-0.0057739243 0.02545397 0.025511568 4283990564
-0.0037097111 0.024918903 0.025829872 4283925538
-0.0024301633 0.027733834 0.022477759 4283794213
-0.00085044652 0.029207874 0.020596905 4283797529
0.0010454804 0.029342197 0.020183763 4283792939
0.0039378181 0.025460582 0.024163289 4283859749
0.0073684677 0.019573867 0.030330474 4283860769
-0.056047507 0.02513645 0.029947417 4283655749
-0.054506712 0.027976651 0.026543519 4284055844
-0.052721336 0.028784551 0.025386343 4283925284
-0.05084984 0.028915307 0.024977146 4283858219
-0.048884206 0.028369498 0.025314191 4283794469
-0.046912983 0.027824182 0.025650015 4283860259
-0.044936158 0.027279312 0.025984658 4283991329
-0.04295373 0.026734903 0.026318131 4284056354
-0.040965728 0.026190946 0.026650427 4284056099
-0.039293632 0.027674459 0.024751632 4284056864
-0.037631936 0.029157311 0.022855164 4283991583
-0.035868153 0.029964242 0.021703115 4283929363
-0.033879146 0.02942056 0.022035418 4283930128
-0.032002412 0.029552307 0.021625547 4283861023
-0.029763959 0.027659912 0.023436842 4283925539
-0.027755596 0.027117833 0.023765033 4284056609
-0.025741689 0.026576165 0.024092099 4284056609
-0.024364695 0.029405935 0.020724697 4284056609
-0.022615351 0.030212268 0.01957619 4284056609
-0.020737313 0.030344501 0.019166326 4283925283
-0.018995598 0.031150477 0.01801954 4283925539
-0.01711984 0.031282701 0.017610291 4283861533
-0.015102074 0.030741729 0.017936835 4283861788
-0.012934297 0.029528199 0.018997328 4283991838
-0.010461345 0.026969749 0.021524703 4283991073
-0.0084163845 0.026430946 0.021845428 4283990563
-0.0066709518 0.027237576 0.020698199 4283990564
-0.0049306899 0.028043913 0.019552154 4283991074
-0.0036691912 0.030866306 0.016210526 4283863063
-0.0019473583 0.031671487 0.015068606 4283794469
-6.7543238e-05 0.031804651 0.01465896 4283792174
0.0024758168 0.029251728 0.017171321 4283858729
0.0052092001 0.026028983 0.020409068 4283795234
0.0076269805 0.024150617 0.022182276 4283925284
0.009713158 0.023615405 0.022494523 4283857963
0.011451684 0.024422221 0.021349305 4281365083
-0.056510463 0.026293065 0.025825312 4283920694
-0.054722615 0.027103201 0.024669139 4284124693
-0.052851461 0.027233811 0.024259927 4283860258
-0.051071033 0.028043499 0.023105508 4283924519
-0.049295649 0.028852899 0.021952236 4283860004
-0.047428995 0.028983369 0.021544142 4283993879
-0.045364104 0.027757041 0.02262293 4283990563
-0.043288283 0.026531504 0.023699423 4283990564
-0.041410178 0.026662964 0.023288963 4283990563
-0.039531827 0.026794501 0.0228785 4283991074
-0.037872508 0.028281555 0.020985743 4283929108
-0.036335915 0.030445408 0.018354824 4283862554
-0.034470148 0.030576266 0.017947258 4283732248
-0.032251239 0.028675796 0.019757802 4283863063
-0.029775485 0.025422603 0.023042476 4283990564
-0.027641758 0.024201643 0.024106706 4283990818
-0.025874063 0.025011275 0.022955699 4284056354
-0.024496421 0.027849806 0.019594682 4284056354
-0.023008928 0.030010732 0.016974797 4283990309
-0.021136314 0.030142548 0.016566094 4283924774
-0.019127205 0.029598624 0.016892692 4283859493
-0.017112561 0.029055117 0.017218186 4283859238
-0.015234053 0.029187562 0.016808355 4283925028
-0.013211064 0.028644836 0.017132094 4284056608
-0.011035584 0.027427491 0.01818764 4284056354
-0.0089989156 0.026885871 0.018508503 4284056353
-0.0074137077 0.028368792 0.016632814 4284056608
-0.0059940219 0.030525593 0.014028214 4283990818
-0.0044325516 0.032006986 0.012157809 4283930128
-0.0027213022 0.032813571 0.011019815 4283928854
-0.00068926066 0.032272004 0.011341969 4283862809
0.0016795769 0.030383365 0.013120819 4283928598
0.0042328835 0.027822426 0.01562448 4283928344
0.0064656511 0.026609777 0.016668098 4283793449
0.0078407899 0.028763955 0.014073607 4283269423
-0.058593839 0.025291918 0.024361329 4283985974
-0.056888998 0.026785824 0.022461446 4284186404
-0.055109009 0.027597493 0.021308633 4284123674
-0.053245932 0.027727468 0.020901134 4283927069
-0.051382564 0.027857522 0.020493614 4283927324
-0.049518928 0.027987661 0.020086085 4283993623
-0.047558881 0.027437046 0.020420974 4283991583
-0.045593224 0.026886884 0.020754678 4283990564
-0.043723464 0.027017634 0.020345947 4283990563
-0.041853428 0.027148476 0.019937215 4283991073
-0.039983153 0.027279388 0.019528465 4283992859
-0.038440995 0.029450094 0.016901163 4283924519
-0.036802471 0.030940084 0.015016248 4283791663
-0.034944788 0.031070311 0.014610402 4283858729
-0.032617055 0.028483227 0.017155675 4283924774
-0.030147657 0.025218559 0.02043348 4283991329
-0.027896948 0.023313787 0.022232262 4284056353
-0.026131831 0.024125416 0.021083368 4283990563
-0.024884298 0.02765114 0.016993897 4283991329
-0.02340167 0.029818209 0.014380008 4283928853
-0.021534488 0.0299496 0.013972457 4283863828
-0.019530982 0.02940304 0.014298603 4283665694
-0.017383173 0.028179102 0.015356716 4283930383
-0.015224516 0.026955966 0.01641256 4283925028
-0.013199128 0.026411159 0.016734088 4284056608
-0.01131504 0.026544111 0.016323127 4284056354
-0.0095802471 0.027354231 0.015181398 4284056354
-0.008002758 0.028841006 0.013310611 4284056608
-0.0067454278 0.031680487 0.0099829845 4283990308
-0.0050368831 0.032489017 0.0088470988 4283924773
-0.0030132569 0.03194451 0.0091694072 4283859494
-0.00082136691 0.03072436 0.010218408 4283859748
0.0013813302 0.029505057 0.011265118 4283925284
0.0035948269 0.028286558 0.012309577 4283925029
0.0054774545 0.028420093 0.011899447 4283792938
-0.058643527 0.02305764 0.023979647 4284052529
-0.057018384 0.025240067 0.021338569 4284186404
-0.055152997 0.025370087 0.020930475 4284055844
-0.053375281 0.026183777 0.019779792 4283924773
-0.051511995 0.026313765 0.019372245 4283924773
-0.04974173 0.027127048 0.018223273 4283924773
-0.047880568 0.027257018 0.017816288 4283990309
-0.046117753 0.028069954 0.016668996 4283990564
-0.044258721 0.028199889 0.016262567 4283990563
-0.042295486 0.027647389 0.016595252 4283990818
-0.040539898 0.028460016 0.015449688 4284060434
-0.039007924 0.030636532 0.012829501 4283993878
-0.037379771 0.032130122 0.010950092 4283992603
-0.035532825 0.03225955 0.010546556 4283992858
-0.033099331 0.028981278 0.013823893 4284059414
-0.030878805 0.027067685 0.015624247 4283991073
-0.02876468 0.025836518 0.016686065 4283990563
-0.026764914 0.025287123 0.017011179 4283990819
-0.025271364 0.027461475 0.014399707 4283991584
-0.023662999 0.028954126 0.012525033 4283926049
-0.021931842 0.029765736 0.011385329 4283793959
-0.019798018 0.028536269 0.012443161 4283926049
-0.017653339 0.02730768 0.013498636 4283928343
-0.015639096 0.026759794 0.013820879 4283925029
-0.013763264 0.026892049 0.013411632 4284056353
-0.011740655 0.026344849 0.013732197 4284121634
-0.0098618343 0.026477465 0.013322413 4284056353
-0.0084387064 0.028647522 0.010726808 4284056608
-0.0070314258 0.03081654 0.008134719 4283861024
-0.0053254515 0.031627022 0.0070010722 4283862299
-0.0029848814 0.029723004 0.008776065 4283860004
-0.00062817335 0.027820248 0.010547554 4283925283
0.001248803 0.027953194 0.010138514 4284056353
0.0031258911 0.028086238 0.0097295176 4283924773
0.0046618208 0.029574933 0.0078715049 4283596079
-0.058454104 0.018760145 0.02582301 4283922223
-0.056817845 0.020949818 0.023184417 4284054824
-0.055112131 0.022452511 0.021290815 4283990308
-0.053241216 0.022582896 0.020881495 4283989798
-0.051370017 0.022713378 0.020472178 4283989798
-0.049498551 0.02284392 0.020062832 4284055843
-0.047722585 0.023659807 0.018914262 4284121634
-0.046050102 0.025160464 0.017028207 4284121889
-0.044388011 0.026660491 0.015144421 4284121888
-0.042632572 0.02747513 0.014000479 4284056353
-0.040988624 0.028973984 0.012120809 4283990818
-0.039355092 0.030472225 0.010243423 4283993623
-0.037620239 0.031285621 0.0091041308 4283992858
-0.035547219 0.030046919 0.010171451 4283992858
-0.033346228 0.028125256 0.011971047 4283990563
-0.031368516 0.027571972 0.012299147 4283990563
-0.029385261 0.027019111 0.012626136 4283990563
-0.027396448 0.026466746 0.012951914 4283990564
-0.02591309 0.028646907 0.01034756 4283993368
-0.024184704 0.029460365 0.0092100631 4283926559
-0.022461452 0.030273527 0.0080737416 4283858219
-0.020336092 0.029039072 0.0091300569 4283857963
-0.018199883 0.027805423 0.010184113 4283926049
-0.016193926 0.027254716 0.010506485 4283992604
-0.014182456 0.026704477 0.010827718 4284056609
-0.012165457 0.026154703 0.011147801 4284121889
-0.010441177 0.026968403 0.010011597 4283991073
-0.0088738129 0.02846312 0.0081495829 4283991838
-0.0073169917 0.029957218 0.006289877 4283797018
-0.0054564998 0.030088732 0.0058842357 4283731228
-0.0029568374 0.027497316 0.0083796754 4283667734
-0.00076055527 0.026268648 0.0094211064 4283861278
0.0012814365 0.025721157 0.0097362008 4283990818
0.0028255433 0.027214756 0.007879572 4283924774
-0.056618661 0.016642142 0.025017591 4283988778
-0.054817095 0.017461717 0.02386477 4283990308
-0.052845329 0.016904924 0.024191929 4283990053
-0.050958261 0.017036438 0.023779085 4283989799
-0.049256757 0.01854334 0.021889767 4283990818
-0.047565609 0.02004955 0.020002818 4284056864
-0.04588487 0.021555141 0.018118145 4284056098
-0.044012681 0.021685883 0.01770875 4284187678
-0.042243823 0.022503596 0.016563475 4284122399
-0.040692508 0.024694428 0.01394878 4284121634
-0.039265841 0.027570795 0.010602821 4284121379
-0.037637115 0.029073093 0.0087297782 4283990563
-0.035676122 0.028516257 0.0090597477 4284056099
-0.033475779 0.026587913 0.010854514 4284056608
-0.03161791 0.026718142 0.01044862 4284056354
-0.03000427 0.028219623 0.0085791275 4283990563
-0.028151304 0.028349657 0.0081744101 4283990819
-0.026553251 0.029850233 0.0063083917 4284057118
-0.024835438 0.03066509 0.0051748082 4284060434
-0.022989877 0.030794827 0.0047718771 4283993368
-0.020872988 0.029555341 0.0058267228 4283993368
-0.018745266 0.028316675 0.0068793148 4284060434
-0.016747579 0.027763152 0.0072018243 4283991073
-0.014744401 0.027210101 0.0075231902 4283990818
-0.012735695 0.026657473 0.0078434609 4283990818
-0.011019327 0.027472809 0.0067105554 4283925794
-0.0094596967 0.028971335 0.0048534833 4283860514
-0.0077563524 0.029785872 0.003723586 4283727659
-0.0059013069 0.029916974 0.0033191089 4283726894
-0.0035674125 0.027999304 0.0050856061 4283794723
-0.0013796091 0.026765583 0.0061256271 4283925538
0.00065407157 0.026215332 0.0064408313 4283990819
0.0023580343 0.027030321 0.0053111017 4283660338
-0.056338772 0.011626482 0.027577026 4284054059
-0.054523781 0.012449078 0.026422909 4283989033
-0.052626409 0.012581177 0.02600771 4284055334
-0.050908923 0.014093451 0.024118086 4284120358
-0.049016334 0.014225349 0.023704031 4284054823
-0.047314264 0.015736647 0.021817932 4283989799
-0.045426443 0.015868343 0.021405021 4283989799
-0.043639109 0.016689453 0.020257207 4283989798
-0.041960202 0.018199332 0.018376319 4283989799
-0.040397786 0.020397507 0.015764033 4283990053
-0.038851075 0.022594616 0.013155287 4283990818
-0.037208766 0.024102189 0.011282511 4283857708
-0.035234734 0.023543976 0.011607988 4283924264
-0.033371836 0.02367444 0.011200907 4283923753
-0.031389356 0.023116998 0.011524599 4283989543
-0.029767439 0.024623446 0.0096565094 4284121634
-0.028155975 0.026129192 0.007790802 4284121889
-0.026554994 0.027634313 0.0059273914 4284121889
-0.025094494 0.029825965 0.003337916 4284056863
-0.02325169 0.02995546 0.0029355492 4283991328
-0.021273315 0.029398201 0.0032604896 4283991074
-0.019151397 0.028154736 0.0043109879 4283990563
-0.01730004 0.028285062 0.003906928 4283990563
-0.015305147 0.027729155 0.004228482 4284056354
-0.013596833 0.028546004 0.0030988939 4283990819
-0.012042418 0.030048443 0.0012461655 4283992094
-0.01034715 0.030864483 0.00011958182 4283797018
-0.0086570755 0.031680241 -0.001005807 4283795233
-0.0066587478 0.031125018 -0.00068474375 4283794724
-0.0044955797 0.029885106 0.00035723485 4283795743
-0.0019974895 0.027276048 0.0028398875 4283861534
2.7887523e-05 0.026722992 0.0031552389 4283727659
0.0018913224 0.026854992 0.0027491618 4282747694
-0.056224421 0.0079746246 0.02864589 4284054313
-0.054485925 0.0094925091 0.026754847 4284055079
-0.052670553 0.010317318 0.02560229 4283989289
-0.050860211 0.011141844 0.024450881 4284055334
-0.048962392 0.011274051 0.024035638 4283989288
-0.047254726 0.012790095 0.022151498 4283989289
-0.045459539 0.013613775 0.021003561 4283924009
-0.043468356 0.013054188 0.021323292 4283989798
-0.041677997 0.013877675 0.020176513 4283990309
-0.039998583 0.015392028 0.018298769 4283990054
-0.038546637 0.018287543 0.01496038 4283990308
-0.03689336 0.019800223 0.013088463 4283989544
-0.035022803 0.019931093 0.012679605 4283924519
-0.033152029 0.020062037 0.01227075 4283991074
-0.031161822 0.019502912 0.012591086 4283793448
-0.029531635 0.021014232 0.010724483 4283925538
-0.027787387 0.021835078 0.0095882248 4284056353
-0.026175454 0.023345314 0.0077256728 4284055334
-0.02470383 0.025544284 0.0051386654 4284055843
-0.022982992 0.026363766 0.0040076561 4284055844
-0.021132082 0.026493868 0.0036035497 4284056099
-0.019143142 0.025935153 0.003924612 4284056354
-0.017429762 0.026754355 0.0027954094 4284056608
-0.01557833 0.026884736 0.0023913756 4284056353
-0.013872609 0.027703514 0.0012640096 4283990563
-0.012172066 0.028522009 0.00013783015 4284056354
-0.010627896 0.030028155 -0.0017093392 4283991839
-0.0090942606 0.031533688 -0.0035541896 4283992859
-0.0072581097 0.031663395 -0.0039545968 4283992604
-0.005103413 0.030418431 -0.0029140254 4283926559
-0.002776064 0.028487172 -0.0011559343 4283925538
-0.00092619285 0.028618108 -0.0015591336 4283398963
-0.056192823 0.0050047189 0.028969614 4283922989
-0.054448716 0.0065273456 0.02708053 4283923499
-0.052714959 0.008049272 0.025193809 4283989543
-0.05090186 0.00887613 0.024043398 4283990053
-0.04890909 0.0083141997 0.024360938 4283989798
-0.047100797 0.0091408528 0.023211671 4283989799
-0.045492917 0.01135502 0.02059905 4283924009
-0.043700062 0.012180746 0.019453278 4283924009
-0.041809261 0.01231268 0.01903973 4284055334
-0.039918192 0.012444697 0.018626181 4284055078
-0.038026884 0.012576818 0.018212637 4284055079
-0.036357366 0.014094956 0.016340405 4283989799
-0.034470908 0.014226887 0.015928037 4283924009
-0.032816909 0.015744053 0.014059359 4283924009
-0.030816339 0.015183412 0.014375748 4283923753
-0.029053546 0.016007625 0.01323699 4283858983
-0.027047209 0.015447542 0.013552239 4283989544
-0.025416337 0.016963392 0.011688845 4283924264
-0.023925595 0.019170284 0.0091025103 4283924774
-0.022582985 0.022067595 0.0057950225 4283858729
-0.020856522 0.022889666 0.0046644974 4283858474
-0.018997543 0.023020376 0.0042586606 4283924773
-0.017278731 0.02384207 0.0031299349 4283990819
-0.015422076 0.023972787 0.0027247313 4283990564
-0.013856605 0.025484661 0.00087600108 4283990309
-0.012301639 0.026995834 -0.0009703273 4284055844
-0.010606185 0.027816223 -0.0020937044 4284056354
-0.0090696365 0.029326312 -0.0039359387 4284056864
-0.0072309077 0.029456172 -0.0043369243 4284056609
-0.0052330382 0.02889652 -0.004018981 4284056353
-0.0032297112 0.028337387 -0.0037022056 4283858729
-0.0015496314 0.0291571 -0.0048219217 4282417213
-0.056324922 0.003420651 0.027818771 4283921968
-0.054412127 0.0035535619 0.027399996 4283988269
-0.052672781 0.0050802529 0.025515249 4283988778
-0.050764754 0.0052129626 0.025097622 4283989288
-0.048948646 0.0060422346 0.023948198 4283924009
-0.047042735 0.0061749406 0.023531141 4283989799
-0.045429058 0.0083959848 0.020922175 4283923753
-0.043530598 0.0085283332 0.020506864 4283923753
-0.04173474 0.0093565062 0.019362034 4283924263
-0.039943963 0.01018437 0.018218426 4283989799
-0.038158238 0.011011936 0.017075961 4283989798
-0.036266789 0.01114409 0.01666241 4283924264
-0.034375109 0.011276331 0.016248856 4283924008
-0.032483213 0.011408664 0.015835313 4283924009
-0.030709885 0.012235686 0.014695805 4283924009
-0.028820202 0.012368031 0.014282869 4283924008
-0.026806153 0.011806242 0.01459475 4283924009
-0.025040194 0.012632992 0.013457036 4283989799
-0.023538329 0.014847189 0.010873163 4283989799
-0.022052266 0.017060362 0.0082928054 4283858474
-0.020312369 0.017885536 0.0071609691 4283858729
-0.018440172 0.018017136 0.0067522135 4283859493
-0.016707934 0.018841933 0.005622169 4283794469
-0.014838047 0.018973537 0.0052140448 4283859494
-0.013258964 0.020490676 0.003365647 4283859749
-0.011690401 0.022007212 0.0015195701 4283925538
-0.0099815354 0.022830699 0.00039487984 4283990819
-0.0084313601 0.024346098 -0.0014470629 4284056608
-0.0065793991 0.024476878 -0.0018509459 4283990054
-0.0048861392 0.025299517 -0.0029720413 4283990308
-0.0033595823 0.026813477 -0.0048085889 4283727659
-0.001679413 0.027635373 -0.0059266938 4281429344
-0.056375563 0.0011374578 0.027400626 4283789113
-0.054460198 0.0012704805 0.02698124 4283922989
-0.052717902 0.0028016455 0.025099127 4284185129
-0.050896652 0.003633365 0.023950068 4284186148
-0.049080454 0.0044647604 0.022802217 4284120358
-0.047174633 0.0045974106 0.022385141 4284055334
-0.045463175 0.0061267167 0.020509986 4284055334
-0.043562159 0.0062591732 0.020094065 4283990054
-0.041866198 0.0077875964 0.018222371 4284055334
-0.039969996 0.0079198703 0.017807623 4284055334
-0.038073562 0.0080522373 0.017392872 4283989543
-0.036066242 0.0074873008 0.017704291 4283923754
-0.034053355 0.0069228783 0.018014519 4283923754
-0.032382838 0.0084499046 0.016148677 4283923753
-0.030604094 0.0092794523 0.015009588 4283924008
-0.028709181 0.0094121136 0.014595473 4283924008
-0.026690096 0.0088484511 0.014904587 4283924009
-0.02491872 0.0096777231 0.013767289 4283924264
-0.023411073 0.01189886 0.011187049 4283924008
-0.021919221 0.014118932 0.0086103659 4283924009
-0.020039298 0.01425096 0.0081998389 4283989799
-0.018021896 0.013687588 0.0085096266 4283859238
-0.016278923 0.014515296 0.0073788539 4283858983
-0.014255829 0.013952501 0.0076875333 4283793703
-0.01280845 0.016169924 0.0051208343 4283793959
-0.011228941 0.01769153 0.003275672 4283858728
-0.0093586892 0.017823394 0.0028676409 4283924774
-0.007641606 0.018649701 0.001742838 4283924774
-0.0057737306 0.018781584 0.00133547 4283925028
-0.0045402981 0.021689512 -0.0019344827 4283924774
-0.0030054674 0.023208462 -0.0037696082 4283727658
-0.049212158 0.0028875284 0.021656388 4284709664
-0.047306426 0.0030201152 0.021239286 4284251428
-0.045594722 0.0045537576 0.019367313 4284186403
-0.043693796 0.0046861582 0.018951377 4284186659
-0.041895084 0.005518768 0.017809173 4284055334
-0.039996311 0.005651176 0.017393822 4283989799
-0.038097322 0.0057836734 0.016978482 4283858728
-0.03597717 0.0045171455 0.018012179 4283988778
-0.034185499 0.005349569 0.016871748 4283989034
-0.032398909 0.0061817318 0.015732491 4283924009
-0.030735873 0.0077126436 0.013871586 4283924263
-0.028719947 0.0071464442 0.014179653 4283924008
-0.026946038 0.0079779625 0.013043353 4283924009
-0.025177248 0.0088092126 0.011908237 4283989799
-0.02354271 0.010338463 0.010053812 4284055079
-0.021786854 0.011168972 0.0089216474 4284055078
-0.019901708 0.011301327 0.0085099507 4283989798
-0.017742157 0.010038357 0.0095357131 4283989798
-0.015991092 0.010868818 0.0084047373 4283858728
-0.013960302 0.010304309 0.0087101199 4283859493
-0.012504458 0.012528855 0.0061464682 4283858729
-0.01076892 0.013358455 0.0050191283 4283858984
-0.0090385526 0.014187787 0.0038929861 4283858728
-0.0073133856 0.01501688 0.0027680043 4283858983
-0.0054376274 0.015149292 0.0023588929 4283859238
-0.0040370896 0.017370343 -0.00019231066 4283923754
-0.0024913251 0.018894415 -0.0020265626 4283792174
-0.043825343 0.0031134002 0.017808853 4284447523
-0.041924268 0.0032458343 0.017392898 4284382499
-0.040022954 0.0033783615 0.016976951 4284120869
-0.037798554 0.001405146 0.01873151 4284578593
-0.035778493 0.0008366257 0.019036798 4284447523
-0.034091666 0.0023733787 0.017173817 4284120358
-0.032530874 0.0046108291 0.01459147 4284054568
-0.030631036 0.004743658 0.014176149 4284055334
-0.02861008 0.004175581 0.014481446 4283924008
-0.026954353 0.0057104826 0.012625512 4284054313
-0.025309086 0.0072447062 0.010771979 4283858474
-0.023545347 0.0080778264 0.0096396338 4283989033
-0.02165515 0.0082104132 0.009226745 4284120359
-0.019764781 0.0083430931 0.0088138729 4284054823
-0.017737314 0.0077759773 0.0091181286 4284054823
-0.015843913 0.0079090483 0.0087047312 4283989799
-0.014092594 0.0087417513 0.007575443 4283924009
-0.01249139 0.01027355 0.0057319514 4283858474
-0.010753103 0.011105496 0.0046056267 4283858474
-0.0088697299 0.011238229 0.0041946899 4283858219
-0.0069862232 0.011371061 0.0037837978 4283858219
-0.0051025748 0.01150398 0.00337293 4283858219
-0.0035353303 0.013033796 0.0015372355 4283727403
-0.0019786321 0.014562994 -0.00029613916 4283595058
-0.00026888028 0.015393492 -0.0014158161 4282874683
-0.030526876 0.0017661676 0.01447445 4284512039
-0.028380133 0.00049297884 0.015495954 4284381988
-0.026962958 0.0034388304 0.012204699 4284053548
-0.025188692 0.0042747967 0.011071563 4284053803
-0.023419544 0.0051104538 0.0099396519 4283989288
-0.021261327 0.0038383678 0.010958945 4284120614
-0.019360401 0.0039717518 0.010543745 4284055334
-0.017459296 0.0041052401 0.010128573 4284055079
-0.01583682 0.0056426898 0.0082835574 4283989289
-0.014082767 0.0064777434 0.0071552843 4283924009
-0.012333892 0.0073125176 0.0060282033 4283858474
-0.010590203 0.008147046 0.0049022716 4283858728
-0.0088516772 0.0089812763 0.0037775915 4283858729
-0.0069656223 0.0091142543 0.0033661146 4283858729
-0.0050794184 0.0092473403 0.0029546823 4283858474
-0.0035092421 0.010781717 0.0011216104 4283727149
-0.001788862 0.011615034 1.1622906e-06 4283596079
-7.3712319e-05 0.012448121 -0.0011181114 4282808384
-0.024691314 -0.00081885979 0.01351363 4284642089
-0.018957458 -0.00041691214 0.012260951 4284181813
-0.017182343 0.00042158738 0.011129552 4284182833
-0.015690811 0.0026680417 0.0085727219 4283987248
-0.014073245 0.004209578 0.0067320988 4284119084
-0.012321629 0.0050467066 0.0056060404 4284054059
-0.010575183 0.0058835596 0.0044811759 4283922988
-0.0086840466 0.006016776 0.0040685032 4283857963
-0.0069453344 0.006853316 0.002945425 4283858983
-0.0050565787 0.0069865547 0.0025334116 4283857454
-0.0033255965 0.0078226961 0.0014122073 4283857964
-0.0017603599 0.009361174 -0.00041645113 4283726129
-0.00020569563 0.010899041 -0.0022427822 4282677314
-0.011876583 0.00065891817 0.007312566 4284575788
-0.010119416 0.0014986768 0.0061869733 4284118063
-0.0085171238 0.003043782 0.0043531656 4284118829
-0.0066206232 0.0031774417 0.0039393697 4283988013
-0.0050340518 0.0047215894 0.0021091755 4283792174
-0.0031426251 0.0048550926 0.0016966369 4283922479
-0.0015718192 0.0063983649 -0.00013001915 4283791154
-1.1552125e-05 0.0079409443 -0.0019542556 4282347088
-0.041732535 -0.01565164 0.017248271 4284509743
-0.041764736 -0.01796646 0.016801441 4282482238
-0.040039256 -0.016392667 0.014955817 4282811954
-0.038218051 -0.015539061 0.013823243 4283794214
-0.036293134 -0.015405092 0.013401983 4284380714
-0.041696601 -0.021007579 0.017061917 4281500233
-0.039965533 -0.019429009 0.015218277 4281436738
-0.038032979 -0.019294646 0.01479524 4281895229
-0.03631743 -0.017717037 0.012955163 4281306434
-0.034612291 -0.01614004 0.01111744 4281567808
-0.032689698 -0.016006086 0.010696799 4281894974
-0.030883513 -0.015150975 0.0095693581 4282351934
-0.028724656 -0.016458694 0.010561781 4282351934
-0.02679877 -0.016324233 0.010140626 4282352443
-0.024748117 -0.016910117 0.010424539 4282939963
-0.023073703 -0.015334692 0.0085939635 4284051254
-0.041830011 -0.022608507 0.0158988 4281695309
-0.040098689 -0.021025602 0.014058338 4281109318
-0.038166255 -0.020891283 0.013635295 4281175109
-0.036342017 -0.020033088 0.012505347 4281436738
-0.034411788 -0.019898731 0.012082931 4281175874
-0.032595091 -0.019040864 0.010954771 4281241663
-0.030667074 -0.018906478 0.010532985 4281633088
-0.028738886 -0.018771995 0.010111218 4281633343
-0.02693221 -0.017914545 0.0089854691 4281698113
-0.02500625 -0.017780002 0.0085643511 4281829184
-0.023080125 -0.017645355 0.0081432611 4281828419
-0.021283522 -0.016788308 0.0070199352 4282416703
-0.019359678 -0.016653623 0.0065995008 4282808894
-0.041662566 -0.026388731 0.016857112 4281891914
-0.040128857 -0.023348298 0.013605131 4281174853
-0.038299464 -0.022487637 0.012475548 4281240644
-0.036366902 -0.022353258 0.012052525 4281110339
-0.034434125 -0.022218768 0.011629522 4281175618
-0.032614708 -0.021358568 0.010502372 4281306434
-0.030800395 -0.02049863 0.0093764123 4281436738
-0.028872311 -0.020364176 0.0089546517 4281436738
-0.026944004 -0.020229604 0.0085329209 4281110339
-0.025139734 -0.01937006 0.0074093882 4281240388
-0.023340613 -0.0185108 0.0062870365 4281305414
-0.021546632 -0.017651733 0.0051658601 4281371714
-0.019625574 -0.017517265 0.004746018 4281306434
-0.01756946 -0.018106844 0.0050257556 4281698624
-0.016058043 -0.015800159 0.002508577 4282156603
-0.041696295 -0.028724458 0.016395112 4282154054
-0.040159315 -0.025675047 0.013148893 4281239879
-0.03832718 -0.024812099 0.012020359 4281435974
-0.036392085 -0.024677571 0.01159675 4281370949
-0.034567498 -0.02381492 0.010469964 4281371203
-0.032748014 -0.022952575 0.0093444102 4281306179
-0.030817583 -0.022818077 0.0089220461 4281371203
-0.028886952 -0.022683475 0.0084997043 4281175618
-0.026956119 -0.022548776 0.0080773849 4281109829
-0.025149122 -0.021686893 0.0069548693 4281240644
-0.023347273 -0.020825278 0.0058335476 4281175619
-0.02167993 -0.019237187 0.0040143058 4281240898
-0.019758992 -0.019102756 0.0035944656 4281436993
-0.017703198 -0.01969457 0.0038726162 4281568318
-0.016053982 -0.01810744 0.0020575672 4281830714
-0.04123088 -0.034718927 0.019449541 4282284358
-0.039882407 -0.030198168 0.014799604 4281108809
-0.038039558 -0.029332284 0.01367029 4281174344
-0.03620182 -0.028466705 0.012542212 4281435973
-0.034479707 -0.026871193 0.010713758 4281566789
-0.032768033 -0.025276277 0.0088876225 4281370949
-0.030950926 -0.024411839 0.007764278 4281305669
-0.029138945 -0.023547661 0.0066421237 4281305668
-0.027089722 -0.024142619 0.0069196317 4281174853
-0.025282666 -0.023278575 0.0057987068 4280979778
-0.023480758 -0.022414792 0.0046789944 4280979778
-0.021683991 -0.021551277 0.0035604667 4281110593
-0.019628689 -0.022145402 0.0038369521 4281111104
-0.017567866 -0.022739012 0.0041123144 4281372478
-0.015913084 -0.021147195 0.0022993423 4281699134
-0.037123144 -0.038266387 0.01951454 4281825103
-0.035366423 -0.036664199 0.017681638 4281631049
-0.033730462 -0.03433029 0.015151175 4281565513
-0.032223284 -0.031265143 0.01192482 4281566278
-0.030621506 -0.028933395 0.0094019379 4281567044
-0.029035501 -0.026602622 0.0068825874 4281108299
-0.027102262 -0.026467819 0.0064596925 4281239624
-0.025168821 -0.026332866 0.0060368553 4281175619
-0.023361519 -0.02546655 0.0049175695 4281045058
-0.021559365 -0.024600502 0.0037994888 4281045058
-0.019630708 -0.024465587 0.0033779126 4281240898
-0.017701872 -0.024330568 0.0029563811 4281175363
-0.016046837 -0.022734378 0.0011466108 4281568063
-0.03089083 -0.042420875 0.019827584 4282414408
-0.029831499 -0.036409084 0.013815876 4281761353
-0.028696395 -0.031134147 0.0085101519 4281565513
-0.027115092 -0.028797138 0.005996827 4281239114
-0.025302604 -0.027928349 0.0048779137 4281239879
-0.023369104 -0.027793344 0.0044551007 4281240133
-0.021564238 -0.026924934 0.0033380482 4281240898
-0.01963304 -0.026789885 0.0029158946 4281241409
-0.017701678 -0.026654694 0.0024937931 4281240644
-0.015906937 -0.025786672 0.0013791975 4281893953
-0.01411739 -0.02491891 0.00026580505 4284182324
0.015446469 -0.017634925 -0.011238652 4283787584
0.020414565 -0.01431137 -0.015209286 4282739023
0.022506304 -0.014904778 -0.014942073 4282480199
0.024603389 -0.015497644 -0.014675972 4282285633
0.026507709 -0.015361656 -0.015090141 4282414919
0.028211258 -0.014497329 -0.016182797 4282742594
0.029299101 -0.011449244 -0.019308301 4283920949
0.03119011 -0.011313852 -0.019719305 4284442679
-0.021569423 -0.029253494 0.002873607 4280580959
-0.019766986 -0.028382991 0.0017587747 4280844374
-0.01770179 -0.028982941 0.0020282082 4280911439
-0.015767731 -0.028847482 0.0016055852 4281893699
-0.01411207 -0.027242448 -0.00019772351 4284116278
0.018755767 -0.017474417 -0.014572178 4282543183
0.020659864 -0.017338764 -0.014986544 4282282828
0.02256399 -0.017203014 -0.015400841 4281826123
0.02446815 -0.017067138 -0.015815046 4281695818
0.026372328 -0.016931135 -0.016229169 4281696839
0.028075919 -0.016064655 -0.017320223 4281892934
0.029570915 -0.014468174 -0.019086471 4281958979
0.03146711 -0.01433241 -0.019498607 4282548538
0.033154711 -0.013466682 -0.020585895 4284250409
0.035048224 -0.013330858 -0.02099726 4284640049
-0.01562921 -0.031916816 0.0018258486 4280711008
-0.013967983 -0.030306999 2.4538487e-05 4283197003
0.015358441 -0.02151617 -0.012843789 4282871368
0.017454721 -0.022113997 -0.012581107 4282739279
0.019182213 -0.021244157 -0.013676197 4281825358
0.020904422 -0.020374622 -0.01477001 4281891148
0.022813745 -0.0202385 -0.015185435 4281696073
0.02472309 -0.020102266 -0.015600781 4281434953
0.026632452 -0.019965898 -0.016016031 4281370694
0.028341431 -0.019096825 -0.017106608 4281435973
0.029842 -0.017495628 -0.018870756 4281305923
0.031537637 -0.016627219 -0.019958295 4281305923
0.033227947 -0.015759137 -0.021044545 4281500743
0.034912914 -0.014891315 -0.022129547 4281566789
0.036592521 -0.014023762 -0.023213301 4281829183
0.038483188 -0.013887901 -0.023623865 4282024769
0.04103104 -0.015945662 -0.022020292 4282025278
0.044038348 -0.019464318 -0.019078519 4282874174
0.047072295 -0.022980962 -0.016142385 4283460928
0.015768085 -0.025299963 -0.011953698 4282740299
0.017872024 -0.025899377 -0.011694357 4282412878
0.019420683 -0.024291102 -0.013466245 4281761098
0.020958707 -0.022683423 -0.015235766 4281695818
0.022678331 -0.021811765 -0.01632729 4281435208
0.024587527 -0.021675553 -0.016742608 4281435463
0.0266943 -0.022274148 -0.016483435 4281240133
0.028405981 -0.021402713 -0.017572967 4281370694
0.029909458 -0.019796949 -0.01933448 4281240389
0.031813368 -0.019660603 -0.019748274 4281239623
0.033717275 -0.019524153 -0.020161986 4281239623
0.035410285 -0.018653568 -0.021247093 4281175109
0.037097931 -0.017783184 -0.022330988 4281370948
0.038780235 -0.016913135 -0.023413595 4281567044
0.041551601 -0.019710589 -0.021146134 4281697859
0.045895122 -0.027639214 -0.014198938 4281697859
0.015813895 -0.027619962 -0.012425547 4282740044
0.017920174 -0.02822144 -0.012168324 4282283084
0.019471716 -0.02660856 -0.013937613 4281826124
0.021012649 -0.024996351 -0.015704447 4281630539
0.02273497 -0.024122272 -0.016794963 4281435208
0.024451993 -0.02324852 -0.017884212 4281239879
0.026558431 -0.023849349 -0.017626612 4281370438
0.028270153 -0.022975709 -0.018714504 4281175109
0.029976558 -0.022102337 -0.019801162 4281174854
0.031472266 -0.020492624 -0.021557618 4281174088
0.033373363 -0.020356368 -0.021970712 4281305414
0.035063736 -0.019483741 -0.023053657 4281305414
0.037175506 -0.020083513 -0.022796638 4281305668
0.038860507 -0.01921102 -0.023878224 4281371204
0.041852325 -0.022752728 -0.020949522 4281370693
0.046863019 -0.032911498 -0.012018183 4281239368
0.01567819 -0.029203538 -0.013575045 4281759569
0.01778413 -0.029807243 -0.013319394 4281498704
0.019335903 -0.028189976 -0.015085461 4280975954
0.021255411 -0.028053258 -0.0155032 4281107023
0.022791274 -0.026436921 -0.017265575 4281173323
0.024510995 -0.025560733 -0.018353803 4281239368
0.02622542 -0.02468485 -0.01944075 4281174599
0.027934518 -0.023809221 -0.020526443 4281240133
0.030043302 -0.024411824 -0.020270811 4281174088
0.031747084 -0.023536343 -0.021355174 4281108808
0.033445526 -0.022661101 -0.022438273 4281305669
0.035349127 -0.022524547 -0.022851817 4281305669
0.037252709 -0.022387873 -0.023265276 4281044548
0.039156273 -0.022251066 -0.023678627 4280979524
0.04193382 -0.025065545 -0.021425588 4280913733
0.047386687 -0.036730167 -0.01118512 4280979524
0.019200116 -0.029771093 -0.016233096 4280253539
0.021308467 -0.030376505 -0.015979445 4280713304
0.02284722 -0.028755616 -0.01773919 4280975954
0.024569653 -0.027877089 -0.018826334 4281107023
0.026483765 -0.027740393 -0.019242624 4280976973
0.028597539 -0.028344948 -0.018989807 4281304649
0.030918967 -0.029690158 -0.01806959 4281370184
0.032431141 -0.028070536 -0.01982308 4281305668
0.033724979 -0.025710728 -0.022241505 4281305668
0.03542345 -0.024833191 -0.023322891 4281305414
0.037329555 -0.024696324 -0.023736887 4281175619
0.039235633 -0.024559338 -0.024150785 4281044803
0.042233247 -0.028122444 -0.021239689 4281176128
0.047688249 -0.039821874 -0.011025797 4281110083
0.03475203 -0.038567539 -0.012973293 4281560924
0.035870839 -0.035455886 -0.016059494 4281761098
0.037178416 -0.033088412 -0.018475892 4281630793
0.038682789 -0.03146461 -0.020224152 4281305668
0.040176459 -0.029841404 -0.021970021 4281241153
0.042968176 -0.032672297 -0.019733114 4281175874
0.040399518 -0.046597879 -0.009012647 4282412369
0.041521568 -0.043477025 -0.012092839 4281824083
0.042837523 -0.041102123 -0.014505952 4281760589
0.04522711 -0.042450432 -0.013606518 4281631559
0.01264732 0.027240559 0.018022483 4278669734
0.01589749 0.029521776 0.015015131 4278404024
0.0093763582 0.030244043 0.012209246 4278736289
0.010543268 0.033069097 0.0088952407 4278799784
0.01241567 0.033202235 0.0084875841 4279126948
0.014103778 0.034007881 0.0073551536 4279193249
0.016908821 0.030779807 0.010569412 4278995880
0.019740637 0.027553728 0.013777912 4278798764
0.02317635 0.022314034 0.019149916 4278667948
0.030848907 0.022861697 0.017481035 4278995624
0.0070132017 0.029904529 0.010038219 4279393424
0.0083622038 0.032063447 0.0074544325 4278538918
0.013234392 0.03516078 0.0033403225 4278732973
0.020925872 0.028143333 0.010062844 4278668969
0.023009345 0.027604152 0.010372845 4278603433
0.02470313 0.02841278 0.0092411116 4278602669
0.026391599 0.029221106 0.0081105903 4278340019
0.027466118 0.032049052 0.004823789 4278536113
0.028930375 0.033529319 0.0029788855 4279127714
0.0060138628 0.031740583 0.0052918624 4278867359
0.0075259507 0.033227749 0.0034391694 4278603943
0.017577842 0.031183047 0.0042976253 4278471853
0.020023607 0.0292875 0.0060503855 4278668713
0.021706764 0.030097481 0.0049225409 4278930854
0.023187272 0.031583045 0.0030772015 4278602668
0.026318977 0.033876665 0.00011116639 4278666928
0.027975511 0.034685075 -0.0010106415 4279390109
0.030042758 0.03414293 -0.00069845933 4279126694
0.036540329 0.025637819 0.0077902358 4278471088
0.039517116 0.022400957 0.010951372 4278734504
0.041864455 0.021189194 0.011964532 4278407338
0.043336917 0.022674922 0.010121496 4278276014
0.044126492 0.02618192 0.0061420985 4278865064
0.048378099 0.025107278 0.0067419484 4278533564
0.0040181875 0.030067671 0.0045794658 4279395209
0.0053626969 0.032239318 0.002006432 4278604708
0.0068670437 0.033730343 0.0001586508 4278538408
0.0087177046 0.033861801 -0.00024437159 4278734758
0.010749571 0.033314131 7.3255971e-05 4278865574
0.012786854 0.032766871 0.00038979948 4278669224
0.014829535 0.032220133 0.00070519652 4278668968
0.017255895 0.030316491 0.0024572257 4278734248
0.019314699 0.029771054 0.0027692281 4278668969
0.020989936 0.030582657 0.0016447492 4278668968
0.022462696 0.032072082 -0.00019567553 4278472363
0.035125636 0.028132154 0.0023710653 4278667949
0.037437789 0.026913403 0.0033885259 4278865319
0.03910505 0.027725181 0.00226634 4278407083
0.040545732 0.029213075 0.00043346081 4278471599
0.041304104 0.032728814 -0.0035309382 4278929324
0.042715333 0.034214713 -0.0053572506 4279454878
0.045032628 0.032996748 -0.0043405946 4278799783
0.048751801 0.027725937 0.00093128439 4278536879
0.053217269 0.02043204 0.008320909 4278864044
0.003716249 0.029209455 0.0027398895 4279063963
0.0047126934 0.03275156 -0.0012692688 4278407339
0.0082301274 0.033695608 -0.0027937414 4278271423
0.012838833 0.030551715 -5.1828101e-06 4278471853
0.014697615 0.030683992 -0.00040979218 4278734503
0.016556453 0.030816352 -0.00081435405 4278472618
0.018606953 0.030268138 -0.00050218496 4278276013
0.020079974 0.031761844 -0.0023393938 4278538154
0.021542333 0.033254921 -0.0041742623 4278407083
0.023193672 0.034067173 -0.0052917833 4278668458
0.025244292 0.033519287 -0.0049793972 4278536624
0.027300268 0.032971881 -0.0046681054 4278733229
0.029569244 0.031745359 -0.0036446871 4278471853
0.032059211 0.029840341 -0.0019109277 4278865319
0.034139216 0.029294902 -0.0016046735 4278472874
0.036008891 0.029428892 -0.0020109517 4278538409
0.037660211 0.030241737 -0.0031280182 4278472618
0.041676521 0.035391308 -0.0093084164 4278798254
0.043982651 0.034168165 -0.0082926163 4278995368
0.04699447 0.030912366 -0.0051550809 4278667949
0.052860945 0.025084306 0.00039589498 4278734248
0.055230897 0.023866046 0.001398135 4278473129
0.056641959 0.025356885 -0.00042450894 4278407338
0.057552196 0.028200677 -0.0036548451 4278341038
0.057945538 0.032396395 -0.0082895188 4278404278
0.060059372 0.031854525 -0.0079896823 4279584674
0.064455807 0.025226643 -0.0013609277 4279058863
0.0030745901 0.029724741 -0.00053579453 4278735778
0.004409343 0.03190881 -0.0030968757 4278341294
0.0059035607 0.033407856 -0.0049359081 4278665653
0.0079214312 0.032854646 -0.004618559 4278993584
0.012707051 0.029015837 -0.0011200141 4278602159
0.014751814 0.028464831 -0.00080837961 4278472363
0.016613219 0.02859737 -0.0012135049 4278603433
0.017900374 0.030778697 -0.0037638154 4278734503
0.018977463 0.033641621 -0.0070250351 4278668968
0.020426746 0.035138149 -0.0088537764 4278341295
0.024708133 0.033354178 -0.0075147855 4278405808
0.027168039 0.03144031 -0.0057795849 4278734504
0.029436529 0.030209381 -0.0047593415 4278603689
0.031715684 0.028979318 -0.0037414124 4278472874
0.033579931 0.029112844 -0.0041465694 4278734758
0.035228692 0.029927617 -0.0052614994 4278538154
0.036435805 0.032104086 -0.0077937627 4278538409
0.038068488 0.032917872 -0.0089050774 4278341293
0.041317701 0.034544554 -0.011123993 4278468538
0.049195144 0.028144505 -0.005267866 4278734249
0.051540643 0.026920078 -0.0042636944 4278865573
0.053178243 0.027734824 -0.0053756228 4278603689
0.054083891 0.030587036 -0.008598486 4278537134
0.056325853 0.034929313 -0.013624238 4279192994
0.058673542 0.033705469 -0.012620224 4279455644
0.061790366 0.030446954 -0.0095131788 4278734504
0.066466853 0.023120761 -0.0022049323 4278668714
0.0026040003 0.029566867 -0.0030835317 4278472363
0.0041064247 0.031070726 -0.0049211048 4278404789
0.0055982396 0.032573968 -0.0067563411 4278996643
0.0074352473 0.032704413 -0.007156421 4278866083
0.0096334517 0.031463213 -0.0061248252 4278733994
0.014062077 0.028983437 -0.0040685479 4278733993
0.015915364 0.02911539 -0.004471913 4278734504
0.017386217 0.030617611 -0.0063021565 4278406573
0.018458605 0.033489011 -0.0095558278 4278668458
0.029303828 0.02867363 -0.0058738301 4278603434
0.031162634 0.028806679 -0.0062778657 4278538409
0.032808829 0.029623374 -0.007390663 4278603689
0.034234378 0.031123193 -0.0092105055 4278407083
0.035867177 0.031939104 -0.010320261 4278472618
0.037053365 0.034120742 -0.012842979 4278734504
0.038893361 0.034252875 -0.013242608 4278603178
0.040959276 0.033702448 -0.012936194 4278865319
0.04348772 0.031787694 -0.011220228 4278538154
0.048592508 0.027961819 -0.0077984105 4278800038
0.050695542 0.027414449 -0.0074998406 4278472874
0.051846601 0.029594162 -0.010014482 4278472874
0.052981544 0.0317728 -0.012525563 4278668713
0.055697747 0.034764633 -0.016134389 4278665909
0.057789631 0.034216885 -0.015833087 4278666418
0.060644709 0.03162751 -0.013432425 4278405044
-4.1808933e-05 0.03066558 -0.0066575687 4278735778
0.013373513 0.029515482 -0.0073188911 4278930854
0.015407056 0.028959358 -0.0070080501 4278930854
0.016872849 0.030465599 -0.0088339113 4278537389
0.018327981 0.031971209 -0.010657432 4278471599
0.019379694 0.034849994 -0.013899971 4278667439
0.021206312 0.034980379 -0.014297282 4279650973
0.02629043 0.030436944 -0.010128892 4278405043
0.028756993 0.028510485 -0.0084049292 4278734248
0.030820103 0.027957143 -0.0080999415 4278538154
0.0324637 0.028775886 -0.0092105735 4278668968
0.033671781 0.03096547 -0.0117332 4278472108
0.043583196 0.029574212 -0.011625748 4278668968
0.046360705 0.026969803 -0.0092153288 4278407083
0.048224404 0.027104 -0.0096198339 4278603944
0.050324485 0.026554205 -0.0093222046 4278669479
0.051234227 0.029424211 -0.012532847 4278472874
0.052364308 0.031609096 -0.015037931 4278472618
0.053233825 0.03447637 -0.018239718 4278406319
0.060510445 0.030094353 -0.014544544 4278339508
0.064661555 0.024084281 -0.008665001 4278537389
-0.00033815578 0.02983945 -0.0084746266 4278604708
0.0013261996 0.030660395 -0.0095891599 4278603943
0.0028131306 0.032171939 -0.011416854 4278931364
0.0044643171 0.032992117 -0.012528391 4278472364
0.0061102547 0.033812035 -0.013638703 4278537644
0.0082914606 0.032560863 -0.012610045 4278537643
0.010483418 0.03131051 -0.011583612 4278537643
0.012500588 0.030750927 -0.011270926 4278603434
0.014146779 0.031571206 -0.012381036 4278603433
0.015787676 0.032391194 -0.013489927 4278668458
0.019249748 0.033341236 -0.014994982 4278995369
0.020877387 0.034160554 -0.016100783 4279324574
0.022701252 0.034290843 -0.016497424 4278733995
0.027797189 0.02973308 -0.012342971 4278471854
0.030058857 0.02848863 -0.011331081 4278800038
0.031906758 0.028621005 -0.01173267 4278537898
0.033109955 0.030816849 -0.014249356 4278537389
0.046226688 0.025430154 -0.010332379 4278537898
0.048090275 0.025564367 -0.010736841 4278668968
0.049953792 0.02569866 -0.011141225 4278734759
0.051339388 0.027205151 -0.012945167 4278735014
0.051989429 0.030768603 -0.016844464 4278341548
0.053101204 0.032958847 -0.019340573 4278734759
0.054690737 0.033777028 -0.020436902 4278800549
0.057273235 0.031853709 -0.018741924 4278735014
0.060376167 0.028561441 -0.015656477 4278407083
0.065545179 0.019791946 -0.0070058922 4278407083
3.2503158e-05 0.026244277 -0.0074326796 4279260568
0.001535628 0.027761247 -0.0092606954 4278801058
0.0030281805 0.029277503 -0.011086307 4279062688
0.0046847835 0.030100249 -0.012197391 4279193759
0.0063361265 0.030922757 -0.013307304 4279062689
0.0085221902 0.029667508 -0.012282939 4278800293
0.010536332 0.029105406 -0.011971319 4278800549
0.012370549 0.029235888 -0.012370618 4278669479
0.013640806 0.031442203 -0.014897636 4278669224
0.015276439 0.032263994 -0.016003748 4278799783
0.027045608 0.030283064 -0.015562875 4278734248
0.029298775 0.029033627 -0.014552418 4278668713
0.031138556 0.029165417 -0.014952245 4278668458
0.033731192 0.032878295 -0.019266019 4278733739
0.035337508 0.033698998 -0.020365003 4278866083
0.037161164 0.033829998 -0.02076105 4278538663
0.040337063 0.02982568 -0.016950283 4278406064
0.043088857 0.027201843 -0.014547452 4278471854
0.045861952 0.024579603 -0.012149195 4278472363
0.047956146 0.024024986 -0.01185366 4278734504
0.049347442 0.025536209 -0.013655602 4278603433
0.0502505 0.028423304 -0.016851634 4278537388
0.060998101 0.024966892 -0.014682232 4278734759
0.066682018 0.014795028 -0.0046645608 4278604199
-0.00079232454 0.019721977 -0.0031455234 4279919489
0.00090144202 0.020549271 -0.0042632725 4278736544
0.0024208426 0.022071738 -0.0060915826 4278407339
0.0050789826 0.026504794 -0.011162111 4278407594
0.0069155507 0.026635144 -0.011562144 4278473129
0.0092916004 0.024681538 -0.0098339133 4278669988
0.011136319 0.024812657 -0.010235582 4278800803
0.012610812 0.026332498 -0.012053687 4278669733
0.013511248 0.029933995 -0.01599234 4278734758
0.01514696 0.030757988 -0.017096825 4278931364
0.016584229 0.032275416 -0.018906578 4278865573
0.018206649 0.033098683 -0.020008085 4279193504
0.019823778 0.033921637 -0.021108318 4278669989
0.021636736 0.034051128 -0.021502595 4278866083
0.023857381 0.032794759 -0.020488441 4278669224
0.025882194 0.032232061 -0.020180158 4278668968
0.028121516 0.03097726 -0.019169968 4278603433
0.030159684 0.030415656 -0.018864408 4278800038
0.034327403 0.034960207 -0.024260564 4278799019
0.044806 0.025806895 -0.016057741 4278734248
0.046889223 0.025249314 -0.015761454 4278603434
0.048270106 0.026764179 -0.017557845 4278602923
0.049163155 0.029659333 -0.020745125 4278602669
0.051616557 0.033375002 -0.025019074 4278929834
0.061366998 0.022048812 -0.014411089 4278864809
0.0014356375 0.01622371 -0.0025342861 4279325594
0.0031349212 0.017053649 -0.0036515463 4278931873
0.0043141432 0.019975692 -0.0068962318 4278604453
0.0059949122 0.020804547 -0.008009363 4278473894
0.0078473836 0.020936012 -0.0084128715 4278604964
0.010059167 0.019673791 -0.0074007022 4278474149
0.01173484 0.020502534 -0.0085124616 4278539429
0.01303532 0.022724025 -0.011036296 4278473638
0.014319833 0.024944477 -0.013556588 4278801314
0.015778687 0.026467726 -0.015367827 4278800803
0.017226893 0.027990304 -0.017176686 4278931618
0.018664449 0.029512277 -0.018983185 4279062688
0.020289656 0.030337986 -0.020083541 4279128479
0.022311479 0.029772682 -0.0197764 4278735269
0.024135016 0.029903034 -0.020172901 4278866338
0.025752256 0.030728459 -0.021271311 4278800804
0.027364152 0.031553589 -0.022368494 4278669478
0.029182345 0.03168384 -0.022763625 4278931364
0.030571874 0.033203013 -0.024559207 4278800039
0.040773943 0.030386917 -0.023040809 4278865318
0.043521255 0.027745334 -0.020650052 4278800038
0.04535782 0.027877646 -0.021048617 4278669224
0.047194313 0.028010046 -0.021447096 4278603178
0.04917996 0.03312251 -0.027104938 4279192994
0.050510138 0.034638438 -0.02888687 4278931363
0.053307686 0.032001026 -0.026506603 4278800294
0.056624513 0.027981438 -0.022745466 4278668968
0.061735097 0.019122217 -0.014146188 4278603434
0.0018022843 0.01258086 -0.0015270431 4279260059
0.0035096444 0.013413545 -0.0026444392 4278932129
0.005040355 0.0149456 -0.0044685528 4278866848
0.0067345574 0.015777551 -0.0055829287 4278801568
0.0084234923 0.016609255 -0.0066961395 4278736033
0.010466035 0.016042437 -0.0063956697 4278801568
0.011967681 0.017572854 -0.0082132127 4278801568
0.013458725 0.019102592 -0.010028318 4279128733
0.014939129 0.02063169 -0.011841089 4278670499
0.016599022 0.021461762 -0.012947577 4278670244
0.018060844 0.022989705 -0.014756109 4278932129
0.019707445 0.023819078 -0.015859593 4278866594
0.021348752 0.024648119 -0.016961813 4278735524
0.023185514 0.024779312 -0.017361268 4278538664
0.024615385 0.026305344 -0.019162571 4278538664
0.026240706 0.027133536 -0.020261098 4278604199
0.027651886 0.028658466 -0.022058235 4278866593
0.02926385 0.029485889 -0.023153719 4278866594
0.030656317 0.031009678 -0.024946641 4278997154
0.031821299 0.033229157 -0.027435193 4279062434
0.033409171 0.03405514 -0.028525226 4279062689
0.035213802 0.034184791 -0.02891713 4279127969
0.037692808 0.032227032 -0.027219985 4278865829
0.039960317 0.030966099 -0.02622195 4278472874
0.042238433 0.029706076 -0.025226181 4278603943
0.044061542 0.029837444 -0.025621807 4278538409
0.045649096 0.03066396 -0.026711356 4278603433
0.04856712 0.033010829 -0.029579602 4278337979
0.0016701855 0.011031751 -0.0026517007 4279521688
0.0035461783 0.011164572 -0.0030605672 4279062943
0.0052510351 0.011999346 -0.0041757161 4278932383
0.0069506392 0.012833845 -0.0052896477 4278932638
0.0088215619 0.012966599 -0.0056971908 4278998174
0.010513328 0.01380074 -0.0068092654 4279063709
0.012017898 0.015335735 -0.0086241718 4278998174
0.013511878 0.016870048 -0.010436645 4278997663
0.015556946 0.016301539 -0.010138203 4278801059
0.017227586 0.017134566 -0.011245389 4278866594
0.019085504 0.017266981 -0.011649663 4279194013
0.020552948 0.018799827 -0.013456119 4278997663
