# .PCD v0.7 - Point Cloud Data file format
VERSION 0.7
FIELDS x y z rgba
SIZE 4 4 4 4
TYPE F F F U
COUNT 1 1 1 1
WIDTH 968
HEIGHT 1
VIEWPOINT 0 0 0 1 0 0 0
POINTS 968
DATA ascii
0.066876963 0.015387975 0.017795753 4284055844
0.0020708442 0.026787682 0.010969686 4282542419
0.0039540902 0.026915262 0.010585674 4283726639
0.0058374032 0.027042938 0.010201721 4284056354
0.0077207685 0.027170686 0.0098178061 4283925538
0.0094247311 0.027982928 0.0087185511 4283925793
0.01148764 0.027426442 0.0090501448 4283990564
0.013740771 0.026186308 0.010095044 4284056099
0.015817137 0.025630899 0.010424019 4283990308
0.017328365 0.02712697 0.0086123189 4284056353
0.019214584 0.027255405 0.0082281986 4284121888
0.021100815 0.027383916 0.0078441361 4284122144
0.023185249 0.026829381 0.0081717195 4283991073
0.024873253 0.027641186 0.0070762066 4283925283
0.026963014 0.027087184 0.0074028363 4283924773
0.02947061 0.025168451 0.0091483155 4283990563
0.031994261 0.023250856 0.010890638 4283990818
0.034322333 0.022016652 0.011920906 4284121888
0.035803903 0.023511492 0.010115766 4284056353
0.037274718 0.025005631 0.0083129192 4284056353
0.038734734 0.02649915 0.0065122796 4284121888
0.040406309 0.027310481 0.0054206075 4284056354
0.042522445 0.026758926 0.005742359 4283991328
0.045326911 0.024164425 0.0081798984 4283990819
0.048152708 0.021571465 0.010613159 4284056099
0.050999835 0.018980056 0.013042151 4284056098
0.052218243 0.021154221 0.010539128 4284187423
0.053658888 0.02264693 0.0087429015 4284121633
0.054847602 0.024819208 0.006246035 4284056098
0.056263894 0.026310397 0.0044548707 4284122399
0.058162183 0.026441259 0.004069522 4284056353
0.061056755 0.023853591 0.0064892406 4283991838
0.064979717 0.018549651 0.011707473 4283991838
0.0019437447 0.025247922 0.0098262476 4281755233
0.003998138 0.02468829 0.010157694 4283528758
0.0055361837 0.026190089 0.0083434312 4284056353
0.0074167624 0.026317639 0.0079600783 4283991074
0.0091181248 0.027131874 0.0068630064 4283925029
0.011360034 0.02588658 0.0079067582 4283925029
0.013612695 0.024642054 0.0089484202 4284056609
0.015501469 0.024770502 0.008563661 4284122144
0.017010266 0.026270809 0.0067557348 4284122144
0.019086389 0.025713321 0.0070832642 4284056353
0.020972516 0.02584183 0.0066992277 4284056609
0.0226606 0.026655784 0.005605259 4283991329
0.024142615 0.028154558 0.0038030837 4283925539
0.02622406 0.027597805 0.0041297413 4283927323
0.029135114 0.024302365 0.0072886785 4283992094
0.032072924 0.021008845 0.010442239 4283925283
0.034403209 0.019770447 0.011468745 4284056099
0.03610184 0.020585593 0.010373062 4284056353
0.037361484 0.022768561 0.0078662252 4284056609
0.03882445 0.02426666 0.0060683349 4284056608
0.040276647 0.025764048 0.0042727254 4283991074
0.041942868 0.026577296 0.0031838827 4283929619
0.044286139 0.025340335 0.0042080842 4283796509
0.047330562 0.02205478 0.007340475 4283795999
0.050401669 0.018771134 0.010467504 4283926303
0.052321792 0.018903218 0.010077505 4284056353
0.054003581 0.019717947 0.0089858146 4284121888
0.055439014 0.021214757 0.0071940525 4284056354
0.056620032 0.023393143 0.0047038151 4284056608
0.057538614 0.02625251 0.0015167771 4283926814
0.059680235 0.025701277 0.0018322608 4283862043
0.063336655 0.021060523 0.0063412217 4283796508
0.069827408 0.0089262575 0.018526502 4283796508
0.0040418506 0.022457216 0.009726583 4283002949
0.0055828243 0.023963552 0.0079150395 4283925538
0.0069367439 0.026158174 0.0053930776 4283926559
0.0084537193 0.027663054 0.003586554 4283797784
0.010323577 0.027790036 0.0032055089 4283730719
0.012931287 0.025163366 0.0056687808 4283797273
0.014999047 0.024603007 0.0059961779 4283990564
0.016692566 0.025419218 0.004902618 4284056353
0.018765712 0.024859391 0.0052290475 4284056353
0.020844236 0.024299977 0.0055544907 4284056609
0.022136705 0.026491141 0.003045518 4283925538
0.023613626 0.027993931 0.0012477143 4283864339
0.025486222 0.028121775 0.00086662732 4283797783
0.028388223 0.024814837 0.0040191021 4283928854
0.031525541 0.020823032 0.0078723403 4283862553
0.033849992 0.019579936 0.0088966666 4283990818
0.035329424 0.021083321 0.0070986776 4284056609
0.037014689 0.021899823 0.0060074488 4284056098
0.038475245 0.023402117 0.0042133769 4284056354
0.039925028 0.02490372 0.0024216063 4283925794
0.041139372 0.027090386 -7.0828944e-05 4283793959
0.043246828 0.026533997 0.00024945382 4283858728
0.046049532 0.023922084 0.0026741419 4283797529
0.049338911 0.019941423 0.0064970935 4283861789
0.051483568 0.019387841 0.0068100123 4284056099
0.053395435 0.019519463 0.00642177 4284056098
0.055066485 0.020335741 0.0053340057 4284055844
0.056001909 0.023204934 0.0021501668 4284058138
0.056669716 0.02675692 -0.0017277682 4283858473
0.058803029 0.026202977 -0.0014122287 4283858474
0.062198609 0.022230234 0.0023895456 4283858729
0.067404777 0.013474144 0.011063267 4283860769
0.0037434772 0.021605048 0.0078680841 4282739789
0.0049349219 0.024498248 0.0046371287 4283860768
0.0061049983 0.027390083 0.0014105933 4283859749
0.0076115131 0.028898604 -0.00039047562 4283793193
0.0098337457 0.027643202 0.000650662 4283859749
0.012250993 0.025698012 0.0023991112 4283796764
0.014497377 0.02444447 0.003435418 4283924773
0.016375246 0.024572248 0.0030529313 4284056863
0.018253123 0.024700111 0.0026705116 4284056099
0.020131005 0.024828071 0.0022881627 4283991073
0.021415878 0.027025249 -0.00021427684 4283927833
0.02268468 0.029221388 -0.0027133198 4283728423
0.024546456 0.029348496 -0.0030922038 4283792429
0.027436726 0.026029879 5.4350123e-05 4283793958
0.030562129 0.022024199 0.003900039 4283926303
0.032664333 0.021464784 0.0042193532 4283990564
0.034130633 0.022971649 0.0024273731 4284122144
0.035802588 0.023789419 0.0013405243 4284056098
0.037250012 0.025295187 -0.00044754241 4283992093
0.03868667 0.026800267 -0.0022333041 4283926813
0.040336985 0.027616812 -0.0033155619 4283792939
0.042663254 0.026370022 -0.0022945199 4283792938
0.045459762 0.023748983 0.00012478605 4283859238
0.048510082 0.020442192 0.003239451 4283925029
0.050881583 0.01919876 0.0042514941 4284056099
0.052787997 0.01933004 0.0038643871 4283990053
0.054213259 0.020834912 0.0020813821 4284056099
0.054898098 0.024398914 -0.0017917305 4283993624
0.055801898 0.027274743 -0.0049624196 4283927579
0.057926897 0.02671808 -0.0046468317 4283859238
0.061062019 0.023417708 -0.001548944 4283924774
0.065493263 0.016690005 0.0050200121 4283859493
0.0024213046 0.024919869 0.0017497474 4283200829
0.0041147582 0.025739906 0.00065913144 4283794213
0.0054507852 0.027946409 -0.0018492648 4283796763
0.0071282648 0.028765526 -0.0029365006 4283793703
0.0089818388 0.028891385 -0.0033142385 4283792939
0.011203621 0.027631735 -0.002276307 4283859493
0.013622917 0.025680229 -0.00053321011 4283926558
0.015679412 0.025114827 -0.00020677969 4284056608
0.017741283 0.024549838 0.0001186654 4284056098
0.0196137 0.024677424 -0.00026257429 4284056099
0.021091139 0.026188917 -0.0020539388 4284060433
0.022357693 0.028391467 -0.0045475876 4283795743
0.024013845 0.029209923 -0.005629879 4283859748
0.0264867 0.02726268 -0.0038972152 4283925793
0.029391987 0.023934294 -0.00076196436 4284058393
0.031480514 0.023371778 -0.00044151768 4284057118
0.033147238 0.024191305 -0.0015256954 4284056098
0.034592323 0.025701161 -0.0033099637 4284055843
0.036026619 0.027210396 -0.0050920243 4283990819
0.03745015 0.028718943 -0.0068717808 4283994133
0.039087139 0.029536817 -0.0079496931 4283927833
0.041399561 0.028284691 -0.0069291093 4283927069
0.044181842 0.025654003 -0.004513537 4284124184
0.047217753 0.022335354 -0.0014042435 4284124694
0.049810369 0.020397324 0.00030476507 4283990308
0.051230662 0.021906156 -0.0014739493 4284055843
0.052159455 0.024792276 -0.0046431636 4284055844
0.053066708 0.027677001 -0.0078079416 4283926049
0.054443799 0.029183105 -0.0095776925 4283929108
0.05655513 0.028623344 -0.0092609785 4283927324
0.059424806 0.025999349 -0.0068626367 4283993114
0.063330613 0.020624746 -0.0016939119 4283991583
0.070612207 0.0063111037 0.012476676 4283991583
0.0016132519 0.026177838 -0.0022188919 4283134529
0.0029496774 0.028390754 -0.0047224103 4283924518
0.0044459477 0.029907174 -0.0065148249 4283796253
0.0062886588 0.030032206 -0.0068904189 4283927579
0.0083126351 0.029462153 -0.0065592327 4283927579
0.010525923 0.028197519 -0.005522857 4283927323
0.012936525 0.026238928 -0.0037830225 4284056609
0.014984701 0.025670748 -0.0034565148 4284056098
0.017038232 0.025103055 -0.0031310786 4284056098
0.018707888 0.025924347 -0.0042146547 4284055843
0.020174868 0.02743949 -0.0060005616 4283991328
0.021631135 0.028953932 -0.0077841836 4283993878
0.02327933 0.029774031 -0.0088631865 4283992858
0.025743483 0.027819704 -0.0071337796 4283993113
0.028431699 0.025173184 -0.0047062552 4284057118
0.030719923 0.023914544 -0.0036844611 4284055844
0.032592058 0.024042729 -0.0040651672 4284056098
0.034032036 0.025556643 -0.0058451085 4284056098
0.035461247 0.027069855 -0.0076227537 4284056353
0.036879674 0.028582461 -0.0093981829 4283991074
0.038735487 0.028709877 -0.0097753033 4283992094
0.041044757 0.027453206 -0.0087573873 4283991839
0.043823522 0.024813589 -0.0063477345 4284057118
0.046391487 0.022867259 -0.0046387613 4284055844
0.048740633 0.021613594 -0.0036287438 4283990308
0.050150473 0.023126129 -0.0054020295 4284055588
0.051069189 0.026020292 -0.0085625313 4283990308
0.052209213 0.028222056 -0.01102436 4283924774
0.054069545 0.028350459 -0.011401882 4283793704
0.056426093 0.027097773 -0.010393087 4283793704
0.059294932 0.024465047 -0.0080011962 4283858984
0.062692091 0.020453427 -0.0042295195 4283924773
0.068683296 0.009543661 0.0064506968 4283990308
0.00080668926 0.027453557 -0.0061743516 4282542673
0.0024788566 0.028276473 -0.0072573293 4284056099
0.0043214113 0.028401401 -0.0076329652 4283990818
0.0061640143 0.02852641 -0.0080085453 4283924774
0.0080066584 0.028651528 -0.0083840592 4283924263
0.010400519 0.02668513 -0.0066458294 4283924519
0.01243766 0.026113972 -0.0063188495 4283990053
0.014480174 0.025543265 -0.005992902 4283990053
0.016144538 0.02636629 -0.007073801 4284056098
0.018192427 0.025796123 -0.006748816 4284122144
0.020048551 0.025922682 -0.0071266703 4284121889
0.021704871 0.026745431 -0.0082057267 4284121889
0.023558291 0.026871979 -0.0085828993 4283990563
0.025616841 0.026302911 -0.0082598003 4283989543
0.028096389 0.024343163 -0.0065383939 4283990053
0.030381447 0.023080006 -0.0055193156 4284055843
0.032463998 0.022512808 -0.0052008471 4284121633
0.034120098 0.023336105 -0.0062795039 4284121633
0.035770789 0.024159092 -0.0073569398 4284121889
0.037416063 0.024981789 -0.0084332069 4284121889
0.038831994 0.026498683 -0.010204724 4283989798
0.04114347 0.025237828 -0.0091905668 4284055588
0.043465551 0.023977846 -0.0081785303 4284121889
0.04603019 0.02202474 -0.0064738095 4284055588
0.048376173 0.020766567 -0.0054664975 4283989544
0.049783614 0.022283275 -0.0072359079 4283923499
0.050940253 0.024492692 -0.0096962145 4283923754
0.052323364 0.026007894 -0.011460557 4283923753
0.054431587 0.025443543 -0.011146554 4283923754
0.057041027 0.023494061 -0.0094505148 4283857964
0.059666373 0.021545779 -0.007757701 4283857963
0.062560976 0.018906262 -0.0053775911 4283857708
0.067781053 0.010038208 0.003207068 4283857198
0.0011926964 0.023845006 -0.0051769521 4282345049
0.00287297 0.024670646 -0.0062599229 4283924263
0.0047234483 0.0247961 -0.0066371802 4283990819
0.006395787 0.025621373 -0.007718402 4283991073
0.0086054057 0.024347726 -0.0066880509 4283990564
0.010642223 0.023774266 -0.0063627469 4283990309
0.012870669 0.022502046 -0.005336043 4283990819
0.014543109 0.023327749 -0.0064170416 4283990818
0.016401799 0.023454297 -0.0067955581 4283990818
0.018260496 0.023580948 -0.0071740048 4283991073
0.020316133 0.023009185 -0.0068521397 4283990818
0.022177493 0.023136206 -0.0072309831 4283990563
0.024241131 0.022565223 -0.0069106473 4283991074
0.02610513 0.022692591 -0.0072898967 4283990564
0.028176745 0.022122335 -0.0069710435 4283990819
0.03025368 0.021552537 -0.0066532008 4283990819
0.032335937 0.020983141 -0.006336336 4284056608
0.034423485 0.020414248 -0.0060205106 4284122653
0.03629797 0.020542797 -0.0064015426 4284056864
0.038172387 0.020671435 -0.006782487 4284057374
0.039823018 0.021496791 -0.0078580966 4284122398
0.041694604 0.021625411 -0.0082383333 4284122399
0.043795176 0.021057874 -0.0079248073 4284057119
0.046132751 0.019794699 -0.0069191651 4283924773
0.048480947 0.01853231 -0.0059155677 4283924519
0.050128415 0.019357938 -0.0069902372 4283925029
0.051770426 0.020183232 -0.0080636907 4283859238
0.053649418 0.020312894 -0.0084450245 4283793448
0.055773415 0.019747492 -0.0081358571 4283859239
0.058150444 0.018487539 -0.0071377666 4283859494
0.060788512 0.01653365 -0.0054524881 4283859238
0.063695654 0.013886329 -0.0030815406 4283792938
0.068414927 0.0063796006 0.0041028745 4283727148
0.0015776567 0.02022358 -0.0041891169 4281037408
0.0034386851 0.020349644 -0.0045686038 4283398708
0.005650416 0.019071598 -0.0035421564 4283794469
0.0073388927 0.019900139 -0.0046250043 4283925538
0.0093834177 0.019324932 -0.0043030069 4283991839
0.011066612 0.020153303 -0.0053846394 4283925028
0.013116553 0.019578662 -0.0050635948 4283991074
0.014794435 0.020406846 -0.0061440086 4283991329
0.016849762 0.019832749 -0.0058239265 4283990819
0.018910455 0.019259121 -0.0055048564 4283925028
0.020976508 0.018685896 -0.0051867724 4283925283
0.023047902 0.018113177 -0.0048697409 4283925029
0.025124632 0.017540913 -0.0045537301 4283924773
0.026797121 0.018369306 -0.0056326077 4283924773
0.028671689 0.018497497 -0.0060139322 4283925029
0.030756362 0.017926063 -0.0056993165 4283925283
0.032846343 0.017355081 -0.0053857104 4284056099
0.034941629 0.016784552 -0.0050731176 4284055844
0.036824036 0.016913664 -0.0054557431 4283925028
0.038927242 0.016343828 -0.0051445668 4284055844
0.040812187 0.016473297 -0.0055275694 4283990308
0.04292326 0.015904218 -0.0052179038 4283990563
0.044581831 0.016732495 -0.0062933122 4283990308
0.046698071 0.016163971 -0.0059845452 4283990054
0.048819572 0.015595894 -0.0056767804 4283924263
0.050946314 0.015028264 -0.0053700157 4283924263
0.052838705 0.015158799 -0.0057541081 4283858983
0.054973241 0.014591884 -0.0054487837 4283858729
0.057113014 0.01402539 -0.005144407 4283858728
0.059505619 0.012762226 -0.0041528279 4283924009
0.061658479 0.012196861 -0.0038510105 4283924009
0.064575478 0.0095415451 -0.0014886865 4283792683
0.069558956 0.0013149343 0.0063623628 4283792428
0.002131369 0.015884638 -0.0025084317 4282347599
0.0041754544 0.015306938 -0.0021882253 4283595313
0.0064001009 0.014025401 -0.0011677407 4283858474
0.0079242066 0.015561137 -0.0029524458 4283989799
0.010159649 0.014280524 -0.0019340143 4283990309
0.011856295 0.015111987 -0.0030167266 4283990308
0.013919324 0.014536045 -0.0027000168 4283990308
0.015422128 0.016070712 -0.0044800942 4283990308
0.017679086 0.014791947 -0.0034657512 4283990308
0.019558975 0.014920045 -0.0038485085 4283924774
0.021635436 0.014345404 -0.0035342416 4283924518
0.023717251 0.013771184 -0.0032209475 4283924518
0.025602465 0.013899922 -0.0036045779 4283924263
0.027692268 0.013326477 -0.0032928055 4283924263
0.029580109 0.0134556 -0.003676815 4283990308
0.031467915 0.013584811 -0.0040607452 4283990563
0.033568308 0.013012372 -0.0037509166 4283990308
0.035458691 0.013141956 -0.0041352222 4283990053
0.037349015 0.01327163 -0.0045194421 4283990308
0.039459944 0.012700196 -0.0042115385 4283990053
0.041352808 0.012830231 -0.00459613 4283990308
0.043245591 0.012960356 -0.0049806396 4284055334
0.045138288 0.013090558 -0.0053650634 4283989543
0.047030888 0.013220858 -0.0057493886 4283989288
0.049157448 0.012650982 -0.0054442892 4283989288
0.051525991 0.011381429 -0.0044513615 4283924008
0.053426303 0.011512529 -0.0048370482 4283858473
0.055568576 0.010944013 -0.0045349291 4283858473
0.057471313 0.011075471 -0.0049209604 4283858474
0.059868798 0.0098082945 -0.0039336206 4283858474
0.062026724 0.0092411228 -0.0036344728 4283923754
0.064695425 0.007276468 -0.0019652518 4283858729
0.069934696 -0.0016749613 0.0065508196 4283858474
0.0045658648 0.011655986 -0.0012244098 4283594804
0.0066231079 0.011077046 -0.00090843718 4283857963
0.008330442 0.011911239 -0.0019918717 4283924264
0.010212794 0.012039024 -0.0023754975 4284055334
0.012095176 0.012166902 -0.002759059 4284055334
0.013977595 0.012294877 -0.0031425562 4283989798
0.015860023 0.012422953 -0.0035259817 4283989798
0.018124541 0.011140306 -0.0025164569 4283924263
0.020206062 0.01056375 -0.00220495 4283989799
0.022096543 0.01069266 -0.0025897929 4283989798
0.023987014 0.010821674 -0.0029745568 4283858728
0.025877468 0.010950793 -0.0033592349 4283924263
0.027972322 0.010375526 -0.0030501494 4283989799
0.030072501 0.009800721 -0.0027420716 4283989798
0.031968221 0.0099304803 -0.0031276038 4283990054
0.034076359 0.0093563758 -0.0028209491 4283990054
0.035759516 0.010190282 -0.0038984222 4283924263
0.037655078 0.010320332 -0.0042836955 4283924519
0.039771076 0.0097470544 -0.0039784173 4283924263
0.041669175 0.0098774619 -0.0043640649 4283924263
0.043793045 0.0093049593 -0.0040602866 4283924263
0.045693655 0.0094357319 -0.0044462993 4284054823
0.047825366 0.0088639595 -0.0041439678 4284120615
0.049494594 0.0096975453 -0.0052180467 4284054823
0.051631454 0.0091263093 -0.0049166209 4284120615
0.053773548 0.0085555464 -0.0046161725 4283989543
0.055920891 0.0079851858 -0.0043166815 4283924009
0.057828866 0.008117035 -0.0047037522 4283924009
0.060478464 0.0061443821 -0.0030357535 4283924009
0.062144272 0.0069782846 -0.0041087135 4283857963
0.065067589 0.0043060817 -0.0017609019 4283857963
0.070309699 -0.0046733655 0.0067330403 4283792428
0.004611019 0.0094098262 -0.0016673291 4283595569
0.006670624 0.0088289045 -0.0013535507 4283728423
0.0083807074 0.0096654147 -0.0024358407 4283990054
0.010445751 0.0090850554 -0.0021230215 4283924263
0.012333378 0.0092132837 -0.0025076559 4283924263
0.014406525 0.0086336844 -0.0021963315 4283989543
0.016485041 0.0080545284 -0.001886039 4284054568
0.018568924 0.0074758567 -0.0015767487 4283989289
0.020464642 0.0076050423 -0.0019627204 4283989289
0.022360357 0.0077343099 -0.0023486288 4283989543
0.024256062 0.0078636892 -0.0027344525 4283924263
0.026353326 0.0072862767 -0.0024275472 4283924008
0.02825167 0.007416036 -0.0028137499 4283924264
0.030356901 0.0068394057 -0.002508359 4283924008
0.032257855 0.0069695413 -0.002894945 4283924263
0.034158766 0.0070997663 -0.0032814494 4283924008
0.035844676 0.007936012 -0.004357764 4283924264
0.037742801 0.0080662444 -0.0047435514 4283924264
0.039861161 0.0074910112 -0.0044404468 4283990054
0.041761819 0.0076216199 -0.0048265993 4283924264
0.044113718 0.006341923 -0.0038372385 4283990309
0.046019565 0.0064730793 -0.0042242999 4284120869
0.047925323 0.0066043176 -0.0046112682 4284054823
0.049830981 0.0067356639 -0.0049981358 4284054568
0.05173653 0.0068670847 -0.0053849122 4284054823
0.053881016 0.0062942877 -0.0050865519 4284055079
0.056030724 0.0057219826 -0.0047892272 4283989033
0.058430042 0.004446242 -0.003808971 4283989289
0.060839947 0.00317128 -0.0028307494 4283989288
0.062511161 0.0040078126 -0.0039031617 4283923498
0.064681739 0.0034372844 -0.0036097355 4283857963
0.070173733 -0.0062739216 0.005545442 4283858218
0.0048277602 0.0064485706 -0.0014163544 4283661613
0.006717816 0.006576661 -0.0018017115 4283793448
0.00843063 0.0074155293 -0.0028828997 4283924774
0.010498054 0.0068331547 -0.0025722319 4283924263
0.012570865 0.006251242 -0.0022625849 4283924008
0.01464906 0.0056698062 -0.0019539502 4283989544
0.016920632 0.0043788441 -0.00095258281 4284054569
0.018630905 0.0052180402 -0.0020328742 4283989289
0.020529179 0.0053474009 -0.0024193656 4283989033
0.022427449 0.0054768585 -0.0028057843 4283989289
0.024524411 0.0048971884 -0.0025005974 4283989034
0.026626714 0.0043179952 -0.0021964163 4283923498
0.02853029 0.0044481196 -0.0025836788 4283923499
0.030433837 0.0045783408 -0.0029708645 4283857963
0.032337345 0.0047086515 -0.0033579706 4283923754
0.034240812 0.0048390664 -0.0037449854 4283924009
0.036144231 0.0049695708 -0.0041319164 4283989544
0.038047586 0.0051001795 -0.0045187543 4284055333
0.040170997 0.0045231357 -0.0042183283 4284055334
0.042076889 0.0046541132 -0.0046055331 4284054823
0.044433668 0.0033703931 -0.0036204159 4284120614
0.04634475 0.0035019331 -0.0040085185 4284186149
0.048486568 0.0029265396 -0.0037115384 4284185894
0.050166637 0.0037652589 -0.0047844648 4284185638
0.052313603 0.0031904392 -0.0044883583 4284251684
0.053988095 0.0040289722 -0.0055600088 4284251683
0.05638171 0.0027484186 -0.0045819692 4284186149
0.058297485 0.0028808564 -0.0049705859 4284251939
0.060953785 0.00089566037 -0.0033138003 4284251938
0.062627763 0.0017345287 -0.0043850597 4284251428
0.065305158 -0.0002489835 -0.0027324613 4284250919
0.071312293 -0.011400942 0.0077587152 4284119594
0.0052155703 0.0027655996 -0.00047625136 4283134018
0.0069390908 0.0036072843 -0.0015580989 4283791663
0.0086573213 0.0044486858 -0.0026387367 4283858219
0.010909587 0.0031517558 -0.0016369913 4283924008
0.013172582 0.0018557049 -0.00063739438 4283989798
0.01544632 0.00056044757 0.00036013499 4284054823
0.017355161 0.00069030747 -2.8677285e-05 4284119338
0.019073514 0.0015322752 -0.0011089873 4284119339
0.020786526 0.0023739375 -0.0021880958 4284118574
0.022494182 0.0032153241 -0.0032660384 4283986993
0.024593517 0.0026336499 -0.0029629879 4284119339
0.026899396 0.0013412014 -0.0019715317 4284053803
0.02901208 0.0007606484 -0.0016710367 4283987249
0.031130085 0.00018056855 -0.001371542 4283921458
0.032834951 0.001022283 -0.0024485234 4283856178
0.034534421 0.0018637367 -0.0035243314 4283987248
0.036228474 0.0027049445 -0.0045990087 4284316709
0.037917126 0.0035458617 -0.005672453 4284447778
0.040480115 0.0015467368 -0.0040024538 4284382753
0.042391241 0.0016780905 -0.0043907072 4284317474
0.044302292 0.0018095486 -0.0047788676 4284317729
0.046213258 0.0019410811 -0.0051669423 4284317474
0.048124127 0.0020727254 -0.0055549126 4284251684
0.050034903 0.0022044666 -0.0059427861 4284382244
0.052417558 0.00091863796 -0.004965974 4284578594
0.05433346 0.0010509156 -0.0053547435 4284709153
0.05624925 0.0011832826 -0.0057434142 4284578338
0.057920896 0.0020240135 -0.0068126563 4284708898
0.0057739019 -0.0016456209 0.0011480553 4283525699
0.0075081848 -0.00080103055 6.5668486e-05 4284248113
0.0094140992 -0.00067177787 -0.00032285415 4284248878
0.011499666 -0.001257319 -1.9162893e-05 4284380968
0.013955146 -0.0032717027 0.0016665868 4284446249
0.016056823 -0.0038559027 0.0019671069 4284380969
0.017788613 -0.0030110069 0.00088567659 4284380204
0.019134449 -0.00073811039 -0.0015744437 4284445994
0.020850183 0.00010595098 -0.0026524868 4284510763
0.022756234 0.00023594871 -0.0030404795 4284379693
0.036741167 -0.00098875538 -0.003699027 4284640813
0.037315812 -0.017014716 -0.0070972331 4284706603
0.045041941 -0.01648343 -0.0086666383 4284380204
0.048105754 -0.019984651 -0.0057039075 4283921713
0.053258747 -0.030024018 0.0032873144 4283856433
-0.015950024 -0.016984779 -0.0024450682 4284639284
0.019609628 -0.019047733 -0.0054073911 4283268148
0.021730227 -0.019647736 -0.0051237065 4282350913
0.023467747 -0.018784698 -0.0061928201 4281696584
0.025199922 -0.017921958 -0.0072607212 4281565769
0.026727175 -0.016328584 -0.0090022143 4281565513
0.02864817 -0.016197216 -0.0093929861 4281370948
0.030978948 -0.017526742 -0.0084362812 4281044803
0.033112817 -0.018125106 -0.0081548057 4281240644
0.035252001 -0.01872303 -0.0078742839 4281371459
0.037396479 -0.019320432 -0.0075947866 4281698368
0.039546255 -0.019917358 -0.0073162802 4281762628
0.041483037 -0.019784208 -0.0077097267 4281501253
0.043419749 -0.01965097 -0.0081030801 4281435973
0.045580022 -0.02024683 -0.0078264512 4281370438
0.049329743 -0.025945555 -0.0028653564 4281631559
-0.045438252 -0.015276093 -0.0025894791 4284312373
-0.043547675 -0.015150841 -0.0029771379 4284247603
-0.041656904 -0.015025463 -0.0033647562 4283985974
-0.039765917 -0.01489998 -0.0037523429 4283855158
-0.038097017 -0.013296377 -0.0055222395 4283659318
-0.036211006 -0.013171021 -0.0059086527 4283594293
-0.034208342 -0.013784189 -0.0056049465 4283397433
-0.032200173 -0.014396895 -0.0053022928 4283136059
-0.030430116 -0.013532568 -0.006378667 4282549048
-0.028665237 -0.012668464 -0.0074538877 4282156093
-0.026651226 -0.013280462 -0.0071521881 4281828928
-0.024372041 -0.015367556 -0.005476817 4281631558
-0.022341698 -0.015978251 -0.0051782983 4281762884
-0.020305865 -0.01658849 -0.0048808339 4281958979
-0.018264547 -0.017198283 -0.0045843534 4281959233
-0.016358279 -0.017070521 -0.0049741059 4282351424
0.019478822 -0.020620968 -0.0065754466 4282548028
0.021216394 -0.019755919 -0.0076429695 4281828164
0.023142641 -0.019624528 -0.0080350582 4281435719
0.025068877 -0.019493017 -0.0084270593 4281304903
0.027393859 -0.020827558 -0.0074726325 4281174854
0.029123355 -0.019962545 -0.0085381884 4281174853
0.031256936 -0.020563249 -0.0082583614 4280783939
0.032981023 -0.019698378 -0.0093226396 4280457538
0.035119884 -0.020298477 -0.0090436973 4280848963
0.037264042 -0.020898063 -0.0087657869 4281632834
0.039413493 -0.021497171 -0.0084888637 4281567809
0.041568235 -0.022095796 -0.0082129315 4281566533
0.043728262 -0.022693951 -0.0079379827 4281305414
0.045893572 -0.023291666 -0.0076639801 4281174598
0.049873151 -0.029738698 -0.0020491714 4281501253
-0.045461953 -0.017561767 -0.0030449722 4282089539
-0.043774717 -0.015952904 -0.0048156059 4281959998
-0.041781113 -0.016569275 -0.0045120283 4281896503
-0.03978198 -0.01718523 -0.0042094681 4281895993
-0.037888259 -0.017059479 -0.0045975554 4281504058
-0.035880737 -0.017674636 -0.0042966027 4281568573
-0.033983991 -0.01754849 -0.0046851635 4281763903
-0.031968094 -0.018162888 -0.0043857787 4281829183
-0.030311629 -0.016555388 -0.0061495095 4281372733
-0.028541371 -0.015688729 -0.0072242408 4281175618
-0.026395328 -0.017042752 -0.0062389444 4280979779
-0.02449777 -0.01691604 -0.0066272686 4280783428
-0.022467732 -0.017528947 -0.0063303635 4281175364
-0.020432211 -0.018141393 -0.0060345028 4281436229
-0.018253528 -0.019492786 -0.005055543 4281501763
-0.016204387 -0.020104114 -0.0047623124 4281894974
0.01934805 -0.022193898 -0.0077432767 4282156348
0.021276822 -0.022062447 -0.0081359763 4281501253
0.023011757 -0.021195296 -0.0092012137 4281174854
0.024937851 -0.021063793 -0.009593185 4280979013
0.027063124 -0.02166741 -0.0093135238 4280849219
0.029193737 -0.022270601 -0.0090348348 4280914753
0.031125123 -0.022138391 -0.0094276071 4280784194
0.033056475 -0.022006068 -0.0098202974 4281045313
0.034987785 -0.021873627 -0.010212891 4281110083
0.037344184 -0.02320971 -0.0092677362 4281306179
0.039711226 -0.024544951 -0.0083246753 4281240388
0.041653078 -0.024411436 -0.0087191276 4281305158
0.043815464 -0.025011633 -0.0084462762 4281305414
0.046206381 -0.026344877 -0.0075077866 4281435719
0.050415453 -0.033544566 -0.0012424933 4281566789
-0.045085564 -0.0228278 -0.00074301474 4281890384
-0.043384746 -0.021213729 -0.0025131516 4281370949
-0.041378081 -0.021831471 -0.002213886 4281306689
-0.039365895 -0.022448715 -0.0019157175 4281175873
-0.037458956 -0.022322115 -0.0023065358 4281175873
-0.035665281 -0.021452222 -0.0033847038 4281305924
-0.033644535 -0.022068601 -0.0030880608 4281175363
-0.031737052 -0.021941666 -0.0034787674 4281241154
-0.029829405 -0.021814618 -0.0038694199 4281110339
-0.027921602 -0.021687437 -0.0042600147 4281045058
-0.026013628 -0.021560144 -0.004650563 4280913988
-0.023976035 -0.022174854 -0.0043569617 4280979268
-0.022065111 -0.022047143 -0.0047479477 4281109573
-0.020154037 -0.021919321 -0.0051388908 4281370693
-0.018105328 -0.022532959 -0.0048473109 4281371714
-0.016191319 -0.022404704 -0.0052386709 4281698624
0.019593926 -0.025242854 -0.0075666537 4282156348
0.021336922 -0.024373103 -0.008631967 4281370694
0.023268228 -0.024241362 -0.0090250932 4281044038
0.025003182 -0.023371849 -0.010088611 4280979013
0.027329825 -0.024714943 -0.0091411285 4280849219
0.029263768 -0.024582673 -0.0095345229 4280849473
0.031402044 -0.025187347 -0.0092589967 4281175619
0.033131566 -0.024317782 -0.010321006 4281241154
0.035484824 -0.025658522 -0.0093786195 4281371459
0.037848748 -0.026998464 -0.0084382752 4281305924
0.040008251 -0.027601216 -0.0081667015 4281305924
0.041955307 -0.027467322 -0.0085622082 4281305414
0.0439023 -0.027333338 -0.0089576179 4281371203
0.046295382 -0.028670762 -0.0080228718 4281500998
0.050730914 -0.036627684 -0.0011097509 4281370948
-0.044910714 -0.026622791 0.00016589556 4281826633
-0.043201648 -0.025003914 -0.0016025938 4281110339
-0.041187279 -0.02562331 -0.0013066297 4280979268
-0.039275311 -0.025496509 -0.0016985824 4280914754
-0.037363164 -0.025369596 -0.0020904886 4280914244
-0.035564102 -0.024497215 -0.0031681308 4280979014
-0.03365425 -0.024370242 -0.0035594054 4281109573
-0.031625621 -0.024988163 -0.0032659662 4281109573
-0.029712774 -0.024860796 -0.0036577084 4281174853
-0.027799755 -0.024733294 -0.004049391 4281240389
-0.025759943 -0.02535015 -0.0037579914 4281174853
-0.023973256 -0.024477948 -0.004832611 4281174854
-0.021927804 -0.0250942 -0.0045421966 4281240389
-0.020146176 -0.024222117 -0.0056156092 4281240644
-0.017820463 -0.026325341 -0.0039644507 4281371459
-0.016038559 -0.025453005 -0.0050377385 4281829439
-0.014261901 -0.02458087 -0.0061099161 4283658809
0.019462837 -0.026819546 -0.0087372744 4281698879
0.021396669 -0.02668776 -0.0091310041 4281305668
0.023330504 -0.026555825 -0.009524622 4281108809
0.025264334 -0.026423801 -0.0099181691 4280978759
0.027396979 -0.027031254 -0.0096433321 4280979013
0.029736452 -0.028377634 -0.008701724 4281175363
0.031882435 -0.028983977 -0.0084293643 4281371459
0.034240574 -0.030328836 -0.007491366 4281500999
0.036609367 -0.031672854 -0.0065554501 4281435465
0.038988832 -0.033016037 -0.0056215459 4281304904
0.040949177 -0.032881375 -0.0060198614 4281435974
0.042909462 -0.032746565 -0.0064180428 4281566534
0.04486968 -0.032611649 -0.0068161273 4281501509
0.047498532 -0.034690503 -0.0052238568 4281501508
0.051947929 -0.042670254 0.0016682204 4281435973
-0.044836588 -0.029682215 0.00037843827 4281827399
-0.043121956 -0.0280586 -0.0013879342 4281307198
-0.041102558 -0.028679896 -0.0010946365 4281176129
-0.039185375 -0.028552797 -0.0014876807 4281044549
-0.037268013 -0.028425571 -0.0018806858 4280848454
-0.035463572 -0.027550627 -0.0029578251 4280848454
-0.033664279 -0.026675973 -0.0040337932 4281174088
-0.03175173 -0.026548732 -0.0044255541 4281108808
-0.029839002 -0.026421394 -0.004817287 4281174344
-0.027678549 -0.027787637 -0.0038450053 4281109574
-0.025760166 -0.027659696 -0.0042377193 4281305158
-0.023970768 -0.026785109 -0.0053112847 4281109574
-0.021922953 -0.027403448 -0.0050229919 4281305413
-0.020004138 -0.027275149 -0.0054155462 4281305924
-0.017810903 -0.028638598 -0.0044495882 4281175364
-0.016026303 -0.027763929 -0.0055217845 4281959998
-0.014246911 -0.026889499 -0.0065928311 4284050488
0.01933177 -0.028395925 -0.0099076638 4281632579
0.021265456 -0.028264146 -0.010301364 4281304904
0.023199143 -0.028132234 -0.010694963 4281041998
0.025328796 -0.028742176 -0.010421255 4280846413
0.027265139 -0.028609846 -0.010815215 4280911949
0.029805435 -0.030702222 -0.0092106285 4281173578
0.032565732 -0.033534754 -0.0069436664 4281500744
0.035554081 -0.037107024 -0.0040158345 4281369929
0.038778469 -0.041418355 -0.00042887218 4281434188
0.041398853 -0.043504748 0.0011598039 4281434445
0.043605834 -0.044108536 0.0014184471 4281434444
0.045383371 -0.043230865 0.00035034306 4281631048
0.047375537 -0.04309373 -5.4212287e-05 4281631813
0.050035767 -0.045176852 0.0015266966 4281892933
-0.044962257 -0.031248789 -0.00078584347 4281761353
-0.043349653 -0.028870437 -0.0032337001 4281633854
-0.04112339 -0.030994628 -0.0015731277 4281306179
-0.039311245 -0.030117285 -0.0026503289 4281176129
-0.037283763 -0.030739989 -0.0023602443 4281239624
-0.035363682 -0.03061251 -0.0027537467 4281043528
-0.033559009 -0.029735353 -0.0038291821 4281173323
-0.031759508 -0.028858375 -0.0049035018 4281173578
-0.029965185 -0.027981687 -0.0059766443 4281109063
-0.028052442 -0.02785426 -0.0063683065 4281174344
-0.026139542 -0.027726706 -0.0067599234 4281240134
-0.024355434 -0.026850384 -0.0078307288 4281044038
-0.022181675 -0.028219711 -0.0068642823 4281174854
-0.020131372 -0.028839957 -0.0065780757 4281305669
-0.017801657 -0.0309559 -0.0049377354 4281109828
-0.016153976 -0.029330973 -0.0066859117 4281828673
-0.014374569 -0.028454389 -0.0077553233 4283854139
0.017082104 -0.029358778 -0.011351862 4284115769
0.01901296 -0.029227305 -0.011745066 4280974423
0.021324707 -0.030584719 -0.010804799 4280843863
0.023260919 -0.03045265 -0.01119892 4280451674
0.025197128 -0.030320439 -0.011592937 4280253793
0.029874058 -0.033030841 -0.0097225988 4280449634
-0.044690274 -0.035826262 0.00078469329 4281891913
-0.042862445 -0.034945954 -0.00029425044 4281893699
-0.040620826 -0.037075605 0.0013581477 4281568573
-0.038577817 -0.037699576 0.0016432945 4281437248
-0.036639355 -0.037571002 0.0012459308 4281109318
-0.034700714 -0.0374423 0.00084860995 4281043018
-0.032877304 -0.036561746 -0.00022901595 4281107279
-0.031413317 -0.033426765 -0.0033449917 4281172559
-0.029849797 -0.031044494 -0.0057772296 4281107534
-0.028178707 -0.029414292 -0.0075274473 4280776798
-0.0040280595 0.020120777 0.030548945 4279452584
-0.053989835 0.02761705 0.025934786 4278537389
-0.051928021 0.026374662 0.027026877 4279848598
-0.0080810785 0.027245941 0.02033487 4279583399
-0.0069641247 0.030771391 0.016321849 4278599863
-0.00444673 0.028181436 0.018836245 4278599608
0.0011444315 0.020969301 0.026022747 4279191719
0.0034012198 0.019742012 0.027076446 4279194524
-0.057953849 0.026514433 0.024822131 4278470834
-0.0566817 0.031443529 0.019273479 4278271679
-0.053059392 0.032376893 0.017776228 4278338743
-0.050733961 0.029071482 0.021077339 4278864553
-0.048478402 0.026453614 0.023637287 4279061668
-0.047096826 0.030006194 0.019577328 4280238749
-0.0091268048 0.029785778 0.014838039 4280893843
-0.007869415 0.032639403 0.011559998 4279847833
-0.0055246204 0.030721221 0.013347593 4278537389
-0.003002584 0.028122926 0.015854437 4278668203
-0.00029528141 0.024845036 0.019078869 4278669223
0.0016067699 0.024973763 0.018690929 4278867614
-0.061749421 0.024039607 0.025186367 4279325338
-0.060517214 0.029675335 0.018903621 4278537643
-0.058910951 0.031864859 0.01631318 4278733483
-0.057234488 0.03336484 0.014462219 4279062178
-0.055391155 0.033487514 0.014084664 4278538409
-0.053547576 0.033610277 0.013707117 4278864299
-0.049086392 0.028353594 0.018823843 4279126949
-0.04771737 0.031916156 0.014774724 4279845284
-0.008150734 0.031794101 0.0097023817 4278469813
-0.0059674606 0.03055281 0.010764257 4278405044
-0.0010777935 0.026022783 0.015042433 4278472364
0.00081343949 0.026150756 0.014656681 4278932384
-0.06218455 0.025266165 0.02109848 4279849618
-0.060961708 0.030918648 0.014830851 4278340274
-0.057699628 0.034617543 0.010401896 4278865574
-0.055867068 0.034739442 0.010026504 4278602159
-0.051825956 0.032222778 0.012207341 4279059629
-0.049692512 0.030275671 0.014026803 4278995369
-0.048137739 0.032468569 0.011452177 4278666163
-0.0016954392 0.026532786 0.011737854 4278669224
0.00035373867 0.025974832 0.012071918 4278866849
-0.062773421 0.02789736 0.015554546 4279784338
-0.052135341 0.032097422 0.0096226903 4278668204
-0.050007857 0.030143287 0.011438386 4278799019
-0.04845798 0.032342374 0.0088696619 4278337978
-0.010268375 0.028614903 0.0078157606 4279388834
-0.0087121539 0.030117322 0.0059974017 4278996134
-0.0066930056 0.029554952 0.0063356915 4278865574
-0.004347343 0.027617244 0.0081081549 4278668968
-0.00214874 0.026368445 0.0091602961 4278603689
6.0662627e-05 0.025120445 0.010210291 4278801823
-0.062895477 0.026381293 0.014427912 4280373643
-0.061525784 0.030676691 0.0096543273 4278341293
-0.059856772 0.032188985 0.0078146765 4278734504
-0.058283642 0.034395769 0.0052458858 4278800039
-0.056373805 0.03382194 0.0056033665 4278405808
-0.054458395 0.03324854 0.0059597539 4278602414
-0.052443944 0.031980991 0.0070447335 4278602923
-0.050418556 0.030714279 0.008127478 4278733483
-0.048579849 0.030836741 0.0077509442 4278272954
-0.010241427 0.026398068 0.007399817 4279126438
-0.0071337447 0.029411355 0.0037706904 4278402493
-0.005114764 0.028846819 0.0041074455 4278270914
-0.0027643144 0.026903003 0.0058739437 4278798254
-0.00039769709 0.02496033 0.0076372558 4278867358
0.0018166751 0.023708383 0.0086829672 4279393424
-0.063171953 0.026261041 0.011838823 4281159808
-0.061726704 0.029871522 0.0078068106 4278538153
-0.060142688 0.032085434 0.0052406797 4278865574
-0.05658228 0.033024795 0.0037639113 4278273973
-0.054669797 0.032448974 0.0041191941 4278667438
-0.052658454 0.031176809 0.0052014431 4279192229
-0.050540224 0.029208938 0.0070089391 4278733994
-0.048405729 0.027242173 0.008813194 4278405044
-0.046254963 0.025276603 0.01061413 4280827799
-0.010671191 0.026255468 0.0048328452 4278732719
-0.0075737014 0.02927673 0.0012124181 4279124398
-0.00085529685 0.024809215 0.0050709033 4278801314
0.0015214458 0.022860799 0.0068271654 4278737308
-0.063293472 0.024749799 0.010715735 4281553273
-0.056965843 0.033630848 0.00047284085 4278337213
-0.052965641 0.031076195 0.0026351269 4278537134
-0.050853387 0.029101294 0.0044388538 4278733739
-0.048527949 0.025730437 0.0076899091 4278339763
-0.046377808 0.023758244 0.009485946 4280695964
-0.012809005 0.025301471 0.0033668261 4282728059
-0.0097058676 0.028331621 -0.0002482608 4279585694
-0.0083275102 0.030540384 -0.0027657477 4278997664
-0.0064851716 0.030664798 -0.0031417198 4278734758
-0.0044800788 0.030095046 -0.0028054724 4278603688
-0.0019735172 0.027443483 -0.00033535622 4278866849
0.00055454671 0.024793459 0.0021304395 4278605983
-0.063722514 0.026047498 0.0066805473 4279456153
-0.062445492 0.03108304 0.0012118705 4278537388
-0.060712136 0.031905212 0.00011267886 4278602923
-0.059068769 0.033428755 -0.0017118286 4279062944
-0.057173073 0.032847289 -0.0013565598 4278407594
-0.053272039 0.030984513 7.5507909e-05 4278405554
-0.051261328 0.029703613 0.0011511697 4278864299
-0.048944905 0.026321219 0.0043957122 4278667438
-0.046601519 0.022940695 0.0076347953 4280236963
-0.013381056 0.025872456 9.7163953e-05 4282532729
-0.0087655894 0.030428121 -0.0053074239 4278275504
-0.0024288781 0.027319124 -0.0028818538 4278997664
-0.063996606 0.025954157 0.0041113999 4279783829
-0.062723778 0.0310046 -0.001344827 4278471599
-0.059187904 0.031948388 -0.0028119441 4278799018
-0.057379887 0.032068327 -0.0031825602 4278603433
-0.05166816 0.030319283 -0.002126608 4278929834
-0.049262613 0.026222391 0.0018335283 4278667693
-0.046824783 0.022127755 0.005787055 4279712173
-0.014100898 0.027156353 -0.0038742274 4279585184
-0.012562253 0.028679153 -0.0056725265 4278799019
-0.010879949 0.029502148 -0.0067580361 4278275248
-0.0073714815 0.030448552 -0.0082162255 4278276269
-0.0055399761 0.03057228 -0.0085899495 4278996899
-0.0032134429 0.028600715 -0.0068384535 4278735269
-0.0012060925 0.028026905 -0.0065058842 4278998939
-0.064346455 0.026576398 0.00082407705 4280570759
-0.063001268 0.030935135 -0.0038948688 4278603944
-0.054160185 0.032944627 -0.0071883937 4278669479
-0.052073829 0.030948279 -0.0053944234 4278406828
-0.049677461 0.02683771 -0.001442465 4278340784
-0.014224302 0.025651075 -0.0049922774 4278865574
-0.012533993 0.02647667 -0.006077847 4278603943
-0.01069485 0.02660064 -0.0064533404 4278997153
-0.0090123676 0.027425891 -0.0075371722 4279062688
-0.0071757063 0.027549865 -0.0079120286 4278866593
-0.0053389557 0.027673932 -0.0082868356 4278866084
-0.0030077249 0.025696175 -0.0065413439 4278735524
-0.00099529698 0.025120493 -0.006211427 4279195799
-0.06431327 0.0236683 0.0011625784 4281028993
-0.063119881 0.029457539 -0.0049930029 4278604199
-0.061478637 0.030993799 -0.0068073287 4278473384
-0.059679069 0.031112995 -0.0071763513 4278604198
-0.057792194 0.030524258 -0.0068243816 4278669989
-0.055899739 0.029935919 -0.0064734621 4278735014
-0.054094091 0.030055745 -0.0068435566 4278604199
-0.052098095 0.028760668 -0.0057749595 4278604199
-0.049797937 0.02534442 -0.0025521079 4278866083
-0.015605621 0.02120569 -0.0028982004 4280961418
-0.014050528 0.02273817 -0.0046933126 4278801058
-0.012203578 0.022862546 -0.0050704908 4278473384
-0.010048687 0.021579932 -0.0040329965 4278277034
-0.0083527602 0.022408228 -0.0051179407 4278276524
-0.0065028183 0.022533093 -0.0054955091 4278276524
-0.0048147328 0.023361061 -0.0065787006 4278408104
-0.00078520179 0.022205599 -0.0059233438 4278867358
-0.064356916 0.021462563 0.00077322684 4281291388
-0.063080661 0.026558716 -0.0046489635 4278604199
-0.061352283 0.027389031 -0.0057406598 4278342059
-0.059544794 0.027508704 -0.0061113439 4278800548
-0.057650171 0.026918251 -0.0057626669 4278997154
-0.055660427 0.02561822 -0.0046962551 4278866084
-0.053844199 0.025738688 -0.0050685643 4278538918
-0.051837951 0.024439849 -0.0040053832 4278538919
-0.049820796 0.023141868 -0.0029444145 4278800803
-0.047592252 0.020426001 -0.00045233406 4278800804
-0.045753755 0.020548247 -0.00082897767 4279259548
-0.043915041 0.020670597 -0.0012055989 4279848853
-0.042076118 0.020793043 -0.0015821978 4279456409
-0.0399042 0.018789709 0.00018456299 4279325083
-0.038056858 0.018912878 -0.0001936378 4279128733
-0.036209315 0.019036137 -0.00057182182 4278997408
-0.034480534 0.01986758 -0.0016627619 4279062943
-0.032513671 0.019282952 -0.0013281005 4279062944
-0.030914187 0.020821985 -0.0031296378 4278932128
-0.029071279 0.02094527 -0.0035066148 4279063199
-0.026968896 0.019653916 -0.002462294 4279325339
-0.024855666 0.018363409 -0.0014201775 4279194013
-0.023001581 0.018487714 -0.0017992342 4278801058
-0.021147341 0.018612117 -0.0021782555 4278735524
-0.01929298 0.01873662 -0.0025572339 4278603943
-0.017438464 0.018861212 -0.0029361793 4278669478
-0.015583836 0.018985912 -0.0033150758 4278670244
-0.013580691 0.018404607 -0.0029871552 4278473638
-0.011572074 0.017823718 -0.0026602391 4278604454
-0.0095580108 0.017243341 -0.0023344029 4278538919
-0.0076948963 0.017368972 -0.002714755 4278342314
-0.0058316812 0.017494716 -0.0030950462 4278342569
-0.0042919181 0.019030977 -0.0048834286 4278866594
-0.0022694431 0.018451486 -0.0045589893 4278605219
-0.00024155155 0.017872505 -0.0042356201 4278801824
-0.062648587 0.020086687 -0.00071427226 4279128988
-0.060901433 0.020920414 -0.0018082401 4278539174
-0.059159383 0.021753825 -0.0029010652 4278407849
-0.057249002 0.021162212 -0.0025573084 4278473129
-0.053411521 0.019980241 -0.0018730219 4278276779
-0.051389702 0.018678088 -0.0008164309 4278538664
-0.049454369 0.018088423 -0.0004775608 4278407594
-0.047413386 0.016787648 0.00057526305 4278408104
-0.045566969 0.016910397 0.00019697472 4278474149
-0.043720327 0.017033223 -0.00018130429 4278801569
-0.041873492 0.01715615 -0.00055956282 4278736289
-0.039915703 0.016568385 -0.00022498053 4278539683
-0.038065784 0.016691681 -0.00060374197 4278605218
-0.03633178 0.017525516 -0.0016941912 4278539684
-0.034484155 0.017648827 -0.0020723538 4278539429
-0.032393463 0.016352084 -0.0010292428 4278604964
-0.030540131 0.016475953 -0.0014084363 4278474149
-0.028559841 0.015890196 -0.0010780748 4278605219
-0.026703499 0.016014453 -0.0014577452 4278669988
-0.024714857 0.015429392 -0.001128912 4278539429
-0.022990361 0.016263239 -0.0022169957 4278539684
-0.021133557 0.016387787 -0.0025965618 4278538918
-0.019276612 0.016512427 -0.0029760911 4278670244
-0.017276697 0.015928488 -0.0026492849 4278604454
-0.015271287 0.015345052 -0.0023235707 4278539174
-0.013408612 0.015470359 -0.0027040541 4278735779
-0.011244081 0.014179554 -0.0016752817 4278670244
-0.0092222728 0.013597447 -0.0013526706 4278670244
-0.0071950145 0.013015855 -0.0010311352 4278473639
-0.0053212084 0.013142284 -0.0014136098 4278604709
-0.003770493 0.01468363 -0.0032009091 4278801314
-0.0019018725 0.014809903 -0.0035821786 4278670244
-3.3177435e-05 0.01493628 -0.003963389 4279194778
0.002514042 0.01223534 -0.001541377 4280047244
-0.06245444 0.015729714 0.0010444857 4279260058
-0.060615346 0.0158513 0.00066718459 4278735779
-0.058775991 0.015972987 0.00028989464 4278735524
-0.056936398 0.016094755 -8.739531e-05 4278408104
-0.055007353 0.01550217 0.00025093183 4278342569
-0.053164616 0.0156243 -0.00012688339 4278342569
-0.051132567 0.014318429 0.00092425477 4278277034
-0.049284033 0.014441106 0.00054537039 4278277034
-0.047335379 0.013850186 0.00087987538 4278539174
-0.045483723 0.013973225 0.00050047319 4278735779
-0.043737084 0.014809694 -0.00059119333 4278735779
-0.041887663 0.014932759 -0.00097000133 4278932384
-0.039816916 0.013629939 7.3574483e-05 4278670243
-0.037961759 0.013753559 -0.00030628219 4278604708
-0.036106415 0.013877269 -0.00068611838 4278539429
-0.034369476 0.014713515 -0.0017754743 4278342824
-0.032395169 0.014124971 -0.0014457069 4278473639
-0.030415326 0.013536859 -0.0011169557 4278604708
-0.02842997 0.012949239 -0.00078931171 4278539173
-0.026568405 0.013073795 -0.0011700885 4278670243
-0.024706654 0.013198469 -0.0015508235 4278473638
-0.022979409 0.014034607 -0.0026377831 4278670243
-0.021120057 0.014159296 -0.0030178959 4278539173
-0.019260556 0.014284093 -0.0033979611 4278408104
-0.017115586 0.012987323 -0.0023687407 4278473639
-0.015250482 0.013112675 -0.0027498147 4278473638
-0.013237223 0.012527663 -0.0024273144 4278408359
-0.011067796 0.011232764 -0.0014028391 4278473894
-0.0090409443 0.010648854 -0.0010829698 4278473894
-0.0071646795 0.010775343 -0.0014660284 4278473894
-0.0051295906 0.010192178 -0.001147694 4278735778
-0.0034118667 0.011028618 -0.0022319909 4278539173
-0.0013712645 0.010446016 -0.0019146362 4278473638
0.00050802529 0.010573108 -0.0022980096 4278867104
0.0027262457 0.0092821792 -0.0012829788 4280376704
-0.062339939 0.012072772 0.0020743413 4279390619
-0.06049294 0.012194831 0.0016953805 4278997664
-0.058645673 0.012316979 0.0013164217 4278801313
-0.05688452 0.013155993 0.0002229847 4278342824
-0.054950424 0.012561563 0.00055853557 4278473638
-0.053102441 0.012683999 0.00017961022 4278604708
-0.051065497 0.01137406 0.0012263898 4278539173
-0.049114682 0.010780934 0.0015587341 4278277034
-0.047158293 0.010188311 0.0018899646 4278735779
-0.045401119 0.011027534 0.00079770572 4278473639
-0.043543994 0.01115099 0.00041722506 4278408104
-0.041686684 0.01127452 3.6751851e-05 4278539174
-0.039829157 0.01139817 -0.00034368411 4278604708
-0.037858389 0.010806918 -1.5089288e-05 4278473638
-0.035997793 0.010930941 -0.0003960263 4278670499
-0.034255438 0.011769693 -0.0014848504 4278473894
-0.032276072 0.011179283 -0.0011578072 4278735778
-0.030291177 0.010589335 -0.00083182193 4278539173
-0.028300762 0.0099998452 -0.00050689932 4278539173
-0.026563063 0.010838646 -0.0015944969 4278801313
-0.024566978 0.010249715 -0.0012705969 4278670754
-0.022834316 0.011088356 -0.002357034 4278801824
-0.020969726 0.011213373 -0.0027382299 4278604708
-0.018965185 0.010625284 -0.0024158489 4278539174
-0.016955145 0.010037627 -0.0020944644 4278539174
-0.015084796 0.010163311 -0.0024766251 4278408103
-0.012918644 0.0088637844 -0.001454927 4278473894
-0.010892197 0.0082775541 -0.0011367239 4278604964
-0.0088602901 0.0076917894 -0.00081956293 4278604964
-0.0069787875 0.0078186132 -0.0012037056 4278408359
-0.0050971955 0.0079455413 -0.0015877932 4278604964
-0.0032155141 0.0080725662 -0.001971826 4278670754
-0.0011698455 0.0074880756 -0.0016571386 4278670499
0.00088124722 0.0069040917 -0.0013435185 4278802078
0.0029377565 0.0063205846 -0.0010309257 4281097844
-0.062460937 0.010561429 0.00095104333 4279390619
-0.060614027 0.010683428 0.00057206023 4278669989
-0.058599837 0.0093672834 0.0016199183 4278866848
-0.056833275 0.010208774 0.00052699167 4278604964
-0.054982968 0.010331232 0.00014748704 4278670499
-0.053132415 0.010453787 -0.00023200084 4278408359
-0.051187441 0.0098580234 9.9750236e-05 4278670243
-0.049333759 0.009980958 -0.00028025173 4278735778
-0.04747986 0.010103974 -0.00066024624 4278342568
