# .PCD v0.7 - Point Cloud Data file format
VERSION 0.7
FIELDS x y z rgba
SIZE 4 4 4 4
TYPE F F F U
COUNT 1 1 1 1
WIDTH 971
HEIGHT 1
VIEWPOINT 0 0 0 1 0 0 0
POINTS 971
DATA ascii
0.015416689 -0.037734553 -0.0034266831 4288099124
0.018028544 -0.039854005 -0.0018915767 4287641144
-0.0048985668 -0.031572178 -0.0086485632 4287379004
-0.0027447753 -0.032189392 -0.0084173828 4287248698
-0.00058560073 -0.032806084 -0.0081872614 4287772469
0.0015789717 -0.033422321 -0.0079581859 4288230958
0.0033798292 -0.032521658 -0.0090475651 4288950823
0.0059242174 -0.034653135 -0.0075032907 4287707189
0.0079150219 -0.034510009 -0.0079349475 4287772468
0.010483455 -0.036639482 -0.0063956724 4287641653
0.012872692 -0.038010255 -0.0055161687 4288426543
0.01527261 -0.039380148 -0.0046388814 4287968309
0.017883727 -0.041506141 -0.0031085582 4287313978
-0.01278352 -0.034517564 -0.0074623087 4286594368
-0.011301138 -0.032091409 -0.0098757446 4287445048
-0.0093295947 -0.031950712 -0.010304011 4287773233
-0.0073579624 -0.031809866 -0.010732204 4288231214
-0.005038891 -0.03319113 -0.0098415315 4287576373
-0.0030617975 -0.033049643 -0.010270715 4287641909
-0.00072661787 -0.034429424 -0.0093833767 4287772979
0.0016192794 -0.035808355 -0.0084982412 4287969329
0.003791526 -0.036426038 -0.0082724141 4288557614
0.0059691481 -0.037043184 -0.0080476413 4287641654
0.0079624653 -0.036899894 -0.0084798494 4287510584
0.010148145 -0.037516192 -0.0082566226 4287248698
0.012339186 -0.038132027 -0.0080344351 4287771704
0.014535557 -0.038747311 -0.0078133391 4286659393
-0.012434848 -0.038430467 -0.0066765221 4287052859
-0.010944068 -0.035997197 -0.0090868296 4287510583
-0.0093010217 -0.034328654 -0.010834645 4287904304
-0.0073268786 -0.034187637 -0.011263374 4287707443
-0.0050056837 -0.035573028 -0.010376506 4287772979
-0.0028499365 -0.036194459 -0.010149063 4287576628
-0.00068877637 -0.03681539 -0.009922632 4287576373
0.0014777482 -0.037435785 -0.009697319 4288034864
0.0034654997 -0.037293136 -0.010128503 4288099378
0.0056401044 -0.037912682 -0.0099047432 4287248698
0.0076305866 -0.037769593 -0.01033634 4286659904
0.0096211042 -0.037626348 -0.010767822 4286528579
-0.01273787 -0.039291218 -0.0085340338 4286725439
-0.011084035 -0.037617661 -0.010281038 4286921788
-0.0094407648 -0.035944752 -0.012025603 4287706679
-0.0074667931 -0.035803773 -0.012454317 4287445048
-0.0051461346 -0.037193544 -0.011570637 4287445049
-0.0029907227 -0.037817143 -0.011344739 4287183419
-0.00082992017 -0.038440287 -0.011119899 4286986814
0.0013362542 -0.039062887 -0.010896166 4286463299
0.0033238418 -0.038920254 -0.011327324 4286789954
-0.013202965 -0.039378904 -0.011045032 4286398529
-0.011554226 -0.037701406 -0.012787589 4286463809
-0.0099160783 -0.036024511 -0.014527799 4287510074
-0.0077771321 -0.036651745 -0.014300202 4287052093
-0.005286552 -0.038813755 -0.012764529 4287182908
-0.0031314939 -0.039439574 -0.012540233 4286986303
0.040530562 0.0072047636 0.038065396 4280328254
0.034961328 0.0093573257 0.033502601 4281176129
0.035187095 0.015006602 0.027454855 4281111869
0.036281429 0.017902464 0.024218677 4281046589
0.039889932 0.013235368 0.028686984 4280720443
0.024261199 0.0083408207 0.033064052 4279934534
0.026494645 0.0077959076 0.033328585 4279999813
0.028947715 0.0065607056 0.034293935 4280457029
0.030543577 0.0080886856 0.032451965 4281240134
0.031909104 0.010306314 0.029911766 4281241919
0.032369342 0.015283659 0.024574677 4280590648
0.033242092 0.018878382 0.020644834 4280719933
0.034998663 0.019712068 0.019516623 4281632323
0.038131714 0.016407847 0.022579825 4281502274
0.042922314 0.0082797632 0.030521872 4281176638
0.019054113 0.002772592 0.03666997 4282744378
0.019258438 0.0091628805 0.029906252 4281634109
0.019208614 0.016243324 0.022451086 4281046844
0.020566661 0.018466614 0.019917144 4281306433
0.022965834 0.017223056 0.02089077 4279742518
0.026017956 0.013901509 0.023962768 4279547698
0.028663229 0.01196751 0.025629817 4281176638
0.030227274 0.013497651 0.023798132 4281307198
0.031336389 0.016411856 0.020571901 4281176893
0.032199308 0.020016786 0.016652482 4280004403
0.034172725 0.020159904 0.016225545 4279808563
0.037066568 0.017535936 0.01858571 4279808563
0.041145664 0.011455595 0.024422185 4279612724
0.045979135 0.0033045709 0.032335155 4280654143
0.014498368 0.00930994 0.027454628 4283075368
0.015297921 0.013630971 0.022811601 4281961528
0.016675135 0.015861958 0.020278389 4280853043
0.017624531 0.019483354 0.016348017 4281307453
0.019172911 0.021016341 0.014522752 4281632834
0.021555554 0.01976724 0.015496647 4281111614
0.024804477 0.015738428 0.01926267 4280459833
0.027652275 0.01310192 0.021625789 4281111869
0.029644407 0.013246126 0.021194598 4281307199
0.030970749 0.015474156 0.018672878 4281307198
0.032056436 0.018395491 0.015458426 4281111358
0.03380248 0.019232813 0.014335835 4281111358
0.036692765 0.016599864 0.016690141 4281111360
0.040069528 0.012580998 0.020429013 4280915775
0.043007728 0.0099517405 0.022773108 4280915519
0.047632761 0.0024702623 0.029966464 4281175619
0.013953002 0.01618883 0.017410139 4281962803
0.015517674 0.017727118 0.015584553 4280852789
0.016865965 0.019962694 0.013062611 4280266543
0.018406598 0.021499496 0.011242343 4280070704
0.020569686 0.020942945 0.011517214 4279743539
0.024020361 0.016202852 0.015972851 4280394808
0.026859257 0.013557002 0.018331291 4281241408
0.029062314 0.013003677 0.018597679 4281176639
0.03060551 0.014541112 0.016777286 4281307199
0.03213796 0.016077906 0.014959237 4281242684
0.034113813 0.016221233 0.014531797 4281177404
0.036778815 0.014276095 0.016185017 4281112124
0.039227366 0.013028197 0.017141933 4280915518
0.040746201 0.014564395 0.015327135 4279025714
0.043918498 0.011230662 0.018357245 4278829108
0.050242767 -0.0011413395 0.030367421 4280066623
0.01381143 0.014570303 0.016217826 4283273503
0.014970675 0.017513607 0.013000116 4281309749
0.01631408 0.019755375 0.010484198 4280850749
0.018266005 0.019896287 0.010061421 4280655163
0.020639624 0.018637817 0.011030644 4281176893
0.023450948 0.015981153 0.013388343 4281372479
0.025635034 0.015424192 0.013657121 4281372223
0.028043285 0.014168568 0.014619028 4281372223
0.030240659 0.013612717 0.014885122 4281112124
0.032443315 0.013057396 0.015150102 4281307964
0.034651257 0.012502566 0.015414024 4281242684
0.036864478 0.011948213 0.01567688 4281242429
0.038154136 0.014187045 0.013173401 4280785468
0.039192814 0.017122824 0.0099826958 4280653633
0.041397799 0.016568169 0.010247551 4280978249
0.046250448 0.0083403513 0.018096911 4280457284
0.054081719 -0.0082515553 0.03420072 4279348798
-0.013261765 0.0081528053 0.023829168 4284704563
0.013469905 0.013654731 0.014329085 4284642854
0.015032418 0.015201628 0.01251056 4282553640
0.01658427 0.01674781 0.010694459 4280981054
0.018749397 0.016186997 0.010965455 4280915773
0.020709202 0.016328588 0.010541052 4281046079
0.022668984 0.016470283 0.010116737 4281176638
0.024412753 0.0173136 0.0089993253 4280525623
0.026588481 0.016753964 0.009268336 4279678768
0.029433528 0.014091335 0.011612345 4280069683
0.032075882 0.012131318 0.013260404 4281242429
0.03428084 0.011574082 0.013523309 4281373244
0.03557368 0.013819642 0.011024008 4281307964
0.036850452 0.016064093 0.0085282978 4278767144
0.03811112 0.018307511 0.0060361065 4281046079
0.040305115 0.017749894 0.0063016992 4281632068
0.043944515 0.012993976 0.010694141 4281371458
0.050048113 0.0012449175 0.021952583 4281241153
0.057714537 -0.014693901 0.037312508 4281110848
-0.018415663 0.0018542632 0.028150575 4282218824
-0.017676465 0.0076599866 0.022082383 4283920693
0.016853701 0.0137318 0.010898426 4281961784
0.019023862 0.013169125 0.011166716 4281307199
0.020567942 0.01471936 0.0093557332 4281110594
0.021888193 0.016972825 0.0068550017 4280719933
0.023192417 0.01922521 0.0043578763 4279613488
0.025572948 0.017958868 0.0053191632 4279744814
0.028627563 0.014583372 0.0083494671 4278962474
0.031261206 0.012616202 0.0099944398 4281047099
0.033231355 0.012759149 0.0095682628 4281372988
0.034513976 0.015010506 0.0070761498 4281242685
0.035548698 0.017963376 0.0038995072 4280656949
0.037265468 0.018807635 0.0027901437 4279157039
0.039451145 0.018247254 0.0030558873 4280198969
0.04284123 0.014177389 0.0067524444 4280263484
0.047233239 0.0073028132 0.013185291 4280395064
0.053149521 -0.0037773401 0.023717979 4281045569
-0.027399562 0.0039143413 0.0244445 4282155329
-0.026590198 0.0097420365 0.018373983 4279808563
-0.024781145 0.010591835 0.017243778 4280261188
-0.022825751 0.010730848 0.016818611 4280525878
-0.020870205 0.01086998 0.016393492 4281765689
0.016917471 0.011413954 0.010403937 4283009578
0.018674757 0.012262352 0.0092866458 4281569338
0.020006165 0.014523014 0.0067884345 4281176383
0.021108586 0.017488781 0.0036032237 4281046588
0.022836473 0.018335331 0.0024925824 4281502784
0.024777269 0.018475872 0.0020725392 4281307453
0.02804373 0.014383286 0.0057853088 4280785978
0.030447695 0.013114519 0.006738387 4280981563
0.032636017 0.012551725 0.0070016515 4281307454
0.033684798 0.015514232 0.0038285274 4281242173
0.03517542 0.017065771 0.0020330474 4281046589
0.036655296 0.018616594 0.00024002045 4280916284
0.039072283 0.017349288 0.001190668 4280524858
0.04221876 0.013970301 0.0041933805 4280915264
0.045876458 0.0091853514 0.0085587855 4281241665
0.050551299 0.0015881062 0.015650572 4281501763
0.05776117 -0.013040729 0.029560054 4281501763
-0.032186717 0.0055763945 0.02058165 4281824849
-0.031346962 0.011423439 0.014517589 4281110594
-0.029976249 0.014414452 0.011278747 4281437504
-0.028480701 0.01669094 0.0087480005 4280589628
-0.026406214 0.016114831 0.0090319719 4280848964
-0.024174884 0.014826506 0.010017052 4280329528
-0.021624666 0.012113996 0.012403175 4281374264
-0.019836485 0.01296477 0.011279374 4281964333
0.017703826 0.013486274 0.0053398218 4284187934
0.018814927 0.016461231 0.002159318 4281504059
0.020117395 0.018726505 -0.00032760389 4280787764
0.022050085 0.018866353 -0.00074596703 4280785978
0.024418917 0.017590493 0.00021125004 4280851259
0.027239917 0.014900014 0.0025406145 4280003383
0.029635374 0.01362624 0.0034922678 4280329273
0.032267541 0.011646047 0.0051276721 4281111358
0.033771843 0.013202816 0.0033325367 4281111103
0.035496838 0.014051959 0.0022246502 4281110848
0.036982305 0.015607603 0.00043369271 4281175874
0.0396409 0.01362972 0.0020637512 4281306434
0.042794298 0.010240354 0.0050566904 4281305923
0.045974284 0.006853044 0.0080439765 4281568319
0.049670424 0.0020558015 0.012389593 4281567298
0.056620613 -0.011913821 0.025585504 4281502274
-0.042023785 0.0025506765 0.022236811 4282019158
-0.040692724 0.0062725767 0.018279241 4279739969
-0.038738929 0.0064106286 0.017853776 4280000833
-0.036917426 0.007265009 0.016723672 4280914753
-0.035506599 0.010267258 0.013482479 4281045314
-0.034254789 0.013983943 0.0095424503 4280720189
-0.032748438 0.016267531 0.007014107 4280459068
-0.03111475 0.017834608 0.0051916763 4280068154
-0.029199891 0.017970491 0.0047751404 4281370184
-0.027284898 0.01810649 0.0043586437 4281174089
-0.024765059 0.015382975 0.0067446511 4280980033
-0.022223737 0.012661144 0.0091260299 4281049648
-0.02013047 0.012084432 0.0094045177 4281701684
-0.01882764 0.015079893 0.0061874818 4284711194
0.018255292 0.016289622 -0.00038982555 4281635128
0.019552879 0.018561035 -0.0028706826 4280982329
0.021480106 0.018700499 -0.0032878611 4280721463
0.023625191 0.01812996 -0.0030188188 4280329273
0.026657846 0.014720224 -8.5886568e-06 4280458813
0.029270673 0.012732014 0.0016259681 4281110849
0.031899475 0.010745019 0.0032571945 4281175874
0.033858508 0.010887317 0.0028335378 4281240643
0.036048718 0.010320581 0.0030932222 4281044803
0.037776373 0.011172205 0.0019865036 4281045314
0.040444937 0.0091885328 0.003609458 4280980033
0.043368667 0.0064975619 0.0059105568 4280849218
0.046313647 0.0038082451 0.0082071442 4281241154
0.05001362 -0.0010038912 0.012540318 4281828673
0.056965124 -0.015016936 0.025702855 4281828673
-0.046332605 0.0020960122 0.020490373 4282150229
-0.045588136 0.0094259679 0.013009217 4281435718
-0.044523768 0.014595278 0.0076541565 4279676219
-0.042861573 0.016168147 0.005828321 4280587334
-0.040561557 0.014147326 0.0075230841 4279283774
-0.03851001 0.013564594 0.0078082494 4280784704
-0.036722928 0.014418781 0.006687345 4280980799
-0.035078652 0.015990734 0.0048657451 4280980799
-0.033164226 0.016126372 0.0044491403 4280850493
-0.031392656 0.016979802 0.0033317879 4279612724
-0.02962625 0.01783292 0.0022156872 4279478594
-0.027716704 0.017968498 0.0018003527 4279738693
-0.025505044 0.016669974 0.0027830899 4280068663
-0.022975255 0.013938554 0.0051603839 4281047354
-0.02104931 0.014075592 0.0047417134 4281439033
-0.019123223 0.014212772 0.0043231063 4282748969
0.01790615 0.015414126 -0.0022460259 4284385049
0.019626241 0.016266555 -0.0033500865 4281244469
0.021556005 0.016406208 -0.0037678052 4280917558
0.023921141 0.015121378 -0.0028164014 4280850238
0.026737675 0.012413189 -0.00049929321 4281241153
0.029352469 0.010418549 0.0011299178 4281110594
0.032208938 0.0077134669 0.0034385491 4281110593
0.034401558 0.00714463 0.0036959834 4281110594
0.036830496 0.0058649629 0.0046339892 4281110593
0.038802609 0.0060084462 0.0042076837 4281044803
0.04124742 0.0047301129 0.0051424708 4281044293
0.043941855 0.0027419478 0.0067549124 4281305668
0.046410501 0.001465559 0.0076847058 4281370948
0.050600439 -0.0047824606 0.013363592 4281500999
0.057061821 -0.017418399 0.025135843 4281435973
-0.048430473 0.00034666806 0.019729713 4282217293
-0.047895454 0.0091432929 0.010850176 4280979780
-0.046816789 0.014328763 0.0055034459 4280654144
-0.045402788 0.017348155 0.0022744946 4281175619
-0.043756329 0.018924233 0.00045536645 4281370948
-0.041343525 0.016174883 0.0028507859 4281175363
-0.039173469 0.014868394 0.0038386825 4280588863
-0.037127368 0.014283128 0.0041234773 4280785214
-0.035488188 0.015859082 0.0023062341 4280915773
-0.033579238 0.015994288 0.0018907785 4280917303
-0.031955712 0.017569289 7.7135861e-05 4281048628
-0.02990631 0.016984694 0.00036146306 4281111868
-0.028147675 0.017839521 -0.00075122714 4281046078
-0.026092663 0.017255522 -0.00046796724 4281046588
-0.024032176 0.016672015 -0.00018582121 4280719679
-0.021966219 0.016089007 9.5220283e-05 4281242938
-0.019735999 0.014787734 0.001070831 4281701428
-0.017656468 0.014205903 0.0013490766 4282356524
0.020123575 0.012538232 -0.0024643783 4283207714
0.022490911 0.011249065 -0.0015167929 4281243449
0.024868874 0.0099608302 -0.00057146512 4280981563
0.027257491 0.008673422 0.00037168339 4280915518
0.029656727 0.0073869377 0.0013125725 4281111104
0.032517627 0.004673481 0.0036136247 4281045568
0.034715261 0.0041028559 0.0038683359 4281175874
0.037149031 0.0028191656 0.0048020463 4281109828
0.039593387 0.0015363842 0.0057335086 4281305924
0.041812155 0.0009676218 0.0059838891 4281370438
0.044036184 0.00039929897 0.0062332638 4281370694
0.046265442 -0.00016847253 0.0064815562 4281370694
0.050697692 -0.0071487427 0.012823107 4281435463
0.057651818 -0.021248601 0.025918929 4281435973
-0.048683383 -0.0005403012 0.017838584 4282412623
-0.048386142 0.009729825 0.0075735431 4281109064
-0.047435559 0.015653498 0.0015377458 4280262718
-0.046031609 0.018680885 -0.0016824733 4279872059
-0.044268936 0.019537389 -0.0027950611 4280263229
-0.041864991 0.016778678 -0.00040435418 4279806524
-0.039439522 0.014021598 0.0019817464 4280263738
-0.037396409 0.013433963 0.0022654738 4280915518
-0.035622366 0.014291607 0.0011507403 4281046845
-0.033853464 0.015149012 3.721565e-05 4281047099
-0.031947151 0.015284099 -0.00037761219 4281177149
-0.030040666 0.015419304 -0.00079239346 4281046333
-0.028134041 0.015554629 -0.0012071263 4281046589
-0.026528493 0.017132983 -0.0030133361 4280916028
-0.024780206 0.017989468 -0.0041220374 4280461109
-0.022881176 0.018124558 -0.0045348834 4280004913
-0.020506192 0.016097046 -0.002865565 4281048373
-0.018115085 0.014070779 -0.0011996701 4281962549
0.021043746 0.0073629245 -0.00022318587 4283926304
0.02363855 0.0053534731 0.0014001951 4282222394
0.026032023 0.0040619597 0.0023388956 4281502019
0.027996153 0.0042043328 0.0019139126 4281370439
0.030182891 0.0036305338 0.0021691713 4281305924
0.032600235 0.0023411363 0.0031029191 4281306434
0.034800209 0.0017685145 0.0033554789 4281306434
0.037466787 -0.00023508072 0.0049638264 4281240388
0.039682634 -0.00080631673 0.0052131265 4281370693
0.04213975 -0.0020924285 0.0061386544 4281370438
0.04436877 -0.0026624948 0.0063852705 4281370438
0.046844367 -0.0039469898 0.0073069464 4281500743
0.051282562 -0.010948613 0.013630716 4281566534
0.057994001 -0.02437713 0.026017668 4281697859
-0.04828345 0.006700106 0.0078124329 4281435719
-0.047689483 0.014818877 -0.00031329878 4280848198
-0.046287566 0.01785478 -0.0035264902 4280718913
-0.044527479 0.018713214 -0.0046368372 4280849729
-0.042256162 0.016670682 -0.0029507894 4280784958
-0.039968662 0.014629394 -0.0012681875 4281111360
-0.037799433 0.013314173 -0.00028670952 4281046334
-0.035893559 0.013449006 -0.00070161186 4281241918
-0.034127265 0.014308363 -0.0018129349 4281111868
-0.032223724 0.014443234 -0.0022271741 4280981819
-0.030320048 0.014578223 -0.0026413631 4281111868
-0.028416209 0.014713317 -0.0030555073 4280916284
-0.026662663 0.015572205 -0.0041637449 4280981563
-0.025067411 0.017154295 -0.0059643947 4279288108
-0.023015428 0.016565882 -0.0056836689 4280199733
-0.020799559 0.015254863 -0.0047115786 4278898978
-0.018572904 0.013944745 -0.0037418045 4280724269
-0.016663 0.014080904 -0.0041567888 4282943279
-0.015085839 0.015662193 -0.0059530642 4284642089
0.021538436 0.0036045089 0.00064042956 4283793959
0.024140533 0.0015890449 0.0022572558 4282156604
0.026541473 0.00029378384 0.0031910036 4281501254
0.028293682 0.0011554062 0.0020852219 4281435973
0.030262971 0.001298286 0.0016592201 4281240134
0.032457337 0.00072297454 0.0019112565 4281175364
0.034884792 -0.00056995451 0.0028396584 4281240644
0.03755331 -0.0025798678 0.0044425968 4281305669
0.040004641 -0.0038708299 0.0053660069 4281500743
0.042702354 -0.0058784187 0.0069627929 4281566534
0.045654472 -0.0086020455 0.0092313495 4281632069
0.048868973 -0.012041152 0.012169877 4281500488
0.053572901 -0.019779831 0.019146303 4281696328
0.059321281 -0.030381031 0.028803514 4281631048
-0.047826678 0.0014776215 0.010143567 4281500233
-0.047701128 0.012533009 -0.0007629972 4280848708
-0.046419501 0.016305588 -0.0046686865 4280587843
-0.044406861 0.015711039 -0.0043818709 4280849473
-0.042388707 0.015117027 -0.0040962156 4280915518
-0.040496618 0.01525066 -0.0045082867 4280980544
-0.038738601 0.016111381 -0.0056163352 4280524859
-0.036575042 0.014791489 -0.004636867 4280851258
-0.034540214 0.014199048 -0.0043545421 4281112124
-0.032499887 0.013607055 -0.0040732976 4281242174
-0.030888803 0.015194297 -0.0058743283 4281176894
-0.028993107 0.015328795 -0.0062867245 4281047099
-0.027247496 0.01618924 -0.0073916102 4280395319
-0.025507085 0.017049432 -0.0084952768 4281306433
-0.023460757 0.016458437 -0.0082149822 4281699134
-0.021250736 0.015142664 -0.007244993 4281438778
-0.019029919 0.013827719 -0.0062772315 4281831223
-0.017125484 0.013963476 -0.0066910405 4282028338
0.022243587 -0.00088818371 0.0021738056 4283400749
0.024212845 -0.00074565411 0.0017475486 4282025023
0.026399003 -0.0013240576 0.001999462 4281566533
0.028370863 -0.0011811107 0.0015728194 4281239368
0.030787228 -0.0024794042 0.0025001522 4281304394
0.032989267 -0.0030563325 0.0027488749 4281240898
0.035879407 -0.0057936087 0.0050238781 4281306179
0.038790829 -0.0085292459 0.0072943624 4281436229
0.042189397 -0.012702994 0.010909544 4281435208
0.045148693 -0.015434906 0.01316986 4281564494
0.048605785 -0.019604161 0.016772566 4281106258
0.052335758 -0.024490334 0.021041373 4281104984
0.056346565 -0.030092739 0.025974499 4282082908
-0.046899453 -0.0066876486 0.015250361 4282282319
-0.047109433 0.0065925419 0.0022708029 4281045058
-0.046181194 0.012566887 -0.0037204754 4280850494
-0.044412985 0.013430171 -0.0048293453 4280784959
-0.042649925 0.014293186 -0.00593701 4280720189
-0.039541423 0.018205956 -0.010232003 4279612979
-0.037391677 0.016880699 -0.009252863 4279288108
-0.035091728 0.014827497 -0.0075827055 4280460853
-0.032917686 0.013504162 -0.0066087004 4281176383
-0.031456396 0.015823774 -0.0090974253 4281176894
-0.029863574 0.017414104 -0.010891076 4281046589
-0.027831137 0.016819715 -0.010609587 4278439723
-0.025793262 0.016225815 -0.010329206 4280525368
-0.023749895 0.015632376 -0.010049881 4281046588
-0.021859147 0.015766919 -0.010460898 4280851768
-0.019646857 0.014447048 -0.0094946437 4280071469
-0.017587166 0.013855137 -0.0092186667 4281373243
-0.015688095 0.013990596 -0.0096312463 4282552618
-0.013620201 0.013399437 -0.0093568545 4284643874
0.022101603 -0.0025035366 0.00098402798 4283203124
0.024284789 -0.0030844361 0.0012348481 4281697349
0.026473284 -0.0036648437 0.0014846027 4281173068
0.028447676 -0.0035216957 0.0010574218 4281238603
0.03086618 -0.0048241913 0.001980979 4281173323
0.033744793 -0.0075711161 0.0042517763 4281174344
0.037554324 -0.013206258 0.009214649 4281240133
0.041636571 -0.019560501 0.014842002 4281174088
0.045534022 -0.025189057 0.019786084 4281498704
0.048767827 -0.028648689 0.022703758 4281888854
-0.046278819 -0.00083850324 0.0066768806 4282412368
-0.045943931 0.0088153481 -0.0027817404 4281175364
-0.04467117 0.012609035 -0.0066689048 4280720954
-0.043167785 0.014937505 -0.0091623217 4280915518
-0.0414178 0.015801847 -0.010265425 4280198459
-0.03980685 0.017397314 -0.012060173 4281111104
-0.037796788 0.016798578 -0.011775838 4279157039
-0.035781264 0.016200371 -0.011492658 4280460599
-0.033476524 0.014141105 -0.0098284949 4280915518
-0.032022782 0.016466632 -0.012310587 4280980798
-0.030437738 0.018060789 -0.014099302 4281111103
-0.028563477 0.018193826 -0.014506983 4280915519
-0.026536569 0.017596908 -0.014225841 4280589884
-0.024349011 0.016270697 -0.013257693 4280589884
-0.022466391 0.016404644 -0.013666954 4280786234
-0.019941557 0.013620846 -0.011328142 4280980289
-0.017884862 0.013026521 -0.011053186 4280980799
-0.015656862 0.011703581 -0.010093456 4281243193
-0.013418116 0.010381557 -0.0091360193 4283598118
0.022382058 -0.005570218 0.0011464749 4282876468
0.024356369 -0.0054273009 0.00071914308 4281763138
0.026547207 -0.0060097501 0.00096678175 4281237839
0.028743338 -0.006591633 0.0012133382 4281041488
0.031388536 -0.0086231828 0.0028062332 4281041744
0.034947876 -0.01355283 0.0070882346 4280911694
0.039453387 -0.021378316 0.014052439 4280911183
0.044707187 -0.03137286 0.023019968 4281236054
-0.045210421 -0.0097731873 0.012445528 4282411603
-0.045584731 0.0043166727 -0.00115899 4281761099
-0.0450546 0.012526698 -0.0091980062 4280980799
-0.04368446 0.015595213 -0.012377763 4280198204
-0.04194241 0.016461149 -0.013477514 4281110849
-0.040205516 0.017326817 -0.014576057 4281371203
-0.038064778 0.01599218 -0.013601605 4281306433
-0.036052212 0.015391521 -0.01331941 4280850494
-0.034034185 0.014791407 -0.013038367 4280785214
-0.032299332 0.01565735 -0.014136154 4280980799
-0.030422688 0.015790418 -0.014544461 4280980544
-0.028545901 0.015923619 -0.014952708 4280915774
-0.026516639 0.015324727 -0.014673777 4281240898
-0.024326935 0.013994284 -0.013709426 4281371458
-0.022284109 0.013396576 -0.013433285 4281371714
-0.019915167 0.011336029 -0.011787444 4281240899
-0.017856125 0.010739677 -0.011514666 4281175619
-0.015294649 0.007949993 -0.0091902819 4281175109
-0.013048407 0.0066240877 -0.0082377521 4282811443
-0.010962419 0.0060300231 -0.007970565 4284574768
0.022239726 -0.0071893334 -4.6076253e-05 4282153543
0.024427593 -0.0077742785 0.00020047836 4281367633
0.026620749 -0.0083586797 0.00044593029 4280840803
-0.045104109 -0.00093566626 0.0011429619 4282150229
-0.045311727 0.011717051 -0.011029111 4281043783
-0.044456281 0.017738547 -0.016964776 4279545658
-0.0427275 0.018605687 -0.018060006 4279937339
-0.040736891 0.018001113 -0.017774902 4280002874
-0.03846848 0.015925929 -0.016112899 4280198969
-0.03632275 0.014587387 -0.015142772 4280460089
-0.034166202 0.013249651 -0.01417489 4280850494
-0.032431304 0.014117748 -0.015271049 4280980543
-0.030261159 0.012781233 -0.014306005 4281045568
-0.028229676 0.012180194 -0.014029313 4281240898
-0.026344888 0.012314059 -0.014439231 4281371204
-0.024150364 0.010979556 -0.013479201 4281436484
-0.021945056 0.0096459836 -0.012521472 4281241153
-0.019408662 0.006845586 -0.010198421 4280980288
-0.017176472 0.0055141449 -0.0092463689 4281242174
-0.014933512 0.0041835383 -0.0082965204 4281435973
-0.012679793 0.0028538629 -0.0073489668 4281632324
-0.044134684 -0.0091642588 0.0061901473 4282345813
-0.044941872 0.0072196797 -0.0094082607 4281629773
-0.044458322 0.01547423 -0.017400691 4280587588
-0.04311873 0.018558033 -0.020560538 4280849474
-0.041000471 0.017212972 -0.019587912 4281045824
-0.038735412 0.015131004 -0.017930152 4281045568
-0.036315575 0.012312755 -0.015589032 4281111358
-0.034298174 0.0117082 -0.015311191 4281110848
-0.032131329 0.010366984 -0.014348833 4281175618
-0.029953681 0.009026587 -0.013388697 4281111104
-0.027615957 0.0069503635 -0.011746383 4281045313
-0.025717989 0.0070851147 -0.012159199 4280980544
-0.023510631 0.0057471842 -0.011205259 4280980543
-0.021292508 0.0044101551 -0.010253635 4280980288
-0.018903628 0.00233794 -0.0086220754 4281045058
-0.016823918 0.0017386973 -0.0083571123 4281437504
-0.014242887 -0.0010670125 -0.0060502179 4281566788
-0.012312263 -0.00092923641 -0.0064696018 4281762883
-0.044072919 -0.00025756657 -0.0050477209 4282411349
-0.044077322 0.010984451 -0.015777167 4281044293
-0.04272645 0.014077671 -0.018932832 4280719169
-0.040598035 0.012728952 -0.017965749 4281242173
-0.038458794 0.011381097 -0.017000938 4281372223
-0.036170289 0.0092943683 -0.015353168 4281176384
-0.034147874 0.0086879656 -0.015078095 4281241664
-0.031832427 0.0066033602 -0.013436026 4280915773
-0.029647306 0.0052591711 -0.012480882 4281176383
-0.02730228 0.0031768605 -0.010845098 4281306434
-0.025396429 0.0033121854 -0.011259618 4281370949
-0.023490477 0.0034476072 -0.01167409 4281435973
-0.021270201 0.002106376 -0.010726247 4281435973
-0.018719599 -0.00071043521 -0.0084195361 4281175619
-0.016472436 -0.0020495653 -0.0074773189 4281370949
-0.014214523 -0.003387779 -0.0065373909 4281632324
-0.011945833 -0.0047251508 -0.0055996869 4281893699
-0.043206915 -0.007769458 -0.00071280636 4282476884
-0.043059729 0.0027641207 -0.010736774 4282151504
-0.042075075 0.0080951974 -0.015947182 4280914498
-0.040064096 0.0074854717 -0.015671527 4281112379
-0.038183242 0.0076183379 -0.016081132 4281308219
-0.035887435 0.005525589 -0.01443993 4280981309
-0.033857346 0.0049175322 -0.014168189 4281176129
-0.031534597 0.0028268844 -0.012532693 4281306433
-0.029488243 0.0022202209 -0.012264315 4281240644
-0.026989661 -0.00060943514 -0.0099532511 4281436229
-0.025227554 0.00026741624 -0.011050221 4281370438
-0.023162153 -0.00033762306 -0.010785697 4281436229
-0.021248225 -0.0002015084 -0.011201818 4281370949
-0.018855438 -0.002286464 -0.0095810816 4281436229
-0.016608804 -0.0036299974 -0.0086420719 4281436228
-0.014351398 -0.0049726069 -0.0077053532 4281436228
-0.012083232 -0.0063143671 -0.0067708325 4281762883
-0.042718075 -0.013080925 0.0015419535 4282476374
-0.042427666 -0.0032607466 -0.0077780373 4282084949
-0.041425876 0.0020867586 -0.012980679 4281631303
-0.03966473 0.002964884 -0.014076342 4281632069
-0.037773341 0.003098473 -0.014488258 4281175874
-0.035605662 0.0017440021 -0.013536199 4281306434
-0.033427149 0.00039038062 -0.012586365 4281306179
-0.031237856 -0.00096233934 -0.011638844 4281239623
-0.029329903 -0.00082714111 -0.01205403 4281435719
-0.027124338 -0.0021785349 -0.011109846 4281370438
-0.025362171 -0.0012995005 -0.012205169 4281370694
-0.023297098 -0.0019067526 -0.011942236 4281370438
-0.021226592 -0.0025134385 -0.011680441 4281435973
-0.018991239 -0.0038622096 -0.010742422 4281175109
-0.016907174 -0.0044677556 -0.010483352 4281175619
-0.014817692 -0.0050727427 -0.010225417 4281238603
-0.012722779 -0.0056772381 -0.0099685695 4281957194
-0.042480171 -0.016919531 0.0024143104 4282541654
-0.042179517 -0.0070703775 -0.006886512 4282084438
-0.041298434 -0.00096023083 -0.012761651 4281761098
-0.039531916 -7.9542398e-05 -0.013856888 4281565769
-0.037905768 0.0015473142 -0.015631814 4281632324
-0.035600714 -0.00055786967 -0.014002567 4281632068
-0.033420064 -0.0019156784 -0.013056576 4281436484
-0.031085394 -0.0040185377 -0.011433601 4281435718
-0.029318124 -0.0031372383 -0.012528587 4281435463
-0.027110413 -0.0044928268 -0.011588173 4281435464
-0.025043122 -0.0051021725 -0.011327514 4281304903
-0.022970386 -0.0057110116 -0.011067955 4281370183
-0.020892199 -0.0063193887 -0.010809451 4281174343
-0.018967781 -0.0061824396 -0.011227781 4281043274
-0.017043259 -0.0060454011 -0.011646068 4280781388
-0.014954112 -0.0066525862 -0.011389704 4280778328
-0.042186491 -0.0093944222 -0.0073665064 4282150229
-0.0411717 -0.0040156469 -0.012548901 4281432913
-0.039532162 -0.0023836121 -0.014323527 4281500234
-0.037498012 -0.0029981732 -0.014057837 4281435974
-0.035320699 -0.0043606907 -0.013114518 4281632324
-0.033132561 -0.0057223663 -0.012173414 4281632324
-0.031076655 -0.006335035 -0.011912201 4281306179
-0.029160984 -0.0061993301 -0.012329096 4281500489
-0.027096823 -0.0068111867 -0.012069507 4281239369
-0.02487617 -0.0081700981 -0.011135137 4281107278
-0.022952121 -0.0080334544 -0.011553595 4280975444
-0.020715259 -0.0093909577 -0.010622617 4280777564
-0.042320676 -0.010971114 -0.008529013 4282150739
-0.041304708 -0.0055770874 -0.013700122 4281563728
-0.039268382 -0.0061937794 -0.013436653 4281567299
-0.03709171 -0.0075608492 -0.012496538 4281501508
-0.034904242 -0.0089270175 -0.011558743 4281631558
-0.032705963 -0.010292329 -0.01062317 4281631814
-0.030639723 -0.01090645 -0.010365868 4281435208
-0.028859042 -0.010019928 -0.011460444 4281108043
-0.027083553 -0.0091336295 -0.012553852 4280911439
-0.040532291 -0.012412034 -0.010110229 4281761354
-0.03834565 -0.013782822 -0.0091757225 4281436228
-0.036013521 -0.015905797 -0.0075673657 4281305159
-0.033802591 -0.017274655 -0.0066379858 4281304393
-0.031580858 -0.018642627 -0.005710871 4281434954
-0.029633641 -0.018504821 -0.0061347382 4281498704
-0.02826754 -0.015357867 -0.0092536798 4281170009
-0.036766768 -0.025183462 -0.0015649498 4281693778
-0.034535214 -0.026555344 -0.00064347312 4282085459
-0.032292835 -0.027926378 0.00027578697 4282804048
0.028819215 -0.0089425668 0.00069032423 4279985024
0.031244671 -0.010253236 0.0016057771 4279917193
0.035251226 -0.016652286 0.0072195306 4279392658
0.040667914 -0.027408913 0.016848674 4279589008
0.024071448 -0.0086652339 -0.0016656574 4279984768
0.026477773 -0.0099818707 -0.00074953772 4279720844
0.028675899 -0.010567956 -0.0005067233 4279457428
0.031322315 -0.01261241 0.0010760184 4279457428
0.035105497 -0.018301725 0.0060048476 4278933403
0.040745959 -0.029820204 0.016279181 4279260569
0.017186139 -0.0077810138 -0.0042650122 4279981453
0.019565308 -0.0091042593 -0.0033466313 4279195034
0.021744505 -0.0096942484 -0.0031016376 4279062943
0.024142325 -0.011015952 -0.0021870714 4278931873
0.026334807 -0.011604726 -0.0019447645 4279194268
0.028532594 -0.012193009 -0.0017035222 4279063198
0.031178288 -0.014244042 -0.00012558512 4278932128
0.035183758 -0.020682305 0.0054587238 4279325338
0.040823638 -0.032235548 0.015706709 4279521943
0.011155646 -0.0098153502 -0.0041747112 4281619063
0.013318509 -0.010409184 -0.003928205 4281028738
0.015284274 -0.01026734 -0.0043540392 4280308363
0.017455148 -0.010860339 -0.0041090753 4279391129
0.019839123 -0.012187585 -0.003195039 4278801058
0.022023322 -0.012779415 -0.0029527275 4278538663
0.023999723 -0.012636341 -0.00338051 4278931873
0.026191868 -0.013227314 -0.0031397818 4279128734
0.028389312 -0.013817772 -0.0029001078 4279063453
0.031476494 -0.017342955 7.5399876e-06 4279063453
0.035485417 -0.023800515 0.0055762306 4279390873
0.040448062 -0.033188149 0.013799049 4279653523
0.044792645 -0.040370911 0.020010421 4282143599
0.0068974905 -0.010968946 -0.0051811915 4282142578
0.0094404761 -0.013041645 -0.003591842 4280832643
0.011211824 -0.012162156 -0.004689238 4279718803
0.01317744 -0.012020461 -0.0051151318 4279259803
0.015143055 -0.011878632 -0.0055409363 4279259548
0.017723415 -0.013948083 -0.0039593419 4278801823
0.020112198 -0.015279382 -0.0030496148 4278669988
0.022091135 -0.015136234 -0.0034780307 4278604453
0.024070051 -0.014992952 -0.0039063385 4279063198
0.026264522 -0.015585929 -0.003667756 4279194268
0.02868256 -0.016914606 -0.0027639857 4279325338
0.031773958 -0.020450324 0.00013449416 4279456665
0.035786327 -0.026927173 0.0056875907 4279587734
0.040299132 -0.034871623 0.012559358 4280046479
0.044412717 -0.041340865 0.018090757 4282405994
-0.0021670721 -0.0086921304 -0.0087005459 4281292154
0.00014364719 -0.010034442 -0.0077780765 4279522709
0.0020929649 -0.0098945349 -0.0082009155 4279260059
0.0044197738 -0.011235498 -0.0072817123 4279522454
0.006948676 -0.013315842 -0.0056943512 4279194268
0.0094935969 -0.015394866 -0.0041104136 4278997408
0.011464372 -0.015252918 -0.0045375219 4278866593
0.013634555 -0.015850559 -0.0042959033 4278735523
0.015608024 -0.015708163 -0.0047234064 4278866593
0.017990947 -0.017044336 -0.0038157953 4279063453
0.020177133 -0.017640442 -0.0035773581 4278801059
0.022368638 -0.018236041 -0.0033399677 4278604453
0.024565475 -0.018831179 -0.0031036092 4278997918
0.026982991 -0.020164303 -0.0022031507 4279129244
0.029411145 -0.021496542 -0.0013049059 4279260059
0.032291383 -0.024304271 0.00091921911 4279653014
0.035863079 -0.029324271 0.0051292405 4279784339
0.039924163 -0.035816997 0.010657031 4280898434
0.04357573 -0.04083091 0.014849918 4282668134
-0.010759547 -0.0078654885 -0.01088028 4281883243
-0.008826673 -0.0077273697 -0.011300007 4280965244
-0.0067185275 -0.0083327144 -0.011047406 4280505988
-0.0047828518 -0.0081941634 -0.01146757 4279457684
-0.0023055151 -0.010285221 -0.0098743606 4279326358
-0.00017852336 -0.010888867 -0.009625582 4279325593
0.0021397173 -0.012234904 -0.0087079136 4278801059
0.0042801201 -0.01283735 -0.0084618581 4279128989
0.0068083033 -0.014924273 -0.0068793064 4279063198
0.009352494 -0.017009877 -0.0053001745 4278866338
0.011519652 -0.017610021 -0.0050596399 4278801058
0.013692172 -0.018209696 -0.0048201187 4278801058
0.015870012 -0.018808827 -0.004581715 4278997663
0.018257724 -0.020148963 -0.0036784885 4278997918
0.020241706 -0.020005554 -0.0041080778 4278604963
0.022855273 -0.022085443 -0.0025433637 4279194524
0.025484819 -0.024164066 -0.00098200887 4279456409
0.028130328 -0.026241332 0.00057595223 4279260058
0.030791817 -0.028317392 0.0021305829 4279587733
0.033028197 -0.028911397 0.0023569912 4280374153
0.036385849 -0.033205733 0.0058915876 4281160829
-0.017179307 -0.0076227337 -0.012808546 4279589773
-0.015254837 -0.0074855685 -0.013226727 4278998939
-0.012996249 -0.0088410378 -0.012300104 4279064474
-0.010726925 -0.010195628 -0.011375729 4278801313
-0.0087915286 -0.010057315 -0.011796003 4278866593
-0.006506037 -0.011410542 -0.010874914 4278997663
-0.0045651793 -0.011271611 -0.011296196 4278670753
-0.0020832419 -0.01336883 -0.0097089913 4278998173
4.8749149e-05 -0.013974346 -0.0094629144 4278735778
0.0025574565 -0.016069382 -0.0078813164 4278604708
0.004517179 -0.015928604 -0.0083063198 4278866593
0.006667953 -0.016532391 -0.0080640269 4278801313
0.0090177525 -0.01788009 -0.0071562668 4278997918
0.01137824 -0.019226916 -0.0062507419 4279062943
0.013948422 -0.021316931 -0.0046819402 4279062943
0.016332937 -0.02266182 -0.0037813932 4279062943
0.018728109 -0.024005748 -0.0028830841 4279456154
0.020926941 -0.024605274 -0.0026506707 4279718294
0.023760114 -0.02743426 -0.00042993575 4280636294
0.026614601 -0.030261591 0.001786273 4281290879
0.029490395 -0.033087231 0.0039979815 4281946228
0.03464485 -0.036505863 0.0064254031 4282733158
-0.023087692 -0.009610422 -0.012715923 4279657348
-0.020851351 -0.010972306 -0.011788143 4279590539
-0.018604238 -0.012333304 -0.010862621 4279195544
-0.016992331 -0.010697648 -0.012626978 4279260824
-0.015062675 -0.010560133 -0.0130463 4278867104
-0.012966111 -0.011171043 -0.012794791 4278736033
-0.010525141 -0.013278231 -0.011203961 4278932383
-0.0085845627 -0.013139583 -0.011625385 4278801313
-0.0064691044 -0.01374878 -0.011377699 4278736033
-0.0047032163 -0.012861885 -0.012467979 4278867104
-0.0022219941 -0.014965653 -0.010885562 4278670243
-9.034574e-05 -0.01557336 -0.01064106 4278866848
0.0024176352 -0.017674983 -0.0090642748 4278604453
0.0043772087 -0.017534211 -0.0094892373 4278735778
0.0067184567 -0.01888705 -0.008582986 4278735523
0.0088769067 -0.019492291 -0.0083439564 4279325084
0.011236858 -0.020843476 -0.0074416092 4279521434
0.01380631 -0.022940092 -0.0058776252 4279718803
0.016794726 -0.026527539 -0.0029905178 4280177039
0.01980981 -0.030112945 -0.00010910258 4280634509
0.022437925 -0.032204956 0.0014424585 4281355649
0.025291508 -0.035041146 0.0036521778 4282667368
0.0281664 -0.037875667 0.0058573764 4282929254
-0.025297634 -0.010571763 -0.014132285 4279457429
-0.023069903 -0.011938773 -0.013205996 4279326104
-0.020831421 -0.013304859 -0.01228199 4279260824
-0.018582165 -0.014670104 -0.011360194 4279063198
-0.01680607 -0.013780996 -0.012451637 4278801314
-0.01519917 -0.012141258 -0.014211537 4278735268
-0.012936302 -0.013505116 -0.013292468 4278342314
-0.010493383 -0.015618682 -0.011707033 4278801058
-0.0082063675 -0.016980581 -0.010793018 4278866338
-0.0060832426 -0.017591447 -0.010548606 4279194013
-0.0041320175 -0.017451786 -0.010972141 4279259548
-0.0018208176 -0.018811591 -0.010063111 4278932383
0.00031847134 -0.019420877 -0.0098219588 4278866849
0.0024631508 -0.020029724 -0.0095818602 4278931874
0.0048011541 -0.021387212 -0.0086783422 4279652249
0.0071498565 -0.022743799 -0.0077770352 4280176784
0.009509258 -0.024099544 -0.0068779252 4282598774
-0.028488018 -0.026892513 -0.0012563616 4281423988
-0.027823016 -0.019962847 -0.0077349981 4280439434
-0.027058028 -0.013790742 -0.013531505 4279914898
-0.02543278 -0.012145936 -0.015292606 4279128223
-0.023205586 -0.013517328 -0.014369505 4279194268
-0.020811837 -0.015641481 -0.012778836 4278997663
-0.018718891 -0.01625742 -0.012530087 4278997663
-0.016781628 -0.016119495 -0.012951161 4278866593
-0.014844276 -0.015981466 -0.013372174 4279062943
-0.012740385 -0.01659622 -0.013125568 4278866338
-0.010292858 -0.018715926 -0.011546123 4278604453
-0.0080010407 -0.020081878 -0.01063643 4278997153
-0.0058729313 -0.020694524 -0.010394793 4279259293
-0.0039165318 -0.020554498 -0.010819461 4279521944
-0.0016005225 -0.021918342 -0.009914726 4279194523
0.00054375827 -0.02252946 -0.0096763223 4279325338
0.0028785169 -0.023891658 -0.0087754987 4280635528
0.0052239895 -0.02525299 -0.0078768544 4281550724
-0.028057121 -0.031535059 0.00023752451 4282078319
-0.02766981 -0.023071781 -0.0075700581 4280570248
-0.026750542 -0.017638251 -0.012684884 4279653013
-0.025117077 -0.015988573 -0.01444444 4279390874
-0.023035347 -0.016607687 -0.014195132 4278801059
-0.020636976 -0.018738069 -0.01261039 4278866593
-0.018855564 -0.017844424 -0.013699754 4278866593
-0.016757533 -0.01846204 -0.013453732 4278932128
-0.014981255 -0.017568514 -0.014541796 4278670498
-0.012212671 -0.021205962 -0.01163302 4278800803
-0.0099241287 -0.022576556 -0.010726042 4278866084
-0.0076248385 -0.02394633 -0.0098212659 4279258783
-0.0056633279 -0.02380605 -0.010247141 4279848598
-0.0033479258 -0.025174364 -0.0093457177 4279849108
-0.0012013763 -0.025787607 -0.0091095455 4280307088
-0.027662076 -0.025430292 -0.0080803335 4280832133
-0.026738964 -0.019981354 -0.013184416 4279718549
-0.024952538 -0.019085541 -0.014273549 4279062943
-0.023018565 -0.018948242 -0.014694209 4278997664
-0.020618241 -0.021085002 -0.013114847 4278931363
-0.018676054 -0.020946883 -0.013537109 4279195034
-0.016412295 -0.022323973 -0.012628339 4279195034
-0.014627989 -0.021427728 -0.013716504 4279325848
-0.012184642 -0.023560956 -0.01214613 4279915153
-0.0097252242 -0.02569288 -0.010579124 4280569228
-0.0074211434 -0.027066603 -0.0096787401 4281617024
-0.027654678 -0.027792871 -0.008593604 4281357179
-0.026580513 -0.023089297 -0.013020221 4279260059
-0.024788715 -0.022190988 -0.014108852 4278866339
-0.022544447 -0.023574173 -0.013199423 4278997408
-0.02013417 -0.025716752 -0.011627175 4279390108
-0.018023591 -0.026337937 -0.011387281 4279390109
-0.015747037 -0.027718514 -0.010484569 4280308364
-0.013949372 -0.026819095 -0.011574015 4280177038
-0.026422776 -0.026205651 -0.012862235 4280308618
-0.024326168 -0.026830427 -0.01262119 4279456664
-0.021919407 -0.028979853 -0.011053279 4279915409
-0.019651566 -0.030365631 -0.010152146 4282076279
-0.023715563 -0.032251999 -0.010483216 4282863463
0.0075208321 -0.037976563 -0.020746127 4282993769
0.012299584 -0.043165848 -0.019563133 4282468468
0.0086797252 0.0081807896 0.029460983 4285491493
0.01087774 0.0076282844 0.029729368 4285623073
0.013081128 0.0070762709 0.029996669 4285230374
0.0028664991 0.012540668 0.02278704 4285295399
0.0042866878 0.014780715 0.020248974 4285624094
0.0062599517 0.014922485 0.01982105 4285754654
0.0086179692 0.013666555 0.020796439 4285885978
0.011181707 0.011712834 0.022470554 4285886489
0.012773052 0.013252854 0.020639045 4285496084
-0.0089920983 0.0093595833 0.02487289 4285163308
-0.0066671744 0.0080961064 0.025851527 4285491493
-0.0043314993 0.0068335459 0.026827855 4285426468
-0.0026896 0.008380726 0.024988068 4285426978
-0.0012371242 0.010629326 0.022447744 4285559069
1.7940998e-05 0.013578735 0.019208649 4285559068
0.0014358498 0.015825048 0.016675977 4285624348
0.0030246228 0.017368827 0.014848022 4285558559
0.0051712319 0.016808167 0.015124155 4285558559
0.0077075437 0.014845788 0.016799206 4285689628
0.010259908 0.012884729 0.018470826 4285624604
0.012235824 0.013026968 0.01804254 4285362463
-0.012768913 0.014640808 0.017061422 4285492514
-0.011148408 0.016190551 0.01522932 4285820189
-0.0086854175 0.014215581 0.016914701 4285885724
-0.0060330406 0.011537254 0.019299084 4285885978
-0.0038870648 0.010973848 0.019573307 4285558813
-0.0020929202 0.011819378 0.018443899 4285559069
-0.00066661835 0.014072709 0.015914278 4285558814
0.00055978447 0.017028861 0.0126881 4285887509
0.0021381378 0.018576246 0.010865718 4285821718
0.0042737462 0.018012587 0.011142567 4285755928
0.0067986883 0.016042873 0.012815122 4285821463
0.009534318 0.013371326 0.015182061 4285690393
0.011699403 0.012810104 0.015452752 4285427998
-0.016340833 0.010631695 0.018838452 4285296674
-0.015351269 0.015017174 0.014192861 4285625113
-0.013898358 0.017278295 0.01166201 4285558559
-0.012125861 0.018124074 0.010538597 4285492513
-0.0095064864 0.015434563 0.012923431 4285623584
-0.0068656653 0.012746677 0.015303688 4285755164
-0.0045549199 0.011473641 0.016278902 4285755674
-0.0031255707 0.01373364 0.013753522 4285624349
-0.0015310794 0.015286356 0.011930736 4285624349
-0.00031471252 0.018250443 0.0087133907 4285624349
0.0018125288 0.017683905 0.0089903213 4285690139
0.0039451532 0.017117862 0.0092661604 4285690138
0.0062749386 0.015846848 0.010237668 4285624348
0.0088098943 0.013871402 0.011903148 4285559069
0.011163782 0.012602285 0.012869634 4285559068
0.013328575 0.012038946 0.013138803 4285428254
0.015296265 0.012180805 0.01271246 4285627664
-0.017596949 0.013988368 0.012734972 4285100579
-0.016138379 0.016256347 0.010207728 4285559069
-0.014695697 0.018523257 0.007684052 4285887764
-0.012598667 0.017951656 0.0079653412 4285755674
-0.010155745 0.015962154 0.0096451156 4285820954
-0.0073509216 0.01255592 0.012719862 4285821464
-0.0048704706 0.010569334 0.014391595 4285690139
-0.0030868612 0.011418425 0.013267759 4285624349
-0.0016703457 0.013684124 0.010750195 4285559068
-0.00026977062 0.015948735 0.0082362071 4285624349
0.0016735792 0.016088217 0.0078146663 4285558558
0.0038058907 0.015519962 0.008088911 4285558558
0.0059435815 0.01495219 0.0083620697 4285558558
0.0078923963 0.015092373 0.0079395734 4285624349
0.0098412372 0.015232652 0.0075171515 4285690139
0.012189297 0.013958856 0.0084816646 4285558814
0.014750298 0.011979103 0.010136722 4285296674
-0.01837226 0.015239567 0.0087557789 4285166114
-0.016923908 0.01751329 0.0062357485 4285428255
-0.015162051 0.018362526 0.0051178597 4285690394
-0.012903307 0.01707672 0.0060974769 4285690393
-0.010463756 0.015080467 0.0077729635 4285690138
-0.0078353882 0.012374237 0.010142647 4285624349
-0.0053609535 0.010380633 0.011810757 4285558558
-0.0037606806 0.011942357 0.0099932514 4285558558
-0.0019902922 0.012792774 0.0088740103 4285559068
-0.00022517145 0.013642929 0.0077560041 4285559068
0.0020928234 0.012362123 0.0087232683 4285558813
0.0038553774 0.013212301 0.0076059736 4285624604
0.0056126378 0.014062196 0.006489899 4285690139
0.0071705282 0.015621468 0.0046821162 4285886999
0.0091112331 0.015761167 0.0042614546 4285952024
0.011450756 0.014482439 0.0052244551 4286082839
0.014003059 0.012495488 0.0068764798 4285951514
0.016161896 0.01192759 0.0071437992 4285296674
-0.017384186 0.01735983 0.0036734305 4285231904
-0.015298575 0.016782917 0.0039537735 4285559324
-0.013040341 0.015492707 0.0049301796 4285559324
-0.010601483 0.013489857 0.0066008419 4285558814
-0.0081465244 0.011488207 0.0082681142 4285558558
-0.0062010288 0.011627391 0.0078457668 4285689884
-0.0040776022 0.011053719 0.0081183035 4285689884
-0.0023098178 0.01190611 0.0070012733 4285624349
-0.0003641136 0.012045629 0.0065791234 4285624349
0.0017675087 0.011472844 0.0068501122 4285558814
0.0037159882 0.01161278 0.0064275302 4285558813
0.0050909072 0.013888918 0.0039292686 4285755928
0.0064498335 0.016164057 0.0014345162 4285689629
0.008185856 0.017014802 0.00032485649 4285557794
0.010713402 0.015019462 0.0019771531 4285754909
0.013055116 0.013736606 0.0029364899 4285624094
0.015407495 0.012454674 0.0038935579 4285427744
0.016941685 0.01401712 0.0020946227 4285233179
-0.015270721 0.01448743 0.0034860335 4285428254
-0.01301033 0.013193034 0.0044586044 4285493788
-0.01090882 0.012615271 0.0047339834 4285559324
-0.0091465488 0.013469122 0.0036195572 4285689883
-0.0073895305 0.014322698 0.002506353 4285887509
-0.0054601058 0.014460839 0.0020875726 4285886999
-0.0033502728 0.013884097 0.002361469 4285952788
-0.001235038 0.013307847 0.002634272 4285624348
0.0010712631 0.012017444 0.003597483 4285624349
0.0030116066 0.012156785 0.0031766556 4285558814
0.0045699626 0.013724729 0.0013752654 4285755928
0.0057303086 0.016720064 -0.0018031951 4285755928
0.0074583888 0.017572418 -0.0029094703 4285624349
0.0099772327 0.015569873 -0.0012602247 4285689883
0.012713797 0.012855157 0.0010736361 4285755928
0.014654282 0.012995154 0.00065326318 4285493533
0.016180703 0.01456143 -0.0011407211 4285100578
-0.015407342 0.012906194 0.0023207422 4285166368
-0.013481062 0.013043657 0.0019023046 4285494044
-0.011554684 0.013181239 0.0014839265 4285494043
-0.0098003671 0.014036722 0.00037282705 4285559069
-0.0080512911 0.014891908 -0.00073700026 4285755419
-0.0061300024 0.015029445 -0.0011540316 4285689628
-0.0040284954 0.014449924 -0.00087998807 4285886999
-0.0021044053 0.014587872 -0.0012974683 4285624348
-0.00018026307 0.014725931 -0.0017148741 4285624349
0.0017439313 0.014864109 -0.0021322053 4285558814
0.0034773499 0.015718818 -0.0032381415 4285558813
0.0050119758 0.017289452 -0.0050309729 4285690393
0.0067320988 0.018143456 -0.0061339159 4285756183
0.0094410591 0.015417933 -0.0038007814 4285756183
0.012171378 0.012694031 -0.0014722086 4285559068
0.014514729 0.011402696 -0.00051976554 4285493278
0.016248241 0.012258098 -0.0016252715 4285296929
0.018185917 0.012398116 -0.0020448677 4285035298
-0.016035765 0.01348684 -0.00092296489 4285102618
-0.014284234 0.014344029 -0.0020319344 4285362719
-0.012537945 0.015201002 -0.0031397212 4285559068
-0.010968845 0.016777612 -0.0049373712 4285755928
-0.0090611093 0.01691404 -0.0053515602 4285557794
-0.0069760121 0.016331047 -0.0050757024 4285492258
-0.0045255795 0.014309771 -0.0034221187 4285623839
-0.0026069582 0.014447339 -0.003838405 4285755929
