# .PCD v0.7 - Point Cloud Data file format
VERSION 0.7
FIELDS x y z rgba
SIZE 4 4 4 4
TYPE F F F U
COUNT 1 1 1 1
WIDTH 936
HEIGHT 1
VIEWPOINT 0 0 0 1 0 0 0
POINTS 936
DATA ascii
-0.0032704771 0.017758891 0.045517623 4284638773
-0.0059846528 0.0076069124 0.029778799 4284445483
-0.004585661 0.0098097436 0.027148543 4284578593
-0.0028173327 0.010646526 0.025954997 4284709664
-0.0068870783 0.0087048374 0.025735853 4282483768
-0.0051187649 0.0095437057 0.024543868 4282419763
-0.0031632856 0.0096976236 0.024068007 4282683689
-0.0010126904 0.0091672093 0.024306333 4283271718
0.00074797869 0.010005757 0.023116415 4283858983
0.0027037412 0.010159973 0.022640692 4284251684
0.0048625693 0.0096304938 0.022877226 4284317474
-0.0067877956 -0.0013320893 0.033622198 4282672978
-0.0068535358 0.0063843578 0.025278313 4281961529
-0.0054614842 0.0085997395 0.022659583 4280658989
-0.0037009344 0.0094402991 0.021471126 4281050414
-0.0013611466 0.0082205534 0.022421772 4280531999
0.00059441477 0.0083746351 0.021946007 4281637424
0.0027501881 0.0078426115 0.022181569 4281765943
0.0045057982 0.0086831301 0.02099465 4281570613
0.0066670254 0.0081517212 0.021229019 4281766709
0.0084174797 0.0089920126 0.020043494 4282092599
0.010162674 0.0098319948 0.018859318 4281506609
0.012116 0.0099864788 0.018384529 4281114419
0.014069377 0.010141086 0.017909819 4281244468
0.016678857 0.0082414933 0.019555395 4282354228
0.0210751 0.000866808 0.026846146 4282419763
0.02844179 -0.01539956 0.043293856 4282419763
-0.0076793768 -0.00023274124 0.029577041 4282090304
-0.0075669214 0.0068176687 0.021966157 4281635129
-0.0059930347 0.0083497874 0.020066356 4281178168
-0.0044296384 0.0098811463 0.018169226 4281700154
-0.002098348 0.008656349 0.019118598 4280463659
4.6387315e-05 0.0081211366 0.019355116 4281440309
0.0021965355 0.0075864047 0.019590432 4281374263
0.0039469264 0.0084287412 0.018406367 4281374263
0.006307736 0.0072066113 0.019348888 4281375029
0.0080556273 0.0080488995 0.01816562 4281635894
0.0097982548 0.0088909157 0.016983664 4280596004
0.011748809 0.009045165 0.016509539 4280657459
0.014131075 0.007825125 0.017447134 4280396594
0.01696096 0.0052321032 0.019792544 4280529448
0.021802351 -0.0035399944 0.028473562 4281700409
0.029398307 -0.020545229 0.045584537 4282026298
-0.0083854869 0.00019267201 0.026256727 4282024258
-0.0079061575 0.0058811605 0.020086301 4280397103
-0.0065236948 0.0081089176 0.017479712 4281113143
-0.0049653202 0.0096442699 0.015587004 4281764669
-0.0028342605 0.0091056786 0.015825136 4281309239
-0.0006977953 0.0085675716 0.016062064 4280723759
0.0014440492 0.0080300085 0.0162977 4281439798
0.0031865761 0.0088738576 0.015117219 4281504823
0.0055388883 0.007646706 0.01605848 4281373753
0.007694222 0.0071105137 0.016291061 4280788528
0.0092239864 0.0086442642 0.014405882 4281569594
0.011382081 0.0081084892 0.014637945 4281829183
0.013761153 0.0068838075 0.015573038 4281439798
0.017023973 0.0029033497 0.019319912 4281438524
0.022307038 -0.0072752982 0.029385591 4281438523
0.030129159 -0.025023997 0.04715725 4281438523
-0.009641014 0.0027139783 0.020814998 4282026298
-0.0088035949 0.0070310608 0.01608062 4281375284
-0.0072423629 0.0085708871 0.014190467 4280985133
-0.0053085797 0.0087230131 0.013719821 4281114928
-0.0029863156 0.007488694 0.014664816 4280853809
-0.00085017458 0.0069483444 0.014900168 4280917814
0.0010918491 0.0071014091 0.014427735 4281308728
0.0030339584 0.0072545819 0.01395536 4281439288
0.0051809438 0.0067154318 0.014188258 4281438778
0.0071258359 0.0068690255 0.013715355 4279877158
0.0086505748 0.008406803 0.01183462 4280854319
0.010803048 0.0078683384 0.012066444 4281178934
0.013176262 0.0066388324 0.012999637 4281113909
0.017086603 0.0005704537 0.01884432 4280918578
0.022810498 -0.011023581 0.0302883 4280786999
0.030858373 -0.029520169 0.048717491 4280786999
-0.010343879 0.0031731427 0.017518884 4282615349
-0.0091412589 0.0061105713 0.014212316 4282028339
-0.0077710561 0.0083504803 0.011618493 4282157623
-0.0058426894 0.0085021555 0.011149149 4282352699
-0.0035262704 0.0072629638 0.012092276 4281765944
-0.0010025054 0.0053294003 0.013738474 4281570104
0.000939399 0.0054824427 0.013266059 4281504314
0.0030833185 0.0049407408 0.013497977 4281308984
0.0048234388 0.0057888553 0.012321407 4281308218
0.0067655668 0.0059422255 0.011849174 4281308474
0.0080780536 0.008178439 0.0092699453 4281309493
0.010224868 0.0076373518 0.0095014535 4281311279
0.012807455 0.0057091415 0.011133876 4280852279
0.016930982 -0.001072973 0.017665355 4280917048
0.023312712 -0.01478482 0.03118165 4280916539
0.031139599 -0.032647304 0.048866995 4281241918
0.0011851341 0.0024691895 0.013511239 4284577829
0.0029305778 0.0033198223 0.01233493 4284381224
0.0046707839 0.0041701198 0.011159964 4283920949
0.005991675 0.0064134747 0.0085835271 4283789368
0.0075064003 0.007959187 0.0067118127 4284379694
0.0098599158 0.0067192316 0.0076431576 4284445738
0.012654088 0.0040881261 0.0099709481 4283269424
0.016775396 -0.0027161315 0.01648658 4283204398
0.023373125 -0.017167851 0.0306694 4282420019
0.031197065 -0.035087615 0.048312828 4282354993
0.023213046 -0.018857151 0.029457556 4284640304
0.030808663 -0.036136806 0.046363845 4284640559
-0.021322973 0.0051100776 -0.016229015 4284640304
-0.019814052 0.0067022815 -0.018064382 4284706093
-0.018134706 0.0075709 -0.019207295 4284706859
-0.015909947 0.0062713698 -0.018281497 4284575023
-0.022124015 -0.0016686544 -0.012058434 4283134529
-0.021467976 0.0035569444 -0.01734383 4282418998
-0.020136796 0.0058787838 -0.019864833 4282549303
-0.018279359 0.0060243309 -0.02031732 4281834793
-0.016055144 0.00472036 -0.019394666 4282289969
-0.013448261 0.0019680336 -0.017100727 4283336488
-0.011574607 0.0021152049 -0.017556908 4284578084
-0.010083418 0.0037108883 -0.019384233 4284576808
-0.008602757 0.0053059086 -0.021208961 4284575024
-0.0071326084 0.0069001615 -0.023031 4284508469
-0.0054737516 0.007770136 -0.024166724 4284573239
-0.0036182553 0.0079164356 -0.024618061 4284508213
-0.022442795 -0.0025090277 -0.013872671 4282350659
-0.021963291 0.003459461 -0.019834263 4281699389
-0.020636916 0.0057874322 -0.022349156 4279809328
-0.01896539 0.0066598356 -0.023486968 4280657713
-0.016749661 0.0053507462 -0.022565495 4280202794
-0.014151696 0.002588965 -0.020275919 4279943204
-0.012097701 0.0020088628 -0.020045483 4282158898
-0.010229394 0.0021557063 -0.020500286 4282354993
-0.0085547231 0.0030288622 -0.021638405 4282616623
-0.006885279 0.0039017722 -0.022775212 4281766964
-0.005619105 0.0062259212 -0.025274782 4281831733
-0.0039654151 0.0070977658 -0.02640754 4280467484
-0.0021126457 0.0072439648 -0.026858136 4280201774
0.00056807324 0.0044896305 -0.024588078 4280203049
0.0038989447 -0.00043780357 -0.020284479 4282025789
0.0096020326 -0.013334416 -0.0085222945 4282026043
0.017120004 -0.032019608 0.008642558 4282026043
0.023470387 -0.046347834 0.02170858 4282091324
0.02728405 -0.051978156 0.026625639 4282482494
-0.023795053 0.0010357946 -0.019805348 4281762374
-0.022807658 0.0048308372 -0.02369076 4280914754
-0.021846652 0.0086239129 -0.027569674 4281110848
-0.019830406 0.0080383085 -0.027331939 4281501763
-0.017808743 0.0074531958 -0.027095396 4280526133
-0.014482714 0.0017654076 -0.022073995 4281112888
-0.012619942 0.0019116774 -0.022527557 4281244214
-0.010375325 0.00060080737 -0.021616137 4281242683
-0.0085070655 0.00074774027 -0.02207086 4281308218
-0.0068349019 0.0016230121 -0.023206651 4281439543
-0.0055655986 0.0039540008 -0.025702134 4281309239
-0.0043121353 0.0062838495 -0.028193679 4280329019
-0.0022580251 0.0057021901 -0.027964361 4280134198
0.00062850118 0.0022116378 -0.025021976 4278636583
0.004588671 -0.0049125403 -0.018696327 4279809328
0.01093467 -0.020028837 -0.0049333144 4281111868
0.017821468 -0.036589719 0.010156021 4281568574
0.023526002 -0.048781641 0.021159826 4281633854
0.026240386 -0.050797768 0.02268686 4282283339
-0.02497226 0.0038794801 -0.025030237 4281175874
-0.023825109 0.0069522038 -0.028219126 4279090994
-0.022699028 0.010023378 -0.031402797 4280524603
-0.020873785 0.010166377 -0.03184747 4280915518
-0.018500295 0.0081150942 -0.030243689 4280460599
-0.015369356 0.0031402037 -0.025915094 4279875119
-0.013329305 0.0025546029 -0.025684545 4281177404
-0.011283856 0.0019695461 -0.025455225 4281242939
-0.0092330351 0.0013850108 -0.025227131 4281177403
-0.0077647045 0.0029922351 -0.027038943 4280917304
-0.0065055192 0.0053289905 -0.029527072 4281242174
-0.0052621737 0.0076645948 -0.032011271 4281633089
-0.0030151047 0.0063501075 -0.031103291 4281372479
-0.00013770908 0.0028478727 -0.028166864 4281176894
0.0044399276 -0.0064871088 -0.019825999 4281111359
0.011416979 -0.023837231 -0.0040690582 4281241664
0.018521296 -0.041177161 0.011657035 4281241664
0.02314692 -0.049762055 0.019259332 4281176639
0.025638044 -0.051056467 0.020108493 4282085968
-0.026115142 -0.0014747456 -0.022260979 4282542673
-0.025975056 0.0060154274 -0.029552147 4280849728
-0.024491318 0.0076273195 -0.031365134 4280392259
-0.023195304 0.0099725984 -0.033858024 4280394299
-0.021015778 0.0086474344 -0.032937683 4280263738
-0.018825546 0.0073231757 -0.032019824 4280003384
-0.016069155 0.0037995502 -0.0290628 4280654653
-0.014037393 0.0032111034 -0.028831873 4281046079
-0.0121907 0.003356196 -0.02928146 4280981053
-0.010537021 0.0042342544 -0.030409582 4281111614
-0.0090843216 0.0058446601 -0.032214381 4280590138
-0.007840544 0.008186698 -0.03469383 4279156529
-0.006210506 0.009063229 -0.035815954 4280459834
-0.0037709028 0.0070115402 -0.034232527 4280785213
-0.00048992783 0.0020340607 -0.029951187 4280133179
0.0042912066 -0.0080613792 -0.020955464 4279612978
0.011686414 -0.026927151 -0.003888227 4280329784
0.018576575 -0.043588437 0.011125196 4280329784
0.023202192 -0.052199595 0.018707899 4281176384
0.025256187 -0.052036755 0.01820893 4282215763
-0.026428282 -0.0022850409 -0.02405449 4282282319
-0.026288912 0.0052269325 -0.031329174 4280783429
-0.024981916 0.0075795203 -0.033819925 4281045313
-0.023159705 0.0077221245 -0.034263968 4281176129
-0.021157727 0.0071287975 -0.034027688 4281176129
-0.018785741 0.0050642714 -0.032433331 4281176385
-0.016582724 0.0037367642 -0.031521834 4281045314
-0.014369003 0.0024102032 -0.030612793 4281110849
-0.013095837 0.0047608092 -0.033094808 4281110848
-0.011259802 0.0049051717 -0.033541713 4281045824
-0.0098147653 0.0065192953 -0.035341341 4280849728
-0.0081820711 0.0073981136 -0.036462564 4280459579
-0.0065546222 0.00827666 -0.037582479 4280263483
-0.0039149299 0.0054838955 -0.035328619 4280524349
-0.00084169582 0.0012249425 -0.031732146 4280588863
0.0041425228 -0.0096353441 -0.022084706 4280719933
0.011532173 -0.028558433 -0.0050585521 4280719933
0.018631486 -0.046003826 0.010590464 4281045824
0.022823591 -0.053174935 0.016811045 4281175874
0.024874777 -0.053012341 0.016312746 4282150229
-0.026572101 -0.0038297251 -0.02516336 4282021963
-0.026430815 0.0037042648 -0.032422196 4280979779
-0.0252975 0.0068021119 -0.03558816 4280654144
-0.023831658 0.0084214285 -0.03739021 4280459324
-0.021479078 0.0063487217 -0.035796173 4280524349
-0.019110501 0.0042773336 -0.03420591 4281045314
-0.016725946 0.0022073612 -0.032619484 4281045314
-0.014887556 0.0023516864 -0.033067137 4281175618
-0.013239127 0.0032335594 -0.034190826 4280915773
-0.011403229 0.0033779144 -0.034637704 4281110848
-0.01015326 0.0057334378 -0.037108965 4281045569
-0.0087211393 0.0073510818 -0.038902149 4280587843
-0.0068982765 0.0074947476 -0.039345596 4281110339
-0.0042622127 0.0046929494 -0.037097372 4281175619
-0.0013989545 0.0011567548 -0.034182008 4281110594
0.0039938837 -0.011208996 -0.023213727 4280980289
0.011589203 -0.030925214 -0.0055576591 4280980289
0.018258212 -0.046952136 0.0087120868 4280915008
0.022228897 -0.053410158 0.014247881 4280784959
0.02405544 -0.052512862 0.013081891 4282541909
-0.027390465 -0.0024088845 -0.028990809 4281957449
-0.026915282 0.0036640912 -0.034873154 4280785213
-0.025960498 0.0075112022 -0.038709871 4279416374
-0.02450233 0.0091342814 -0.040506795 4279416374
-0.022158444 0.0070542693 -0.038915504 4278504494
-0.019434795 0.0034951046 -0.035975099 4279677749
-0.017238174 0.0021583512 -0.035068572 4281110848
-0.015218053 0.0015623942 -0.034839727 4281046589
-0.013572205 0.0024462417 -0.035961166 4281046333
-0.011739094 0.0025903657 -0.036407374 4280981053
-0.010686431 0.0056915358 -0.039546497 4281111104
-0.0088637806 0.0058350787 -0.039989978 4279937848
-0.0068406239 0.0052399263 -0.039761446 4280133434
-0.0039998032 0.0016909167 -0.036848865 4280328763
-0.0013381653 -0.0011174977 -0.034613311 4281045313
0.0040536374 -0.013520531 -0.023672523 4280915518
0.011645842 -0.033296049 -0.0060597509 4280915518
0.01809909 -0.048633508 0.0075058807 4280980799
0.021635082 -0.05363626 0.011691323 4280915519
0.023456376 -0.052737199 0.010528235 4282607189
-0.028375573 -0.00022663921 -0.033483524 4281892169
-0.027569942 0.0043762773 -0.037995003 4280915264
-0.026622228 0.0082337558 -0.041821856 4280328764
-0.025171727 0.0098606497 -0.043613691 4280458813
-0.022836536 0.0077733807 -0.042025186 4278504239
-0.020122014 0.0042025521 -0.039090723 4280655163
-0.017749552 0.0021184459 -0.037511118 4281046588
-0.015735071 0.0015198439 -0.037282549 4281242174
-0.013904829 0.0016636327 -0.037728138 4281112124
-0.012459066 0.0032908246 -0.039518312 4280981564
-0.011413652 0.0064001307 -0.042649105 4280524858
-0.0097966678 0.0072842911 -0.043761671 4279743539
-0.0075842328 0.0059450343 -0.042861708 4279352114
-0.0049554147 0.003125146 -0.040624797 4278700843
-0.0018943064 -0.0011741072 -0.037054799 4279417139
0.0043211877 -0.016576536 -0.023465818 4280916793
0.012123741 -0.037151359 -0.0052291565 4280916793
0.01793999 -0.050314523 0.006299926 4281307709
0.02082601 -0.053113461 0.0084747728 4281239624
-0.029695079 0.0034693331 -0.039313264 4281111358
-0.028394222 0.0058474988 -0.041783083 4280263483
-0.027456202 0.0097151399 -0.045599431 4281306690
-0.025663674 0.009855371 -0.046036281 4281371458
-0.023692191 0.0092508607 -0.045799121 4281046079
-0.020807944 0.0049235076 -0.042196661 4280330038
-0.018628314 0.0035766065 -0.041292492 4280916283
-0.016624771 0.0029749349 -0.041062899 4281111869
-0.014994685 0.0038619116 -0.042177249 4280916284
-0.01356189 0.0054924637 -0.043961003 4280526133
-0.012139611 0.0071222559 -0.04574208 4281047099
-0.010333132 0.0072645172 -0.046181627 4281437760
-0.0081265606 0.0059204623 -0.045283541 4281176639
-0.0055040084 0.0030913353 -0.04305163 4280330038
-0.0018336549 -0.0034499839 -0.037487261 4280719933
0.0050038621 -0.021126248 -0.021931471 4281046589
0.012600414 -0.041019507 -0.0044078454 4281046589
0.017780932 -0.05199524 0.0050941873 4281111869
0.020665953 -0.054802991 0.0072627459 4281305159
-0.030675597 0.0057006478 -0.043770835 4281176639
-0.029387511 0.008084327 -0.046232615 4279938359
-0.028115191 0.010466941 -0.048690498 4280459834
-0.026154757 0.0098592527 -0.04845237 4280589884
-0.024010286 0.0085049868 -0.047543079 4279873333
-0.021311328 0.0049110651 -0.044621136 4280460089
-0.019137561 0.003559351 -0.043718867 4280916028
-0.017326225 0.0037015155 -0.044159956 4281046333
-0.015704017 0.004590027 -0.045270775 4281046333
-0.014278885 0.0062243119 -0.047049355 4280070449
-0.012669783 0.0071120784 -0.04815685 4280785723
-0.011065897 0.0079995282 -0.049262933 4281567808
-0.0088678189 0.0066503808 -0.048366006 4281567808
-0.0064566545 0.0045570508 -0.046805054 4281111104
-0.0021835901 -0.004239969 -0.039254505 4280525113
0.0048538893 -0.022714093 -0.02307068 4280525113
0.012234271 -0.041922241 -0.0062543079 4280199224
0.017195804 -0.052186884 0.0025606994 4280655163
0.019858832 -0.054259732 0.0040609408 4281632069
-0.031788863 0.00031156093 -0.041036457 4282478669
-0.030814894 0.0042036548 -0.044845492 4280913988
-0.029526331 0.0065939203 -0.047302499 4281175618
-0.028253525 0.008983124 -0.049755618 4281240898
-0.026469208 0.0091226734 -0.050190486 4281110594
-0.024327934 0.0077637881 -0.049283672 4281045569
-0.021632798 0.0041586235 -0.046368971 4280980544
-0.01946222 0.0028022826 -0.04546918 4280719168
-0.018026385 0.0044415295 -0.047247298 4280849984
-0.016790085 0.0068285316 -0.049691021 4281242430
-0.015377924 0.0084661618 -0.051463187 4280916539
-0.01358768 0.0086070076 -0.051898897 4279939123
-0.01179738 0.0087479651 -0.052334525 4280460599
-0.009607818 0.0073938258 -0.051438831 4280329528
-0.0068008527 0.0037984028 -0.048550647 4279416374
-0.0021232851 -0.0065196529 -0.039689705 4280002874
0.0053265989 -0.026542656 -0.022218563 4280002874
0.012288962 -0.044313855 -0.0067713046 4280590648
0.016611544 -0.052369408 3.377907e-05 4280981308
0.019052984 -0.053702898 0.00086878799 4281631303
-0.031764023 -0.0019486398 -0.04144641 4282348364
-0.030451298 0.00044997782 -0.043904558 4280913478
-0.029154308 0.0028474927 -0.046358779 4281436484
-0.027700171 0.0044919401 -0.048138529 4281436483
-0.026080951 0.0053840056 -0.049245797 4281436228
-0.023932308 0.0040213615 -0.048344094 4281371204
-0.021592095 0.0019083321 -0.046776321 4281240644
-0.019419432 0.00054777414 -0.045880318 4281044549
-0.01798068 0.0021916181 -0.04765588 4280848198
-0.016741246 0.00458543 -0.050095476 4281436738
-0.015517619 0.0069780722 -0.052531093 4281439034
-0.013921626 0.0078691691 -0.05363214 4281505079
-0.012134109 0.0080099106 -0.05406709 4281633344
-0.0099477358 0.006651096 -0.05317384 4281502274
-0.0071446076 0.0030444413 -0.050292872 4281437504
-0.0026774257 -0.0065552592 -0.042116135 4281437760
0.0049687289 -0.027387314 -0.0240242 4281437760
0.011923298 -0.045211583 -0.0086141722 4281111614
0.016240764 -0.053291552 -0.0018258262 4281111358
0.018248424 -0.053132527 -0.0023136381 4281762119
-0.031245247 -0.0064771324 -0.039846726 4282151759
-0.030088857 -0.0033165962 -0.042972893 4281108044
-0.028273284 -0.0031748414 -0.043415569 4281174598
-0.026802987 -0.0015247092 -0.045196041 4281175109
-0.02516783 -0.00062923878 -0.046305582 4281109828
-0.023537852 0.00026597083 -0.047413755 4281044294
-0.021371119 -0.0010995269 -0.046519645 4281044038
-0.019193694 -0.0024641231 -0.045628004 4281239879
-0.017749403 -0.00081546605 -0.047401726 4281499978
-0.016315594 0.00083245337 -0.049172759 4281826378
-0.014892317 0.0024797171 -0.050941177 4282348618
-0.013479538 0.0041262284 -0.052706905 4282218058
-0.011880763 0.0050197989 -0.053806879 4282153034
-0.0098888502 0.0044090375 -0.053580552 4282087498
-0.007286083 0.0015433654 -0.051369928 4282153034
-0.002617266 -0.0088365525 -0.042552486 4282087753
0.0050255731 -0.029730044 -0.024505377 4282087753
0.011558082 -0.046104573 -0.010453631 4281957704
0.016082883 -0.05495993 -0.0030227248 4281892424
0.017875299 -0.05405017 -0.0041691083 4281824083
-0.031221777 -0.0087521672 -0.040267333 4282152268
-0.029727645 -0.0070960745 -0.042050563 4281238603
-0.02790425 -0.0069536939 -0.042495131 4281370184
-0.025908232 -0.0075675398 -0.042272273 4281370694
-0.024432279 -0.0059125125 -0.044050805 4281174853
-0.022789009 -0.0050140992 -0.045160603 4280979268
-0.021150924 -0.0041159764 -0.046269052 4281109318
-0.018785689 -0.0062399954 -0.044717114 4281239879
-0.01696169 -0.0060968846 -0.045161322 4281174598
-0.015514378 -0.0044435337 -0.046932384 4281305159
-0.013886541 -0.0035457388 -0.048037972 4281240133
-0.012263935 -0.002648212 -0.049142189 4281305668
-0.010842897 -0.00099653751 -0.05090664 4281240644
-0.009233404 -9.983778e-05 -0.052007519 4281240389
-0.0068226419 -0.0022194609 -0.050465971 4281436229
-0.0021489374 -0.012629598 -0.041672558 4281435973
0.0048751086 -0.031323276 -0.02564846 4281435973
0.01119332 -0.046992876 -0.012289737 4281566789
0.015500594 -0.055121683 -0.0055347551 4281827398
0.017502625 -0.054963119 -0.0060212109 4282085458
-0.031034306 -0.011790439 -0.040023208 4282086223
-0.029534608 -0.010129571 -0.041804492 4281500233
-0.027536407 -0.010745518 -0.041583929 4281174599
-0.025705107 -0.010602437 -0.042030372 4281239623
-0.024048649 -0.0097009391 -0.043141849 4281239624
-0.022574969 -0.0080415979 -0.044916481 4281173834
-0.020751297 -0.0078987479 -0.045360785 4281043019
-0.018927526 -0.0077557638 -0.045805015 4280977738
-0.016918126 -0.0083701611 -0.045586608 4281304649
-0.015279733 -0.0074694306 -0.046693284 4281239623
-0.013264883 -0.0080831572 -0.046476033 4281174598
-0.011631642 -0.0071825981 -0.047581278 4281109318
-0.010003608 -0.0062823668 -0.048685111 4281240133
-0.0083808079 -0.0053824112 -0.04978757 4281175109
-0.0059575848 -0.0075076297 -0.048253968 4281239879
-0.001681827 -0.016435497 -0.04080192 4281174088
0.0051380992 -0.034427784 -0.025476564 4281174088
0.01082899 -0.04787638 -0.014122472 4281239368
0.014707152 -0.054518901 -0.0086963642 4281434698
-0.031011775 -0.01407592 -0.040451329 4281891148
-0.029509164 -0.012410484 -0.042230077 4281632324
-0.027508669 -0.013028428 -0.042011701 4281240389
-0.025674857 -0.012885153 -0.04245875 4281239623
-0.024190418 -0.011220768 -0.044232793 4281043019
-0.022361703 -0.01107765 -0.044678427 4281042763
-0.020532876 -0.010934412 -0.045123994 4281108043
-0.018521283 -0.011550911 -0.044907894 4280977994
-0.016689632 -0.011407189 -0.04535396 4281043019
-0.01504587 -0.010503903 -0.046460271 4281174089
-0.013216715 -0.010360159 -0.046905562 4281109064
-0.011387482 -0.010216266 -0.047350772 4281239623
-0.0093622729 -0.01083108 -0.047137532 4281239623
-0.0075302683 -0.010686733 -0.047583237 4281239623
-0.005295787 -0.012059063 -0.046714678 4281174088
-0.001012072 -0.021012552 -0.039284065 4281043274
0.005193796 -0.036782853 -0.025966533 4281108554
0.010674275 -0.04951302 -0.015296646 4281173068
0.0141268 -0.054660223 -0.011193728 4281434188
-0.03066171 -0.017892577 -0.039553292 4281761864
-0.029317483 -0.015458792 -0.041994713 4281567044
-0.027650543 -0.014552347 -0.043105677 4281370439
-0.026332527 -0.012120418 -0.045540493 4281239368
-0.024506696 -0.011977643 -0.045985501 4281108299
-0.022680767 -0.011834756 -0.046430457 4281108299
-0.020495079 -0.013216265 -0.045554016 4281108043
-0.018846139 -0.012310639 -0.046660148 4281108043
-0.017202403 -0.011405312 -0.04776492 4281108299
-0.015376117 -0.011261918 -0.048209604 4281173323
-0.013359338 -0.011879817 -0.047996119 4281108299
-0.011144131 -0.01325842 -0.04712642 4281109064
-0.0093096904 -0.013113998 -0.047572806 4281174344
-0.0074751899 -0.012969457 -0.048019119 4281108808
-0.005238615 -0.014346033 -0.047154292 4281108809
-0.0011585467 -0.022565261 -0.040398121 4281173068
0.0050428063 -0.03838177 -0.027113695 4281173324
0.010310642 -0.050389387 -0.017124182 4281238093
0.013970494 -0.056311958 -0.012378691 4281432659
-0.028461017 -0.021577723 -0.039116148 4281499468
-0.026947178 -0.019902527 -0.040891081 4281565513
-0.025443785 -0.018228061 -0.042663328 4281500234
-0.023602225 -0.018084072 -0.043112189 4281565513
-0.021583579 -0.018704616 -0.04290124 4281566279
-0.019918792 -0.017795697 -0.044009693 4281305414
-0.018076938 -0.017651327 -0.044458359 4281238604
-0.016604844 -0.015978679 -0.046222582 4281237838
-0.014768109 -0.015834451 -0.046669804 4281238094
-0.013121512 -0.014926471 -0.047773473 4281303628
-0.010901563 -0.016309097 -0.046908125 4281369418
-0.0092574954 -0.015401036 -0.04801105 4281239623
-0.0074204877 -0.015256286 -0.048457958 4281369928
-0.0053826272 -0.015874267 -0.048250824 4281303883
-0.0013049953 -0.024117708 -0.041511983 4281173579
0.0044796504 -0.038455606 -0.02956599 4281173579
0.0099474601 -0.051261023 -0.018948341 4281434699
0.013602838 -0.057201438 -0.014214801 4281367634
-0.025401652 -0.029111907 -0.035391584 4280906338
-0.023700058 -0.028198294 -0.036507659 4281366104
-0.021829545 -0.028052054 -0.036963582 4281498193
-0.020135693 -0.027138799 -0.038077589 4281564748
-0.018267613 -0.026992492 -0.03853273 4281565769
-0.016399447 -0.026846059 -0.038987797 4281303373
-0.014900614 -0.025167003 -0.040755235 4281172303
-0.013412282 -0.023488589 -0.042520065 4281434443
-0.011554454 -0.023342587 -0.042972337 4281434189
-0.0098892041 -0.022430822 -0.044078812 4281302353
-0.0082291812 -0.021519363 -0.045183934 4281434954
-0.0067723393 -0.019842923 -0.046940722 4281370184
-0.004724253 -0.020462297 -0.046737716 4281173833
-0.0010449477 -0.027199447 -0.041322216 4281239368
0.0043291338 -0.040049531 -0.030709568 4281239369
0.0093761832 -0.051363565 -0.021419602 4281434954
0.013024438 -0.057321973 -0.016697334 4281236308
-0.0024644434 -0.031205229 -0.04003074 4281690974
0.00063551217 -0.03565871 -0.036587536 4281822043
0.0045900084 -0.04317677 -0.030553918 4281822043
0.0088057816 -0.05145704 -0.02388428 4281887323
0.035642639 -0.053769968 0.024047768 4282602088
0.0079609416 0.016274385 0.067974113 4284901679
0.0094022155 0.018375568 0.065255255 4285688608
0.012662582 0.014658451 0.069199398 4285885214
0.017194116 0.0070671886 0.07757128 4285885723
0.029482866 0.0087024346 0.073795527 4285491239
0.0039936751 0.020247445 0.060583539 4285295908
0.0052211098 0.023002889 0.057133719 4285624093
0.0070304424 0.02381042 0.055905968 4285623584
0.009852916 0.021374799 0.058371037 4285820444
0.013315687 0.016995896 0.063043915 4285951769
0.016606756 0.013268106 0.066970825 4285754909
0.019083194 0.012134671 0.067944512 4285558048
0.020713158 0.013593011 0.065972805 4285427743
0.021681672 0.016993161 0.061798431 4285558558
0.022843303 0.019743908 0.058365054 4285689373
0.024872763 0.019904714 0.05787199 4285754653
0.028476678 0.015537459 0.062510915 4285754398
0.033255704 0.0079398453 0.070803374 4285820189
0.0028570592 0.021816429 0.055679105 4285755418
0.0042701177 0.023928486 0.052976884 4285820953
0.0058681592 0.025388345 0.051015958 4285689119
0.0082695 0.024244346 0.052004442 4285754909
0.011299901 0.021149553 0.055198595 4285820698
0.014148166 0.018707279 0.057650909 4285755418
0.016383464 0.018217221 0.057893761 4285558813
0.0177678 0.020327378 0.055198871 4285624604
0.019136246 0.022436388 0.052507848 4285755928
0.0207082 0.02389466 0.050553612 4285623838
0.022935718 0.023404263 0.050798558 4285492004
0.026067419 0.020317957 0.053968444 4285623329
0.03013517 0.014638282 0.060055554 4285754654
0.036550969 0.0024757162 0.073433667 4285558814
0.00049905851 0.020635165 0.054226547 4284967213
0.0019178651 0.022754185 0.051527776 4285624349
0.003320843 0.024872035 0.048832923 4285755929
0.0051091872 0.025682252 0.047613509 4285821209
0.0077053197 0.023880146 0.049335919 4285821208
0.010523375 0.021426588 0.051788941 4285755419
0.012945622 0.020279966 0.052769154 4285558558
0.014956124 0.020438977 0.052280471 4285624349
0.01653894 0.021902356 0.050326765 4285624349
0.018111181 0.023365017 0.048375651 4285755928
0.019892029 0.024175141 0.047158428 4285886999
0.022111285 0.023681875 0.04740373 4285820953
0.02523388 0.020583849 0.050567627 4285755418
0.029064531 0.015534658 0.055913053 4285755673
0.035695419 0.0026782006 0.069992192 4285886743
0.00014892966 0.019616961 0.052289039 4284967978
0.0013705492 0.022398185 0.048860282 4285559069
0.0027687624 0.02452223 0.046171479 4285558304
0.004752297 0.024678808 0.045689128 4285558049
0.0073450692 0.02286981 0.047407418 4285623583
0.0099538341 0.021062177 0.049121812 4285558303
0.011953559 0.021220256 0.048635691 4285624349
0.013742346 0.022032976 0.047418013 4285624349
0.015525877 0.022845361 0.046201669 4285624349
0.017304152 0.023657404 0.044986658 4285558558
0.019077145 0.024469141 0.043772936 4285689884
0.021509781 0.023319237 0.044747651 4285821209
0.024401639 0.020863198 0.047176532 4285689884
0.028449489 0.015142318 0.053238906 4285624348
0.035300374 0.001587972 0.068014607 4285624349
-0.00039292872 0.019261621 0.049620382 4285230118
0.00082411617 0.022051305 0.046199247 4285624348
0.0022175685 0.024181511 0.043516554 4285886743
0.0041957088 0.024337649 0.043035507 4285952278
0.006985262 0.021864161 0.045482196 4285820953
0.0095906667 0.020049606 0.047192521 4285624348
0.011587646 0.02020745 0.046707049 4285624349
0.013373896 0.021022163 0.045491628 4285624603
0.01536835 0.021179948 0.045006879 4285624349
0.016930621 0.022650603 0.043064728 4285624094
0.018919855 0.022808123 0.042581365 4285689374
0.021351982 0.021653775 0.043552898 4285689374
0.02401882 0.019844647 0.045248635 4285558558
0.028062036 0.014103573 0.051297352 4285558813
0.035364538 -0.00080823898 0.0674913 4285558813
-0.0011259206 0.019575886 0.04622528 4285295654
0.00047322735 0.021053191 0.044277027 4285689373
0.0016672388 0.023849919 0.040868104 4285623838
0.0036399774 0.024005603 0.040388346 4285820698
0.0064233094 0.021522764 0.042830013 4285821208
0.009433236 0.018382244 0.045996249 4285689629
0.01163806 0.017880838 0.046239838 4285624348
0.013216496 0.019356973 0.044296965 4285624604
0.014997609 0.020173546 0.043084472 4285690139
0.016557552 0.021648403 0.041146174 4285755418
0.018325493 0.022464085 0.039937004 4285952534
0.020973001 0.020646695 0.041632488 4286018324
0.023860328 0.018172726 0.044049285 4285821463
0.028128097 0.011753909 0.050808288 4285624604
0.035657503 -0.0038662404 0.067688912 4285624604
-0.0024329796 0.021891765 0.040645882 4285755674
-0.00065498799 0.022709742 0.039435387 4285821209
0.00072359294 0.02485197 0.036766089 4285623329
0.0028853789 0.024344716 0.037018307 4285623584
0.0058622323 0.021190453 0.040184349 4285755164
0.0088657141 0.018038418 0.043343931 4285689883
0.011064921 0.017534353 0.04358723 4285558813
0.012427982 0.019675743 0.040921994 4285624349
0.013988212 0.021154895 0.038986884 4285755674
0.015537858 0.022633333 0.037054352 4285754909
0.017513633 0.022789773 0.036574237 4285557794
0.019931454 0.021625474 0.037542678 4285492004
0.023030892 0.018481575 0.04067935 4285755419
0.02819374 0.0094000734 0.050316162 4285689629
0.036407575 -0.0082523972 0.069324918 4285493023
-0.0037374869 0.02423447 0.035085723 4285558558
-0.0017810613 0.024388675 0.034609795 4285755673
-0.00021832809 0.025871985 0.032676943 4285952279
0.0025311783 0.023368753 0.035113618 4285952533
0.0053020306 0.020867284 0.037545167 4285887254
0.0082990602 0.017703719 0.040698096 4285624349
0.010285132 0.01786064 0.040215239 4285558813
0.011430591 0.020671483 0.036831498 4285624349
0.012980524 0.022154208 0.034902163 4285755674
0.014735367 0.022973157 0.033699386 4285952534
0.016484933 0.023791809 0.032497898 4285755163
0.018670823 0.023284826 0.032743119 4285623838
0.021755841 0.020128775 0.035875082 4285689629
0.027354574 0.0096908063 0.046935566 4285755673
-0.004465308 0.024602618 0.031729251 4285493278
-0.0027109757 0.025423072 0.03052775 4285558304
-0.00076515973 0.02557648 0.03005443 4285623838
0.0019781142 0.02306395 0.032486051 4285492513
0.004338719 0.02188579 0.033461362 4285558558
0.0069146827 0.020042442 0.035159089 4285624349
0.0086774267 0.020863954 0.033955842 4285558814
0.010014996 0.023016505 0.031306624 4285559068
0.011761934 0.023836944 0.030107347 4285558813
0.013503617 0.02465703 0.028909395 4285690139
0.015675878 0.024146739 0.029156184 4285755929
0.017853485 0.02363693 0.029401721 4285690393
0.020706147 0.021133766 0.031807281 4285559068
0.026742594 0.0093306378 0.0442845 4285624603
-0.0058123991 0.020144545 0.033945084 4284901169
-0.0046183132 0.022976216 0.030562198 4285426723
-0.0026700497 0.023129717 0.030088207 4285360933
-0.00072168186 0.023283318 0.029614257 4285426724
0.001625061 0.022099528 0.030589627 4285426723
0.0037807003 0.021585211 0.030838436 4285492768
0.0061461776 0.020403106 0.031809323 4285558814
0.0076939762 0.021894276 0.029886933 4285426978
0.009231206 0.023384731 0.02796712 4285492514
0.010970287 0.024206731 0.02677138 4285426979
0.01313423 0.023693476 0.027018471 4285360933
0.015303539 0.02318069 0.02726437 4285295398
0.017698554 0.022001415 0.028228452 4285426979
0.020550281 0.019489378 0.030627677 4285427488
0.026582839 0.0076463558 0.043076299 4285493279
-0.0055894777 0.017166011 0.034223057 4285098283
-0.0040074214 0.018663768 0.032295227 4285820699
-0.0022422597 0.019489426 0.031094337 4285755163
-0.00028602034 0.019643627 0.030618457 4285820954
0.001670301 0.019797906 0.030142611 4285755419
0.0036267191 0.019952286 0.029666809 4285755673
0.0055832118 0.020106744 0.029191045 4285755928
0.0073329061 0.020931605 0.027994232 4285755929
0.0092868879 0.021086041 0.027519209 4285821719
0.010816526 0.022580363 0.025604578 4285624348
0.012980163 0.022064876 0.0258501 4285492514
0.015366664 0.020880405 0.02681295 4285426468
0.017543653 0.020366143 0.027055355 4285492768
0.020617254 0.017176177 0.030165462 4285493024
0.026648583 0.0052934736 0.042584851 4285427488
-0.0037796572 0.015681434 0.032568902 4285624349
-0.0020090789 0.016509701 0.031368323 4285689884
-4.7646463e-05 0.01666427 0.030891148 4285689883
0.0019138902 0.016818952 0.030414028 4285755674
0.0038755164 0.016973723 0.029936945 4285689884
0.005837217 0.017128576 0.029459903 4285689883
0.0075923204 0.017956037 0.028263396 4285689884
0.0093421787 0.018783193 0.027068244 4285689628
0.011086784 0.019609999 0.025874423 4285689884
0.013255419 0.019092701 0.026117085 4285689884
0.015429402 0.018575918 0.026358513 4285689884
0.01760873 0.018059637 0.026598705 4285624348
0.020906456 0.014187504 0.030415928 4285624094
0.027164469 0.0015942752 0.043520436 4285624094
-0.0051459633 0.011183057 0.034760468 4285163819
-0.0037432089 0.013366435 0.03211464 4285558814
-0.0019698814 0.014197137 0.030914968 4285624349
-5.8859587e-06 0.014351893 0.030437162 4285689884
0.0019581914 0.014506754 0.029959405 4285624603
0.0039223582 0.014661696 0.029481685 4285690139
0.0056828037 0.01549169 0.028285457 4285624604
0.0074379966 0.016321346 0.027090555 4285690139
0.0091879666 0.017150689 0.025897006 4285689883
0.011356227 0.016631063 0.026138039 4285689883
0.013529858 0.016111951 0.02637784 4285689883
0.015491752 0.016267244 0.02590107 4285689884
0.017453676 0.016422633 0.025424359 4285689629
0.020972427 0.011863723 0.02994612 4285624093
0.027229002 -0.00077138841 0.043019816 4285624093
-0.0051130429 0.0088570714 0.034299076 4285230118
-0.0040878057 0.012403753 0.030216882 4285428508
-0.0023170188 0.013236385 0.029019492 4285493534
-0.00055143982 0.014068697 0.027823439 4285559069
0.0018038154 0.012867946 0.02878351 4285493533
0.0035669282 0.013700236 0.027588187 4285559069
0.0053248182 0.014532205 0.026394201 4285559324
0.0068712085 0.016040795 0.024485225 4285559068
0.0090337917 0.015518434 0.024725934 4285559069
0.011413306 0.014320038 0.025680436 4285558813
0.013589269 0.013798915 0.025918031 4285624603
0.015553707 0.013954405 0.025440635 4285624603
0.017518187 0.014109988 0.024963299 4285624603
0.021038011 0.0095357783 0.029473318 4285624604
0.02774282 -0.0044921786 0.043939829 4285624349
-0.0058304034 0.0092494972 0.030957555 4284903973
-0.0046220496 0.012126137 0.027603908 4285362973
-0.002470918 0.011600111 0.027845344 4285429019
-0.00090067089 0.013114605 0.025933566 4285494554
0.0012533218 0.012588989 0.026174447 4285428763
0.0028104857 0.014102634 0.024265984 4285428764
0.0047639012 0.014256783 0.023790924 4285428509
0.0067173913 0.014411036 0.023315912 4285428254
0.0088796541 0.013886433 0.02355505 4285493788
0.011469997 0.012004856 0.025219845 4285493789
0.013648309 0.011481669 0.025455264 4285559068
0.015398616 0.012315713 0.024265045 4285559068
0.01736298 0.012471285 0.023787731 4285559068
0.020659253 0.0085594468 0.027575778 4285624604
0.027581515 -0.0061929077 0.042719834 4285624604
-0.001054205 0.011482988 0.024762785 4285036319
0.00090157986 0.011637133 0.024286998 4285101344
0.0026569292 0.01247317 0.023096817 4285101598
0.0048134252 0.011945724 0.023335574 4285036063
0.0067694634 0.012100164 0.022859933 4285100833
0.0089340582 0.011573534 0.023096854 4285231904
0.011104017 0.011047423 0.023332542 4285296928
0.013279336 0.010521825 0.023566989 4285297694
0.0150271 0.011357822 0.022379069 4285297948
0.017207807 0.010832839 0.02261235 4285362974
0.020502709 0.0069077015 0.026390893 4285362974
0.02742024 -0.0078933761 0.041500024 4285362719
0.0085715055 0.010623232 0.021213831 4284971039
0.010527544 0.010777842 0.020738317 4284970528
0.012697237 0.010249596 0.020972492 4284905248
0.014656028 0.010404617 0.020496452 4284971039
0.01705266 0.0091946609 0.021437155 4285101598
0.020789307 0.0038915724 0.026621578 4285166879
0.027931631 -0.01163996 0.042401612 4285101088
-0.011228614 0.0043443814 0.013525279 4285165604
-0.0098500736 0.0065914169 0.01093425 4285493279
-0.0082988702 0.0081392266 0.0090530068 4285689629
-0.0061848201 0.0075925551 0.0092902444 4285623839
-0.0034840442 0.0049532652 0.011640133 4285296674
-0.00095837936 0.0030132383 0.013280945 4285101344
-0.012414042 -0.00092615932 0.016369814 4284901423
-0.011745721 0.0041320622 0.01095584 4285427488
-0.010000776 0.0049842075 0.0097808205 4285820954
-0.008825805 0.00793707 0.006494116 4285754909
-0.0065264739 0.0066876262 0.0074347518 4285820699
-0.0038293041 0.0040392503 0.0097789653 4285689628
-0.0011108257 0.0013926551 0.012118066 4285362208
0.00083348528 0.0015458614 0.011645043 4285362974
0.0027778745 0.001699172 0.011172082 4285297438
0.004313983 0.0032507926 0.009298237 4285231648
0.0056327321 0.0055005029 0.0067272633 4285362463
0.0075640529 0.0056531057 0.0062577166 4285623838
0.0099196769 0.0044089109 0.0071852654 4285754653
0.012930319 0.0010709241 0.010203971 4285558558
0.01683728 -0.0050570145 0.01600525 4285164329
-0.013826765 0.0023714826 0.010271085 4285164328
-0.012627453 0.0053348169 0.0069848411 4285821209
-0.010707632 0.0054855719 0.0065173879 4285558048
-0.008975748 0.0063389689 0.0053472444 4285557539
-0.0068676621 0.0057873949 0.005582625 4285623584
-0.0039807521 0.0024278164 0.0086226016 4285689629
-0.0014592372 0.00047426671 0.010254577 4285690139
0.00048229843 0.00062724203 0.0097822249 4285493279
0.0022225864 0.0014818534 0.0086103771 4285559069
0.0035497248 0.0037387013 0.0060421862 4285624348
0.0050676204 0.0052933618 0.0041761138 4285689629
0.0072027817 0.0047446042 0.0044054911 4285689629
0.0095552132 0.0034957752 0.005330544 4285755163
0.012776602 -0.00055394322 0.009038277 4285886488
0.016681552 -0.0067017898 0.014825312 4285755164
0.023052996 -0.020546153 0.028245928 4285493534
0.030420708 -0.037181273 0.044418246 4285427743
-0.014157217 0.0014680848 0.0084133558 4285164584
-0.012959842 0.0044400096 0.0051341038 4285624603
-0.011042807 0.0045905188 0.0046673119 4285887253
-0.0095013417 0.0061506778 0.0027982183 4285821208
-0.0072083957 0.004891865 0.0037338696 4285886999
-0.0045184419 0.0022253394 0.0060667284 4285887253
-0.002198793 0.00096888095 0.0069959946 4285624604
-0.00046379492 0.0018251166 0.0058270209 4285558813
0.0012659729 0.0026810542 0.0046594143 4285558813
0.0027867481 0.0042402074 0.0027958155 4285821718
0.004503388 0.0050953105 0.0016315542 4285689629
0.0066329017 0.0045439526 0.0018606186 4285492004
0.0091912039 0.0025873557 0.0034792051 4285492258
0.012194198 -0.0007731989 0.0064833947 4285624349
0.016308844 -0.0076438114 0.012951536 4285624349
0.02289298 -0.022234857 0.027034523 4285559323
0.030255524 -0.038923025 0.043168828 4285559068
-0.015026238 0.0026921704 0.0044544246 4285230119
-0.013474111 0.0042573288 0.0025858432 4285493279
-0.011932466 0.0058217123 0.00071992353 4285690139
-0.010026049 0.0059714839 0.00025578588 4285821209
-0.0077389553 0.0047078356 0.0011895262 4285755673
-0.0050552636 0.0020320341 0.0035173465 4285690139
-0.0029370487 0.0014770478 0.0037471261 4285624349
-0.0014081709 0.0030409619 0.0018847138 4285624604
0.0005119592 0.0031923354 0.0014176294 4285558558
0.0020250678 0.0047552213 -0.00044079311 4285624348
0.0037338249 0.0056119263 -0.0016015545 4285887253
0.0058550537 0.0050576702 -0.0013720728 4285821463
0.0086161308 0.002388753 0.00093743764 4285821464
0.011612643 -0.00098326802 0.0039350223 4285756184
0.015936583 -0.0085811242 0.011081135 4285690393
0.022952454 -0.024627693 0.026515165 4285558813
0.030312484 -0.041368708 0.042610802 4285493024
0.03487787 -0.048947021 0.049698487 4285361699
-0.015534613 0.0025146306 0.0019082259 4285361699
-0.014169626 0.0047932938 -0.0006551221 4285558814
-0.012450881 0.0056521222 -0.0018173233 4285623839
-0.010362446 0.0050922334 -0.0015821308 4285558303
-0.0078884698 0.0031149909 4.6448782e-05 4285623839
-0.0053984709 0.0011390597 0.001671249 4285624094
-0.0034786277 0.0012901649 0.0012040548 4285624349
-0.0019547679 0.0028580725 -0.00065386482 4285559069
-0.00024077296 0.0037171617 -0.0018144399 4285624348
0.0014680102 0.0045759007 -0.002973618 4285558558
0.0031715482 0.0054343343 -0.0041314438 4285558558
0.0052871145 0.0048774704 -0.0039022695 4285624093
0.0080419369 0.00219924 -0.0015977435 4285558559
0.010818023 -0.00047717988 0.00070170313 4285558813
0.015997965 -0.010927461 0.010595886 4285558814
0.023011545 -0.027024642 0.025992842 4285493279
0.030369056 -0.043818481 0.04204984 4285493278
0.03448553 -0.050008453 0.047741562 4285361698
-0.016534965 -0.0035009161 0.0054247901 4284966449
-0.016579919 0.004482232 -0.0027264338 4285624604
-0.01504577 0.0060546622 -0.0045840852 4285755928
-0.01333753 0.0069148019 -0.0057420619 4285886998
-0.010698393 0.0042177364 -0.0034167096 4285886999
-0.0082278103 0.0022335872 -0.001792185 4285755418
-0.0057412125 0.00025081635 -0.00017146394 4285624093
-0.0038241558 0.00040169805 -0.0006379839 4285624349
-0.0021048412 0.0012632236 -0.0017982684 4285624603
-0.00059124082 0.0028348342 -0.0036504008 4285624348
0.00091183186 0.0044056773 -0.005499851 4285624094
0.0026101321 0.0052659437 -0.0066548102 4285624093
0.0047200732 0.0047063902 -0.006425865 4285558303
0.0074686222 0.0020188838 -0.0041263625 4285492769
0.010665905 -0.0020854026 -0.0004520528 4285558814
0.015842576 -0.012568824 0.0094183926 4285558814
0.023289287 -0.030134559 0.026156252 4285427998
0.030425241 -0.046272367 0.041485935 4285493533
0.034093648 -0.051065117 0.045788057 4285361953
-0.017214209 -0.0029629916 0.0021802988 4285097773
-0.016906828 0.0036153272 -0.00455801 4285558814
-0.015738487 0.0066199824 -0.0078040706 4285755418
-0.013853773 0.0067678764 -0.0082630552 4285755164
-0.01122088 0.0040614977 -0.0059426958 4285820953
-0.0085666887 0.0013568997 -0.0036274418 4285886999
-0.0060834996 -0.00063274056 -0.002010813 4285624094
-0.0041692294 -0.00048208982 -0.002476668 4285558813
-0.0022548661 -0.00033131987 -0.0029424522 4285558813
-0.00094125792 0.0019572154 -0.0054829866 4285690139
0.00035651773 0.004244633 -0.0080195758 4285755673
0.0018440261 0.0058187321 -0.0098618995 4285952789
0.0041538849 0.0045444593 -0.0089429636 4285887253
0.0071070381 0.0011359826 -0.0059594717 4285821463
0.01051382 -0.0036933199 -0.0016056001 4285558813
0.016119592 -0.015632503 0.0096165854 4285493278
0.023347408 -0.032541968 0.025626505 4285427743
0.030259559 -0.048019469 0.040232666 4285427743
0.033478074 -0.051406384 0.043152168 4285361698
-0.018420771 -0.00026164949 -0.0031419136 4285164329
-0.017769866 0.0049024299 -0.0084717348 4285756183
-0.016248405 0.0064825937 -0.010319785 4285558304
-0.014369115 0.0066300407 -0.010777458 4285426468
-0.011929315 0.0046302304 -0.0091553917 4285558048
-0.0092840269 0.0019161478 -0.0068445224 4285558303
-0.0068095475 -8.0764294e-05 -0.0052306885 4285624603
-0.0049033612 6.9238245e-05 -0.005694584 4285558813
-0.0029970929 0.00021934509 -0.0061584199 4285558813
-0.0016909465 0.0025138706 -0.0086922329 4285690139
-0.00019790977 0.0040926784 -0.010532711 4285755419
0.0012845658 0.0056707934 -0.01237059 4285689628
0.0040046126 0.002963379 -0.010077333 4285689629
0.0069565848 -0.00045615435 -0.0071017379 4285821463
0.010575093 -0.0060146227 -0.0020721368 4285624604
0.016179826 -0.017991148 0.0091224983 4285493023
0.023623746 -0.035666712 0.025779268 4285493023
0.030093903 -0.049766243 0.038979635 4285427743
0.032863356 -0.051738456 0.040522799 4285296163
-0.019624829 0.0024664998 -0.0084449574 4285230373
-0.018631205 0.0062074885 -0.012372581 4285756438
-0.017120063 0.0077911988 -0.014214867 4285953553
-0.015251502 0.0079377815 -0.014669942 4285756183
-0.012823049 0.0059304982 -0.01305002 4285756183
-0.010000065 0.0024888888 -0.01005185 4285821974
-0.007918112 0.0019199178 -0.0098215584 4285558814
-0.0060253143 0.00206884 -0.010282213 4285559069
-0.0043296367 0.0029350594 -0.011431854 4285558813
-0.0026392043 0.0038010105 -0.01258019 4285755929
-0.0013589971 0.0061001256 -0.015102662 4285755929
0.00052083284 0.0062484816 -0.015559826 4285426979
0.0028163195 0.0049642771 -0.014643958 4285426724
0.0061747879 0.00010035932 -0.01030131 4285493023
0.010209754 -0.0069082379 -0.0039120317 4285624604
0.016455431 -0.021069624 0.0093100052 4285624603
0.023680873 -0.038084485 0.025242014 4285624603
0.029707214 -0.05079741 0.037043586 4285427489
0.032025792 -0.051346287 0.037217394 4285230119
-0.020650543 0.0045003816 -0.013036087 4285427743
-0.019490831 0.0075304881 -0.016260553 4285493534
-0.017627828 0.007676512 -0.016714368 4285558558
-0.015764706 0.0078226551 -0.017168131 4285558813
-0.0131559 0.0050880536 -0.014861554 4285493279
-0.010714836 0.0030752197 -0.013249502 4285493789
-0.008832857 0.0032231733 -0.01370761 4285427998
-0.0073395073 0.0048104599 -0.015541941 4285493534
-0.0058566555 0.0063969865 -0.01737358 4285493534
-0.0039850473 0.0065444559 -0.017828919 4285559068
-0.0023156665 0.0074110031 -0.018970368 4285888018
-0.0004465878 0.0075584836 -0.01942494 4285822483
0.002045352 0.0055504963 -0.017824717 4285822229
0.0051840171 0.0013888106 -0.014175449 4285756694
0.0096319541 -0.0070789605 -0.0064321803 4285690648
0.016083583 -0.022002861 0.0074425153 4285559069
0.023737628 -0.040506378 0.02470188 4285559069
0.029320979 -0.051823825 0.035110936 4285427489
-0.011239477 0.0029528812 -0.01574962 4285100323
-0.0097459182 0.0045443848 -0.017580781 4285100068
-0.0082628652 0.006135188 -0.019409295 4285231138
-0.0067903586 0.0077253096 -0.021235209 4285297184
-0.0049294904 0.0078719147 -0.021687945 4285362464
-0.0032706372 0.0087398216 -0.022825211 4285362208
-0.0014122948 0.0088864565 -0.023277162 4285362209
0.00086088479 0.0075917244 -0.022362407 4285361954
0.0039849095 0.0034157336 -0.018719388 4285361953
0.0088423491 -0.0065202713 -0.0096277753 4285427744
0.016142868 -0.024371646 0.0069411639 4285427744
0.023575991 -0.042212412 0.023478022 4285427744
0.028714547 -0.052125819 0.032501586 4285296418
-0.001558166 0.0073396862 -0.024386968 4285034789
0.0091164447 -0.0095607042 -0.0094114346 4285032748
0.016201764 -0.0267445 0.006436877 4285032748
0.023632165 -0.044640258 0.022933548 4285032748
0.027888538 -0.051696688 0.029220266 4285164584
