# .PCD v0.7 - Point Cloud Data file format
VERSION 0.7
FIELDS x y z rgba
SIZE 4 4 4 4
TYPE F F F U
COUNT 1 1 1 1
WIDTH 302
HEIGHT 1
VIEWPOINT 0 0 0 1 0 0 0
POINTS 302
DATA ascii
0.008420784 -0.001643613 0.03012166 4287509309
0.01159684 -0.0058240816 0.033748239 4288293433
0.0032370277 -4.7013164e-05 0.026421426 4287182654
0.0047616772 0.0022910163 0.023873927 4289799209
0.0071752742 0.00099823624 0.024757689 4289733163
0.010334004 -0.0031965896 0.028378436 4289537068
0.013710979 -0.008114405 0.032675944 4290582824
-0.00069957599 -0.0035262033 0.027529875 4287575609
0.00067372993 -0.00045144558 0.024296219 4289015084
0.0020259582 0.002621837 0.021067699 4289211178
0.0037132353 0.0042368919 0.019213283 4289473063
0.0059322678 0.0036667585 0.019413179 4288949803
0.0092571042 -0.0012704432 0.023711367 4289734438
0.012433156 -0.005476959 0.027318211 4289735459
0.015263733 -0.0082257017 0.029553534 4289079853
-0.0039258935 -0.0010040328 0.0226619 4289473573
-0.0022174977 0.00061661005 0.02080554 4289277734
-0.00051958114 0.0022365898 0.018951701 4289342503
0.00099261105 0.00458657 0.016416954 4290323744
0.0024890043 0.0069355145 0.013886014 4289081128
0.0048723035 0.0056315809 0.014770383 4289015594
0.0078159012 0.0021382198 0.017697239 4289538599
0.010971986 -0.0020828694 0.021298887 4290324254
0.013783019 -0.0048419237 0.023532266 4289015849
0.016424213 -0.0068696961 0.02508091 4288295474
-0.011340212 0.0019681081 0.018086376 4287246913
-0.0093111098 0.0021245778 0.017603872 4289732653
-0.0072818696 0.0022811666 0.017121421 4289408039
-0.005085405 0.0017043427 0.017322848 4289473829
-0.0030532144 0.0018614009 0.016839875 4289408038
-0.0013656504 0.0034848899 0.014991837 4289735204
0.00013639778 0.0058406442 0.012464399 4290650908
0.0018003322 0.0074625313 0.010622138 4290650908
0.0039947592 0.006886147 0.010824507 4289146408
0.0069265738 0.0033809692 0.01374591 4290258718
0.0098850317 -0.00012201071 0.01666108 4289800484
0.012681816 -0.0028908923 0.018891225 4289146409
0.015118014 -0.0041945577 0.019760055 4289343780
0.018145729 -0.0076917782 0.022659073 4288558379
-0.013992961 0.0023443252 0.015289957 4288816949
-0.01228993 0.0039727315 0.013441065 4289997089
-0.01011268 0.003391996 0.013645234 4289866018
-0.007929977 0.0028117895 0.01384818 4289735203
-0.0055749454 0.0014963225 0.014732184 4290585884
-0.0035482086 0.001652956 0.014250504 4289538853
-0.0018656887 0.0032804161 0.012406895 4289866019
-0.00036847964 0.0056422651 0.00988557 4290062114
0.0012903921 0.0072681457 0.0080477726 4289277224
0.0036593117 0.0059543699 0.0089289378 4288623149
0.0062217228 0.0039070696 0.010486061 4289539109
0.0089856051 0.0011267811 0.01271732 4289277223
0.011206511 0.00055062026 0.012912014 4289473574
0.013814326 -0.0014928132 0.014458688 4289212198
0.016824942 -0.0050022826 0.017353496 4288689194
0.019666109 -0.0077760443 0.019566799 4287837493
-0.018188234 0.00036308169 0.015031705 4289012534
-0.01678149 0.0034743771 0.011815818 4288884014
-0.0149276 0.0043678582 0.010654518 4290193183
-0.013078857 0.0052610338 0.0094945151 4289343013
-0.011073921 0.0054156035 0.0090177301 4288623404
-0.0087408051 0.0040940046 0.0099035036 4288885034
-0.0060636215 0.0012974292 0.012148106 4289604388
-0.0040423386 0.0014536083 0.0116677 4289866019
-0.0023648702 0.0030849725 0.0098286141 4289800483
-0.00069788098 0.0047157034 0.0079920907 4289408038
0.0013131499 0.0048714504 0.0075143892 4289473318
0.0035042427 0.0042903721 0.007714266 4289212199
0.0058833063 0.0029731765 0.0085897651 4289539364
0.0080878623 0.0023934394 0.0087865982 4289670178
0.0099220239 0.0032868236 0.007631069 4289670178
0.01213206 0.0027077645 0.0078267921 4290520348
0.014927067 -7.8439713e-05 0.010044346 4289604388
0.018330928 -0.0050699338 0.014278071 4290911263
0.021573504 -0.0093228966 0.017829949 4288031803
-0.018944453 0.0016586334 0.011080945 4287903028
-0.01739442 0.0040366426 0.0085562225 4288949293
-0.015548449 0.0049317032 0.0073983837 4289931554
-0.014024612 0.0073079243 0.0048800651 4289735203
-0.011871915 0.0067209005 0.0050867368 4289735203
-0.0093861669 0.0046536848 0.0066515487 4289866019
-0.0067178868 0.0018477142 0.0088916663 4290650908
-0.0047047026 0.0020032525 0.0084131751 4289866273
-0.0028631836 0.0028986782 0.007256927 4289735458
-0.00085241348 0.0030542687 0.006779192 4289212198
0.0009814091 0.0039492995 0.0056250188 4289800993
0.003349226 0.0026267022 0.0064998213 4289605154
0.0053629763 0.0027828962 0.006021658 4289604899
0.0071917921 0.0036779493 0.004868906 4289539363
0.0088277198 0.0053111613 0.0030435342 4289866529
0.011024121 0.0047288686 0.0032408442 4289212198
0.013611898 0.0026709065 0.0047824383 4289147174
0.016802598 -0.0015992671 0.0083366428 4290193948
0.02022351 -0.0066045523 0.012554871 4288753709
0.023078764 -0.0093943551 0.014751779 4288687665
-0.019097608 -2.1979213e-06 0.0098680984 4287052093
-0.017547127 0.0023823455 0.0073481891 4288034354
-0.015856732 0.0040227026 0.0055120159 4289277734
-0.014335085 0.0064052492 0.0029991511 4289604643
-0.012346338 0.0065585375 0.0025261864 4289016104
-0.010030251 0.0052268878 0.003409382 4289212199
-0.0075371489 0.0031538308 0.0049675871 4289670179
-0.005703643 0.0040506721 0.0038148053 4289800995
-0.0037037507 0.0042052716 0.0033395365 4289539363
-0.0013552941 0.0028765798 0.0042154584 4289212454
0.00082700327 0.0022903681 0.004413981 4289408548
0.0028351955 0.0024459809 0.0039370228 4289212709
0.0044791624 0.004083924 0.0021128543 4289736224
0.0062974095 0.0049803257 0.00096425414 4290128414
0.0079229809 0.0066170767 -0.00085537508 4290586139
0.0097281523 0.0075126663 -0.0020006448 4288820009
0.012299232 0.0054469258 -0.0004600659 4288623148
0.015277196 0.0019023418 0.002417881 4288819498
0.018281747 -0.001639992 0.0052895788 4289408294
0.021312887 -0.0051801205 0.0081550647 4289081128
0.024167223 -0.0079786181 0.01034574 4287641143
-0.019100551 -0.0024085045 0.0093351249 4286921534
-0.017546948 -1.7166138e-05 0.0068193544 4286856253
-0.016164545 0.0031183958 0.0036290791 4287969329
-0.014486995 0.0047621727 0.0017993767 4289473573
-0.012659159 0.0056603849 0.00064930692 4289604644
-0.010346256 0.0043240786 0.0015299954 4289800738
-0.0081886761 0.0037332773 0.0017323643 4289670434
-0.0063630641 0.0046316236 0.00058312342 4289801248
-0.004371278 0.0047855973 0.00010978431 4290651673
-0.0020313449 0.0034519136 0.00098437443 4289539108
0.00031930953 0.0021191239 0.001856558 4290193183
0.0023220479 0.0022743121 0.0013808943 4289735458
0.0039609484 0.0039162487 -0.00043883175 4289539620
0.0055893362 0.0055574328 -0.0022559352 4289801248
0.0072071962 0.0071979612 -0.0040704794 4289997343
0.0091943853 0.0073524565 -0.0045420676 4289604899
0.011374243 0.0067645609 -0.00434402 4289604388
0.014340397 0.0032082349 -0.001471553 4289866274
0.016937368 0.0011382177 5.8118254e-05 4289407528
0.019750867 -0.0016722977 0.0022517815 4289211944
0.02299203 -0.0059642792 0.005774511 4289342758
0.026059249 -0.009512268 0.0086234417 4286856253
-0.018953901 -0.0055667609 0.0094771367 4286724673
-0.017547149 -0.0024207532 0.0062875468 4286855998
-0.016006183 -2.3782253e-05 0.0037798136 4287183929
-0.01448096 0.0023720786 0.0012759455 4288296238
-0.012650404 0.003272593 0.00012689829 4289538853
-0.010661822 0.0034259558 -0.00034596398 4289800995
-0.0085072219 0.0028327182 -0.00014455989 4289800993
-0.0066842102 0.0037330389 -0.0012915302 4289670434
-0.0048663951 0.0046331137 -0.0024372283 4290062113
-0.0027061291 0.0040406436 -0.0022368506 4287639614
-0.00036399439 0.0027028769 -0.0013659969 4290453284
0.0016306378 0.0028574467 -0.0018397309 4289866529
0.0034436062 0.003757596 -0.0029838569 4289866783
0.005066935 0.0054027736 -0.0047965087 4289539618
0.0068668239 0.0063021705 -0.0059373379 4289801249
0.0088512078 0.0064564198 -0.0064082742 4288819754
0.011220422 0.0051214546 -0.0055432431 4289277223
0.013795335 0.0030430704 -0.0040133819 4289277224
0.016188562 0.0017102435 -0.0031538419 4288884524
0.018993128 -0.0011096597 -0.00096465275 4288295218
0.02242792 -0.006159246 0.0032158215 4287641144
-0.019257251 -0.0064831004 0.007583743 4286593603
-0.017700087 -0.0040785074 0.0050769839 4286790463
-0.016003605 -0.0024247244 0.0032492485 4286987578
-0.014632966 0.00072742999 7.5025484e-05 4287576374
-0.013123047 0.0031287596 -0.002420228 4289081129
-0.011302914 0.0040307641 -0.0035650749 4289342759
-0.0093222819 0.0041836053 -0.0040359646 4289473574
-0.0073415227 0.0043365657 -0.0045068003 4289735714
-0.0055315904 0.0052381456 -0.005648952 4288949803
-0.0033796392 0.0046429038 -0.0054482855 4287116609
-0.001046028 0.003300108 -0.0045787133 4289211690
0.00094049051 0.003454037 -0.00505054 4289866529
0.0029271208 0.0036080778 -0.0055222958 4289997599
0.0045454092 0.0052571595 -0.0073304176 4290258718
0.0067137666 0.0046638101 -0.0071331821 4289604643
0.0090770423 0.0033239126 -0.0062701367 4289211944
0.011258818 0.0027318597 -0.0060758814 4289081129
0.013640791 0.0013937205 -0.0052171201 4288230193
0.016230922 -0.00068995357 -0.0036956854 4287771958
0.019237284 -0.0042646453 -0.00084904023 4287444793
0.022270225 -0.0078371614 0.0019913893 4287378749
-0.017852966 -0.0057359338 0.0038666353 4286463044
-0.015846554 -0.0055816174 0.0033892263 4286922044
-0.014469955 -0.0024203211 0.00022014603 4287183418
-0.013114411 0.00073947012 -0.002943825 4288427053
-0.01177993 0.0038976893 -0.0061026681 4289015594
-0.0099702179 0.0048012137 -0.0072433464 4289865763
-0.0083337463 0.0064553022 -0.0090530701 4290126884
-0.006366279 0.0066073462 -0.0095206648 4289407274
-0.0043986849 0.0067595318 -0.0099881962 4288883503
-0.0017267801 0.0039107651 -0.0077815801 4289734693
0.00043032691 0.0033139884 -0.0075835995 4289539109
0.0025928468 0.0027177334 -0.0073868334 4289342759
0.0043927468 0.0036213249 -0.0085244812 4289800738
0.0069340765 0.0015268475 -0.0069967844 4289211944
0.009302076 0.00018299371 -0.0061382018 4288688684
0.011680767 -0.0011598915 -0.0052820444 4288230959
0.013875522 -0.0017530322 -0.0050923936 4288034353
0.016470175 -0.0038428158 -0.0035770182 4287575608
0.019480657 -0.0074280649 -0.00073959492 4287248444
0.022517718 -0.011011124 0.002091622 4287051328
-0.016308811 -0.0057305694 0.0008352194 4286922299
-0.014464986 -0.0048226118 -0.00031221099 4287379513
-0.01294617 -0.0024076179 -0.0027996693 4288165168
-0.011930939 0.0022667348 -0.0072935075 4288230448
-0.01061688 0.0054322332 -0.010440867 4289407528
-0.009156011 0.0078431666 -0.012914319 4289603624
-0.0071992949 0.0079943836 -0.013379361 4289080618
-0.005069267 0.007393077 -0.013176803 4289015338
-0.0024062805 0.0045349151 -0.010974653 4289669413
-7.8976154e-05 0.0031829923 -0.010110054 4289407528
0.0022590272 0.0018320829 -0.0092479289 4289146664
0.0044239312 0.0012339726 -0.0090532787 4288950314
0.0067806877 -0.00011526048 -0.0081953667 4288885035
0.0093372315 -0.0022149384 -0.0066761896 4288230449
0.01171802 -0.0035620406 -0.0058237892 4287903540
0.013915055 -0.0041571409 -0.0056363735 4287380023
0.0165116 -0.0062533468 -0.004126342 4287052604
-0.016615774 -0.0066267103 -0.0010418613 4286528068
-0.014460366 -0.0072290376 -0.00084751286 4286986560
-0.012778733 -0.005563125 -0.002661733 4287575864
-0.01191951 -0.00011958182 -0.0078156851 4287118139
-0.01060212 0.0030548722 -0.010957245 4287641653
-0.009473525 0.0069830567 -0.014760904 4289145643
-0.0075196102 0.0071340352 -0.015225302 4289145898
-0.0053925961 0.0065302998 -0.015023679 4289145898
-0.0027332194 0.0036631525 -0.012827277 4289407528
-0.00023083389 0.0015522018 -0.011300527 4288492079
0.0022875518 -0.00055733323 -0.0097775161 4288295983
0.0046383552 -0.001911521 -0.0089215972 4288034354
0.0069998391 -0.0032647029 -0.0080681499 4288034098
0.0093720146 -0.0046169311 -0.007217152 4288426034
0.011946436 -0.0067216307 -0.005707005 4286922044
-0.014926765 -0.0073646456 -0.0033902507 4286528068
-0.013090629 -0.0064528883 -0.0045324396 4287052349
-0.011746239 -0.0032678097 -0.0076739583 4287052604
-0.010587748 0.00067341328 -0.011476603 4287118139
-0.0094556361 0.004612729 -0.015272886 4288360753
-0.007669352 0.0055211335 -0.016402848 4288818734
-0.0053698905 0.004158169 -0.015538447 4288622383
-0.0028842725 0.0020392612 -0.014012759 4288230193
-0.00038265437 -7.828325e-05 -0.012490776 4287706934
0.0021349639 -0.0021943897 -0.010972516 4287706934
0.0044852011 -0.0035529882 -0.010119768 4287576118
0.0068461262 -0.0049105659 -0.0092694927 4287445049
0.0092177317 -0.00626719 -0.0084216502 4287575608
0.011600029 -0.0076228827 -0.0075762067 4286398785
0.013604987 -0.007466808 -0.0080518667 4286136898
0.018213008 -0.0094192177 -0.0070287082 4286658628
-0.013720769 -0.0058174208 -0.0077315737 4286789698
-0.011897709 -0.0049044043 -0.0088689383 4286986559
-0.010573726 -0.0017120987 -0.011998926 4286856253
-0.0092708059 0.0014787167 -0.015123812 4287510329
-0.0074791797 0.0023896843 -0.016253423 4287641144
-0.0051749721 0.0010226965 -0.015393403 4287510329
-0.0026848242 -0.0011023432 -0.013873768 4287183163
-0.00035654381 -0.00246723 -0.013019291 4287445049
0.0023435019 -0.0053483993 -0.010845543 4287510329
0.0043320842 -0.0051941127 -0.011317701 4287706423
0.006692443 -0.0065560937 -0.010470582 4287444793
0.0086864941 -0.0064011291 -0.01094385 4287379260
0.011062913 -0.0077615976 -0.010100352 4287444284
0.013062403 -0.007605955 -0.010574708 4286920513
-0.01188736 -0.007302925 -0.0094000306 4286593603
-0.010724481 -0.0033396482 -0.013187272 4287052094
-0.0090867393 -0.0016638041 -0.014980876 4287706423
-0.0072897598 -0.00075024366 -0.016110115 4287510329
-0.0051532052 -0.001359798 -0.015915729 4287510329
-0.0028362051 -0.002729997 -0.015062005 4287379513
-0.00050849095 -0.0040992945 -0.014210691 4287379514
0.0020102374 -0.0062283799 -0.012702596 4287182908
0.0039960183 -0.0060743243 -0.013174091 4287313724
0.0059818774 -0.0059201345 -0.013645516 4287313468
0.0081561208 -0.0065260082 -0.013459434 4286659139
0.010144778 -0.0063713491 -0.013931331 4286854979
-0.010875206 -0.0049668998 -0.014375393 4286724419
-0.0090703405 -0.0040507168 -0.015504976 4286855233
-0.0071011297 -0.0038985759 -0.015973024 4287117373
-0.0051318072 -0.0037463456 -0.016441017 4287248188
-0.0028127208 -0.0051207766 -0.015591049 4287313469
-0.00066040084 -0.0057310164 -0.015401852 4287051584
0.0016774386 -0.007103689 -0.01455617 4286789698
0.0034776218 -0.0061870962 -0.015684053 4286920004
-0.0092209838 -0.0056754947 -0.016691249 4286855234
-0.0072519295 -0.0055233985 -0.017159279 4287247933
-0.0051107705 -0.0061369389 -0.016969278 4287182654
-0.0031388551 -0.0059843659 -0.017437801 4287051329
-0.0011668354 -0.0058316737 -0.017906241 4286985538
-0.0097045228 -0.0057632476 -0.019192571 4286723908
-0.0077409223 -0.0056115538 -0.01965929 4287116354
-0.00577721 -0.0054597557 -0.020125968 4286789443
-0.003813386 -0.0053078085 -0.020592561 4287050819
0.025264792 -0.007378079 0.045280039 4282470509
0.031375311 -0.007192187 0.022986008 4282732394
-0.030160483 -0.0051524714 0.0053761881 4282667113
0.025014192 -0.010155872 -0.023781033 4282928488
0.025773946 -0.0077902973 -0.028659249 4282797419
-0.022246208 -0.0044709146 -0.031256296 4282927978
-0.024320338 -0.0062089264 -0.031958595 4282928744
-0.033295613 -0.0068274736 -0.037502937 4283059558
-0.015446927 -0.0086587295 -0.039021067 4282535788
-0.017993193 -0.0080195367 -0.041649714 4282797928
-0.0057722069 -0.0061712116 -0.050314724 4281814394
-0.0062722974 -0.0061460286 -0.052725673 4282470509
