# .PCD v0.7 - Point Cloud Data file format
VERSION 0.7
FIELDS x y z rgba
SIZE 4 4 4 4
TYPE F F F U
COUNT 1 1 1 1
WIDTH 981
HEIGHT 1
VIEWPOINT 0 0 0 1 0 0 0
POINTS 981
DATA ascii
0.025635909 -0.032358363 -0.028129019 4282151503
0.026774768 -0.029163398 -0.031106247 4281631304
0.029084226 -0.030567117 -0.030192118 4281502019
0.033216454 -0.038864553 -0.023454316 4281436739
0.038019523 -0.049455464 -0.014787861 4281501254
0.031139128 -0.040578149 -0.024243444 4282674254
0.034695145 -0.046592817 -0.019466318 4281761353
-0.02991721 0.037160151 0.054387905 4278863278
-0.036025181 0.035831969 0.053621583 4279914644
-0.034722127 0.039929725 0.048726186 4278733229
-0.033228412 0.042702876 0.045337282 4278864809
-0.031186029 0.042169183 0.045700148 4278996389
-0.028554782 0.038331263 0.049806781 4278274738
-0.040464051 0.036631532 0.050212406 4282602344
-0.038932905 0.03941562 0.046822555 4279325340
-0.03710565 0.040206969 0.045685336 4278865318
-0.031654634 0.042579159 0.042280227 4278864044
-0.029382005 0.040716905 0.044136614 4278273719
-0.023813188 0.031693649 0.053809814 4278602924
-0.042925104 0.037579343 0.046420246 4282274159
-0.041393586 0.040372096 0.043036841 4279455134
-0.039574496 0.041164972 0.041902848 4278800039
-0.037654929 0.041291513 0.041517794 4278734504
-0.027220875 0.037269354 0.044808634 4278340274
-0.025037944 0.036067668 0.04590904 4278668969
-0.022968426 0.035531498 0.046263278 4278538153
-0.021020368 0.035660371 0.04587286 4278603434
-0.016329467 0.031932894 0.04954689 4278404023
-0.045268148 0.037877623 0.043385327 4280701318
-0.043636195 0.040010449 0.040755697 4278272699
-0.041919976 0.041473709 0.038876615 4278272699
-0.037991881 0.041057341 0.03885588 4279126949
-0.036077514 0.041183539 0.03847187 4278930343
-0.034384452 0.042645484 0.036597587 4279061669
-0.03224811 0.041436143 0.037703834 4278734504
-0.030100837 0.040227581 0.038807929 4278799784
-0.027823836 0.038352448 0.040653452 4278668969
-0.025773518 0.037812747 0.041009732 4278537898
-0.024090126 0.03927435 0.039137624 4278406319
-0.022544116 0.041402135 0.036525711 4278405809
-0.020625427 0.041529082 0.036141194 4278405044
-0.018442169 0.040323213 0.037238397 4278929069
-0.04750175 0.037519224 0.041104399 4280897923
-0.04605598 0.041000836 0.036985666 4278930598
-0.044345081 0.042467974 0.035110883 4278340529
-0.042444885 0.042593013 0.03472954 4278603178
-0.038222812 0.040161729 0.036945179 4278799018
-0.03620328 0.039617475 0.037305713 4278864808
-0.034399353 0.040413715 0.036178172 4278734248
-0.032600559 0.041209675 0.035051703 4278669224
-0.030575015 0.040665995 0.035411164 4278538154
-0.028543904 0.040122747 0.035769552 4278734503
-0.026628539 0.040249243 0.035385519 4278734248
-0.021269374 0.042635605 0.032014221 4279585438
-0.019097246 0.041424599 0.033110291 4279453859
-0.016510151 0.038209058 0.036420234 4278470578
-0.049812451 0.03784427 0.038081907 4280112013
-0.048085742 0.039316673 0.036207102 4278341038
-0.046463825 0.041461684 0.0335894 4278602414
-0.044760689 0.042932656 0.031719409 4279389088
-0.042968303 0.043730028 0.03059564 4279193249
-0.040873863 0.04250887 0.03170336 4278536879
-0.036436707 0.038724005 0.035397269 4278865319
-0.03452494 0.038849972 0.035013743 4278865318
-0.032952249 0.040992197 0.032406174 4278669224
-0.031279616 0.042461522 0.030542666 4278735014
-0.029262155 0.041915148 0.030902097 4278865318
-0.02736026 0.042040713 0.030520732 4278930854
-0.025458187 0.042166345 0.030139374 4278340274
-0.017309964 0.039987087 0.031562254 4278403513
-0.01471027 0.036761507 0.034861349 4278864299
-0.012083624 0.033537775 0.038155094 4278733738
-0.0097151473 0.031656094 0.039972641 4278472108
-0.007620953 0.031115439 0.040317185 4278865319
-0.051588625 0.034127947 0.039536595 4279915409
-0.050115012 0.03763292 0.03542874 4278735013
-0.048393369 0.039109237 0.033558279 4278538153
-0.036669694 0.037835106 0.033492222 4278799783
-0.034981176 0.039309707 0.031628683 4278799783
-0.033528976 0.042132143 0.028287893 4278799528
-0.027727298 0.041833151 0.027886638 4278798509
-0.025707006 0.041284818 0.028243938 4278930343
-0.02406013 0.042757049 0.026389034 4278800039
-0.022165813 0.042882252 0.026009297 4278407083
-0.020007968 0.041661501 0.027101504 4278341548
-0.017570548 0.039095905 0.029662384 4278734248
-0.015111543 0.036531832 0.032218933 4278799784
-0.01318977 0.036659122 0.031833902 4278668203
-0.011552628 0.038131051 0.029981298 4278667948
-0.051369943 0.029845841 0.041341618 4279129244
-0.049884841 0.033362392 0.03723973 4278669733
-0.048243545 0.035521559 0.034627989 4279193504
-0.046806075 0.039035145 0.030535707 4278996899
-0.045201734 0.041192003 0.027931469 4278800038
-0.043513864 0.042670608 0.026071155 4278733993
-0.041326284 0.040762872 0.027914183 4278930853
-0.039331831 0.040210202 0.028274575 4278799783
-0.037117019 0.038304374 0.030112231 4278996389
-0.035546325 0.040459365 0.027514929 4278668714
-0.025831975 0.039732147 0.027087821 4278602923
-0.0240587 0.04053317 0.025971552 4278668969
-0.022290587 0.041333862 0.024856405 4278800038
-0.020264678 0.040783923 0.025210986 4278734503
-0.01809907 0.039559353 0.02629832 4278800039
-0.016059451 0.03901045 0.026650248 4278603178
-0.014153842 0.03913663 0.026268421 4278602668
-0.011066664 0.04276076 0.021846673 4279126694
-0.0091740489 0.042886287 0.021467606 4279455643
-0.0065300353 0.039642133 0.024741372 4279389598
-0.0029414743 0.032357156 0.032389969 4278733484
-0.051066771 0.024866063 0.043875553 4282733414
-0.049567491 0.02839436 0.039779089 4278866593
-0.048003539 0.031240962 0.036428727 4278341804
-0.046554573 0.034766078 0.032342464 4278538154
-0.045035593 0.037609853 0.02900123 4279062434
-0.043339409 0.039093271 0.027142586 4278931363
-0.041449986 0.039217424 0.02676327 4278865574
-0.039560318 0.039341651 0.026383953 4278734504
-0.037563227 0.038786989 0.026742155 4278668969
-0.034340277 0.042429298 0.022300227 4279061413
-0.032690942 0.043910019 0.020451287 4279390108
-0.030580431 0.04267706 0.021545952 4278537133
-0.028217815 0.040088668 0.024108181 4278733483
-0.026080146 0.038857635 0.025197508 4278405808
-0.023931563 0.037627347 0.026284738 4278472363
-0.022286646 0.039108139 0.024436878 4278537898
-0.020389639 0.039233513 0.024056593 4278472618
-0.018626466 0.040036164 0.022944188 4278603689
-0.016731821 0.040161509 0.022564476 4278603689
-0.014976367 0.040963788 0.021453721 4278537898
-0.0016001798 0.032931734 0.02864155 4278340019
0.0014344938 0.028330613 0.033346847 4278734758
-0.050679594 0.019182008 0.04713355 4282012529
-0.049251795 0.023404654 0.042302281 4278865828
-0.047582865 0.02557857 0.039694875 4278734758
-0.046023391 0.02843358 0.036352076 4278342059
-0.042967908 0.034139633 0.02967936 4278734759
-0.041471913 0.036990665 0.02634945 4279128223
-0.039892733 0.039159011 0.023760313 4278865829
-0.038115315 0.039964102 0.022646116 4278931364
-0.032928988 0.043058246 0.018575903 4278471599
-0.026450992 0.038667768 0.022577981 4278405808
-0.024308205 0.037432745 0.023662968 4278734249
-0.022668384 0.038917471 0.021819474 4278734249
-0.021170244 0.041081183 0.019247063 4278734504
-0.01968801 0.04324387 0.016677933 4278668969
-0.017539218 0.04200951 0.017761922 4278668969
-0.015657902 0.042134017 0.017384913 4278537898
-0.0079814158 0.04195451 0.016604442 4278274484
-0.0054864585 0.039366975 0.019134101 4278930343
-0.0031252019 0.037458908 0.020933287 4278996389
-0.00074776262 0.035551988 0.022729279 4278341293
0.0011639781 0.035679087 0.022346618 4278603435
0.0095983967 0.025227543 0.032775559 4278272444
-0.050721705 0.01689573 0.046679266 4282601833
-0.049114004 0.01976243 0.043333292 4278997153
-0.04734581 0.021258954 0.041466601 4278407594
-0.045588061 0.022754911 0.039602026 4278800804
-0.043936908 0.024934255 0.037003234 4278342059
-0.039495058 0.034200653 0.026286909 4278341804
-0.038131624 0.03774213 0.022234624 4279062688
-0.036685184 0.040598758 0.018921427 4278996644
-0.026821047 0.038486876 0.019965122 4278930854
-0.024809688 0.037929174 0.020317415 4278799784
-0.023177631 0.039417744 0.01847874 4278864808
-0.013758913 0.040040545 0.016590854 4278668969
-0.012019105 0.040846229 0.015486626 4279061413
-0.0099904388 0.040290251 0.015835896 4278930344
-0.0081060082 0.040415213 0.015458455 4278996134
-0.0059166551 0.039179556 0.016531348 4278996388
-0.0038715601 0.03862489 0.016877498 4278734249
-0.0018210113 0.038070656 0.017222606 4278537643
-0.0004067868 0.040236071 0.014672635 4278471599
0.0013176799 0.041041285 0.013571829 4278406318
0.0033684969 0.04048726 0.013917105 4278996644
0.0067726672 0.034499504 0.020036625 4278602414
-0.050764076 0.014605302 0.046221875 4281553784
-0.049153075 0.017480846 0.042881839 4278801059
-0.047200695 0.017608691 0.042489551 4278801314
-0.045248032 0.017736625 0.042097256 4278669989
-0.043583073 0.019923341 0.039500631 4278801059
-0.04203257 0.022795189 0.036172956 4278735269
-0.040401906 0.024979837 0.033583291 4278473128
-0.038995072 0.028534926 0.029530523 4278473384
-0.0375081 0.031402808 0.026215756 4278407339
-0.036370397 0.036325432 0.02070904 4278931619
-0.03493385 0.039190143 0.017404506 4279062688
-0.033059642 0.039313465 0.017028378 4278996643
-0.031067841 0.038752049 0.017382743 4278931363
-0.029190563 0.038875714 0.017006107 4278734504
-0.027190357 0.038314983 0.017358884 4278734248
-0.025560886 0.039807595 0.01552402 4278471853
-0.023941971 0.041299619 0.01369128 4278799529
-0.013741661 0.037818298 0.01617072 4278668203
-0.011999093 0.038626339 0.015067529 4278472363
-0.010261744 0.039434079 0.013965495 4278537898
-0.0082305484 0.038876131 0.014312627 4278407083
-0.0063461028 0.039001159 0.013935229 4278603433
-0.0044615567 0.039126255 0.013557861 4278603434
-0.0028920732 0.040615782 0.011735696 4278668458
0.0005408749 0.042229325 0.0095406268 4279257764
0.0025806837 0.041672405 0.0098863803 4279586714
0.0052991733 0.03839007 0.013112249 4278930853
0.0087285303 0.032384451 0.01921179 4278274739
-0.050806701 0.012310702 0.045761362 4280963969
-0.049104623 0.01450612 0.043162085 4279062944
-0.047146969 0.014634248 0.042768687 4278866594
-0.045282193 0.015451107 0.041641556 4278669989
-0.043518312 0.016956072 0.039782412 4278669989
-0.041863374 0.019148715 0.037192754 4278538918
-0.040123068 0.020652276 0.035338454 4278866594
-0.038393252 0.022155214 0.033486299 4278473128
-0.036886938 0.025033023 0.030174272 4278342059
-0.032495141 0.033658519 0.020264046 4278603944
-0.030839197 0.03515698 0.018427011 4278800293
-0.029313676 0.037341677 0.015863771 4278734759
-0.027558863 0.038152035 0.01475936 4278734759
-0.026059769 0.040335149 0.01220154 4278602923
-0.022978641 0.044012263 0.0078218319 4278799528
-0.021257989 0.044820674 0.0067244992 4279389854
-0.018998668 0.042885691 0.0085286088 4278799018
-0.012123391 0.037087552 0.013921861 4278799783
-0.010239281 0.037212372 0.01354439 4278603434
-0.0085044056 0.038022168 0.012444552 4278603434
-0.0067747906 0.038831688 0.011345826 4278800039
-0.0050504282 0.039640948 0.01024821 4278865319
-0.0036461465 0.041818693 0.007710088 4278668458
0.010862783 0.029582366 0.019100428 4278603688
0.016306274 0.016048066 0.033057377 4278734758
-0.050764628 0.009320613 0.046031453 4282210154
-0.049231999 0.01290518 0.041969649 4279785104
-0.047274426 0.013033241 0.041576222 4279261079
-0.045409568 0.01385222 0.0404507 4278867358
-0.043549791 0.01467089 0.039326295 4278734504
-0.041793413 0.016179733 0.037471995 4278734504
-0.039946549 0.016997695 0.036350287 4278538918
-0.038104787 0.017815445 0.035229623 4278538918
-0.036480799 0.020012703 0.03265135 4278801059
-0.035090685 0.02358849 0.028618613 4278735269
-0.033503756 0.025783502 0.026047846 4278604198
-0.029197268 0.034429803 0.016174946 4278538409
-0.027681828 0.036620356 0.013618797 4279259039
-0.026307367 0.039498664 0.010340244 4279062434
-0.014696132 0.038174734 0.01026433 4278734249
-0.0125353 0.036923856 0.011332661 4278472363
-0.011096187 0.039110102 0.0087922942 4278472363
-0.0095238239 0.040608242 0.0069759972 4278537134
-0.0059472956 0.041542485 0.0055090599 4278602159
-0.0039270557 0.040979646 0.0058551952 4279126949
-0.0022211857 0.041789994 0.0047630575 4278472618
-0.0003580004 0.041913867 0.0043901168 4278341548
0.0018358082 0.040665805 0.0054523274 4278537389
0.0045442805 0.037360996 0.0086635221 4278275759
0.0076209158 0.032686725 0.013302414 4278407083
0.011428412 0.025273122 0.020797605 4278669479
0.017230948 0.010325145 0.036150649 4278800549
-0.047401793 0.01143248 0.040383928 4281687148
-0.045444049 0.011560563 0.03999047 4279785613
-0.043486074 0.011688728 0.03959702 4278865573
-0.041625969 0.012509655 0.03847418 4278996899
-0.039972596 0.014715169 0.035894848 4278801314
-0.038128063 0.015535176 0.034775294 4278735779
-0.036288671 0.016354959 0.033656776 4278473383
-0.034672074 0.018558282 0.031084998 4278538918
-0.033071324 0.020760681 0.028516414 4278866339
-0.031600609 0.023653682 0.025224945 4278604198
-0.030034252 0.025853928 0.022663424 4278473128
-0.028842404 0.030126933 0.017929904 4278276524
-0.02617985 0.036594197 0.010654293 4278931618
-0.024820663 0.039480239 0.0073854961 4278997154
-0.023352481 0.041674398 0.0048439652 4278865573
-0.021501422 0.041796591 0.004472781 4278996389
-0.019514598 0.041228712 0.0048234463 4278733993
-0.01724565 0.039281271 0.006615689 4278799784
-0.015101478 0.038024828 0.0076839477 4278930854
-0.013090111 0.037458807 0.0080298781 4278602668
-0.011512268 0.03896156 0.0062157325 4278668458
-0.0038934536 0.038767748 0.0054387972 4278405299
-0.0021848269 0.039580435 0.0043477565 4278341548
-0.00015664846 0.039016083 0.0046907458 4278800039
0.0020420738 0.037763946 0.005748678 4278669224
0.0050904751 0.033072487 0.010381438 4278538409
0.0083469413 0.027695742 0.015721636 4278669224
0.012512065 0.018883567 0.024624905 4278603943
-0.043518245 0.0093930848 0.039133079 4279980688
-0.041753352 0.010911122 0.037283592 4279586968
-0.040099539 0.013123129 0.034709118 4278932383
-0.038358249 0.014639769 0.032864481 4278801824
-0.036415458 0.014767189 0.032474272 4278997919
-0.034689769 0.016282912 0.030632934 4278866594
-0.032974578 0.017798018 0.028793754 4278735524
-0.031383894 0.020006314 0.026232211 4278800804
-0.029575683 0.02082644 0.025121862 4278800804
-0.028011382 0.023033146 0.022565721 4278538663
-0.026585005 0.025932133 0.019289957 4278473128
-0.025554053 0.030908927 0.013851464 4278407849
-0.024305604 0.034497607 0.0098641403 4278341804
-0.022823609 0.036699221 0.0073247626 4278997154
-0.021224774 0.03820733 0.0055093654 4278997154
-0.019501053 0.039022438 0.0044163894 4278734759
-0.017506309 0.038452953 0.0047638454 4278669224
-0.01564686 0.038575903 0.0043911338 4278669224
-0.013643812 0.038007081 0.004737081 4278602924
-0.01081197 0.042402595 -0.00031439401 4278734248
-0.0089654401 0.042525008 -0.00068427343 4279128224
-0.0066562071 0.040574163 0.0010952512 4278405553
-0.0040170439 0.037242629 0.0043034069 4278798764
-0.0019892305 0.036675982 0.0046447292 4278733994
4.4036657e-05 0.036109746 0.0049850717 4278734503
0.0025774911 0.033472821 0.0074672233 4278407083
0.0059704781 0.027386282 0.013513999 4278669478
0.0095820725 0.020612974 0.020264441 4278932129
0.013420284 0.013153512 0.027716855 4280374408
-0.0402264 0.011531342 0.03352356 4281030524
-0.038381726 0.0123556 0.032407217 4279718548
-0.036436349 0.012483146 0.032016449 4278866593
-0.034599259 0.013307109 0.03090171 4278735524
-0.032989621 0.015522998 0.028341291 4278801059
-0.031168163 0.016346056 0.027229859 4278801059
-0.029351853 0.017168887 0.026119476 4278866594
-0.027659886 0.018687017 0.02428844 4278800804
-0.026100323 0.020899981 0.021738278 4278800804
-0.024805754 0.02450246 0.017749928 4278407594
-0.023410551 0.027408205 0.01448716 4278407849
-0.01908201 0.0347284 0.0061619952 4278735013
-0.01762861 0.036934853 0.0036334945 4278800293
-0.016191132 0.039140295 0.001108299 4278865318
-0.014626302 0.040650804 -0.00069672801 4278537389
-0.011082448 0.041588947 -0.002152482 4278536624
-0.0090873651 0.041017689 -0.0018064687 4278930088
-0.0069327876 0.039753541 -0.00074664038 4278405298
-0.0019536726 0.034455922 0.0042216722 4278668714
0.0005681701 0.031809427 0.0066994149 4278472363
0.0034410246 0.027779199 0.010598328 4278800293
0.0068483874 0.021674026 0.016627247 4278341804
0.010133963 0.016264413 0.021934921 4280242829
0.013635267 0.010165665 0.027945178 4281095549
-0.0366688 0.01159237 0.030109754 4278932384
-0.03483431 0.01241824 0.028997203 4278932383
-0.033115931 0.013942163 0.027163973 4278932384
-0.031294391 0.014767352 0.026054153 4278735779
-0.029594347 0.016290277 0.024224678 4278866594
-0.027666777 0.016416993 0.023837755 4278669989
-0.025982417 0.017939012 0.022011602 4278866594
-0.024557337 0.020855311 0.018749403 4278800804
-0.023026459 0.023073044 0.016210081 4278538663
-0.021381736 0.024592686 0.014392069 4278407593
-0.019879989 0.02680866 0.011858715 4278538663
-0.018664338 0.0304171 0.0078947358 4278276269
-0.016312957 0.037628956 -1.6999431e-05 4278866084
-0.014890999 0.039840005 -0.0025340896 4279127968
-0.01333918 0.041354015 -0.0043330942 4278603434
-0.0048902035 0.036974348 -0.00081748422 4278667949
-0.0020776354 0.032926887 0.0030833771 4278930853
0.00076716021 0.028881691 0.0069778059 4278734504
0.003973335 0.023449156 0.012287961 4278275249
0.0070552155 0.018714193 0.016879043 4281548684
0.010174692 0.013981786 0.021462718 4281942658
0.013504349 0.0085577779 0.026748324 4282337399
-0.033020541 0.010960598 0.02742712 4280244613
-0.031307057 0.012488589 0.025598226 4279457174
-0.0296041 0.01401601 0.023771463 4278932384
-0.027911641 0.015542779 0.021946916 4278866339
-0.026108183 0.01636916 0.020842547 4278538918
-0.024434119 0.017894942 0.019021777 4278801059
-0.022770569 0.019420061 0.017203227 4278997664
-0.021117575 0.020944618 0.015386811 4278342059
-0.019475132 0.022468511 0.013572617 4278538663
-0.018113077 0.025389668 0.010329949 4278538664
-0.016909897 0.02900821 0.0063768309 4278341804
-0.014583487 0.036240272 -0.001513185 4278997154
-0.013314653 0.039155602 -0.0047369045 4278996899
-0.011770517 0.040673509 -0.0065309992 4279127713
-0.0097840354 0.040097285 -0.006186625 4278865828
-0.0076384209 0.038823843 -0.0051317276 4278603689
-0.0048566125 0.034761224 -0.0012348182 4278603434
-0.0018835142 0.030003481 0.0033662245 4278734504
0.0043398589 0.019798845 0.013255296 4279122869
0.0069272332 0.017139409 0.015706772 4281155219
0.009705849 0.013784897 0.018862346 4282400894
0.013028614 0.0083429739 0.024136061 4282399873
-0.031433322 0.010908194 0.024421232 4282341479
-0.029730126 0.01243994 0.022597713 4279457173
-0.027918741 0.013268899 0.021493329 4278997918
-0.025991201 0.013395622 0.021106409 4278735524
-0.024311528 0.014926035 0.019287856 4278997919
-0.022642404 0.01645587 0.017471431 4278801059
-0.020983785 0.017985068 0.015657237 4278735269
-0.019335762 0.019513704 0.013845187 4278669734
-0.017833009 0.021742765 0.011321673 4278669479
-0.016346186 0.023970917 0.0088013764 4278276524
-0.0148753 0.026198104 0.0062843468 4278276269
-0.011298973 0.036374867 -0.0048021725 4278997153
-0.0094528645 0.036497172 -0.0051720268 4278604199
-0.0071461797 0.034519963 -0.003412025 4278472874
-0.0043548197 0.030444909 0.00047297683 4279389343
-0.001372356 0.02567254 0.0050604828 4279713959
0.0014861785 0.021602135 0.0089321826 4281088918
0.00404853 0.01893222 0.011381926 4281548429
0.0062986091 0.017661795 0.012412908 4282269313
0.0090681985 0.014295746 0.015562003 4282531198
0.012553621 0.0081372224 0.021530451 4283185784
-0.025753677 0.0097093843 0.022078725 4280307344
-0.02406574 0.011244703 0.020261766 4279521689
-0.022388317 0.012779366 0.018447034 4278801059
-0.020721458 0.014313459 0.016634433 4278735269
-0.019197002 0.016550366 0.014111469 4278669734
-0.017553933 0.018083073 0.012303783 4278735269
-0.016058661 0.020318232 0.0097868014 4278669734
-0.014299482 0.021146625 0.0086950082 4278472873
-0.012973312 0.024082951 0.0054730326 4278735269
-0.011668462 0.027018011 0.0022553597 4278473128
-0.01023696 0.029249344 -0.00024860725 4278407593
-0.0085201636 0.030075256 -0.0013315883 4278473128
-0.0061953627 0.028092712 0.00041978993 4279259549
-0.0035424083 0.024707608 0.0035835104 4279780513
-0.00086257234 0.021324389 0.0067419223 4281089683
0.001682803 0.018644534 0.0091883261 4281679244
0.0039216205 0.017368916 0.010218164 4281941384
0.0065046586 0.014691751 0.012657171 4282531199
0.0092785917 0.011315163 0.015797038 4282924663
-0.023820914 0.0075504594 0.021226132 4281813118
-0.022261582 0.0097960271 0.018700955 4279455899
-0.02071815 0.012040567 0.016179066 4278996898
-0.019190624 0.014284205 0.013660405 4278801059
-0.017410241 0.015115924 0.012565909 4278669989
-0.015909202 0.017358001 0.010052698 4278735269
-0.014144596 0.018188868 0.0089615062 4278538663
-0.012527645 0.019724432 0.0071625598 4278473128
-0.010921281 0.02125936 0.0053658616 4278669734
-0.0094733015 0.023498289 0.0028635599 4278866339
-0.007740356 0.02432742 0.001778991 4278735524
-0.0055532642 0.023043565 0.002815593 4278669479
-0.0033553578 0.021760583 0.0038500642 4278471853
-0.00082964823 0.019070636 0.0062936861 4281745034
0.0015564002 0.017085884 0.008027995 4281941639
0.0039585978 0.015102353 0.0097591076 4282465409
0.0065434948 0.012416612 0.012191089 4282531198
-0.01905299 0.011306141 0.013915624 4280045714
-0.017401397 0.012848005 0.012112878 4279390873
-0.01576037 0.014389258 0.010312317 4278669733
-0.013990358 0.015222661 0.0092216302 4278538663
-0.012367811 0.01676289 0.0074249227 4278997664
-0.010755867 0.018302538 0.0056303535 4279063199
-0.0091544949 0.019841552 0.0038380325 4278800803
-0.0074134581 0.020673361 0.0027534859 4278800293
-0.005524721 0.020798512 0.0023751063 4279062433
-0.0033246055 0.019511312 0.0034057992 4279257763
-0.0009553656 0.017518818 0.0051384065 4282073473
0.0014300421 0.015527487 0.0068678465 4282728059
-0.018653296 0.0068995319 0.015579989 4282861168
-0.017124787 0.0091562718 0.013071176 4281028228
-0.0156122 0.011412084 0.010565575 4279456154
-0.01397616 0.012957431 0.0087693911 4279128478
-0.012350705 0.014502212 0.0069753602 4278669989
-0.010591093 0.015337221 0.0058885906 4278735779
-0.0091315657 0.017589912 0.0033939192 4278735268
-0.0073877908 0.018424064 0.0023104725 4278734758
-0.0056492686 0.019257955 0.0012281444 4278734249
-0.0032941699 0.017257933 0.002958471 4278535859
-0.00076475739 0.014550809 0.0053880233 4282269313
0.0016253553 0.012553263 0.0071115289 4283251574
-0.013683844 0.0092648156 0.0097229965 4282664309
-0.012192 0.011525907 0.0072267149 4279914388
-0.010716114 0.013786077 0.0047336593 4279062944
-0.0091089383 0.015334167 0.0029467409 4278735524
-0.0075123571 0.0168816 0.0011620615 4278800803
-0.0056211725 0.017006882 0.00078316871 4279390363
-0.0032640286 0.01500041 0.0025081262 4279190698
-0.00073276833 0.012284696 0.0049306452 4281482639
-0.010407921 0.010094695 0.0056842938 4280373134
-0.0089395382 0.012360968 0.0031977873 4279194013
-0.0074871257 0.014626287 0.00071455631 4278932128
-0.0054409504 0.014038756 0.001035301 4279652503
-0.0032342151 0.012738854 0.0020546922 4280369818
-0.00038552284 0.0085893348 0.0058683604 4282987903
-0.0071630403 0.010936178 0.0016621873 4282403189
-0.0054136403 0.011777259 0.00058262702 4281813118
-0.027504317 -0.029710166 0.016760604 4280832389
-0.026230291 -0.025145784 0.012229383 4279457429
-0.024503946 -0.023538977 0.010457464 4279720333
-0.027632952 -0.031327054 0.015556298 4280570249
-0.026358023 -0.026749603 0.011034839 4278998173
-0.024631456 -0.025138468 0.0092661809 4279129243
-0.022544771 -0.025750667 0.0095578767 4279392659
-0.027761541 -0.032943621 0.014352217 4280243339
-0.026485689 -0.02835314 0.0098404959 4278932894
-0.024638221 -0.027480945 0.0087600462 4278932894
-0.022672549 -0.027352087 0.0083651859 4279128989
-0.021084882 -0.024994403 0.0059187282 4279063964
-0.019126922 -0.024865836 0.0055255834 4279654544
-0.01716882 -0.024737179 0.0051324833 4281358963
-0.027659677 -0.036051445 0.014517181 4279981708
-0.02625972 -0.032193199 0.010697993 4278736034
-0.02440419 -0.031318381 0.0096175969 4278801824
-0.022553839 -0.030443765 0.0085383449 4279194268
-0.021086335 -0.027334109 0.005413387 4279128989
-0.019254416 -0.026460484 0.0043379981 4279260313
-0.017165206 -0.027076572 0.0046261009 4279653268
-0.015204437 -0.026947618 0.00423255 4282275178
-0.027558461 -0.039167747 0.0146759 4279850384
-0.026270121 -0.034550458 0.01018147 4278866848
-0.024411879 -0.033673301 0.0091021731 4278932384
-0.022681862 -0.032048956 0.0073428266 4279063198
-0.021088094 -0.029677853 0.0049050171 4279194268
-0.019381836 -0.028054819 0.0031506317 4278932129
-0.017424025 -0.027926207 0.0027575614 4278801059
-0.015466064 -0.027797461 0.0023645526 4278866593
-0.01350797 -0.02766858 0.0019716183 4279128479
-0.011827942 -0.026046768 0.00022279937 4282012274
-0.027228191 -0.04379274 0.016190672 4281029759
-0.025928259 -0.039161704 0.011703841 4279325594
-0.024419874 -0.036032297 0.0085837189 4279063454
-0.022686973 -0.034403428 0.0068271011 4279259803
-0.021215692 -0.031276226 0.0037146108 4279194268
-0.019509226 -0.029648863 0.0019634822 4278801314
-0.017420664 -0.030269369 0.0022483626 4278932384
-0.015460178 -0.03014046 0.001854849 4278473128
-0.013635792 -0.029262707 0.0007845154 4278931873
-0.011955563 -0.027636573 -0.00096104946 4279784594
-0.010285899 -0.026011042 -0.0027043438 4280178314
-0.025353059 -0.045294419 0.014571501 4281094783
-0.024068095 -0.040651284 0.010097688 4280767108
-0.022569686 -0.037513763 0.0069862772 4280046478
-0.021092504 -0.03437756 0.0038792649 4279456409
-0.019508518 -0.03199403 0.0014534174 4278801569
-0.017548315 -0.031865299 0.0010598423 4278866849
-0.015587978 -0.031736419 0.00066633616 4278669989
-0.013763569 -0.030856505 -0.00040235277 4278473383
-0.011944395 -0.02997677 -0.0014699427 4278867104
-0.010271851 -0.028346755 -0.0032105288 4279129499
-0.0087539889 -0.025966868 -0.0056225662 4279391128
-0.0069585629 -0.025088392 -0.0066850805 4279784594
-0.021840453 -0.04440245 0.010520801 4281946229
-0.020594388 -0.039748698 0.006064944 4279718548
-0.01912453 -0.036604166 0.0029660612 4279194524
-0.017414868 -0.03496781 0.0012209276 4278736034
-0.015582524 -0.034085348 0.00015220139 4278407848
-0.014027189 -0.031696871 -0.0022626696 4278801059
-0.012349214 -0.030062288 -0.0040011322 4279063199
-0.010399353 -0.02993378 -0.0043922877 4278801569
-0.0085932836 -0.02905257 -0.0054553738 4278997663
-0.0066458806 -0.028923966 -0.0058458364 4279325594
-0.0051461793 -0.026538558 -0.0082490947 4280178314
-0.0035104901 -0.024906166 -0.0099786166 4281095803
-0.019847922 -0.046653233 0.0095829517 4281619063
-0.018614195 -0.041987196 0.0051395856 4280374154
-0.017021313 -0.039590031 0.0027219392 4278997918
-0.015710413 -0.035682872 -0.001037485 4278669734
-0.014154706 -0.033287883 -0.0034474796 4278735269
-0.0127533 -0.030138791 -0.0065256124 4278997664
-0.010667868 -0.030765556 -0.0062447293 4278669989
-0.0087207183 -0.03063713 -0.0066352626 4278932384
-0.0067734644 -0.030508541 -0.0070257029 4278998429
-0.0052733831 -0.028116636 -0.009424082 4279128733
-0.0034857318 -0.027234115 -0.01048155 4278866593
-0.0017033368 -0.026351832 -0.011537879 4279325338
0.00023087859 -0.026223637 -0.011925346 4280571013
-0.015572526 -0.038795382 -0.00088508055 4281748094
-0.014282171 -0.034878612 -0.0046320776 4279586968
-0.012603793 -0.033235371 -0.0063640093 4278931873
-0.01065423 -0.033106893 -0.0067551127 4278997409
-0.0085609891 -0.033735216 -0.0064773848 4278866594
-0.0069010034 -0.032092817 -0.0082053384 4278997664
-0.0052516423 -0.030450977 -0.0099311499 4279063198
-0.003764458 -0.028053351 -0.01232184 4278473128
-0.0016762055 -0.028681494 -0.012042719 4278932128
0.00010360777 -0.027797118 -0.013096797 4279260058
0.0015589111 -0.02540119 -0.015480863 4279785103
0.0029982328 -0.023006208 -0.017861638 4281554294
-0.013732776 -0.040267229 -0.0024725497 4281616769
-0.012178876 -0.037859291 -0.0048721689 4280438413
-0.010359474 -0.036970869 -0.0059330906 4279259038
-0.008545313 -0.036082596 -0.0069929021 4278800803
-0.0070285127 -0.033676796 -0.0093847653 4278801569
-0.0052302033 -0.032789387 -0.010441176 4278669989
-0.0035885759 -0.031143591 -0.012162014 4278669989
-0.001649376 -0.031015195 -0.012550577 4279063199
0.0001331307 -0.030128494 -0.013603549 4279063198
0.0015914887 -0.02772586 -0.015983256 4279063708
0.003195975 -0.026082091 -0.017696241 4279522198
0.0049545988 -0.025196582 -0.018744133 4280048519
0.0068753846 -0.025068797 -0.019128546 4279391639
-0.010065723 -0.040847525 -0.005120609 4282402424
-0.0083867237 -0.039195374 -0.006845884 4280962184
-0.007010106 -0.036021553 -0.0098989643 4279193503
-0.0052090958 -0.035131827 -0.010954275 4278472873
-0.0037158206 -0.032720782 -0.013336311 4278800804
-0.0019306876 -0.031831838 -0.014388229 4278866338
-0.00015082955 -0.030943133 -0.015439018 4278801059
0.0014644861 -0.029294394 -0.017150998 4279063198
0.0030691698 -0.027646303 -0.018860722 4278997663
0.0048278198 -0.026758611 -0.01990696 4278931873
0.0065811649 -0.025871135 -0.020952094 4278866593
0.0081592537 -0.024224408 -0.022656197 4279457429
0.0098993145 -0.023337603 -0.02369844 4279853444
-0.0067005754 -0.03989695 -0.0090893991 4280700044
-0.0051883049 -0.037478298 -0.011470381 4279521178
-0.003691975 -0.035060585 -0.01384808 4278997408
-0.0020578876 -0.033406585 -0.015560671 4278932384
-0.0004344061 -0.031753145 -0.017271031 4278932384
0.0013375096 -0.030862637 -0.018318519 4278866594
0.003104154 -0.029972404 -0.019364811 4278932128
0.0048655011 -0.029082373 -0.020409934 4278473383
0.0066215508 -0.028192617 -0.021453928 4278538918
0.0082025118 -0.026541322 -0.023155335 4278932128
0.0099452622 -0.025652185 -0.024196474 4279129243
-0.0033666827 -0.038934648 -0.013041448 4281747583
-0.00187793 -0.03651081 -0.015412569 4279652503
-0.00040513277 -0.034087963 -0.017780349 4279193503
0.0013694912 -0.03319516 -0.018826686 4278866848
0.0029772371 -0.031538174 -0.020530455 4278670244
0.0047386028 -0.030645996 -0.021573942 4278538918
0.0064946748 -0.02975405 -0.022616271 4278669989
0.0082454309 -0.028862275 -0.023657482 4278800804
0.0099908896 -0.027970791 -0.024697494 4278801059
0.011731025 -0.02707953 -0.025736354 4278867359
0.013643477 -0.026951805 -0.026118714 4279064218
0.015736241 -0.027587086 -0.025846187 4279851658
-0.0013918728 -0.041157678 -0.013953619 4283123564
0.00024804473 -0.039494514 -0.015660666 4280110739
0.0017185882 -0.037065163 -0.018022995 4279128224
0.0033345595 -0.035403356 -0.019725069 4278801058
0.0049398951 -0.033742055 -0.021424942 4278801059
0.0067013353 -0.032847598 -0.022466697 4278932129
0.0084574707 -0.03195335 -0.02350729 4278801059
0.010036185 -0.030293472 -0.025201559 4278735779
0.011779021 -0.029399872 -0.026239298 4278932894
0.013693985 -0.02927196 -0.026622158 4278932894
0.015969224 -0.030674621 -0.025698539 4278933148
0.018803576 -0.034371778 -0.02281902 4279851404
0.021108247 -0.03577216 -0.021901134 4280115583
0.0036908649 -0.039281197 -0.018929191 4280830348
0.0054683164 -0.03838364 -0.0199726 4279783319
0.0069073178 -0.035949595 -0.02232334 4279063453
0.0083303191 -0.033516385 -0.024670783 4278735269
0.0099092349 -0.031852156 -0.026361778 4279063199
0.011477493 -0.03018856 -0.02805051 4278735524
0.013389625 -0.030060858 -0.028432807 4278866849
0.016021572 -0.033002995 -0.026208729 4278801059
0.019222792 -0.038245477 -0.022035759 4278735779
0.022090867 -0.04195109 -0.01917116 4280766854
0.023857865 -0.041053057 -0.020211577 4281160829
0.025238218 -0.038621746 -0.022549696 4281883754
0.0063228048 -0.044583812 -0.017226703 4282402168
0.0077782273 -0.042142153 -0.019575749 4279718548
0.0087104216 -0.037390292 -0.023877788 4279260059
0.010125812 -0.034950987 -0.02621866 4279193759
0.011350762 -0.03174264 -0.029207256 4278866338
0.013439834 -0.032384783 -0.028939052 4278735524
0.015893821 -0.034565791 -0.027371895 4278801824
0.019276084 -0.040593028 -0.022560768 4278997919
0.022516023 -0.045847923 -0.018407002 4279325593
0.025230024 -0.048792809 -0.016205627 4281094784
0.027394012 -0.049429297 -0.015951898 4281750898
0.0095961764 -0.043594547 -0.021142863 4283122798
0.01068484 -0.039602943 -0.024781927 4279913624
0.011572547 -0.03484077 -0.029064989 4278800293
0.013312798 -0.03394074 -0.030097159 4278603689
0.015766088 -0.036128283 -0.028534826 4278734758
0.019329043 -0.042944536 -0.023088802 4279521688
0.022940135 -0.049757466 -0.017652314 4279915409
0.026036512 -0.054253124 -0.014165544 4280570758
0.012838062 -0.042593569 -0.025042247 4280307854
0.01424624 -0.040141568 -0.027371522 4278931874
0.016356051 -0.040786535 -0.027110681 4279193503
0.019745842 -0.04684779 -0.022327535 4279718294
0.023363192 -0.053679734 -0.016907159 4280242828
0.026466366 -0.058187939 -0.013431625 4281750898
0.014274653 -0.05115734 -0.020398982 4282732904
0.017303079 -0.047014199 -0.024409052 4281290879
0.020343512 -0.051539794 -0.02093114 4281095038
0.023600629 -0.056838959 -0.016815471 4282274413
-0.048916832 0.0025221817 0.044219285 4285294634
-0.047207437 0.0047440119 0.041638359 4285492003
-0.045328945 0.0055701844 0.040515006 4285492258
-0.043455571 0.0063961409 0.03939268 4285163564
-0.048697561 -0.001894854 0.045920968 4285228844
-0.046887457 -0.00036554039 0.044068821 4285425958
-0.04518006 0.0018627271 0.041493259 4285689119
-0.043393485 0.0033906661 0.039645977 4285492003
-0.041910224 0.0070155561 0.03562741 4285295399
-0.048826553 -0.003520824 0.044709802 4285163564
-0.047016196 -0.001987204 0.042860888 4285295143
-0.045032091 -0.0018576309 0.042461962 4285492259
-0.04333204 0.00037671626 0.039892882 4285492259
-0.041647777 0.0026100613 0.037327081 4285558049
-0.040079445 0.0055436827 0.034042172 4285361189
-0.038223915 0.0063729472 0.032926857 4285164328
-0.036478959 0.0079027526 0.031091454 4284901678
-0.048955441 -0.0051465407 0.043498799 4285229098
-0.04714483 -0.0036086068 0.041653126 4285360933
-0.045160852 -0.0034791008 0.04125417 4285426468
-0.043271177 -0.0026457533 0.040133491 4285558049
-0.041581161 -0.00040552765 0.03757143 4285492768
-0.039806999 0.0011303276 0.035733327 4285427233
-0.038145915 0.0033688359 0.033177212 4285361189
-0.036500677 0.0056063794 0.030624336 4285295908
-0.034763299 0.0071400702 0.028793806 4284967723
-0.047184318 -0.005936034 0.04116673 4285229609
-0.045106024 -0.0065124854 0.04148788 4285426213
-0.043305352 -0.0049707517 0.039647602 4285426723
-0.041515142 -0.0034295917 0.037809446 4285624094
-0.039735399 -0.0018890724 0.035973512 4285492513
-0.037966117 -0.00034914911 0.03413973 4285426724
-0.036207303 0.0011902153 0.032308087 4285361189
-0.034566775 0.0034340136 0.029761175 4285426979
-0.033052541 0.0063816719 0.026500659 4285295909
-0.031446382 0.0086233728 0.023960778 4285230119
-0.044960238 -0.010262661 0.04243432 4284966958
-0.043151312 -0.008716099 0.040595666 4285426468
-0.041449755 -0.0064621791 0.038041174 4285623839
-0.039764002 -0.0042091981 0.035489947 4285492258
-0.037991799 -0.002664797 0.033658862 4285426723
-0.036335014 -0.00041353703 0.031113578 4285361188
-0.034694076 0.0018367544 0.028571533 4285426723
-0.033068955 0.004086066 0.026032796 4285361189
-0.031233758 0.0049206652 0.024926746 4285426724
-0.029172428 0.0043416359 0.025250187 4285426724
-0.041384965 -0.0095032007 0.038266547 4285294633
-0.039693452 -0.0072434172 0.035719134 4285294888
-0.037915662 -0.0056943074 0.03389018 4285426724
-0.036253117 -0.003436245 0.031348735 4285426469
-0.034606405 -0.0011790991 0.028810481 4285360934
-0.033085652 0.0017863438 0.025561849 4285360678
-0.031134933 0.0019142032 0.025169989 4285426214
-0.028953068 0.00062441826 0.026203277 4285425958
-0.037942067 -0.0080203339 0.033401564 4285360678
-0.036276437 -0.0057555959 0.030864434 4285360934
-0.034733899 -0.0027801692 0.027617974 4285360678
-0.032992683 -0.0012288839 0.025799857 4285426469
-0.031036712 -0.0011007115 0.025406914 4285426213
-0.028504059 -0.0045278519 0.028568761 4285425958
-0.026416354 -0.005109489 0.028883586 4285556518
-0.038070485 -0.00963635 0.032197863 4285164073
-0.036404431 -0.0073651001 0.02966561 4285360424
-0.034647152 -0.0058085546 0.027847482 4285360679
-0.032790557 -0.0049662292 0.026741972 4285360679
-0.030939125 -0.0041241646 0.025637558 4285492259
-0.028747484 -0.0054220855 0.026662173 4285491494
-0.034667917 -0.0081294551 0.027361443 4284967213
-0.032699004 -0.0080006123 0.026965762 4285164328
-0.030954435 -0.0064404011 0.025153635 4285426723
-0.028875515 -0.0070271343 0.025466772 4285491749
-0.031082116 -0.0080429539 0.023960052 4285165093
-0.02911827 -0.0079142898 0.023565507 4285295399
-0.026919335 -0.0092204511 0.024582071 4286081819
0.040070482 0.0067310557 -0.0031402884 4285491238
0.041777439 0.0075739846 -0.0042078621 4285623839
0.045450442 0.0020008758 0.00087760575 4285689118
0.036120098 0.011473738 -0.010074939 4285623838
0.037165217 0.014463484 -0.013185591 4285689374
0.038837418 0.015306197 -0.01424452 4285623584
0.041598532 0.012573503 -0.011892765 4285689118
0.045488752 0.0062680095 -0.0061382516 4285951768
0.050099783 -0.0021781772 0.0016492996 4286017303
0.033261258 0.012669619 -0.013577607 4285557029
0.034307025 0.015668001 -0.016681813 4286018068
0.035757981 0.017229848 -0.018418916 4285754909
0.03741416 0.018073708 -0.019473024 4285491748
0.039720997 0.016765576 -0.018485053 4285623584
0.043145292 0.011873096 -0.014100392 4285689374
0.046607018 0.0069832206 -0.009723057 4285754909
0.05055958 0.00066263229 -0.0039957371 4285558303
0.029357625 0.010876421 -0.013969189 4285687334
0.030630618 0.013164479 -0.016389996 4285558304
0.031887509 0.015451513 -0.018807456 4285559069
0.033549216 0.016297728 -0.019861154 4285690138
0.034992371 0.0178634 -0.021593375 4285952533
0.036424741 0.019428477 -0.023323417 4285886999
0.038720377 0.018115282 -0.022336509 4285821463
0.041690204 0.01464523 -0.019317292 4285887508
0.044910587 0.010458075 -0.015625712 4285821718
0.04793648 0.0069920458 -0.012617494 4285558813
0.050989054 0.003527917 -0.0096145198 4285559069
0.054068305 6.5669417e-05 -0.0066167265 4285493534
0.057408787 -0.0041129366 -0.0029487535 4285427999
0.028219625 0.012951195 -0.018515326 4285689119
0.02968457 0.014522407 -0.020248853 4285689629
0.031346384 0.015370663 -0.02130094 4285558813
0.03321309 0.015496537 -0.021673236 4285689884
0.034227848 0.018510319 -0.024757881 4285623839
0.035868078 0.019357439 -0.025805421 4285689883
0.037939534 0.018761136 -0.025497731 4285624348
0.041342318 0.013836797 -0.021131959 4285624348
0.044558808 0.0096363723 -0.01744955 4285558558
0.046901904 0.0083223954 -0.016475225 4285558814
0.048568506 0.0091718137 -0.017527625 4285559324
0.050461367 0.0093003064 -0.017904487 4285559068
0.0525885 0.0087083876 -0.017607419 4285821209
0.055669181 0.0052356124 -0.014618034 4285820699
0.060694456 -0.0039962605 -0.0062517342 4285754653
-0.015388921 -0.0099286586 0.0070252363 4285163053
0.025421496 0.014197849 -0.021994397 4285688609
0.026881348 0.015772972 -0.023723658 4285951769
0.028739978 0.015898094 -0.0240945 4285952024
0.031220874 0.013849828 -0.022432571 4285952278
0.033087447 0.013975691 -0.022804841 4285755164
0.034315586 0.016274095 -0.025206475 4285558558
0.035958547 0.017123573 -0.026252892 4285558814
0.038250528 0.015801463 -0.025271881 4285493533
0.041215617 0.012309443 -0.02226828 4285559324
0.043760382 0.01026617 -0.020618647 4285493533
0.045868792 0.0096704662 -0.020319693 4285558813
0.04706702 0.011967473 -0.022714887 4285690139
0.048249081 0.014263481 -0.02510678 4285755418
0.049883403 0.015113093 -0.026150929 4285623583
0.052459821 0.01307245 -0.02450715 4285558303
0.056489553 0.0066991001 -0.018839555 4285689373
0.061778545 -0.0032815486 -0.0098283477 4285820954
-0.015380807 -0.012241378 0.0065381248 4285230629
-0.013575424 -0.011382066 0.0054584555 4285492259
-0.011634964 -0.011254102 0.0050692447 4285492003
-0.0095514171 -0.011857003 0.0053688511 4285819934
0.023629194 0.011826824 -0.022074174 4285491748
0.024499683 0.015588358 -0.025834426 4285689374
0.025949063 0.017167069 -0.027558235 4285491493
0.02800142 0.016564626 -0.02725045 4285754908
0.030473597 0.014509305 -0.025591806 4285952279
0.032751881 0.013181634 -0.024611611 4285821209
0.034190364 0.014760084 -0.02633296 4285624349
0.036263958 0.014159456 -0.026029043 4285559069
0.03834283 0.013559334 -0.025726132 4285559068
0.040868282 0.011508115 -0.02407765 4285559068
0.042963061 0.010909282 -0.023777753 4285493533
0.044837117 0.01103631 -0.024151009 4285558558
0.045796379 0.014064349 -0.027210822 4285624349
0.046965476 0.016366012 -0.02959514 4286083859
0.048352446 0.017941777 -0.031305537 4285689373
0.050912119 0.015893538 -0.029663442 4285558048
0.053966511 0.012397446 -0.026685294 4285558303
0.058015756 0.0060060546 -0.021036472 4285624093
0.062357806 -0.0011061579 -0.01472857 4285624603
-0.015238196 -0.015291862 0.006736787 4285164838
-0.013564896 -0.013696522 0.0049694143 4285558814
-0.011902165 -0.012101792 0.0032043038 4285492769
-0.0099643953 -0.011973932 0.0028156852 4285492003
-0.008171998 -0.011113003 0.0017405162 4285490728
0.021250393 0.011640716 -0.024186805 4285491493
0.022326058 0.014684014 -0.027264165 4285624093
0.023181241 0.018455368 -0.031013064 4285689119
0.024614766 0.020037401 -0.03273043 4285492004
0.026855156 0.018702626 -0.031746153 4285557539
0.029727431 0.015182119 -0.028741041 4285623584
0.031997174 0.013849594 -0.027762493 4285623838
0.034702443 0.011060856 -0.025439497 4285624348
0.036783747 0.010458641 -0.025138807 4285558814
0.038652554 0.01058501 -0.025511246 4285559323
0.040080376 0.012167372 -0.027226854 4285559323
0.042166818 0.011565823 -0.026926938 4285558813
0.044032712 0.011692319 -0.027298553 4285558558
0.045213033 0.014001146 -0.029680209 4285624093
0.045914859 0.017763443 -0.033397548 4285821209
0.047291361 0.019342843 -0.035102531 4285887253
0.049366612 0.018741064 -0.034799986 4285887253
0.052882306 0.013779622 -0.030490929 4285887253
0.056435339 0.008820869 -0.026189264 4285755928
0.060759362 0.0016858205 -0.019894389 4285558814
0.066867359 -0.010528453 -0.0089458609 4285493024
-0.014961623 -0.019086584 0.0076162517 4285099303
-0.013280075 -0.017486408 0.0058505852 4285492513
-0.0116091 -0.015886836 0.0040871035 4285426978
-0.0099487193 -0.0142878 0.0023258058 4285558304
-0.0084442347 -0.011954248 -0.00011823047 4285426468
-0.0065117478 -0.01182653 -0.00050563086 4285426468
-0.004428491 -0.012433484 -0.00020904932 4285426214
-0.0024931207 -0.012305349 -0.00059685949 4286016284
0.019964894 0.014516756 -0.029366886 4285558814
0.021221269 0.016835906 -0.031759657 4285690139
0.022461547 0.01915412 -0.034149185 4285887763
0.023887279 0.020739935 -0.035861626 4285821464
0.026119132 0.019400299 -0.034879003 4285755673
0.028568558 0.017330408 -0.033225715 4285756184
0.031662714 0.013069171 -0.029559107 4285756184
0.034364451 0.010271534 -0.027242033 4285558814
0.036657687 0.008936476 -0.026271317 4285558814
0.03809116 0.010523461 -0.027984809 4285558814
0.039293565 0.012839988 -0.030366113 4285558813
0.040925752 0.013695609 -0.031405129 4285624348
0.043229397 0.012361687 -0.030436156 4285624093
0.044858735 0.013217315 -0.031474449 4285624094
0.045789652 0.016260937 -0.034515239 4285623838
0.046932731 0.018573921 -0.036884286 4285689628
0.049004994 0.017969798 -0.036582783 4285690138
0.052038573 0.014450658 -0.033617109 4285690394
0.056065559 0.008018747 -0.027993618 4285559068
0.061118074 -0.0013237894 -0.01971871 4285427998
-0.01495491 -0.021418065 0.0071152225 4285099303
-0.013407584 -0.019075498 0.0046672504 4285427233
-0.01159662 -0.018209264 0.0035914797 4285426724
-0.010075826 -0.015868224 0.001148995 4285426978
-0.0084258169 -0.014265478 -0.00060679112 4285361188
-0.006638594 -0.01340048 -0.0016775476 4285426723
-0.0048566386 -0.012535654 -0.0027472014 4285426724
-0.0027735904 -0.013144732 -0.0024521137 4285492003
0.018378053 0.011422124 -0.028767871 4285556264
0.019454891 0.014482748 -0.031832278 4285558559
0.020706302 0.016808104 -0.034219138 4285559069
0.021742946 0.019866243 -0.037275352 4285558814
0.023362229 0.020722304 -0.038310796 4285690138
0.025588246 0.019377898 -0.037330277 4285690139
0.028445071 0.015834693 -0.034338646 4285690394
0.03153801 0.011560373 -0.030681735 4285558814
0.034450963 0.0080211721 -0.027701132 4285558814
0.036316894 0.0081472583 -0.028073069 4285558813
0.037095644 0.011935931 -0.031789541 4285624603
0.038067654 0.014990583 -0.034832194 4285755673
0.040132053 0.014383234 -0.034531191 4285755163
0.04265264 0.012312431 -0.032896459 4285820954
0.044504803 0.012438145 -0.033265226 4285821209
0.045895256 0.014027085 -0.034966424 4285623838
0.047274899 0.015615467 -0.03666541 4285558559
0.049588379 0.014278274 -0.035701327 4285559068
0.052867778 0.010017775 -0.032080658 4285493533
0.057386726 0.0021052659 -0.025145607 4285493788
0.062941171 -0.0087258816 -0.015567706 4285427998
-0.015082762 -0.023013368 0.0059272274 4285099304
-0.013398137 -0.021404333 0.0041674841 4285426723
-0.011584464 -0.020535752 0.0030928236 4285492514
-0.0099182874 -0.018927738 0.0013370067 4285426723
-0.0082627423 -0.017320275 -0.00041663833 4285361189
-0.0066177696 -0.015713431 -0.0021680314 4285426724
-0.0048330911 -0.014846317 -0.0032365313 4285426723
-0.003206674 -0.013240427 -0.0049840747 4285426724
-0.0012795329 -0.013112739 -0.0053701526 4285426214
0.0001726523 -0.010769069 -0.0077933995 4285360423
0.0019308925 -0.0099032521 -0.0088562546 4285425704
0.019016385 0.0069698952 -0.027198303 4285491239
0.019718209 0.011512578 -0.031602569 4285558304
0.020779561 0.014580902 -0.034657121 4285558814
0.021819465 0.017647941 -0.037707344 4285427488
0.02364265 0.017770611 -0.03807117 4285493534
0.025669662 0.017157808 -0.037764944 4285493533
0.028115064 0.015074659 -0.036120784 4285559324
0.030994905 0.011522297 -0.033141937 4285493534
0.033689566 0.0087068975 -0.030836746 4285558814
0.035547331 0.008832451 -0.031207044 4285558813
0.03610158 0.013366144 -0.03558106 4285690139
0.037283398 0.015694264 -0.037948266 4285425703
0.04207661 0.012272187 -0.035350047 4285557539
0.044151239 0.011663593 -0.035052557 4285886744
0.046231117 0.011055473 -0.034756023 4285624093
0.047849655 0.011914961 -0.035788659 4285558813
0.050642617 0.009107165 -0.033502251 4285559324
0.054411478 0.0033680797 -0.028567862 4285428254
0.059429683 -0.0060332119 -0.020329282 4285362464
0.065249339 -0.017628253 -0.010118475 4285427998
-0.013388973 -0.023737192 0.0036647078 4285098794
-0.011712026 -0.022124268 0.0019099396 4285360423
-0.010045655 -0.020511925 0.00015738793 4285360679
-0.0085346811 -0.018158451 -0.0022731163 4285426723
-0.0070396475 -0.015805893 -0.0047003231 4285426724
-0.005260285 -0.014936984 -0.0057661249 4285426723
-0.0031805597 -0.015550606 -0.005473753 4285426724
-0.0014063753 -0.014681801 -0.0065383366 4285492513
0.0002043657 -0.013072439 -0.0082792034 4285426724
0.0018044747 -0.011463612 -0.01001789 4285425958
0.0037209801 -0.011336312 -0.010401593 4285556519
0.019653313 0.0025005192 -0.02564148 4285294888
0.020366777 0.0070569888 -0.03003813 4285558048
0.021635061 0.0093964674 -0.032418348 4285624094
0.022688933 0.01247311 -0.035464734 4285558558
0.024525369 0.012596667 -0.035831202 4285625114
0.026158094 0.013458092 -0.03686592 4285493789
0.028404489 0.012106564 -0.03589604 4285559324
0.030452518 0.011493247 -0.035595484 4285559068
0.032929271 0.0094059259 -0.033962384 4285559324
0.034350093 0.011005051 -0.035663497 4285559069
0.035108969 0.014814064 -0.039359409 4285821718
0.03650023 0.016411345 -0.041054435 4285491494
0.041276209 0.012977287 -0.038461052 4285558049
0.043570258 0.011629861 -0.037500001 4285623838
0.04610537 0.0095472671 -0.035877936 4285689883
0.048656438 0.0074658841 -0.034258958 4285558814
0.052402418 0.0017078221 -0.029333334 4285559069
0.057144988 -0.0069888756 -0.021770392 4285493789
0.062192798 -0.016416304 -0.013559228 4285428254
-0.011839557 -0.023712486 0.00072728284 4285032748
-0.010172978 -0.022095799 -0.0010220055 4285229353
-0.0085170008 -0.020479664 -0.0027691294 4285426979
-0.0068716109 -0.018864155 -0.0045139901 4285426724
