# .PCD v0.7 - Point Cloud Data file format
VERSION 0.7
FIELDS x y z rgba
SIZE 4 4 4 4
TYPE F F F U
COUNT 1 1 1 1
WIDTH 965
HEIGHT 1
VIEWPOINT 0 0 0 1 0 0 0
POINTS 965
DATA ascii
-0.016833119 -0.020940773 -0.0018771766 4282681393
-0.015340757 -0.019302845 -0.0037305811 4284706349
0.016637426 -0.022501908 -0.0064897402 4284313648
0.018297944 -0.02160053 -0.0076603866 4282221883
0.019953232 -0.020699561 -0.0088295089 4281109319
0.021849159 -0.020530626 -0.0093366699 4281240134
0.023745093 -0.02036158 -0.0098437415 4281240644
0.026143365 -0.021654882 -0.0090325642 4281175363
0.028044548 -0.021485113 -0.0095408596 4281175874
0.029689271 -0.020584457 -0.01070675 4281175874
0.032105926 -0.021875776 -0.0099002328 4281176128
0.034271374 -0.022435702 -0.0097526927 4281110594
0.036177717 -0.02226501 -0.010262003 4280915008
0.037817061 -0.021364398 -0.011426044 4281175619
0.039990276 -0.021923296 -0.011280326 4281240644
0.041896477 -0.021752253 -0.011789315 4281240644
0.044627212 -0.023768447 -0.010340011 4281239623
0.050703645 -0.034529544 -0.0010705022 4281240133
-0.046667062 -0.02736859 0.0071251709 4282869839
-0.045545794 -0.023494184 0.003198931 4281567300
-0.043669559 -0.023330793 0.0026941374 4281436484
-0.041793138 -0.023167297 0.0021893568 4280980289
-0.03991653 -0.023003682 0.0016846005 4281045313
-0.03787563 -0.023581021 0.0018606205 4280981309
-0.035995997 -0.023416929 0.001355214 4281111614
-0.034116194 -0.023252733 0.00084983371 4281111614
-0.032236204 -0.023088403 0.00034449622 4281241409
-0.030356042 -0.022923954 -0.00016081147 4281306433
-0.028475724 -0.022759393 -0.00066608563 4281240644
-0.026775107 -0.021855012 -0.0018478194 4281175619
-0.024714582 -0.022429891 -0.0016765036 4280914243
-0.02264867 -0.023004197 -0.0015065707 4280914243
-0.020577349 -0.023577906 -0.0013379958 4281045569
-0.018500604 -0.024151087 -0.0011707526 4281045313
-0.016804524 -0.023246512 -0.0023508836 4283268914
0.016469207 -0.024082623 -0.0076455097 4284183598
0.018129818 -0.023179077 -0.008814523 4282156604
0.02002823 -0.023010023 -0.0093224291 4280847943
0.021926645 -0.022840872 -0.0098302569 4281108553
0.023825068 -0.022671588 -0.010337986 4281174089
0.026225358 -0.023969047 -0.009530684 4281044039
0.028129034 -0.023799069 -0.010039648 4280980034
0.030032694 -0.023628958 -0.010548504 4280979778
0.032453984 -0.024924152 -0.0097465832 4281110594
0.03436286 -0.024753347 -0.010256657 4281175619
0.036535792 -0.025314659 -0.010112694 4281240644
0.038180493 -0.02441138 -0.011276493 4281044039
0.040089238 -0.024240233 -0.011786265 4281109063
0.042269923 -0.024800487 -0.011644093 4281239369
0.045279704 -0.02755405 -0.0095498133 4281043019
-0.046528593 -0.030430302 0.0073389653 4282739533
-0.045554399 -0.02580037 0.002737375 4281370693
-0.043675683 -0.0256368 0.0022318754 4281305668
-0.041638143 -0.02621682 0.0024069622 4280914754
-0.039756395 -0.02605278 0.001900807 4280914754
-0.0377106 -0.026631899 0.0020738114 4280980543
-0.035992332 -0.025724359 0.00088857673 4281176639
-0.034110017 -0.025559962 0.00038250536 4281045313
-0.032227539 -0.025395446 -0.00012352504 4281241153
-0.030344881 -0.025230788 -0.00062951446 4281371458
-0.02846206 -0.02506604 -0.0011354797 4281240644
-0.02657906 -0.024901144 -0.0016413927 4281110339
-0.024513669 -0.025477797 -0.001473086 4281109829
-0.022257932 -0.02679532 -0.00063261576 4281175109
-0.020366617 -0.026629359 -0.0011405107 4281240644
-0.018284984 -0.027204253 -0.00097630173 4281567554
-0.016776331 -0.025556378 -0.0028275568 4282025278
0.016538557 -0.026399799 -0.0081416834 4283464753
0.018201906 -0.025493875 -0.0093097128 4282025024
0.020345598 -0.026060916 -0.0091603342 4281043273
0.022249136 -0.025891311 -0.009669533 4280977483
0.024152678 -0.025721572 -0.010178631 4280846413
0.025805522 -0.024816118 -0.011343492 4280716364
0.027959749 -0.025381736 -0.011196552 4280847689
0.030631147 -0.027417019 -0.0097420309 4280784449
0.033576932 -0.030185722 -0.0076378644 4281045823
0.036021296 -0.031483091 -0.006845294 4281175619
0.037948418 -0.031310543 -0.007360159 4281240133
0.0398755 -0.031137846 -0.0078748967 4281043273
0.042340782 -0.032432936 -0.0070876726 4280846413
0.044816554 -0.033727027 -0.0063031302 4280846413
0.047851559 -0.036486953 -0.0042222729 4280912204
-0.046390966 -0.033500537 0.0075466018 4282543438
-0.045410283 -0.028857008 0.0029531773 4281109318
-0.043526433 -0.02869302 0.0024462752 4281043784
-0.041642375 -0.028528906 0.001939401 4281175364
-0.039597102 -0.029110394 0.0021108389 4281110083
-0.037546404 -0.029691264 0.0022808574 4281240899
-0.035822771 -0.028781123 0.0010958184 4281568064
-0.034104235 -0.027871266 -8.7808818e-05 4281502784
-0.032219253 -0.027706556 -0.00059453584 4281175364
-0.030334093 -0.027541704 -0.0011012144 4281240388
-0.028625555 -0.026632436 -0.0022818614 4281109318
-0.026922107 -0.025723524 -0.003461061 4281174854
-0.025041737 -0.025558792 -0.0039662216 4281174853
-0.02297654 -0.026137538 -0.0037994441 4281044294
-0.020718642 -0.0274591 -0.0029628072 4281174344
-0.019019879 -0.026550099 -0.0041404478 4281370949
-0.017326228 -0.025641479 -0.0053165834 4284379184
0.016607478 -0.028721035 -0.0086408276 4282810169
0.018513475 -0.028551444 -0.0091508646 4281631049
0.02041949 -0.028381735 -0.0096608121 4280977484
0.022325516 -0.028211884 -0.01017067 4280715089
0.023983713 -0.027303912 -0.011335401 4280584274
0.026137568 -0.027871847 -0.011190103 4280453968
0.028549775 -0.029176757 -0.010392593 4280323663
0.031995438 -0.033429958 -0.006986341 4280454988
0.035472654 -0.037680142 -0.0035884446 4281173833
0.038720436 -0.041190565 -0.00085035246 4281370183
0.04120364 -0.042488672 -7.1386807e-05 4281761863
0.043431051 -0.043049313 5.4796226e-05 4281239368
0.04620146 -0.045081615 0.0014783554 4282347088
-0.044349633 -0.036413498 0.0072354339 4281565259
-0.042444877 -0.036247693 0.0067229066 4281240133
-0.040381767 -0.036829896 0.0068877395 4281370949
-0.03831321 -0.037411548 0.007051222 4281306689
-0.036402605 -0.037244938 0.0065373592 4281306434
-0.034491837 -0.037078209 0.0060235113 4281240644
-0.033255517 -0.03392262 0.0028115669 4281697859
-0.031868778 -0.031515673 0.000279136 4281173324
-0.030323707 -0.029856749 -0.0015758723 4281108043
-0.028788991 -0.028198563 -0.0034280438 4280781644
-0.0038573779 0.023283068 0.03159342 4278404789
-0.036354192 0.027161861 0.02983124 4278272189
-0.025594331 0.02256817 0.033128373 4278471854
-0.024814114 0.026791841 0.028280357 4278733738
-0.023505747 0.02898461 0.025609987 4278272954
-0.021645494 0.029148532 0.025110966 4278534074
-0.018634237 0.025258895 0.028941853 4278600629
-0.010318343 0.023222659 0.029804284 4278604199
-0.0096607134 0.027436096 0.024989584 4278931619
-0.0090346001 0.031646822 0.020183386 4278667184
-0.0075989701 0.033158943 0.018252477 4278534329
-0.0051093027 0.031301454 0.019904451 4278534839
0.0014449842 0.02287798 0.028197857 4278537388
0.0037800632 0.021699656 0.029118354 4279195034
-0.059653811 0.027748184 0.03028054 4278603434
-0.058644637 0.032003846 0.025380166 4278601903
-0.057242103 0.03421025 0.022688629 4279126183
-0.05513414 0.033005506 0.023665139 4278536879
-0.049989179 0.026509918 0.029997813 4278930344
-0.048289344 0.027353423 0.028769577 4279127203
-0.046594508 0.02819651 0.027542787 4278996644
-0.044904701 0.029039223 0.02631739 4278865318
-0.043699831 0.031923346 0.022907807 4278602413
-0.042353183 0.034125358 0.020231677 4279060649
-0.040526405 0.034285672 0.019741127 4279454623
-0.035508163 0.029169243 0.024565609 4278667439
-0.033140264 0.027293358 0.026244374 4278864299
-0.031107917 0.026777374 0.026470313 4278865318
-0.029783688 0.028977824 0.023800509 4278603434
-0.028475061 0.031176927 0.021134993 4278536624
-0.027182072 0.033374768 0.018473685 4278798509
-0.025345795 0.033536471 0.017981011 4279389599
-0.023320399 0.033020228 0.018209089 4278865319
-0.020906426 0.031148897 0.019875871 4278339764
-0.018476479 0.029279042 0.021538423 4278733229
-0.016424261 0.028765377 0.021759471 4278733994
-0.014765583 0.029606476 0.02054329 4278930854
-0.013314143 0.031124109 0.018611293 4278668458
-0.010649905 0.034833193 0.014040094 4279454369
-0.009022329 0.035671845 0.012832481 4279390108
-0.006549269 0.033806317 0.01448388 4278406319
-0.0036296956 0.030590869 0.017558416 4278864808
-0.00090159476 0.028053353 0.019912908 4278800039
0.0014065653 0.02686822 0.020837301 4279261590
-0.062190399 0.028787389 0.026712591 4279324574
-0.059497304 0.033899866 0.020599606 4278667694
-0.057824641 0.034742869 0.019380113 4279126183
-0.05586905 0.034217097 0.019624399 4279126439
-0.05164291 0.03179986 0.021568043 4278602924
-0.049665518 0.031276174 0.021806607 4278472363
-0.047991596 0.032119595 0.020587014 4278734248
-0.046322696 0.032962598 0.019368863 4278930343
-0.041016161 0.034124732 0.017173816 4278863534
-0.03434024 0.029833209 0.020770034 4278799018
-0.032324001 0.029313585 0.020998588 4278734249
-0.031193152 0.032200351 0.01761589 4278472363
-0.029902361 0.034404412 0.014960092 4278274739
-0.026065178 0.034045316 0.014700217 4278338743
-0.023859307 0.032845851 0.015647974 4278470069
-0.017570704 0.030612744 0.017040258 4278996134
-0.016124323 0.032134175 0.015112871 4278734249
-0.01448644 0.032975651 0.013903968 4278668713
-0.011433285 0.035336122 0.010776255 4278271933
-0.0096036866 0.035497867 0.010285858 4278405299
-0.0017195381 0.028529132 0.016639935 4278866593
0.00013945997 0.028693778 0.016141888 4279064984
-0.062882617 0.030005388 0.022662343 4278931364
-0.061740547 0.033599675 0.018514309 4278274484
-0.052547008 0.0337044 0.016811293 4278734249
-0.050583087 0.033177309 0.017051768 4278537898
-0.049076416 0.034707144 0.015110582 4278734248
-0.046952516 0.033495247 0.016076325 4278799784
-0.037532032 0.032923527 0.015082508 4278405808
-0.035364702 0.031715885 0.016036863 4278603178
-0.033361949 0.031192807 0.016267374 4278734248
-0.032065488 0.033403806 0.013614982 4278341293
-0.030604064 0.034930311 0.011686519 4278406573
-0.020352505 0.031638838 0.013544599 4278930343
-0.018322021 0.031118838 0.013768079 4278603434
-0.016883165 0.032643892 0.011846073 4278537388
-0.01525306 0.03348688 0.010640867 4278603178
-0.013832383 0.035010479 0.008723855 4278340784
-0.0052462853 0.031574979 0.011030797 4278407340
-0.0025360473 0.029018359 0.013376718 4278473384
-0.00024483353 0.027822984 0.014298946 4278736799
-0.063306928 0.029862188 0.020086659 4279455643
-0.062033445 0.032777689 0.0166781 4278406828
-0.060366012 0.033624355 0.015463248 4278602668
-0.058562681 0.033781867 0.014978427 4278864554
-0.056759112 0.033939473 0.014493592 4278864554
-0.054663017 0.032720506 0.015463183 4278995879
-0.052853689 0.032878734 0.014976891 4278865319
-0.051044106 0.033037052 0.014490584 4278734504
-0.049388289 0.033883087 0.01327916 4278406828
-0.04742422 0.03335394 0.013517931 4278799783
-0.045773208 0.034199692 0.012307893 4278930343
-0.043803416 0.033671193 0.012545243 4278931109
-0.041992694 0.033829942 0.012058888 4278865318
-0.039847381 0.032615788 0.01301571 4278734248
-0.03769134 0.031402685 0.013969664 4278668969
-0.035697013 0.030876616 0.014200635 4278603689
-0.033872284 0.031036889 0.013710745 4278669224
-0.032402784 0.032568358 0.011783365 4278603178
-0.030943632 0.034099028 0.0098587759 4278537898
-0.029128879 0.034258649 0.0093717333 4278799784
-0.027313955 0.034418352 0.0088846982 4278799783
-0.02549886 0.034578145 0.0083976723 4278799784
-0.023110949 0.032684803 0.010056335 4278603178
-0.020900615 0.031477146 0.010996226 4278668969
-0.018679582 0.030270461 0.011933349 4278472618
-0.017242998 0.031799681 0.010015227 4278603178
-0.01541397 0.031961091 0.0095247626 4278537643
-0.014196973 0.034172282 0.0068992935 4278603178
-0.012582287 0.035016179 0.0057000332 4278668969
-0.010763429 0.035176918 0.0052124709 4278734759
-0.0083085857 0.033290148 0.0068536159 4278865574
-0.0058377981 0.031404834 0.0084905997 4278669479
-0.0031338669 0.028838925 0.010831513 4278669478
-0.0010683723 0.028320532 0.011044469 4278539683
-0.063464716 0.028344663 0.018975848 4279455898
-0.062190406 0.031268876 0.01557369 4278406828
-0.060660824 0.032808881 0.013632683 4278668969
-0.059000865 0.033657115 0.012421466 4278341295
-0.057345904 0.034504931 0.011211693 4278341295
-0.055112332 0.03259027 0.012905832 4278406828
-0.053011283 0.031367391 0.013870755 4278538154
-0.051352955 0.032215696 0.012660222 4278538154
-0.049699634 0.033063643 0.011451095 4278668968
-0.047738507 0.032532007 0.01168895 4278734504
-0.045930929 0.032690302 0.011203298 4278341293
-0.044284821 0.033537813 0.0099962614 4278275504
-0.040506899 0.033165701 0.0097463112 4278405554
-0.038189724 0.031258978 0.011418464 4278668458
-0.03585656 0.029353762 0.013086328 4278603178
-0.034031935 0.029513979 0.012596425 4278472363
-0.032384582 0.030362045 0.011389397 4278734504
-0.030742317 0.031209724 0.010183778 4278799783
-0.029287882 0.032744385 0.0082638301 4278733738
-0.026222095 0.035124265 0.0051468369 4278598843
-0.021447718 0.031324431 0.0084544811 4278929835
-0.019232519 0.030112889 0.0093897618 4278406828
-0.017602287 0.030960066 0.0081878006 4278734248
-0.015977174 0.031806871 0.00698727 4278799783
-0.014357213 0.032653287 0.0057881754 4278602923
-0.012948867 0.034184579 0.0038811248 4278340274
-0.0041647218 0.030037094 0.0068797898 4279126948
-0.0014511831 0.027463391 0.0092114992 4279062688
-0.063622415 0.026827354 0.017865168 4279455898
-0.062482432 0.030453913 0.013742574 4278734504
-0.0530205 0.029163783 0.013488065 4278799018
-0.051359385 0.030014457 0.012278415 4278800039
-0.049856849 0.031556793 0.010348275 4278734504
-0.048208423 0.032406494 0.0091421455 4278472108
-0.046565033 0.033255871 0.0079373717 4278602669
-0.042965211 0.033571221 0.0069702659 4278336448
-0.035844058 0.027140725 0.012689112 4278668203
-0.0340169 0.02730112 0.012198493 4278668713
-0.032544032 0.028841505 0.010276828 4278865318
-0.03108149 0.03038107 0.0083579998 4278537388
-0.029811844 0.032609317 0.0057278462 4278733483
-0.026568316 0.034305751 0.0033312067 4278796468
-0.022186898 0.031869352 0.0052080043 4278730423
-0.019784473 0.029964315 0.0068528168 4278602668
-0.017961055 0.03012508 0.0063637458 4278668969
-0.01633846 0.030973809 0.0051655397 4278865319
-0.013521142 0.034044977 0.0013578888 4278471089
-0.009899538 0.034365036 0.0003870856 4278665653
-0.0047601312 0.029880155 0.0043509491 4279191719
-0.0024917088 0.028669633 0.0052692145 4278932893
-0.064044602 0.026702436 0.01530271 4279455388
-0.062773876 0.029643577 0.011914818 4278668969
-0.061111264 0.030496215 0.010706089 4278274994
-0.059593804 0.032043807 0.0087749753 4279126949
-0.057800993 0.032200284 0.0082928948 4279258018
-0.055717058 0.030967031 0.009255603 4278272698
-0.053622343 0.029734747 0.010215517 4278799020
-0.051818296 0.029892413 0.00973057 4278734248
-0.05032067 0.031438656 0.007805001 4278865318
-0.048521392 0.031596053 0.0073214527 4278602923
-0.046880484 0.032447293 0.0061190203 4278340529
-0.045244612 0.033298165 0.0049180016 4278405299
-0.043449953 0.033455364 0.0044358503 4279782044
-0.04148858 0.032919593 0.0046704467 4278405044
-0.039183512 0.030998651 0.0063357577 4278667439
-0.037034199 0.029771833 0.0072814524 4278405809
-0.034874149 0.028545996 0.0082243681 4278668713
-0.033234447 0.029397698 0.0070226174 4278537898
-0.031959094 0.031632818 0.0043959022 4278602668
-0.029085472 0.034716323 0.00057880022 4279192228
-0.0272891 0.034874357 9.6717849e-05 4279651229
-0.025112227 0.03365051 0.0010354258 4278273974
-0.020726368 0.031205839 0.0029044691 4278471599
-0.018913575 0.031365655 0.0024182359 4278734248
-0.017502114 0.032905664 0.00051690079 4278864808
-0.012287062 0.034073897 -0.0016427431 4279454368
-0.010692857 0.034922644 -0.0028314814 4278865829
-0.0082481951 0.033015352 -0.0012025796 4278734248
-0.0055710822 0.030420877 0.0011254335 4278602669
-0.0030919798 0.028516848 0.0027451934 4278867103
-0.0010405779 0.027990652 0.0029569771 4281556334
-0.06459786 0.02728473 0.012022533 4279849619
-0.060029425 0.031941682 0.0062345099 4279127204
-0.058099359 0.031400271 0.0064753704 4279651483
-0.052426681 0.030476073 0.0064698774 4278668713
-0.05093655 0.032025918 0.004549671 4278865318
-0.049301006 0.032878786 0.0033502113 4278668203
-0.045884013 0.033887621 0.0016721692 4278667949
-0.043770075 0.032653037 0.0026238617 4279520413
-0.041811667 0.032114781 0.0028575528 4278865064
-0.037878454 0.031039931 0.0033206912 4278930344
-0.03590364 0.030503299 0.0035501951 4278799784
-0.034276977 0.031355996 0.0023535844 4278537898
-0.030166186 0.036686387 -0.0040683858 4278929579
-0.028195776 0.036149811 -0.003837442 4279061159
-0.025839999 0.034227371 -0.0021903012 4278340019
-0.021080643 0.030387005 0.0010912968 4278405808
-0.019270614 0.030546533 0.00060576666 4278799784
-0.017861418 0.032090671 -0.0012916345 4278799273
-0.0036912635 0.02837305 0.00022780895 4278997919
-0.0018670633 0.028534604 -0.00026092306 4280441474
-0.065281488 0.028580913 0.0080293715 4278669478
-0.064027511 0.031537913 0.004659187 4278406574
-0.054674074 0.03021786 0.0044182409 4278996134
-0.05303359 0.031073147 0.0032189796 4278603434
-0.051398136 0.03192801 0.0020211544 4278734504
-0.049612179 0.032084145 0.0015411153 4278799784
-0.046039663 0.032396663 0.0005810149 4278273209
-0.03889209 0.033022843 -0.0013391692 4278800039
-0.037278622 0.033876389 -0.0025306167 4278406828
-0.035846785 0.035426114 -0.0044313404 4278472108
-0.033887744 0.034886088 -0.0041992245 4278734249
-0.02420336 0.032889415 -0.0037660375 4278471853
-0.022214383 0.032352496 -0.0035415888 4278668713
-0.020417623 0.032510832 -0.0040235734 4278668458
-0.018620729 0.032669272 -0.0045055258 4278865064
-0.016823702 0.032827787 -0.0049874592 4278864808
-0.0065404624 0.029463489 -0.0031958716 4278996389
-0.0040708631 0.027545471 -0.0015835697 4278604708
-0.0024707466 0.028399363 -0.0027702684 4278998938
-0.06569998 0.028489612 0.0054914542 4278799783
-0.06445042 0.031454831 0.0021291329 4278472363
-0.062537275 0.030907387 0.002370974 4278996389
-0.060758114 0.031062443 0.001892386 4278930853
-0.058836587 0.030515864 0.0021320749 4278996644
-0.057054296 0.030671328 0.001652752 4278996644
-0.054977007 0.02942436 0.002607177 4278931364
-0.053339005 0.030281506 0.0014102524 4278735014
-0.051706053 0.031138286 0.00021473691 4278538409
-0.049922839 0.031294119 -0.00026461761 4278800293
-0.047981501 0.030749701 -2.9921532e-05 4278734759
-0.046355762 0.031606074 -0.0012233211 4278996643
-0.044408739 0.031062309 -0.00099003967 4278931618
-0.042456239 0.030519096 -0.00075816642 4279127713
-0.040161423 0.028577538 0.00089477561 4278734759
-0.038876973 0.030832734 -0.0017196769 4278996899
-0.037434444 0.032387625 -0.0036200313 4278931619
-0.036002256 0.033941694 -0.0055175428 4278931619
-0.034043536 0.033399425 -0.0052870386 4278865829
-0.032260969 0.033555981 -0.0057656239 4278996644
-0.030662462 0.034410678 -0.0069511631 4278996643
-0.028508492 0.033171579 -0.0060164537 4279062178
-0.026154317 0.031235883 -0.004378947 4279193504
-0.023976341 0.029999066 -0.0034505501 4278996644
-0.021982424 0.02946038 -0.003229118 4278996898
-0.020180508 0.029619144 -0.003712506 4278865829
-0.018178411 0.029081317 -0.0034930864 4278800294
-0.01657626 0.029936964 -0.0046791974 4278865829
-0.015184548 0.031488389 -0.006565141 4278931364
-0.013387393 0.031647079 -0.0070469878 4279259039
-0.011168998 0.030414427 -0.0061289724 4279259039
-0.0087267421 0.028487273 -0.004514494 4279062688
-0.0060527399 0.025866359 -0.0022057146 4279061923
-0.004231479 0.026027527 -0.0026937537 4278801314
-0.0026312396 0.02688358 -0.0038788393 4279326614
-0.065723278 0.026292723 0.005118724 4279324573
-0.064336263 0.02856232 0.0024808673 4278865829
-0.062554821 0.028717451 0.0020015668 4278931364
-0.060633846 0.028168526 0.0022396436 4279062433
-0.058849283 0.028324064 0.0017596083 4278865829
-0.056775399 0.027072277 0.0027115652 4278800548
-0.054837935 0.026524998 0.0029453654 4278669478
-0.052894972 0.02597829 0.0031777536 4278735013
-0.051403768 0.027541127 0.0012671482 4278538663
-0.049612753 0.027697597 0.00078566279 4278669478
-0.047663853 0.027151613 0.0010166187 4278800548
-0.045869775 0.027308514 0.00053443387 4278669223
-0.044075504 0.027465487 5.2238815e-05 4278669223
-0.042115435 0.026920719 0.0002803728 4278603688
-0.0399817 0.02567485 0.0012167627 4278603688
-0.038349755 0.026534263 2.3531727e-05 4278538409
-0.037069798 0.028795574 -0.0025846474 4278538664
-0.035453267 0.029653795 -0.0037736157 4278473129
-0.0333056 0.028409464 -0.0028407229 4278407339
-0.031328633 0.027866663 -0.0026167566 4278538409
-0.029714197 0.028724892 -0.0038049351 4278538154
-0.027731612 0.028182764 -0.0035823388 4278407084
-0.023750179 0.027100122 -0.0031412905 4278341549
-0.022140399 0.027958335 -0.0043279962 4278472619
-0.019944251 0.026718864 -0.0034076618 4278407339
-0.017737426 0.025480472 -0.0024901573 4278276269
-0.015924808 0.025640316 -0.0029763086 4278341804
-0.014317136 0.026498657 -0.0041621337 4278472874
-0.0039555579 0.0231154 -0.0024113907 4278342314
-0.0021290518 0.023277108 -0.002900782 4278867614
-0.065484643 0.022677656 0.0061786957 4280111248
-0.063821569 0.023540813 0.0049779583 4278537898
-0.062027067 0.023697034 0.0044951122 4278472619
-0.05110278 0.023931079 0.002310033 4278342314
-0.049303986 0.024088189 0.0018264195 4278473384
-0.047190055 0.022835869 0.0027645193 4278407849
-0.045385569 0.02299362 0.0022794902 4278342059
-0.043418147 0.022447199 0.0025038878 4278407339
-0.041610591 0.022605389 0.0020181676 4278472874
-0.039466903 0.021356028 0.0029484611 4278603943
-0.037824303 0.022218458 0.001754039 4278276269
-0.036013529 0.022377174 0.001267639 4278407338
-0.034378432 0.023239117 7.5367279e-05 4278342314
-0.032391429 0.022694897 0.00029488001 4278407849
-0.030580103 0.022853915 -0.0001914734 4278342314
-0.028952383 0.023715459 -0.001381577 4278407338
-0.024956122 0.022629596 -0.00094804913 4278341804
-0.022758201 0.021385722 -3.1684525e-05 4278472874
-0.020938195 0.021545935 -0.00052003656 4278407083
-0.018921122 0.021004975 -0.00030812621 4278341804
-0.017098203 0.021165613 -0.00079713017 4278342058
-0.015275158 0.021326367 -0.0012860894 4278473128
-0.013247155 0.020786632 -0.0010769069 4278407593
-0.011213768 0.020247474 -0.00086909346 4278407593
-0.008544676 0.017608501 0.0014274893 4278342058
-0.0064926222 0.017071135 0.0016304888 4278407339
-0.0046505854 0.017234024 0.0011367882 4278735268
-0.0034625046 0.019495286 -0.0014406508 4278407849
-0.0014075562 0.018958487 -0.0012382688 4279392659
-0.064985394 0.017631195 0.0086618382 4280045969
-0.063442603 0.019206613 0.0067435578 4278604198
-0.061501518 0.018654916 0.0069727506 4278735014
-0.059693709 0.018812306 0.006486332 4278407594
-0.058027126 0.019678093 0.0052864347 4278669733
-0.056077383 0.01912738 0.0055134799 4278604198
-0.054268859 0.019285046 0.0050270334 4278538663
-0.05231078 0.0187352 0.0052519385 4278407594
-0.050651103 0.019600693 0.0040541366 4278538918
-0.048687309 0.019051492 0.0042776223 4278604453
-0.046718009 0.018502813 0.0044997334 4278538918
-0.04474324 0.017954737 0.004720401 4278342314
-0.042925477 0.018113695 0.0042318329 4278473384
-0.041107506 0.01827275 0.003743276 4278473128
-0.039457075 0.019137915 0.0025483258 4278276524
-0.037470959 0.018591158 0.0027661901 4278604453
-0.035652407 0.018750519 0.0022776704 4278407849
-0.033833653 0.018909976 0.0017891582 4278342314
-0.031836458 0.018364441 0.0020042369 4278473384
-0.030014716 0.018524338 0.0015150635 4278538918
-0.028192803 0.018684331 0.0010259012 4278473384
-0.026370734 0.018844437 0.00053677242 4278473129
-0.024548501 0.019004636 4.7662295e-05 4278669733
-0.022343256 0.017757069 0.00095866062 4278735268
-0.020515457 0.017917942 0.00046819635 4278538664
-0.018490799 0.017375398 0.00067642611 4278276268
-0.016660094 0.017536707 0.00018532295 4278473128
-0.014829271 0.017698124 -0.00030574296 4278342059
-0.012793697 0.017156869 -0.00010026991 4278669733
-0.010545518 0.015913635 0.00079963263 4278669733
-0.0082866773 0.014671393 0.0016967906 4278538663
-0.0060172006 0.01343023 0.0025911247 4278604198
-0.0043825135 0.014295626 0.0014016414 4278866084
-0.0029707924 0.015862275 -0.00047934987 4278473128
-0.00090828538 0.015323959 -0.00028066989 4279720334
-0.064619042 0.013274439 0.010414379 4280963713
-0.063198723 0.015566297 0.0077824835 4278866338
-0.061114095 0.014302056 0.0087212045 4278538408
-0.059295885 0.014460303 0.0082319472 4278407594
-0.057759851 0.016039666 0.0063189566 4278669733
-0.056090251 0.01690796 0.0051198881 4278669733
-0.054279201 0.017065808 0.0046327282 4278407594
-0.052169695 0.015804082 0.0055650938 4278473128
-0.050201185 0.015252993 0.0057855528 4278604198
-0.048381552 0.015411824 0.0052962694 4278276779
-0.046404704 0.014861632 0.005514605 4278604453
-0.044581994 0.015020896 0.0050246175 4278538918
-0.042596824 0.014471583 0.0052408371 4278604453
-0.04077106 0.014631286 0.0047501624 4278473384
-0.03911262 0.015499283 0.0035546916 4278407849
-0.037289098 0.015658956 0.0030647414 4278538663
-0.035465375 0.015818723 0.0025748005 4278735523
-0.033641465 0.015978593 0.0020848801 4278276779
-0.031817384 0.016138572 0.0015949765 4278473384
-0.02981244 0.015591599 0.001806356 4278866338
-0.027985387 0.015752025 0.001315793 4278342314
-0.026158154 0.015912533 0.00082524307 4278473128
-0.024330772 0.01607316 0.00033473223 4278473129
-0.022120811 0.014821596 0.001241155 4278341803
-0.020287856 0.014982887 0.00074928068 4278538664
-0.018258296 0.014438622 0.00095446967 4278538663
-0.016422428 0.01460037 0.0004619658 4278407594
-0.014586449 0.014762208 -3.050454e-05 4278276524
-0.012750342 0.01492415 -0.00052293763 4278735268
-0.010707106 0.014381468 -0.00032113586 4278669733
-0.0086584836 0.013839304 -0.00012066029 4278538663
-0.0063922256 0.0125935 0.00077119283 4278473128
-0.0045451522 0.012756795 0.00027611479 4278800549
-0.0026979893 0.012920193 -0.00021891668 4278735269
-0.00063056126 0.012380119 -2.3229979e-05 4280246654
-0.064645849 0.01104128 0.010014936 4280767364
-0.063222311 0.01333987 0.0073871221 4278801059
-0.061135612 0.012071434 0.0083219241 4278735268
-0.059314862 0.012229845 0.0078319404 4278473384
-0.057775848 0.013813742 0.0059214327 4278342314
-0.05610349 0.014684372 0.004723303 4278473384
-0.0542899 0.014842391 0.0042354241 4278669988
-0.052029461 0.012864489 0.0058719646 4278931873
-0.050056018 0.012311608 0.0060893893 4278735268
-0.048077084 0.011759251 0.0063054468 4278735523
-0.046406209 0.01263018 0.0051079728 4278538918
-0.044421576 0.012078494 0.0053226333 4278538918
-0.042431481 0.011527412 0.0055358391 4278538918
-0.040600561 0.011687502 0.0050437339 4278538918
-0.039104022 0.013268568 0.0031452272 4278473384
-0.037277974 0.013428405 0.0026545655 4278407849
-0.035451733 0.013588369 0.0021639261 4278604453
-0.033450119 0.013038676 0.0023744078 4278342314
-0.031443067 0.012489595 0.0025834553 4278473384
-0.029430576 0.011941075 0.0027911142 4278538918
-0.027595729 0.012102142 0.0022984296 4278538918
-0.025760718 0.01226332 0.0018057767 4278473384
-0.023925543 0.012424592 0.0013131443 4278604198
-0.022090212 0.012585968 0.00082053989 4278669733
-0.020448349 0.013455547 -0.00036814623 4278735268
-0.018222898 0.012201194 0.00053085666 4278669733
-0.016185634 0.011655465 0.00073240884 4278538663
-0.014344491 0.011817738 0.00023853779 4278407594
-0.01270739 0.012687325 -0.00094862562 4278735268
-0.010455079 0.011435673 -5.6486577e-05 4278735268
-0.0084015504 0.010891803 0.00014094729 4278669733
-0.0061305985 0.0096420385 0.0010281941 4278538663
-0.004493054 0.010512006 -0.00015874673 4278735014
-0.0024260655 0.0099696144 3.5302714e-05 4278932128
-0.00035370886 0.0094277449 0.00022802781 4279129753
-0.064542778 0.0080881231 0.01032396 4280636038
-0.063113399 0.010393742 0.0076994989 4278866594
-0.061021976 0.0091212653 0.0086296927 4278669733
-0.059196085 0.0092800744 0.0081382859 4278669988
-0.057651453 0.010868814 0.0062295254 4278604453
-0.055973709 0.011742022 0.0050315689 4278538918
-0.054008953 0.011186015 0.0052495096 4278473384
-0.051890038 0.0099163279 0.0061726104 4278473384
-0.049911678 0.0093616694 0.0063870177 4278407849
-0.048081711 0.009521313 0.0058948882 4278407849
-0.046408087 0.010394566 0.0046983492 4278407849
-0.044421166 0.0098408982 0.0049106423 4278407849
-0.042428777 0.0092877969 0.005121531 4278538918
-0.040430911 0.0087352656 0.0053310227 4278735523
-0.038761683 0.0096084774 0.0041359346 4278407848
-0.036927864 0.0097689703 0.0036431514 4278604453
-0.035093836 0.0099295713 0.0031503905 4278538918
-0.033259623 0.01009028 0.0026576445 4278538918
-0.031247646 0.0095394254 0.0028636791 4278669988
-0.029410452 0.0097005665 0.0023702644 4278604453
-0.027390227 0.0091505758 0.0025742734 4278538918
-0.02555006 0.0093121603 0.0020802049 4278604453
-0.023709737 0.0094738714 0.0015861792 4278538663
-0.022060022 0.010346238 0.00039690826 4278538918
-0.02041541 0.011218198 -0.00079087168 4278408359
-0.018383913 0.010669701 -0.00058958959 4278670499
-0.016346999 0.010121737 -0.00038963184 4278736289
-0.01430469 0.0095743984 -0.00019108597 4278605219
-0.012664832 0.010446329 -0.0013772976 4278932894
-0.010617021 0.0098996609 -0.0011800826 4278867359
-0.0083546676 0.0086446814 -0.00029395428 4278866594
-0.0060816556 0.0073906854 0.00058943126 4278670244
-0.0042269193 0.0075546205 9.2269853e-05 4278735269
-0.0019379295 0.0063022822 0.00097148493 4278997919
0.00036168098 0.0050509833 0.0018479256 4279195288
-0.064570539 0.0058445074 0.009916814 4280570504
-0.063137949 0.0081568658 0.007296443 4279325339
-0.061179727 0.0075977184 0.0075142477 4278801314
-0.059353925 0.0077564791 0.0070228372 4278539683
-0.057808951 0.0093495324 0.0051172692 4278735778
-0.055987909 0.0095080324 0.0046272483 4278538663
-0.054166645 0.0096666217 0.0041372348 4278800804
-0.052048296 0.0083924979 0.0050571207 4278932639
-0.050372355 0.009267956 0.0038614217 4278801314
-0.048394091 0.008711122 0.0040742699 4278931618
-0.046410352 0.0081548765 0.0042856522 4278866593
-0.044262201 0.0068837181 0.0051977318 4278866593
-0.042264871 0.0063287914 0.0054056421 4278735269
-0.040754691 0.0079195574 0.0035099993 4278932383
-0.039087974 0.0087946951 0.0023172265 4278998174
-0.037087426 0.008240357 0.0025244327 4278605218
-0.03490933 0.0069722161 0.0034288457 4278866849
-0.032895252 0.0064192414 0.0036325483 4278866849
-0.030875728 0.005866833 0.0038348548 4278997664
-0.029210724 0.0067422763 0.0026428932 4279063454
-0.027185597 0.0061905533 0.0028438428 4278801314
-0.025340289 0.0063525587 0.0023483736 4279062689
-0.023306929 0.0058017559 0.002547265 4278997153
-0.021649182 0.0066769272 0.001357534 4279128733
-0.02018971 0.0082642287 -0.00052365754 4279063198
-0.018153287 0.0077139661 -0.0003253771 4279128223
-0.016111471 0.0071642771 -0.00012846943 4279128478
-0.01406426 0.0066151619 6.7067333e-05 4279325084
-0.012215331 0.0067781731 -0.00042885076 4279587478
-0.0099536553 0.0055186152 0.00045407657 4279456154
-0.0076813474 0.0042601451 0.0013341857 4279455899
-0.0053984001 0.0030027032 0.0022115149 4279324573
-0.0035332441 0.0031675585 0.0017115586 4279324318
-0.0014511421 0.0026220754 0.0018982412 4279521944
0.00041681528 0.002787374 0.0013976861 4280702339
-0.064598665 0.0035967492 0.009506613 4281161339
-0.063162863 0.0059158094 0.0068903845 4280178060
-0.061202362 0.0053546801 0.0071058255 4279784848
-0.059511706 0.0062331073 0.0059075374 4279588753
-0.057826057 0.007111229 0.0047106165 4279654034
-0.05600249 0.007269904 0.0042198915 4279260059
-0.053887576 0.0059909895 0.005137261 4280046479
-0.052058287 0.0061503351 0.0046451204 4279850384
-0.050228752 0.0063097775 0.0041529816 4279195544
-0.048399016 0.0064693019 0.0036608353 4279784339
-0.046412989 0.0059110522 0.0038699117 4280308363
-0.044421479 0.0053533614 0.004077578 4279915153
-0.042424493 0.004796192 0.0042838827 4280701319
-0.040749982 0.0056741014 0.0030905399 4280570504
-0.038747326 0.0051176101 0.0032954598 4280243339
-0.036908463 0.0052784607 0.0028012665 4280309128
-0.034381963 0.0025733523 0.0050949361 4280767619
-0.032357708 0.0020190217 0.0052942578 4280766343
-0.030327991 0.001465302 0.0054921415 4280764559
-0.028652348 0.0023438074 0.0042989533 4280829838
-0.026617043 0.0017907731 0.0044954792 4280831113
-0.024761312 0.0019536838 0.0039972011 4280765578
-0.022905424 0.0021166913 0.0034989426 4281026698
-0.021239676 0.0029947199 0.0023087123 4281223303
-0.019386128 0.0031577125 0.0018112278 4281289349
-0.017336898 0.0026063845 0.0020043878 4281289094
-0.015282266 0.0020556375 0.0021961806 4281681538
-0.013623856 0.0029334091 0.0010082209 4281877379
-0.011563711 0.0023833588 0.0011986932 4282205563
-0.0092920959 0.0011203438 0.0020755539 4282204798
-0.0070098191 -0.00014165416 0.0029496904 4282466429
-0.0049282759 -0.00068954378 0.0031346381 4282465664
-0.0032693222 0.00018879771 0.001946928 4282728569
-0.017682828 -0.026462667 -0.0071307831 4282276199
0.0066862218 -0.030408904 -0.0079075489 4282537063
0.0085892566 -0.030240193 -0.0084172692 4282536809
0.010263171 -0.029329494 -0.0095851813 4282208878
0.012395471 -0.029902376 -0.0094364528 4281487993
0.014533069 -0.030474663 -0.0092890356 4280898689
0.016438901 -0.030305199 -0.0097991209 4279457684
0.018344749 -0.030135632 -0.010309128 4279064728
0.020492943 -0.030706592 -0.010164259 4278998683
0.022401454 -0.030536555 -0.010674795 4279130009
0.024557566 -0.031106584 -0.010531871 4279195289
0.026218479 -0.030196063 -0.011695562 4279195544
0.028885582 -0.032244898 -0.010249915 4279195289
0.032845944 -0.037989758 -0.0055521196 4278933658
0.037880901 -0.046687819 0.0017366856 4280112778
-0.030313723 -0.032175817 -0.002053557 4279392659
-0.028776072 -0.030513078 -0.0039032232 4279065238
-0.027248748 -0.028851159 -0.0057499763 4279457939
-0.025550231 -0.027938269 -0.0069244746 4279130518
-0.023304187 -0.029269643 -0.0060914587 4279064728
-0.021234326 -0.029852241 -0.0059291981 4278933659
-0.019538008 -0.028939195 -0.0071028434 4278802334
-0.017462619 -0.02952107 -0.0069418922 4278933148
-0.015381832 -0.030102395 -0.0067822617 4279718548
-0.013295669 -0.030683085 -0.0066240155 4279194013
-0.01180413 -0.029023372 -0.0084605217 4279194778
-0.0099177323 -0.028857209 -0.0089666042 4279260824
-0.0076207258 -0.030183233 -0.0081465188 4279195034
-0.0053131022 -0.031508155 -0.0073292316 4279260569
-0.0032053627 -0.032086402 -0.0071762823 4279195544
-0.0013054423 -0.03191857 -0.007685632 4279063964
0.00059455633 -0.031750619 -0.0081949141 4279587479
0.0027130395 -0.03232751 -0.0080446154 4278932893
0.0043947697 -0.03141433 -0.0092132557 4278998683
0.0062949769 -0.031245992 -0.0097223092 4279325594
0.0081952363 -0.031077519 -0.010231277 4279325594
0.010324474 -0.03165298 -0.010083491 4279390619
0.012459029 -0.032227822 -0.00993702 4279063964
0.014364675 -0.032058507 -0.010447154 4278932384
0.016507184 -0.032632403 -0.010302631 4278735524
0.01841552 -0.032462597 -0.010813287 4278735779
0.020565966 -0.033035554 -0.010670701 4278669989
0.022476962 -0.032865264 -0.011181882 4278735524
0.024635339 -0.033437304 -0.011041182 4278866848
0.026548965 -0.033266544 -0.011552888 4278866084
0.029220462 -0.035321444 -0.010113447 4278669733
0.033439327 -0.041825049 -0.0047801654 4278801059
-0.031342618 -0.038421035 0.0013276292 4282537319
-0.030304156 -0.034498967 -0.0025342396 4279063198
-0.029115729 -0.031329922 -0.005719787 4278931618
-0.02723328 -0.031165175 -0.0062256237 4278800804
-0.025169335 -0.031750686 -0.0060636238 4278801824
-0.022731997 -0.033835985 -0.0045687766 4278801314
-0.020838596 -0.033669919 -0.0050772917 4278866594
-0.019134305 -0.032754034 -0.0062514325 4278473383
-0.017243259 -0.03258796 -0.0067591411 4278604453
-0.015157599 -0.033170991 -0.0066025318 4278800804
-0.013263691 -0.033004418 -0.0071108309 4278669479
-0.011569414 -0.032088943 -0.0082819145 4278669479
-0.009677913 -0.031922348 -0.0087893847 4278997153
-0.0073762573 -0.033252254 -0.0079739168 4278735268
-0.0052716173 -0.033833079 -0.0078219064 4278604453
-0.0033719242 -0.033665396 -0.0083312932 4278866593
-0.001472149 -0.033497587 -0.0088406038 4278669733
0.0004277043 -0.033329658 -0.0093498547 4278735524
0.0025458112 -0.03390874 -0.0092011113 4278604453
0.0044484325 -0.033740327 -0.009710921 4278801059
0.006351117 -0.033571772 -0.01022065 4278735524
0.0082538575 -0.033403091 -0.010730287 4278801059
0.010156646 -0.033234298 -0.011239859 4278735268
0.012290813 -0.033811346 -0.011094949 4278931873
0.014196318 -0.033642031 -0.011605035 4278669733
0.01633844 -0.03421814 -0.011462077 4278473384
0.018246623 -0.034048364 -0.011972706 4278407849
0.020638572 -0.035368599 -0.011180061 4278407849
0.022552045 -0.0351981 -0.011691916 4278538918
0.024712658 -0.035772063 -0.011553514 4278604453
0.026129233 -0.034112312 -0.013364817 4278997153
0.029049654 -0.036918178 -0.011280633 4278604198
0.033776324 -0.044929303 -0.0046655792 4278866084
-0.031337067 -0.040759392 0.00083664339 4281619828
-0.030294977 -0.036826193 -0.0030179108 4278866594
-0.028927274 -0.034401305 -0.0055300971 4278669733
-0.026861213 -0.034988925 -0.0053704237 4278735523
-0.02515199 -0.034070797 -0.0065445011 4278407849
-0.022712879 -0.036162429 -0.0050551919 4278604453
-0.021003358 -0.035244025 -0.0062291515 4278342314
-0.018920951 -0.035829768 -0.006073528 4278407849
-0.016641498 -0.03716661 -0.0052558472 4278473384
-0.014739949 -0.036999509 -0.0057662958 4278735523
-0.012838293 -0.036832273 -0.006276683 4278538663
-0.011335593 -0.035162926 -0.0081095444 4278342059
-0.0094389655 -0.034995884 -0.008618393 4278669733
-0.0071326457 -0.036329769 -0.0078074662 4278669733
-0.0050231405 -0.036912292 -0.0076584658 4278473384
-0.0031183325 -0.036744177 -0.0081692366 4278669988
-0.0014261305 -0.035826109 -0.0093376515 4278669988
0.00047620386 -0.035657972 -0.0098475693 4278538918
0.0028145015 -0.036988378 -0.0090447916 4278538918
0.004722245 -0.036819503 -0.0095559685 4278669988
0.0064068399 -0.035901636 -0.010721966 4278604453
0.0083120577 -0.035732739 -0.011232282 4278735523
0.010674275 -0.037060536 -0.010435524 4278342314
0.01258485 -0.036890917 -0.010947078 4278604453
0.01426173 -0.035973214 -0.012110627 4278604453
0.016406102 -0.036551289 -0.011969927 4278735523
0.01831677 -0.036381282 -0.012481215 4278407849
0.020469094 -0.036958434 -0.0123424 4278538918
0.022382418 -0.036787964 -0.012854229 4278538918
0.024542643 -0.037364103 -0.012717373 4278669988
0.026458601 -0.037193127 -0.013229693 4278866338
0.029383201 -0.040007278 -0.011153272 4278604198
0.034112394 -0.048041947 -0.0045571961 4278931618
-0.032183833 -0.039323375 -0.0029944098 4279916173
-0.030632205 -0.037646569 -0.0048379833 4278801569
-0.028915323 -0.036725856 -0.006012653 4278538663
-0.026668742 -0.038070463 -0.0051899636 4278407849
-0.024954177 -0.037149705 -0.0063638175 4278538918
-0.022510603 -0.03924749 -0.0048806453 4278473384
-0.020795748 -0.038326487 -0.0060544042 4278538918
-0.018897243 -0.038159899 -0.0065642344 4278604453
-0.016998596 -0.037993185 -0.007074005 4278735523
-0.014711741 -0.03933356 -0.0062615937 4278538918
-0.013004262 -0.03841272 -0.0074330093 4278604453
-0.011102635 -0.038245372 -0.0079432996 4278342059
-0.0092008896 -0.038077891 -0.0084535284 4278669733
-0.0070944913 -0.038662992 -0.0083054667 4278800803
-0.0049827322 -0.039247476 -0.008158735 4278407594
-0.0032852739 -0.038326934 -0.0093270047 4278604198
-0.0011680797 -0.03891068 -0.0091815321 4278669733
0.00095445663 -0.039493866 -0.0090374229 4278538918
0.003082335 -0.040076487 -0.0088945953 4278473384
0.0049951896 -0.03990718 -0.0094071468 4278604453
0.0066851079 -0.038986601 -0.010572947 4278473384
0.0085954443 -0.038817279 -0.011084645 4278669988
0.010734081 -0.039398439 -0.010944306 4278604453
0.013108879 -0.040729322 -0.010154149 4278538663
0.014326707 -0.038308479 -0.012619193 4278604198
0.016237197 -0.038138606 -0.013130522 4278473128
0.018147713 -0.037968598 -0.013641766 4278473384
0.020299653 -0.038547955 -0.013504519 4278604453
0.02196878 -0.037628256 -0.014664001 4278538918
0.024372661 -0.038955845 -0.013881001 4278604708
0.026537763 -0.039533585 -0.013747017 4278735523
0.029967759 -0.043853246 -0.010386545 4278801058
0.034193002 -0.050414748 -0.0050998144 4279455898
-0.031837642 -0.043174699 -0.0021517547 4282079083
-0.03045062 -0.040735289 -0.0046592997 4278735779
-0.028728381 -0.039811894 -0.0058337888 4278604453
-0.026477128 -0.041160487 -0.0050156447 4278604198
-0.024937876 -0.039480112 -0.0068523241 4278669733
-0.022675812 -0.040827535 -0.0060369126 4278735268
-0.021146812 -0.039147831 -0.007870662 4278800803
-0.019062497 -0.039737806 -0.0077188471 4278997409
-0.016972817 -0.040327132 -0.0075684125 4278866339
-0.01468394 -0.041671671 -0.0067598722 4278931874
-0.012777314 -0.041504025 -0.0072716172 4278866083
-0.011069637 -0.040580899 -0.0084413355 4279062688
-0.0089637116 -0.041168325 -0.0082948944 4278473383
-0.0070567578 -0.041000284 -0.0088064475 4278866594
-0.004942745 -0.041586749 -0.0086619882 4278604709
-0.0030329823 -0.041418217 -0.0091741001 4278736289
-0.0011231303 -0.041249536 -0.0096861338 4278605218
0.001001671 -0.041834719 -0.009544245 4278867104
0.0029143021 -0.041665561 -0.010056837 4278408359
0.0048270002 -0.041496269 -0.010569352 4278605218
0.006739758 -0.041326828 -0.01108178 4278671009
0.0088779479 -0.041910298 -0.010943144 4278802078
0.011477467 -0.043998711 -0.0095052347 4278669988
0.013400894 -0.043827966 -0.010020234 4278735779
0.014857814 -0.042152457 -0.011832922 4278669733
0.016540142 -0.041229822 -0.012994508 4278538664
0.018455768 -0.041059352 -0.013507112 4278669223
0.020371409 -0.040888809 -0.014019649 4278735524
0.022287058 -0.040718101 -0.014532077 4278801568
0.024449142 -0.041298419 -0.014399047 4278932383
0.027363677 -0.044130914 -0.012333311 4278604708
0.030550953 -0.047712065 -0.0096291415 4279063198
0.034781829 -0.05429256 -0.0043588658 4279521944
-0.031662695 -0.046278857 -0.0019826591 4282209899
-0.030442417 -0.043072544 -0.0051503382 4278932384
-0.028542288 -0.042906426 -0.0056610643 4278604453
-0.026286379 -0.044258907 -0.0048475466 4278669733
-0.024561107 -0.043332927 -0.0060209907 4278604198
-0.022474825 -0.043925077 -0.0058715842 4278538918
-0.020940237 -0.04224062 -0.0077034864 4278539173
-0.018662736 -0.043590754 -0.0068954169 4278997153
-0.016947441 -0.042665169 -0.0080658086 4278997153
-0.014850125 -0.043255888 -0.007919006 4279128223
-0.01294364 -0.04308825 -0.0084307157 4279259549
-0.010838203 -0.043678023 -0.0082858987 4279062688
-0.0087273791 -0.044267245 -0.008142408 4278931619
-0.0068153217 -0.044098757 -0.0086553358 4279324573
-0.0051099062 -0.043173246 -0.0098225474 4279063454
-0.0032002926 -0.043004744 -0.010334641 4279129243
-0.001290597 -0.042836092 -0.010846637 4279325593
0.00083382428 -0.043423496 -0.010706313 4279128733
0.0029635578 -0.044010244 -0.010567352 4279062943
0.0048787296 -0.043840744 -0.011080537 4279128988
0.0070164874 -0.044426516 -0.010943528 4279128988
0.0091595463 -0.045011722 -0.010807868 4279063198
0.011307929 -0.045596309 -0.010673504 4279194268
0.013461623 -0.04618036 -0.010540444 4279390874
0.0156206 -0.046763763 -0.010408737 4279455644
0.018020548 -0.048100807 -0.009631753 4279062433
0.020431049 -0.04943686 -0.0088574663 4279127968
0.022370219 -0.049264185 -0.00937628 4278801824
0.02406583 -0.048337817 -0.010539472 4278801824
0.026248574 -0.048918478 -0.010413639 4279063708
0.029183079 -0.051757835 -0.0083598793 4281815413
0.032138616 -0.054595195 -0.0063116443 4282012019
-0.029745325 -0.048462011 -0.0029966813 4281094528
-0.027832188 -0.04829476 -0.0035109129 4280963203
-0.025918894 -0.048127376 -0.0040250998 4280896648
-0.023825251 -0.048721187 -0.0038794391 4280830603
-0.022091866 -0.047792234 -0.005053319 4281223558
-0.020363614 -0.046863593 -0.0062257275 4281682814
-0.018264294 -0.047456555 -0.0060813166 4281878654
-0.026774868 -0.055232592 -5.7329424e-05 4282536553
-0.0050381944 -0.060436852 -0.02308625 4282993768
-0.0027112663 -0.061829217 -0.022327077 4283190374
-0.004998453 -0.06280271 -0.023609731 4282862954
-0.0026695207 -0.064199157 -0.022854447 4283059814
0.03441314 0.0028091222 -0.0073944097 4285294633
0.036286533 0.0029768795 -0.0078949044 4285426979
0.03815987 0.0031447336 -0.0083953077 4285426979
0.04058234 0.0018978119 -0.0075566946 4285426978
0.042738039 0.0013591573 -0.0073895692 4285426724
0.044898938 0.00082106516 -0.0072237584 4285427234
0.046782535 0.00099025294 -0.0077265832 4285361699
0.048666041 0.0011595339 -0.008229305 4285426978
0.050837215 0.00062268227 -0.0080659986 4285492514
0.053013559 8.6389482e-05 -0.0079039987 4285493025
0.054609008 0.0009621866 -0.0090723271 4285493025
0.056199081 0.0018375888 -0.010239155 4285492769
0.058678642 0.0005967617 -0.0094151171 4285426978
0.060867704 6.1985105e-05 -0.0092561431 4285492514
0.066401057 -0.0082251951 -0.0018196106 4285492259
-0.06136018 0.003829442 0.0059891045 4285098284
-0.059394486 0.0032666251 0.0062015112 4285163818
-0.057703458 0.0041472837 0.0050048102 4285294888
-0.055874728 0.004306376 0.0045126639 4285032239
-0.053900458 0.0037445389 0.0047229417 4285098283
-0.051920675 0.0031832755 0.0049318038 4285230374
-0.050236598 0.0040636659 0.0037372317 4285098794
-0.048251115 0.0035030693 0.003944695 4285163819
-0.046260148 0.0029429793 0.0041507818 4285229863
-0.044422202 0.003103368 0.0036565382 4285295398
-0.042422928 0.0025442392 0.003860496 4285229353
-0.040745668 0.0034244582 0.0026680799 4285294889
-0.038740732 0.0028660037 0.0028706519 4285360679
-0.036730342 0.0023081154 0.003071825 4285294633
-0.034199618 -0.00040538609 0.0053577125 4285294379
0.034778789 -0.00017120689 -0.007194405 4285491239
0.037195481 -0.0014231466 -0.0063577774 4285492258
0.038807523 -0.00054449588 -0.0075294911 4285492769
0.041511629 -0.0025046617 -0.0060283518 4285426978
0.04312354 -0.0016258173 -0.0071998718 4285426979
0.045289349 -0.0021656305 -0.0070370301 4285427233
0.046895839 -0.001287058 -0.0082069431 4285427233
0.049066745 -0.0018261969 -0.0080452953 4285493025
0.050955307 -0.0016563386 -0.0085492749 4285493025
0.053133942 -0.0021946132 -0.0083894823 4285493023
0.055024933 -0.0020243265 -0.0088939499 4285493024
0.056915812 -0.001853954 -0.0093983132 4285492768
0.059104621 -0.0023909584 -0.0092410427 4285492768
0.061298575 -0.0029274076 -0.0090850703 4285493024
0.066530913 -0.010533407 -0.0023292247 4285426978
-0.063081846 0.00069708377 0.0067734271 4285163818
-0.061114103 0.00013209507 0.0069835596 4285360678
-0.059140854 -0.00043227151 0.0071922354 4285360678
-0.057301976 -0.00027245283 0.0066972487 4285426214
-0.05532036 -0.00083594024 0.0069037918 4285360423
-0.053333268 -0.0013988651 0.007108923 4285491749
-0.051783897 0.00020767748 0.0052122995 4285426723
-0.049944088 0.0003679283 0.0047173239 4285426723
-0.04795105 -0.00019422919 0.0049210526 4285426468
-0.045952544 -0.00075582415 0.0051233787 4285492259
-0.044423319 0.00084931403 0.0032324409 4285558049
-0.042421751 0.00028817356 0.0034340797 4285426469
-0.040578231 0.0004491806 0.0029384485 4285492004
-0.038236104 -0.001553826 0.0045283753 4285492259
-0.036384299 -0.0013918988 0.0040306617 4285426469
-0.034018114 -0.0033925772 0.0056142211 4285295144
-0.031113848 -0.0075538754 0.0092727784 4285359913
0.034877282 -0.0024474636 -0.0076689883 4285426213
0.037027173 -0.0029912852 -0.0075038741 4285492514
0.038910795 -0.0028224848 -0.0080070049 4285427233
0.041342594 -0.0040771887 -0.0071775708 4285492513
0.043231361 -0.0039077103 -0.0076819062 4285426978
0.044561297 -0.0023154803 -0.0095158108 4285493025
0.046726659 -0.0028573647 -0.0093544088 4285493025
0.048612557 -0.002687823 -0.0098577347 4285493024
0.050785646 -0.0032288209 -0.0096982513 4285427233
0.05296392 -0.0037692711 -0.0095400028 4285558559
0.055439889 -0.0050192848 -0.0087218005 4285558304
0.057631098 -0.0055583045 -0.0085668918 4285558559
0.060125291 -0.0068065152 -0.0077533461 4285558303
0.062329419 -0.0073441863 -0.0076017249 4285558558
0.067569554 -0.014973335 -0.00086625014 4285558558
-0.062976353 -0.0022850707 0.0070594028 4285360934
-0.061138041 -0.002125483 0.0065644253 4285426978
