# .PCD v0.7 - Point Cloud Data file format
VERSION 0.7
FIELDS x y z rgba
SIZE 4 4 4 4
TYPE F F F U
COUNT 1 1 1 1
WIDTH 974
HEIGHT 1
VIEWPOINT 0 0 0 1 0 0 0
POINTS 974
DATA ascii
-0.019680779 -0.017144106 0.044935372 4286594369
-0.018581774 -0.0098767802 0.037542939 4286790973
-0.016753543 -0.0083364397 0.035805847 4287380023
-0.014634218 -0.0089427456 0.036186736 4288688684
-0.01281916 -0.0074029639 0.034451958 4289407273
-0.019236524 -0.023092553 0.047899444 4286267713
-0.017929915 -0.017238438 0.04193024 4286790974
-0.016470876 -0.01282195 0.037376381 4286987324
-0.014642302 -0.011277266 0.035642706 4287314744
-0.012721259 -0.010450408 0.034614068 4288557614
-0.017375205 -0.023914404 0.045588225 4286464574
-0.015896518 -0.019483991 0.041041315 4286725694
-0.014149196 -0.017214276 0.038605828 4286856509
-0.012417905 -0.014945336 0.036172997 4287183163
-0.015519034 -0.024731927 0.043281447 4286529343
-0.013958197 -0.02101136 0.039448004 4286856509
-0.012424201 -0.017292097 0.035618912 4286725438
-0.015240252 -0.029276989 0.044805922 4286529343
-0.013468008 -0.026993133 0.04237657 4286659903
-0.011917219 -0.02326227 0.038553249 4286790974
-0.010604069 -0.018085308 0.033338554 4286659648
-0.013378944 -0.030095808 0.042497091 4286659904
-0.01192471 -0.025627904 0.037984595 4286790974
-0.01071322 -0.01970984 0.032084927 4286921789
-0.0094368383 -0.014519773 0.026888065 4286725184
-0.011625204 -0.030182101 0.039497752 4286529343
-0.010296788 -0.024974264 0.034304209 4286856253
-0.0091138296 -0.019040525 0.028422736 4286856253
-0.011838123 -0.031101562 0.037531298 4286399038
-0.010406572 -0.026609004 0.033042699 4286660158
-0.0092225708 -0.020658031 0.02717454 4286856253
-0.0078609325 -0.016169026 0.022697341 4286528578
-0.010411482 -0.028975837 0.032472648 4286529343
-0.009116251 -0.023739636 0.02730811 4286659904
-0.0077484623 -0.019237481 0.022840064 4286594369
-0.0092252009 -0.025360897 0.026057016 4286529343
-0.0077466033 -0.021580026 0.022287637 4286463553
-0.0062948838 -0.017800495 0.018522661 4286398018
-0.0091196522 -0.02845484 0.026181042 4286726713
-0.0075251423 -0.025399335 0.023106169 4286529343
-0.0061773621 -0.020872369 0.018661596 4286725438
-0.0048618466 -0.016347095 0.01422234 4286594879
-0.0075240619 -0.02775421 0.022544209 4286725438
-0.0060603768 -0.023952618 0.018794145 4286855999
-0.0047387443 -0.01941409 0.014363966 4286921788
-0.0035672449 -0.014139175 0.009255047 4286463554
-0.0075232424 -0.030113094 0.021979164 4286594878
-0.0059439428 -0.027041122 0.018920235 4286659903
-0.0046161674 -0.022489443 0.014499211 4286921789
-0.0033206716 -0.017939404 0.010083464 4286725694
-0.0044941418 -0.02557309 0.014627987 4286856764
-0.0031925142 -0.021009848 0.010221359 4286856508
-0.0019231774 -0.016448259 0.0058199959 4286790974
-0.0044873841 -0.02792038 0.014070907 4286791483
-0.0029474683 -0.024833173 0.011031942 4286856508
-0.0016693138 -0.020258196 0.0066392282 4287052604
-0.00054626912 -0.014940657 0.0015736371 4286724673
-0.0031724237 -0.025682285 0.0091231102 4286595388
-0.0018962286 -0.02109459 0.0047408612 4286791229
-0.00065232813 -0.016508527 0.00036387704 4286856253
-0.003514193 -0.025777981 0.0065421434 4286595899
-0.002002988 -0.022675082 0.0035213316 4286529343
-0.0006358102 -0.018824682 -0.00017080549 4286725693
-0.0021097027 -0.024255253 0.0023020515 4286660668
-0.00074194744 -0.020394109 -0.0013817614 4286791740
-0.00072579458 -0.02271609 -0.0019209525 4286726714
-0.019942809 -0.053822622 0.017471366 4285940803
-0.018474016 -0.051523298 0.01254047 4286463553
-0.018393453 -0.054682896 0.012618017 4286725694
-0.018501978 -0.056312039 0.011360639 4287575863
-0.018704612 -0.057169378 0.0094408849 4287378749
-0.017052513 -0.053974241 0.0064638937 4286201924
-0.015429925 -0.053162768 0.0029086266 4286594624
-0.015537504 -0.054773867 0.0016652402 4287443518
-0.014031872 -0.053165689 -0.0025282968 4286071108
-0.012440123 -0.049947754 -0.0054751313 4286136899
-0.0125468 -0.051541105 -0.0067047644 4286267713
-0.014449034 -0.054805502 -0.0063066799 4286267714
-0.012757648 -0.052352458 -0.0085867364 4286922299
-0.01097542 -0.050681636 -0.010212013 4287445303
-0.012968164 -0.05315917 -0.010465207 4286071618
-0.011081763 -0.052267954 -0.011436196 4287576629
-0.0092006326 -0.051376894 -0.012406228 4288034099
-0.011081461 -0.054639779 -0.012011303 4286856509
-0.0090883635 -0.054532118 -0.012331689 4288558124
-0.0074311458 -0.052067719 -0.014595894 4287183163
-0.011400819 -0.054651707 -0.014531044 4287443519
-0.0093041062 -0.055332169 -0.014203796 4288622383
-0.0076493062 -0.052861497 -0.016462585 4287575608
-0.028412852 -0.023423977 0.061092321 4283591234
-0.028365854 -0.026521958 0.061225075 4282543694
-0.026351828 -0.025697224 0.060175959 4284049469
-0.02816106 -0.031057112 0.062772453 4282412623
-0.02621806 -0.029515438 0.061013166 4282609739
-0.028036352 -0.034892716 0.063597851 4282217038
-0.026166778 -0.032629915 0.061132092 4282217548
-0.0242288 -0.031084172 0.059377026 4282608718
-0.022301432 -0.029538855 0.057623703 4283263814
-0.027991276 -0.038022265 0.063706204 4282085458
-0.026197534 -0.035034247 0.060537849 4282086223
-0.024425205 -0.032047242 0.057372976 4282216784
-0.022500355 -0.030497797 0.055623394 4282478669
-0.028182838 -0.038997613 0.061691519 4282607698
-0.026391346 -0.036001116 0.0585302 4282216784
-0.024621237 -0.033005662 0.055372413 4281563728
-0.022785727 -0.03073173 0.052922409 4282348874
-0.020787213 -0.029899083 0.051882643 4282805324
-0.026422258 -0.038409196 0.057933044 4282477904
-0.024732973 -0.034682244 0.054078441 4282152013
-0.022897143 -0.032401875 0.051633425 4282282064
-0.020898607 -0.031567119 0.05059531 4282413133
-0.018813241 -0.031454839 0.05025981 4283066188
-0.02484462 -0.036358543 0.05278467 4281890893
-0.023095001 -0.033347011 0.049643748 4282216528
-0.021188375 -0.031785674 0.047907215 4282216783
-0.019108523 -0.031673715 0.047572576 4282674764
-0.024872553 -0.038761623 0.052190829 4282152014
-0.023292515 -0.034287497 0.047657575 4282216784
-0.021477479 -0.031995319 0.045226056 4282216783
-0.019494917 -0.031157054 0.044193868 4282544713
-0.017234217 -0.032498427 0.045256469 4283264579
-0.024900693 -0.041168682 0.051593829 4282543439
-0.023489695 -0.035223432 0.045674983 4282021453
-0.021943796 -0.030738235 0.041157443 4282151758
-0.019880395 -0.030627228 0.040825401 4282544969
-0.017628204 -0.031973332 0.041885935 4283329859
-0.023514334 -0.037617154 0.045087751 4282085204
-0.021876249 -0.033849962 0.041275233 4282216018
-0.01999053 -0.032276876 0.039552245 4282479688
-0.017927092 -0.032165803 0.039220247 4283656258
-0.023625161 -0.039281555 0.043803159 4281689953
-0.021986481 -0.035503611 0.03999896 4282149719
-0.020100605 -0.033926263 0.038279295 4282479434
-0.018225361 -0.032349326 0.036561385 4283721539
-0.020119432 -0.036310561 0.037698276 4282609994
-0.020320591 -0.037224106 0.03573408 4282412878
-0.0056116916 -0.027474664 0.0056358287 4284115258
0.0029389113 -0.0073181689 -0.013750605 4284704308
-0.0079316981 -0.027663991 0.0033832453 4284246328
-0.0058328286 -0.028309807 0.0037372559 4283199298
-0.0039621666 -0.027448907 0.0027456656 4283328839
-0.0079268776 -0.030003399 0.0028326735 4283919928
-0.0060536228 -0.029140353 0.001842238 4282742083
-0.0041856728 -0.028277412 0.00085271895 4282675019
-0.0024424344 -0.026659548 -0.00080614816 4283852353
-0.0076999627 -0.033862308 0.0036189221 4283526973
-0.0061602332 -0.030723877 0.00062030181 4282480708
-0.0044088475 -0.029101372 -0.0010366514 4281956428
-0.0027874373 -0.026721999 -0.0033604312 4281891404
-0.0013040639 -0.023586266 -0.0063497229 4284442423
-0.0079179928 -0.034694239 0.0017222501 4283068483
-0.0062667988 -0.032307103 -0.00060140714 4282349383
-0.0047481172 -0.029161096 -0.0035898793 4281239114
-0.0030126944 -0.027535051 -0.0052408162 4281629774
-0.0014097802 -0.025150195 -0.0075564487 4283068229
-0.0079139285 -0.03704562 0.0011624321 4281888344
-0.0062597655 -0.034651928 -0.0011566766 4281434189
-0.0047379546 -0.031497195 -0.0041389391 4281565259
-0.0032376349 -0.028343499 -0.007117636 4281694798
-0.001515463 -0.026713803 -0.0087629296 4282349384
7.1626157e-05 -0.024323225 -0.01107094 4284049978
0.0016425923 -0.021933399 -0.013376261 4284704819
-0.0064798407 -0.035472646 -0.0030441363 4281235033
-0.0048441775 -0.033073381 -0.0053551868 4281890384
-0.0032246001 -0.030674845 -0.007663548 4281825104
-0.001499597 -0.029040746 -0.009305954 4282088008
9.0468675e-05 -0.026643589 -0.011609402 4283003714
0.0017913468 -0.025010549 -0.013247742 4284115259
-0.0047183894 -0.03618136 -0.0052462858 4281758549
-0.0030931421 -0.033776149 -0.0075504854 4281825104
-0.0014839806 -0.031371668 -0.0098520517 4282021963
0.0001090616 -0.028967917 -0.012150925 4282349129
0.001812771 -0.027330443 -0.013786361 4282610758
0.0036352165 -0.02645877 -0.014759701 4284639028
-0.0049406774 -0.036993057 -0.0071262014 4281625949
-0.0029622354 -0.036885723 -0.0074438755 4281759314
-0.0013474114 -0.034474522 -0.0097413175 4282021964
0.00012739375 -0.03129632 -0.012695517 4282087499
0.0017073117 -0.02888675 -0.014987148 4282283339
0.0032711066 -0.026477933 -0.017276101 4283985973
-0.0030686595 -0.03846316 -0.008661069 4281691738
-0.0014535524 -0.036045521 -0.010953519 4282086988
0.00014545768 -0.033628657 -0.013243221 4281956684
0.0013489239 -0.028903201 -0.017502513 4281956683
0.0030367859 -0.02725786 -0.019128624 4282809148
0.0045820437 -0.024843521 -0.021409474 4283461184
-0.0015596636 -0.037616223 -0.012165479 4281759314
-8.4012747e-05 -0.034420863 -0.015106376 4281499979
0.00099113584 -0.028910711 -0.020011052 4281957449
0.0026737526 -0.027261436 -0.021632932 4282283595
0.0043456219 -0.025612578 -0.023253031 4282479943
0.0061411858 -0.024735697 -0.024216823 4284573749
-0.0019073449 -0.037637912 -0.014687132 4281103709
-0.0004366599 -0.034434229 -0.017620552 4281629009
0.00050777569 -0.0281353 -0.023166839 4281890638
0.0021824427 -0.02648215 -0.02478407 4282086734
0.0039779469 -0.025603279 -0.025746286 4282152524
0.0059023835 -0.025498182 -0.026054736 4284117299
-0.0010353923 -0.032885961 -0.021433588 4281626968
0.00015135854 -0.028122909 -0.02565996 4281759314
0.0016920306 -0.025689676 -0.027925044 4281759823
0.0037423074 -0.026360996 -0.027581099 4281760334
0.0057980195 -0.027031831 -0.027237963 4282154309
0.0066277571 -0.020721518 -0.032752015 4284376633
-7.8555197e-05 -0.02888003 -0.02749547 4281692504
0.0012025274 -0.02488409 -0.031055812 4281890129
0.0032444112 -0.025557958 -0.030712247 4281891914
0.0054257102 -0.027009293 -0.029719956 4282088774
0.006387759 -0.021459952 -0.034570791 4283266874
0.0010992512 -0.026406378 -0.032230336 4281890385
0.0032719746 -0.027862623 -0.031240158 4281696329
0.0058570243 -0.031658396 -0.028308082 4281892679
0.0072402991 -0.028433174 -0.031206846 4282088009
0.0079059266 -0.021310113 -0.037336897 4283001929
0.0018940829 -0.033406019 -0.028875414 4281628498
0.0042162202 -0.035647944 -0.027244896 4281630028
0.0069556274 -0.040235497 -0.023678381 4281695819
0.0087727308 -0.03934662 -0.024637125 4282217804
0.0098890886 -0.034548275 -0.02882148 4282413133
0.0081851743 -0.049635276 -0.018433725 4282672723
0.0052816086 0.032480396 0.014453336 4279454879
0.0088391826 0.034082375 0.012413298 4278665143
0.00017820671 0.026437595 0.018470418 4280306323
0.0015980341 0.029338282 0.015309372 4278996643
0.0026024058 0.034333773 0.010014975 4278800039
0.0037030205 0.038628809 0.005438556 4279191975
0.0050446913 0.041525468 0.0022902237 4279127204
-0.00915692 0.033590734 0.0092452569 4282662779
-0.0074935518 0.03509704 0.0075150011 4280696218
-0.0054798238 0.034498684 0.0079235947 4279123889
-0.0034606159 0.033900715 0.0083313724 4279650718
-0.0016874224 0.034705289 0.0073153442 4278930853
-4.8011541e-05 0.036210611 0.0055891899 4278669479
0.0014494993 0.038416259 0.0031541521 4278470834
0.0045326315 0.042124629 -0.00099815894 4279126184
0.0068199597 0.040125817 0.00083035044 4279060649
0.0094074644 0.036727574 0.0040741032 4278405299
-0.012618814 0.029048722 0.011532203 4280109973
-0.011494387 0.034080297 0.0062417453 4279520413
-0.004546877 0.038008593 0.0014770264 4278667694
-0.0025440343 0.037407637 0.0018857867 4278864808
-0.00079233572 0.038213275 0.000874958 4278603434
0.0006920062 0.040424652 -0.0015529087 4278471854
0.011484336 0.033913791 0.0040176427 4278471854
0.014853083 0.02699703 0.01077767 4278406828
-0.015057005 0.030243415 0.0078152129 4280437904
-0.014032945 0.03599672 0.0018243222 4278734758
-0.012604125 0.038923193 -0.0013182992 4278405554
-0.011082154 0.041142568 -0.0037475284 4279126948
-0.0094589181 0.042655259 -0.005464612 4278930854
-0.0072460882 0.040638909 -0.0036348151 4278995368
-0.0050169602 0.038623493 -0.0018075248 4278340019
-0.0027715378 0.036609054 1.722388e-05 4278930344
-0.0011506677 0.038121983 -0.0016992651 4278603178
0.00032861531 0.040339492 -0.00412121 4278668969
0.0019253083 0.041851275 -0.0058336873 4278603433
0.0039200485 0.041248038 -0.0054250737 4278996134
0.0061981827 0.039235804 -0.0036052428 4278996134
0.0084925704 0.037224524 -0.0017879605 4278733483
0.010514446 0.036623031 -0.0013834909 4278799784
0.012835894 0.034613408 0.00042959303 4278668713
-0.015265696 0.029433314 0.0059337867 4280242828
-0.01446151 0.03662068 -0.0014615506 4278669733
-0.0031240359 0.036522634 -0.0025543575 4278734249
-0.0015083663 0.038039539 -0.0042665941 4278734504
0.00022727624 0.03884865 -0.0052714292 4278603433
0.001957573 0.039657615 -0.006275373 4278472363
0.0039547682 0.039052304 -0.0058688093 4278603433
0.0060962364 0.037740592 -0.0047587706 4278734249
0.0082485378 0.036429554 -0.0036504003 4278602669
0.0099790134 0.037238825 -0.004654062 4278405808
0.014171954 0.035325464 -0.0031456104 4278403769
0.018489346 0.024131097 0.0077881785 4278796979
-0.014730174 0.023652405 0.009010884 4280635528
-0.014453281 0.034415338 -0.0019075219 4278735013
-0.013475586 0.040200599 -0.0078638978 4278733738
-0.0053420141 0.036343414 -0.0048197317 4278864808
-0.0034759045 0.036445059 -0.0051190476 4278930343
-0.0018654652 0.037966013 -0.006827116 4278734249
-4.6119094e-06 0.038067535 -0.0071254559 4278865318
0.0019895844 0.037459821 -0.0067201727 4278734504
0.0041251928 0.036143392 -0.0056126481 4278668969
0.0059943087 0.036245629 -0.0059121074 4278668713
0.0078634582 0.036347955 -0.0062115029 4278405808
0.0091563389 0.03928522 -0.0093180295 4278864044
0.010867968 0.040095679 -0.010316929 4279650719
0.013022639 0.038780726 -0.0092121139 4278929834
0.016405584 0.031800285 -0.002504902 4278534838
-0.013559625 0.013568215 0.016305372 4283123563
-0.013792362 0.027929187 0.0018779505 4278997154
-0.013240807 0.036583319 -0.0068894844 4278668968
-0.011840157 0.039534099 -0.010007293 4279061923
-0.0097594783 0.038209707 -0.008894789 4279061669
-0.0077875219 0.037598222 -0.0084880218 4278472363
-0.0059324019 0.037699163 -0.0087856567 4278472363
0.0016219392 0.037392389 -0.0092737656 4278602668
0.0037517473 0.036071282 -0.0081686582 4278734504
0.0054768175 0.036884405 -0.0091682728 4278865319
0.010033328 0.042165332 -0.014960201 4278667439
0.012174092 0.040845305 -0.013856547 4279388833
0.014781769 0.03739468 -0.010658026 4278798253
-0.012286518 0.0027173981 0.024264582 4282599538
-0.012590062 0.017838396 0.0091607207 4280373643
-0.012561347 0.030094102 -0.0031101871 4278997153
-0.011711713 0.036627762 -0.0097405054 4278538663
-0.0098595805 0.036728356 -0.010037804 4278800549
-0.0078878812 0.036114682 -0.0096327066 4278602923
-0.0062772259 0.037643999 -0.011334175 4278537388
-0.0030880794 0.040701199 -0.014731778 4278271679
0.0032432452 0.036721591 -0.011417596 4278734248
0.0049602501 0.037536375 -0.01241419 4278734249
0.0062486567 0.040490497 -0.01550657 4278864808
0.016849864 0.03458406 -0.010710147 4279125930
0.020446315 0.026851613 -0.0033493326 4278865319
-0.011174131 0.0062618069 0.017808583 4280438924
-0.011438966 0.020707112 0.0034539141 4280045203
-0.011128083 0.030845836 -0.0066739833 4279193249
-0.009959653 0.035247225 -0.011180653 4278603178
-0.0083462037 0.036780939 -0.012879315 4278471599
-0.0067434646 0.038314119 -0.014576141 4278471344
-0.0052761808 0.040563047 -0.016971048 4278470578
-0.0035701618 0.041379027 -0.017964473 4278929324
-0.0017393455 0.041478876 -0.018258024 4278534838
0.00049002096 0.039431471 -0.016455904 4278798509
0.0024645813 0.038816325 -0.016052544 4278537134
0.0043063536 0.038917046 -0.016347637 4278864808
0.0057253651 0.041163884 -0.018734377 4278996133
0.0074154735 0.041979525 -0.019724837 4278669224
0.0091002025 0.042794965 -0.020714357 4278538154
0.011375681 0.04075066 -0.018919248 4278603944
0.013667382 0.038707294 -0.017126622 4278603689
0.015975293 0.036664918 -0.015336507 4278668968
0.018142262 0.035337996 -0.01424359 4278734759
0.021758571 0.027583037 -0.0069044176 4278930853
-0.010087382 -0.0032172129 0.024307717 4280962438
-0.010319732 0.011272892 0.0099815661 4280177039
-0.010546166 0.025038246 -0.0036272653 4279260824
-0.0099431947 0.033047553 -0.011623845 4279324319
-0.0086844154 0.036741704 -0.015416667 4278668713
-0.0056246929 0.040533967 -0.019498335 4278930089
-0.0039240345 0.041351788 -0.02048922 4279454624
-0.0020987354 0.041451335 -0.020781888 4278733229
0.0022289567 0.038061745 -0.017884895 4278602923
0.0040679164 0.038162306 -0.018179543 4278799783
0.0057661198 0.03898048 -0.019169733 4278538154
0.0071719922 0.041233107 -0.021549184 4278538154
0.0091464296 0.040616162 -0.02114721 4278668969
0.011275161 0.039282564 -0.020051772 4278865829
0.013566308 0.037232712 -0.018264122 4278603178
0.015256509 0.038050879 -0.019252613 4278668203
0.019099746 0.037537239 -0.019149195 4278337213
0.023867218 0.024745371 -0.0069860914 4278337213
-0.0097614713 -0.0076934844 0.025876727 4280962184
-0.0092036501 0.0017914139 0.01647282 4279521433
-0.0095113926 0.016320519 0.0021926025 4279915919
-0.009577971 0.028680868 -0.0099767689 4279128223
-0.0090220198 0.036711391 -0.017947212 4278603688
0.0018584132 0.038031727 -0.020408517 4278865318
0.0038297921 0.037412181 -0.020007968 4278800039
0.0055253357 0.038232323 -0.020995995 4278341548
0.0093384199 0.037713949 -0.020890169 4278407083
0.011472154 0.036376283 -0.019798866 4278668968
0.013162378 0.037196495 -0.020785753 4278537643
0.014538925 0.039454371 -0.023155201 4278668203
0.015742421 0.042430185 -0.026213296 4278402493
0.017881557 0.041093186 -0.025122564 4278664889
0.021167165 0.03472764 -0.019200381 4278402493
-0.0085339174 -0.0048435032 0.020139597 4280503694
-0.0083659925 0.0068365782 0.008675958 4280177294
-0.0087491013 0.021404624 -0.0055582784 4280046478
-0.0085267387 0.031628978 -0.015600941 4279259294
-0.0078935139 0.038957987 -0.022850379 4278799784
-0.0063198581 0.040502526 -0.024532374 4278996389
-0.0045029484 0.040601503 -0.024823785 4278930343
-0.0022969022 0.038533337 -0.02303323 4278603433
-0.00047177821 0.038632952 -0.023325816 4278472363
0.0014884919 0.038010553 -0.022925248 4278669479
0.0031786263 0.038832441 -0.023910804 4278669479
0.0052848682 0.037488725 -0.022818737 4278735014
0.0069723688 0.038310658 -0.023803724 4278734503
0.0092380531 0.036246374 -0.022022316 4278341548
0.010925602 0.037068494 -0.023007162 4278472618
0.012456469 0.038611628 -0.024681568 4278602414
0.013668548 0.041596442 -0.027734339 4278274229
0.015015714 0.043859228 -0.03009396 4278996134
0.016984235 0.043238126 -0.029694051 4278734248
0.019768614 0.039014239 -0.025850996 4278602923
0.023903711 0.029028472 -0.01650627 4278537134
-0.0081981122 -0.0093315989 0.02169729 4282862189
-0.0073370934 -0.0019690841 0.014427968 4280504714
-0.0073422939 0.010467701 0.0023060748 4280046478
-0.0074391589 0.022899557 -0.0098009827 4279521688
-0.0072633736 0.03315156 -0.019812468 4278669988
-0.0061699376 0.037600741 -0.024266452 4278799784
-0.0044745915 0.038424674 -0.025251459 4278799783
-0.0025254935 0.037799325 -0.024850938 4278603433
-0.0008354336 0.038623165 -0.025834948 4278537643
0.0046236813 0.038921632 -0.026709683 4278271933
0.0088462345 0.036226381 -0.024533665 4278734759
0.010528408 0.037050363 -0.025515959 4278472618
0.011751756 0.040044289 -0.028563861 4278733738
0.016406909 0.043958969 -0.032873537 4278601904
0.026335925 0.024750516 -0.015209461 4278339508
-0.0068770833 -0.0071796328 0.016680706 4282468469
-0.0062869191 0.0016572326 0.0080490066 4280700809
-0.0059986524 0.011945359 -0.0019570403 4280504714
-0.0062710606 0.025138043 -0.014718564 4279522708
-0.0057725646 0.033236526 -0.022623966 4278996388
-0.0045731924 0.036970653 -0.026373316 4278799783
-0.0027537607 0.037069835 -0.026665084 4278734249
-0.0014626607 0.040075406 -0.029717606 4278733994
0.0018798858 0.041725598 -0.031676017 4278405044
0.0078726299 0.039118618 -0.029790327 4278733738
0.0095386282 0.039943893 -0.030768394 4278800039
0.01119924 0.040768944 -0.031745471 4278668713
0.012700763 0.04231916 -0.033408355 4278340274
0.021559661 0.035468861 -0.027711563 4278340784
0.024560457 0.030497476 -0.023211885 4278603433
0.02810869 0.023354821 -0.016665721 4278472874
-0.0053501986 -0.0064664036 0.013067643 4280832134
-0.004680343 0.0016647764 0.0051531876 4280570249
-0.0047967136 0.014168754 -0.0068933503 4279915665
-0.0050047636 0.026667796 -0.018925056 4279128478
-0.0045452043 0.034787897 -0.026805568 4278930853
-0.0032402053 0.037802704 -0.029853668 4278733993
-0.00029085949 0.041643336 -0.033874922 4279192228
0.0013696626 0.042470038 -0.034850679 4278996644
0.0034449771 0.041111678 -0.033763751 4278733993
0.0055311061 0.039754048 -0.032678533 4278667694
0.0073371679 0.039853066 -0.032967709 4278733738
0.0092913881 0.039224349 -0.032570876 4278472363
0.010949329 0.040051386 -0.033545848 4278668968
0.012601871 0.040878236 -0.03451987 4278603689
0.014249016 0.041704878 -0.035492953 4278407083
0.016367584 0.04034961 -0.03441247 4278407083
0.018820237 0.037540816 -0.031966031 4278669224
0.021294463 0.034733303 -0.029522967 4278406828
0.023122068 0.034834284 -0.029814977 4278669224
0.02545887 0.032755435 -0.02805946 4278407083
0.029363839 0.024139028 -0.020167826 4278275758
-0.0038387328 -0.0057408214 0.0094675058 4280832644
-0.0035681352 0.0046065338 -0.00048836041 4280373899
-0.0039915629 0.018606517 -0.013872902 4279850384
-0.0042646639 0.031138688 -0.025865451 4279259804
-0.0037257299 0.038548723 -0.03303203 4278603944
0.0070932098 0.039140392 -0.03476546 4278865319
0.0088964589 0.039239351 -0.03505411 4278800038
0.011001125 0.037878737 -0.033974998 4278734759
0.012502998 0.039437562 -0.035631191 4278538409
0.014462363 0.038807273 -0.035236634 4278603944
0.016427116 0.038177378 -0.034842864 4278669224
0.018558761 0.036818594 -0.033767719 4278537898
0.020372778 0.036918737 -0.034057632 4278471853
0.026503809 0.034305088 -0.032205269 4278468793
0.03217835 0.018379077 -0.01753729 4278468793
-0.025069568 -0.047678314 0.049091153 4282471018
-0.023821708 -0.04021012 0.041826226 4279981963
-0.022008162 -0.037892334 0.039415043 4281360749
-0.0034720711 -0.010245532 0.011005898 4282338418
-0.0025844611 -0.0035355613 0.0045063263 4280569993
-0.0028573945 0.0097732283 -0.008163983 4280439433
-0.0033536665 0.023810148 -0.021504719 4279981454
-0.0035655685 0.035642058 -0.032772016 4278866083
-0.0028104968 0.041604977 -0.038543634 4278668203
-0.0014267862 0.043901235 -0.040884398 4278340018
0.0047642402 0.039798513 -0.037638392 4278602669
0.0068495683 0.038432293 -0.036559679 4278668969
0.0087978542 0.03779896 -0.036165264 4278668969
0.010600992 0.037898004 -0.036453824 4278800038
0.01240414 0.037997149 -0.036742311 4278472618
0.014519185 0.036633 -0.035668079 4278472618
0.016486367 0.036001101 -0.035276379 4278669224
0.018297583 0.036100987 -0.03556592 4278537898
0.020752709 0.041418828 -0.040901918 4278536624
0.022375502 0.042248927 -0.041867346 4279388834
0.024853582 0.039424755 -0.039438147 4278863278
-0.025430288 -0.047148012 0.045718029 4282339438
-0.024017919 -0.041134089 0.039852839 4279719059
-0.022206772 -0.038810007 0.037447095 4280572288
-0.0023276806 -0.0073014125 0.0053595873 4281159553
-0.0016027056 0.00016146898 -0.0018032854 4280570503
-0.0020666495 0.014240947 -0.015117165 4280178059
-0.0027618892 0.029050283 -0.0290985 4278997153
-0.0026444383 0.038707495 -0.038277607 4279126694
-0.0015234351 0.042480573 -0.041980457 4278734503
0.00025517493 0.042577785 -0.042265471 4278996134
0.0023130365 0.041205607 -0.04118593 4278995879
0.0043817237 0.039834067 -0.04010801 4278799273
0.0064612329 0.03846328 -0.039031778 4278930344
0.0082561411 0.038561776 -0.039319094 4278471089
0.01005106 0.03866037 -0.03960634 4278536624
0.011999086 0.038025066 -0.039213419 4278733738
0.014264122 0.035922408 -0.037461936 4278603689
0.016069831 0.036021903 -0.037750665 4278276013
0.017553125 0.037588604 -0.039396901 4278799783
0.019987445 0.042920388 -0.0447178 4278667694
0.021768764 0.04301893 -0.045002326 4279193249
0.024238031 0.040185697 -0.042578459 4278931364
0.027602321 0.03368964 -0.036774747 4279259039
0.031724714 0.024265695 -0.028273851 4278734503
0.036457486 0.012648206 -0.017756743 4278537389
-0.025624465 -0.048084386 0.043734405 4282405228
-0.02429929 -0.041313596 0.037193704 4280570503
-0.022316825 -0.040462755 0.036171492 4280636293
-0.020430487 -0.038872592 0.0344618 4281621614
-0.0023128688 -0.0096041337 0.0048358776 4283123564
-0.0010907948 -0.0050706714 0.0004219478 4281552509
-0.00078280643 0.0046245977 -0.0087659881 4280374153
-0.0013168976 0.018741157 -0.022036495 4279784338
-0.0016907565 0.031377498 -0.033926692 4278997153
-0.0010837987 0.038111344 -0.040350489 4278538154
0.00043195114 0.039683275 -0.041999292 4278734249
0.0023553371 0.039043911 -0.041604474 4278537388
0.0041419789 0.039141752 -0.041890632 4278602668
0.0057837889 0.039976351 -0.042856462 4278469814
0.0089010149 0.042381182 -0.04546408 4278336959
0.013542399 0.03742446 -0.041286282 4278864554
0.015653901 0.036051594 -0.0402181 4278734503
0.017131962 0.037622362 -0.041860159 4278799783
0.02931788 0.032339763 -0.038183402 4278537134
0.032933388 0.025093891 -0.031731967 4278865574
0.038429216 0.010505877 -0.018552158 4278865574
-0.025900956 -0.048274063 0.041066371 4282404973
-0.024494652 -0.042226158 0.035229106 4280636294
-0.022514883 -0.041373365 0.034208972 4280439943
-0.020631094 -0.03977906 0.032503042 4281357433
-0.00082655996 -0.0088442117 0.0012677331 4282534769
0.00012040511 -0.002819486 -0.0044944091 4280504714
0.0002531372 0.0076409057 -0.01433349 4279915409
-0.00034571812 0.021794815 -0.027561512 4279128479
-0.00024356693 0.031507101 -0.03669427 4279062688
0.00060816854 0.036780365 -0.041739516 4278799783
0.0023973547 0.036878243 -0.042026158 4278537388
0.0039025471 0.038454074 -0.043669749 4278340274
0.0067332052 0.042342849 -0.047629077 4278667439
0.0085035786 0.042440094 -0.047912393 4278862004
0.012977391 0.038205825 -0.044420741 4278929833
0.014605746 0.039042324 -0.045382347 4278537898
0.016228696 0.039878592 -0.046342961 4278668969
0.017682623 0.041452367 -0.047977678 4278865319
0.020558005 0.044598486 -0.051241696 4278602923
0.022666235 0.043221697 -0.050176013 4278734248
0.025482815 0.038897023 -0.046418652 4278865573
0.028508801 0.033837318 -0.041993529 4279193504
0.031752314 0.028042953 -0.036901854 4279193249
0.036863841 0.014884267 -0.025096722 4278866084
0.057899803 -0.052653849 0.036052696 4279062433
-0.026011776 -0.049943365 0.03977792 4281749878
-0.024519246 -0.044622406 0.034639865 4280504713
-0.02262469 -0.043023355 0.032935485 4280505223
-0.020740744 -0.041424766 0.031232886 4280374409
-0.01896074 -0.039082915 0.028847422 4281095038
0.00051859021 -0.0073299557 -0.0029669493 4282010999
0.001177527 0.00019394606 -0.010068479 4280308364
0.0013893358 0.0099399984 -0.019196996 4279914899
0.00086218491 0.023389898 -0.031704839 4278801823
0.0010567643 0.032386392 -0.040130801 4278800804
0.0018824413 0.037673391 -0.045160048 4278996134
0.0047216341 0.041573156 -0.049112484 4278799019
0.0061946586 0.04315168 -0.050747339 4278996644
0.0079568103 0.043248475 -0.051029339 4278603688
0.010176945 0.041123971 -0.049285971 4278799528
0.012413278 0.039000414 -0.047545075 4278340784
0.01434968 0.038358234 -0.04715519 4278603433
0.015809197 0.039936531 -0.04878749 4278603433
0.017584806 0.040034581 -0.049071237 4278800038
0.019028075 0.041612215 -0.050700828 4278668969
0.020798227 0.041710168 -0.050983548 4278800293
0.022911441 0.040329315 -0.049921989 4278996898
0.025732387 0.035992071 -0.046175465 4278931364
0.028762599 0.030917581 -0.04176281 4278997153
0.032189824 0.024367295 -0.036014479 4278931619
0.037488975 0.01043142 -0.023570113 4278342059
0.057405986 -0.052872472 0.033406008 4278407339
0.062380169 -0.063830093 0.043104645 4278538154
0.064538188 -0.063709587 0.042760834 4278342059
-0.025957774 -0.053105213 0.039859101 4282666094
-0.024458978 -0.047768973 0.034731857 4280570759
-0.022734437 -0.044673026 0.031662233 4280439688
-0.020850342 -0.043070182 0.029962957 4280374153
-0.019070063 -0.040721893 0.027582493 4280439944
0.0018431582 -0.0057992414 -0.0071845255 4280898179
0.0024656951 0.0017442182 -0.014263303 4279914643
0.0019653291 0.015234213 -0.0267451 4280177039
0.0016405247 0.02723195 -0.037859149 4279391638
0.0017854944 0.036251612 -0.046256918 4278996134
0.012005281 0.039065741 -0.04998621 4278406574
0.013778102 0.039163437 -0.050269667 4278865829
0.0155509 0.039261229 -0.05055305 4278603688
0.017486999 0.038617056 -0.050164595 4278800548
0.019594455 0.037231438 -0.049105681 4278800549
0.021881383 0.035104759 -0.047377516 4278669733
0.024184447 0.032979105 -0.045651894 4278603944
0.026851857 0.029371567 -0.042588741 4278603944
0.029723 0.025024287 -0.03886022 4278473129
0.032805942 0.019937821 -0.034467682 4278472873
0.038477279 0.0044796616 -0.020719182 4278603943
0.057100371 -0.05382286 0.031434093 4278342059
0.061879165 -0.064072415 0.04044088 4278472873
0.064224623 -0.064692572 0.040764946 4278931873
0.066575348 -0.065312326 0.041088268 4280112014
-0.024314303 -0.051672272 0.03550002 4281881458
-0.022756506 -0.047070704 0.031071369 4280766599
-0.021050241 -0.043967091 0.028011486 4280570504
-0.019272339 -0.041612566 0.025636483 4280373898
-0.017510477 -0.039258748 0.023264099 4281357433
0.002885554 -0.0027602017 -0.012735494 4279849873
0.0029323921 0.0077858344 -0.022489864 4279915153
0.00263137 0.019819245 -0.033580814 4280046990
0.00196632 0.033339024 -0.046005677 4278867104
0.0023367256 0.040890642 -0.0530269 4278996134
0.0032302849 0.045458447 -0.057347033 4278603179
0.0052672215 0.044063941 -0.056280777 4278275249
0.0098305978 0.039042603 -0.0521378 4278472109
0.011908025 0.037650645 -0.051077772 4278865828
0.013996236 0.036259323 -0.050019354 4278997154
0.015934762 0.035613082 -0.049633093 4278997153
0.018368142 0.032734662 -0.047237419 4278866338
0.020491358 0.031345632 -0.046184387 4278342314
0.023131004 0.027725615 -0.043125395 4278473384
0.025455086 0.025594659 -0.041408129 4278735523
0.027969254 0.022721123 -0.039025031 4278538918
0.030328313 0.020592324 -0.037313182 4278932129
0.033241522 0.016234677 -0.033601422 4279325339
0.038917664 0.00073178113 -0.019889109 4279325339
0.056795049 -0.054768652 0.029465731 4278997664
0.061568897 -0.065048501 0.038449742 4279325339
0.063718528 -0.064928427 0.038107298 4279521944
0.066259086 -0.066293001 0.039094735 4279849108
-0.022778805 -0.049472362 0.030477423 4281422204
-0.021339957 -0.044109136 0.025383539 4280569994
-0.019474294 -0.042498618 0.023694042 4280308364
-0.017619263 -0.040888533 0.022006277 4280636293
-0.015873153 -0.038529024 0.019641556 4282667878
0.0029123649 -0.005037196 -0.013241509 4281095548
0.0037637949 0.001051303 -0.018934164 4279980434
0.0037559271 0.0116245 -0.028656095 4280112268
0.0029789321 0.025932074 -0.041727245 4279457428
0.0026651472 0.037244014 -0.052094486 4278866338
0.0034234226 0.04257258 -0.057077389 4278472874
0.0053185187 0.041921243 -0.05668623 4278996644
0.007667575 0.039029073 -0.054284222 4278996898
0.010038208 0.036138233 -0.051885627 4278930854
0.012275524 0.033995427 -0.050160043 4278996388
0.014686625 0.031106982 -0.04776771 4278603944
0.019410519 0.026080359 -0.043661579 4278342314
0.02171791 0.023941837 -0.041946866 4278669989
0.024209855 0.021058284 -0.03956712 4278801058
0.026210031 0.020413738 -0.039192047 4279194013
0.028215561 0.019769594 -0.038817752 4279128733
0.030402936 0.018380217 -0.037777953 4279194268
0.033497006 0.013264358 -0.033410769 4279587478
0.039357163 -0.0030287802 -0.019068744 4279587478
0.056490034 -0.055709831 0.027500935 4279325339
0.061068933 -0.065275073 0.035798047 4279587478
0.063598379 -0.066644698 0.036783855 4279390619
0.066138491 -0.068013579 0.037767999 4280110739
-0.022626657 -0.053383261 0.031238109 4282340203
-0.021358933 -0.046499602 0.024797715 4280766854
-0.019675899 -0.043380015 0.021755107 4280504969
-0.017918851 -0.041013673 0.019393612 4280439689
-0.016177852 -0.038648024 0.017034758 4281160829
0.0043268092 -0.0042128563 -0.016744465 4281028994
0.0050137602 0.0026412793 -0.023089971 4280373899
0.0044049695 0.016241394 -0.035463259 4280308109
0.0036990903 0.029836316 -0.047820896 4279456663
0.0040479302 0.037429713 -0.054804847 4278998428
0.0058095567 0.037526362 -0.055086851 4278670753
0.0080193058 0.035375446 -0.053362112 4278407849
0.010549385 0.031727318 -0.050302934 4278669734
0.012796916 0.02957863 -0.048584048 4278735524
0.015375551 0.025933389 -0.045532465 4278997408
0.017660823 0.023787003 -0.043819435 4278998429
0.019962255 0.02164166 -0.042108946 4279063964
0.022114299 0.020245627 -0.041067198 4278867359
0.024445347 0.018102132 -0.039361272 4279194524
0.026450645 0.017455686 -0.038988665 4279063964
0.028461285 0.016809694 -0.038616855 4279063964
0.030653611 0.015416358 -0.037581254 4279063964
0.033751905 0.010285687 -0.033226475 4279128989
0.039977502 -0.0075493976 -0.017594384 4279063199
0.056746721 -0.058887765 0.027528301 4279128989
0.060949251 -0.066986725 0.034478147 4279063199
0.063285708 -0.067613825 0.034798671 4279063198
0.065822676 -0.068987116 0.035779983 4280635529
-0.02128825 -0.049648732 0.024885561 4282339693
-0.019784588 -0.045011297 0.020496085 4280439943
-0.01802725 -0.042638533 0.018139578 4280308619
-0.016187977 -0.041020647 0.016461141 4280177293
-0.014560711 -0.037895143 0.013434506 4280242573
0.0057257377 -0.0033761561 -0.020234473 4280963968
0.0056893639 0.0072556548 -0.029904582 4280242318
0.0048718415 0.021642618 -0.042905152 4279914898
0.0052462928 0.029258858 -0.049876362 4279783064
0.0065924861 0.031611495 -0.052165225 4278538918
0.008967068 0.028703559 -0.04978079 4278669988
0.011363246 0.025796928 -0.047399711 4278735523
0.013935614 0.022140495 -0.044355642 4278931874
0.016220316 0.019987594 -0.042647686 4278997919
0.018361185 0.018586434 -0.041607697 4279325338
0.020512816 0.017186012 -0.040569384 4279391128
0.0225098 0.016536791 -0.040197346 4279260059
0.024512159 0.015887931 -0.039826028 4279063453
0.026690662 0.014489338 -0.038791746 4279195034
0.028706411 0.013841491 -0.038422432 4279195034
0.031079903 0.0116942 -0.036728039 4279063964
0.034364 0.0057991855 -0.031723645 4278998174
0.040596649 -0.012086965 -0.01613309 4278998174
0.056441858 -0.059826136 0.025565684 4278998174
0.0604502 -0.067199767 0.031836968 4278932129
0.062780954 -0.067829266 0.032156695 4279194524
0.065116994 -0.068458349 0.032475665 4280832898
-0.019800786 -0.047398955 0.019911982 4281946483
-0.018135604 -0.044263087 0.016885776 4280570248
-0.016296189 -0.042640917 0.015210672 4279915154
-0.014668491 -0.039506838 0.012190687 4279521943
0.0060292073 -0.0071562231 -0.019401861 4282210153
0.0064176992 0.0012437068 -0.027048104 4280569993
0.0060419627 0.013410453 -0.038019083 4280111503
0.0061546564 0.022557244 -0.046310451 4279980179
0.0075200386 0.02491736 -0.04859734 4279063199
0.009465564 0.024262462 -0.048219219 4279325339
0.011871789 0.021347854 -0.045846526 4279128989
0.014145136 0.019187741 -0.044141851 4279325594
0.016434658 0.017028615 -0.042439692 4279194268
0.018420616 0.016376425 -0.042067736 4279456409
0.020411948 0.015724644 -0.041696552 4279390873
0.022573916 0.014320593 -0.040663123 4279128223
0.024410719 0.014422268 -0.040956456 4279063454
0.026759438 0.012267016 -0.039263353 4279063964
0.028777609 0.011617124 -0.038896061 4279522453
0.031153204 0.0094635747 -0.037207093 4279391639
0.034438655 0.0035514794 -0.032216392 4279522708
0.040670268 -0.014386155 -0.016666053 4279522708
0.056324136 -0.061511315 0.024266168 4279522708
0.059762217 -0.066652551 0.028543539 4279850384
0.062084578 -0.067284629 0.028862931 4282012784
-0.018243928 -0.045887344 0.015632201 4281486719
-0.016404372 -0.044260897 0.013960428 4279848599
-0.014776241 -0.041118234 0.010947096 4279390363
-0.013066448 -0.038734838 0.0086085936 4280635783
-0.011372734 -0.036352158 0.0062727174 4281750133
0.0064535961 -0.0010123402 -0.027539514 4281685363
0.0063644387 0.0096767172 -0.037153941 4280242828
0.0067739226 0.017337754 -0.044097096 4279784083
0.008006867 0.0204609 -0.047045469 4279260059
0.0099628791 0.01980447 -0.046670765 4278932383
0.012075931 0.018392872 -0.045633312 4279129499
0.014354091 0.016226582 -0.043934468 4279325593
0.016491398 0.014816597 -0.042900763 4279063198
0.018479764 0.014162403 -0.042530876 4279390873
0.020473506 0.013508618 -0.042161752 4279259804
0.022637732 0.012100399 -0.041132048 4278932384
0.024644902 0.011447575 -0.040764906 4279063964
0.026827937 0.010040607 -0.039738037 4279129753
0.028675307 0.010143105 -0.040032875 4279981454
0.031050313 0.007983122 -0.038348835 4280506753
0.034334432 0.0020538084 -0.033371389 4281947758
0.040562309 -0.015935473 -0.01786085 4281947758
0.056019731 -0.062442616 0.022309013 4281947758
-0.018352184 -0.047511294 0.014378852 4282927214
-0.016610038 -0.045119919 0.012039966 4279519904
-0.014984179 -0.041968837 0.0090337051 4280307344
-0.013276808 -0.039579168 0.0067006191 4280701063
-0.011479866 -0.037950382 0.0050393483 4280898179
0.0064046904 0.0074468814 -0.037625581 4280439689
0.0069615804 0.014371432 -0.043889441 4280046224
0.0083464459 0.016745478 -0.046169348 4279456409
0.010161489 0.016845178 -0.046459813 4278998429
0.012430977 0.014671881 -0.044764712 4278998429
0.014254116 0.014772248 -0.045056295 4278998429
0.016390983 0.013357945 -0.044025887 4279325594
0.018219499 0.013458844 -0.044318147 4279325338
0.020372517 0.012045644 -0.043290157 4279325339
0.022536306 0.010633137 -0.042263735 4279522198
0.024710843 0.0092213526 -0.041239008 4279784338
0.026725784 0.0085669011 -0.040874638 4279916429
-0.016815383 -0.045974344 0.010123051 4281485444
-0.015091691 -0.043577455 0.0077922447 4280963204
-0.013384044 -0.041181348 0.0054641617 4280570249
-0.01158696 -0.039548293 0.0038062064 4280570248
-0.0098005496 -0.037915736 0.0021501146 4280832899
0.0063041113 0.0059734955 -0.038762245 4282275943
0.0070054196 0.012157131 -0.044349689 4280308109
0.0083932877 0.014537755 -0.046625033 4279063964
0.010508165 0.013117589 -0.045594692 4278932639
0.012633815 0.011698138 -0.044566043 4279260569
0.014462207 0.011798806 -0.044858463 4279457173
0.016447309 0.01114003 -0.044491511 4279457173
0.018278379 0.011241067 -0.044784181 4279719568
0.020595783 0.0090644434 -0.043101426 4280179078
-0.015199181 -0.045185775 0.0065510189 4281552508
-0.013593893 -0.042018555 0.0035616076 4280636038
-0.01179938 -0.040381417 0.001907452 4280570249
-0.010123566 -0.037980333 -0.00041032676 4280046223
-0.0083530731 -0.036344238 -0.0020604096 4280640119
0.0071920864 0.0091763511 -0.044153266 4281094783
0.0084398538 0.012326021 -0.047083821 4279325848
0.010556985 0.010901663 -0.046057221 4278998684
0.012533721 0.010240082 -0.045690771 4279391383
0.01466972 0.0088170506 -0.044667043 4279784848
0.01665994 0.0081563704 -0.044302545 4279850638
-0.015206795 -0.047560707 0.0059750816 4282600303
-0.013598397 -0.044384822 0.0029919175 4280766598
-0.011801045 -0.042743191 0.0013406379 4280439178
-0.010122258 -0.040335551 -0.00097258855 4279128223
-0.0083489418 -0.038695037 -0.0026197736 4280112268
-0.0065863095 -0.037054956 -0.0042651487 4280703613
0.0084861517 0.010110203 -0.047545679 4280833409
0.010902207 0.0071531758 -0.045208294 4281620084
-0.013603158 -0.046755031 0.0024191057 4281683323
-0.011908028 -0.044340193 0.00010819267 4280241809
-0.010336727 -0.041157469 -0.0028621266 4279259293
-0.0086764134 -0.038744316 -0.0051672054 4280308619
-0.0066927485 -0.038636982 -0.0054859337 4280505733
-0.013812609 -0.047587074 0.00052060094 4282926703
-0.012119904 -0.045165956 -0.0017848732 4280700298
-0.010443248 -0.04274556 -0.0040876763 4280045969
-0.0086723603 -0.041096658 -0.0057277726 4280308363
-0.0067991503 -0.040218681 -0.0067064697 4280701829
-0.0050469525 -0.038570464 -0.0083434023 4281033074
-0.012436222 -0.045213975 -0.0043336535 4282141558
-0.010872144 -0.042014569 -0.0072893361 4280832133
-0.0089990497 -0.041134551 -0.0082664872 4280242828
-0.007131245 -0.040254742 -0.0092426548 4280308363
-0.005384285 -0.038602591 -0.010875356 4280767619
-0.0034115426 -0.038495585 -0.011192125 4280965499
-0.010763533 -0.045145825 -0.0071952278 4281683323
-0.0089950748 -0.043488488 -0.0088282237 4280373899
-0.0073500089 -0.041056737 -0.011115679 4280439179
-0.0057210289 -0.038625754 -0.013400465 4280373643
-0.0038719252 -0.037744582 -0.014371753 4280243338
-0.0091012232 -0.045069247 -0.010048077 4280963204
-0.0074558891 -0.042631105 -0.012330563 4279914389
-0.0060571507 -0.038640089 -0.01591868 4279587479
-0.0044493638 -0.036203705 -0.018194921 4280308109
-0.0026163645 -0.035321131 -0.019161843 4280309129
-0.0090976246 -0.04742898 -0.010614359 4281944698
-0.0074493177 -0.044984266 -0.012892284 4280831878
-0.0062775463 -0.039424464 -0.017777529 4280045968
-0.0049078017 -0.03542421 -0.021352503 4280111503
-0.0029623918 -0.035318598 -0.021664806 4279063198
-0.0075552799 -0.046560138 -0.014108346 4283123818
-0.006497629 -0.040204205 -0.019632872 4280831878
-0.005130019 -0.036193378 -0.023199107 4279980434
-0.0031874627 -0.036087945 -0.023510974 4279259039
-0.001244843 -0.035982355 -0.02382274 4279260314
-0.0064877346 -0.042545952 -0.020186231 4281421439
-0.0051168576 -0.038524255 -0.023744591 4279980433
-0.0031717643 -0.038418673 -0.024056863 4278932384
-0.0011036992 -0.039095759 -0.023721151 4279063964
0.00034179166 -0.035859138 -0.026623584 4279327633
-0.0063634254 -0.045677029 -0.020095177 4281813883
-0.0049865954 -0.04164432 -0.023646101 4280242573
-0.0030362755 -0.041538462 -0.023959216 4279391383
-0.00059482455 -0.044572324 -0.021687247 4279784594
0.0011154823 -0.042895958 -0.023293555 4281553529
-0.0045051873 -0.047134899 -0.021617625 4282731119
-0.0025415495 -0.047028311 -0.021932878 4280505479
-0.00020999089 -0.049282953 -0.020314263 4281750389
0.001887165 -0.04996261 -0.019986475 4282471018
-0.021825802 -0.055973709 -0.01731416 4282535533
-0.016803671 -0.053228892 -0.025192389 4282732649
-0.0066535212 -0.057453394 -0.025421659 4282535533
-0.019166622 -0.054852843 -0.028562982 4282732903
-0.0069864914 -0.05742161 -0.027904376 4282666349
-0.0049048327 -0.058115348 -0.027584493 4282797929
-0.0073188506 -0.057381004 -0.030380215 4282337908
-0.021516871 -0.056457892 -0.031921234 4282077043
-0.0077640079 -0.056526855 -0.033481941 4282404208
-0.016995084 0.012356479 0.073995739 4285426978
-0.01512498 0.013813596 0.072184779 4285885979
-0.01266076 0.011236463 0.07481081 4285885978
-0.023391534 0.011039466 0.072973385 4284901424
-0.021598112 0.013176411 0.070424281 4285229863
-0.019728165 0.014637627 0.068616644 4285558559
-0.017964069 0.016773101 0.06607233 4285623838
-0.016020115 0.017558549 0.065006591 4285623328
-0.013678808 0.015646022 0.066891819 4285689374
-0.010701057 0.0096886046 0.073197067 4285689374
-0.032285634 0.013685051 0.067844532 4285229863
-0.030558106 0.016506661 0.064558864 4285885723
-0.028525557 0.016616616 0.06423226 4285951258
-0.026239913 0.014694147 0.066121064 4285755163
-0.024198849 0.014804691 0.065793194 4285558813
-0.022247266 0.015592478 0.064727746 4285624349
-0.020393323 0.017057136 0.062925987 4285690138
-0.018645059 0.019198135 0.060389306 4285952788
-0.016619448 0.019308072 0.060064096 4285886744
-0.014191672 0.016711667 0.062682316 4285821208
-0.011432517 0.012087055 0.067503415 4285952279
-0.0086353868 0.00746461 0.072318427 4285690139
-0.034658451 0.013977468 0.064693302 4285493024
-0.032927949 0.016807701 0.06141388 4285624093
-0.031061303 0.018277004 0.059613187 4285557539
-0.028879423 0.017026551 0.060763206 4285754908
-0.026602399 0.015097134 0.062648229 4285755164
-0.024482656 0.014527678 0.063057981 4285689628
-0.022536423 0.015317298 0.061995048 4285624093
-0.020687651 0.016785894 0.060197514 4285624349
-0.018849496 0.018254023 0.058401693 4285689629
-0.016729001 0.017684814 0.058811557 4285689628
-0.014402241 0.015758473 0.060688887 4285689628
-0.011956058 0.013154432 0.063297443 4285624349
-0.0096996166 0.01190858 0.064435929 4285558813
-0.0072153099 0.0093067735 0.067038409 4285559069
-0.0034864917 -0.0007539317 0.077694535 4285493279
-0.036802214 0.012236461 0.063761577 4285427233
-0.035133857 0.015758231 0.059750166 4285625113
-0.033340428 0.017914083 0.05721597 4285821208
-0.031405758 0.018704928 0.056156356 4285689883
-0.029232342 0.017449699 0.057304267 4285755418
-0.02687991 0.014831454 0.059920702 4285886998
-0.024765808 0.014259484 0.060329627 4285755418
-0.022646096 0.01368789 0.060737696 4285624348
-0.020797115 0.015160765 0.058943484 4285624348
-0.018863928 0.015951909 0.057884406 4285624349
-0.016740981 0.015380684 0.058292102 4285558558
-0.014512248 0.014128882 0.059431467 4285624093
-0.012478374 0.014239315 0.059104968 4285689884
-0.010655541 0.015711103 0.057315212 4285886233
-0.0084101409 0.014460407 0.058452059 4286082583
-0.0052656941 0.007767532 0.065433487 4285951258
-0.036770646 0.0092360377 0.063974164 4285228843
-0.035461571 0.016191669 0.056294259 4285427743
-0.03367589 0.018353559 0.053766306 4285624349
-0.03174926 0.019146077 0.052709628 4285755673
-0.029584307 0.01788602 0.053855468 4285755418
-0.027240653 0.015258633 0.056466524 4285689629
-0.025134865 0.01468401 0.056875046 4285624093
-0.023023482 0.014109716 0.057282764 4285689884
-0.020906512 0.013535835 0.057689596 4285689884
-0.01878396 0.012962315 0.058095586 4285624349
-0.016753193 0.013072412 0.057769451 4285624349
-0.014822315 0.013865676 0.056712497 4285689883
-0.0131022 0.01602466 0.054195594 4285755419
-0.011187222 0.016817201 0.0531413 4285820698
-0.009169329 0.01692687 0.052817453 4285885724
-0.0063752457 0.012259007 0.057597417 4286017049
-0.0027482286 0.0028166622 0.067472145 4285951258
-0.035350833 0.012517978 0.057249572 4285427489
-0.033783551 0.016746458 0.052526068 4285558814
-0.031856846 0.017541081 0.051471032 4285558813
-0.029611263 0.015590321 0.053345758 4285558558
-0.027516712 0.015012819 0.053754304 4285624349
-0.025589388 0.015807681 0.052699324 4285820699
-0.023489032 0.015230626 0.053107049 4285820954
-0.021291289 0.013968244 0.054244395 4285886489
-0.018988032 0.012020931 0.05611011 4285689629
-0.017057266 0.012816243 0.055054802 4285624093
-0.015331563 0.014981892 0.052541982 4285624093
-0.013724525 0.017831862 0.04930307 4285952278
-0.011822991 0.018625785 0.048252605 4285820443
-0.009818688 0.018734686 0.047930911 4285688609
-0.007260669 0.015420251 0.051246475 4285885213
-0.0042218044 0.0093692094 0.057465781 4285951259
-0.00020520389 -0.0021542013 0.069489986 4285951259
-0.034876984 0.0053870231 0.061854292 4285294634
-0.033589233 0.012384564 0.054211635 4285493534
-0.03180803 0.014559109 0.051694527 4285559069
-0.029638443 0.013290532 0.052832808 4285624604
-0.027624983 0.013399266 0.052509125 4285689883
-0.025870141 0.015572581 0.049996413 4285886998
-0.02395336 0.016369037 0.048944838 4285820953
-0.021766793 0.015101697 0.05008056 4286018068
-0.019569229 0.013834983 0.05121462 4285821209
-0.017554838 0.013944101 0.050891049 4285689629
-0.015839588 0.016115624 0.048384972 4285623838
-0.013935454 0.016911745 0.047335699 4285755419
-0.012141723 0.018394824 0.045560651 4286018069
-0.010142926 0.018503387 0.04523981 4286149139
-0.0078122728 0.016551476 0.047096346 4286148118
-0.0051254518 0.012540463 0.051126324 4286082584
-0.0017102249 0.0044119507 0.059500616 4285689119
