# .PCD v0.7 - Point Cloud Data file format
VERSION 0.7
FIELDS x y z rgba
SIZE 4 4 4 4
TYPE F F F U
COUNT 1 1 1 1
WIDTH 937
HEIGHT 1
VIEWPOINT 0 0 0 1 0 0 0
POINTS 937
DATA ascii
0.023096226 -0.029596314 0.0012420248 4286986048
0.025958143 -0.03326501 0.0041522025 4287575864
0.029024705 -0.037691295 0.0077169179 4287771704
0.018495262 -0.029187843 -0.0011481363 4287182144
0.020812321 -0.030583598 -0.00021846057 4287444538
0.023312442 -0.032740429 0.0013683601 4287575863
0.026003674 -0.035657912 0.0036108247 4287838003
0.028716331 -0.038573898 0.0058491393 4288032823
0.0096772984 -0.02748815 -0.0040790755 4287248444
0.011800084 -0.028125972 -0.0038063172 4287706423
0.014089745 -0.029528216 -0.0028747972 4287771959
0.016390137 -0.030929625 -0.0019453599 4287641399
0.018868119 -0.033094719 -0.0003592507 4287903284
0.020853713 -0.0329656 -0.00075057382 4287968563
0.023355842 -0.035128862 0.0008309721 4287706933
0.025874045 -0.037290901 0.0024094181 4287837238
0.028585846 -0.040215604 0.0046413545 4287247423
0.005322583 -0.027808666 -0.0058032554 4287182398
0.0077407211 -0.029984772 -0.0042108055 4287248699
0.010019056 -0.031392351 -0.00328053 4287772214
0.012308143 -0.03279908 -0.0023523294 4288099123
0.014608007 -0.034205019 -0.0014261031 4287706678
0.016590681 -0.034076355 -0.0018170574 4287379769
0.018740043 -0.034714252 -0.0015508892 4287772469
0.020894792 -0.035351656 -0.0012856745 4287576118
0.023226924 -0.036754981 -0.00036542001 4287510328
0.025569778 -0.038157418 0.00055278558 4287707188
0.027923351 -0.039559007 0.0014689835 4286789954
0.0012810379 -0.02965869 -0.006205501 4287246913
0.0035345666 -0.031072579 -0.0052739549 4287968054
0.0054980442 -0.030945823 -0.0056616124 4287968563
0.0077677816 -0.032358438 -0.0047330172 4287902773
0.010048278 -0.033770189 -0.0038065002 4287575863
0.012181096 -0.034411713 -0.0035390058 4287772214
0.014480449 -0.035822034 -0.0026159759 4288099124
0.01662676 -0.036462426 -0.0023509439 4287772215
0.018445525 -0.035564601 -0.0033977169 4287641144
0.020428125 -0.035435691 -0.0037884586 4287379513
0.02275439 -0.03684368 -0.0028703574 4287445048
-0.004580263 -0.032406628 -0.0055607948 4287314489
-0.0026199557 -0.032280594 -0.0059482139 4287314999
-0.00080178678 -0.031381808 -0.0069941264 4287903284
0.0014458038 -0.032800563 -0.0060647936 4287837748
0.0034090467 -0.032673955 -0.0064525064 4288295219
0.005522605 -0.033319294 -0.0061831498 4288099378
0.0076415986 -0.033964202 -0.0059147165 4287445048
0.0097659975 -0.034608603 -0.0056473264 4287575608
0.012212351 -0.036795639 -0.0040700762 4287706423
0.014352925 -0.03743875 -0.0038056176 4287771959
0.016171653 -0.036538854 -0.0048508896 4287640633
0.017985083 -0.035639212 -0.0058949841 4287444539
0.019793194 -0.034739763 -0.0069379122 4287508798
-0.0044315644 -0.03555575 -0.0054216078 4287249719
-0.0026054345 -0.034654409 -0.0064675459 4287315509
-0.0010686778 -0.032203667 -0.0088263061 4288230449
0.0011757426 -0.033627033 -0.0078995991 4287772469
0.0032835566 -0.034275025 -0.0076308385 4287771958
0.0053967834 -0.034922577 -0.0073630647 4287837238
0.0075154454 -0.035569683 -0.0070962226 4287575608
0.0094840974 -0.035442337 -0.0074847066 4287248188
0.011768993 -0.036862351 -0.006565514 4287247934
0.01374311 -0.036734387 -0.0069548814 4287247679
0.015553828 -0.035832882 -0.0079969 4287574333
-0.0048296191 -0.035604015 -0.0079142582 4286790209
-0.002730418 -0.036255158 -0.0076457472 4287117884
-0.0010514334 -0.034574904 -0.0093442742 4288230193
0.0011951663 -0.036002398 -0.0084213037 4287771959
0.0030108653 -0.035099179 -0.0094632525 4287247934
0.0049711876 -0.034972623 -0.0098502915 4287051329
0.0067790113 -0.034069672 -0.010890497 4287116354
0.0087368004 -0.033943042 -0.011276847 4287377729
-0.0054996982 -0.034084268 -0.011709964 4286593348
-0.003272485 -0.035517588 -0.010786613 4286986049
-0.001317922 -0.035391822 -0.011172825 4287247934
0.0010698847 -0.037602879 -0.009599234 4287182144
0.0027385354 -0.035918705 -0.011292262 4287639359
0.0045462959 -0.035013661 -0.012330947 4286920003
-0.015317313 0.0074990764 0.025944628 4280650828
-0.013482071 0.0083440766 0.024853826 4281175363
-0.012290753 0.012784593 0.020251593 4282549304
-0.021664038 0.0076856315 0.02381666 4282086223
-0.020997889 0.01575277 0.015697191 4281110339
-0.019553706 0.018763199 0.012506818 4280066623
-0.01751966 0.018163919 0.012830539 4280001343
-0.015230291 0.016122013 0.014556119 4279156019
-0.013435028 0.016966693 0.013474919 4283009833
-0.029798575 0.007041052 0.022778306 4282477139
-0.028595075 0.012239367 0.017468235 4281762374
-0.026885517 0.013811663 0.015680647 4281240898
-0.025186487 0.01538343 0.013895169 4281176639
-0.023726009 0.018403411 0.010707999 4280852279
-0.022403464 0.022146337 0.0068237041 4281112124
-0.020630047 0.02299143 0.0057482612 4281568319
-0.018373609 0.020940758 0.0074753319 4281046844
-0.015976235 0.018167511 0.0098990705 4281048119
-0.013812087 0.016842864 0.010920024 4281571634
-0.012287505 0.019135855 0.008445112 4282094638
-0.034593679 0.011022374 0.016748803 4281045314
-0.033172533 0.014781862 0.012852736 4280720699
-0.031365357 0.01563067 0.011771794 4279940144
-0.029669166 0.017206401 0.0099900067 4281437758
-0.027874976 0.018054575 0.0089117829 4281177148
-0.026085958 0.018902525 0.0078346618 4281177403
-0.02441597 0.02047687 0.0060582818 4280656439
-0.022989564 0.023503449 0.0028844895 4280004404
-0.021226808 0.024350025 0.0018127915 4280916284
-0.01898171 0.022292051 0.0035371426 4280917048
-0.01659584 0.019509323 0.0059565525 4280398378
-0.014315657 0.017453849 0.0076740733 4281375539
-0.012538902 0.018301718 0.0065999092 4281832499
-0.038560905 0.0092038959 0.016352089 4281891914
-0.037397556 0.015165716 0.01035144 4281306434
-0.03608153 0.019665286 0.0057631102 4280654654
-0.034195609 0.019785166 0.0053893463 4280786233
-0.032103539 0.018446237 0.0064172563 4279027753
-0.030000575 0.017108068 0.0074431342 4281047609
-0.028211705 0.01795809 0.0063675349 4281177404
-0.026538998 0.019536786 0.0045938552 4281112379
-0.024990506 0.021843731 0.0021235892 4280916539
-0.023457877 0.024149708 -0.00034342054 4280134198
-0.021584079 0.024269491 -0.0007142704 4280330038
-0.019588403 0.023661144 -0.00038795359 4280721464
-0.017214052 0.020868924 0.0020271302 4280981818
-0.014945216 0.018806167 0.0037419391 4281177659
-0.012919635 0.01819998 0.0040626065 4281504568
-0.010888577 0.0175943 0.0043822289 4281898288
-0.0091222152 0.018443875 0.0033119083 4283791918
-0.040962078 0.010438114 0.012766914 4281175874
-0.03969489 0.01568564 0.0074783289 4280654909
-0.038275383 0.019466564 0.0035988525 4281176384
-0.036687486 0.021781899 0.0011253045 4281502528
-0.034815058 0.021900885 0.00075418781 4281371968
-0.032634035 0.019825026 0.002480729 4281176894
-0.030436732 0.017750293 0.0042041861 4280786998
-0.028655849 0.018601917 0.0031318371 4281112634
-0.026990972 0.02018448 0.001362924 4280982074
-0.025336586 0.02176645 -0.00040377607 4280916538
-0.023692764 0.023347832 -0.0021683192 4280981053
-0.021584034 0.022006169 -0.0011465766 4281046078
-0.019585975 0.021395758 -0.00082240184 4281176893
-0.017458193 0.020055488 0.00019577751 4281176638
-0.015573345 0.020176262 -0.00017704582 4281110338
-0.01355879 0.019567207 0.00014409842 4281568574
-0.011274248 0.017499112 0.0018510059 4281961529
-0.0093782768 0.017620906 0.0014762213 4284711194
-0.041349821 0.011077344 0.0095137805 4281175618
-0.040273488 0.017808676 0.00283864 4280720189
-0.038772009 0.020865262 -0.00033090194 4279611959
-0.037194423 0.023186479 -0.0027975487 4280459323
-0.035232849 0.022570744 -0.0024684148 4280394043
-0.033163108 0.021221578 -0.0014426645 4278700843
-0.030766524 0.017672218 0.0016722106 4280721463
-0.028990932 0.018525705 0.00060250284 4281112379
-0.027220517 0.019378915 -0.00046607247 4280981819
-0.025455274 0.020231888 -0.0015335431 4280981308
-0.023579195 0.020351671 -0.0019049546 4280850493
-0.021584287 0.019738749 -0.0015819031 4280980798
-0.019705221 0.019858927 -0.0019537522 4281046589
-0.017950036 0.020711675 -0.0030189189 4280850238
-0.016326793 0.022296488 -0.0047758063 4279873844
-0.014325917 0.021684356 -0.0044536246 4279873334
-0.011923328 0.018876806 -0.0020570769 4280461618
-0.0097687021 0.017534345 -0.0010472329 4282159154
-0.007740669 0.016924284 -0.00073018274 4283922733
-0.04111281 0.0065718293 0.011161081 4282214488
-0.040483251 0.017007023 0.001007725 4281044803
-0.039078325 0.020808734 -0.0028524552 4280588353
-0.037408598 0.022399727 -0.0046161199 4280589884
-0.035449997 0.021781597 -0.0042880634 4280980798
-0.033383377 0.020427875 -0.0032650563 4280981564
-0.031305857 0.019074932 -0.0022440772 4281177148
-0.029433101 0.019194163 -0.0026150844 4281372989
-0.027560174 0.019313507 -0.002986047 4281112378
-0.025573909 0.018697634 -0.0026630978 4280982074
-0.023582116 0.018082201 -0.0023411768 4280981818
-0.021584809 0.017467231 -0.002020258 4280981564
-0.019824401 0.018322378 -0.0030849013 4280981564
-0.018316947 0.02064658 -0.0055319527 4280459578
-0.016825393 0.022969924 -0.0079758102 4280395829
-0.014962085 0.023089375 -0.0083443271 4280525369
-0.012439102 0.019538216 -0.0052619367 4280004148
-0.01015839 0.01745683 -0.0035640446 4281506098
-0.0081360191 0.016844198 -0.0032475253 4282420273
-0.040432431 -0.0016462058 0.016280878 4282345048
-0.040234603 0.01251556 0.0026627723 4281498703
-0.039101094 0.018545046 -0.0032794173 4280652868
-0.037622377 0.021617696 -0.006431303 4281045313
-0.035567097 0.02025874 -0.0054093855 4281306434
-0.03370554 0.020377032 -0.0057783476 4280981308
-0.031738818 0.019757412 -0.0054534101 4281046588
-0.029981866 0.020613961 -0.0065161446 4280982328
-0.028009437 0.019994892 -0.0061922004 4281048119
-0.025805473 0.017901182 -0.0044847163 4281178169
-0.023816675 0.017283365 -0.0041638515 4281047353
-0.022059046 0.018140376 -0.0052264067 4281112634
-0.020427659 0.019734211 -0.0069785598 4280656439
-0.018930517 0.022064272 -0.0094186449 4280460599
-0.01732292 0.023656789 -0.01116594 4281437504
-0.015338726 0.023039199 -0.010843775 4281568063
-0.013085544 0.020949386 -0.0091454666 4281373498
-0.010681778 0.018124536 -0.0067622694 4281439799
-0.0086677447 0.0175092 -0.0064457469 4281701173
-0.03962148 0.005042538 0.0070847101 4282478414
-0.038747698 0.013313606 -0.0009319447 4281174343
-0.037255056 0.016395755 -0.0040799994 4280522563
-0.035485245 0.017255023 -0.0051439158 4280785979
-0.033822708 0.018854417 -0.0068994663 4281046588
-0.030529223 0.022051528 -0.010404128 4279419179
-0.028567784 0.021429557 -0.010079669 4278768673
-0.026375175 0.019328572 -0.0083748903 4280786743
-0.024397358 0.018707849 -0.0080535226 4281112634
-0.022650391 0.019566335 -0.009112332 4281112634
-0.021029495 0.021163836 -0.010859132 4280591669
-0.019419156 0.022760715 -0.01260373 4278768164
-0.017693169 0.023618173 -0.013658155 4280526133
-0.015714623 0.022998024 -0.013336534 4280591158
-0.013467446 0.020901263 -0.01164199 4280527409
-0.011069827 0.018067323 -0.0092641469 4280461109
-0.0090614706 0.017449401 -0.0089481808 4281307708
-0.0070476308 0.016831964 -0.0086332001 4281963315
-0.0054551549 0.01842846 -0.010373691 4284249388
-0.038828455 -0.0039516985 0.01286765 4282608718
-0.038301967 0.0073174462 0.0020924206 4281565769
-0.037275821 0.014124013 -0.0045135375 4280653634
-0.035701871 0.016471103 -0.006959754 4280328253
-0.034041815 0.018074669 -0.0087115411 4280915773
-0.032496899 0.020420112 -0.011151848 4280394554
-0.030860551 0.02202237 -0.012898784 4281177404
-0.02879478 0.020655762 -0.011885304 4280070194
-0.026605465 0.018548027 -0.01018481 4280851768
-0.024745956 0.018666632 -0.010553025 4280982329
-0.023122333 0.020268522 -0.012297183 4281112378
-0.021509245 0.021869827 -0.01403912 4280917049
-0.019783363 0.022729319 -0.015091982 4280851769
-0.017810605 0.022106502 -0.014770946 4280590904
-0.015832357 0.021484137 -0.014450923 4280786234
-0.013717234 0.02012153 -0.013446573 4280785978
-0.011323124 0.017278641 -0.011074625 4281176638
-0.0089074746 0.014437228 -0.0087068677 4281177149
-0.0067491531 0.013077684 -0.0077107549 4281896249
-0.0048642308 0.013199016 -0.008083174 4282812973
-0.002544865 0.011100963 -0.0064074621 4284707369
-0.037951984 0.0020406097 0.0044064601 4282217039
-0.037296869 0.011848174 -0.0049501043 4281175874
-0.036116347 0.017181754 -0.010152362 4280719423
-0.034565888 0.01953391 -0.012588887 4280263993
-0.033031307 0.021885198 -0.015022237 4281045823
-0.031298295 0.022746693 -0.016075341 4281306944
-0.029241011 0.021375176 -0.015063481 4280916284
-0.026947863 0.018516243 -0.012678795 4280199479
-0.025093831 0.018634491 -0.013045935 4280851004
-0.023475349 0.020240352 -0.014785755 4280785469
-0.021626376 0.020358473 -0.015151745 4280850493
-0.01965405 0.019733325 -0.014832363 4281046589
-0.017550364 0.018365413 -0.013829205 4281111104
-0.015564404 0.0177413 -0.013512326 4281176129
-0.013572939 0.017117701 -0.013196489 4281306178
-0.011308186 0.015009098 -0.011515219 4281437249
-0.0088907033 0.012159124 -0.0091544501 4281305414
-0.0064516813 0.0093106106 -0.0067978152 4281501253
-0.0045588613 0.0094324425 -0.0071717971 4282287674
-0.0020874925 0.0065862387 -0.0048213699 4284247859
-0.037322797 -0.0055001974 0.0087732505 4281890638
-0.037221916 0.0088209435 -0.0047007021 4281500744
-0.036430813 0.017158642 -0.012646601 4280457794
-0.034885325 0.019517027 -0.015077272 4279611449
-0.033355698 0.021874465 -0.017504683 4280003129
-0.031521022 0.021991141 -0.017868245 4280003384
-0.029576525 0.0213615 -0.017545411 4279611958
-0.027289532 0.018493444 -0.015166091 4280263483
-0.025210992 0.017119125 -0.014161585 4280784958
-0.023356937 0.017237462 -0.014528662 4280981053
-0.021262035 0.015864335 -0.013527201 4281045824
-0.019279324 0.015237652 -0.013211539 4280654908
-0.0171654 0.01386603 -0.012213701 4280915009
-0.015169032 0.013240397 -0.011900533 4280915008
-0.01316718 0.012615271 -0.011588406 4280980289
-0.011026114 0.011245705 -0.010595698 4281045059
-0.0086014047 0.0083874315 -0.0082428958 4281174598
-0.0061551705 0.0055306703 -0.0058942689 4281239623
-0.0041126944 0.0049086139 -0.0055898214 4282418998
-0.001920335 0.0035427511 -0.0046068737 4284378673
-0.036789685 -0.012326017 0.012426516 4281890384
-0.036859244 0.0035367757 -0.0023953272 4281957703
-0.036448188 0.014896624 -0.013073634 4281763649
-0.035204031 0.019509129 -0.017558973 4280458814
-0.03378351 0.022621766 -0.020666329 4280458558
-0.031743355 0.02124026 -0.019657712 4280393788
-0.029801838 0.020608231 -0.019335948 4280654398
-0.02729401 0.016234308 -0.015594129 4280849729
-0.025098428 0.014107421 -0.013909638 4280980289
-0.023004144 0.012729831 -0.012911469 4281110339
-0.02065865 0.0098570958 -0.010550095 4280914754
-0.01866018 0.0092292428 -0.010239199 4280848963
-0.016530678 0.007854186 -0.0092477072 4281175109
-0.014646769 0.0079748482 -0.009620389 4281370948
-0.012631841 0.007348381 -0.00931249 4281370693
-0.010611437 0.0067223608 -0.0090056043 4281370694
-0.0085855648 0.0060968176 -0.0086997114 4281304138
-0.0061374791 0.0032314435 -0.006358034 4281173324
-0.0039510503 0.0018607304 -0.0053772805 4281696073
-0.0018980913 0.0012372732 -0.0050764726 4284443698
-0.036018468 -0.005527392 0.0033231191 4281890129
-0.035874143 0.0081214309 -0.0093921237 4281303883
-0.03491427 0.015002236 -0.015925707 4280979524
-0.033482514 0.018124267 -0.019028731 4280784703
-0.03153877 0.017490074 -0.018709138 4281109828
-0.029589526 0.016856343 -0.01839057 4281109573
-0.027186796 0.013220429 -0.01534258 4281109829
-0.024871841 0.010336816 -0.012981897 4280979013
-0.022652663 0.008205004 -0.011306942 4280849219
-0.020417288 0.0060743168 -0.009635115 4280848964
-0.0184111 0.0054447651 -0.009327407 4281175363
-0.016399413 0.004815653 -0.0090207038 4281240644
-0.014382266 0.0041870251 -0.0087149935 4281501508
-0.012228891 0.0028093532 -0.0077313622 4281370949
-0.010198094 0.0021818131 -0.0074281814 4281435719
-0.0081618354 0.0015547574 -0.0071259858 4281305414
-0.0059813485 0.00017916411 -0.0061474601 4281435719
-0.0040728971 0.00030197203 -0.0065245526 4281696838
-0.002020251 -0.00032369047 -0.0062253298 4284574514
-0.035372563 -0.013127171 0.0076411753 4281890383
-0.03540086 0.0020696595 -0.0064166179 4281890383
-0.034524679 0.0097246319 -0.013622001 4281763394
-0.0331828 0.013609581 -0.017403794 4281307199
-0.031122193 0.012220666 -0.016405892 4280980033
-0.029159874 0.011585578 -0.016091559 4280849474
-0.026968382 0.0094452277 -0.014416227 4280718658
-0.024875201 0.0080586821 -0.013424477 4280979269
-0.022536837 0.0051679984 -0.01107498 4281109828
-0.020536438 0.0045357123 -0.010767828 4281240644
-0.01840803 0.0031518042 -0.0097828405 4281370949
-0.016393982 0.002520673 -0.0094782533 4281370948
-0.014246583 0.0011381209 -0.0084968293 4281371204
-0.012088351 -0.00024354458 -0.0075174863 4281370693
-0.01005251 -0.00087293983 -0.007216956 4281435463
-0.0080111995 -0.0015019253 -0.0069173793 4281566789
-0.0061030015 -0.0013792664 -0.0072945259 4281631813
-0.0041947067 -0.0012564883 -0.0076716072 4281958979
-0.0022863075 -0.001133576 -0.0080486108 4284705073
-0.034831256 -0.0047639608 -0.0027781574 4282281299
-0.034136713 0.0044254661 -0.011334179 4282282574
-0.032780752 0.0083221495 -0.015110582 4281698369
-0.03091985 0.0084404051 -0.015479401 4281306434
-0.028840825 0.0070484281 -0.014488345 4281240644
-0.02663929 0.0049021766 -0.01281995 4281240133
-0.024650216 0.0042668134 -0.01251241 4281305414
-0.022538625 0.0028771758 -0.011527527 4281370438
-0.020535864 0.0022429079 -0.011222533 4281370438
-0.01852762 0.0016090795 -0.010918551 4281305669
-0.016513877 0.00097574294 -0.01061556 4281370949
-0.014239252 -0.0011651739 -0.0089611188 4281371714
-0.012078814 -0.0025510713 -0.0079855137 4281435973
-0.010040626 -0.0031825528 -0.0076870597 4281370439
-0.0078612342 -0.0045669898 -0.0067150202 4281370183
-0.0060862415 -0.0036907196 -0.007767295 4281369419
-0.004175391 -0.0035677776 -0.0081448834 4281696328
-0.034754522 -0.0078375265 -0.0025641862 4282411858
-0.033851177 -0.00013738871 -0.0097421389 4282152269
-0.032587282 0.0045285746 -0.01419197 4281631304
-0.03061235 0.0038897768 -0.013883531 4281566789
-0.028631918 0.0032514483 -0.013576105 4281305668
-0.026534468 0.0018563867 -0.012591919 4281240133
-0.02454035 0.0012190938 -0.012287002 4281305414
-0.022540711 0.00058232248 -0.011983123 4281305414
-0.020535588 -5.3986907e-05 -0.011680249 4281174598
-0.018402793 -0.0014463589 -0.010702727 4281306179
-0.016384006 -0.0020816177 -0.010402353 4281110593
-0.014487274 -0.0019601956 -0.010777608 4281175874
-0.012590423 -0.0018386468 -0.011152796 4281174344
-0.010427691 -0.003228642 -0.01018085 4281238603
-0.0082541257 -0.0046178624 -0.0092109162 4281172558
-0.0060697608 -0.006006211 -0.008243056 4280779093
-0.034384564 -0.013200298 -0.00031996751 4282607188
-0.033768192 -0.0031972751 -0.0095193759 4282477903
-0.032498054 0.0014821216 -0.013960594 4281567298
-0.030730009 0.0023609102 -0.015009254 4281501764
-0.028641239 0.00096081197 -0.014026733 4281110083
-0.026430286 -0.0011979192 -0.012370083 4281109828
-0.024317123 -0.0025962293 -0.011392221 4281043528
-0.022309788 -0.0032347068 -0.011091521 4281174089
-0.020296939 -0.0038727671 -0.010791793 4281174344
-0.018278599 -0.0045103133 -0.010493107 4281043784
-0.016379476 -0.0043888614 -0.010868937 4280977483
-0.014862292 -0.0019921586 -0.013263697 4280647258
-0.033786274 -0.0055033565 -0.0099795088 4282347344
-0.032409482 -0.0015728027 -0.013735456 4281827398
-0.030530237 -0.0014534146 -0.014107944 4281501254
-0.028542377 -0.0020956919 -0.013805252 4281174599
-0.026326723 -0.0042606145 -0.012154507 4281044038
-0.023981057 -0.0071858317 -0.0098328106 4281240389
-0.021846823 -0.0085870922 -0.0088622887 4281304649
-0.02005925 -0.0077043101 -0.0099128149 4281107789
-0.018155046 -0.007582657 -0.010289744 4280845393
-0.033503778 -0.010106847 -0.0084174089 4282150738
-0.032218561 -0.0054004714 -0.012841966 4281369929
-0.030120187 -0.0068087801 -0.011868006 4281304649
-0.028010949 -0.0082163289 -0.010896076 4281304393
-0.025668919 -0.011150606 -0.0085803252 4281238858
-0.023191683 -0.014846951 -0.0055963332 4281433168
-0.021152861 -0.015487805 -0.0053051794 4281233758
-0.031309053 -0.014606118 -0.0072473763 4282152013
-0.029078968 -0.016783431 -0.0056094686 4281630794
-0.02672454 -0.01972574 -0.0033028324 4282022219
-0.024237752 -0.023432463 -0.00032902649 4282216784
-0.022064537 -0.024840042 0.00062705809 4281822298
-0.027830824 -0.028342731 0.0019555185 4282738258
0.032550536 -0.0083187521 0.035418339 4280766089
0.03890688 -0.019042753 0.042356592 4278734758
0.043433227 -0.028233245 0.050903566 4279521943
0.036908738 -0.013535202 0.034236982 4280637314
0.041216832 -0.022036418 0.042081181 4279390873
0.045780942 -0.0312526 0.050599378 4279260314
0.035658836 -0.010871179 0.028894056 4280833409
0.039004296 -0.015790999 0.033294465 4279129244
0.043728057 -0.02575922 0.042482555 4279260314
0.036795639 -0.009497121 0.024543468 4282145129
0.040913224 -0.017326668 0.031664673 4279718038
0.046448071 -0.030217297 0.043554377 4279455898
0.034590833 -0.003154695 0.015828125 4278273973
0.048794728 -0.033239894 0.043248087 4278863788
0.033331577 -0.00040538609 0.010551907 4279716253
0.05055391 -0.034087241 0.040897839 4279782808
0.030865844 -0.00067979842 0.0083974954 4282537318
0.032827087 -0.00055149198 0.0080115534 4280045203
0.035551682 -0.0033443868 0.010339901 4279192995
0.03926529 -0.0097865239 0.016054213 4278799528
0.043223307 -0.016955331 0.022436628 4278931109
0.048030388 -0.027039707 0.03151647 4278800548
0.052912451 -0.037119031 0.040581685 4279652504
0.030552872 -0.0015492886 0.0065406864 4281095548
0.032887265 -0.0028865933 0.0075102416 4278930853
0.035232358 -0.0042230114 0.0084777512 4278602923
0.041130804 -0.011286467 0.014462095 4278407594
0.045511078 -0.019939244 0.022173962 4278604453
0.050962538 -0.032246768 0.033247486 4278604453
0.030240282 -0.002414152 0.004687347 4280898944
0.03219587 -0.0022862256 0.0043025096 4279062178
0.034341939 -0.0028928667 0.0045930934 4278603688
0.037072867 -0.0057026297 0.006907132 4278604708
0.039629359 -0.0077765584 0.0085427687 4278670499
0.043988641 -0.016456872 0.016239082 4278670243
0.049418196 -0.028802812 0.027288927 4278932384
0.054531038 -0.039675042 0.036975637 4278342569
0.029743101 -0.0025371015 0.0021626917 4280177038
0.031880818 -0.0031465665 0.0024531898 4278866594
0.034214202 -0.0044924766 0.0034164195 4278866593
0.0365583 -0.0058376044 0.0043776743 4278997918
0.039108761 -0.0079184324 0.0060095857 4278604708
0.043460421 -0.016625315 0.013687635 4278343079
0.048680473 -0.028272673 0.024039639 4279128733
0.053782471 -0.039178222 0.033703778 4279194778
0.029616207 -0.0041298121 0.00099101709 4280046734
0.031941064 -0.0054807514 0.0019525439 4278867103
0.034086488 -0.0060917884 0.0022399724 4278670243
0.036622904 -0.0081801713 0.0038696267 4278735779
0.039175369 -0.010267392 0.0054962146 4279128734
0.043329284 -0.01826182 0.012483938 4279391129
0.048546374 -0.029944181 0.022810226 4279653269
0.053238511 -0.039406143 0.031111278 4280374408
0.030043162 -0.0079470575 0.0018342026 4279325848
0.032375567 -0.009301886 0.0027910061 4278997663
0.034528699 -0.0099145919 0.0030752681 4278735778
0.03687983 -0.011267953 0.0040285806 4278866593
0.039436966 -0.01336135 0.0056492719 4279194268
0.04339616 -0.020638749 0.011949381 4279325338
0.048211601 -0.030874796 0.020912619 4279587734
0.053101987 -0.041105777 0.02986123 4281553784
0.021564022 -0.0078232884 0.00018388033 4281357178
0.023513615 -0.0076962262 -0.0002001375 4279522708
0.026000462 -0.0098014921 0.0014289059 4279784083
0.028139889 -0.010417677 0.001713987 4279652758
0.030469105 -0.011777163 0.0026679891 4279063198
0.032621916 -0.012392178 0.0029505859 4279063198
0.034590293 -0.012263283 0.0025633308 4279325338
0.036943603 -0.013620839 0.0035129408 4279128733
0.039307594 -0.014977537 0.0044604833 4279128478
0.043264881 -0.022276819 0.010744529 4279194268
0.047877207 -0.031800732 0.019018522 4279390873
0.017202616 -0.0081746355 -0.0015620032 4281815923
0.019317523 -0.00879509 -0.0012741128 4279653779
0.021611355 -0.01016172 -0.00031679892 4279325594
0.023739699 -0.01078102 -3.1408155e-05 4278801314
0.02623124 -0.012892529 0.0015918235 4279194524
0.028375685 -0.01351054 0.0018742266 4279194268
0.03070976 -0.014874071 0.0028240453 4278931874
0.032680668 -0.014745131 0.002436209 4279128733
0.034841184 -0.015361696 0.0027157362 4279194268
0.037199333 -0.01672326 0.003661043 4279128733
0.03956819 -0.018084019 0.0046044015 4279062943
0.043331277 -0.024659723 0.010205654 4279259804
0.047943838 -0.034211852 0.018458199 4279194014
0.0086728036 -0.0072664395 -0.0038845092 4281423223
0.010605767 -0.0071412176 -0.0042658187 4280440198
0.012864128 -0.0085150227 -0.0033051856 4279915409
0.015133247 -0.009887971 -0.0023465569 4279391383
0.017581146 -0.012009367 -0.0007200432 4279260059
0.01970375 -0.012631476 -0.00043535652 4279325339
0.021658368 -0.012504205 -0.00082045468 4279062943
0.023789063 -0.013125531 -0.00053717243 4278669989
0.026103877 -0.014494941 0.00041295518 4279063199
0.0284294 -0.015863463 0.0013610302 4279063454
0.030581566 -0.016483068 0.0016404046 4279260569
0.032739084 -0.017102122 0.0019187881 4279456409
0.035091385 -0.018468499 0.0028618937 4279521943
0.037838634 -0.021329418 0.0051332884 4279325339
0.040412489 -0.02344133 0.0067359679 4279586969
0.04438471 -0.030783117 0.012984237 4279586713
0.048010148 -0.036627039 0.017894957 4279784338
0.0045313649 -0.0083419159 -0.0049543604 4281029504
0.006461367 -0.0082171559 -0.0053352825 4280178314
0.0083914474 -0.0080922544 -0.0057161227 4279456919
0.010481413 -0.008719191 -0.0054269768 4279195034
0.012739271 -0.010097362 -0.0044695213 4279128989
0.01517307 -0.012226328 -0.0028452505 4279129243
0.01762297 -0.01435408 -0.0012240976 4279128989
0.01974792 -0.014978193 -0.00094151194 4279194268
0.021358654 -0.013348676 -0.0026615602 4279063199
0.023486346 -0.013972372 -0.0023793359 4278538918
0.025797978 -0.015346326 -0.001431857 4279063454
0.028301556 -0.017469935 0.00017920416 4279194524
0.030821219 -0.019592442 0.001787222 4279195034
0.033356942 -0.021713734 0.0033921883 4279783829
0.036097996 -0.024583861 0.0056581483 4279980945
0.039052397 -0.028202295 0.0085835177 4279456409
0.041838925 -0.031069137 0.010840693 4280636039
0.045238759 -0.036182962 0.015081272 4281487993
-0.0020993538 -0.0065150708 -0.0083277542 4281555314
0.00010940805 -0.0079015568 -0.0073644146 4281030015
0.0021800026 -0.0085323751 -0.0070735142 4279981709
0.0042560473 -0.0091627017 -0.0067835785 4279260059
0.0063375197 -0.0097925812 -0.0064946525 4279391639
0.0082674436 -0.0096676871 -0.0068754517 4279194524
0.010676369 -0.011805043 -0.0052513932 4279063453
0.012939081 -0.013187252 -0.0042981771 4278801568
0.015377559 -0.015322454 -0.0026797659 4278932383
0.017496802 -0.015949234 -0.0023977875 4279063709
0.019621424 -0.016575545 -0.0021167891 4278801313
0.021578405 -0.016448162 -0.0025023753 4279128733
0.023886837 -0.017826796 -0.0015576491 4278800803
0.026562762 -0.020710394 0.00071417447 4279259804
0.029622242 -0.025097892 0.0043099397 4279784338
0.03216264 -0.027225554 0.0059089498 4280046734
0.034905516 -0.030104376 0.0081678871 4280898179
0.037480708 -0.032229438 0.0097602252 4282077554
-0.0083755255 -0.0061753914 -0.010357363 4279719569
-0.0061916523 -0.0075681359 -0.0093926992 4279457429
-0.0038562082 -0.0097176209 -0.0077597126 4279064218
-0.001791466 -0.010351256 -0.0074694869 4278998429
0.0004248172 -0.011741549 -0.0065109623 4278867358
0.0022055954 -0.010860093 -0.0075607453 4278408359
0.0041325539 -0.010735638 -0.0079411492 4278866339
0.0059054568 -0.0098544359 -0.0089892 4278735779
0.008143466 -0.011242844 -0.0080345795 4278866848
0.010392249 -0.012630478 -0.0070819599 4279129244
0.012813941 -0.014773361 -0.0054652886 4278736033
0.015086923 -0.016159177 -0.0045172581 4278866593
0.017538156 -0.018299878 -0.0029062154 4278735523
0.019835316 -0.019683868 -0.0019627558 4279062944
0.022143211 -0.021066971 -0.0010213491 4279456153
0.024637375 -0.02320455 0.00058155367 4279259293
0.027682252 -0.027606159 0.004170252 4279848598
0.030940164 -0.032760501 0.0084151719 4281027973
0.033684857 -0.03564804 0.010667084 4281946483
-0.012961127 -0.0041754246 -0.014103582 4279326359
-0.010934561 -0.0048142299 -0.013807792 4279128989
-0.0087673366 -0.0062125176 -0.012843218 4279128988
-0.0063135065 -0.0091297552 -0.010542123 4279128989
-0.0042598732 -0.0097663999 -0.010251449 4278866849
-0.0020575486 -0.011162132 -0.0092935078 4278997664
0.00030148774 -0.013316318 -0.007669956 4278932129
0.0022308826 -0.013191871 -0.008050967 4278801314
0.0040090829 -0.012308285 -0.0090985112 4278866593
0.0059359595 -0.012183733 -0.0094788186 4278473638
0.0083327815 -0.014335036 -0.0078623109 4278998174
0.010745712 -0.01648514 -0.0062489482 4278736288
0.012850814 -0.0171175 -0.0059676329 4278801568
0.015290618 -0.019265622 -0.0043593766 4278866593
0.017579205 -0.020654626 -0.0034175974 4279259803
0.020048533 -0.022800557 -0.0018149554 4279652503
0.02270665 -0.025702968 0.00044703321 4279914643
0.02556156 -0.029361263 0.0033667963 4282271099
-0.019703552 -0.012311935 -0.0083718617 4280508029
-0.018275492 -0.0091373101 -0.011434253 4280113289
-0.016619988 -0.0074897483 -0.013151694 4279522198
-0.014721014 -0.0073682144 -0.013527416 4279390873
-0.012692228 -0.0080091208 -0.01323384 4278931618
-0.010657959 -0.0086495355 -0.012941241 4279062689
-0.0084831938 -0.010051772 -0.011981426 4278603944
-0.006297607 -0.011453107 -0.011023676 4279063199
-0.0042416155 -0.012091793 -0.010735111 4279128734
-0.0021801777 -0.012730032 -0.01044748 4278801059
0.00032394007 -0.015652373 -0.0081626372 4278735779
0.0022558607 -0.015527755 -0.008544133 4278605218
0.0043389574 -0.016164184 -0.0082605453 4279063198
0.006119933 -0.015278116 -0.0093069002 4278932128
0.0085214227 -0.01743561 -0.0076962942 4279259549
0.010779921 -0.018831313 -0.0067521641 4279980178
0.013049163 -0.020226158 -0.0058101015 4280306833
0.01549365 -0.022380523 -0.004207646 4281420163
-0.020461231 -0.022418827 -0.0017703188 4280768639
-0.019467995 -0.016171336 -0.0075133229 4280178313
-0.018274382 -0.011456959 -0.011909286 4279784594
-0.016740188 -0.0090397522 -0.014292754 4279325084
-0.014587663 -0.010448076 -0.013332136 4279062688
-0.012683354 -0.01032608 -0.013708826 4278997409
-0.010514535 -0.011733167 -0.012751209 4278800804
-0.0083348975 -0.013139382 -0.011795679 4278997154
-0.0062820092 -0.013780557 -0.011508236 4278800548
-0.0043638945 -0.013657212 -0.011887303 4278866084
-0.0023027845 -0.014297642 -0.011601254 4278997153
5.492568e-05 -0.016464993 -0.0099873142 4279063199
0.0024287738 -0.018631205 -0.008376413 4279194524
0.004667826 -0.02003286 -0.0074320594 4279914899
0.0069176629 -0.021433711 -0.0064896876 4280111248
0.0091782585 -0.02283372 -0.0055493913 4280110739
0.011449628 -0.024232946 -0.0046110949 4283054968
-0.020119883 -0.027076706 -0.00026385277 4281882223
-0.019589387 -0.017740637 -0.0086686695 4280308363
-0.018394902 -0.013013221 -0.013054991 4279849363
-0.016860358 -0.01058948 -0.015433613 4279193503
-0.014834993 -0.011235081 -0.015142739 4278866083
-0.012674794 -0.012647182 -0.014186794 4278800804
-0.010371752 -0.01482518 -0.012567433 4278997408
-0.0081872568 -0.016235471 -0.011616103 4278800549
-0.0061293431 -0.016878501 -0.011331305 4279128478
-0.0042060278 -0.016754836 -0.011711404 4279193504
-0.0021398813 -0.017397083 -0.011428032 4279586968
0.00022251159 -0.019570678 -0.0098198885 4280896138
0.0026010424 -0.021743074 -0.0082148891 4281878654
-0.019473776 -0.02084928 -0.0084907655 4280832134
-0.018151909 -0.016878024 -0.012202444 4279783828
-0.016732819 -0.013677828 -0.015243318 4278801314
-0.014575899 -0.015094616 -0.014290093 4278539173
-0.01240816 -0.016510516 -0.013338955 4278931874
-0.01009775 -0.018694609 -0.011725934 4279128224
-0.0079057291 -0.02010873 -0.010779423 4279259038
-0.0058401041 -0.020753488 -0.010497747 4279521178
-0.0037690327 -0.021397732 -0.010217099 4280307344
-0.0014074072 -0.02357801 -0.0086138826 4280765069
0.00082514435 -0.024989054 -0.0076749451 4282989433
-0.019358791 -0.023966372 -0.0083189998 4281618299
-0.018151887 -0.019212075 -0.012688156 4279521689
-0.016358562 -0.018317893 -0.013731439 4278801059
-0.014191441 -0.019738384 -0.012783522 4278932129
-0.011884496 -0.021929294 -0.011174878 4278866593
-0.0096930563 -0.023347966 -0.010231575 4279586969
-0.0073564574 -0.025536709 -0.0086286012 4279849364
-0.0052777827 -0.026182815 -0.0083511639 4279651484
-0.017789677 -0.023872159 -0.011188427 4279850383
-0.015985638 -0.022975147 -0.012232197 4279194524
-0.013682134 -0.025172971 -0.010627845 4280766854
-0.011491321 -0.026596114 -0.0096878503 4282403188
-0.01754944 -0.027773261 -0.010362541 4282143344
-0.015737362 -0.026873581 -0.01140626 4281750389
-0.013426512 -0.029077396 -0.0098083299 4282732649
0.0032758974 -0.035082772 -0.01973306 4283059559
-0.0019541942 -0.03688477 -0.027469113 4282732393
0.013736419 0.013057902 0.030652832 4285426213
0.016695734 0.0089505762 0.03448486 4285688353
0.010117602 0.0090565234 0.032353062 4284900913
0.010682836 0.015561566 0.025632843 4285558049
0.012163423 0.017813712 0.02313791 4285820444
0.014770906 0.01510793 0.025560876 4285820189
0.018561553 0.0074478835 0.032890584 4285951258
0.0021898299 0.0062063336 0.033429299 4285163308
0.0038843751 0.00775747 0.031629339 4285361189
0.0051192194 0.011441596 0.027722223 4285427489
0.0069368668 0.012279972 0.026630821 4285427998
0.008284077 0.015250698 0.023434341 4285821209
0.0096099302 0.018220149 0.020242153 4285623838
0.011074834 0.020477779 0.017755298 4285557794
0.0135023 0.018472515 0.019474482 4285623583
0.016940601 0.012207426 0.02539028 4285689374
0.021606423 0.00097563118 0.036192585 4285623583
-0.0042739064 0.01646246 0.021055652 4285492769
-0.0023312494 0.01658763 0.020671908 4285754653
4.4032931e-05 0.014571667 0.022395933 4285885979
0.0021417961 0.01398401 0.022712747 4285755163
0.0040955134 0.014110193 0.02232706 4285559068
0.0057449304 0.015662923 0.020539496 4285559069
0.0075385794 0.016502067 0.019454505 4285690139
0.0088542774 0.019479521 0.016270941 4285887253
0.010469086 0.021030374 0.014490403 4285820954
0.012562018 0.020443022 0.01480864 4285755163
0.015654013 0.01558198 0.019315923 4285821209
0.019625016 0.0071626455 0.027304858 4285820954
0.024173319 -0.0033884719 0.037373085 4285624093
-0.008149609 0.013906479 0.021356491 4285098793
-0.0067484528 0.016897343 0.01816201 4285427234
-0.005229976 0.019170702 0.015673766 4285689119
-0.0033035316 0.019294798 0.015293218 4285689118
-0.0010889694 0.017987162 0.016314598 4285820954
0.001429759 0.015248783 0.018734803 4285755418
0.0032232702 0.016089819 0.017651351 4285690139
0.0048594959 0.017646044 0.015869675 4285558558
0.0064850822 0.019201711 0.014090123 4285624349
0.0082574263 0.020041704 0.013011098 4285689883
0.010024492 0.02088147 0.011933198 4285755929
0.012274511 0.019576855 0.012948135 4285690139
0.015031613 0.016129389 0.016051212 4285690139
0.017983686 0.011969417 0.019845249 4285558813
0.021309569 0.0063832253 0.025024373 4285558813
0.025372282 -0.0020561516 0.032975677 4285493279
-0.010740146 0.015066199 0.017761743 4285165604
-0.0092054754 0.017346904 0.015275067 4285427998
-0.0075509623 0.018908054 0.013492534 4285756184
-0.0056301206 0.019031674 0.013112998 4285492514
-0.0038502924 0.019873679 0.012033653 4285492513
-0.001500424 0.017842956 0.013752786 4285623584
0.00071913004 0.016531371 0.014769958 4285820954
0.0028003305 0.015938304 0.015086843 4285689884
0.0045832619 0.01678098 0.014007157 4285624348
0.0060518496 0.019058213 0.011534205 4285558558
0.007818874 0.019900091 0.010457836 4285558558
0.0097405091 0.02002459 0.010078767 4285624349
0.01214996 0.01799845 0.011786697 4285624349
0.014575548 0.015973464 0.013491526 4285624093
0.016681392 0.015382789 0.013804069 4285689883
0.019304503 0.012643397 0.016197801 4285755419
0.022295706 0.0084730983 0.019974411 4285689628
0.026199019 0.00072474778 0.027209762 4285558049
0.029268011 -0.0034402609 0.030971214 4285229864
-0.01012598 0.020097293 0.0099162683 4285493534
-0.0084873289 0.021661773 0.0081401523 4285756183
-0.0064443834 0.021063671 0.0084625725 4285887508
-0.0043959692 0.020465977 0.0087840315 4285755928
-0.0019111335 0.017707862 0.011197597 4285887253
0.00044890493 0.015671335 0.012909839 4285755928
0.0023781136 0.015795887 0.01252895 4285689884
0.0043074191 0.015920557 0.012148127 4285689883
0.0056193396 0.018923849 0.0089849252 4285559068
0.0078521892 0.017609105 0.0099965185 4285559068
0.0097763762 0.017733768 0.0096169505 4285559068
0.012512662 0.014263019 0.012707563 4285624603
0.014285292 0.015107706 0.011632008 4285689883
0.015884854 0.016670927 0.0098645706 4285886999
0.017814629 0.01679638 0.0094842184 4285951768
0.020610083 0.013329908 0.012563499 4285885979
0.023959801 0.0077105761 0.017711725 4285754398
0.027530907 0.0013761222 0.02354244 4285557794
0.030787947 -0.0035192966 0.027983051 4284966958
-0.010513335 0.019981518 0.0073699127 4285100068
-0.0088798106 0.021549962 0.0055981302 4285427998
-0.0068425387 0.020949274 0.0059199971 4285559068
-0.0046589859 0.019626409 0.0069375099 4285493278
-0.0023211278 0.017581776 0.0086491015 4285558814
-0.00011323392 0.016260669 0.0096619595 4285624094
0.001807794 0.016384676 0.0092826709 4285624094
0.0038804449 0.015786774 0.0095980037 4285624349
0.0056501403 0.016633034 0.0085242838 4285624348
0.0077283233 0.016035721 0.0088387001 4285558813
0.0098119266 0.015438884 0.0091520716 4285558813
0.012063194 0.014121249 0.010156868 4285624604
0.013500676 0.016409963 0.0077002444 4285755419
0.01508972 0.017976865 0.0059381709 4285755163
0.017178923 0.017380856 0.0062507824 4285689629
0.019792374 0.014623471 0.0086333044 4285952024
0.023129843 0.0089859068 0.013770776 4285952278
0.026331915 0.004071489 0.018210651 4285623584
0.029752504 -0.00156039 0.023331875 4285229864
-0.010767363 0.019149356 0.0055268579 4285038104
-0.009001039 0.019996777 0.0044549205 4285296929
-0.0068261251 0.018668853 0.005470742 4285559069
-0.0047809891 0.018066593 0.0057894872 4285624859
-0.0027303696 0.01746475 0.0061072693 4285624349
-0.00096627697 0.018312491 0.0050360491 4285624348
0.0009412244 0.018435605 0.0046594166 4285820953
0.0031515174 0.01711046 0.0056687114 4285886999
0.0053725988 0.015786156 0.0066759032 4285755418
0.0079178885 0.013014972 0.009064788 4285690139
0.0095284097 0.014587238 0.0073015601 4285558813
0.011452399 0.014711976 0.0069220946 4285558813
0.012717482 0.01773008 0.0037816078 4285887253
0.014630865 0.01785434 0.0034044017 4285689118
0.016204089 0.019424677 0.0016488158 4285623329
0.018803317 0.016657665 0.0040275683 4285623838
0.021599475 0.013169535 0.0070903129 4285689373
0.024778742 0.0082383752 0.011523152 4285493024
0.028357193 0.0018652529 0.017322859 4285098793
-0.0069477633 0.017111555 0.0043245279 4285493789
-0.0049029477 0.016507074 0.0046416693 4285559068
-0.0029957704 0.016629934 0.0042649307 4285624348
-0.0013801232 0.018206336 0.0025035613 4285755674
0.00022490695 0.019782193 0.00074431719 4285886744
0.0024240017 0.018451944 0.001752513 4285820953
0.0046338923 0.017122552 0.0027586133 4285952533
0.0073241629 0.013615869 0.0058334167 4285624348
0.0089268498 0.015191987 0.0040750131 4285624093
0.01051889 0.016767517 0.0023188037 4285558814
0.011771135 0.019793496 -0.00081256917 4285690393
0.013670981 0.01991687 -0.001187121 4285953044
0.015740804 0.01931522 -0.00087399175 4285887253
0.018161234 0.017264046 0.00081231864 4285887253
0.020773057 0.014489278 0.0031820405 4285886999
0.023584325 0.010991313 0.0062337141 4285624348
0.026964329 0.005321905 0.011336593 4285558559
0.030387238 -0.00034461915 0.016431151 4285296418
-0.0072069764 0.016283959 0.0024861936 4285297439
-0.0053054094 0.016406335 0.0021104682 4285493789
-0.0034037381 0.01652883 0.0017348062 4285624859
-0.0017932393 0.018109284 -2.2310298e-05 4285624349
-0.00019335747 0.019689113 -0.0017772126 4285558048
0.0019998997 0.018354155 -0.00077120913 4285557793
0.0042039528 0.017019972 0.00023278431 4285689628
0.0068878755 0.013501987 0.0033006109 4285689884
0.008644443 0.014354065 0.0022346042 4285624093
0.010072287 0.016661689 -0.00020544953 4285558813
0.011155333 0.02042374 -0.0040163449 4285558814
0.01338115 0.019091569 -0.0030162572 4285624093
0.015447989 0.018487498 -0.0027041486 4285624093
0.017865073 0.016429603 -0.0010221654 4285558813
0.020298284 0.014372841 0.00065678358 4285558814
0.023103178 0.010863595 0.0037014312 4285558813
0.026115352 0.0066295862 0.007424762 4285558814
0.029342856 0.001671277 0.011825217 4285427743
0.032050382 -0.0011055321 0.014169911 4285033003
-0.0059873834 0.017777547 -0.001794485 4285362464
-0.0039537698 0.017168082 -0.0014783551 4285493533
-0.0024965554 0.019483402 -0.0039197407 4285755928
-0.00075904652 0.020336024 -0.0049807313 4285689884
0.0011240393 0.020457625 -0.005352491 4285689883
0.0034677312 0.018387616 -0.0036615054 4285821973
0.0061399341 0.014857963 -0.00059961341 4285756183
0.0078858212 0.015711516 -0.0016618798 4285558813
0.0097879618 0.015834816 -0.0020370539 4285624603
0.011033274 0.01887776 -0.005153907 4285559069
0.013258602 0.017541185 -0.0041570305 4285493278
0.015664283 0.015475854 -0.0024777707 4285493278
0.018258337 0.012682334 -0.00011776015 4285559069
0.020873856 0.0098903179 0.0022381037 4285558559
0.0231556 0.0085578859 0.0032242178 4285492769
0.026169281 0.0043108538 0.0069374139 4285558814
0.028849158 0.0015234351 0.0092808269 4285492768
-0.006528005 0.018432952 -0.0049977633 4285100323
-0.0047879666 0.019287646 -0.0060577407 4285428254
-0.0031984709 0.020875379 -0.007804112 4285624093
-0.0016196035 0.02246258 -0.0095483484 4285690393
0.0007019192 0.020384468 -0.0078580249 4285690394
0.0031929202 0.017574757 -0.0054848772 4285624604
0.0057054311 0.014766537 -0.0031158943 4285558559
0.0077633783 0.014157109 -0.002805721 4285558814
0.0098267421 0.013548151 -0.0024965275 4285559068
0.011567436 0.014403768 -0.0035559591 4285624859
0.013969731 0.012331568 -0.0018810594 4285690394
0.016218737 0.010992289 -0.00089205452 4285690393
0.018650588 0.0089222342 0.00077719381 4285689628
0.020923778 0.0075847581 0.0017616111 4285491749
0.02338516 0.005516842 0.0034252042 4285426468
0.026402995 0.0012570694 0.0071276804 4285492259
0.028904606 -0.00080797076 0.008783536 4285361188
-0.0070675462 0.019101746 -0.0081911236 4284972313
-0.0053355135 0.019958079 -0.0092478842 4285231393
-0.0036087334 0.020814233 -0.010303566 4285559069
-0.0017393976 0.020934813 -0.010672713 4285559069
0.00058147311 0.018850118 -0.0089872051 4285493278
0.0029184967 0.016766571 -0.0073048025 4285559069
0.0055833347 0.013214633 -0.0042579249 4285624859
0.0077994876 0.011868402 -0.0032660721 4285558559
0.010026418 0.010522932 -0.0022762329 4285624094
0.012264121 0.0091783255 -0.0012884648 4285558303
0.014679149 0.0071003959 0.00037897495 4285492513
0.016771827 0.0064915121 0.00068101054 4285426469
0.018869907 0.0058830753 0.00098204892 4285492003
0.02114797 0.0045415089 0.0019622566 4285492003
0.023791306 0.0017340407 0.0042995205 4285426214
0.026456103 -0.0010719597 0.006632688 4285360423
0.028777089 -0.0024103597 0.0076047112 4285229354
-0.003293477 0.017073773 -0.0093748122 4285362208
-0.0014162511 0.017194852 -0.0097455271 4285493278
0.0010623112 0.014366776 -0.0073831901 4285427488
0.0032563955 0.013014518 -0.0063904617 4285493023
0.0059282742 0.0094521418 -0.0033531957 4285492513
0.008151982 0.0081019849 -0.0023660962 4285426468
0.010386452 0.0067526922 -0.0013810738 4285492258
0.012795411 0.0046677291 0.00028254581 4285492513
0.015220489 0.0025839284 0.0019430788 4285426723
0.017154507 0.0027095973 0.0015618494 4285492259
0.019432042 0.0013635755 0.0025387453 4285492259
0.021371491 0.0014898479 0.0021566367 4285426468
0.024019353 -0.0013260841 0.0044864682 4285361189
0.026508883 -0.0034050345 0.0061347191 4285360679
0.028649602 -0.0040124506 0.0064261076 4285098284
-0.00065171719 0.011223055 -0.0067813303 4285624858
0.0016919523 0.0091267452 -0.0051102084 4285690394
0.0037461258 0.0085102692 -0.0048044291 4285624348
0.0062722191 0.0056767911 -0.0024578653 4285492513
0.0086616464 0.0035837889 -0.00079550873 4285558304
0.010745492 0.0029695779 -0.00049532112 4285492258
0.012998287 0.001617223 0.00048288028 4285426468
0.015261851 0.000265643 0.0014590924 4285426469
0.017367288 -0.00034678727 0.0017552976 4285426469
0.019649684 -0.0016968697 0.0027279337 4285426469
0.021594338 -0.0015702546 0.0023447988 4285426469
0.024069794 -0.0036568344 0.0039908295 4285426979
0.026022539 -0.0035294443 0.0036062826 4285360933
0.028157573 -0.0041393638 0.0038971161 4284901423
-0.0001837723 0.0067090094 -0.005197328 4285492769
0.0020199753 0.0053484812 -0.0042131552 4285493024
0.0042345114 0.0039888173 -0.003231057 4285427234
0.0066151693 0.001888603 -0.0015719879 4285492259
0.0090119503 -0.0002104342 8.3929626e-05 4285361188
0.010942839 -8.53315e-05 -0.00029695337 4285360934
0.012873787 3.991276e-05 -0.00067774882 4285360933
0.015302896 -0.0020566955 0.00097211869 4285361189
0.017410688 -0.0026711747 0.001266208 4285361189
0.019866668 -0.0047658011 0.0029109493 4285360934
0.021642469 -0.0038987249 0.0018515293 4285360934
0.023766432 -0.0045117736 0.0021427129 4285295399
0.025716346 -0.0043845624 0.0017587324 4285033004
0.0001357235 0.0029218048 -0.0043049296 4285098793
0.0021972097 0.0023013279 -0.0040039765 4285361698
0.0042641386 0.001681298 -0.0037040201 4285426979
0.0064916611 0.00031818449 -0.0027276457 4285426979
0.0088877864 -0.0017874017 -0.001076519 4285360933
0.010818526 -0.0016623139 -0.0014573815 4285361189
0.012586139 -0.00079409778 -0.0025139297 4285361189
0.015011907 -0.0028974488 -0.00086833118 4285361188
0.017285239 -0.0042569488 9.9424506e-05 4285360933
0.019569334 -0.0056156665 0.0010651834 4285294888
0.021516375 -0.0054889098 0.00068156794 4285295144
0.00030726567 -0.00013193488 -0.0040993295 4285098793
0.002373796 -0.00075427443 -0.0038010231 4285361189
0.0045980699 -0.0021220893 -0.002827398 4285361188
0.0066781491 -0.0027433112 -0.0025315802 4285426468
0.0087636523 -0.0033640712 -0.0022367495 4285360678
0.010694243 -0.0032389909 -0.0026175822 4285294888
0.012624897 -0.0031137913 -0.0029983367 4285098284
0.014886983 -0.0044785514 -0.0020317172 4284966703
0.00018460676 -0.0016972944 -0.0052513829 4285229609
0.0024002828 -0.0030701384 -0.0042794379 4285426468
0.004626736 -0.0044421107 -0.00330957 4285360934
0.006399557 -0.0035695881 -0.0043641473 4285295143
0.0084820613 -0.0041927174 -0.0040703709 4285163819
0.010409832 -0.0040678382 -0.0044506597 4284966449
6.2000006e-05 -0.0032623559 -0.0064032204 4285163819
0.0024264604 -0.0053900033 -0.0047608875 4285097773
