# .PCD v0.7 - Point Cloud Data file format
VERSION 0.7
FIELDS x y z rgba
SIZE 4 4 4 4
TYPE F F F U
COUNT 1 1 1 1
WIDTH 712
HEIGHT 1
VIEWPOINT 0 0 0 1 0 0 0
POINTS 712
DATA ascii
-0.00065979362 0.0039817467 0.058417737 4281496409
-0.00058493391 0.011563048 0.049946956 4281306943
0.00070003048 0.014414951 0.046569861 4279939378
0.0030670464 0.013216496 0.047548242 4280655418
0.0065639764 0.0079712495 0.05287084 4280198714
0.010292742 0.0020549297 0.058907256 4280655164
0.012726557 0.00086174905 0.059870109 4281568319
0.015560094 -0.0016784668 0.062275581 4281175618
0.017626349 -0.0015217885 0.06178838 4281306944
0.018493753 0.0026765913 0.056973398 4281175363
0.019329315 0.006872654 0.052165985 4280526644
0.02218443 0.0043343976 0.054566674 4279809584
0.026307687 -0.0022400916 0.061278977 4280395828
-0.0039755329 0.014475077 0.044149958 4281436994
-0.003233023 0.019367423 0.03860683 4280786743
-0.0016225874 0.020870928 0.03669307 4281632833
0.00089570135 0.018988512 0.038399346 4281632323
0.0034300387 0.017107397 0.040101901 4281175873
0.0065473877 0.013197728 0.043967418 4280654654
0.0089301616 0.011996299 0.044939015 4280980033
0.011129372 0.011471964 0.04518722 4280915008
0.012940042 0.012300238 0.043993436 4280850238
0.014146619 0.015155613 0.040641837 4280982329
0.015534259 0.01733391 0.038014367 4281504059
0.018545527 0.014107697 0.041138515 4281763904
0.022206243 0.0088579431 0.04641002 4280657713
0.02759161 -0.0017885938 0.057409286 4280006954
-0.0050026141 0.016210504 0.039348539 4281371969
-0.0039158128 0.019758061 0.035265919 4280068664
-0.0024938509 0.021944772 0.032634713 4279481398
-0.00017039105 0.02073415 0.03361683 4279416374
0.0023499429 0.018845342 0.035317797 4279676983
0.0052639022 0.015600145 0.038456332 4280523583
0.007438764 0.015071683 0.038708527 4280980544
0.0096190348 0.014543712 0.038959507 4280980544
0.011214435 0.016050979 0.037052989 4280850493
0.012599837 0.018235616 0.034430835 4279418158
0.014171448 0.019741267 0.032530066 4280656693
0.0169609 0.017180346 0.034933213 4280982328
0.020393863 0.012588851 0.039480187 4280590649
0.025544561 0.0025823712 0.049743608 4280590393
-0.0060276426 0.017968398 0.034563076 4281240899
-0.0047752969 0.020844158 0.031213075 4281110594
-0.0030022673 0.021673352 0.030031022 4280980289
-0.00050136074 0.019776348 0.031731613 4281045569
0.0020155907 0.017880686 0.033428442 4281110338
0.0047371909 0.015305221 0.03584066 4281045058
0.0067151822 0.015454963 0.03537409 4280980289
0.0083054677 0.016966149 0.033471949 4280980544
0.0098851845 0.018476665 0.031572316 4281045824
0.011454351 0.019986425 0.029675286 4280265014
0.013416708 0.020135369 0.029212687 4280265523
0.016197257 0.017564945 0.031611428 4280135218
0.01920633 0.014316574 0.034719884 4280199224
0.024760313 0.002916798 0.046390947 4280981053
0.032529876 -0.01526852 0.065175116 4280981053
-0.0060000643 0.015642986 0.034117386 4280980034
-0.0049221255 0.019211881 0.030053079 4281045314
-0.0029685907 0.019359384 0.029591996 4281175874
-0.00064881146 0.018139575 0.030568492 4281110594
0.0020531602 0.015553676 0.032978747 4281175618
0.0043997318 0.014336124 0.033949014 4281045313
0.0063749403 0.014485642 0.033483088 4281045569
0.0079628564 0.016001031 0.031584743 4280980799
0.0091474876 0.018881131 0.028257687 4281176639
0.010907978 0.019712225 0.027080692 4281242174
0.012663208 0.020543057 0.025904965 4281242174
0.015230533 0.018645208 0.027585566 4281241408
0.018434837 0.014703035 0.031401761 4280915518
0.024186943 0.0025832206 0.043760393 4281046079
0.032157943 -0.016344033 0.063215107 4281046079
-0.0067362711 0.0083578974 0.039171502 4281501253
-0.0066723824 0.016059458 0.030792542 4281046079
-0.0054239929 0.018952511 0.027456436 4278374954
-0.0034758896 0.019099578 0.026996613 4278635564
0.0019048415 0.013908282 0.031809516 4280655163
0.0044390745 0.01200074 0.03349255 4281111359
0.0062259845 0.012835734 0.032310724 4281046334
0.0078141838 0.014355533 0.030415542 4280981053
0.0086071789 0.018614348 0.025666717 4281111359
0.01016362 0.020131931 0.023779158 4280004150
0.012112446 0.020279828 0.023319736 4279547954
0.015081991 0.0170063 0.026421186 4278961199
0.018284973 0.01305078 0.030227937 4280916284
0.024033327 0.00089095533 0.042558175 4281111614
0.031786442 -0.017414778 0.06125848 4281111614
-0.0075734816 0.0094531551 0.035118908 4281501764
-0.0069940761 0.015112065 0.02891228 4280915263
-0.005747661 0.018013757 0.025583122 4280786234
-0.0038023368 0.018160578 0.025123931 4281307453
-0.0013088994 0.016243137 0.026811574 4279548464
0.0013859123 0.013639025 0.029210486 4280785978
0.0039141178 0.011724353 0.030890103 4281111613
0.0056958012 0.01256115 0.029711127 4281176638
0.0074722469 0.013397686 0.028533407 4280981308
0.0084596314 0.016982414 0.024507184 4281046078
0.0098177418 0.019191351 0.021910977 4278505259
0.011562508 0.020025779 0.020740956 4279287599
0.014525622 0.01674068 0.023835827 4278699569
0.018135138 0.0113988 0.029054295 4279222319
0.024298254 -0.0021732748 0.04277486 4280850749
0.032051109 -0.020538539 0.061431296 4280916539
-0.0089245662 0.012639888 0.02892955 4281435718
-0.0081878044 0.017624203 0.023455802 4279876649
-0.006602332 0.019151989 0.021567304 4281113144
-0.0046677515 0.019297991 0.021110635 4281699134
-0.0021856762 0.017373059 0.022796061 4281178678
0.0006827265 0.014069051 0.025904618 4280592434
0.0030144453 0.012837082 0.0268686 4281112378
0.0045951344 0.01436501 0.024981588 4281112123
0.0061652698 0.01589226 0.023097098 4281046588
0.0075291023 0.018108185 0.0205043 4280265014
0.0090754703 0.019633807 0.018625598 4281176894
0.011214495 0.019091915 0.018878352 4281762883
0.013970084 0.016484268 0.021256942 4281046844
0.017778952 0.010435633 0.027172484 4281177403
0.024144303 -0.0038694069 0.041569892 4281372989
0.031468175 -0.020918347 0.058769546 4281372989
-0.010101173 0.015164658 0.023477383 4281436483
-0.008681871 0.017390516 0.020875808 4281440054
-0.0071014576 0.018922355 0.018991686 4280725289
-0.0049926937 0.01837511 0.019249395 4280594983
-0.0026962534 0.017135844 0.020218279 4280920364
-0.00020414218 0.015205085 0.021896563 4281243958
0.0021164231 0.013967849 0.022859912 4281243449
0.0036867633 0.015499376 0.020978581 4281242939
0.0052465424 0.017030254 0.019099772 4281047099
0.0069913417 0.017868835 0.017932869 4279809839
0.0085326694 0.019398455 0.016058598 4280199733
0.010666054 0.018853929 0.016311049 4280786489
0.013211861 0.016927995 0.017977145 4280525878
0.01721701 0.010167949 0.024587229 4280787763
0.023781523 -0.0048746318 0.039658926 4280853044
0.030886078 -0.021288969 0.056114316 4280853044
-0.010932431 0.016325071 0.01947115 4282352699
-0.0095232874 0.018556785 0.016876776 4282353464
-0.0075997114 0.01870181 0.016422603 4282877744
-0.0054965988 0.01815195 0.016679954 4282813484
-0.0032059848 0.016907789 0.017647002 4282422060
-0.00090464205 0.01566457 0.01861155 4281962293
0.0014074296 0.014422253 0.019573636 4281765943
0.0029700696 0.015957601 0.01769736 4280785724
0.0045221671 0.017492238 0.015823644 4280916539
0.0062590502 0.018332455 0.014660179 4281178679
0.0081887133 0.01847874 0.014205159 4281244979
0.010319121 0.017931726 0.014456718 4281114929
0.012861546 0.015998907 0.016118731 4280983603
0.016449917 0.010602452 0.021303229 4280852023
0.022793269 -0.0037968457 0.035637598 4281112378
0.03030481 -0.021650389 0.05346556 4281112378
-0.011077091 0.014712282 0.018324886 4284444209
-0.009493582 0.016253017 0.016446423 4284575533
-0.0010503158 0.014047198 0.017462205 4283267128
0.0010740459 0.013497025 0.01771313 4282874428
0.0030139796 0.013643779 0.017255455 4282025534
0.0045690127 0.015183032 0.015384282 4281962039
0.0061134733 0.016721629 0.01351562 4282093364
0.0082408376 0.016172066 0.013766197 4283136313
0.010373566 0.015623055 0.014015534 4283529014
0.012917921 0.013683759 0.015672214 4282680883
0.016095653 0.0096601173 0.01943621 4281766199
0.022223527 -0.0040909648 0.033035073 4281701174
0.029724393 -0.022002645 0.050823368 4281568318
0.033912316 -0.039846435 0.044108644 4284638773
-0.017025366 0.00048645586 -0.01594249 4284639538
-0.015319876 0.0013648868 -0.017068552 4284705584
0.023362307 -0.040731333 0.017186467 4284704309
0.039928176 -0.042885788 0.031182621 4282668134
-0.021834277 -0.0059413984 -0.011620709 4282798694
-0.020916089 -0.001357913 -0.016166799 4281030523
-0.019205481 -0.00047713518 -0.017292632 4281553783
-0.017332576 -0.00033652782 -0.017735284 4282210153
-0.015629686 0.00054389238 -0.018859133 4282341479
-0.011888634 0.00082535297 -0.019742863 4279522709
-0.00983987 0.00022717565 -0.019505257 4279391894
-0.0077857077 -0.00037044287 -0.019268829 4279588754
-0.0059095323 -0.00022886693 -0.019711718 4279916428
-0.0042193383 0.00065129995 -0.020832045 4280834428
-0.0023456626 0.00079292804 -0.021274166 4281555314
-0.00028056651 0.00019661337 -0.021039966 4282079594
-0.022134073 -0.006774433 -0.013423146 4281290878
-0.021541402 -0.0006929636 -0.019322259 4278670243
-0.015939049 -0.00027239323 -0.020646358 4278337723
-0.014071375 -0.00013195723 -0.021087609 4278799273
-0.012028363 -0.00073285401 -0.020850345 4279194013
-0.01033571 0.00014932454 -0.021969905 4278998174
-0.0082872026 -0.00045095384 -0.021733783 4279063708
-0.0064164847 -0.00030978769 -0.02217539 4279063709
-0.0045456886 -0.00016850233 -0.022616919 4279128734
-0.00061272457 -0.00062586367 -0.022825118 4278732718
0.0014547408 -0.0012241006 -0.022593018 4278799529
0.003920503 -0.003301613 -0.021015186 4279980434
0.00719871 -0.0083365366 -0.016749829 4279718548
0.012935404 -0.022242486 -0.0044268863 4279850128
0.018772988 -0.036140598 0.0078723384 4280046734
0.02264066 -0.042640008 0.013438561 4281946738
-0.022751644 -0.0061129928 -0.01658345 4280438668
-0.02200374 -0.00075911731 -0.021788131 4278538665
-0.01844693 0.00026459247 -0.02334711 4279324063
-0.016248003 -0.0010839105 -0.022430275 4278471853
-0.012343083 -0.0015470684 -0.022634488 4278669733
-0.010653049 -0.0006628558 -0.023751862 4278473383
-0.0087878704 -0.00052224845 -0.024192259 4278473383
-0.0050572678 -0.00024065375 -0.02507285 4278800039
-0.0013263673 4.144758e-05 -0.025953146 4278271679
0.0037786439 -0.0048707053 -0.022130068 4278995368
0.0076520592 -0.012146853 -0.015861951 4278800803
0.01298961 -0.024610765 -0.0049119266 4278735778
0.018417425 -0.037067652 0.0060168831 4278735778
0.022073593 -0.042845912 0.010900256 4279588244
-0.023368008 -0.0054379627 -0.01973417 4279783574
-0.02060879 -0.0006769523 -0.02468634 4278406574
-0.01891911 0.00020889938 -0.025802325 4279455133
-0.016895555 -0.00039813668 -0.025563911 4279193249
-0.014866598 -0.0010046288 -0.025326662 4278406573
-0.012657389 -0.0023565292 -0.024415322 4278603434
-0.010792449 -0.0022160709 -0.024855763 4278800039
-0.0089274198 -0.0020754859 -0.025296133 4278996899
-0.0074278936 -0.00044417381 -0.027083281 4278537899
-0.0057534501 0.00044139475 -0.028195038 4278406574
-0.0040842444 0.0013266653 -0.029305488 4278995878
-0.0020387694 0.00072225183 -0.029071521 4278800804
0.0034407526 -0.0056952164 -0.023915045 4278668714
0.0075080805 -0.013737775 -0.016992293 4278997409
0.013043445 -0.026983172 -0.0053998912 4278801058
0.018062303 -0.037990041 0.0041648047 4278932129
0.021507382 -0.043042682 0.008368508 4280243593
-0.024300598 -0.0032507405 -0.024230231 4279718038
-0.022764519 -0.0016132519 -0.026023485 4278733993
-0.013320517 -0.0016650707 -0.027540226 4278734504
-0.010931812 -0.0037690029 -0.025959466 4278865829
-0.0094268136 -0.0021329895 -0.027744744 4278800039
-0.0077497475 -0.0012451783 -0.028855614 4278472109
-0.0045992173 0.0012767762 -0.031744022 4278537899
-0.0025593936 0.00066973269 -0.031510349 4278473128
-0.00012776628 -0.0014302507 -0.02993913 4278537899
0.0073641352 -0.0153284 -0.018122435 4278603944
0.012694575 -0.027867459 -0.0072257118 4278866338
0.01770762 -0.038907692 0.0023161005 4278997408
0.020941984 -0.043230258 0.0058432156 4280702083
-0.025050029 -0.010951787 -0.019478776 4282994279
-0.024755567 -0.0032957569 -0.026682589 4278670244
-0.023385741 -0.00090289861 -0.029146757 4278342058
-0.021376364 -0.0015156418 -0.028908409 4278538665
-0.019694515 -0.00062599033 -0.030019313 4278472619
-0.018017881 0.00026336312 -0.031128924 4278472874
-0.016174652 0.00040195137 -0.031564407 4278407339
-0.013982434 -0.00096002966 -0.030655541 4278472873
-0.011602413 -0.0030712187 -0.029077519 4278669734
-0.0097456388 -0.0029312819 -0.029515963 4278538408
-0.0082535855 -0.0012917295 -0.031294934 4278472618
0.0027662553 -0.0073300228 -0.027474973 4278276269
0.0070219003 -0.016170189 -0.019918874 4278735268
0.012547102 -0.029495336 -0.0083822701 4278669733
0.01735336 -0.039820574 0.00047077052 4278800803
-0.025345027 -0.01176323 -0.021266704 4283059558
-0.024893068 -0.0048391148 -0.027779784 4278866849
-0.023200817 -0.0039467141 -0.028891772 4278932894
-0.021186456 -0.0045613199 -0.028656173 4279391639
-0.019332975 -0.0044222325 -0.029094279 4279259803
-0.017648339 -0.0035300404 -0.030204199 4279456153
-0.015968889 -0.0026381537 -0.031312771 4279390874
-0.013946153 -0.0032516345 -0.031078849 4279128734
-0.011918008 -0.0038646013 -0.030846063 4279062944
-0.010064028 -0.0037248954 -0.031283848 4278800549
-0.0082099661 -0.0035850182 -0.031721551 4278997154
-0.0067255385 -0.0019415244 -0.0334954 4278931364
-0.0046891272 -0.0025533289 -0.033264238 4279193504
-0.0028375015 -0.0024132952 -0.033701111 4278800293
-0.00040737167 -0.0045265779 -0.032139245 4278931874
0.0024296604 -0.0081403852 -0.029249888 4278604454
0.0068782195 -0.017757975 -0.021047004 4278342313
0.01239967 -0.031122901 -0.0095386114 4278735524
0.016999535 -0.040728755 -0.0013712067 4278932129
-0.025328621 -0.014082313 -0.021704387 4283190374
-0.024556108 -0.00864999 -0.026858438 4280241300
-0.023177415 -0.006243363 -0.029314965 4278865828
-0.021160744 -0.0068599656 -0.029081583 4278669478
-0.017448671 -0.006581299 -0.029958926 4278276779
-0.015763856 -0.0056868419 -0.031067155 4278276779
-0.01373617 -0.0063021332 -0.030836023 4278276524
-0.010023285 -0.006022431 -0.031712838 4278276524
-0.0081667192 -0.0058823973 -0.032151144 4278604199
-0.0063100792 -0.0057422221 -0.032589372 4278735268
-0.0046406686 -0.0048481971 -0.033693425 4278735269
-0.0025965795 -0.005461514 -0.03346562 4278866338
-0.00035451353 -0.0068276227 -0.032574344 4279062943
0.0024840236 -0.010452285 -0.029693428 4278932384
0.0067345649 -0.019345477 -0.022174932 4278932384
0.012252264 -0.032750137 -0.010694733 4279063453
0.016849369 -0.042384714 -0.0025476795 4279063454
-0.024378218 -0.01171574 -0.026617486 4280438413
-0.022833206 -0.01006002 -0.0284 4278996898
-0.02097217 -0.0099205002 -0.02883999 4278604454
-0.019276917 -0.0090232939 -0.029949237 4278472873
-0.017418317 -0.0088837221 -0.030388474 4278473384
-0.015388414 -0.0095011666 -0.030159578 4278342314
-0.011312399 -0.010734528 -0.029705305 4278407594
-0.0058957897 -0.0095558539 -0.031692613 4278342569
-0.0023564398 -0.0085182115 -0.033236239 4278277034
0.0023429506 -0.012012981 -0.030802354 4278735523
0.0063932315 -0.020177521 -0.023964448 4278866594
0.011704132 -0.032867163 -0.013173064 4278735268
0.016496196 -0.043285578 -0.0043845354 4278342059
-0.024358839 -0.014029622 -0.027052287 4280438413
-0.02297131 -0.011609152 -0.029501271 4278931364
-0.020947382 -0.012229607 -0.029272839 4278800803
-0.019249432 -0.011330031 -0.030381132 4278669989
-0.017219968 -0.01194983 -0.03015383 4278735524
-0.015185095 -0.012569144 -0.029927686 4278407849
-0.012971185 -0.01394704 -0.029036876 4278604454
-0.011099175 -0.013806097 -0.029479016 4278604454
-0.0092270896 -0.013665028 -0.029921096 4278276524
-0.0073549002 -0.013523817 -0.03036309 4278473128
-0.005851157 -0.011865772 -0.032131772 4278669733
-0.0037972257 -0.012482852 -0.031909611 4278473128
-0.0021170415 -0.0115835 -0.033012886 4278604198
-5.767867e-05 -0.012199916 -0.032791819 4278735269
0.0023967698 -0.014330931 -0.03125019 4278932129
0.0064473562 -0.022519544 -0.024430119 4279259804
0.011357021 -0.033732228 -0.014985232 4279521944
0.015940648 -0.043424815 -0.006877 4281815158
-0.024182267 -0.017110191 -0.026821947 4279390874
-0.022628792 -0.015445128 -0.028599966 4278604453
-0.020760097 -0.01530505 -0.029041775 4278538918
-0.019056782 -0.014402889 -0.030149724 4278801058
-0.017022379 -0.015024513 -0.02992522 4278669988
-0.015153356 -0.014884032 -0.030366834 4278604453
-0.013110787 -0.015504807 -0.030144069 4278604453
-0.011062823 -0.016125046 -0.029922508 4278735523
-0.0091882274 -0.01598379 -0.030365169 4278407849
-0.0073135458 -0.0158424 -0.030807763 4278407849
-0.0058069043 -0.014179751 -0.032573897 4278604198
-0.0039373748 -0.014038496 -0.03301508 4278669733
-0.0020677932 -0.013897128 -0.033456206 4278604198
-6.1243773e-06 -0.014515564 -0.033237297 4278800804
0.0026449077 -0.017412789 -0.031041604 4278669734
0.0066984296 -0.025625266 -0.024240039 4278866338
0.011210296 -0.035351954 -0.016136004 4279128479
0.015183292 -0.04279571 -0.01002044 4282667623
0.022787943 -0.048413701 -0.0061706109 4282993769
-0.023849085 -0.020964108 -0.02593114 4279259803
-0.022447422 -0.018529445 -0.028373787 4278669988
-0.020573564 -0.018388979 -0.028816823 4278801058
-0.018699601 -0.018248409 -0.029259801 4278866593
-0.016657598 -0.018871672 -0.02903872 4278669988
-0.015121974 -0.017203093 -0.030808933 4278801058
-0.013077095 -0.017825864 -0.030588333 4278538663
-0.011378646 -0.016921394 -0.031693153 4278735268
-0.0091497377 -0.018306695 -0.030812185 4278342314
-0.0076349713 -0.016639173 -0.032577094 4278473384
-0.0059468709 -0.015735097 -0.033679198 4278538663
-0.004264012 -0.014831297 -0.03477997 4278604198
-0.0020189025 -0.016214855 -0.03390244 4278473128
-0.00014675409 -0.016073152 -0.034344062 4278735269
0.0026977919 -0.019741207 -0.031496882 4278931618
0.0065544993 -0.02721598 -0.025370251 4278997154
0.011263385 -0.037732922 -0.016630063 4278801058
0.024418395 -0.049160279 -0.0084722517 4282666604
-0.023359895 -0.025597945 -0.02438461 4280569483
-0.021787368 -0.023922674 -0.026160724 4279980178
-0.020062886 -0.023014665 -0.027270544 4278997663
-0.01817847 -0.022873312 -0.027716003 4279194268
-0.016293943 -0.022731803 -0.028161384 4279390873
-0.014579728 -0.021824203 -0.029268503 4279653014
-0.012697652 -0.021682642 -0.029713128 4279127968
-0.010815486 -0.021540947 -0.030157674 4279062689
-0.0087548792 -0.022164501 -0.029942229 4278800804
-0.0072319172 -0.020491987 -0.031705853 4278801059
-0.0055358335 -0.019585066 -0.032808267 4278604708
-0.0038449727 -0.018678471 -0.033909321 4278604198
-0.0017814189 -0.019301295 -0.033694193 4278472618
0.000287503 -0.01992362 -0.033480193 4278407084
0.0029445887 -0.022837944 -0.031298861 4278604198
0.0064105988 -0.028806403 -0.026500251 4278932128
0.010717392 -0.03782668 -0.019091809 4280569993
-0.021288887 -0.0285687 -0.02462589 4282272628
-0.019391485 -0.028426491 -0.025074504 4281945208
-0.017329045 -0.029052712 -0.024861567 4281747328
-0.015261211 -0.029678456 -0.024649765 4281550724
-0.013528403 -0.028767236 -0.025759719 4280700299
-0.011455059 -0.029392309 -0.025549036 4280438669
-0.0097273625 -0.028481223 -0.026657596 4279718038
-0.0078267045 -0.028338008 -0.027106408 4278866083
-0.0064684078 -0.025892533 -0.029528372 4279062943
-0.0045755506 -0.025749646 -0.029975161 4278866848
-0.0028687343 -0.024839662 -0.031078368 4278866849
-0.00097839162 -0.024696715 -0.031524379 4278669479
0.0007205829 -0.023787014 -0.032625578 4279193759
0.0033846684 -0.026709549 -0.030452345 4278997664
0.0066601746 -0.031928949 -0.026322067 4279259804
0.010770332 -0.040209286 -0.019587027 4280831879
-0.0053456202 -0.032853991 -0.026054004 4282469999
-0.030465029 -0.037895538 -0.022442607 4282929254
-0.034564652 -0.038989685 -0.023329111 4282470509
-0.0016428456 -0.045227893 -0.031148385 4282929254
-0.0093147531 -0.03940732 -0.037381217 4282667369
-0.0077440217 0.017095618 0.015281095 4285165858
-0.0056412295 0.016543515 0.015536885 4285165859
-0.011563793 0.014499865 0.015758343 4285493278
-0.0099853128 0.016044572 0.013884342 4285755673
-0.0082409792 0.016888961 0.012721854 4285820699
-0.0059648156 0.015634783 0.013685673 4285951768
-0.0034962371 0.013682261 0.015354781 4285886233
-0.0011959448 0.012430109 0.016313054 4285493279
0.0007411167 0.012576513 0.015855964 4285427999
0.0026782602 0.012723036 0.015398932 4285428253
0.004230909 0.014266498 0.013531559 4285493789
0.005772993 0.01580932 0.01166671 4285493278
0.0078973547 0.015257351 0.011916305 4285689628
0.010027111 0.014705859 0.012164761 4285820188
0.012973938 0.011364408 0.015222783 4285754908
0.015947394 0.0080251023 0.01827462 4285427489
0.022071118 -0.0057703629 0.031841978 4285361698
0.029355714 -0.023042738 0.048888516 4285165349
-0.012049623 0.014296599 0.013198356 4285624604
-0.010649696 0.016547374 0.010620712 4285558558
-0.0090894178 0.01809518 0.0087543083 4285492258
-0.0066455826 0.016134106 0.010424259 4285623584
-0.0043671727 0.014875725 0.011384399 4285754909
-0.0017097741 0.012215786 0.013753097 4285624093
0.00022184104 0.012361772 0.013297283 4285493533
0.0025324225 0.011106186 0.01425002 4285493788
0.0038932376 0.013354748 0.01168215 4285559579
0.0054329485 0.014901742 0.0098211514 4285689629
0.0073569193 0.015047565 0.0093674501 4285689119
0.0094810203 0.014493465 0.0096155563 4285754653
0.012421396 0.01114051 0.012666981 4285886489
0.016004559 0.0056907609 0.017813731 4285755419
0.022126786 -0.0081488714 0.031348974 4285623839
0.029198168 -0.024777293 0.047656283 4285427488
0.035116993 -0.037201613 0.05974181 4285427488
-0.012875907 0.015511423 0.0092306854 4285689883
-0.011312824 0.017063759 0.0073667308 4285820954
-0.0095842853 0.01791133 0.0062111942 4285623583
-0.0073250979 0.016646974 0.0071725352 4285754909
-0.0050551817 0.015383579 0.0081313876 4285821208
-0.0025906153 0.013417594 0.0097917439 4285690138
-0.00048317015 0.012859486 0.010041757 4285558813
0.0016296804 0.012301892 0.010290566 4285558813
0.0031722337 0.013853386 0.0084320465 4285690393
0.004704237 0.015404232 0.0065760529 4285887254
0.0066201016 0.015549429 0.0061242552 4285623838
0.0087359101 0.014992446 0.0063727302 4285558049
0.011869706 0.010925733 0.010117727 4285558304
0.015445814 0.0054578185 0.015253148 4285689884
0.021974243 -0.0098298788 0.030154742 4285755419
0.028830154 -0.025810048 0.04572656 4285624348
0.034529403 -0.037573315 0.057087392 4285558559
-0.014592603 0.012360133 0.009961118 4284901679
-0.01353009 0.016037591 0.0059813047 4285624859
-0.0118016 0.016887225 0.0048273047 4285821718
-0.0099025518 0.017030276 0.0043788319 4285952533
-0.0074681342 0.015055194 0.0060412837 4285886999
-0.0055608824 0.015199102 0.0055910451 4285755929
-0.0032860823 0.013931751 0.0065455539 4285624349
-0.0013733208 0.01407627 0.0060941586 4285558813
0.00072856992 0.013515629 0.0063439226 4285558813
0.0024524629 0.014365666 0.005191558 4285624603
0.0039767697 0.015920267 0.0033406531 4285953044
0.0058845356 0.016064845 0.002890761 4285821463
0.0081916936 0.014800601 0.0038381135 4285755928
0.01131884 0.010720149 0.007574928 4285755928
0.015092872 0.0045300052 0.013396365 4285886744
0.021198826 -0.0093989819 0.026870582 4285755418
0.028462579 -0.026838109 0.043800246 4285493023
0.034155607 -0.038639277 0.055134974 4285493024
-0.015238442 0.012889408 0.0067116627 4285427743
-0.014012791 0.015868433 0.0034455406 4285559069
-0.011943728 0.015302457 0.0037009539 4285624094
-0.0098692477 0.014737003 0.0039551621 4285558303
-0.0076111183 0.013463728 0.004910239 4285623839
-0.0055231303 0.012899503 0.0051614149 4285624349
-0.0034297295 0.012335785 0.005411393 4285558814
-0.0015170909 0.012480296 0.0049600219 4285559069
0.00020679086 0.013332404 0.0038091904 4285558813
0.0017339289 0.014891528 0.001960719 4285624349
0.0032505356 0.016449951 0.00011487585 4285624348
0.0055438168 0.015180133 0.0010621706 4285755419
0.0078478046 0.013911195 0.0020070737 4285689883
0.010768831 0.010523722 0.0050387057 4285558558
0.01453561 0.0043132082 0.010847242 4285624094
0.020632071 -0.0096605197 0.024291188 4285624094
0.028095443 -0.027861401 0.041877314 4285493023
0.033356734 -0.038289078 0.05179812 4285558558
-0.015380859 0.011298366 0.0055807652 4285493278
-0.014324568 0.014997318 0.0016186116 4285559068
-0.012431215 0.015139796 0.0011713738 4285820699
-0.010537725 0.015282415 0.00072420016 4285820954
-0.0077540502 0.011872537 0.0037793918 4285755418
-0.0056663901 0.011306077 0.0040290123 4285689884
-0.0033899993 0.010030009 0.004976633 4285624349
-0.0016608238 0.01088459 0.003826079 4285559323
-0.00012551248 0.012448587 0.0019788863 4285559069
0.0012079552 0.014721461 -0.00056308787 4285624349
0.0027195103 0.016283877 -0.0024045212 4285624093
0.0046137348 0.01642742 -0.0028512245 4285623838
0.0071058013 0.014444344 -0.001211551 4285624094
0.010219656 0.010336429 0.0025089718 4285624349
0.014388334 0.0026885569 0.0096930014 4285558814
0.020273402 -0.010621227 0.022411913 4285558814
0.027728742 -0.028879955 0.039957758 4285493279
0.032984212 -0.039341085 0.049855605 4285493278
-0.015857622 0.011134677 0.0030472307 4285493278
-0.014805779 0.014844291 -0.0009057736 4285624603
-0.012917861 0.014986344 -0.0013517365 4285952279
-0.011029817 0.015128531 -0.0017976416 4285952534
-0.0084303916 0.012419872 0.0005520666 4286083859
-0.0061705671 0.011138044 0.0015002685 4285821209
-0.003899999 0.0098570734 0.0024460517 4285624349
-0.0018045045 0.0092892125 0.0026923558 4285559069
-0.00026892871 0.010857612 0.00084833521 4285559068
0.00087390095 0.013848819 -0.0023846505 4285689883
0.0021893121 0.016127013 -0.0049174381 4285886999
0.0044709109 0.01484745 -0.0039738407 4285952788
0.0069622509 0.012857713 -0.0023388648 4285887253
0.0098730326 0.0094474405 0.00067895837 4285689629
0.014036711 0.0017749295 0.0078463564 4285493278
0.02053627 -0.013708703 0.022611991 4285493278
0.027781863 -0.031314358 0.039424311 4285427743
0.032399766 -0.039678186 0.047225688 4285230118
-0.01650051 0.011695854 -0.00017957482 4285558814
-0.015116498 0.013984822 -0.0027244305 4285558814
-0.01340365 0.014842011 -0.0038683042 4285492258
-0.011521053 0.014983751 -0.0043129446 4285557794
-0.0089278705 0.012265809 -0.0019682599 4285755164
-0.0068541542 0.011693865 -0.0017186115 4285689628
-0.004775025 0.01112242 -0.00147017 4285624348
-0.0028760731 0.011265844 -0.001918341 4285559069
-0.0011652708 0.01212351 -0.003061262 4285624859
0.00054029748 0.012980908 -0.0042028567 4285689884
0.0020470619 0.014551789 -0.006036724 4285755163
0.0041319057 0.01398135 -0.005789212 4285689374
0.0066198632 0.011984706 -0.0041582631 4285886744
0.0093253292 0.0092762634 -0.0018393379 4285821208
0.013685521 0.00086607039 0.006003038 4285624349
0.020177873 -0.014666565 0.020734735 4285624349
0.027625129 -0.033040345 0.038198154 4285427744
0.031604018 -0.039293811 0.043913186 4285230118
-0.01764258 0.014424562 -0.005491537 4285559069
-0.015935108 0.015283413 -0.0066326139 4285821718
-0.014232829 0.016141966 -0.0077723945 4285689629
-0.012011454 0.01484818 -0.0068217861 4285623838
-0.0096019283 0.012838103 -0.0051778583 4285821208
-0.0075365081 0.012263313 -0.0049278839 4285690139
-0.0056484081 0.01240579 -0.0053735892 4285558813
-0.0039455928 0.013264932 -0.0065130917 4285558813
-0.0020599775 0.013407446 -0.0069580479 4285690138
-0.00017426908 0.01355008 -0.0074029407 4285887254
0.0015181527 0.014408775 -0.0085397409 4285623838
0.0035973489 0.013835698 -0.0082925288 4285492258
0.0060792528 0.011831976 -0.0066650282 4285558048
0.0089797899 0.0083989128 -0.0036610104 4285623839
0.013334777 -3.8072467e-05 0.0041631246 4285624349
0.019819915 -0.015619658 0.018860854 4285624349
0.027259132 -0.034051239 0.036284033 4285558814
0.03102145 -0.039610296 0.041297905 4285295653
-0.019495308 0.011997737 -0.0054635215 4285229864
-0.018449001 0.015739754 -0.0093910312 4285427743
-0.016582839 0.015880026 -0.009831964 4285559069
-0.014888458 0.016740166 -0.01096828 4285624603
-0.012675565 0.015441284 -0.010018875 4285690394
-0.010274731 0.013423994 -0.0083778044 4285690393
-0.0080377348 0.012127139 -0.0074339337 4285559068
-0.0063376278 0.012988202 -0.0085713137 4285559324
-0.0048279092 0.014567703 -0.010399618 4285559069
-0.0029530413 0.014709391 -0.010842037 4285559069
-0.0010780916 0.014851198 -0.011284404 4285821973
0.00041062012 0.016429447 -0.013107506 4285821718
0.0022803955 0.01657109 -0.013548479 4285821209
0.0047456138 0.01455956 -0.011921945 4285821463
0.0080313161 0.009679012 -0.007544938 4285821208
0.012576915 0.00049722195 0.00095078535 4285689884
0.018843079 -0.014416508 0.014928502 4285558304
0.026684472 -0.034340419 0.033686575 4285558304
0.030227993 -0.039200872 0.038003191 4285295909
-0.020126596 0.012598075 -0.0086648576 4285164584
-0.018920988 0.015628159 -0.011887501 4285296419
-0.017060257 0.015767992 -0.012327173 4285295654
-0.015199408 0.015907943 -0.012766792 4285361699
-0.012989722 0.014604442 -0.011819932 4285427488
-0.010592267 0.012580238 -0.010182896 4285493535
-0.0083584636 0.011278771 -0.0092415716 4285493533
-0.0066609383 0.012141779 -0.010376683 4285493533
-0.0051536113 0.013725489 -0.012201187 4285493534
-0.0032815374 0.013866954 -0.012642966 4285559069
-0.0017899834 0.015449733 -0.014463631 4285493024
-0.00030897558 0.017031796 -0.016281668 4285558558
0.001357086 0.017892998 -0.017408937 4285624348
0.0038109422 0.015873991 -0.015784603 4285558814
0.0074863173 0.0095375851 -0.010042176 4285624349
0.012227435 -0.00039298087 -0.00087929796 4285624349
0.018692816 -0.016072862 0.013751769 4285493023
0.026319548 -0.035339609 0.031780761 4285493023
0.029647296 -0.039496779 0.035402536 4285230374
-0.020102449 0.010312818 -0.0090799443 4285229353
-0.018727332 0.012627333 -0.011603386 4285164329
-0.016861416 0.012767524 -0.012044304 4285163818
-0.014823869 0.012183614 -0.011792843 4285163818
-0.012955081 0.012324259 -0.012234272 4285098028
-0.010732539 0.011017419 -0.011293622 4285098029
-0.0086787492 0.010435097 -0.011045801 4285098028
-0.0066195503 0.0098533109 -0.010799173 4285229864
-0.0051093064 0.011441626 -0.012621132 4285361954
-0.003422156 0.012306258 -0.013752022 4285427743
-0.0017402396 0.013170607 -0.014881591 4285427488
-0.00025632232 0.014757328 -0.016697127 4285427489
0.0014124587 0.015620917 -0.017823424 4285493535
0.0036701746 0.014317654 -0.016890397 4285427998
0.006741453 0.010127254 -0.013218237 4285493278
0.011675023 -0.00055670738 -0.0033907192 4285493278
0.018542593 -0.017728887 0.012575266 4285427489
0.025955068 -0.036334038 0.029878337 4285427489
0.029067453 -0.039783522 0.032808464 4285099048
-0.019915283 0.0072964206 -0.0088054091 4285360424
-0.018368386 0.0088910833 -0.010633385 4285361444
-0.016494654 0.009031862 -0.011076154 4285558304
-0.014449485 0.0084463432 -0.01082818 4285492513
-0.012572862 0.0085875541 -0.011271467 4285492513
-0.010696135 0.0087288842 -0.011714699 4285492513
-0.0088193044 0.0088703483 -0.012157867 4285360933
-0.0067604482 0.0082863122 -0.011912789 4285426468
-0.004880771 0.0084282085 -0.012356471 4285426723
-0.0031882524 0.0092954412 -0.013487006 4285493023
-0.0016908608 0.010887399 -0.015302537 4285493025
-1.1462718e-05 0.011753872 -0.016429806 4285492769
0.0018578917 0.011895463 -0.016870702 4285492769
0.0039251745 0.011312753 -0.016627105 4285427488
0.0067998879 0.0078337193 -0.01364943 4285493024
0.011732966 -0.0028832853 -0.0038461154 4285690139
0.019009899 -0.021556012 0.013446688 4285690139
0.025799496 -0.038047299 0.028661206 4285690139
0.028910726 -0.041507877 0.031583503 4285098539
-0.018342204 0.0065999553 -0.011053393 4285492514
-0.016465962 0.0067408904 -0.011496775 4285558303
-0.014418475 0.0061533302 -0.011250982 4285624094
-0.012713104 0.0070231631 -0.012383359 4285558303
-0.010836519 0.007164456 -0.012826575 4285558049
-0.0091389045 0.0080339089 -0.013956966 4285492514
-0.0069013014 0.006719619 -0.013026195 4285558049
-0.0048373677 0.006133832 -0.012783816 4285558049
-0.0029550903 0.0062760338 -0.013228027 4285558304
-0.0012624487 0.0071456209 -0.014356943 4285558303
0.00061732531 0.0072878748 -0.014800388 4285558303
0.0024971589 0.0074302331 -0.015243769 4285623839
0.0045747273 0.0068460628 -0.015004171 4285624093
0.0070582852 0.0048096329 -0.013401337 4285624093
0.011993531 -0.0059402213 -0.0036227806 4285624094
0.019064769 -0.023944058 0.012946903 4285624094
0.025435686 -0.039034434 0.026763961 4285558048
-0.018316388 0.0043046772 -0.011476355 4285427233
-0.016605884 0.0051768348 -0.012608517 4285492768
-0.014729649 0.0053178743 -0.013051815 4285492769
-0.01285331 0.005459033 -0.013495063 4285558559
-0.010976858 0.0056003183 -0.013938248 4285426978
-0.0089214221 0.0050114915 -0.013695709 4285427233
-0.0070421249 0.0051532313 -0.01413939 4285361189
-0.0051627234 0.005295068 -0.014583027 4285426979
-0.0032832474 0.0054370537 -0.015026581 4285492258
-0.0012141801 0.0048496798 -0.014786864 4285426723
0.00066810474 0.00499212 -0.015230907 4285492768
0.0027452596 0.0044056252 -0.014992978 4285558048
0.0046303235 0.0045485124 -0.015437499 4285558049
0.0073159188 0.001776956 -0.013159275 4285492513
0.012456082 -0.0097340792 -0.0027255332 4285492258
0.019530131 -0.027792707 0.013803034 4285492258
0.025280382 -0.040744819 0.025548875 4285295144
-0.018290892 0.0020052493 -0.011902208 4285426978
-0.016745761 0.0036130697 -0.013720049 4285492513
-0.01504039 0.0044871271 -0.014849305 4285558559
-0.012993455 0.0038952231 -0.014606554 4285558559
-0.011117145 0.0040364861 -0.015049715 4285492768
-0.009240739 0.0041778609 -0.015492817 4285492514
-0.0073642284 0.0043193847 -0.015935848 4285426979
-0.0056716129 0.0051930621 -0.017061664 4285492514
-0.0037975907 0.0053346083 -0.017503951 4285492769
-0.001355581 0.0032813177 -0.015901344 4285426978
0.00071851164 0.0026922897 -0.015664399 4285558304
0.002603367 0.0028350055 -0.016108975 4285558304
0.0046855509 0.0022468343 -0.015873753 4285492513
0.0075727738 -0.001264222 -0.012923327 4285427234
0.012917478 -0.013540953 -0.0018374547 4285492514
0.019378638 -0.029462926 0.01261644 4285426723
0.024501467 -0.040264137 0.022302352 4285360679
-0.018430978 0.00043740124 -0.013016691 4285163819
-0.016717717 0.0013141558 -0.014146337 4285295653
-0.015180148 0.0029258654 -0.01595903 4285296164
-0.013306744 0.0030667707 -0.016401606 4285296163
-0.011433221 0.0032078102 -0.016844118 4285361188
-0.0092026442 0.0018796548 -0.015921516 4285360933
-0.0075047538 0.0027558133 -0.017047051 4285230374
-0.0054445118 0.0021631643 -0.016808731 4285230629
-0.0041246489 0.004507266 -0.019294173 4285426978
-0.0016860515 0.0024471655 -0.017695663 4285427744
0.00019329041 0.0025893599 -0.018139023 4285362208
0.0024615191 0.0012647137 -0.017224744 4285295909
0.004740417 -5.8956444e-05 -0.016312936 4285230374
0.0080285855 -0.0050470456 -0.012015904 4285231139
0.013175324 -0.016627885 -0.001635503 4285230374
0.019227179 -0.031132817 0.01143008 4285164584
-0.011748862 0.0023838505 -0.018635178 4285164074
-0.0096997619 0.0017879307 -0.018396014 4285032493
-0.0076452568 0.0011925399 -0.018158043 4284967723
-0.0055853501 0.00059766322 -0.017921261 4285098794
-0.0040787905 0.0022121146 -0.019722886 4285230374
-0.0020160712 0.0016176775 -0.019486599 4285296163
5.2012503e-05 0.0010237768 -0.019251488 4285296419
0.0023196973 -0.00030531734 -0.018340323 4285164583
0.004598055 -0.0016334057 -0.017431617 4285098794
0.0076851621 -0.0059017166 -0.01382148 4285164328
0.013028055 -0.01825323 -0.0027902685 4285164329
0.019075746 -0.032802403 0.01024394 4285098538
