# .PCD v0.7 - Point Cloud Data file format
VERSION 0.7
FIELDS x y z rgba
SIZE 4 4 4 4
TYPE F F F U
COUNT 1 1 1 1
WIDTH 975
HEIGHT 1
VIEWPOINT 0 0 0 1 0 0 0
POINTS 975
DATA ascii
0.0086879209 0.02377524 0.047559541 4290258463
0.010427993 0.024531566 0.046401389 4290258718
0.01216276 0.02528761 0.045244388 4289997088
0.014078189 0.025413034 0.044846088 4291240469
0.015993658 0.025538521 0.044447824 4290717209
0.018674485 0.023144096 0.047075398 4289539364
0.021764774 0.019491542 0.051210333 4289343269
0.026460733 0.01080404 0.061381329 4289539364
-0.0058335736 0.025092129 0.044672012 4288687408
-0.0042530186 0.026484549 0.042753674 4289865763
-0.002683077 0.027876377 0.040837541 4290454814
-0.00095668808 0.028633732 0.039683603 4290323744
0.0011038743 0.028123531 0.040049486 4290585373
0.0035146922 0.026346806 0.041931905 4290585629
0.0055914968 0.0258378 0.042294502 4290323489
0.0078514963 0.024696058 0.043413728 4290257953
0.0097613931 0.024820983 0.043016482 4289931299
0.011488214 0.025578761 0.041862663 4289800483
0.013209742 0.026336227 0.040710039 4290520093
0.014925949 0.027093407 0.039558575 4290912538
0.017401448 0.025321338 0.04142784 4290585629
0.020280711 0.022286281 0.044802465 4290650908
0.025151901 0.012934195 0.055709373 4290716444
-0.0065927021 0.026040733 0.040526222 4286856509
-0.0048610754 0.026800513 0.039372683 4287183929
-0.0029705018 0.026923787 0.03897918 4287380279
-0.0010798238 0.027047122 0.038585693 4287510838
0.00081094727 0.027170537 0.038192239 4288687918
0.0030462518 0.026022613 0.039313275 4289145643
0.0051174574 0.025510937 0.039675474 4289538088
0.0070164986 0.025635082 0.039280437 4290323234
0.0089155994 0.025759283 0.038885422 4289734949
0.010814764 0.025883561 0.038490444 4290062114
0.012528338 0.026642762 0.037341014 4289800483
0.014236607 0.027401648 0.036192775 4289669669
0.01632151 0.026891287 0.036552355 4289080873
0.019186428 0.023844071 0.039922044 4289669669
0.023648836 0.015725678 0.049303949 4289996323
0.032161221 -0.0050672963 0.073704906 4289800484
-0.0063984059 0.023174472 0.040943861 4288687664
-0.0049840137 0.025214152 0.038274899 4290323998
-0.0029294975 0.024698921 0.038638737 4290650653
-0.00086952746 0.024184112 0.039001495 4290650653
0.00085714832 0.024945971 0.037850689 4289080619
0.0029226542 0.024431642 0.038212381 4289145643
0.0046441369 0.025193296 0.037062749 4288426289
0.0065377392 0.025317064 0.036668822 4288426288
0.0086114965 0.024803478 0.037028942 4289211179
0.010690678 0.024290267 0.037388019 4288622894
0.012404356 0.025051706 0.036240153 4289015594
0.013924602 0.026449719 0.034341142 4288950058
0.016006567 0.025936935 0.034699738 4288688429
0.018867847 0.022878325 0.038062178 4288688429
0.023325223 0.014730496 0.047424488 4289014829
0.031630203 -0.0055005811 0.071024567 4289081129
-0.0062047616 0.020299464 0.04135536 4289015338
-0.0044622272 0.021064367 0.040202688 4289735713
-0.0023972616 0.020547554 0.040562741 4289801758
-0.00049335137 0.020671718 0.040166475 4290128924
0.0012414455 0.021436313 0.039015554 4290063134
0.0031428635 0.021560444 0.038619902 4290455323
0.0046952292 0.022964723 0.036717106 4290193184
0.0065914355 0.023088651 0.036322635 4290193184
0.008667618 0.022572931 0.036680687 4290258208
0.010749213 0.022057673 0.037037618 4290324253
0.012650944 0.022182159 0.036642138 4290586139
0.014176805 0.023585046 0.034745097 4290586139
0.016263884 0.023070306 0.035101071 4290389788
0.01893626 0.020639617 0.037704982 4289670178
0.023589933 0.011824112 0.047795642 4289604899
0.032291897 -0.0097554214 0.072841965 4289604899
-0.006011758 0.017415622 0.041760806 4288950824
-0.0045857728 0.019469418 0.039098945 4289277988
-0.0023573898 0.018307354 0.040211674 4289933339
-0.00045088306 0.018431656 0.039814848 4290260504
0.0012866855 0.019198656 0.038664937 4289998364
0.0030189902 0.019965384 0.037516166 4289932574
0.0047460161 0.020731825 0.036368534 4289866783
0.0068218708 0.020213811 0.036724962 4289670433
0.0089031532 0.019696219 0.03708031 4290324764
0.010807425 0.019820789 0.036684245 4289605154
0.012526654 0.020586997 0.035538431 4289867038
0.01424057 0.021352932 0.03439378 4290194714
0.016520515 0.02019494 0.035496287 4289998364
0.01919746 0.01775559 0.038092863 4289605409
0.024245564 0.0076272488 0.049655776 4289605409
-0.0059775524 0.0151686 0.04140633 4289016614
-0.0045484491 0.01722928 0.038748566 4289409313
-0.0026448108 0.017353304 0.038352273 4290064408
-0.00057489425 0.016832354 0.038708124 4290195479
0.0013316162 0.016956717 0.03831134 4290261014
0.0032382123 0.017081141 0.037914578 4290261014
0.0049706846 0.017850162 0.036767397 4289868314
0.0070516393 0.017330224 0.037121158 4289475614
0.0087788887 0.018099047 0.035975166 4289671964
0.010683075 0.018223599 0.035579104 4289737499
0.012587316 0.018348226 0.035183087 4289868314
0.014491595 0.018472936 0.034787118 4290130709
0.016776472 0.017310739 0.035885449 4289934359
0.019457981 0.014862798 0.038474683 4289999639
0.024508558 0.0046988092 0.050011672 4289148449
-0.0059436411 0.012917299 0.041048881 4288885799
-0.0046720691 0.015632484 0.037643533 4289932829
-0.0029318407 0.016403934 0.036496107 4289999128
-0.0008648634 0.015880551 0.03685097 4290457108
0.0013762452 0.014710438 0.037954811 4289933849
0.0032854341 0.014835019 0.037557501 4289738009
0.005194705 0.014959672 0.037160221 4289869079
0.0067506097 0.016377615 0.035266247 4289607193
0.0088340454 0.015855668 0.035617948 4289345308
0.010740828 0.015980378 0.035221342 4289869079
0.013017152 0.014813008 0.036318168 4289803544
0.014741957 0.015584115 0.035174426 4290130709
0.01703174 0.01441781 0.03626851 4289541659
0.019525047 0.01260671 0.038105465 4289410844
0.024575401 0.0024070069 0.049617011 4289344798
-0.006225612 0.011961821 0.039187077 4289346074
-0.0047956482 0.014035905 0.036538634 4289476888
-0.0030553266 0.014809582 0.035392772 4290457108
-0.0013202652 0.015582982 0.03424805 4290260758
0.0010835454 0.013758682 0.036098313 4290130708
0.0029899627 0.013883056 0.035701562 4289542423
0.0048964694 0.014007516 0.035304848 4289542423
0.006626498 0.014780885 0.034161381 4289477143
0.0087096728 0.014256671 0.034511533 4289477143
0.010980152 0.013084367 0.03560634 4290066193
0.013076823 0.012561185 0.035953794 4290065938
0.01499163 0.012686567 0.03555562 4289804309
0.016906478 0.012812015 0.035157487 4289804309
0.019784378 0.0096986089 0.038476694 4289673239
0.024837203 -0.00053672865 0.049962327 4289671964
-0.0068224408 0.012315696 0.035830211 4290001678
-0.0054000691 0.014395963 0.033188108 4290459658
-0.003504727 0.014519375 0.032793488 4289935634
-0.0017749369 0.015294652 0.031651437 4290000659
0.00062291324 0.013463195 0.033498205 4290394124
0.0025238842 0.013587203 0.033102576 4289478163
0.0047723055 0.012408789 0.034198571 4289085209
0.0065024234 0.013184376 0.033056665 4289281304
0.0085853264 0.012657892 0.03340527 4289412120
0.01049193 0.012782574 0.033008687 4289672983
0.012398575 0.012907334 0.032612152 4290000404
0.014492348 0.012381762 0.032958716 4290000659
0.016781244 0.011206444 0.034046616 4289607959
0.019658173 0.0080818012 0.037358068 4289673238
0.024708096 -0.0021894686 0.048818864 4289542168
-0.012696601 0.016603854 0.01405316 4289933593
-0.011319976 0.018721107 0.011449022 4289213473
-0.0094815269 0.018840594 0.011066093 4291372048
-0.0073191039 0.017629344 0.01216061 4290390299
-0.0049812682 0.015753603 0.013991131 4291241489
-0.0026272908 0.013878984 0.015818343 4289475868
-0.00059709325 0.013335338 0.016168151 4287579178
0.01095375 0.012738027 0.015309825 4289149214
0.013765901 0.009542048 0.018586995 4288364069
-0.014045808 0.020401839 0.0070714159 4289408803
-0.012690175 0.022524398 0.0044764001 4290193949
-0.010555062 0.021306764 0.0055733984 4290324509
-0.0084091537 0.020089954 0.0066681593 4290128158
-0.0059235618 0.017538918 0.0092339618 4290781978
-0.0037507042 0.016324032 0.010323235 4290782233
-0.0013972595 0.01444276 0.012145849 4289867038
0.00062736869 0.013896583 0.012495271 4289867804
0.0024822913 0.014017632 0.01210926 4289867804
0.0039816424 0.015472002 0.010255682 4289802013
0.0054703243 0.016925799 0.0084043378 4289540384
0.0076810569 0.015713863 0.0094861444 4290782744
0.010274224 0.013170531 0.012030046 4290717209
0.013077363 0.009962799 0.015301145 4290586393
0.01801054 -0.0005662702 0.026608098 4290717208
-0.016139269 0.019424709 0.005655311 4289145388
-0.015085086 0.022895064 0.0015892577 4289996069
-0.013901323 0.025693525 -0.0017344715 4289996833
-0.011944305 0.025140274 -0.0013728709 4288753964
-0.009658657 0.02324762 0.0004588966 4288884778
-0.0070283413 0.020016637 0.0037574396 4289997344
-0.0047050565 0.018126644 0.0055814483 4290324509
-0.0023656227 0.016237747 0.007402197 4290128158
-0.00035464391 0.01568844 0.0077528693 4289997599
0.0013118237 0.016477624 0.0066368394 4290193949
0.0027953573 0.017935414 0.0047897231 4290520603
0.0042682216 0.019392628 0.002944838 4289997344
0.0062794276 0.018843681 0.0032957101 4290323998
0.0086673796 0.016958473 0.005106735 4289408294
0.012013189 0.011733608 0.010564678 4290913304
0.017503163 -0.00083621591 0.024038065 4290847514
-0.017010413 0.0212621 0.0009170979 4288818224
-0.015815474 0.024070106 -0.0024026788 4290454048
-0.014641829 0.026876803 -0.0057179723 4290912538
-0.012695782 0.026320588 -0.0053556873 4290651164
-0.010582887 0.025092665 -0.0042604296 4290716444
-0.0076387338 0.020505611 0.00050018018 4290847513
-0.0054908656 0.019280137 0.0015882779 4290847514
-0.003162764 0.017383792 0.0034066117 4289800994
-0.0015069991 0.018174414 0.0022943313 4290128159
0.00031827018 0.018293504 0.0019144756 4289997343
0.001788646 0.019754918 7.3211653e-05 4290847513
0.0030682422 0.021886606 -0.0024958774 4290912538
0.0048802868 0.022005098 -0.0028727949 4289604389
0.0074343681 0.019441361 -0.00033346747 4288884778
0.010950789 0.013527092 0.0058438978 4289211944
0.016996499 -0.0010968857 0.021474378 4289604389
-0.017428182 0.021096915 -0.0016012553 4289144878
-0.016391225 0.024588417 -0.0056478777 4290061603
-0.014913224 0.026054036 -0.0074880118 4290454303
-0.012970138 0.025495376 -0.007126715 4290454814
-0.010699123 0.023588378 -0.0053015077 4290454814
-0.0080841184 0.020334024 -0.0020156258 4290389279
-0.0059420578 0.019103691 -0.00092950813 4290389789
-0.0039584748 0.018548017 -0.0005763949 4289997088
-0.0023133531 0.019340163 -0.0016848824 4289997089
-0.00067351386 0.020132044 -0.0027922124 4289931553
0.00078372657 0.021597048 -0.0046275761 4290323998
0.0024102964 0.02238825 -0.0057320124 4290978074
0.0040315501 0.023179185 -0.006835286 4290520093
0.0065741278 0.020605775 -0.0042999149 4290651164
0.010078155 0.014670605 0.001865729 4290258463
0.016109198 -3.3974648e-06 0.017464334 4290258463
-0.017995581 0.021618281 -0.0048464062 4289733418
-0.016812831 0.024443254 -0.0081509296 4290061604
-0.015184239 0.02523604 -0.009254829 4290062369
-0.013085708 0.023998095 -0.0081629734 4289669925
-0.010654245 0.021407694 -0.0056114127 4290193439
-0.0082012862 0.018818764 -0.0030642736 4290062369
-0.0063925125 0.018936481 -0.0034409098 4290193439
-0.0045836568 0.019054294 -0.0038174966 4289997089
-0.0031182766 0.020524114 -0.0056515057 4289669669
-0.0013146363 0.020641757 -0.0060268883 4289866020
-4.2304397e-05 0.022786291 -0.0085850628 4290193184
0.0015736222 0.023579016 -0.0096857045 4289996834
0.0035491921 0.023021024 -0.0093322024 4289342759
0.0062707663 0.019763166 -0.006075941 4289800483
0.009582594 0.014482561 -0.00064909522 4289865763
0.01579484 -0.00091587007 0.015641382 4289865763
0.037402287 -0.062034518 0.080713041 4289604389
-0.019168377 0.016599616 -0.0018520785 4286725184
-0.018411689 0.021473732 -0.0073504206 4289406764
-0.017386585 0.024986722 -0.01137873 4289865763
-0.015610404 0.025101941 -0.011748848 4290323999
-0.013517685 0.023859182 -0.010659014 4290193184
-0.010770578 0.01990165 -0.0066537117 4290454814
-0.0083184205 0.017303746 -0.0041127577 4290193184
-0.0066760071 0.018100005 -0.005217704 4289931299
-0.005207777 0.019574307 -0.0070491703 4289407783
-0.0035785772 0.020369848 -0.0081511885 4289931299
-0.0017804019 0.020487137 -0.008525433 4289800484
-0.00015911832 0.021282382 -0.0096257217 4289996834
0.0014568754 0.022077328 -0.010724802 4289669925
0.0036144704 0.020839568 -0.0096478481 4289277223
0.0063377209 0.01757071 -0.0063999188 4289211944
0.0094630755 0.012949459 -0.0017098439 4290062369
0.015671182 -0.0025005303 0.01454499 4290062369
0.037066773 -0.063146591 0.078753404 4289080873
-0.019726843 0.017130986 -0.0050923768 4286986814
-0.018827058 0.021338407 -0.0098480582 4289538088
-0.01765386 0.024180578 -0.013137988 4290454303
-0.016035825 0.024977058 -0.014236496 4290912538
-0.013948914 0.023729442 -0.013148641 4290847259
-0.011529751 0.02112036 -0.010607241 4290912538
-0.0092525035 0.019193746 -0.0087975832 4290389278
-0.0072912462 0.018629747 -0.0084446371 4289538853
-0.0054933131 0.018746812 -0.0088189766 4289538853
-0.0038667433 0.019544441 -0.0099189151 4289996834
-0.0020713471 0.019661535 -0.010292589 4290192928
-0.00062943622 0.021138856 -0.012115208 4289800483
0.0011607148 0.021255789 -0.012487663 4290258463
0.0033151582 0.020013401 -0.011413279 4290716444
0.0058499537 0.017412679 -0.0088953637 4290651164
0.0093435794 0.011416625 -0.0027704071 4290585373
0.01592787 -0.0054433383 0.014892265 4290585373
0.037318144 -0.066290371 0.078958921 4290651164
-0.020284243 0.017676074 -0.0083231851 4287968054
-0.019241706 0.021212347 -0.012339365 4290258974
-0.018073276 0.024063107 -0.015621965 4289931298
-0.016305327 0.024177754 -0.015990393 4290193184
-0.014379404 0.023608936 -0.015631882 4289473574
-0.011966404 0.02099056 -0.013095606 4290716444
-0.010021571 0.020423153 -0.012740905 4290389278
-0.0082372092 0.020539239 -0.01311249 4290258464
-0.0064527616 0.02065542 -0.013484027 4289866018
-0.004668247 0.020771703 -0.013855509 4290127649
-0.0028836764 0.02088807 -0.014226948 4289866019
-0.0012756437 0.0216869 -0.01532131 4289996834
0.00068565086 0.021121122 -0.014969639 4290716444
0.0028342865 0.019873878 -0.013897231 4290651164
0.0051782914 0.017945625 -0.012105657 4290912538
0.0088495091 0.011247262 -0.0052722371 4290912538
0.015613925 -0.0063504763 0.013072931 4290912538
0.036787525 -0.066718489 0.076282226 4290716444
-0.021428555 0.020980682 -0.014454643 4288033079
-0.019954965 0.022468057 -0.016278248 4290454558
-0.018644288 0.024640905 -0.018825952 4290651164
-0.017039508 0.02544098 -0.019918602 4289146408
-0.015124574 0.0248692 -0.019559402 4289408038
-0.013043821 0.023612326 -0.018476572 4290062114
-0.010952268 0.022356199 -0.01739588 4290716444
-0.0091813989 0.022471389 -0.017764667 4290192928
-0.0070736445 0.021216542 -0.016687263 4290324254
-0.0052972734 0.021332284 -0.017057059 4289866274
-0.0036945827 0.022132831 -0.018148765 4290520603
-0.0024500452 0.024302261 -0.020682145 4290389788
-0.00032598898 0.02304882 -0.019607816 4289474084
0.001627028 0.022480404 -0.01925599 4289343270
0.0043232441 0.019176327 -0.016026247 4289866529
0.0081690177 0.011770992 -0.0084869182 4290062369
0.014920756 -0.0058855563 0.0098196976 4289931298
0.036647938 -0.068503976 0.075046949 4289343270
-0.022423595 0.023628242 -0.019838292 4289538854
-0.020816296 0.024430463 -0.020929977 4290192164
-0.019366406 0.025920786 -0.022745376 4290519584
-0.017772265 0.026722342 -0.023834191 4290388768
-0.015868306 0.026147649 -0.023474343 4290127139
-0.013638522 0.024197746 -0.021669177 4290847004
-0.011718329 0.023624251 -0.021312537 4290520093
-0.0099582709 0.023738721 -0.021679085 4290127393
-0.0080299042 0.023165988 -0.021324059 4290062114
-0.0060961246 0.02259369 -0.020970099 4289866274
-0.0043304972 0.02270882 -0.021337595 4290062624
-0.0030935779 0.024884423 -0.02386464 4291109399
-0.0013358742 0.024999222 -0.024230354 4289800994
0.00060348958 0.024427636 -0.023877235 4289539363
0.0034696162 0.020425215 -0.019934256 4290258463
0.007302653 0.01299453 -0.012409726 4290520093
0.013659775 -0.0033491552 0.0044247042 4290520093
0.035923429 -0.068232432 0.071663998 4289539363
-0.024437107 0.022734778 -0.021215197 4286266948
-0.022976525 0.024230046 -0.023029797 4288425779
-0.021377191 0.02503396 -0.024118252 4289014319
-0.019783102 0.025837669 -0.025205594 4289930023
-0.018348917 0.027331512 -0.027014488 4289080365
-0.016453281 0.026754029 -0.02665451 4289210923
-0.014552198 0.026176997 -0.026295599 4289995813
-0.012645673 0.025600366 -0.025937714 4289800228
-0.010733716 0.025024228 -0.025580931 4289735204
-0.0086482912 0.023758991 -0.024505239 4289866019
-0.0067228191 0.023183925 -0.024151137 4289800483
-0.0053121373 0.024676891 -0.025954671 4289996834
-0.0039121024 0.02616927 -0.027755916 4290454814
-0.0021652132 0.026283339 -0.028119396 4290258463
-5.5428594e-05 0.025020182 -0.027048424 4289931554
0.0028015152 0.021003773 -0.023113061 4290454814
0.0066244975 0.013547886 -0.015603836 4290520093
0.012590352 -0.0014737025 -0.00023602386 4290454303
0.035589609 -0.069322757 0.069719404 4290062113
-0.02323541 0.023459217 -0.024766054 4286659648
-0.021489538 0.023572167 -0.025130071 4286398273
-0.01989539 0.024378082 -0.026215862 4287183163
-0.018460967 0.025876373 -0.028021647 4286856254
-0.016722798 0.025989104 -0.028383859 4286921788
-0.014984533 0.026101939 -0.028746024 4287903029
-0.012921117 0.024830621 -0.027669061 4288295729
-0.011012126 0.024251997 -0.027313218 4288492079
-0.0090977103 0.023673872 -0.026958477 4288884779
-0.0073484331 0.023787821 -0.027322652 4289407783
-0.0057723187 0.024593281 -0.028404096 4289800228
-0.0043774135 0.026089814 -0.030201154 4290127393
-0.0026359931 0.026203522 -0.0305635 4289734949
-0.00035075471 0.024244564 -0.028778818 4289408038
0.0021344945 0.021596016 -0.026282329 4289669924
0.0061340034 0.013424441 -0.01807397 4289799973
0.012658402 -0.0037180148 -0.00059711456 4289799973
0.035840049 -0.072478399 0.069916703 4289473575
-0.023054965 0.020606877 -0.024335057 4289079343
-0.021303855 0.020720148 -0.024700183 4289014064
-0.01970429 0.021528589 -0.025785472 4289276204
-0.018264316 0.02303171 -0.027589314 4289472298
-0.016677916 0.02383949 -0.028671727 4289864744
-0.015096776 0.024647012 -0.029752985 4289080364
-0.012871459 0.022676777 -0.027961075 4289472808
-0.01096008 0.022096114 -0.02760737 4289211178
-0.0088755824 0.020821886 -0.026537841 4288818988
-0.007461831 0.022323849 -0.028335754 4288688173
-0.0060587302 0.023825256 -0.030131429 4289080874
-0.0044905245 0.024632523 -0.031209571 4289342504
-0.0025708228 0.024052899 -0.030857246 4289211689
-0.00028354675 0.022087384 -0.02907775 4289080618
0.0022035614 0.019430054 -0.026587989 4289015084
0.0062035359 0.011231767 -0.018398758 4289080363
0.01404985 -0.010814898 0.0040258402 4289080363
0.03589537 -0.074950442 0.069396786 4288950059
0.038616117 -0.076886863 0.071086563 4289015084
0.040753499 -0.07674633 0.070642516 4289080108
0.043093354 -0.077297427 0.070908204 4288817968
-0.022875175 0.01774586 -0.023910077 4289145133
-0.021267645 0.018556925 -0.02499553 4289407018
-0.019665353 0.019367738 -0.026079826 4289996834
-0.018068299 0.020178312 -0.02716296 4290389278
-0.016476497 0.020988658 -0.028244924 4289865509
-0.014889956 0.021798788 -0.029325772 4289145898
-0.012822114 0.020518767 -0.028256055 4289538344
-0.010908354 0.019936012 -0.02790444 4288949548
-0.0091567077 0.020049999 -0.02826919 4289015084
-0.0074049979 0.020164063 -0.028633904 4288884269
-0.005826097 0.020974154 -0.029712763 4289080874
-0.0040769391 0.021088252 -0.030076802 4289800229
-0.0023277253 0.021202458 -0.030440772 4289799973
-0.00021667033 0.019925991 -0.029379599 4289342248
0.0020887218 0.017955085 -0.027608551 4289211179
0.0064590015 0.0083398111 -0.018014982 4289211179
0.035561789 -0.076037541 0.067454353 4289669158
0.038279198 -0.077980906 0.069140129 4289211179
0.040214136 -0.077146389 0.067988031 4289275949
0.042346016 -0.077006087 0.067545213 4288490294
-0.022696003 0.014876125 -0.02349106 4288622128
-0.021083064 0.01568974 -0.024576075 4289603623
-0.019475386 0.016503155 -0.025659967 4290193184
-0.017872937 0.017316299 -0.026742652 4290062369
-0.016275734 0.018129194 -0.027824171 4289931299
-0.014683783 0.018941844 -0.028904529 4289276969
-0.012935087 0.019055409 -0.029268829 4289537833
-0.011021622 0.018470412 -0.028918736 4289341738
-0.0089353845 0.017187349 -0.02785594 4289080108
-0.007178437 0.017301757 -0.028221739 4289341993
-0.0054214299 0.017416257 -0.028587487 4289603623
-0.0038397498 0.018228861 -0.029665269 4289865508
-0.0019072555 0.017645597 -0.029318787 4289799974
3.0640513e-05 0.017062744 -0.028973313 4289930789
0.0025241375 0.014388001 -0.026497569 4289537834
0.0070859529 0.0040446371 -0.016217444 4289472554
0.027170518 -0.055654287 0.043984555 4289668904
0.035228595 -0.077119857 0.065515317 4289668904
0.037549093 -0.077676907 0.065781683 4289341484
0.03947603 -0.076840714 0.064632818 4289144879
0.041801862 -0.077397168 0.064898252 4288947253
-0.023425378 0.0076697879 -0.01840608 4286136899
-0.022517473 0.011997752 -0.023078106 4288884014
-0.021047622 0.013515865 -0.024878807 4289603878
-0.019739509 0.015735229 -0.027392831 4289865764
-0.017985858 0.015848791 -0.027758392 4290127903
-0.016388603 0.016663903 -0.028838348 4289538598
-0.01463744 0.01677751 -0.029203245 4289669414
-0.013048027 0.017592305 -0.030281432 4289211179
-0.011299368 0.017705949 -0.030645665 4289276458
-0.0092162676 0.016418247 -0.029585371 4289145643
-0.0072922632 0.015831884 -0.029238934 4288949549
-0.0055353716 0.015946385 -0.029604655 4289603878
-0.0036032163 0.015360719 -0.029259723 4289538599
-0.001843553 0.015475595 -0.02962588 4289799463
0.00027726591 0.014190855 -0.028573081 4289799464
0.0029585212 0.010807801 -0.025395734 4289603113
0.0075256266 0.00043139607 -0.01514047 4289210158
0.026845936 -0.056662247 0.042096235 4289799464
0.034701847 -0.077498384 0.062872931 4289799464
0.037016671 -0.078058049 0.06313888 4289210158
0.039137565 -0.077918604 0.06269826 4288751924
0.041662354 -0.079175934 0.063667744 4288619833
-0.023682632 0.006882634 -0.020154452 4286660159
-0.022776477 0.01122378 -0.024816576 4288753199
-0.021309078 0.012746172 -0.026613606 4289472809
-0.019852266 0.014268028 -0.028408393 4289866019
-0.018098734 0.014381574 -0.028773937 4289735203
-0.016188793 0.013791565 -0.028426517 4289866019
-0.014591396 0.014608981 -0.029504869 4289472809
-0.012999259 0.015426172 -0.030582044 4289276458
-0.011248048 0.01553998 -0.03094681 4288884014
-0.0091627426 0.014247943 -0.029890165 4289145388
-0.0074060448 0.014362309 -0.03025593 4289341994
-0.0054769106 0.01377411 -0.029912028 4289276969
-0.0037174262 0.01388886 -0.03027823 4289342248
-0.0017801784 0.013301453 -0.029935911 4289668648
0.00016245991 0.012714496 -0.029594641 4289603113
0.0030257776 0.0086183324 -0.025717665 4289603113
0.0077785589 -0.0024932623 -0.014779327 4289471788
0.027094981 -0.059769668 0.042328298 4289603113
0.034369566 -0.078568816 0.060942028 4289603113
0.036484964 -0.078429833 0.060502481 4289471788
0.038799472 -0.078991666 0.060767051 4288490293
0.041119311 -0.079552978 0.061030556 4289142839
-0.023180544 0.011161139 -0.027265355 4288619834
-0.021718286 0.012687685 -0.029058199 4288881974
-0.020115785 0.013507342 -0.030136254 4289341739
-0.018211573 0.012914618 -0.029789306 4289538854
-0.016614221 0.01373416 -0.030866135 4289603624
-0.015022121 0.014553444 -0.031941812 4289538089
-0.01327379 0.014666948 -0.032306064 4289014829
-0.011525378 0.014780547 -0.032670263 4288948528
-0.0096100494 0.014189065 -0.032325264 4289144878
-0.0076893158 0.013598019 -0.031981327 4289014573
-0.0057631619 0.013007455 -0.031638429 4289341739
-0.0036567412 0.011712598 -0.030589089 4289210924
-0.0018946566 0.011827609 -0.030955765 4289472553
0.00022789091 0.010534067 -0.029909667 4289668648
0.0027269498 0.0078329705 -0.027454099 4289406509
0.0078452453 -0.0047225654 -0.015129464 4289340719
0.027534248 -0.063589305 0.043258473 4289668648
0.033844091 -0.078931026 0.058310945 4289602859
0.036150239 -0.079495713 0.058575533 4289340719
0.038461737 -0.080059901 0.058839109 4288751924
0.040576976 -0.079920694 0.058399759 4287966014
-0.022570617 0.014764391 -0.033630874 4287703108
-0.020680182 0.014168426 -0.033282723 4288491059
-0.018784277 0.013572881 -0.032935593 4288688174
-0.017038919 0.013685973 -0.033299383 4289079599
-0.015452132 0.014507178 -0.034372412 4288556083
-0.013547935 0.013912475 -0.034026798 4288228663
-0.011638328 0.013318267 -0.033682279 4288293689
-0.009723302 0.012724526 -0.033338808 4288621109
-0.0078028627 0.012131233 -0.032996397 4288752943
-0.0060490258 0.012245502 -0.033361506 4289145388
-0.0041204505 0.011652933 -0.033020645 4289668904
-0.0023638345 0.011767602 -0.033386178 4289472553
-0.00042713434 0.011175759 -0.033046797 4289407273
0.0024284869 0.0070523769 -0.029187242 4289145388
0.0077262335 -0.0062498078 -0.016186168 4289145388
0.02778177 -0.066716209 0.043477044 4289472809
0.033512749 -0.079989657 0.056388285 4289276203
0.035815895 -0.080556735 0.056651942 4289145388
0.037726887 -0.079712674 0.055512719 4288817713
-0.00034145266 0.015138503 0.028668355 4284578848
0.01380688 0.012738822 0.029626681 4284314668
0.016276885 0.010905998 0.031454101 4284645914
-0.0091267228 0.0096569881 0.033270925 4284119084
-0.0083273612 0.014378116 0.027652828 4284316964
-0.0067655928 0.015813744 0.025770023 4284188189
-0.0050518066 0.016592311 0.024634393 4283796254
-0.0030126609 0.016058084 0.024988627 4283730718
-0.00063210726 0.014212074 0.026829438 4283989543
0.0015939325 0.013023145 0.027923647 4284184874
0.0036574155 0.012490742 0.028272983 4284316708
0.0055503175 0.012614345 0.027879123 4284316709
0.0074432828 0.012738029 0.0274853 4284316963
0.0089735761 0.014172236 0.025609499 4284382244
0.010677245 0.014950769 0.02447642 4284056099
0.012935765 0.013764447 0.025564218 4283860258
0.015773237 0.010614799 0.028867919 4283991329
0.018829584 0.0068124607 0.032904886 4284120358
0.024644705 -0.0061485991 0.047270652 4284119338
-0.0097130202 0.010041283 0.029933024 4284119338
-0.0087634586 0.014118494 0.025071999 4284318749
-0.0068872459 0.014240505 0.024681251 4284056609
-0.0053358302 0.015679974 0.022803819 4283727148
-0.003134504 0.0144848 0.023899872 4283796764
-0.0012580007 0.014607066 0.023509234 4283990818
0.00095956028 0.013413105 0.02460202 4284187423
0.0028415844 0.013535904 0.024210354 4284252703
0.005075369 0.012343124 0.025299927 4284252703
0.0067843683 0.013124077 0.024167214 4284252958
0.0084880553 0.013904795 0.02303561 4284121633
0.01000258 0.015342506 0.021166313 4283795743
0.012252618 0.014151156 0.022252692 4283599138
0.014891863 0.011646681 0.02481252 4283864083
0.018703971 0.0052030832 0.0317914 4283863573
0.024904646 -0.0091160536 0.04759948 4283991328
-0.010298219 0.010439241 0.026604651 4284118829
-0.0091988184 0.013868079 0.022497535 4284189209
-0.0073280521 0.013989713 0.022107907 4283989799
-0.0056194738 0.014772406 0.020976463 4284184873
-0.0032563098 0.012911733 0.022811262 4284250664
-0.001379896 0.013033988 0.022420637 4284252703
0.00066691265 0.01249592 0.022770189 4284252704
0.0023731738 0.013278743 0.021639502 4284252193
0.0044254772 0.012741195 0.021988023 4284252194
0.0063048638 0.012863977 0.02159702 4284187424
0.0081842989 0.012986831 0.021206053 4283992349
0.0096963942 0.014428843 0.019340435 4283792174
0.011570565 0.014551522 0.018950684 4283791919
0.014200974 0.012037529 0.021505989 4283793959
0.018194929 0.0049119517 0.029206714 4283792938
0.025358316 -0.012751106 0.04865744 4283792938
-0.011344571 0.012842048 0.021059863 4284314414
-0.010103714 0.015617508 0.017705232 4284250154
-0.0082464293 0.015738253 0.017318401 4284644639
0.00020450354 0.012246108 0.020203035 4284250409
0.0020783022 0.012368334 0.019813061 4284382499
0.0041276552 0.011828346 0.020160597 4284317474
0.0058260933 0.01261306 0.019033246 4284252448
0.0077000782 0.012735544 0.018643405 4284058394
0.009207055 0.014181713 0.016781975 4283991838
0.011448175 0.012980787 0.017863883 4284056099
0.013888896 0.011119267 0.019678261 4284121124
0.018261259 0.002646286 0.028830789 4284121123
-0.025449127 0.0095283035 -0.03035718 4281747073
-0.024712086 0.014618961 -0.035696331 4279454878
-0.023125641 0.015441932 -0.036768012 4279715488
-0.02139397 0.015553914 -0.037129108 4279649189
-0.019509047 0.014955422 -0.036781278 4279845793
-0.017930314 0.01577821 -0.037851129 4280174998
-0.016198359 0.015890513 -0.038212065 4278995369
-0.010336012 0.013389338 -0.036470328 4278400708
-0.0084238797 0.012793219 -0.036127735 4280364974
-0.0068500414 0.013616323 -0.037196118 4280688824
-0.0051069707 0.013729986 -0.037558917 4282198934
-0.0031866618 0.013134727 -0.0372178 4282658444
-0.00090124086 0.011122357 -0.035471249 4283181449
0.027838053 -0.069143578 0.042988583 4283248768
-0.026414953 0.012343159 -0.035629116 4278602923
-0.025547937 0.016735092 -0.040245134 4278602668
-0.020079449 0.01564333 -0.039907128 4278469304
-0.018353045 0.015755152 -0.040266991 4279518629
-0.016626552 0.015867097 -0.04062679 4279192994
-0.014578037 0.014554624 -0.039575323 4279127459
-0.012682375 0.013954999 -0.03923104 4279127459
-0.010947641 0.014067782 -0.039592341 4279061668
-0.0093818381 0.014892478 -0.040657546 4279192483
-0.0078213066 0.015716882 -0.041721541 4279387558
-0.0060917325 0.015829647 -0.042081539 4279451818
-0.0040080696 0.014520051 -0.041036893 4279714214
-0.0017340034 0.012500267 -0.039292742 4279845538
0.0014679693 0.0069272108 -0.034046005 4280567699
0.0073032528 -0.008592777 -0.018999612 4280567699
0.027513254 -0.070154406 0.041098285 4279779749
0.032272011 -0.079961933 0.050456133 4279845538
0.034169674 -0.079114422 0.049322773 4280633233
0.036260396 -0.078976929 0.048888437 4280764048
0.038753256 -0.080258593 0.049848728 4282863974
0.046086803 -0.08338955 0.052021265 4282534513
-0.027286544 0.005767677 -0.031312533 4282274159
-0.026810326 0.012322288 -0.038050462 4278340274
-0.025947742 0.016727237 -0.042656083 4278471089
-0.024379902 0.017553393 -0.043720696 4278470834
-0.02266717 0.017664123 -0.044077855 4279387813
-0.020648777 0.016344922 -0.043023508 4278534074
-0.018775053 0.015741326 -0.04267646 4278666419
-0.016895905 0.015138227 -0.042330522 4278537899
-0.015011325 0.014535593 -0.041985627 4278407084
-0.013448279 0.015362054 -0.043048803 4278407338
-0.011724353 0.015474129 -0.043407854 4278602414
-0.010000363 0.015586324 -0.043766838 4278799018
0.00062441453 0.0083046928 -0.037865054 4278470069
0.0066299029 -0.0079780892 -0.022151371 4278470069
0.033641763 -0.079437584 0.046720009 4279322534
0.035925202 -0.08001253 0.046983082 4278865829
0.0386158 -0.082010761 0.048636634 4282274413
-0.028373525 0.0093268324 -0.037277408 4281290879
-0.026346795 0.016728565 -0.045060609 4278602159
-0.024931528 0.018274222 -0.046827886 4279062179
-0.023226947 0.018384401 -0.047183368 4278669224
-0.021369644 0.0177774 -0.046834566 4278537644
-0.019196339 0.015736753 -0.045079608 4278536879
-0.017322838 0.015131054 -0.044734079 4278340018
-0.015443891 0.014525767 -0.044389565 4278668203
-0.013886157 0.015354136 -0.045450106 4278799018
-0.012001723 0.014749426 -0.045106579 4278274229
-0.010449193 0.015577679 -0.046165872 4278864299
-0.0089019388 0.016405651 -0.047223948 4278732974
-0.0071859807 0.016517518 -0.047581118 4279061923
-0.0028572418 0.013163986 -0.044802137 4278666418
0.00032832846 0.007554289 -0.039577302 4278733229
0.006327007 -0.0087800808 -0.023898607 4278733229
0.031034866 -0.079888172 0.044555835 4278272698
0.033114582 -0.079751536 0.044123691 4278864298
0.035590395 -0.081043348 0.045081098 4278800038
0.038277641 -0.083048485 0.046730589 4279521434
0.040574096 -0.083624497 0.046989582 4282471019
-0.029040821 0.010756502 -0.041104179 4280700809
-0.028165877 0.015188806 -0.045693479 4278405808
-0.023785651 0.01911833 -0.05027936 4278602414
-0.017591253 0.014413903 -0.046429705 4278405808
-0.015875749 0.014525207 -0.046787169 4278537134
-0.014323302 0.015355401 -0.047844984 4278864809
-0.0091841854 0.015689783 -0.048915144 4279192484
-0.0074710362 0.015801463 -0.049271736 4278866083
-0.0055813417 0.015195342 -0.048930626 4278668713
-0.0033279248 0.013154138 -0.047196385 4278537134
-0.00014922768 0.0075261928 -0.041982796 4278405554
0.0062089935 -0.010294709 -0.024946591 4278340019
0.026541103 -0.073158041 0.035447277 4278603178
0.032978535 -0.0814896 0.042921271 4278471089
0.035255972 -0.08206936 0.043182451 4278865574
0.037338194 -0.081932306 0.042749975 4282143854
-0.029706717 0.012204302 -0.044918399 4278931108
-0.028841548 0.016649289 -0.049496181 4278406828
-0.020346627 0.017198274 -0.051267818 4278602923
-0.018332139 0.015865661 -0.050222021 4278603178
-0.016306877 0.014533795 -0.049178366 4278537388
-0.01459676 0.01464485 -0.04953463 4278668458
-0.012720961 0.014035162 -0.049192525 4278733738
-8.1066042e-05 0.0053478964 -0.042296998 4278405809
0.032257412 -0.081070513 0.039642464 4278471853
0.034526497 -0.081653036 0.039903786 4278472363
0.036600545 -0.081516512 0.039473008 4282143854
-0.029538713 0.0093212873 -0.044505995 4280570504
-0.028667308 0.013780035 -0.049075648 4279128734
-0.027251489 0.015338866 -0.050833613 4278604453
-0.025552727 0.015448524 -0.051187981 4278801313
-0.023853861 0.015558304 -0.05154229 4278932128
-0.022002801 0.01494424 -0.051197004 4278734758
-0.020301089 0.015054405 -0.051551763 4278603434
-0.01828438 0.013717445 -0.050509553 4278341293
-0.016577154 0.013828186 -0.050865304 4278603434
-0.014707066 0.013215777 -0.050523683 4278472363
-0.013327945 0.014773127 -0.052273437 4278341548
-0.011623185 0.01488404 -0.052628439 4278537898
-0.010089166 0.015717788 -0.053679038 4278734248
-0.0083869658 0.015828745 -0.054033354 4278603179
-0.0063324124 0.014494998 -0.052998487 4278471854
-0.0042671449 0.013162103 -0.051965825 4278734248
-0.00055770576 0.005331587 -0.044694409 4278603434
0.0063413717 -0.014766797 -0.025656207 4278537898
0.026273906 -0.076579511 0.03308009 4278471854
0.029281983 -0.080051877 0.036110673 4278734248
0.031732235 -0.081358872 0.037063856 4278603433
0.033995636 -0.081944004 0.037324775 4278472363
0.036064185 -0.081807822 0.036895152 4282143854
-0.029232785 0.0057026185 -0.043398846 4280177548
-0.028211221 0.0094483402 -0.047260609 4279063198
-0.026640594 0.010285597 -0.048318025 4278539174
-0.025221765 0.011849152 -0.050073389 4278669989
-0.023365766 0.011233062 -0.049730804 4279062943
-0.021656245 0.011343624 -0.050087266 4279194014
-0.01979205 0.010728296 -0.049746227 4278931618
-0.018236957 0.011565086 -0.050800018 4278866083
-0.016367242 0.010950316 -0.050459985 4278866084
-0.014654733 0.011061497 -0.050816771 4279128223
-0.013107423 0.011898115 -0.051868703 4279062688
-0.011565402 0.012734497 -0.052919466 4279193504
-0.009858042 0.012845671 -0.053274941 4279062434
-0.0083239414 0.013681797 -0.054323941 4279127968
-0.0060912259 0.011619121 -0.052599709 4279324573
-0.0041997358 0.011006543 -0.052263658 4279193759
-0.00030834228 0.0024273209 -0.044317838 4278800548
0.0069590546 -0.019181438 -0.023941334 4278800548
0.025951009 -0.077566005 0.031206621 4279324573
0.02857136 -0.079602532 0.032850724 4279193759
0.031013085 -0.080914535 0.033802506 4278735269
0.033268139 -0.08150243 0.034063578 4278538408
-0.028651036 0.00061224028 -0.040902253 4280767618
-0.027474321 0.0036408342 -0.04406039 4278800804
-0.026031353 0.0052102767 -0.045817714 4278538918
-0.015838437 0.0066079609 -0.048671041 4278276269
-0.003954161 0.0081200749 -0.051873457 4278473129
-5.9656799e-05 -0.00048555061 -0.043947306 4278276524
0.0077591911 -0.024339981 -0.021548841 4278473129
0.028053652 -0.079865336 0.030288396 4278473129
0.032936074 -0.082498074 0.032185942 4278538664
-0.02834741 -0.0030371808 -0.039816324 4280242828
-0.027162127 8.4936619e-07 -0.042969927 4279194014
-0.025567375 0.00084408 -0.044029236 4278473383
-0.023977861 0.0016870834 -0.045087371 4278735269
-0.022244655 0.0017990358 -0.045448873 4278538663
-0.020662963 0.0026417971 -0.046505269 4278669734
-0.018777981 0.0020233057 -0.046171691 4278800804
-0.017044522 0.0021356009 -0.046533015 4278538663
-0.015151367 0.0015178956 -0.046201024 4278669734
-0.01325281 0.00090065971 -0.045870092 4278538663
-0.011513773 0.0010136664 -0.046232324 4278669734
-0.010109898 0.0025859885 -0.047977645 4278800549
-0.0085463785 0.0034283586 -0.049029693 4278800549
-0.0069881454 0.0042704307 -0.050080527 4278669479
-0.0050839521 0.0036541224 -0.049750362 4278472873
-0.0033526719 0.0037671924 -0.050110582 4278669734
0.00091226399 -0.0063220896 -0.040827494 4278473128
0.019168744 -0.063633613 0.012764283 4278538408
0.025117349 -0.078796364 0.026782477 4278669479
0.02772833 -0.080846868 0.028419087 4278669989
0.029772349 -0.080712594 0.027994351 4278866338
0.032210372 -0.082033522 0.028940653 4279717784
-0.028182834 -0.005965922 -0.03943567 4280110739
-0.026991665 -0.0029186867 -0.042584147 4279389853
-0.025391541 -0.0020728707 -0.043643054 4279194268
-0.023650572 -0.0019605234 -0.044006255 4278604709
-0.022058234 -0.0011150241 -0.045063328 4278669989
-0.020319723 -0.0010026135 -0.045425858 4278866594
-0.018735223 -0.00015739724 -0.046481136 4278801059
-0.01684247 -0.00077748299 -0.046150748 4278538918
-0.01478485 -0.002129484 -0.045129661 4278735524
-0.012878578 -0.002748441 -0.044801909 4278670244
-0.01113167 -0.0026349574 -0.045165811 4278604709
-0.0095521361 -0.0017894916 -0.046219651 4278669989
-0.007977888 -0.00094420463 -0.047272351 4278669989
-0.0064089336 -9.9211931e-05 -0.048323836 4278669989
-0.004669819 1.4249235e-05 -0.048685774 4278669989
-0.002752535 -0.00060331821 -0.048359837 4278800549
0.001520507 -0.010723107 -0.039100599 4278735014
0.019225914 -0.066017695 0.012306403 4278735269
0.024795758 -0.079766236 0.024920506 4278669734
0.027403379 -0.08182364 0.02655307 4278538919
0.029444566 -0.081689544 0.026128927 4279128733
0.031879406 -0.083015114 0.02707273 4280570504
-0.0284326 -0.0066954009 -0.041144822 4280110739
-0.026962407 -0.0051110387 -0.04289845 4279193503
-0.025216334 -0.004998479 -0.043262798 4278932128
-0.023616061 -0.0041503794 -0.044320043 4278670244
-0.021872446 -0.0040377639 -0.044683728 4278735524
-0.019977488 -0.0046601333 -0.044355519 4278735524
-0.018077113 -0.0052820668 -0.044028386 4278866594
-0.016484477 -0.0044339933 -0.045083709 4278670244
-0.014578596 -0.0050553344 -0.044757556 4278670244
-0.012829214 -0.0049417801 -0.045122039 4278932384
-0.011079766 -0.0048281327 -0.045486469 4278867359
-0.009497527 -0.0039802603 -0.046539288 4278473383
-0.0079205707 -0.003132645 -0.047590937 4278538918
-0.0061762966 -0.0030189641 -0.047954034 4278669989
-0.0042566955 -0.0036387369 -0.047630254 4278473128
-0.002153758 -0.0049913749 -0.046621229 4278473128
0.002308026 -0.015874907 -0.0367001 4278603689
0.019468728 -0.069138743 0.012530275 4278473128
0.024663175 -0.081464015 0.023745889 4278473128
0.027078794 -0.082795568 0.024690332 4278800293
0.029117143 -0.082661651 0.024266778 4278407338
0.031155499 -0.082527585 0.023843342 4281357433
-0.028268792 -0.0096347816 -0.040771466 4279325338
-0.026652679 -0.0087836049 -0.041830629 4279128478
-0.024898723 -0.0086705722 -0.042196646 4279062943
-0.023290403 -0.0078197382 -0.043253992 4278866338
-0.021538921 -0.0077066161 -0.043619324 4278801314
-0.019636258 -0.0083307289 -0.043294314 4278801058
-0.017728172 -0.0089544244 -0.042970326 4278866593
-0.016283907 -0.0073665865 -0.044714961 4278801314
-0.014691152 -0.0065161921 -0.045768656 4278997918
-0.013103668 -0.0056660064 -0.046821166 4278801314
-0.011357028 -0.0055525415 -0.047185007 4278867103
-0.0097774267 -0.0047026388 -0.048235718 4279063454
-0.0078635775 -0.005325228 -0.047912475 4278866594
-0.005944334 -0.0059473366 -0.047590267 4278735524
-0.0041948073 -0.005833216 -0.047954384 4278538663
-0.0019118972 -0.0079258159 -0.046264227 4278407594
0.0025524832 -0.01884247 -0.036367334 4278407338
0.019525092 -0.071533374 0.012065168 4278538663
0.024530621 -0.083161436 0.022571499 4278407594
0.026754588 -0.083762743 0.02283095 4278473128
0.028983911 -0.084363557 0.023089377 4278669479
-0.028518304 -0.010361437 -0.04247874 4279916174
-0.026764601 -0.010248523 -0.042844784 4279260058
-0.0248679 -0.010875642 -0.042520326 4279456409
-0.023256868 -0.010022368 -0.043576706 4278998173
-0.021206371 -0.011388618 -0.042563941 4278867359
-0.019446917 -0.011274908 -0.042930875 4278932894
-0.017533801 -0.011900455 -0.042609561 4278866848
-0.016083986 -0.010307867 -0.044352148 4279194014
-0.014485866 -0.009454865 -0.045405436 4279260058
-0.012893006 -0.0086021274 -0.046457496 4279325084
-0.011141166 -0.0084883198 -0.046822418 4279259294
-0.0095561892 -0.0076358691 -0.047872674 4279194523
-0.0078068972 -0.0075219944 -0.048236903 4279194523
-0.0058852993 -0.0081461743 -0.047916774 4278866848
-0.0037833638 -0.0095079541 -0.046913918 4278538918
-0.0016707182 -0.010868847 -0.045913242 4278604199
0.0027962625 -0.021818627 -0.036040582 4278472873
0.01920988 -0.072457425 0.010234117 4278735268
0.02402151 -0.083384298 0.020035425 4278604199
0.026239799 -0.083988182 0.020294474 4278931618
0.028463447 -0.084591575 0.02055251 4279456409
0.032926753 -0.085796945 0.021065535 4283059559
-0.017493486 -0.014113475 -0.042941388 4282144618
-0.016196862 -0.011774842 -0.045367524 4281162358
-0.014598712 -0.010919619 -0.046419229 4280965244
-0.01284441 -0.010805782 -0.046784762 4280375429
-0.010925952 -0.011432778 -0.046465766 4280309894
-0.009335611 -0.010577712 -0.047515601 4280243849
-0.0075811222 -0.01046351 -0.047880918 4279849873
-0.0056544803 -0.011089649 -0.047563385 4279391383
-0.0033729412 -0.01319572 -0.045882549 4279129499
-0.0010753311 -0.015300673 -0.044204928 4278997919
0.0030393824 -0.024803422 -0.035719745 4278670243
0.018895056 -0.073376752 0.0084064072 4278997919
0.02351311 -0.083597846 0.017505722 4278670243
0.025534941 -0.083465151 0.017085506 4279194524
0.027750231 -0.084071308 0.017343706 4280112523
0.022817496 -0.08306057 0.014304528 4282472294
0.025021769 -0.083669856 0.01456338 4282209898
-0.032060787 -0.080896102 -0.031609315 4280242829
-0.00757562 0.013337817 0.03173523 4284966958
0.0039541423 0.013424302 0.030115435 4284908563
0.0062021986 0.012241414 0.031208413 4285169938
0.0081032887 0.012365641 0.03081291 4286217479
0.011352971 0.014572777 0.027795961 4284904485
-0.0062269233 0.015195871 0.017671904 4285689373
-0.0038724169 0.01332796 0.019503681 4285492514
-0.026428811 -0.016156416 -0.042120967 4285229354
-0.024522036 -0.016787339 -0.04180178 4285229353
-0.022755034 -0.016673375 -0.042170454 4285360934
-0.020840049 -0.017303474 -0.04185285 4285294889
-0.015997924 -0.014728893 -0.045013633 4284966703
-0.025982462 -0.020617235 -0.040395346 4285098793
-0.024207711 -0.020502899 -0.040765729 4285361189
-0.022432834 -0.020388428 -0.041136045 4285558304
-0.020805597 -0.019527402 -0.042190962 4285558558
-0.019183591 -0.018666625 -0.043244708 4285624093
-0.01741378 -0.018552132 -0.043613728 4285558559
-0.015799619 -0.017691609 -0.044665664 4285558303
-0.013873927 -0.018322796 -0.044351567 4285557794
-0.011942822 -0.018953498 -0.044038489 4285492258
-0.010006312 -0.019583743 -0.04372647 4285558049
-0.0085636117 -0.017977871 -0.045457792 4285558049
-0.0069624558 -0.017117586 -0.046506599 4285557794
-0.0051948503 -0.017002415 -0.046874564 4285492259
-0.0032527894 -0.017631829 -0.046563361 4285426214
-0.00095117092 -0.019749798 -0.0448961 4285360678
0.0033438429 -0.030054502 -0.035774074 4285360678
0.01826652 -0.075201087 0.004760894 4285360678
0.022498496 -0.083997272 0.012465512 4285295398
0.024509314 -0.083865277 0.012047602 4285098283
-0.025676988 -0.024346441 -0.039366685 4285360679
-0.024036564 -0.023482591 -0.040422928 4285558304
-0.022256501 -0.023367807 -0.040794343 4285558049
-0.020623893 -0.022504181 -0.04184885 4285558303
-0.018846311 -0.02238933 -0.042219583 4285623838
-0.017221525 -0.021526035 -0.043272261 4285623838
-0.015601985 -0.020662937 -0.044323735 4285689374
-0.013671272 -0.021296021 -0.044012256 4285623583
-0.011574239 -0.022676453 -0.043021437 4285623584
-0.0094664693 -0.02405604 -0.042032827 4285558049
-0.0080128908 -0.022445023 -0.043763254 4285492514
-0.0065699443 -0.020834539 -0.045491431 4285558303
-0.0049660429 -0.019971754 -0.04653915 4285558304
-0.0030189529 -0.02060305 -0.046230569 4285426979
-0.00088955835 -0.021980651 -0.045245972 4285557793
0.0035851337 -0.03306298 -0.035469614 4285558049
0.017952798 -0.076106049 0.0029430494 4285557793
0.021804687 -0.083437108 0.0092802327 4285557794
0.023997592 -0.084051549 0.0095382389 4285360679
-0.025511876 -0.02733729 -0.039030358 4285295398
-0.023866087 -0.026470892 -0.040086169 4285558049
-0.022080831 -0.026355766 -0.040458664 4285558049
-0.020442843 -0.025489643 -0.041512687 4285623838
-0.018359974 -0.026875876 -0.040522452 4285624094
-0.016724482 -0.026009664 -0.041575778 4285623838
-0.015094243 -0.02514369 -0.042627934 4285689118
-0.013627324 -0.023527682 -0.044358287 4285623838
-0.011528116 -0.024912409 -0.043371085 4285623583
-0.0094181634 -0.026296295 -0.04238607 4285623839
-0.007629592 -0.026179984 -0.042758577 4285558048
-0.0061784275 -0.024564579 -0.044485275 4285492513
-0.0045664907 -0.023699075 -0.045533095 4285558049
-0.0026117116 -0.024332076 -0.045227692 4285558048
-0.00029806793 -0.026462562 -0.0435724 4285557793
0.003825739 -0.036080025 -0.035171162 4285558049
0.017454721 -0.076257825 0.00045474924 4285558049
0.021299344 -0.083611511 0.0067776092 4285557794
0.023486573 -0.084228508 0.0070352391 4285294634
-0.027140334 -0.030452192 -0.03832572 4285228589
-0.025486626 -0.029583134 -0.039381728 4285360679
-0.023838133 -0.028714366 -0.040436529 4285557794
-0.022050343 -0.028599076 -0.040809557 4285492258
-0.020262457 -0.028483681 -0.041182529 4285558048
-0.018324606 -0.029121093 -0.040875953 4285558304
-0.01668641 -0.028252505 -0.041928269 4285558048
-0.015053481 -0.027384132 -0.042979408 4285623838
-0.013267923 -0.02726841 -0.04335155 4285558304
-0.011321753 -0.027904809 -0.043046366 4285558304
-0.0093701668 -0.028540716 -0.042742219 4285558303
-0.0077449679 -0.027672395 -0.043791406 4285558304
-0.0061250366 -0.026804253 -0.044839393 4285492513
-0.0045104101 -0.025936328 -0.045886192 4285558303
-0.0025532804 -0.026571423 -0.045582864 4285558048
-0.00041420013 -0.027957216 -0.044606645 4285492258
0.0037072115 -0.037603647 -0.036225419 4285492513
0.016957358 -0.076400399 -0.0020271696 4285492513
0.020794742 -0.08377672 0.0042814151 4285557539
0.023166206 -0.085146643 0.0052097831 4285228588
-0.025044568 -0.034100786 -0.03769546 4285491749
-0.023385383 -0.033229098 -0.038750913 4285557539
-0.021442704 -0.033868678 -0.038447112 4285492513
-0.019788645 -0.032997087 -0.039501324 4285492259
-0.01784043 -0.033636034 -0.039198484 4285558304
-0.01603917 -0.033519544 -0.039574079 4285492258
-0.014392868 -0.032648116 -0.040626436 4285492514
-0.012751821 -0.031776883 -0.041677602 4285492258
-0.011276428 -0.030151345 -0.043403335 4285492513
-0.0096485913 -0.029280752 -0.044451576 4285558303
-0.0078603141 -0.029164478 -0.04482403 4285558049
-0.006071981 -0.029048085 -0.045196403 4285492513
-0.0042835958 -0.028931573 -0.045568705 4285492513
-0.0026688911 -0.028061323 -0.046613865 4285558049
-0.0003539063 -0.030205064 -0.044968273 4285558303
0.0037677772 -0.039880291 -0.036607623 4285492513
0.016829513 -0.078039587 -0.0031613081 4285558049
0.020852068 -0.086190887 0.0038020855 4285491749
0.023035947 -0.086812563 0.0040572379 4285294124
-0.020259932 -0.042191222 -0.033389784 4284966448
-0.018434979 -0.042073436 -0.033770494 4284901424
-0.016460396 -0.042712964 -0.033474706 4284967213
-0.01463259 -0.042594746 -0.033855826 4285032749
-0.013114456 -0.040962279 -0.035587497 4285098793
-0.011606898 -0.039330408 -0.037316825 4285164839
-0.010430373 -0.036185659 -0.040392242 4285230119
-0.0086236224 -0.03606832 -0.040768631 4285164328
-0.0069823489 -0.035194501 -0.041818015 4285164583
-0.0050099418 -0.035833262 -0.041521188 4285295908
-0.0033739023 -0.034959532 -0.042569302 4285426724
-0.0017431676 -0.034085974 -0.043616265 4285492003
0.00041094422 -0.035479717 -0.04264944 4285558049
0.0047224574 -0.045938499 -0.033641275 4285492259
0.017070144 -0.081188701 -0.0029568647 4285492259
