# .PCD v0.7 - Point Cloud Data file format
VERSION 0.7
FIELDS x y z rgba
SIZE 4 4 4 4
TYPE F F F U
COUNT 1 1 1 1
WIDTH 971
HEIGHT 1
VIEWPOINT 0 0 0 1 0 0 0
POINTS 971
DATA ascii
0.0025331788 0.012062803 0.0028239992 4289668904
0.0043001585 0.01289707 0.0017069429 4289669159
0.0060618017 0.013731062 0.00059109367 4289603624
0.0086216051 0.011778269 0.0022820178 4289341993
0.011401009 0.0091302246 0.0046705063 4289145644
0.014614247 0.0050912127 0.0084551182 4288753198
0.01744174 0.0024467707 0.010833556 4287837493
0.020502178 -0.00089198351 0.013906742 4287248698
0.023160832 -0.0028374046 0.015577221 4287052348
0.025835484 -0.004781574 0.017244415 4287052604
0.028526122 -0.0067244843 0.01890826 4286921788
0.03101049 -0.0079710782 0.019871974 4286725949
0.033055604 -0.007826902 0.01944085 4286464828
-0.033638746 0.011511352 0.0055544358 4288752943
-0.032280132 0.014456034 0.00229734 4289669925
-0.030642923 0.015994567 0.00046589226 4289341994
-0.029168859 0.018234704 -0.0020732358 4289015083
-0.027089726 0.017665811 -0.0017713271 4288949293
-0.024847183 0.016395554 -0.0007616356 4289603368
-0.022433259 0.014424566 0.00095406175 4290061604
-0.02065625 0.015260529 -0.00016436167 4289865510
-0.018718548 0.015394989 -0.00057446212 4289341994
-0.016780749 0.015529528 -0.00098452717 4289407783
-0.014500298 0.014262378 1.7501414e-05 4289341993
-0.01220908 0.012996137 0.0010173023 4289211178
-0.010260362 0.013131741 0.00060515478 4289407529
-0.0083115734 0.013267454 0.00019307062 4289734949
-0.0067266747 0.014803533 -0.0016264208 4290389023
-0.0049677864 0.015639063 -0.0027404577 4289604134
-0.0026522204 0.014374953 -0.0017454065 4289145899
-0.00032593124 0.013111748 -0.00075257383 4289211178
0.0020110812 0.011849336 0.00023810007 4289538344
0.0041634627 0.011287015 0.00052563101 4289865253
0.0067172386 0.0093271062 0.0022128411 4289669159
0.0094877481 0.0066696405 0.0045964848 4289145644
0.012279646 0.0040137321 0.0069757272 4288491569
0.015298959 0.00066097081 0.010049189 4288229939
0.018136282 -0.0019915551 0.012418987 4287379513
0.021206355 -0.0053405538 0.015481895 4287248698
0.02366096 -0.0065939054 0.016448366 4287117884
0.025909482 -0.0071486607 0.016716225 4286856254
0.027943896 -0.0070054457 0.016287202 4286725948
0.030200329 -0.0075594261 0.016553557 4286530364
-0.034494251 0.013435479 0.0008292459 4288557104
-0.033148371 0.01638798 -0.0024185702 4289146408
-0.031674005 0.018634554 -0.0049529076 4290127139
-0.030063149 0.020175718 -0.0067754108 4290257698
-0.027997661 0.019603685 -0.0064722728 4290388513
-0.025295768 0.016216073 -0.0033413284 4290388513
-0.022887856 0.014238052 -0.0016292911 4290127394
-0.020953044 0.014372185 -0.0020388775 4289538599
-0.019349635 0.015913311 -0.003859438 4289407783
-0.017588411 0.016750585 -0.0049727727 4289342504
-0.015148044 0.014775209 -0.0032673031 4289211433
-0.012865342 0.013503987 -0.0022690222 4289276714
-0.010924764 0.013639007 -0.0026794616 4289473319
-0.0091632307 0.014476661 -0.003792515 4289800228
-0.0075887814 0.016016368 -0.0056065042 4290454559
-0.0058405101 0.016853284 -0.0067166127 4290258209
-0.0035361461 0.01558407 -0.0057225376 4289996579
-0.00084141642 0.012912128 -0.0033297502 4290061604
0.001874717 0.010241773 -0.00094141811 4289669158
0.0046122633 0.007573016 0.0014424622 4289341993
0.0071733668 0.0056071132 0.0031231288 4289014829
0.010352045 0.0015392825 0.0068950821 4288884014
0.012953255 -0.00042360276 0.0085674357 4288426289
0.015982207 -0.0037866011 0.011630611 4287379513
0.018412303 -0.0050462335 0.012598807 4287052348
0.021275468 -0.0077055618 0.01495664 4287052348
0.023304498 -0.007562913 0.014528619 4286921533
0.025550028 -0.0081200525 0.014795465 4286725694
-0.036136128 0.0095908716 0.0021994989 4286921278
-0.034771085 0.012553301 -0.0010458734 4287968053
-0.033574134 0.016221307 -0.004994534 4288818733
-0.032104671 0.018474072 -0.0075228959 4289341993
-0.030498903 0.020019218 -0.0093410406 4289472808
-0.028439067 0.019444585 -0.0090383794 4289276714
-0.025743559 0.016045589 -0.0059143566 4289799974
-0.023501895 0.014766641 -0.00491108 4289538599
-0.021738119 0.01560602 -0.0060234219 4289865508
-0.020145144 0.017150775 -0.0078384914 4289604134
-0.018226307 0.017283976 -0.0082445592 4290389023
-0.015794646 0.01530147 -0.0065422524 4290389023
-0.013694026 0.014730323 -0.0062476508 4290454049
-0.011764258 0.014864583 -0.0066558048 4289734949
-0.010013372 0.015703712 -0.0077650119 4289734949
-0.0082677603 0.016542524 -0.0088729858 4289865763
-0.006343171 0.016676724 -0.0092798211 4289734948
-0.0040446371 0.01540269 -0.0082877725 4289342504
-0.00097688287 0.011313628 -0.0045026504 4289669414
0.0019306764 0.0079307109 -0.0014224835 4289407528
0.0046700221 0.0052533299 0.00095441006 4289080108
0.0076284111 0.0018741786 0.0040239971 4288426289
0.010813851 -0.0022062212 0.0077845771 4287641398
0.013625395 -0.0048782229 0.010146478 4287510583
0.016252652 -0.0068457574 0.011808513 4287314234
0.018687582 -0.0081093833 0.012772331 4287052348
0.021133199 -0.0093721747 0.013734033 4286987069
0.023162099 -0.0092295259 0.013306038 4286725948
0.024974594 -0.0083846301 0.01218492 4286595898
-0.035845131 0.0058668256 0.0031503346 4286855999
-0.034471467 0.0088385493 -9.0286136e-05 4287903028
-0.033412375 0.013227168 -0.0047388449 4288230704
-0.031937145 0.015486851 -0.0072635002 4289211434
-0.030325796 0.017036717 -0.0090795532 4289407529
-0.028415609 0.017168812 -0.00948417 4289799718
-0.026347946 0.016592618 -0.0091847591 4289734693
-0.024274819 0.016016893 -0.0088864248 4289538599
-0.022358961 0.016149685 -0.0092920214 4289603878
-0.02060838 0.016990405 -0.010399867 4289669413
-0.018695008 0.017123211 -0.010804791 4290323488
-0.016440086 0.015841149 -0.0098072924 4290061858
-0.014174409 0.014559977 -0.0088120401 4290258208
-0.012250111 0.014693856 -0.0092190392 4290192673
-0.010504499 0.015534736 -0.010325449 4289865763
-0.0087641701 0.016375359 -0.01143066 4289734948
-0.0064768717 0.015096106 -0.010439666 4289669669
-0.0038053058 0.012404967 -0.0080552809 4289146409
-0.00073345192 0.0083031058 -0.0042809229 4289342248
0.0023705177 0.0042035431 -0.00051323697 4289080618
0.0053117909 0.00081216544 0.0025516301 4288557359
0.00808236 -0.001871638 0.0049154218 4287641398
0.010874303 -0.0045537874 0.0072747339 4287379769
0.013484839 -0.0065291524 0.0089352708 4287314234
0.016316878 -0.0092083365 0.01128632 4287117884
0.018545834 -0.0097713023 0.011553133 4287052604
0.020358471 -0.0089244545 0.010433534 4287052859
0.022379225 -0.0087823719 0.010007264 4286530619
-0.035696305 0.0028415322 0.0033859666 4286725949
-0.034316704 0.0058223605 0.00015065819 4287903284
-0.032958299 0.0088018328 -0.0030800775 4287969073
-0.031471957 0.011068795 -0.0056021549 4288492333
-0.03000151 0.013334729 -0.0081207491 4288753708
-0.02839246 0.014888927 -0.0099329948 4288949804
-0.026636798 0.015731864 -0.011040501 4289472808
-0.02472651 0.015864141 -0.011445014 4289669159
-0.022816118 0.015996523 -0.011849474 4290061859
-0.021070823 0.01683905 -0.012954556 4290192419
-0.01899505 0.016261611 -0.01265822 4289211433
-0.016913842 0.015684661 -0.012362955 4289146154
-0.014827218 0.015108183 -0.01206876 4289015338
-0.012735173 0.014532149 -0.011775587 4289604133
-0.01081628 0.014665741 -0.012181375 4289866020
-0.0087161101 0.014090501 -0.011889819 4289734948
-0.0060588159 0.011389539 -0.0095090885 4289407783
-0.00300695 0.0072730705 -0.0057404991 4289342504
-0.00011222437 0.0038673207 -0.0026742034 4288819244
0.0026173368 0.0011717081 -0.00030851364 4288099634
0.005562894 -0.0022302866 0.002747193 4287837748
0.0083379336 -0.0049224943 0.0051034447 4287576119
0.010734459 -0.0061978549 0.006068537 4287313978
0.013344306 -0.0081798136 0.0077242646 4287117629
0.015764877 -0.0094532669 0.0086844508 4286921789
0.017780211 -0.0093117654 0.0082591716 4286922298
-0.035548173 -0.00019219518 0.0036153179 4286986813
-0.034162603 0.0027977526 0.00038533285 4287575864
-0.032651938 0.0050727651 -0.0021370128 4288427053
-0.031157166 0.0073468387 -0.0046559498 4288885033
-0.029829949 0.010333054 -0.007873347 4289015848
-0.02852397 0.013317902 -0.01108617 4289408038
-0.026925236 0.014875792 -0.012892819 4289145899
-0.025177412 0.015720442 -0.013996959 4289603878
-0.023110155 0.015140019 -0.013700642 4289603878
-0.021367472 0.015984528 -0.014803527 4290126883
-0.019462366 0.016116731 -0.015206728 4289996579
-0.017557174 0.016249038 -0.01560987 4289996834
-0.015132818 0.014246468 -0.013920811 4290127649
-0.013043769 0.013668068 -0.013628711 4289735204
-0.010414168 0.010956217 -0.011248894 4289408039
-0.0079441927 0.0089570731 -0.0095692165 4289342503
-0.0050906911 0.0055373311 -0.0065026172 4289277224
-0.0023968071 0.0028302819 -0.0041361563 4288426798
0.00031848438 0.00012482703 -0.0017741323 4287772724
0.0030551851 -0.0025790185 0.00058344193 4287641654
0.006007703 -0.0059914216 0.0036294442 4287379768
0.0085927825 -0.0079818442 0.0052852426 4287510583
0.010594646 -0.0078416094 0.0048625637 4287444793
0.012596497 -0.0077012628 0.0044399668 4287117629
0.014803462 -0.008270286 0.0047080908 4286987834
-0.035963878 -0.00037010014 0.0010282043 4287052348
-0.034583047 0.0026281998 -0.0021942146 4288295983
-0.032931179 0.0041937307 -0.0040091984 4288623914
-0.03143863 0.0064741224 -0.006522689 4289147174
-0.029962003 0.0087535605 -0.0090327747 4289408803
-0.028655414 0.011747174 -0.012239132 4289474084
-0.02689964 0.012594428 -0.013343409 4289342759
-0.025308561 0.01415623 -0.015145077 4289408038
-0.023728095 0.015717432 -0.016944481 4289276968
-0.021993376 0.016563557 -0.018044047 4289407783
-0.019928906 0.015980944 -0.017748643 4289604134
-0.017859016 0.015398823 -0.0174543 4289538598
-0.015610851 0.014103271 -0.016465213 4289603878
-0.013000894 0.011381213 -0.014087935 4289407528
-0.01019131 0.0079472661 -0.011020465 4289080618
-0.0073549524 0.0045152903 -0.0079585835 4288491823
-0.0044918209 0.0010852963 -0.0049022771 4288164913
-0.0017881244 -0.0016297922 -0.0025444813 4287772469
0.00074809417 -0.003630504 -0.0008835569 4287510583
0.0033003837 -0.0056300163 0.00077410229 4287379513
0.0058687348 -0.0076282918 0.0024284516 4287314234
0.008059334 -0.0082009211 0.0026980992 4287445303
0.01005571 -0.0080610812 0.0022765696 4287183929
0.012254328 -0.0086329281 0.0025446806 4287251249
-0.035289258 0.0039039552 -0.0061678942 4288494374
-0.033355922 0.0040372461 -0.0065777265 4289017889
-0.031571072 0.0048883706 -0.0076867528 4288951844
-0.029942732 0.0064568222 -0.0094933137 4289213474
-0.028478894 0.008741945 -0.011995645 4289409313
-0.026717722 0.0095917955 -0.013099459 4288558633
-0.025280371 0.011875317 -0.015596012 4288689194
-0.023696993 0.013441071 -0.017392742 4289081128
-0.02212419 0.015006151 -0.019187108 4289211944
-0.02022735 0.015137747 -0.019588582 4289538854
-0.017990455 0.013836987 -0.018600537 4289538854
-0.01539747 0.011104908 -0.016226355 4289211434
-0.012783043 0.0083744377 -0.013856616 4289473063
-0.0099691749 0.0049298704 -0.010798309 4288230449
-0.0071285293 0.0014872774 -0.0077455863 4287968563
-0.0042611137 -0.0019533336 -0.0046984367 4287576119
-0.0015529469 -0.0046768337 -0.0023481846 4287576119
0.00079924241 -0.0059688687 -0.0013839211 4287510839
0.0031621419 -0.0072599873 -0.00042186677 4287379513
0.0055357553 -0.0085502863 0.00053804927 4287248698
0.0075266473 -0.0084109455 0.00011759438 4287183928
-0.036137044 0.0059178174 -0.010827266 4288168994
-0.034071423 0.0053300634 -0.010536049 4288953374
-0.032297194 0.006182611 -0.011641197 4289410334
-0.030377075 0.0063151792 -0.012048084 4289148448
-0.028764404 0.0078869909 -0.013847969 4289017379
-0.026849389 0.0080194175 -0.014253617 4288886309
-0.025093388 0.0088711306 -0.015354581 4288820518
-0.023666199 0.01116056 -0.017843977 4289278244
-0.022090495 0.012730241 -0.019635711 4289212453
-0.020023983 0.012143388 -0.019344049 4289015593
-0.017442632 0.0094016492 -0.016974092 4289015338
-0.014667358 0.0059432834 -0.013916031 4289015339
-0.012040444 0.0032049417 -0.011555541 4288491823
-0.0095699057 0.0011860952 -0.0098909102 4287968564
-0.0069027916 -0.001549229 -0.0075387545 4287445304
-0.0043974295 -0.0035654008 -0.0058813747 4287314234
-0.0016901493 -0.0062976927 -0.0035375431 4287314234
0.00047301874 -0.0068769604 -0.0032656658 4287380024
0.0028327405 -0.0081727058 -0.0023061987 4287118648
0.0050093159 -0.0087508038 -0.0020369831 4287316529
-0.032725304 0.0060504824 -0.014190498 4288561948
-0.030659731 0.0054606646 -0.013900752 4289019419
-0.028895892 0.0063149184 -0.01500194 4288821283
-0.026981011 0.0064473078 -0.015407579 4288821538
-0.025066018 0.0065798163 -0.015813153 4288952098
-0.023312535 0.0074336231 -0.016911874 4289148449
-0.021564297 0.0082871765 -0.018009393 4289213219
-0.019654371 0.0084196478 -0.018413661 4289016104
-0.017065864 0.005669713 -0.016051797 4288296238
-0.014111347 0.0014804527 -0.012312537 4287903539
-0.011474613 -0.0012659207 -0.009960711 4287380023
-0.0089940801 -0.0032906383 -0.0083031598 4287248953
-0.006677784 -0.0045941919 -0.0073382054 4287183163
-0.004350733 -0.0058969259 -0.0063753854 4287379513
-0.0018273219 -0.0079182833 -0.004726693 4287117628
0.00014720112 -0.0077804178 -0.0051439442 4287053114
-0.031394191 0.0067832321 -0.017831579 4288560928
-0.029334154 0.0061910003 -0.017542269 4288495394
-0.027268667 0.0055992603 -0.01725404 4288953628
-0.025356483 0.0057315528 -0.017659038 4289083424
-0.023444191 0.0058639646 -0.018063974 4289083168
-0.021531809 0.0059964955 -0.018468846 4289213219
-0.019119043 0.0039600804 -0.016802236 4289081638
-0.016520735 0.0012020767 -0.014449059 4288820009
-0.013728872 -0.0022769645 -0.011411017 4287772979
-0.011259791 -0.004309088 -0.0097561125 4287053114
-0.0091295093 -0.0048955083 -0.009480888 4286922043
-0.0069938339 -0.0054813847 -0.0092067588 4287183674
-0.0048527718 -0.0060667768 -0.0089336801 4287183419
-0.0027063191 -0.0066516697 -0.008661652 4287052348
-0.025646526 0.0048879683 -0.019501487 4288560418
-0.023575805 0.0042945892 -0.019215871 4288624934
-0.021499649 0.0037017167 -0.018931305 4289344033
-0.018918321 0.00093369186 -0.016581226 4289343524
-0.016315542 -0.0018327385 -0.014235598 4288558123
-0.013691321 -0.004597567 -0.011894425 4287511604
-0.011569448 -0.0051868036 -0.011619188 4287184184
-0.0090876296 -0.00722453 -0.0099718105 4286922043
-0.0071295463 -0.0070881695 -0.010385862 4287119158
-0.0051714145 -0.0069516823 -0.010799823 4286858038
-0.026252933 0.0055049807 -0.022718433 4288299299
-0.023868434 0.0034532845 -0.021055914 4288755749
-0.021631543 0.0021304339 -0.020084575 4289278243
-0.018884689 -0.0013738126 -0.017053623 4289801504
-0.016280118 -0.0041487888 -0.014715009 4288296750
-0.013825838 -0.0061952025 -0.013066919 4287380533
-0.011878695 -0.0060598254 -0.01347883 4287053113
-0.0095773377 -0.0073776543 -0.012520717 4286922298
-0.021926932 0.0012891963 -0.02192384 4289149468
-0.019183815 -0.002226159 -0.018900372 4289279263
-0.016920548 -0.0035513639 -0.017937697 4288231724
-0.014303423 -0.0063341409 -0.01560823 4287381299
-0.019814577 -0.0016103387 -0.022111714 4288430114
-0.017222442 -0.0044036806 -0.019783624 4287577648
0.0080201589 -0.045010954 -0.0097503569 4286136644
0.0078791082 -0.046670645 -0.01096805 4286136644
-0.0068187378 -0.043384753 -0.019976124 4287445048
-0.0042867064 -0.045523241 -0.018418193 4286398274
-0.0019209497 -0.046901532 -0.017522808 4286201923
-0.0092976093 -0.043632247 -0.022070944 4287314489
-0.0069564879 -0.045016877 -0.021173842 4287576119
-0.0047841035 -0.045639306 -0.020937052 4286267714
-0.011250846 -0.04616186 -0.022186603 4287641908
-0.0094347969 -0.045259662 -0.023265257 4288231214
-0.0070942007 -0.046648674 -0.022371329 4287510074
-0.0099194795 -0.045354702 -0.025771562 4287901753
-0.007584732 -0.046748489 -0.024879636 4287443518
0.044209629 -0.013872571 0.027298054 4284116279
0.050102405 -0.024794586 0.037982561 4284116023
0.040588226 -0.01156009 0.022315824 4283001928
0.044062831 -0.015579529 0.026046133 4282479688
0.049952462 -0.026536666 0.036704905 4282479689
0.038611986 -0.01409594 0.022201529 4282804813
0.041373767 -0.0160399 0.023845864 4282412878
0.044622362 -0.019375376 0.026871832 4282282828
0.049564399 -0.02758228 0.03473559 4282218058
0.035494007 -0.013140447 0.018622661 4282282318
0.038466372 -0.015791349 0.020958031 4282151504
0.041460041 -0.018440641 0.023288989 4282021199
0.044945508 -0.022485517 0.026997263 4282086223
0.050128408 -0.031416722 0.035530843 4282216784
0.029691935 -0.01020439 0.013406688 4283066953
0.032399107 -0.012165569 0.015052432 4282347343
0.03534928 -0.014826797 0.017385771 4282086734
0.038320765 -0.017486483 0.019714737 4282020943
0.041778345 -0.021546505 0.023418924 4282217549
0.045738004 -0.027005665 0.028494878 4282086479
0.027295969 -0.011314318 0.011919046 4282936394
0.029991811 -0.013282895 0.013562107 4282412878
0.03247945 -0.014546566 0.014512056 4282151758
0.035658281 -0.017919965 0.017527776 4282021454
0.038863756 -0.021291383 0.020537959 4282086734
0.042560294 -0.02606716 0.024919027 4282086734
0.047468506 -0.034355007 0.032730423 4282020688
0.024473978 -0.011006102 0.0090537649 4283722813
0.027153149 -0.01298254 0.01069537 4282478924
0.029626969 -0.014251597 0.011644797 4282348108
0.033007413 -0.018343501 0.015345195 4282217038
0.036646537 -0.023138799 0.019726655 4282086223
0.040781677 -0.029342435 0.025474614 4281955154
0.044964831 -0.03554257 0.031212537 4282020434
0.024547651 -0.013376117 0.0085234437 4283723834
0.027228801 -0.01535894 0.010159703 4282348364
0.030147068 -0.018048838 0.012479873 4282217548
0.033981889 -0.023569606 0.017542293 4282086733
0.038765319 -0.031918921 0.025340172 4282020434
0.043612815 -0.04026366 0.033124678 4282085204
0.02216677 -0.01447086 0.0070433039 4284639284
0.024836581 -0.016461127 0.0086769219 4283396413
0.027304087 -0.01773943 0.0096210297 4282479944
0.030224137 -0.020437911 0.011934241 4282217293
0.034954481 -0.028817311 0.019723492 4282086223
0.040427763 -0.039322414 0.029552756 4282020943
0.02223756 -0.016844854 0.0065107401 4284508469
0.024909342 -0.018841513 0.0081390049 4283201083
0.027379012 -0.020124018 0.0090793762 4282479943
0.030521603 -0.023543768 0.012069622 4282216784
0.035478324 -0.032661602 0.020521911 4282151504
0.041408874 -0.044623703 0.031691179 4281625183
-0.041490465 0.0033589527 -0.0075045582 4282869329
-0.039976321 0.0056534857 -0.010013139 4282741319
0.022308005 -0.01922296 0.0059752408 4284181049
0.024766516 -0.020510718 0.0069145802 4282808383
0.02723567 -0.021797605 0.0078517813 4282019924
-0.044474751 0.006706275 -0.013153842 4281695818
-0.043375731 0.011175599 -0.017751923 4280264249
-0.041483141 0.011305723 -0.018153386 4281113908
-0.039169677 0.0092679933 -0.016461626 4281961019
-0.036982946 0.0079539046 -0.015470336 4281705253
0.022378074 -0.021605112 0.0054367017 4283983679
0.024838744 -0.022897065 0.0063722972 4282281554
-0.04677172 0.0064593479 -0.015296279 4281761608
-0.045925327 0.012393244 -0.021282684 4280394043
-0.044582583 0.015423413 -0.024470946 4280721719
-0.042436697 0.014101967 -0.023474509 4279550248
-0.040279962 0.012781329 -0.022480249 4281439034
-0.037969701 0.010736912 -0.020792695 4282091323
-0.035643272 0.0086936653 -0.019108444 4282939708
-0.048803754 0.0047664642 -0.016039643 4281569083
-0.047805645 0.0099914223 -0.021320976 4281179444
-0.046449125 0.013031118 -0.024505675 4281568063
-0.044844694 0.014614616 -0.026294472 4281502274
-0.042976372 0.014743019 -0.026690828 4281111103
-0.040968046 0.014144495 -0.026392622 4280329274
-0.038811669 0.012819596 -0.025401566 4280980289
-0.036499269 0.010768831 -0.023719301 4281241153
-0.034318596 0.0094458163 -0.022733238 4281895993
-0.032127127 0.0081236213 -0.021749329 4283205929
-0.051082671 0.0045347586 -0.018175414 4281434188
-0.049817532 0.0083154961 -0.02205684 4281112379
-0.048578933 0.012094501 -0.025932571 4280461109
-0.046971746 0.013682395 -0.027718768 4280785978
-0.045375109 0.015269719 -0.029502682 4281045824
-0.043514915 0.015397556 -0.029897325 4279743028
-0.04137519 0.014066979 -0.028906083 4280590139
-0.039224669 0.012737304 -0.027917095 4280915519
-0.037208349 0.012137342 -0.027622089 4280915009
-0.035334267 0.012266543 -0.028019361 4281307963
-0.033159316 0.010938827 -0.027035268 4281764414
-0.030820534 0.0088836849 -0.025363358 4282288948
-0.051087931 0.0022448376 -0.018624321 4281369419
-0.049945526 0.0067690015 -0.023192393 4281111104
-0.048706122 0.010558929 -0.027060071 4280785213
-0.047361739 0.013615169 -0.030229056 4280394809
-0.045636013 0.014474649 -0.031316154 4280459578
-0.043915473 0.015333861 -0.032402076 4280199733
-0.041502543 0.012535669 -0.030030327 4280981308
-0.039636865 0.01266405 -0.030426001 4280981564
-0.037626207 0.012061503 -0.030131456 4280981053
-0.036052644 0.013652101 -0.031906806 4280460088
-0.034039058 0.013049908 -0.031612687 4280655928
-0.032020029 0.012448266 -0.03131967 4281243194
-0.029528938 0.0096561015 -0.028964002 4281700918
-0.0075804293 -0.0095721483 -0.013426187 4283068484
-0.0052607842 -0.010892823 -0.012475053 4283658043
-0.0023756847 -0.014397494 -0.0094810184 4284442678
-0.050600201 -0.0029880702 -0.016303882 4281761354
-0.04956948 0.002284646 -0.021557644 4281304903
-0.04857596 0.0075549483 -0.02680348 4281370949
-0.047488295 0.012088612 -0.031349916 4281305923
-0.045896493 0.013684232 -0.033126205 4281307964
-0.044178583 0.014545459 -0.034209993 4281177658
-0.041908517 0.012471907 -0.032533772 4281243194
-0.039906308 0.011866465 -0.032239188 4281047609
-0.038187966 0.012728006 -0.03332277 4280786234
-0.036769517 0.015055466 -0.035781182 4279614254
-0.034916937 0.015183259 -0.036173843 4280200244
-0.032758884 0.013845727 -0.035192706 4280070193
-0.030434698 0.011776537 -0.033527482 4281504058
-0.027936373 0.008976303 -0.031179912 4282548029
-0.025577277 0.0069097504 -0.02952191 4284116534
-0.010200989 -0.0091188326 -0.016234947 4283459653
-0.0077158585 -0.011175826 -0.014603009 4282545223
-0.0052146763 -0.013231546 -0.012974426 4283396158
-0.0025126971 -0.016016528 -0.010669036 4284442423
-0.050114207 -0.008242622 -0.013999272 4281695563
-0.048943229 -0.0036903918 -0.018553749 4281696074
-0.047804072 0.00085974485 -0.023101324 4281305924
-0.046959057 0.0068805441 -0.029021658 4281371458
-0.045621321 0.0099538006 -0.032176014 4281176129
-0.044168301 0.012289677 -0.034637112 4280981309
-0.042035408 0.010945544 -0.033654392 4281243449
-0.040175326 0.011073507 -0.034048904 4280852023
-0.038315117 0.011201598 -0.03444336 4280851259
-0.037043415 0.014270838 -0.037583314 4281046333
-0.035193637 0.014398422 -0.037975397 4281242174
-0.033191256 0.013791241 -0.037682168 4279287088
-0.030873083 0.011715084 -0.036020625 4281112634
-0.029012308 0.011843748 -0.036414787 4281699388
-0.026509412 0.0090351701 -0.03407466 4282156094
-0.023658719 0.0047598928 -0.030373013 4282811188
-0.017523933 -0.0052512437 -0.021626135 4283333938
-0.014913909 -0.0080519244 -0.01930833 4282611013
-0.012630165 -0.0093842149 -0.018356418 4282283594
-0.01015915 -0.011448801 -0.016726576 4282088009
-0.0076720603 -0.013512224 -0.015100023 4282087753
-0.0049870312 -0.01630722 -0.012797719 4283528249
-0.0026496761 -0.017635249 -0.01185683 4284573239
-0.049875915 -0.012040518 -0.013090355 4281760589
-0.048319079 -0.0096914396 -0.015568888 4281761353
-0.046906374 -0.0066045821 -0.01873276 4281566279
-0.045907743 -0.0013033748 -0.023956582 4281305924
-0.044946291 0.003995344 -0.029172387 4281240643
-0.043885738 0.0085534826 -0.033693232 4281175618
-0.04216224 0.0094194785 -0.03477481 4281111359
-0.04058557 0.01102303 -0.036541112 4280916539
-0.039019451 0.012626015 -0.038305134 4280265014
-0.037610836 0.01496578 -0.040751558 4281306688
-0.035769194 0.015092775 -0.041141931 4281306688
-0.033318222 0.012271594 -0.038797691 4281176639
-0.031000726 0.010188855 -0.037140951 4280655163
-0.028982442 0.0095807984 -0.03685258 4280849984
-0.026638065 0.0075001419 -0.035201367 4280915008
-0.023462627 0.0017389804 -0.030146565 4281176639
-0.019913074 -0.0054913908 -0.023739109 4281764414
-0.01698336 -0.0097740367 -0.020063909 4282091579
-0.014363538 -0.012582764 -0.017754771 4282286144
-0.012243301 -0.013183072 -0.017487468 4282087753
-0.0097649731 -0.015253745 -0.01586408 4282022729
-0.0074495897 -0.016587891 -0.01492201 4281957194
-0.0049417838 -0.018656284 -0.013304683 4283724089
-0.0027866289 -0.019253656 -0.013044397 4284507703
-0.049761429 -0.015110001 -0.012879072 4281824848
-0.047947958 -0.014236175 -0.013978571 4281891913
-0.046267755 -0.012621723 -0.015763976 4281696583
-0.0451212 -0.0080449209 -0.020293342 4281305923
-0.044273384 -0.0019890293 -0.026187874 4280980033
-0.043332003 0.0033236593 -0.031387895 4281045824
-0.042011455 0.006413281 -0.03452526 4281175618
-0.040712133 0.0095016062 -0.037658088 4281241408
-0.039434023 0.012588568 -0.040786337 4280590648
-0.038177133 0.015674178 -0.04391 4280199733
-0.036044724 0.014321696 -0.042933464 4280265014
-0.033749379 0.012230787 -0.041277055 4280004659
-0.030973535 0.0079238415 -0.037579592 4280459578
-0.028795425 0.006574817 -0.036612444 4281111359
-0.025965992 0.0022718012 -0.032926161 4281176385
-0.022941615 -0.0027674362 -0.02856678 4281045313
-0.019548841 -0.0092806369 -0.022856833 4281371203
-0.016612366 -0.013575882 -0.019192943 4281958724
-0.01398541 -0.016392834 -0.016891906 4281762883
-0.011684015 -0.01773259 -0.01595038 4282022218
-0.0097241811 -0.01759626 -0.016364913 4282022218
-0.0074066333 -0.018934667 -0.015426568 4282087499
-0.0050783679 -0.02027218 -0.014490443 4283723324
-0.049525015 -0.018931381 -0.011987412 4281694034
-0.047954001 -0.016568325 -0.014459122 4281630283
-0.046143003 -0.015692405 -0.015556388 4281630793
-0.044859551 -0.011845052 -0.019392278 4281175364
-0.043602616 -0.0079994053 -0.023222463 4280914498
-0.042508133 -0.0034129024 -0.027730737 4280979778
-0.041584149 0.0019139275 -0.032915469 4280914243
-0.040697381 0.0072382614 -0.038092185 4281370948
-0.039703883 0.011818152 -0.04257879 4281307199
-0.038449064 0.014912307 -0.045695446 4281176383
-0.036319815 0.013555255 -0.044721536 4281241663
-0.03372395 0.0099746436 -0.041708525 4281241408
-0.030482814 0.0034308881 -0.035981629 4281111614
-0.027665395 -0.00088612735 -0.032302767 4281438269
-0.024655897 -0.0059417561 -0.027951848 4281436483
-0.021771554 -0.010253936 -0.024286995 4281565259
-0.019020393 -0.013823219 -0.021306435 4281564749
-0.01641041 -0.01665017 -0.019008471 4281630283
-0.014120266 -0.017995223 -0.018067913 4281500489
-0.011819381 -0.01933936 -0.01712957 4281760843
-0.009859696 -0.019203044 -0.017544072 4282021454
-0.007542666 -0.020545855 -0.016608916 4281889873
-0.005396232 -0.021148354 -0.016350187 4282738513
-0.04771021 -0.020395443 -0.01357375 4281695309
-0.046274409 -0.017280944 -0.016722826 4281696329
-0.044990189 -0.013422683 -0.020550679 4281436738
-0.043333225 -0.011800952 -0.022324434 4280914499
-0.042094044 -0.0079455525 -0.026142554 4280783428
-0.040881403 -0.0040918514 -0.029954948 4281109829
-0.039836399 0.00050454587 -0.034442756 4280913479
-0.038967028 0.0058430135 -0.03960418 4281110339
-0.037988454 0.010435019 -0.044077691 4281371204
-0.035998136 0.0098181143 -0.043788627 4281372734
-0.033395313 0.0062270984 -0.04078532 4281373499
-0.029839091 -0.0018227249 -0.03371805 4281437248
-0.026852459 -0.0068953037 -0.029373914 4281371204
-0.023828361 -0.011965111 -0.025037644 4281501253
-0.021579012 -0.013317704 -0.024092007 4281630028
-0.019318908 -0.014669411 -0.023148615 4281760588
-0.016880259 -0.016762801 -0.021531926 4281891658
-0.014425531 -0.018854901 -0.019918587 4281826378
-0.012127828 -0.02020368 -0.018982835 4281500234
-0.0099951774 -0.020809546 -0.018723018 4281694800
-0.0076786689 -0.022156738 -0.01779104 4281430873
-0.045895487 -0.021859154 -0.015159802 4281695308
-0.044860303 -0.016494662 -0.020345343 4281173579
-0.043330692 -0.014121056 -0.022798223 4280979269
-0.041816935 -0.011748411 -0.025247641 4281174599
-0.040457271 -0.0086300448 -0.028373605 4281239879
-0.039118819 -0.0055129826 -0.031495027 4281370184
-0.038232304 -0.00015807152 -0.036648631 4281304903
-0.036944285 0.0029557347 -0.039759196 4281239878
-0.035081856 0.0030841157 -0.040154021 4281500744
-0.032309815 -0.0012624562 -0.036485434 4281370183
-0.029042888 -0.0078436211 -0.030793633 4281370183
-0.026198596 -0.012184918 -0.027140222 4281565004
-0.023481764 -0.015778586 -0.024169041 4281564749
-0.021224927 -0.017134987 -0.023228331 4281825868
-0.019287176 -0.017000705 -0.023638582 4281955918
-0.01701415 -0.018355772 -0.022701068 4281825869
-0.014730386 -0.019709945 -0.021765785 4281760078
-0.012435868 -0.021063283 -0.020832643 4280972129
-0.044080809 -0.023322508 -0.016745571 4281759314
-0.043195747 -0.017194577 -0.0225954 4281108299
-0.041947037 -0.013316751 -0.026399154 4280848453
-0.040310651 -0.011687532 -0.028161813 4281043783
-0.038825572 -0.0093101338 -0.030600067 4281369929
-0.037499733 -0.0061851442 -0.03371216 4281173833
-0.036195114 -0.0030615479 -0.036819637 4281173323
-0.034019351 -0.0044284835 -0.035865489 4281238604
-0.031530004 -0.0072906539 -0.033562295 4281043019
-0.028711069 -0.011646882 -0.029913487 4280977994
-0.026173472 -0.014505476 -0.027620325 4281565259
-0.023455031 -0.018109933 -0.024657713 4281760334
-0.021358114 -0.018723249 -0.024394101 4281760333
-0.019091025 -0.020083211 -0.023458721 4281825358
-0.017148007 -0.019948468 -0.023870008 4281824848
-0.014694687 -0.022053748 -0.022266261 4281628754
-0.042266227 -0.024785474 -0.018331025 4282020178
-0.041536234 -0.017890066 -0.024840841 4281239878
-0.040164746 -0.014753468 -0.027956231 4281696839
-0.03853336 -0.013120167 -0.029714484 4281565513
-0.037055723 -0.010736644 -0.032146133 4281369419
-0.035448089 -0.0091047287 -0.033899162 4281173579
-0.033256829 -0.010474965 -0.032951605 4281304138
-0.030903552 -0.012594596 -0.031332202 4281434699
-0.02853417 -0.014712989 -0.029716132 4281369418
-0.026148681 -0.016830102 -0.028103406 4281239114
-0.023747072 -0.018946037 -0.026493983 4281629518
-0.021167483 -0.021810189 -0.024216127 4281629264
-0.019060139 -0.022424862 -0.02395628 4281628499
-0.040721774 -0.024741091 -0.021267761 4282803794
-0.039606415 -0.020087883 -0.025731111 4281825868
-0.038242206 -0.016943008 -0.02883831 4281565258
-0.036470108 -0.016058289 -0.029918643 4281368908
-0.034994617 -0.013668351 -0.032344807 4281369673
-0.03294155 -0.01428967 -0.032075647 4281565513
-0.030731998 -0.015662894 -0.031135174 4281695564
-0.028357968 -0.017787501 -0.029525021 4281630029
-0.026280578 -0.018406779 -0.029260749 4281433678
-0.024038713 -0.019777462 -0.028326819 4281237583
-0.021786086 -0.021147236 -0.027395112 4281497938
-0.019358326 -0.023267627 -0.025795963 4280972639
-0.037531547 -0.023044609 -0.025952414 4281695818
-0.036314808 -0.019136131 -0.029724462 4281566024
-0.034833573 -0.016739219 -0.032146946 4281435208
-0.032923691 -0.016607627 -0.03255187 4281696583
-0.030711975 -0.017985106 -0.031615097 4281761098
-0.028335985 -0.020116046 -0.03001033 4281564749
-0.026100066 -0.021491617 -0.029078523 4281629264
-0.024012238 -0.022112243 -0.028818028 4281301589
-0.036017515 -0.022979699 -0.028865581 4282936139
-0.03481856 -0.019061416 -0.032625604 4282024514
-0.032758154 -0.019686654 -0.032361288 4281959233
-0.030390952 -0.021824867 -0.030759679 4281957703
-0.027854308 -0.024718478 -0.02849276 4281759824
-0.025764246 -0.02534125 -0.028234482 4281430618
-0.033932962 -0.025943667 -0.029094923 4282480453
-0.032149844 -0.025051519 -0.030172464 4282088773
-0.029619522 -0.027954377 -0.027910862 4282089029
-0.027067762 -0.030855604 -0.025653761 4281956939
0.029936044 -0.023798555 0.009469239 4280703614
0.034884833 -0.032945283 0.017901773 4280571779
0.040580772 -0.044230498 0.028363558 4280637314
0.027310066 -0.024188191 0.0073057804 4280836979
0.030232776 -0.02691257 0.0095986407 4280374919
0.034738217 -0.034653641 0.016648741 4280505479
0.039753817 -0.043823853 0.025045874 4280505479
0.024910612 -0.025287487 0.0058270339 4280505733
0.027601609 -0.027302258 0.0074365195 4280439944
0.030308587 -0.029315799 0.0090427157 4280243083
0.035037342 -0.037799843 0.01675318 4280112014
0.039379071 -0.044841461 0.023094134 4279259803
0.022305148 -0.025659591 0.0036714207 4280898689
0.024767453 -0.026960135 0.0046000946 4280505479
0.027675081 -0.02970314 0.0068829227 4280243339
0.030824035 -0.033165976 0.009838907 4280177804
0.035335734 -0.040954538 0.016851457 4280308619
0.039230067 -0.046575502 0.021822317 4280177804
0.019711392 -0.026021764 0.0015202314 4281619319
0.022374332 -0.028051764 0.0031255316 4280898434
0.024838801 -0.029356539 0.0040505063 4280374408
0.027748192 -0.032108098 0.0063263308 4280309128
0.031118561 -0.036305398 0.0099497568 4280178059
0.035410888 -0.043394178 0.016268099 4280439944
0.039306246 -0.049032517 0.021225637 4281160829
0.014496433 -0.024334997 -0.002233129 4281095804
0.017129343 -0.02637393 -0.00062656775 4280767874
0.019987205 -0.029138207 0.0016533099 4280439944
0.022443159 -0.030448005 0.0025766678 4280374154
0.025124064 -0.032483205 0.0041733775 4279981453
0.02825487 -0.035969213 0.0071166325 4280178059
0.03207124 -0.041630782 0.012077464 4280571014
0.035707977 -0.046563536 0.016355557 4281291643
0.039157078 -0.050768085 0.019952709 4282667878
0.011940174 -0.024669588 -0.0043733679 4282210409
0.014559031 -0.026716158 -0.0027688704 4281160829
0.017399989 -0.029490471 -0.00049211085 4280374153
0.020053525 -0.031534314 0.0011052117 4280243338
0.022723073 -0.033576965 0.0026992932 4280374408
0.025622709 -0.036346748 0.0049639661 4280243594
0.028977212 -0.040571377 0.0085708443 4280440199
0.032802615 -0.046249725 0.013516603 4281357434
0.036004335 -0.049741365 0.016436877 4282733414
0.0091977548 -0.024262466 -0.0071848705 4280112013
0.011599323 -0.025585331 -0.0062569641 4280112014
0.014418032 -0.028370008 -0.0039821602 4280112013
0.017258096 -0.031153075 -0.0017117895 4280243339
0.020536652 -0.035396464 0.0019009635 4280374153
0.023635982 -0.038906693 0.004834218 4280570504
0.026975898 -0.043145522 0.0084342081 4280767619
0.030131236 -0.046651565 0.011355845 4282078829
0.0068628751 -0.025308877 -0.0086406209 4280767874
0.0092559122 -0.026636794 -0.007714279 4279587478
0.011859991 -0.028697543 -0.0061166771 4280046734
0.014480105 -0.03075707 -0.0045223087 4280046734
0.017733369 -0.035015427 -0.00091419742 4280505479
0.021227056 -0.040004626 0.00335907 4280636293
0.024547035 -0.044258043 0.0069532897 4281095039
0.027685305 -0.047776274 0.0098702181 4282471529
0.0019707475 -0.024279512 -0.011695053 4282341224
0.0045340508 -0.026350059 -0.010094017 4280964224
0.006918529 -0.02768302 -0.0091692954 4279849364
0.0095112324 -0.029751256 -0.0075742751 4279784083
0.012119953 -0.031818226 -0.0059825331 4280046734
0.014947549 -0.034619719 -0.0037227906 4280374664
0.01841308 -0.039626196 0.0005447641 4280767363
0.022332383 -0.046100676 0.0061449353 4281945209
-0.00052726269 -0.02456899 -0.013816568 4281291899
0.0022112783 -0.027386039 -0.01154507 4280046734
0.004587207 -0.028724052 -0.010621924 4279981199
0.0073631704 -0.031538241 -0.008358147 4279521944
0.0099631697 -0.03361249 -0.0067695938 4279849363
0.012779191 -0.036423609 -0.004514087 4280373898
0.01581924 -0.039971009 -0.0015932769 4280767619
0.019296659 -0.044991873 0.0026602615 4282207604
-0.0053514428 -0.023503035 -0.016861279 4280441728
-0.0026458986 -0.02633132 -0.014589573 4280374919
-0.00029189698 -0.027675502 -0.013665288 4280439944
0.0020728167 -0.029018849 -0.01274313 4279915664
0.0048318431 -0.031843022 -0.010482438 4279849874
0.0074177608 -0.033924878 -0.0088959932 4279587479
0.010414008 -0.037486494 -0.0059743561 4279390873
0.013037322 -0.039565511 -0.0043955781 4280963458
0.016081622 -0.043123491 -0.0014838912 4282469489
-0.0078146383 -0.023767292 -0.018972933 4280441219
-0.0051260516 -0.026605576 -0.016704366 4280112269
-0.0025996715 -0.028698653 -0.015110607 4280112014
-0.0002435185 -0.030047074 -0.014190029 4280112014
0.0019343887 -0.030651331 -0.013940949 4279980944
0.0046925135 -0.033484295 -0.01168666 4280177549
0.0076663047 -0.037058473 -0.0087685958 4280242829
0.010469846 -0.039888009 -0.0065237097 4281027974
-0.012398016 -0.023411296 -0.021336868 4280377214
-0.0099151954 -0.02551432 -0.019739129 4279588499
-0.0074163154 -0.027616054 -0.018144723 4280242828
-0.0049013607 -0.029716596 -0.016553603 4279980943
-0.0025537834 -0.031070039 -0.015634626 4280046733
-0.00019548647 -0.032422677 -0.014717799 4280046479
0.0019847453 -0.03302896 -0.014470857 4280373643
0.0047446471 -0.035870492 -0.012223516 4280897924
0.0077200215 -0.039455436 -0.0093140155 4282076023
-0.016947374 -0.023039028 -0.023697492 4281098863
-0.014829207 -0.023652688 -0.023439746 4280637313
-0.012360495 -0.025763355 -0.021844059 4280308874
-0.0098757148 -0.027872786 -0.020251676 4279587223
-0.0075527765 -0.029232547 -0.019330978 4278866848
-0.0050385296 -0.031339668 -0.017744634 4279784594
-0.0026914775 -0.032697514 -0.016828846 4280177548
-0.00033370219 -0.034054533 -0.015915181 4280439433
0.002411928 -0.036905885 -0.013671514 4281290878
-0.017248571 -0.0238842 -0.025538199 4280637058
-0.014793977 -0.026002482 -0.023944542 4280439943
-0.012495693 -0.027368583 -0.023022115 4280177293
-0.010011613 -0.029484585 -0.021434516 4279980944
-0.0075114816 -0.031599283 -0.019850262 4279063453
-0.0051756613 -0.032962441 -0.018935449 4279391129
-0.0026460737 -0.03507489 -0.017357185 4280439689
8.5273758e-05 -0.037936002 -0.015117191 4281421693
-0.019491918 -0.024859361 -0.026964247 4280377724
-0.017215647 -0.026231602 -0.026040655 4280243594
-0.015098147 -0.026849665 -0.025786061 4280439689
-0.012803044 -0.028220393 -0.024866216 4280242828
-0.01049722 -0.029590189 -0.023948576 4280242573
-0.0076480582 -0.033217356 -0.021037664 4280242063
-0.0049523637 -0.036089957 -0.018796865 4280766088
-0.0020524114 -0.039713308 -0.015896477 4282468724
-0.023827422 -0.025207333 -0.028644759 4280244868
-0.021729156 -0.025829345 -0.028387994 4279522963
-0.019461479 -0.027206637 -0.027465947 4279915409
-0.017349727 -0.027827412 -0.02721189 4279849874
-0.015063219 -0.029203206 -0.026293609 4280046478
-0.012765981 -0.030578107 -0.025377557 4280177549
-0.010108642 -0.033462338 -0.02313542 4280635529
-0.0072525516 -0.037099883 -0.020234182 4281290624
-0.0045497492 -0.03998071 -0.018001474 4282926704
-0.023643296 -0.028310888 -0.028477635 4279850639
-0.02186235 -0.027418286 -0.029554263 4279784593
-0.019595195 -0.028799981 -0.028635416 4279980688
-0.017150782 -0.030938685 -0.027054507 4279063708
-0.014859475 -0.032318451 -0.026140574 4279653268
-0.012385584 -0.034454852 -0.024565715 4280242573
-0.0097211339 -0.037347302 -0.022331666 4281486973
-0.024940144 -0.033839799 -0.025909688 4280963968
-0.023459874 -0.031422839 -0.028316747 4280308364
-0.021834534 -0.029767297 -0.030056592 4278800803
-0.019565232 -0.031153187 -0.029141471 4279653013
-0.016952559 -0.034058303 -0.026903328 4279783828
-0.013980523 -0.038481504 -0.023345578 4280241553
-0.011662979 -0.039863713 -0.022440359 4281944698
-0.024296779 -0.039255999 -0.023768947 4281814648
-0.023119014 -0.035306051 -0.027499352 4280896903
-0.021485474 -0.033645548 -0.029237684 4279390363
-0.019208677 -0.03503532 -0.028327409 4279980689
-0.016422767 -0.03871084 -0.025436353 4280177293
-0.013441324 -0.043146417 -0.021890447 4280766853
-0.020816252 -0.039066195 -0.027107067 4282471273
-0.018526651 -0.040459387 -0.026202831 4282012529
-0.015894424 -0.043380558 -0.023981985 4282601323
0.0013700463 -0.048620306 -0.032503694 4282535533
0.037308559 0.021928526 0.048503906 4285624349
0.039371662 0.022073656 0.048068754 4285885978
0.043073073 0.017664842 0.052726008 4285886233
0.033037171 0.019939996 0.048128434 4284901424
0.03419698 0.022698376 0.044782981 4285624348
0.03533531 0.025455307 0.041442104 4285689374
0.037145734 0.026251901 0.040285081 4285558049
0.040120058 0.023784313 0.042758547 4285623583
0.044771492 0.016750243 0.050304607 4285689629
0.027024837 0.023200702 0.041932218 4285164328
0.029507251 0.022032253 0.042955533 4285361699
0.031554356 0.022176098 0.042523637 4285493278
0.033150081 0.023631107 0.040639907 4285755928
0.034278385 0.02639607 0.037307821 4285887508
0.03630922 0.026538979 0.036879517 4285821718
0.03927467 0.024062075 0.0393482 4285821718
0.042970516 0.019622341 0.043983541 4285756183
0.047181763 0.013876125 0.050057262 4285624604
0.050715927 0.010096598 0.053953238 4285493534
0.023121692 0.026644833 0.035317697 4285689118
0.024924606 0.027445015 0.0341653 4285885979
0.027822698 0.024954248 0.036641367 4285952024
0.030296573 0.023780905 0.037663251 4285689883
0.032104686 0.024581619 0.036509953 4285624094
0.033679225 0.026039612 0.034634076 4285558558
0.035704628 0.026182152 0.034206927 4285624349
0.038663905 0.023696046 0.036670357 4285558814
0.041644491 0.021211516 0.039129354 4285558814
0.044646375 0.018728551 0.041583911 4285493534
0.046703476 0.018873606 0.041150287 4285559323
0.049004652 0.01836231 0.041437097 4285624859
0.052298509 0.015226513 0.044602104 4285755419
0.058114383 0.0055322275 0.054953985 4285754653
0.020323977 0.026823089 0.032347746 4285229863
0.021692539 0.028946407 0.029748155 4285820189
0.023696758 0.029087123 0.029325215 4285885723
0.02680056 0.025926314 0.032521501 4285886488
0.02970846 0.02342758 0.034988947 4285820954
0.032187164 0.022250287 0.03600657 4285689374
0.033992633 0.023053095 0.034855552 4285558813
0.036023296 0.02319603 0.034427308 4285559068
0.038520478 0.022020292 0.035441145 4285559069
0.041500226 0.019526966 0.037893713 4285559069
0.043546658 0.019671228 0.037462309 4285559068
0.044868987 0.021792013 0.034873001 4285689883
0.045931146 0.024570335 0.031568423 4285689629
0.04869853 0.022738151 0.033295803 4285623583
0.052728593 0.017615914 0.038608 4285689373
0.059573583 0.0052581653 0.051798977 4285820699
0.016983891 0.02223121 0.034882665 4284966704
0.017752638 0.026352663 0.030108774 4285689628
0.018700965 0.029808849 0.02606562 4286279189
0.020265652 0.031274572 0.024198191 4285556773
0.022470791 0.030751463 0.024501441 4285557539
0.025779933 0.026916172 0.028414758 4285689118
0.028676283 0.024407919 0.030877994 4285820699
0.031819087 0.021239024 0.034057938 4285624093
0.033621967 0.022043902 0.032909103 4285558813
0.035649873 0.022186663 0.032481454 4285559068
0.037677687 0.022329502 0.032053895 4285559068
0.040176995 0.021149591 0.03306409 4285558813
0.041971508 0.02195413 0.031917281 4285558558
0.043037128 0.024741407 0.02861855 4285887509
0.04432505 0.026866429 0.026041543 4285755418
0.046829239 0.025687199 0.027050884 4285557538
0.050340667 0.021866936 0.03092215 4285623584
0.055143207 0.014747765 0.038363941 4285623839
0.060513455 0.006312646 0.047223233 4285755419
0.016985521 0.026697889 0.02672877 4285557794
0.017926667 0.030164529 0.022695413 4286279444
0.019697819 0.03096896 0.021554692 4286082838
0.022114201 0.029778387 0.022578651 4285952279
0.025419438 0.025929734 0.026482826 4285952534
0.028534504 0.022747934 0.029660268 4285689628
0.031451367 0.020232428 0.032112665 4285624094
0.033024114 0.021703433 0.030247184 4285558558
0.034586065 0.023173805 0.028383991 4285624349
0.036370173 0.023979668 0.027240938 4285624348
0.039326839 0.021467268 0.029685175 4285558558
0.041113421 0.022273455 0.028541712 4285558559
0.042171687 0.025069002 0.025251178 4285755674
0.042964827 0.028526124 0.021249717 4285887253
0.045701493 0.026678696 0.022973673 4285821208
0.048952013 0.023507189 0.026123123 4285755674
0.053487375 0.017025337 0.032836199 4285690648
0.057567425 0.011871856 0.03811156 4285493789
0.017998843 0.027863681 0.022217793 4285557539
0.019558761 0.029337801 0.020358047 4285623839
0.021974673 0.028142814 0.021378791 4285689884
0.024839975 0.025614802 0.023835355 4285689884
0.027726626 0.023088355 0.026287464 4285558559
0.030409895 0.021230072 0.028017243 4285624348
0.031972222 0.022704743 0.02615728 4285690139
0.033523776 0.024178732 0.024299646 4285886998
0.035297263 0.024986103 0.023160459 4285886998
0.038242385 0.022464164 0.02560054 4285952789
0.040494539 0.02194063 0.025891045 4285755419
0.041788895 0.024079166 0.02332264 4285558559
0.043310512 0.025551472 0.021471562 4285558558
0.04555966 0.025027908 0.021762917 4285624348
0.048809145 0.021845426 0.024904342 4285624604
0.052839603 0.016670939 0.030176854 4285493533
0.057420976 0.010170531 0.036863811 4285427744
0.064110085 -0.0016402081 0.049228311 4285427999
0.020275 0.02502884 0.022035571 4285623074
0.022484649 0.024499524 0.022332935 4285558558
0.024918776 0.023301546 0.023346601 4285624348
0.027585411 0.021435428 0.025074927 4285624859
0.029369937 0.022245508 0.023934947 4285689628
0.030467443 0.025060985 0.020649122 4285821209
0.032233104 0.025869891 0.01951324 4285754909
0.034458417 0.025342155 0.019807661 4285689373
0.037394665 0.022810861 0.022243002 4285887253
0.040352203 0.020281181 0.024673874 4285821208
0.041887604 0.021758746 0.022823209 4285624348
0.04365544 0.0225682 0.021687167 4285559068
0.046155564 0.021375656 0.022687515 4285559068
0.049660642 0.017515667 0.026530413 4285493533
0.053951457 0.011657521 0.032498412 4285559324
0.058544211 0.0051360801 0.039166473 4285559579
0.024340257 0.022998068 0.020707542 4285425959
0.026335891 0.023138404 0.020286584 4285558048
0.02788279 0.024620742 0.018436419 4285558559
0.028964903 0.027443904 0.015160466 4286345489
0.031173985 0.026912734 0.015456649 4285754399
0.033620674 0.025711667 0.016464667 4285557794
0.036548056 0.023171026 0.018895289 4285689629
0.039496731 0.020631958 0.021321474 4285755929
0.041745536 0.02010395 0.021609483 4285558558
0.044728763 0.017567482 0.024028512 4285493533
0.04748752 0.015702032 0.025733007 4285493789
0.05150421 0.010491569 0.030981956 4285427998
0.055312485 0.0059532076 0.035513029 4285427488
0.059665523 7.9855323e-05 0.041453168 4285360934
0.0268462 0.02567628 0.014383478 4285426468
0.027918285 0.028507467 0.011116317 4285885724
0.029886873 0.02864616 0.01070126 4286016538
0.032784056 0.026094619 0.013131542 4285952534
0.035937421 0.022872191 0.016268222 4285886998
0.039354935 0.018979583 0.020109506 4285690139
0.042564236 0.015761312 0.023234481 4285493023
0.045800172 0.012544997 0.026353901 4285559069
0.049308263 0.0086590126 0.03017628 4285559579
0.052848313 0.0047753379 0.033992022 4285427233
0.056671187 0.00022278726 0.038508438 4285294889
0.060277782 -0.0036559701 0.042310245 4285163309
0.027779695 0.026888255 0.0099285822 4285491493
0.029518865 0.027701966 0.008803254 4285558048
0.032412536 0.025141414 0.011227718 4285624349
0.036031496 0.020558648 0.015775217 4285558813
0.039925106 0.015304238 0.021023439 4285493278
0.043621413 0.010727089 0.025554752 4285493024
0.047112349 0.0068267286 0.029370787 4285493024
0.050635256 0.0029286668 0.033180185 4285294889
0.053942088 -0.00029336661 0.036276557 4285163308
0.05702481 -0.0028399825 0.038661629 4285031984
0.061142255 -0.008078061 0.043863088 4285032239
0.030296847 0.023376506 0.010451989 4285687588
0.033200361 0.020807918 0.012867784 4285623584
0.037063062 0.015533734 0.018109297 4285558558
0.041442726 0.008909449 0.024755796 4285624604
0.044916499 0.0049946979 0.028565479 4285361188
0.047937267 0.002434738 0.030956822 4285229098
0.051224463 -0.00079966336 0.034049027 4285228844
0.042720728 0.0031629726 0.027760377 4285360169
0.045730054 0.00059340149 0.030147472 4285229099
0.052057493 -0.0052192062 0.035612084 4284966449
0.05587624 -0.0098179802 0.040094726 4284966704
0.043286167 -0.00056665391 0.028634587 4285163054
0.04630265 -0.0031444356 0.031013595 4285031983
0.046874084 -0.0068951622 0.031870186 4285031984
0.051128618 -0.012893684 0.037741706 4285097519
0.047205333 -0.0099736527 0.03201741 4285097519
0.052913792 -0.020101689 0.042069681 4285031984
0.048252422 -0.015122868 0.034253396 4284966448
0.016942009 -0.012847856 0.0032444019 4285097519
0.019791862 -0.015560433 0.0055654887 4285097774
0.009776935 -0.011338323 -0.00012783892 4285163054
0.012378652 -0.013347022 0.0015098192 4285097518
0.014791843 -0.014638416 0.0024583843 4285031983
0.017422929 -0.016644813 0.0040900316 4285031984
0.0072489455 -0.011678785 -0.0022799876 4285360168
