# .PCD v0.7 - Point Cloud Data file format
VERSION 0.7
FIELDS x y z rgba
SIZE 4 4 4 4
TYPE F F F U
COUNT 1 1 1 1
WIDTH 811
HEIGHT 1
VIEWPOINT 0 0 0 1 0 0 0
POINTS 811
DATA ascii
0.0040811487 -0.00071447715 0.05238064 4287906344
0.0060922988 -0.00059197471 0.052018553 4291374598
0.0078082532 0.00089874491 0.050213989 4290589708
0.0027845278 -0.0065790415 0.055831257 4288099889
0.0043853745 -0.0043959655 0.053304501 4289997854
0.0062597096 -0.0035865493 0.052220825 4290455833
0.0081287622 -0.0027774237 0.051138211 4290390554
0.010142662 -0.0026546307 0.050775722 4291110928
-0.00018454716 -0.0042023621 0.050629325 4286724418
0.0019654557 -0.00476899 0.050986547 4288294963
0.004262872 -0.0060239844 0.0520618 4288360499
0.0064265132 -0.0065896288 0.052416682 4288753199
0.0085956305 -0.0071548559 0.052770644 4288949293
0.010620207 -0.0070314221 0.052406229 4289473318
0.012644842 -0.0069078989 0.052041866 4289342759
0.014669538 -0.0067842938 0.051677555 4289343013
0.016536208 -0.0059728436 0.050597288 4289277734
0.01855831 -0.005849231 0.050233573 4289408548
0.020580446 -0.0057255514 0.049869902 4289866018
0.022768768 -0.0062890388 0.050220855 4290257954
0.024962483 -0.0068521127 0.050570898 4289799973
0.027504697 -0.00878869 0.052347239 4290193184
0.031631194 -0.016905129 0.060538705 4289801759
0.038122408 -0.033943512 0.077982813 4289801759
-0.0038522296 0.012148868 0.030717619 4287376708
0.007736899 -0.0053340755 0.047943328 4288752434
0.010047585 -0.0065923184 0.049012952 4289407019
0.012216583 -0.0071596056 0.049365409 4289472809
0.013925344 -0.0056561232 0.047572363 4289277224
0.015623387 -0.0041532628 0.045781352 4289277223
0.017792534 -0.004720252 0.046133932 4290062369
0.020293703 -0.0066660605 0.047912408 4289146154
0.022977043 -0.0093001947 0.05040089 4289014319
0.025850642 -0.012622274 0.053598061 4289210669
0.028922547 -0.016631685 0.057502333 4289603368
0.033767484 -0.02752848 0.068515398 4289211943
0.0052630045 0.0041290596 0.035271689 4288357439
0.0075301938 0.0028637908 0.036345802 4288424503
0.00950348 0.002984155 0.035990659 4288425524
0.010856569 0.0058736801 0.032782815 4288753199
0.01203043 0.0094540827 0.028866209 4289341483
0.014621414 0.0068054572 0.031364478 4289995560
0.028967723 -0.01898323 0.056945536 4288292923
0.034856062 -0.034061335 0.072190449 4288227644
0.0036967061 -0.0020729601 0.063006692 4284639029
-0.009682253 0.020061055 0.020176884 4281748094
-0.0083136708 0.022950897 0.016965758 4281483658
-0.0062854141 0.022372382 0.017341483 4280171428
-0.003557127 0.018328056 0.02129671 4280434078
-8.8453293e-05 0.010820322 0.028824203 4280893078
0.0028623641 0.0060879514 0.033480622 4282859639
-0.011571731 0.017715685 0.020065196 4278931108
-0.010711927 0.023398528 0.013994693 4278799529
-0.0024690963 0.020380078 0.016206823 4278797234
0.00029327348 0.016325001 0.020145904 4279650974
0.0025007427 0.015051667 0.021227315 4279389089
0.0048685521 0.013084363 0.023019288 4279389854
0.0067959689 0.013201926 0.0226724 4279586204
0.0077940635 0.017486189 0.018056385 4280633233
0.0090750717 0.020380037 0.014868313 4280042144
0.011296269 0.019107996 0.015947532 4279713959
0.014995042 0.011591129 0.02341561 4280172704
0.019084398 0.0026904345 0.032292273 4281157004
0.023243766 -0.0062059052 0.041156404 4281157004
-0.012581438 0.021067576 0.013889714 4278734504
-0.01147826 0.025370447 0.0092643062 4278405809
-0.010007661 0.027577719 0.0067859916 4279323299
-0.0081454255 0.027690811 0.0064504482 4279586458
-0.0060059279 0.026408808 0.007540484 4278799274
-0.0034317411 0.023035208 0.010765585 4279191975
-0.0011184998 0.021057913 0.012562181 4278602924
0.00091764703 0.020475892 0.0129333 4278930853
0.0029592589 0.019894229 0.013303529 4278865318
0.0047022253 0.020706607 0.012252067 4278930344
0.0059756748 0.023608493 0.0090720691 4278732209
0.0073850527 0.025812754 0.0066053392 4278599609
0.0097390227 0.023838403 0.0083950395 4278467518
0.012923215 0.018384583 0.013723952 4278598588
0.016978025 0.0094536915 0.022584911 4278270659
0.021439228 -0.00086439028 0.032848235 4279649188
0.027519185 -0.017438069 0.049459875 4280370839
-0.013461165 0.023749666 0.0084506469 4278996899
-0.0019520894 0.023032365 0.0078490768 4278733738
-7.615611e-05 0.02314659 0.0075112991 4278602923
0.0017998517 0.023260903 0.0071735736 4278733993
0.0049337558 0.026284901 0.0036653988 4279060904
0.0064846426 0.02779603 0.001914327 4279521179
0.0089845099 0.02511589 0.0044087349 4278930599
0.011993878 0.020342326 0.0090195965 4278274739
0.015702311 0.012778621 0.016448922 4278865064
0.020646181 0.00033299997 0.028808184 4278799274
0.027735624 -0.020480156 0.049613915 4278799274
-0.0153189 0.021426534 0.0083490917 4279783828
-0.014338903 0.026458059 0.0030315742 4278603433
-0.012745529 0.027975257 0.0012755701 4278602669
-0.011162803 0.029491879 -0.00047846045 4278471089
-0.0069232956 0.026908047 0.0016951254 4278274229
-0.0043644086 0.023511929 0.0049060574 4278668203
-0.0023530796 0.022923922 0.0052782269 4278799784
-0.00077529997 0.024440698 0.0035253642 4278668968
0.00079179183 0.025956869 0.0017745383 4278865319
0.0040482469 0.0282866 -0.0010146243 4278402748
0.020693798 -0.0019526742 0.028302319 4278405553
-0.015805602 0.022032255 0.0050662998 4279193248
-0.014832646 0.027078401 -0.0002381294 4278668969
-0.013117094 0.027894827 -0.0012801141 4278799018
-0.011274111 0.028006596 -0.0016123094 4279126438
-0.0091602132 0.026709955 -0.00052787177 4278930853
-0.0070354566 0.025414046 0.00055466453 4278603433
-0.0047590584 0.023414917 0.0023426842 4278472873
-0.0028968677 0.023528187 0.0020072879 4278537898
-0.0013269298 0.025048751 0.00025924435 4278603689
8.3442777e-05 0.027272221 -0.0021927198 4278537898
0.0017808378 0.028088219 -0.0032309084 4278799273
0.010302506 0.023620985 0.00036454527 4278537644
0.014807928 0.012495771 0.011276691 4278341294
0.021579593 -0.0077538528 0.031305734 4278341294
0.030892869 -0.037823617 0.061134826 4278537644
-0.016291298 0.022651182 0.0017936565 4279324319
-0.015198208 0.027005114 -0.0027896825 4278274484
-0.0065958537 0.021095205 0.0022390317 4278668458
-0.0047311597 0.021208521 0.0019031046 4278472873
-0.0031530038 0.022733804 0.00015687151 4278669479
-0.0015855506 0.024258565 -0.0015874072 4278668969
-2.8785318e-05 0.025782712 -0.0033296582 4278537898
0.0013658889 0.028011775 -0.0057736845 4278537643
0.0030526221 0.028829347 -0.0068082167 4278865319
0.0052043386 0.027531309 -0.0057333987 4278865318
0.0075263008 0.025529116 -0.0039582197 4278669224
0.010350909 0.021413606 -8.0469996e-05 4278538408
0.015185975 0.0088446215 0.012207351 4278472873
0.02296605 -0.015694201 0.036391996 4278538408
-0.017285846 0.015368097 0.0066459272 4282404973
-0.01665163 0.022574147 -0.0007620072 4278931110
-0.013858158 0.02776074 -0.0063711349 4278730934
-0.011761364 0.026454305 -0.0052904468 4278533053
-0.0071218871 0.021718286 -0.0010211836 4278929833
-0.0051249191 0.021122832 -0.00065163476 4278472363
-0.0035519376 0.022652138 -0.0023936243 4278734504
-0.0018438026 0.023472907 -0.0034305332 4278668713
-0.00028950721 0.025001211 -0.0051689781 4278799273
0.010722991 0.017788187 0.00087170582 4278734249
0.016057104 0.0030602738 0.015227317 4278734249
0.024851684 -0.02579321 0.043546226 4278471853
-0.018491894 0.020259731 -0.0008607395 4279389854
-0.016054071 0.027596481 -0.0085771345 4279126948
-0.014486715 0.029129269 -0.010315051 4279127459
-0.012401126 0.02781781 -0.0092357351 4278668458
-0.010169741 0.025796305 -0.0074549364 4278864299
-0.0076469146 0.022354675 -0.0042713177 4278405809
-0.0056582913 0.021756539 -0.0039019634 4278603178
-0.0039501749 0.022579353 -0.0049372711 4278799784
-0.0022473633 0.023401955 -0.0059715388 4278864808
-0.00069824606 0.024934275 -0.0077057481 4278667949
0.002675388 0.026577951 -0.0097681927 4279059374
0.004823532 0.025271086 -0.0086995261 4278665399
0.010932289 0.014859147 0.0011156718 4278405553
0.017090788 -0.0034587346 0.018925585 4278405553
0.026733385 -0.035943918 0.050660927 4278665654
-0.019331068 0.023049342 -0.0062251245 4279324574
-0.0064709149 0.023828689 -0.0085435901 4278799273
-0.0047762021 0.024652837 -0.0095748091 4278930343
-0.0029412806 0.024764476 -0.0099052694 4278340274
-0.0014027096 0.026300475 -0.011634206 4278274229
0.00012516603 0.027835857 -0.01336111 4279257509
0.001949504 0.027947122 -0.013689457 4278865828
0.0040864423 0.026635263 -0.01262214 4278471089
0.0068700649 0.022478266 -0.0087673627 4278733229
0.010979287 0.012633011 0.00065633608 4278536879
0.017957848 -0.0092967004 0.02190455 4278536879
-0.019925952 0.024433391 -0.010164589 4278800039
-0.018719167 0.028122513 -0.014003837 4278472618
-0.016906515 0.028232159 -0.014330785 4278274229
-0.011064172 0.026416382 -0.013211208 4278405808
-0.0088312104 0.024382122 -0.011440799 4278799784
-0.0070019364 0.024493229 -0.011770392 4278799528
-0.0053152442 0.025319019 -0.012798499 4278734249
-0.0037792102 0.026859038 -0.014523647 4278668203
0.00122495 0.029333901 -0.017597288 4278471089
-0.021506429 0.02069772 -0.0088540995 4279849619
-0.020519517 0.025835035 -0.014090627 4278603433
-0.019075423 0.028098447 -0.016519014 4278537898
-0.01739464 0.02892554 -0.017544843 4278800039
-0.015461013 0.028317148 -0.017170899 4278603434
-0.013258427 0.026274368 -0.015400224 4278537898
-0.011039604 0.024232637 -0.013632352 4278799784
-0.0090787895 0.023626201 -0.013263147 4278865318
-0.0072523206 0.023737129 -0.01359224 4278668969
-0.005710762 0.025281673 -0.015315109 4278406828
-0.0043250993 0.027542317 -0.017732441 4278799273
-0.0028076172 0.029085575 -0.019450836 4278537134
0.011395045 0.006737262 0.0011154404 4278471854
-0.022207037 0.022822859 -0.013479866 4279390618
-0.021232545 0.02797449 -0.018702392 4278865065
-0.018007934 0.030352011 -0.021446932 4278336959
-0.015698686 0.027581576 -0.018979695 4278402493
-0.013367809 0.024812488 -0.016516246 4278798509
-0.011283848 0.023483653 -0.015450045 4278537898
-0.0094629563 0.023594128 -0.015778221 4278800039
-0.007641986 0.023704702 -0.016106341 4278603433
-0.0061056092 0.025253277 -0.017824966 4278538154
-0.0047249384 0.027520029 -0.020236313 4278472873
-0.0032126382 0.029067321 -0.021950459 4278735014
-0.0014102198 0.029177139 -0.022274945 4278865829
0.00085154921 0.027132176 -0.020519368 4278735014
0.0032852888 0.024370179 -0.018073795 4278669479
0.0066914484 0.017301865 -0.011477868 4278407083
0.012246646 0.00090561062 0.0041028503 4278407083
0.030390359 -0.060562447 0.062834166 4278800549
-0.022670045 0.023524774 -0.016692977 4278931364
-0.021581933 0.027968599 -0.021204948 4278733739
-0.011661842 0.023460906 -0.017959327 4278472363
-0.0098464489 0.023571026 -0.018286528 4278800039
-0.0078914836 0.022959949 -0.017919537 4278537898
-0.0062154122 0.023791572 -0.018940754 4278341548
-0.0048343763 0.026064785 -0.021347143 4278472365
0.00348581 0.021463498 -0.01781046 4278668969
0.006895598 0.014373839 -0.011232017 4278472618
0.013257306 -0.0056716949 0.0077608675 4278472618
-0.023367643 0.025689395 -0.021288611 4278341039
-0.022051148 0.028696233 -0.02439658 4278799019
-0.020386457 0.02952862 -0.025414534 4278996389
-0.018601157 0.029636538 -0.025736604 4278865318
-0.01643005 0.027572274 -0.023975458 4278929833
-0.012039147 0.023447016 -0.020461775 4278471853
-0.010092616 0.022833202 -0.020095073 4278996388
-0.0082799457 0.02294324 -0.020421721 4278668713
-0.0066092052 0.023776641 -0.021440264 4278471854
-0.0053778812 0.026779154 -0.024532214 4278471088
0.0032193363 0.020715745 -0.019622132 4278470834
0.007415425 0.0099928156 -0.0096144378 4278668969
0.014426544 -0.013001204 0.01208455 4278470834
-0.024928726 0.021951826 -0.019984022 4279718039
-0.012415767 0.023442093 -0.022957455 4278733738
-0.010474887 0.022825735 -0.022591379 4278865319
-0.0088068806 0.023661057 -0.023607872 4278799528
-0.0072860122 0.025221536 -0.025313597 4278275249
-0.0059203766 0.02750678 -0.027707171 4278930088
-0.0044235773 0.029065983 -0.029408414 4278996898
-0.0023378208 0.027724896 -0.028352261 4278472619
0.0032637976 0.018523373 -0.020054534 4278799274
0.0077759847 0.0063191988 -0.0086972574 4278668969
-0.025725566 0.024873033 -0.025255412 4279390364
-0.024405427 0.027897136 -0.028350651 4278668969
-0.014983289 0.02552186 -0.027193759 4278471854
-0.012791686 0.023446051 -0.025446288 4278602923
-0.010992784 0.023555135 -0.025770545 4278799783
-0.009471789 0.025119822 -0.027473014 4278537898
-0.0049729273 0.029810665 -0.032568499 4278273974
-0.0027459227 0.027737597 -0.030826945 4278274484
-0.026176482 0.02562624 -0.028431166 4278735013
-0.024746574 0.027927315 -0.030827012 4278538154
-0.022852585 0.027303239 -0.030456364 4278603433
-0.021075815 0.027410487 -0.030777019 4278603433
-0.019298941 0.027517835 -0.031097621 4278734759
-0.017265782 0.026164098 -0.030039288 4278406828
-0.015221782 0.024811165 -0.028982878 4278472363
-0.013300385 0.024189223 -0.028616801 4278603433
-0.011781957 0.025757948 -0.030315533 4278668968
-0.010413051 0.028056091 -0.032699786 4278538154
0.0027319603 0.017042175 -0.023666963 4278537389
0.0086518899 -0.0017949194 -0.0062079784 4278537389
-0.027505651 0.020416237 -0.025751024 4280438668
-0.026626401 0.026392734 -0.031596854 4278472363
-0.019280329 0.025354931 -0.031501066 4278603178
-0.017244935 0.023997052 -0.030446555 4278407083
-0.015329294 0.023372499 -0.030081209 4278472618
-0.013808068 0.024945596 -0.031777166 4278472363
-0.012161519 0.025785899 -0.032784816 4278603433
-0.010936294 0.028822279 -0.035848949 4278538154
-0.0094497837 0.030393591 -0.037538476 4278538154
-0.0078298971 0.031232573 -0.038541082 4278930854
-0.0057751238 0.029876545 -0.037489545 4279258273
-0.003560096 0.027789811 -0.035755929 4278996389
-0.0010246523 0.024241628 -0.032658342 4278996389
0.0026213825 0.015577391 -0.024784978 4278668969
0.0093244053 -0.0069707111 -0.0039566811 4278603434
0.025999665 -0.064456612 0.049195439 4278538153
0.02977187 -0.071631528 0.055624865 4278341548
0.032420091 -0.073690988 0.057281103 4278538409
-0.027947664 0.02117919 -0.028921284 4279193503
-0.027075306 0.027172465 -0.034752443 4278602924
-0.017607637 0.024030624 -0.032915283 4278537643
-0.015697658 0.023403557 -0.032550607 4278603433
-0.014181618 0.024980677 -0.034242325 4278472363
-0.012540407 0.025822794 -0.035247341 4278537898
-0.011320036 0.028867472 -0.038303901 4278537898
-0.0098386854 0.030442748 -0.03998908 4278733738
-0.0079363734 0.029815696 -0.039622646 4278667694
-0.0058820359 0.028455341 -0.038574383 4278799018
-0.0035183653 0.025628494 -0.036163475 4278734249
-0.00098117441 0.022069644 -0.03307461 4278472363
0.0029747486 0.011913083 -0.023858979 4278669224
0.010152657 -0.012901001 -0.0010408582 4278472363
0.019593738 -0.047232039 0.030588496 4278537898
0.026196118 -0.067624688 0.049255706 4278537898
0.029475719 -0.072623089 0.053629667 4278407083
0.031952523 -0.073956773 0.054602608 4278538409
0.034269318 -0.074557401 0.054895326 4281290878
-0.028723076 0.024169471 -0.034143563 4279127713
-0.027523197 0.027965399 -0.037897885 4278733993
-0.026233219 0.031022107 -0.040960889 4279191974
-0.02448649 0.031127391 -0.041276243 4279061923
-0.022495203 0.02975801 -0.040220667 4278471089
-0.018097259 0.024810225 -0.036061704 4278536879
-0.016195633 0.024180489 -0.035697214 4278799273
-0.014687445 0.025761375 -0.03738413 4278472363
-0.012918603 0.025868585 -0.037703011 4278537643
-0.011564732 0.028185159 -0.040069453 4278799273
-0.0010897778 0.020629205 -0.034174077 4279061414
0.0030182153 0.0097068772 -0.024301875 4278603433
0.010821797 -0.01812163 0.0011762106 4279061414
0.029014681 -0.072875187 0.050960299 4278603433
0.031317703 -0.073478937 0.051253725 4278473129
0.033626121 -0.074082263 0.051546313 4281684344
-0.02927389 0.025705574 -0.037974391 4278668968
-0.026454277 0.030356664 -0.04271866 4278799274
-0.024949096 0.031941216 -0.044402104 4279323553
-0.02296631 0.030566961 -0.043348324 4278602414
-0.01871331 0.026342288 -0.039880846 4278668203
-0.016822718 0.025709718 -0.039516054 4278864808
-0.015059464 0.025816467 -0.039834023 4278734249
-0.013431616 0.026662052 -0.040833287 4278602668
-0.011947259 0.028245982 -0.042512402 4278536879
-0.0085799098 0.029197525 -0.043824922 4278800548
-0.0010467209 0.018451232 -0.034594852 4279061669
0.0035243332 0.0052838475 -0.022713959 4278865318
0.02626238 -0.072511606 0.048004124 4278274738
0.028884467 -0.074592203 0.049649894 4278865318
0.031019416 -0.074461356 0.049266137 4278800293
0.033154368 -0.074330404 0.048882473 4282339948
-0.031138323 0.024184052 -0.03873755 4279586968
-0.030045688 0.028743949 -0.043159965 4278668713
-0.021326698 0.029269297 -0.044734221 4278340274
-0.019200757 0.027150523 -0.043005414 4278668458
-0.017318495 0.026515245 -0.042640764 4278668713
-0.015563443 0.026621483 -0.042957265 4278537388
-0.013943624 0.027468771 -0.043953456 4278340018
-0.010719895 0.029162591 -0.045942646 4278668458
-0.0092593953 0.030749617 -0.04761399 4278997154
-0.0070791468 0.0286348 -0.045894384 4278735014
-0.0047339313 0.025780976 -0.043500334 4278471599
-0.00085250661 0.015529346 -0.034341943 4278274738
0.0043374747 -0.00063567981 -0.01978638 4278274738
0.02161319 -0.063260414 0.036950946 4278799528
0.025808409 -0.072743297 0.045349151 4278471599
0.028259557 -0.074091583 0.046316523 4278340784
0.030553889 -0.074700236 0.046608184 4278603435
0.032513015 -0.073830783 0.045552067 4282667879
-0.031351358 0.023513209 -0.040501356 4279128223
-0.030149572 0.027341381 -0.044230945 4278668968
-0.028747164 0.029679317 -0.046591762 4278799783
-0.02701167 0.02978377 -0.046905205 4278275249
-0.025514133 0.031376399 -0.048580524 4278930854
-0.023540311 0.029992994 -0.047531929 4278799783
-0.021680042 0.029354058 -0.047165204 4278603434
-0.019560069 0.027228421 -0.04544032 4278734504
-0.017813295 0.02733404 -0.04575542 4278603433
-0.016066417 0.027439775 -0.046070457 4278668969
-0.014454629 0.028288662 -0.047063492 4278930853
0.027965147 -0.075060226 0.044338815 4278734249
0.030089032 -0.074930049 0.043957058 4278669224
-0.031347737 0.021353282 -0.04089915 4278997153
-0.029920928 0.023699034 -0.04325942 4278604454
-0.028396577 0.025297353 -0.044936404 4278931618
-0.026650451 0.025402432 -0.045251779 4279259039
-0.025023088 0.026253816 -0.046246417 4279193504
-0.023279421 0.026358936 -0.046561196 4279062433
-0.021535642 0.026464168 -0.046875916 4278800293
-0.019664817 0.025823804 -0.046512708 4278866084
-0.017918155 0.025929404 -0.046827797 4278800549
-0.016303733 0.026780497 -0.047819715 4278669479
-0.014694609 0.027631415 -0.048810638 4278996643
-0.013228469 0.029227126 -0.050476406 4278865574
-0.011492234 0.0293325 -0.0507893 4278668968
-0.010042083 0.030927448 -0.052452032 4278603179
-0.0078738183 0.02879902 -0.050740398 4278603435
-0.0052440017 0.024438374 -0.04700955 4278537898
-0.00046594068 0.0096604042 -0.033855271 4278537898
0.0067271031 -0.01627215 -0.01062484 4278668969
0.016143069 -0.051864095 0.021314967 4278668714
0.02231464 -0.071077555 0.038423035 4278668714
0.025226288 -0.074666917 0.041402869 4278537898
0.02734194 -0.074537382 0.041022487 4278669224
0.029457599 -0.074407719 0.040642202 4280767109
0.042151455 -0.073627114 0.038362555 4282339184
-0.031020418 0.016942274 -0.039261159 4279259804
-0.029361166 0.017797399 -0.040260132 4278801058
-0.022776634 0.021215793 -0.044245794 4278341804
-0.021143645 0.022069845 -0.045239624 4278604199
-0.019389145 0.022175811 -0.04555621 4278604199
-0.017764039 0.023029629 -0.046548508 4278669988
-0.016144209 0.023883188 -0.047539733 4278669733
-0.01452966 0.024736529 -0.048529923 4278931363
-0.012920421 0.02558966 -0.049519069 4279127968
-0.011316478 0.0264426 -0.050507233 4279194014
-0.0098607615 0.028042179 -0.052167617 4279128479
-0.0078333318 0.026654301 -0.051134706 4278932384
-0.005201932 0.022280861 -0.047414206 4278603943
-0.00042457134 0.0074598044 -0.034293398 4278603943
0.0076873116 -0.023025714 -0.0070928317 4278932384
0.016645052 -0.056482002 0.022751737 4279062944
0.022027766 -0.072021365 0.036462918 4279062944
0.024935748 -0.075621702 0.039435025 4278603943
0.027048554 -0.07549236 0.039055139 4278735014
0.02899427 -0.074617453 0.03800641 4281619063
-0.030802153 0.013265397 -0.038314141 4280962948
-0.029134825 0.014123198 -0.039312944 4278866339
-0.027359523 0.014229883 -0.039633699 4278539429
-0.025699988 0.015087359 -0.040630899 4278407849
-0.023927122 0.015194114 -0.040951047 4278342314
-0.022275418 0.016051326 -0.041946679 4278538918
-0.01886116 0.017015073 -0.04326028 4278342824
-0.017093256 0.017121945 -0.043579206 4278342824
-0.015589282 0.018728361 -0.045245312 4278277034
-0.014230646 0.021083731 -0.047582485 4278276779
-0.010861211 0.022045851 -0.04888723 4278473384
-0.0092518032 0.022901339 -0.049874581 4278407849
-0.0073568225 0.022258829 -0.049518541 4278669734
-0.0048639141 0.018621821 -0.046480596 4278866083
0.0002197586 0.0022608936 -0.032053728 4278866083
0.021423502 -0.071464442 0.033168871 4278407339
0.024160886 -0.074328192 0.035465922 4278276269
0.026427029 -0.074947231 0.035755806 4278538409
0.028364686 -0.074070692 0.034710191 4282012273
-0.030584827 0.0095758848 -0.037376851 4280635529
-0.029019751 0.011189401 -0.039051238 4278866594
-0.027352236 0.012049392 -0.040048297 4278539429
-0.025689982 0.012909211 -0.041044362 4278931874
-0.024151385 0.014521446 -0.042713728 4278735524
-0.022139043 0.013123099 -0.041685559 4278604708
-0.020487197 0.01398256 -0.042679455 4278736034
-0.018461213 0.012585193 -0.041653547 4278473894
-0.016811855 0.013444759 -0.042646877 4278342824
-0.015035935 0.0135522 -0.042967185 4278277034
-0.013798039 0.016666595 -0.045973323 4278342314
-0.012032714 0.0167736 -0.04629156 4278342314
-0.010407206 0.017632108 -0.047280211 4278342314
-0.0042309016 0.013448253 -0.044218499 4278276779
0.0010131411 -0.0037101097 -0.029161751 4278276779
0.020978952 -0.071644433 0.030552026 4278342314
0.023710145 -0.074517153 0.032843478 4278407593
0.026134687 -0.075888656 0.033798881 4278669733
-0.030690923 0.0081401095 -0.038473241 4280766854
-0.029125653 0.0097579211 -0.040144324 4278866849
-0.027345233 0.0098648891 -0.040466033 4278932384
-0.025680266 0.010726966 -0.041460883 4278866594
-0.024020545 0.011588871 -0.042454746 4278866594
-0.022124209 0.010941129 -0.042103022 4278736034
-0.020222403 0.010293871 -0.041752245 4278736034
-0.018315122 0.0096470565 -0.04140237 4278670499
-0.016531356 0.0097548552 -0.041724186 4278670499
-0.014879197 0.010616787 -0.042716231 4278670499
-0.013635427 0.013740111 -0.045716736 4278801059
-0.012001902 0.01460113 -0.046705253 4278735524
-0.010094207 0.013954874 -0.046355031 4278932129
-0.0080386437 0.01255567 -0.045337357 4278997664
-0.0064076185 0.01341686 -0.046325177 4278735524
-0.0038951039 0.0097595453 -0.043307543 4278735269
0.0015036091 -0.0082008988 -0.027623229 4278735269
0.0096353441 -0.038949676 -0.00063264137 4278735524
0.0170523 -0.06516955 0.02232267 4278735524
0.020535095 -0.071815483 0.027942065 4278735269
0.023098858 -0.073944926 0.029562905 4278866084
0.025350926 -0.074569188 0.029851995 4281224833
-0.030582286 0.0051892959 -0.038223363 4279980688
-0.029011451 0.0068117715 -0.039892152 4278866849
-0.02711308 0.0061617158 -0.039542772 4278735779
-0.02532462 0.006269265 -0.039865859 4278669989
-0.023890302 0.0086478852 -0.042202104 4278932129
-0.021988891 0.0079983287 -0.041853033 4278801314
-0.02020546 0.0081058927 -0.042174961 4278736034
-0.018169649 0.0067005567 -0.041157585 4278670499
-0.016380653 0.0068086423 -0.041480362 4278604708
-0.014723081 0.0076730549 -0.042471707 4278670499
-0.01320501 0.0092932545 -0.044130187 4278801059
-0.011560716 0.010157049 -0.045118988 4279063199
-0.0097821504 0.010264952 -0.045439534 4278407848
-0.0078612529 0.0096174553 -0.045093294 4278866594
-0.0062248185 0.010481104 -0.046080418 4278669989
-0.0035602413 0.0060581006 -0.042406235 4278800804
0.0013915114 -0.0096885189 -0.028758727 4278800804
0.0095164254 -0.040525831 -0.0018356792 4278669989
0.016771823 -0.066066585 0.020397682 4278669989
0.020250304 -0.072732128 0.026002746 4278800804
0.022810725 -0.074868239 0.027619153 4278669734
0.024896016 -0.074740551 0.027244236 4281553018
-0.030581437 0.0029899664 -0.038651269 4280636804
-0.029007725 0.0046168976 -0.040317241 4278801824
-0.026994392 0.0032053031 -0.039299551 4278801824
-0.025200687 0.0033131577 -0.039623581 4278670244
-0.023406871 0.0034211092 -0.039947577 4278867359
-0.021733552 0.0042881519 -0.040940441 4278736289
-0.019818902 0.0036373399 -0.04059536 4278473638
-0.018024765 0.0037456416 -0.040919151 4278669479
-0.016230538 0.003854055 -0.041242868 4278669989
-0.014698941 0.0054792948 -0.04290057 4278801314
-0.013043944 0.0063457824 -0.043889701 4278670244
-0.011530984 0.0079700649 -0.045543835 4278866849
-0.0096104518 0.0073202774 -0.045199294 4278473383
-0.0078265779 0.0074286014 -0.04552073 4278801059
-0.0060426518 0.0075370446 -0.045842078 4278997153
-0.003668759 0.0046161078 -0.043506928 4278866084
0.0012794361 -0.011175849 -0.029893998 4278866084
0.0092446804 -0.041344665 -0.0037016212 4278931618
0.016336158 -0.066202052 0.017813552 4278997153
0.019965855 -0.073644079 0.02406694 4278866084
0.022362037 -0.075030334 0.025017284 4278931109
0.024278196 -0.074146621 0.023982145 4282143598
-0.028894551 0.0016561262 -0.040076159 4281489014
-0.026988707 0.0010022037 -0.039731503 4280111759
-0.025192454 0.0011101812 -0.040056024 4279784594
-0.02339609 0.0012182817 -0.04038047 4279130009
-0.021599598 0.0013264939 -0.040704861 4278933914
-0.019926153 0.0021957867 -0.041696008 4278801823
-0.018006332 0.001543235 -0.04135346 4279063453
-0.016338058 0.002412457 -0.042343482 4278736289
-0.014675077 0.0032814592 -0.043332472 4278736289
-0.013017382 0.00415029 -0.044320472 4278801059
-0.011364978 0.0050188713 -0.045307383 4278932129
-0.0095786229 0.0051272288 -0.045629352 4278801314
-0.0077922046 0.0052357055 -0.04595124 4279063453
-0.0060057268 0.0053442866 -0.046273068 4278866593
-0.003335312 0.00089585409 -0.042620055 4278931618
0.0013174005 -0.013422288 -0.030367043 4278931618
0.0091259778 -0.042918049 -0.004902551 4279128734
0.016056549 -0.06708765 0.015897285 4278997408
0.019523706 -0.073792592 0.021474186 4278931618
0.021914022 -0.075183444 0.022422187 4278931363
0.023988245 -0.075056456 0.022049256 4282471274
-0.021466263 -0.0016435422 -0.040475681 4282340459
-0.019787416 -0.00077176839 -0.041466117 4280375173
-0.012991093 0.0019507259 -0.044754278 4281423479
-0.011335991 0.0028216429 -0.045740053 4280309638
-0.0094079934 0.0021679513 -0.045400187 4280243849
-0.007899899 0.0038007833 -0.047046609 4279719314
-0.006113559 0.0039093681 -0.0473684 4279587989
-0.0034442618 -0.00055204704 -0.043725267 4279260568
0.0016547255 -0.017195754 -0.029522575 4279260568
0.0091598295 -0.04525248 -0.0054434147 4279391638
0.015932504 -0.06872981 0.014643903 4279326104
0.018924341 -0.073171057 0.01822938 4279063963
0.021306112 -0.074566789 0.019175593 4279260568
-0.0031122155 -0.0042912252 -0.042852767 4282079084
0.0018414445 -0.020218238 -0.029346395 4281358454
0.0093457475 -0.048354484 -0.0053291116 4282079083
0.015808489 -0.070371635 0.013390775 4282079083
0.018799186 -0.074825846 0.016966391 4281292918
0.021020038 -0.075462855 0.017252561 4280506753
0.016203262 -0.0053073578 0.087277524 4285426978
0.01892033 -0.0078272671 0.08984755 4285754398
0.011000358 -0.0032687262 0.082320131 4285098028
0.012336798 0.00018100441 0.078264475 4285689629
0.013798211 0.002964735 0.074949481 4285689629
0.01631964 0.0010978691 0.076784886 4285689118
0.019643271 -0.0040881485 0.082291149 4285886744
0.023169946 -0.0099353381 0.088523932 4285755419
0.026257399 -0.013788357 0.092546724 4285558558
0.028716113 -0.014985219 0.093630634 4285493024
0.030345779 -0.012864441 0.091048621 4285427488
0.031447306 -0.0087549761 0.086272642 4285427233
0.033209942 -0.0072995834 0.084429801 4285689373
0.036546282 -0.011810757 0.089171119 4285820188
0.0094110183 0.0017198771 0.073687561 4285624094
0.010870237 0.0045120418 0.070379652 4285886744
0.012762904 0.0053034127 0.069277726 4285689373
0.015113275 0.004095342 0.070377551 4285623838
0.017945565 0.00088940188 0.073674686 4285689628
0.020645119 -0.0016487949 0.07623443 4285690138
0.023203848 -0.0035196915 0.078058191 4285558813
0.025283439 -0.0033924319 0.077684239 4285559068
0.027195254 -0.002599556 0.076579206 4285624604
0.0287607 -0.00047615916 0.074013852 4285624094
0.030656379 0.00031584501 0.072911821 4285754653
0.033601992 -0.002882719 0.076188914 4285754654
0.037288859 -0.0087391287 0.082378037 4285820698
0.042474411 -0.019910306 0.094388276 4285755163
0.0085554719 0.0034068972 0.068755127 4285558559
0.010299373 0.0048691817 0.066922016 4285690393
0.012184054 0.0056621656 0.065823242 4285886999
0.014680095 0.003780745 0.06765306 4285886999
0.017192367 0.0019003302 0.069480047 4285886999
0.019880414 -0.00064722821 0.072035104 4285624348
0.02194104 -0.00052119046 0.07166452 4285624349
0.02416664 -0.0010629669 0.072023921 4285624349
0.025894735 0.0003987886 0.070193984 4285821208
0.027612071 0.0018599965 0.068365999 4285886743
0.029491682 0.0026531853 0.067268543 4285689118
0.032244503 0.00010997429 0.069812246 4285689119
0.035554118 -0.0044330098 0.074534737 4285689884
0.040531423 -0.014975727 0.085794099 4285821209
0.0079934672 0.0037733987 0.065302856 4285558814
0.0097295195 0.0052395388 0.063474454 4285624349
0.011908833 0.004692439 0.063840248 4285689374
0.014247615 0.0034749806 0.064935379 4285689375
0.016753927 0.0015877113 0.066758372 4285624093
0.019276444 -0.00029847026 0.068578452 4285624349
0.021166813 0.0004972741 0.067480542 4285558813
0.023051836 0.0012927577 0.066383645 4285624349
0.024931498 0.0020879805 0.065287761 4285624349
0.026465442 0.0042224266 0.062738195 4285821209
0.028674692 0.0036776774 0.063099004 4285886999
0.031240448 0.0017944947 0.064911664 4285886744
0.034891859 -0.0041030198 0.071076781 4285886489
0.040401187 -0.016688183 0.084487259 4285754908
0.0061227679 0.00066197664 0.065877773 4285032749
0.0075782314 0.0034797788 0.062590651 4285690138
0.0093091577 0.0049498864 0.060766596 4285821208
0.011482835 0.004400257 0.061131697 4285886488
0.014123503 0.0018323436 0.06368164 4285755164
0.016629238 -6.1471015e-05 0.065499656 4285624349
0.018991951 -0.0012816302 0.066587158 4285624349
0.021041632 -0.001156278 0.066218525 4285559069
0.022762116 0.00031359866 0.064396657 4285624349
0.024304539 0.00245497 0.061850574 4285623839
0.026000816 0.0039235353 0.060033116 4285623839
0.028204439 0.003376238 0.0603933 4285623584
0.03093962 0.00081464276 0.062926665 4285624093
0.034586765 -0.0051025525 0.06907732 4285624349
0.040632509 -0.019742906 0.084628046 4285624349
0.0055701397 0.0010446273 0.062435891 4285493279
0.0071637034 0.003195025 0.059885282 4285755674
0.0090377778 0.003993731 0.058793392 4285820444
0.011359498 0.0027665272 0.059884731 4285886489
0.013845742 0.00086495653 0.06170113 4285952023
0.016191825 -0.000360623 0.062788181 4285623838
0.018548746 -0.0015855059 0.063873388 4285624348
0.020754714 -0.0021350645 0.064231195 4285624604
0.02230829 1.340732e-05 0.061688114 4285624604
0.023845732 0.0021609738 0.059147988 4285755419
0.025536874 0.0036334991 0.057334874 4285821209
0.028252456 0.0010619834 0.059864957 4285755418
0.030989587 -0.0015081391 0.062391233 4285624349
0.034815777 -0.0081183314 0.069249108 4285558813
0.041224413 -0.024152964 0.086206563 4285558813
0.0048758015 0.0021183677 0.058276955 4285690394
0.0063135512 0.0049523562 0.055006504 4285623838
0.0083223656 0.00507484 0.054644927 4285425959
0.010783724 0.0031652227 0.05646063 4285623328
0.013414823 0.00057939067 0.058998775 4285754654
0.015755117 -0.0006509237 0.060083535 4285689628
0.017788423 -0.00052666292 0.059717771 4285624094
0.020144958 -0.0017557964 0.060799677 4285624348
0.021690857 0.00039869174 0.058263037 4285755674
0.023387609 0.0018758141 0.056452226 4285820953
0.025243288 0.0026761144 0.055365767 4285820953
0.027955422 9.5739961e-05 0.057889726 4285886743
0.031039238 -0.0038350523 0.061852653 4285886999
0.035221897 -0.011818342 0.070135318 4285755419
0.0025939122 0.0010467581 0.056671117 4285032749
0.0040402263 0.0038897879 0.053405851 4285624349
0.0060461722 0.0040120073 0.053044725 4286214674
0.0079042353 0.004814066 0.051959015 4286213908
0.010359634 0.002897542 0.053770766 4285951513
0.012831256 0.00098208711 0.055579659 4285886744
0.015163034 -0.00025304407 0.056662511 4285624094
0.017029436 0.00054978207 0.055575583 4285624093
0.018890491 0.0013523512 0.054489672 4285624093
0.020582063 0.0028334446 0.052683063 4285886744
0.022429712 0.0036353394 0.051599674 4285754908
0.024611013 0.0030801482 0.051958695 4285491494
0.027486527 -0.0001876615 0.055197708 4285623328
0.030738775 -0.0048099495 0.059871439 4285689374
0.035627019 -0.01553113 0.071011707 4285689373
0.0020523705 0.0014674366 0.053256474 4285098538
0.0037759878 0.0029542148 0.051447012 4285558049
0.0056340471 0.0037583075 0.050362971 4285491749
0.0074868053 0.0045621581 0.049279943 4285556264
0.0097857267 0.0033205338 0.05036521 4285688099
0.012095496 0.002079621 0.051448639 4285623839
0.01426021 0.001520887 0.051808674 4285558813
0.016113214 0.0023250431 0.050725829 4285558559
0.01796088 0.0031289458 0.049644005 4285624348
0.019803181 0.0039326362 0.048563156 4285886489
0.021806788 0.0040552877 0.048202898 4286083094
0.023979757 0.0034973882 0.048561782 4286017303
0.026674228 0.00089867786 0.051075369 4285952534
0.029914457 -0.0037394837 0.055739447 4285952278
0.035498898 -0.017216474 0.069725551 4285886743
0.011820167 0.0011434816 0.049491961 4285359659
0.013981931 0.00058239698 0.049850829 4285426214
0.015673891 0.0020719953 0.048050772 4285426213
0.01751624 0.0028777309 0.046971586 4285492259
0.019517027 0.0030001178 0.046611764 4285491493
0.021517843 0.0031225979 0.046252009 4285556519
0.023518682 0.0032451488 0.045892306 4285557028
0.026035149 0.0013199635 0.047683395 4285623328
0.029266039 -0.003333848 0.052337307 4285558558
0.035193529 -0.018219322 0.067723639 4285558559
0.026427312 -0.0023540594 0.048592985 4285753633
0.030013844 -0.0083918013 0.054663427 4285492004
0.03612816 -0.024008662 0.07072518 4285492003
-0.028341852 -0.0065887235 -0.037615351 4285229353
-0.026529878 -0.0064799376 -0.037942816 4285360679
-0.024832547 -0.0056052506 -0.038935188 4285360933
-0.023140468 -0.0047307834 -0.039926533 4285360934
-0.021573789 -0.003091 -0.041580871 4285230119
-0.01989492 -0.0022170991 -0.042569652 4285230119
-0.017970316 -0.0028736629 -0.042231321 4285229608
-0.016168445 -0.0027648211 -0.042556446 4285163563
-0.028121725 -0.010349285 -0.036734067 4285360934
-0.026189923 -0.01100814 -0.036399171 4285361444
-0.024481833 -0.010130677 -0.037391819 4285492769
-0.022778988 -0.009253405 -0.038383424 4285427233
-0.021321371 -0.006841071 -0.040698752 4285361443
-0.019511767 -0.0067319833 -0.041025437 4285426979
-0.017827399 -0.0058555044 -0.042013463 4285360934
-0.015892267 -0.0065134913 -0.041678645 4285360679
-0.014082387 -0.0064040609 -0.042005129 4285294888
-0.012272429 -0.0062945224 -0.042331547 4285294633
-0.01059847 -0.0054182112 -0.043317333 4285164583
-0.0089298189 -0.004542131 -0.044302091 4285099049
-0.0074079372 -0.0028998703 -0.045944296 4285033513
-0.0056084469 -0.0027905069 -0.046268471 4284901424
0.0023265593 -0.024780713 -0.02786253 4285164073
0.009378843 -0.05069907 -0.0058777281 4285164073
0.015374739 -0.070482127 0.010825778 4285164073
0.01835892 -0.074949645 0.014392487 4285033004
-0.028229758 -0.011811219 -0.03785044 4285360933
-0.026186489 -0.013242498 -0.036855005 4285361188
-0.024361238 -0.013132833 -0.037184801 4285361188
-0.022770137 -0.011483159 -0.0388369 4285492259
-0.021069854 -0.010603819 -0.039826311 4285492259
-0.019374833 -0.0097246468 -0.040814657 4285492258
-0.0176851 -0.0088456608 -0.041802019 4285492259
-0.015872762 -0.0087362044 -0.042129043 4285426468
-0.014060333 -0.0086266361 -0.042456005 4285426468
-0.012114592 -0.0092859641 -0.042124573 4285426468
-0.010299329 -0.0091759749 -0.042451851 4285426468
-0.0086226016 -0.0082972087 -0.043436419 4285426978
-0.0070924759 -0.0066502206 -0.045076735 4285427233
-0.0052850731 -0.0065403841 -0.045402344 4285361189
-0.0024509653 -0.011807483 -0.041136768 4285295654
0.002511695 -0.027824126 -0.02770241 4285295654
0.0091075636 -0.051512055 -0.0077392147 4285295654
0.014786933 -0.069816023 0.0076131225 4285295654
0.017761912 -0.074296959 0.011171455 4285295399
-0.028119914 -0.014818005 -0.037644591 4285426468
-0.026071735 -0.016253352 -0.03665337 4285360934
-0.024355546 -0.015371114 -0.037644144 4285426723
-0.022527643 -0.015261188 -0.037974346 4285492259
-0.02093894 -0.013607241 -0.039622631 4285492259
-0.018993862 -0.014269158 -0.039293144 4285492259
-0.01741837 -0.012615815 -0.040938828 4285492258
-0.015598126 -0.012505896 -0.041267294 4285492259
-0.013908181 -0.011624571 -0.042252798 4285492003
-0.011957373 -0.012285694 -0.041924 4285492259
-0.01013688 -0.012175404 -0.042252231 4285492258
-0.0084547698 -0.01129422 -0.043236066 4285492258
-0.0067779571 -0.010413218 -0.044218842 4285492259
-0.0049626455 -0.010302909 -0.044545878 4285426724
-0.0021217614 -0.015584633 -0.040293254 4285426724
0.0026962049 -0.030875914 -0.027548667 4285426724
0.008836627 -0.052320383 -0.0095972223 4285426724
0.014045574 -0.06836684 0.0037578233 4285426724
0.01700867 -0.072861396 0.0073082326 4285426724
-0.028010674 -0.017833188 -0.03744508 4285230374
-0.026180468 -0.017723352 -0.037775882 4285230373
-0.024350137 -0.017613403 -0.038106617 4285361189
-0.022636488 -0.016729079 -0.039095182 4285360933
-0.020928122 -0.015844926 -0.040082745 4285426978
-0.019102834 -0.015734926 -0.040412296 4285426723
-0.017402306 -0.014851063 -0.041398231 4285492258
-0.015579514 -0.014740974 -0.041727144 4285492514
-0.013756644 -0.014630802 -0.042056005 4285492513
-0.011800777 -0.015293777 -0.041729797 4285492258
-0.010110654 -0.014410064 -0.042713486 4285492514
-0.0084258318 -0.013526551 -0.043696124 4285426723
-0.0066053569 -0.013416052 -0.044024192 4285492259
-0.0049284659 -0.012532808 -0.045005225 4285426978
-0.0019398369 -0.018601976 -0.040111981 4285426724
0.0024330206 -0.031619117 -0.029357541 4285426724
0.008414343 -0.052351996 -0.012103261 4285426724
0.013459936 -0.067672044 0.00056705996 4285426724
0.016413853 -0.072180085 0.0041091256 4285163054
-0.027250446 -0.025518067 -0.033305671 4284966449
-0.025621466 -0.023853473 -0.034954812 4284967723
-0.024003103 -0.022189453 -0.036601912 4285033258
-0.022278711 -0.021302342 -0.037590753 4285230374
-0.020559594 -0.02041541 -0.038578592 4285295909
-0.018723719 -0.020304777 -0.038910061 4285361444
-0.01701244 -0.01941812 -0.039896268 4285427234
-0.015306436 -0.01853168 -0.04088144 4285493024
-0.013345581 -0.019196607 -0.040557891 4285426978
-0.011644781 -0.018310241 -0.041541934 4285426723
-0.0099492781 -0.017424069 -0.042524923 4285426978
-0.0083971992 -0.015762933 -0.044159271 4285426723
-0.0064333752 -0.016427226 -0.043835904 4285361189
-0.0046076179 -0.016316302 -0.044164836 4285361189
-0.0019047223 -0.020852998 -0.040588021 4285295654
0.0020213239 -0.031583279 -0.031813353 4285295654
0.0075380951 -0.050051779 -0.016552417 4285295654
0.012721084 -0.06618996 -0.0032630488 4285294889
-0.014779828 -0.023890808 -0.03874002 4284901678
-0.012935773 -0.023779348 -0.039072704 4284967469
-0.011224221 -0.022890195 -0.040057018 4284967723
-0.0095179677 -0.022001237 -0.041040283 4285033513
-0.0080929361 -0.019557931 -0.043324012 4285164583
-0.0059807189 -0.021000974 -0.042353448 4285426723
-0.0042876936 -0.020112455 -0.043334041 4285230118
-0.0018699095 -0.023108028 -0.041067142 4285164583
0.0016103014 -0.031538479 -0.034262393 4285295144
0.006814871 -0.048506178 -0.020336589 4285163563
0.011675406 -0.063137643 -0.0083754882 4285163563
-0.0066872202 -0.029600896 -0.037305642 4284901424
-0.0046864338 -0.030267231 -0.036992278 4284901424
-0.0031097122 -0.028595865 -0.038624171 4284967723
-0.00081441179 -0.030819669 -0.037015803 4284967723
0.0023882687 -0.037715003 -0.031527303 4284967724
0.0066978708 -0.050057456 -0.02152065 4284967724
0.011093441 -0.062394574 -0.011529326 4284966703
