# .PCD v0.7 - Point Cloud Data file format
VERSION 0.7
FIELDS x y z rgba
SIZE 4 4 4 4
TYPE F F F U
COUNT 1 1 1 1
WIDTH 688
HEIGHT 1
VIEWPOINT 0 0 0 1 0 0 0
POINTS 688
DATA ascii
0.003947448 -0.0027445108 0.068334751 4281826633
0.0048055984 0.0027026981 0.062009409 4281436484
0.0067428648 0.0035021231 0.060854159 4280915774
0.010467451 -0.0029963329 0.067805193 4280589884
0.00087072328 0.0081653148 0.053069107 4280980799
0.0021514632 0.011628978 0.048975609 4281045059
0.0040459 0.012427762 0.047830544 4281632578
0.0069117956 0.0092325285 0.051097959 4280916284
0.010631952 0.00271184 0.058033563 4281112123
0.013733219 -0.0011441559 0.062021859 4281111868
0.016183417 -0.002337575 0.063069329 4281046589
0.018123848 -0.0015354007 0.061915405 4280981564
0.019354155 0.0019255579 0.057832368 4281372989
0.020557676 0.0053848848 0.053754672 4279353388
0.023368519 0.0028628185 0.056265831 4280331059
0.027306339 -0.0036431625 0.06315852 4280396339
-0.0013302229 0.0063268691 0.052245937 4282348873
-0.00018998608 0.010470688 0.047422513 4279481143
0.001075428 0.013944339 0.043340228 4280002874
0.002953846 0.014744267 0.042199992 4280719933
0.0053148381 0.013540443 0.043261707 4280199224
0.0083478279 0.009666726 0.047253713 4279678768
0.010909148 0.0077976212 0.049041696 4281176638
0.013145307 0.0072643235 0.049362451 4281307453
0.014866861 0.0087328702 0.047487751 4280916539
0.016401712 0.010867812 0.044884242 4280591159
0.0179205 0.013001785 0.042283989 4281632578
0.020511594 0.011135027 0.044066347 4281959744
0.024039185 0.005937174 0.049492352 4281242429
0.028543511 -0.0025891587 0.058553964 4281307454
-0.0025253631 0.0093175545 0.045871764 4281110595
-0.0010941811 0.012132268 0.042528935 4280523584
0.0003156662 0.014945678 0.039190419 4279938103
0.0025029443 0.01440667 0.039519019 4280264759
0.0046956874 0.01386809 0.039846592 4280590904
0.0077194944 0.0099805146 0.043830641 4280851004
0.010104336 0.0087739825 0.044884436 4281111358
0.012159005 0.0089072809 0.044475324 4281111870
0.013867393 0.010379359 0.04260651 4280981309
0.015389247 0.012520038 0.040010482 4278701353
0.017252125 0.013321724 0.038875379 4279417648
0.019472098 0.012785479 0.039197959 4280068663
0.022616977 0.0089064017 0.0431583 4279938103
0.027473321 -0.00098689646 0.053657316 4280133943
-0.0029603429 0.0089746937 0.043182947 4281111359
-0.00168816 0.01247064 0.03911557 4280785469
-0.00012886152 0.014619749 0.036516558 4281241918
0.0020527914 0.01407811 0.036844671 4281176639
0.0045644231 0.012192443 0.038632542 4281242685
0.0075870864 0.0082915798 0.042606987 4281111869
0.0096362159 0.0084244162 0.042198904 4280981309
0.01168542 0.008557342 0.041790873 4281046843
0.013042685 0.011376631 0.038469724 4281047099
0.014729906 0.012851845 0.036608405 4281111614
0.016406443 0.014326412 0.03474931 4280785214
0.018977508 0.012445156 0.036525846 4280654653
0.021932144 0.0092232972 0.039751507 4281111104
0.027150534 -0.0020450279 0.051679298 4280980544
-0.0036973283 0.0099912286 0.039038792 4281307709
-0.0025891475 0.014172491 0.034251153 4279809838
-0.00072937831 0.014977675 0.033119429 4279353898
0.0017627664 0.013084035 0.034906197 4278637859
0.0045952946 0.0098425299 0.038147524 4281242939
0.0074547194 0.0066028908 0.041383512 4281177404
0.0093362741 0.0074098632 0.040247649 4281177148
0.01121255 0.008216545 0.039112955 4281046843
0.012392219 0.011718065 0.035072617 4281176894
0.013896132 0.013870757 0.032489967 4281111614
0.015740369 0.014675613 0.031361837 4281306434
0.018483631 0.01211394 0.033860255 4281241664
0.02198259 0.0068614185 0.039252661 4281371968
0.027573062 -0.0057901517 0.052600786 4281111104
-0.0048207231 0.003442131 0.043339476 4282674508
-0.0042816699 0.010348283 0.035637021 4281307198
-0.002872847 0.013187874 0.032318227 4280330804
-0.0010156967 0.013995055 0.031188633 4280851513
0.0016323812 0.011417743 0.033698894 4279224359
0.0043020099 0.0088418722 0.03620496 4280787254
0.0068285801 0.0069439858 0.037980124 4281112634
0.0087021627 0.0077525824 0.036847517 4281373755
0.010740422 0.0078847781 0.036441647 4281112634
0.011915486 0.011396997 0.032410409 4281242939
0.013414448 0.013555951 0.029833645 4278963238
0.015253391 0.014362656 0.028708197 4279092779
0.01853257 0.0097654015 0.033371709 4278505769
0.02221608 0.0038200915 0.03947375 4280720699
0.027994568 -0.0095482841 0.053512849 4281241663
-0.0062876157 0.0078697354 0.035560079 4281698113
-0.0051669665 0.012078058 0.030789491 4280329274
-0.0036172755 0.014246181 0.028206993 4281242683
-0.0016143993 0.014375612 0.027807821 4281958978
0.00086577609 0.012467939 0.029587183 4281373244
0.0036856309 0.0092036203 0.0328146 4280591158
0.0058746524 0.0086560249 0.033136383 4281307709
0.0079020038 0.008787401 0.032732598 4281373244
0.0095898323 0.010275647 0.030880824 4281047099
0.011094525 0.01244143 0.028307788 4281047609
0.012758322 0.013928283 0.026460916 4280722483
0.015122809 0.012703102 0.027505953 4281176894
0.018400658 0.0080903694 0.032158278 4278831148
0.022265699 0.0014476702 0.038967274 4279482164
0.028415039 -0.013319366 0.054415457 4280915263
-0.007158678 0.0096094906 0.030716456 4281306179
-0.0057488084 0.012466591 0.02741044 4280655929
-0.0038996823 0.013277523 0.026285619 4280854318
-0.0020558015 0.014088202 0.025161911 4280984369
0.00041837618 0.012173567 0.026937503 4280265779
0.0027471669 0.010941111 0.027985971 4280655674
0.0050867535 0.0097094923 0.029032301 4280914498
0.0069363303 0.010520898 0.027907729 4281046589
0.0087806173 0.011332065 0.026784282 4281046588
0.01027498 0.01350379 0.024218153 4279809838
0.012278266 0.013633873 0.023819361 4280787254
0.014636919 0.012403946 0.024862241 4281438269
0.017547382 0.009135142 0.028063908 4280850493
0.02176591 0.0011101961 0.036298566 4280393279
0.028463071 -0.015744388 0.053870246 4280197438
-0.0078799576 0.010687426 0.026614107 4281764413
-0.0061788745 0.012184609 0.024765763 4281699898
-0.0043350533 0.012997407 0.023643576 4282420019
-0.0023404472 0.013126273 0.023246024 4282223414
-2.8286129e-05 0.011888251 0.024294455 4281309494
0.0022946857 0.010651045 0.025340755 4281112889
0.0043002777 0.010780893 0.024941213 4280849475
0.0061391927 0.0115938 0.023820389 4280783938
0.0081422552 0.011723671 0.023421496 4280981053
0.0098011233 0.013218846 0.021582108 4280721463
0.011798933 0.013348561 0.0211844 4281049648
0.014151759 0.012113851 0.02222516 4280787763
0.017055882 0.0088336393 0.025419906 4279808054
0.021449691 9.9904835e-05 0.034354582 4279873079
0.028510779 -0.018173598 0.053322069 4280589628
0.0040069669 0.0098141879 0.023023985 4284187679
0.0058432631 0.010629095 0.021905307 4283465773
0.0080128014 0.010073788 0.02222617 4282810679
0.0096719004 0.011573363 0.020389996 4283007284
0.011494942 0.012387741 0.019274119 4283859494
0.013490003 0.012517352 0.018877015 4283729444
0.016385093 0.0092255697 0.022065386 4282681904
0.021133851 -0.00090569258 0.032414004 4282223159
0.028372794 -0.019922957 0.052054845 4282223158
0.021183392 -0.0032792538 0.031906694 4284050744
0.027679263 -0.019613534 0.04864458 4284051254
-0.018179487 0.0047471523 -0.0006703008 4284574258
-0.018303629 0.0031450316 -0.0018314067 4281828928
-0.017339606 0.0082624853 -0.0071576741 4281961529
-0.015983671 0.01123853 -0.010361877 4280464679
-0.013920214 0.010649025 -0.0100402 4280398379
-0.011702839 0.0093472749 -0.0090157315 4281900329
-0.0094746612 0.0080463588 -0.0079933871 4283202869
-0.0075432733 0.0081708953 -0.008378515 4283662124
-0.0056117997 0.0082955435 -0.0087635834 4283923498
-0.0038393922 0.0091323107 -0.0098502021 4284118318
-0.0019104443 0.0092570186 -0.010234604 4284378418
-0.00031045079 0.010805115 -0.012020057 4284246583
0.0012788735 0.012352668 -0.013803355 4284512549
0.0033671744 0.01176573 -0.013485927 4284708389
0.0058059953 0.0097569749 -0.011771528 4284704564
-0.018977966 0.0044055432 -0.0058095586 4281370695
-0.01802358 0.0095376968 -0.011122509 4281177659
-0.016534884 0.01180657 -0.013614889 4280720953
-0.014334165 0.010499269 -0.012590496 4280850749
-0.011974357 0.0084778517 -0.010865973 4280526643
-0.0097493343 0.0071723238 -0.0098462775 4281570359
-0.0076671243 0.0065821484 -0.0095297489 4281374263
-0.0058920868 0.0074211434 -0.010615362 4281505079
-0.0039633401 0.0075457096 -0.010999819 4281440054
-0.0023578517 0.009098433 -0.012783192 4281898290
-0.00076301396 0.010650612 -0.014564414 4280401183
0.00082118064 0.012202181 -0.016343376 4280205598
0.0034129322 0.0094721466 -0.013932725 4280595238
0.0056813918 0.0081702992 -0.012921035 4282877234
0.010061368 -0.0016886145 -0.0035493225 4283006264
0.015938353 -0.017246425 0.01137799 4283595313
0.023196198 -0.037786059 0.031152312 4281830713
0.028046058 -0.048338614 0.041162439 4281896504
0.030003818 -0.047486492 0.040041395 4283002948
-0.019925665 0.0071195513 -0.011180196 4280848454
-0.018566068 0.010113165 -0.014372153 4280588863
-0.017370529 0.013823055 -0.01826149 4281240899
-0.015474521 0.013944961 -0.018639825 4281372224
-0.01328221 0.012632784 -0.017616907 4280981564
-0.010475967 0.008453764 -0.013795923 4280916793
-0.0082513019 0.0071438849 -0.012779301 4281308474
-0.0061719939 0.0065514147 -0.012463763 4281373243
-0.0045636967 0.0081086308 -0.014244566 4281047609
-0.0028045401 0.0089489818 -0.015325237 4281047354
-0.0013790093 0.011221223 -0.017799491 4279744048
0.00069790334 0.010629028 -0.017483152 4280134198
0.0032888278 0.0078901723 -0.015078859 4279678768
0.0062456615 0.0037217736 -0.01128723 4279093288
0.010633793 -0.0061673224 -0.0019399785 4281307964
0.016872671 -0.023203254 0.014339514 4281307964
0.023420436 -0.040945753 0.031287704 4281372478
0.027907034 -0.050101317 0.039885543 4281372224
0.029864823 -0.049246997 0.038766138 4281698623
-0.02087127 0.0098602325 -0.016531438 4280979523
-0.019387309 0.012141846 -0.01901325 4279089463
-0.017919272 0.014422506 -0.021491749 4280003383
-0.016031422 0.014543876 -0.021868465 4280264248
-0.013847623 0.0132268 -0.020847168 4279744048
-0.01105056 0.009033978 -0.017034104 4280460854
-0.0088344254 0.0077192038 -0.016019089 4281177148
-0.0069194175 0.0078427568 -0.016400898 4281112123
-0.0053216144 0.0094036087 -0.018176323 4280851259
-0.0038957894 0.01168235 -0.020645892 4279874099
-0.0021579452 0.012523632 -0.021720601 4281046588
-0.00025873259 0.012646597 -0.022098942 4281437248
0.0024873279 0.0091801435 -0.019003637 4281436994
0.0059483871 0.0028446019 -0.01313687 4280980798
0.011379577 -0.011380866 0.00035047531 4280980798
0.017627547 -0.028468825 0.016589016 4280785468
0.023463923 -0.043396689 0.030724339 4280784959
0.027219785 -0.049712606 0.036532778 4281305923
0.029169559 -0.048856623 0.035416584 4282412623
-0.022224043 0.0045607239 -0.013785802 4281304138
-0.021266598 0.0097388774 -0.019065212 4280915773
-0.019787584 0.012026742 -0.021541148 4280785213
-0.018324532 0.014313679 -0.024013828 4281046333
-0.01658725 0.01515634 -0.025087377 4280981053
-0.014264196 0.013112783 -0.023370225 4280851003
-0.011473663 0.008906424 -0.019565696 4281112124
-0.0094164722 0.0083080158 -0.019249102 4281046844
-0.0078212246 0.0098729581 -0.02102085 4280850748
-0.0062366128 0.011437379 -0.022790434 4280916028
-0.0045014843 0.012280546 -0.023863073 4279808308
-0.0027716495 0.013123505 -0.024934556 4279613233
-0.00071409717 0.012525663 -0.024617633 4280199479
0.0016872399 0.010488026 -0.022915443 4280330038
0.0054796115 0.0026920885 -0.015675731 4280330038
0.011250943 -0.013017341 -0.00083508156 4280330038
0.017849056 -0.031597376 0.016748257 4280721209
0.023147291 -0.044412889 0.028776061 4281111104
0.026533596 -0.049310304 0.033189788 4281436739
-0.022882741 0.005882591 -0.017722186 4281239368
-0.021798063 0.010351069 -0.022290351 4281046333
-0.0203267 0.012644991 -0.024759887 4281111358
-0.018444598 0.012765847 -0.025135564 4281306943
-0.016417459 0.012162916 -0.024814824 4281241663
-0.013942115 0.0093894303 -0.022407776 4281176638
-0.011745766 0.008064419 -0.021395398 4281111614
-0.0098445006 0.0081869513 -0.02177457 4280980798
-0.0082544126 0.0097559839 -0.023542086 4280850238
-0.0066749342 0.011324406 -0.025307344 4280850749
-0.0052670948 0.013615105 -0.027763564 4280981053
-0.0033842809 0.013736889 -0.028138725 4280981309
-0.0011687316 0.01241377 -0.027129693 4281176639
0.0013956092 0.0096468851 -0.024739673 4281307199
0.0051832609 0.0018265322 -0.017516956 4281242174
0.011645447 -0.01681941 5.097501e-05 4281242174
0.018246941 -0.035456128 0.017591231 4281242174
0.023190491 -0.046867572 0.028209981 4281307199
0.025666073 -0.048173018 0.029167745 4281632833
-0.023271967 0.0057688057 -0.020251835 4281174343
-0.022191737 0.010250136 -0.024809342 4280786234
-0.020725366 0.012550272 -0.027273024 4279026733
-0.016393051 0.0098870918 -0.02524321 4279678258
-0.014063254 0.007830821 -0.023537258 4281046333
-0.012017485 0.0072271079 -0.023221713 4281177404
-0.010271817 0.0080750212 -0.024293499 4280916284
-0.0086868666 0.0096480623 -0.026056683 4280850238
-0.0071125403 0.011220515 -0.027817667 4281046079
-0.0055488721 0.01279242 -0.029576503 4280980544
-0.0036688671 0.012914013 -0.029951112 4281045313
-0.0011241585 0.010136962 -0.027563797 4281110848
0.0014420301 0.007361412 -0.025180677 4281241408
0.005401846 -0.0012073666 -0.017286591 4281176639
0.011690546 -0.01918602 -0.0004500635 4281176639
0.01864383 -0.039327852 0.018424883 4281176639
0.023233371 -0.049326323 0.027640954 4281307199
0.025346665 -0.049188755 0.027220514 4281763393
-0.024062041 0.0078510195 -0.024860738 4281175874
-0.022857774 0.01161588 -0.028711265 4280460599
-0.021262523 0.013193309 -0.030473797 4279808308
-0.019110274 0.011856344 -0.029459415 4279613744
-0.014331613 0.0070006028 -0.025359126 4280851004
-0.012438752 0.007122457 -0.025736721 4281112123
-0.010545801 0.0072444305 -0.026114255 4281112124
-0.0089633167 0.0088216588 -0.027873704 4280981309
-0.0073914751 0.010398351 -0.029630998 4280916284
-0.0061515309 0.0134289 -0.032765884 4278439723
-0.0039530806 0.012095854 -0.031760089 4278700589
0.0014881417 0.0050718412 -0.025624659 4280786234
0.0054484196 -0.0035231933 -0.017750211 4281111613
0.012083385 -0.023009479 0.00042049401 4281046078
0.018686285 -0.04176002 0.017875735 4281046078
0.02291717 -0.050337136 0.025696576 4281110594
0.02484558 -0.049473904 0.024591051 4281892169
-0.024716686 0.0092243999 -0.028759804 4281372733
-0.023386043 0.012268543 -0.031907078 4281111104
-0.0217986 0.013849802 -0.033664763 4281371714
-0.019796591 0.013238579 -0.033344049 4281046334
-0.017211523 0.009705916 -0.030258181 4280980798
-0.014893726 0.0076356754 -0.028559579 4281046588
-0.012859285 0.0070268661 -0.028245097 4281047353
-0.011124253 0.0078784153 -0.029311474 4281112123
-0.0093945041 0.0087297782 -0.030376758 4280981818
-0.0079855882 0.011040077 -0.032818589 4281112379
-0.006592676 0.013349503 -0.035257187 4280721209
-0.0044000559 0.012011636 -0.034253456 4281306944
-0.0018650405 0.0092164725 -0.031877294 4279287344
0.0011969395 0.0042359829 -0.027445063 4279094563
0.0058370195 -0.0073005706 -0.016844403 4280722228
0.0124752 -0.026845783 0.0012816731 4280722228
0.018728435 -0.04419627 0.017323624 4281112123
0.022422135 -0.050614931 0.02307101 4281241153
0.024163319 -0.04902184 0.0212841 4282150739
-0.026319142 0.0053615347 -0.027424976 4281696583
-0.025236402 0.0098823011 -0.031953838 4280656694
-0.023640838 0.011468321 -0.033709984 4280133688
-0.022055876 0.013053823 -0.035463981 4280915008
-0.02005684 0.012440152 -0.035144273 4280719168
-0.017763894 0.010361664 -0.033445738 4280133178
-0.01545478 0.0082842857 -0.031750299 4280851258
-0.013428684 0.0076727271 -0.031435799 4281307964
-0.011549395 0.007793799 -0.031810623 4281307964
-0.0098249577 0.0086469501 -0.032873187 4280721718
-0.0084210299 0.010963529 -0.035309188 4280786488
-0.0070330873 0.013279147 -0.037741877 4281372479
-0.0050092824 0.012668021 -0.037426479 4281372223
-0.0026487671 0.010594755 -0.035740703 4280981564
0.00090612844 0.0034048408 -0.029262062 4281112889
0.0058826208 -0.0096290559 -0.017317124 4281242938
0.012692343 -0.029964253 0.00144949 4281242938
0.018417558 -0.045175403 0.015401497 4281047354
0.021748792 -0.050153248 0.01976908 4281372224
0.023300419 -0.047825985 0.017304491 4282281044
-0.027222697 0.0082274899 -0.032693502 4281696584
-0.025755052 0.010553651 -0.035138059 4280914498
-0.02416731 0.012143578 -0.036889441 4280393279
-0.022312764 0.012262471 -0.037259758 4280458304
-0.020458099 0.012381509 -0.037630007 4280458558
-0.018027097 0.0095611364 -0.035246789 4280589373
-0.015721302 0.0074769706 -0.03355559 4281111358
-0.013997015 0.0083320588 -0.034616672 4281177148
-0.012277979 0.0091869757 -0.035676662 4281112124
-0.010564227 0.010041609 -0.036735479 4281046843
-0.0086983033 0.010162048 -0.037107468 4279744048
-0.0074727908 0.013217941 -0.040220007 4280460854
-0.005454652 0.012604244 -0.039905123 4280720443
-0.0031001493 0.010524012 -0.038223036 4280394808
0.00027937442 0.0040450543 -0.032442786 4280396084
0.0057570748 -0.01122842 -0.018475842 4280396084
0.012561806 -0.031625248 0.00024616159 4280396084
0.018459417 -0.047615394 0.014846671 4280787254
0.02125537 -0.050410591 0.017158329 4281241918
0.022983547 -0.048809573 0.015380539 4282281044
-0.027341101 0.0066925064 -0.033806089 4281761098
-0.025739912 0.0082874894 -0.035556965 4281043274
-0.024013434 0.0091443434 -0.036617279 4281174088
-0.022015136 0.0085261539 -0.036300827 4281370948
-0.020011362 0.0079084337 -0.035985388 4281502018
-0.017858244 0.0065540597 -0.034984164 4281305924
-0.015840884 0.0059374347 -0.034671269 4281240644
-0.014265809 0.007531479 -0.036416456 4281306434
-0.012549423 0.0083883405 -0.037474267 4281241409
-0.010838307 0.0092450082 -0.03853092 4281242939
-0.0089752004 0.0093652382 -0.038902365 4281307199
-0.0077518225 0.012429737 -0.042007968 4280850494
-0.0057366677 0.011813667 -0.04169412 4280784703
-0.0035508014 0.010462329 -0.040698741 4280654144
-0.0001783222 0.0039632022 -0.034931742 4280653634
0.0051195882 -0.010621443 -0.021678623 4280653634
0.01225796 -0.032550707 -0.0016378481 4280653634
0.017972931 -0.047854476 0.01224786 4280784704
0.020941367 -0.051393658 0.015234053 4280784450
-0.02706847 0.0029374138 -0.032854937 4281761865
-0.025326017 0.0037973449 -0.033916913 4281108808
-0.0237245 0.0053968802 -0.035664558 4280846158
-0.021718476 0.0047769248 -0.035351254 4280847178
-0.01984803 0.0048969388 -0.035724685 4281044038
-0.017546333 0.0027992725 -0.034042578 4281174854
-0.015521266 0.0021809414 -0.033732861 4281305668
-0.014087006 0.0045187548 -0.036160488 4281436484
-0.012516987 0.0061169416 -0.037901342 4281436228
-0.010957588 0.00771451 -0.039639954 4281698113
-0.0090946257 0.0078347325 -0.040011369 4282022984
-0.0075511485 0.0094315633 -0.041746669 4281892423
-0.0053684972 0.0080755129 -0.040753998 4281761608
-0.0031750947 0.0067203268 -0.039763421 4281696584
0.00020371377 0.00020192564 -0.034012333 4281305159
0.0055060722 -0.014426239 -0.020792615 4281305159
0.01230083 -0.034946255 -0.0021597836 4281305159
0.017838843 -0.049558818 0.011013169 4280979269
0.020270705 -0.050897926 0.011956722 4281109574
-0.026406284 -0.0030575171 -0.029854435 4281629774
-0.024780612 -0.0014522299 -0.031603694 4281303628
-0.023165513 0.00015252829 -0.033350818 4281238603
-0.021422815 0.0010148734 -0.034411062 4281108553
-0.01940361 0.00039371848 -0.034101989 4281370694
-0.017235391 -0.00096844882 -0.033110298 4281174598
-0.015202608 -0.0015884787 -0.032803752 4281175364
-0.013462167 -0.00072581321 -0.033863198 4281109318
-0.011878565 0.00087761879 -0.035603512 4281109828
-0.010305583 0.0024804324 -0.03734158 4281175108
-0.0085863061 0.003342092 -0.038396541 4280914498
-0.0070319213 0.0049439967 -0.040130761 4281108809
-0.0048390552 0.003584221 -0.039143387 4281305413
-0.0026354343 0.0022253171 -0.038158108 4281500744
0.00075238943 -0.0043122023 -0.032423466 4281892168
0.0060618445 -0.018983617 -0.019237753 4281892168
0.012343369 -0.037345827 -0.0026847143 4281892168
0.017002119 -0.048305258 0.0070700161 4281957449
0.019422781 -0.049649492 0.008012604 4281826379
-0.026136097 -0.00684499 -0.028926764 4282216018
-0.024502214 -0.0052347779 -0.030674476 4281173069
-0.022878874 -0.0036251843 -0.032419957 4281303883
-0.021266144 -0.0020161346 -0.034163218 4281304394
-0.019101206 -0.0033829883 -0.03317428 4281304649
-0.016925454 -0.0047490299 -0.03218741 4281305159
-0.015031002 -0.0046272725 -0.032565475 4281370439
-0.013285186 -0.0037620738 -0.033624366 4281174343
-0.011696026 -0.0021539629 -0.035362497 4281370948
-0.0099634118 -0.00128939 -0.036418587 4281240644
-0.0080793276 -0.0011678562 -0.036794249 4281370949
-0.0061951764 -0.0010461658 -0.037169814 4281370948
-0.0041488521 -0.0016668215 -0.036867082 4281305158
-0.0020971149 -0.002286993 -0.03656533 4281305414
0.0012997165 -0.0088436007 -0.030847117 4281305158
0.0066162832 -0.023558319 -0.017695371 4281240134
0.012558404 -0.040491246 -0.0025364924 4281240133
0.016868776 -0.050000139 0.0058421716 4281109064
0.018932594 -0.049865924 0.0054314882 4281368909
-0.026256386 -0.0084051713 -0.03005763 4281954644
-0.024622295 -0.0067905858 -0.03180214 4281238348
-0.022863593 -0.0059229806 -0.032862429 4281369164
-0.021110121 -0.0050555989 -0.033921588 4281369929
-0.019080836 -0.0056804866 -0.033617791 4281304649
-0.017046109 -0.0063049197 -0.033314999 4281239368
-0.015151799 -0.0061831847 -0.033693038 4281239623
-0.013257399 -0.0060613304 -0.034071021 4281305414
-0.01136291 -0.0059393421 -0.034448918 4281370949
-0.0094683431 -0.005817242 -0.034826756 4281305924
-0.0075736977 -0.0056950152 -0.035204515 4281305668
-0.0058382414 -0.0048278272 -0.036259361 4281305924
-0.0039461441 -0.0047055259 -0.036636434 4281305158
-0.0018893778 -0.0053275749 -0.036337323 4281239623
0.0011765361 -0.010415033 -0.031985641 4281304903
0.0064895041 -0.025173709 -0.01886571 4281239368
0.012254857 -0.041413262 -0.0044179466 4281174344
0.016209505 -0.049463287 0.0025926121 4281108809
0.018621121 -0.050816894 0.0035304576 4281888344
-0.026376609 -0.0099650472 -0.031188285 4282086734
-0.024742339 -0.0083460957 -0.032929596 4281370439
-0.022713576 -0.0089735091 -0.032627463 4281369674
-0.02081706 -0.0088519976 -0.033006221 4281303883
-0.019060794 -0.0079820976 -0.034064274 4281304394
-0.017023679 -0.0086086094 -0.033763543 4281239369
-0.015272558 -0.0077387914 -0.034820389 4281239369
-0.013526689 -0.0068692639 -0.03587608 4281305158
-0.011786085 -0.0059999451 -0.036930609 4281435973
-0.0095895454 -0.0073729157 -0.035954043 4281110339
-0.0075386278 -0.007997945 -0.035655618 4281240644
-0.0058004819 -0.0071283653 -0.036709428 4281305924
-0.0039058551 -0.0070059001 -0.037087012 4281240133
-0.0021756105 -0.0061366409 -0.03813903 4281370694
0.00088626891 -0.011239678 -0.033797942 4281305414
0.005853381 -0.024549842 -0.02205619 4281109064
0.011779215 -0.04158441 -0.0069688912 4281109064
0.015901601 -0.050404966 0.00069761649 4281434698
0.018310027 -0.051763132 0.0016328581 4282280023
-0.025849361 -0.015280202 -0.028919369 4282020688
-0.024069335 -0.014407009 -0.029980777 4281434953
-0.022159692 -0.01428479 -0.03036225 4281173323
-0.02038746 -0.013411865 -0.031421926 4281238603
-0.018620465 -0.012539096 -0.032480501 4281303883
-0.016858701 -0.011666588 -0.033537894 4281238603
-0.0151022 -0.010794319 -0.034594174 4281239113
-0.013202742 -0.010672152 -0.034973167 4281109063
-0.011303201 -0.010549873 -0.035352103 4281305158
-0.0095571391 -0.009677887 -0.03640601 4281175109
-0.0075038783 -0.01030492 -0.036109734 4281240644
-0.0059219487 -0.0086837634 -0.037836451 4281305668
-0.0038658716 -0.009310402 -0.037540503 4281435973
-0.0021329336 -0.0084387362 -0.038591474 4281435718
0.00093026459 -0.013557002 -0.034262039 4281632069
0.0053879321 -0.024660923 -0.02456505 4281435973
0.010787409 -0.039501339 -0.011527251 4281435973
0.014894173 -0.048349157 -0.0038771629 4281696584
-0.021068793 -0.022629648 -0.025403896 4281297763
-0.019135114 -0.02250579 -0.025790097 4281429855
-0.017341342 -0.021629162 -0.026852354 4281693269
-0.015410122 -0.021505222 -0.027237881 4281497938
-0.013914917 -0.019124284 -0.029648591 4281237584
-0.012287628 -0.017496347 -0.031381477 4281172303
-0.010670938 -0.015869021 -0.033112124 4281434699
-0.0089114793 -0.014993981 -0.034167074 4281303883
-0.0071572885 -0.014119193 -0.035220902 4281304138
-0.0054084025 -0.013244569 -0.036273614 4281435208
-0.0036647916 -0.012370206 -0.037325144 4281370184
-0.0015982836 -0.012998179 -0.03703285 4281370184
0.00114071 -0.016629308 -0.034058303 4281370184
0.0050926507 -0.025513686 -0.026397036 4281435719
0.010141592 -0.038897112 -0.01473002 4281696329
0.014238108 -0.047771841 -0.0070973411 4281566024
-0.00868541 -0.027997039 -0.02483608 4281168734
-0.0071949326 -0.025609486 -0.027240688 4281236819
-0.0057204217 -0.023222864 -0.029641971 4281563218
-0.004103329 -0.021590725 -0.031369213 4281628498
-0.0024968684 -0.019959189 -0.033094201 4281628499
-0.00024535879 -0.021341257 -0.032137994 4281433678
0.0021835081 -0.023475654 -0.030514598 4281565004
0.005644124 -0.030126378 -0.024882188 4281631049
0.0098407529 -0.039784893 -0.016586676 4281891913
0.043271258 -0.05169484 0.027275473 4282863719
0.040403303 -0.051408291 0.024386063 4282469999
-0.012004677 -0.031265885 -0.02136402 4281819238
-0.0083041526 0.010410503 0.02397174 4285165603
-0.0069092214 0.013284173 0.020681735 4285493279
-0.0049228668 0.01341239 0.020285748 4285623839
-0.0026246756 0.012168985 0.021333557 4285558304
-0.00015711412 0.010240652 0.023100678 4284970274
0.0021653883 0.0089990124 0.024143782 4284907799
-0.0085799731 0.0094541237 0.022057794 4285427743
-0.0068864673 0.010959551 0.020217471 4285820954
-0.0052035898 0.012464441 0.018379286 4285820699
-0.0025971383 0.00984025 0.020865042 4285820698
-0.0002858974 0.0085933357 0.021907084 4285493279
0.0020361431 0.0073472559 0.022947002 4285362208
0.0037140436 0.008852154 0.02111014 4285231393
0.0057141297 0.0089817047 0.020711746 4285165603
0.0075451806 0.009798564 0.019595809 4285100324
0.0091991387 0.011302229 0.017763879 4285296928
0.01101689 0.01211841 0.016650729 4285493279
0.013360746 0.010874309 0.017686728 4285361953
-0.0090028644 0.0091931894 0.019427001 4285624604
-0.0073145106 0.010702707 0.017590914 4285558304
-0.0056367442 0.012211576 0.015757035 4285557538
-0.0030364618 0.0095781833 0.018237472 4285623838
-0.00057284534 0.0076363757 0.01999554 4285689883
0.001746051 0.006385684 0.02103281 4285624349
0.0035850592 0.0072050467 0.019916758 4285493534
0.0054187812 0.0080241635 0.018801846 4285493533
0.0072471984 0.0088430643 0.017688006 4285558813
0.0087271072 0.011040159 0.015144397 4285624603
0.010713842 0.011169121 0.014748868 4285755163
0.013054561 0.0099204332 0.015782226 4285886488
0.016304309 0.0052288845 0.020382948 4285820698
0.020867947 -0.0042798817 0.029969711 4285493023
0.027171822 -0.019978993 0.045956939 4285493024
-0.011118874 0.0074272603 0.018636771 4285361699
-0.0097196512 0.010327406 0.015365396 4285821719
-0.0078917779 0.011147745 0.014252838 4285821719
-0.006221842 0.012660526 0.012423735 4285689883
-0.0039411075 0.011402722 0.013465226 4285821209
-0.0014915429 0.0094534382 0.015221126 4285755928
0.0011349171 0.0068131164 0.017689936 4285624349
0.0031293295 0.0069421977 0.017292593 4285558813
0.0047916695 0.0084549338 0.015465401 4285690139
0.0066121109 0.0092754662 0.014354829 4285821464
0.0080843605 0.011478681 0.011817597 4285623838
0.010411166 0.010224581 0.012850367 4285492259
0.012925535 0.0082801357 0.014593914 4285558303
0.016173949 0.0035731345 0.019183479 4285624093
0.020917194 -0.0066572949 0.029459603 4285689884
0.026849937 -0.021025836 0.043987095 4285689628
-0.011968527 0.0092666745 0.013861977 4285361953
-0.010435008 0.011479523 0.011316758 4285558558
-0.0084679872 0.011606321 0.010924496 4285755929
-0.0066533647 0.012428064 0.0098162554 4285821719
-0.0045336373 0.011860203 0.010140106 4285755928
-0.0020927377 0.009903729 0.011892881 4285624349
0.00036432594 0.0079484209 0.013642449 4285624349
0.0025111213 0.0073825642 0.013961166 4285559069
0.0041656308 0.0088992193 0.012138758 4285624348
0.0061466582 0.0090275928 0.011744201 4285821719
0.0076139607 0.011237018 0.0092128925 4285821209
0.009934932 0.0099781454 0.010243557 4285755419
0.012443304 0.0080267191 0.011983398 4285755928
0.015864309 0.0026108176 0.017273486 4285755928
0.020602148 -0.0076529458 0.02752623 4285690138
0.026897768 -0.023453631 0.043439947 4285558558
-0.012672145 0.01043082 0.0098193884 4285427743
-0.011148941 0.012649577 0.0072811134 4285558813
-0.009192761 0.012775656 0.0068909936 4285558559
-0.0070841573 0.012204763 0.007215336 4285623838
-0.0048150681 0.010937393 0.0082525946 4285623838
-0.0023774877 0.0089740828 0.010001101 4285624094
-0.00024447963 0.0084050521 0.010320798 4285559069
0.0018939711 0.0078364909 0.010639496 4285558813
0.0033749454 0.010053217 0.0081101581 4285559069
0.0055135414 0.0094848201 0.0084290132 4285558814
0.0071442761 0.011004508 0.0066147447 4285690138
0.0096331947 0.009045139 0.0083534829 4285690138
0.012314688 0.0063913912 0.010798689 4285690138
0.015734177 0.00095784664 0.016076017 4285624604
0.020651096 -0.010034211 0.027013339 4285493789
0.027314246 -0.027275451 0.044305794 4285493534
-0.012653753 0.0081139207 0.0093619376 4285493789
-0.011127483 0.010339446 0.0068279356 4285756183
-0.0094676837 0.011864547 0.0050105769 4285952788
-0.0072099008 0.010591976 0.0060466863 4285886998
-0.0046316124 0.0079219565 0.0085053109 4285755419
-0.0021893121 0.0059523582 0.010247976 4285624093
-0.00037162378 0.0067789704 0.0091426 4285559068
0.0016036592 0.0069067478 0.0087490268 4285624604
0.0029167868 0.0098282993 0.0055148788 4285558558
0.00488149 0.0099556148 0.0051235743 4285558558
0.0068462379 0.01008302 0.0047323257 4285623838
0.0095054246 0.0074189305 0.0071753561 4285558303
0.012186103 0.0047563612 0.0096141957 4285558304
0.015604075 -0.00069485605 0.014878757 4285558814
0.020881353 -0.013116956 0.027204413 4285493534
0.027729714 -0.031110249 0.045162328 4285493533
-0.01306748 0.007898882 0.0067630149 4285558814
-0.011839416 0.011534285 0.0028103087 4285689628
-0.010190133 0.013063125 0.00099825673 4285689374
-0.0077915378 0.011083908 0.002744576 4285821208
-0.0050674416 0.0077032149 0.0059091076 4285821208
-0.0026311465 0.005726628 0.007648062 4285624349
-0.00065874308 0.0058541 0.0072549693 4285558813
0.0011510216 0.00668253 0.0061528273 4285624604
0.0026247464 0.0089118779 0.003634749 4285624604
0.0042505078 0.01043991 0.0018279199 4285755928
0.0065485761 0.0091662034 0.0028532911 4285952789
0.0092042685 0.0064931214 0.0052904934 4285952789
0.012057547 0.0031216145 0.0084299073 4285690139
0.015474003 -0.0023472756 0.013681695 4285559069
0.020929489 -0.015508659 0.02668396 4285493535
0.027960012 -0.034258552 0.045304611 4285493535
-0.015294965 0.0068628415 0.0052726027 4285295653
-0.013768025 0.0091013908 0.0027482007 4285821463
-0.012403492 0.012043077 -0.00048368238 4285426723
-0.010762025 0.013575736 -0.0022908822 4285492258
-0.0083721131 0.0115894 -0.00054777972 4285558304
-0.0053480603 0.0067900717 0.0040285867 4285689883
-0.0032294281 0.0062133819 0.004346149 4285624349
-0.0014250427 0.0070434809 0.003246652 4285558813
0.00037404895 0.0078733861 0.0021482501 4285624603
0.0021678656 0.0087030157 0.0010510311 4285689883
0.0039563775 0.0095324069 -4.5066699e-05 4285689884
0.0060807206 0.0089566112 0.00027174316 4285689373
0.008730229 0.0062743425 0.002703635 4285820954
0.011577148 0.0028914437 0.0058361404 4285821208
0.015343957 -0.0039993972 0.012484848 4285493278
0.020614723 -0.016500928 0.024753027 4285493534
0.027637731 -0.035310544 0.043331109 4285493534
-0.016406532 0.010197118 -0.0008666534 4285427489
-0.014754359 0.011734635 -0.0026728865 4285690649
-0.01311278 0.013271615 -0.0044769756 4285822229
-0.011183884 0.013395846 -0.0048617162 4285756694
-0.0087999664 0.011402465 -0.0031222943 4285821974
-0.0060912408 0.0079988018 2.8951094e-05 4285624859
-0.0041406229 0.0081247464 -0.00035989285 4285493278
-0.0023495927 0.0089561641 -0.0014551003 4285493278
-0.00056385621 0.0097873881 -0.002549218 4285559068
0.0015466809 0.0092082396 -0.0022314098 4285887763
0.0034949183 0.0093344525 -0.0026194658 4285690394
0.005613599 0.0087560788 -0.0023031756 4285426978
0.0080838427 0.0067691654 -0.00058037974 4285492768
0.010921739 0.003374666 0.0025458094 4285624093
0.015035504 -0.0049470663 0.010585524 4285689883
0.020300332 -0.01748848 0.022825506 4285493023
0.027132038 -0.035654046 0.04065939 4285493024
-0.016952649 0.010727413 -0.0041490868 4285296419
-0.015308294 0.012268789 -0.0059505142 4285427744
-0.013382304 0.012392715 -0.006334763 4285427489
-0.011307437 0.011808477 -0.006012002 4285493023
-0.0089241602 0.0098084509 -0.0042773634 4285493279
-0.0066788606 0.0085175633 -0.0032517966 4285493278
-0.0048932321 0.0093507022 -0.0043443888 4285493788
-0.0032723807 0.010891184 -0.0061406698 4285493788
-0.0013378076 0.011016294 -0.0065261647 4285493535
0.00092656538 0.0097270384 -0.0055040922 4285559323
0.0028666295 0.0098526999 -0.0058905315 4285821973
0.0048067532 0.0099784732 -0.0062769074 4285821973
0.0072656348 0.0079841986 -0.0045567006 4285756183
0.010267381 0.0038714632 -0.00073476695 4285690139
0.014905689 -0.0065963864 0.0093907043 4285558558
0.020891022 -0.022002287 0.024404209 4285493024
0.027545163 -0.039518423 0.041494407 4285493024
-0.017216522 0.0098491982 -0.0060077589 4284968488
-0.015574627 0.011394791 -0.0078054462 4285165858
-0.013505515 0.010807857 -0.0074832682 4285165858
-0.011282325 0.0095109269 -0.0064567234 4285230883
-0.0091996007 0.0089250356 -0.0061370563 4285362464
-0.0072654001 0.0090497881 -0.0065227244 4285428254
-0.0054877736 0.0098846257 -0.0076121446 4285033768
-0.0035560876 0.010009415 -0.0079971571 4285034024
-0.0016243123 0.010134324 -0.0083821062 4285166114
0.00030751526 0.010259338 -0.008766992 4285231138
0.0019046776 0.011802986 -0.010555061 4285230373
0.0040013157 0.011218786 -0.010237653 4285361953
0.0062761046 0.0099260882 -0.0092206467 4285296418
0.0099649243 0.0029642582 -0.0026054624 4285362208
0.014953986 -0.0089539811 0.0088955872 4285362464
0.021661129 -0.027241819 0.02666932 4285362464
0.027957283 -0.04339578 0.042320095 4285296418
