# .PCD v0.7 - Point Cloud Data file format
VERSION 0.7
FIELDS x y z rgba
SIZE 4 4 4 4
TYPE F F F U
COUNT 1 1 1 1
WIDTH 978
HEIGHT 1
VIEWPOINT 0 0 0 1 0 0 0
POINTS 978
DATA ascii
-0.034924146 0.018912435 0.032970227 4289081384
-0.033065256 0.01971437 0.031881679 4289081383
-0.031306509 0.021199964 0.030060448 4289081383
-0.029655974 0.023368772 0.027507972 4289212454
-0.027920995 0.024853054 0.025691159 4289016104
-0.026196573 0.02633681 0.023876272 4289081384
-0.024376985 0.027136691 0.022795103 4288885289
-0.022779424 0.029302549 0.020252444 4288754474
-0.020975608 0.030101603 0.019174241 4288557869
-0.018949363 0.029534884 0.019557528 4288622128
-0.016684595 0.027603321 0.021399416 4288423994
-0.014403511 0.025672819 0.023238406 4287768644
-0.03860661 0.014352545 0.035414718 4287771449
-0.03673197 0.015157416 0.034324847 4288361518
-0.034862492 0.015962034 0.033235963 4288754473
-0.033090297 0.017452687 0.031415522 4289016104
-0.031233799 0.018256657 0.030329097 4289146663
-0.029479969 0.0197463 0.028512143 4289015848
-0.027836885 0.021921158 0.025966074 4288819498
-0.026106838 0.023409486 0.024153538 4288950569
-0.024387371 0.024897285 0.022342924 4288689194
-0.022570204 0.025699209 0.021263901 4288885289
-0.020758223 0.026500884 0.020185873 4288557613
-0.018610533 0.025247497 0.02129462 4288491823
-0.016451906 0.0239948 0.022401482 4288163383
-0.014401395 0.023427483 0.022778753 4287834433
-0.033207539 0.015875287 0.030215356 4288033589
-0.031256314 0.015993118 0.029860917 4288361264
-0.029402215 0.016799122 0.028776623 4288557613
-0.027753342 0.018980738 0.026234567 4288689194
-0.026017692 0.020473726 0.024424292 4288885033
-0.024503443 0.02334135 0.021159194 4288492589
-0.022686195 0.0241454 0.020081803 4288492589
-0.020763356 0.024261931 0.01973284 4288623148
-0.018499892 0.022317156 0.021564759 4288753454
-0.016452488 0.02174738 0.021940827 4288294963
-0.014399525 0.021178015 0.022315949 4288423738
-0.031562563 0.015796728 0.027203478 4286920513
-0.029519383 0.015224002 0.02757822 4287837493
-0.027870145 0.017412074 0.025041096 4288296493
-0.026031692 0.018219426 0.023961354 4288688939
-0.024303678 0.01971627 0.022155903 4288754218
-0.022370357 0.019833319 0.021804951 4288557613
-0.020547476 0.020639896 0.020728238 4288818989
-0.01872981 0.021446276 0.01965249 4288622638
-0.016917344 0.022252373 0.018577788 4288294709
-0.014991421 0.022369258 0.018228397 4288292924
-0.024209913 0.016770355 0.022417702 4288164404
-0.022379074 0.017579466 0.021341152 4288164914
-0.020663906 0.019079961 0.019541476 4288426288
-0.019072492 0.021271382 0.017020099 4288163638
-0.017497044 0.023461904 0.01450168 4288358203
-0.021111209 0.019601658 0.016187415 4287967799
-0.019753445 0.023186326 0.012228493 4288032314
-0.027560096 -0.0089389943 0.023783699 4287904304
-0.025781672 -0.0073963366 0.022002283 4287902519
-0.024221111 -0.0044312738 0.018802386 4287640379
-0.027286109 -0.01339351 0.025405619 4287838768
-0.025496725 -0.011845913 0.023625538 4288099379
-0.023821387 -0.0095852576 0.021138903 4288229684
-0.022055823 -0.0080389269 0.019363295 4287771449
-0.020409692 -0.0057798028 0.016882069 4287378238
-0.027307149 -0.015716631 0.024890762 4288231213
-0.02551489 -0.014164578 0.023113482 4288427054
-0.023526538 -0.014044758 0.022752099 4288164658
-0.021750029 -0.012493532 0.020977866 4287902773
-0.020092767 -0.010227289 0.018499639 4288034098
-0.018340085 -0.0086773075 0.01672988 4288034098
-0.016597997 -0.0071278326 0.014962077 4287837494
-0.015100013 -0.0041489303 0.011787329 4286986049
-0.027230669 -0.018762115 0.025079064 4288231724
-0.025432821 -0.017205495 0.023304138 4288426798
-0.023542378 -0.016367402 0.022236492 4288230194
-0.021868806 -0.014093842 0.019760232 4288033843
-0.020102654 -0.012538847 0.017991293 4288361518
-0.018235873 -0.011701871 0.016928118 4288230958
-0.016374301 -0.010865163 0.015866 4288034098
-0.01475114 -0.0085942633 0.013399191 4287772468
-0.013143953 -0.0063242912 0.01093539 4287837494
-0.02754524 -0.018934082 0.022442523 4287904304
-0.025652248 -0.018093821 0.021375988 4288033843
-0.023867454 -0.016533557 0.019606803 4288165168
-0.021987524 -0.015693884 0.018542789 4288165168
-0.020221177 -0.014134619 0.016777135 4288034353
-0.018132243 -0.01473489 0.017119993 4288165168
-0.016265247 -0.013895717 0.016058549 4288100144
-0.014403488 -0.013056722 0.01499809 4288099889
-0.012666062 -0.011498805 0.013237994 4288165679
-0.011061061 -0.0092223622 0.010779645 4288165168
-0.009472046 -0.0069468468 0.0083243158 4287902263
-0.0078990459 -0.0046721585 0.0058719199 4287837238
-0.0062121823 -0.0031169243 0.0041212961 4287052094
-0.02785911 -0.019097041 0.019812744 4287317038
-0.026071589 -0.017532486 0.018046368 4287839024
-0.024191823 -0.016690809 0.016983952 4287838768
-0.022317227 -0.015849341 0.015922561 4287772468
-0.020123217 -0.017174076 0.016965214 4288034353
-0.018140089 -0.017054405 0.016604915 4288099634
-0.016156789 -0.01693463 0.016244661 4288296494
-0.014289614 -0.016093221 0.01518492 4287969074
-0.012546625 -0.014530633 0.013427101 4287968819
-0.010692578 -0.013689812 0.012369903 4288033843
-0.0088438019 -0.012849223 0.011313731 4287902518
-0.0072542988 -0.01056708 0.0088633597 4288099124
-0.0054213926 -0.0097272508 0.007810222 4288229939
-0.0038585551 -0.0074465238 0.0053648464 4288033843
-0.0021766387 -0.0058870949 0.0036186222 4287513644
-0.0244128 -0.0175636 0.015068233 4287381298
-0.022330146 -0.018168826 0.015408669 4287904304
-0.020241942 -0.018773627 0.015748166 4288034098
-0.018148195 -0.019377988 0.016086746 4288230704
-0.016162347 -0.019258071 0.015726004 4288231214
-0.014292438 -0.018414374 0.014667414 4288296238
-0.012308966 -0.018294405 0.014307264 4288164914
-0.010446824 -0.017450977 0.01325025 4288164914
-0.0085899346 -0.016607758 0.01219427 4287968563
-0.0069920123 -0.014318649 0.0097473916 4288230449
-0.0052805617 -0.012753282 0.0079989489 4288099889
-0.0034475103 -0.011911202 0.0069475304 4288099889
-0.0017546453 -0.010346804 0.0052026603 4288231214
-7.2449446e-05 -0.008782912 0.0034597646 4288165935
0.0015990883 -0.0072196089 0.0017189216 4288035629
0.0031169578 -0.0049347579 -0.00071297027 4287447344
-0.018598851 -0.018800911 0.012776604 4287773744
-0.01650792 -0.019407537 0.013114057 4287969328
-0.014527414 -0.019287873 0.012754347 4288165678
-0.01230948 -0.020619478 0.0137862 4288296494
-0.01044463 -0.01977374 0.012730349 4288033843
-0.0084610172 -0.019653592 0.012370307 4288099124
-0.0068573691 -0.017357688 0.0099274088 4288164914
-0.0050109439 -0.01651277 0.0088751465 4288034353
-0.0033018701 -0.014943194 0.0071305986 4288165423
-0.0014686808 -0.014098819 0.0060808491 4288427308
0.00022178888 -0.012530167 0.0043398384 4288230959
0.0019015893 -0.010962065 0.0026008431 4288361773
0.0034278855 -0.0086702444 0.000172453 4288100398
0.0050836429 -0.0071033873 -0.0015620217 4288035883
-0.016965922 -0.018819835 0.0098137874 4287643694
-0.014762025 -0.020156782 0.010844771 4288362793
-0.012784187 -0.0200372 0.010485601 4288230959
-0.010806199 -0.019917507 0.010126494 4288295983
-0.0088280775 -0.019797709 0.0097674355 4288230704
-0.0069763847 -0.018950384 0.0087157618 4287969074
-0.0051299296 -0.018103328 0.0076651406 4288361519
-0.0032887422 -0.01725648 0.0066155773 4288296238
-0.0015874356 -0.015682932 0.0048758127 4288034608
0.00024051219 -0.01483668 0.0038288068 4288165423
0.0020631664 -0.013990652 0.002782831 4288427053
0.0037378743 -0.012418453 0.0010481924 4288230193
0.0052565411 -0.010120522 -0.0013737064 4288361774
0.0069071837 -0.0085495822 -0.0031038355 4288231214
0.0085471347 -0.0069791414 -0.0048319791 4287970605
0.01017639 -0.0054092966 -0.0065580681 4288297514
-0.0091944598 -0.019932818 0.0071713291 4288166698
-0.0070953555 -0.020542804 0.0075043049 4288297004
-0.0051198192 -0.020422969 0.0071458649 4288100143
-0.0035393946 -0.018115398 0.0047174282 4287903028
-0.0015717112 -0.017995838 0.0043605734 4287968564
0.00025894865 -0.017147239 0.0033146888 4288034099
0.0020843223 -0.016298909 0.0022698883 4288427054
0.0036194138 -0.013993669 -0.00014999323 4288427053
0.0054288097 -0.013146039 -0.0011917725 4288296493
0.0070850328 -0.01157045 -0.0029195547 4288165678
0.0088811256 -0.010723475 -0.0039587189 4288296493
0.010518633 -0.0091487728 -0.0056829937 4288296749
0.0119895 -0.0068469383 -0.0080908407 4287904304
0.013444263 -0.0045459159 -0.010495722 4288036394
-0.0073404871 -0.02140322 0.0056037344 4288166954
-0.0053677596 -0.021283571 0.0052457899 4287970094
-0.0033949278 -0.021163817 0.0048879087 4287772468
-0.0016905479 -0.01958153 0.0031543188 4287902773
0.00041406974 -0.020192925 0.0034849383 4288033843
0.0021051951 -0.018611174 0.0017538872 4288230193
0.0037856586 -0.017030042 2.4870038e-05 4288427054
0.0054554455 -0.015449423 -0.0017021019 4288230704
0.0071145408 -0.013869319 -0.0034271087 4287969328
0.0087629557 -0.012289789 -0.0051500406 4288231214
0.010553751 -0.011440869 -0.0061864872 4287969328
0.012339216 -0.010592129 -0.0072219204 4288034864
0.014119349 -0.009743657 -0.0082562659 4287838513
0.015571814 -0.0074362196 -0.010655632 4288101673
0.017335873 -0.0065885074 -0.011686895 4287904049
0.01859496 -0.0035532676 -0.014763281 4287512879
-0.0019434616 -0.020433526 0.0012620017 4288297003
2.1375716e-05 -0.020314056 0.00090572238 4288231214
0.0019862913 -0.020194482 0.00054951012 4288230193
0.0038091205 -0.019341882 -0.00049139373 4288099379
0.0056266487 -0.018489528 -0.0015312675 4287968309
0.0071437582 -0.016172212 -0.0039377259 4288099633
0.00894529 -0.01532061 -0.0049745357 4287903283
0.010588568 -0.013736982 -0.0066931043 4287903283
0.012376752 -0.012885969 -0.0077273194 4288034353
0.014159594 -0.012035135 -0.0087605286 4288034353
0.015937101 -0.011184555 -0.0097926371 4288230449
0.017709259 -0.010334197 -0.010823691 4288164914
0.019143308 -0.0080212019 -0.013214527 4288165679
0.020392174 -0.0049778447 -0.016282262 4288101674
0.0015887804 -0.020307031 -0.0020218492 4288558123
0.0036902837 -0.020922724 -0.0016938671 4288295983
0.005507838 -0.020068217 -0.002732073 4288099379
0.00732008 -0.019213911 -0.0037692292 4288164148
0.0089769252 -0.017625224 -0.0054870462 4287968309
0.010623083 -0.016037125 -0.0072027994 4288034098
0.012413982 -0.015183788 -0.008235828 4288165168
0.014199551 -0.014330681 -0.0092678079 4288034353
0.015979763 -0.013477739 -0.010298779 4287969074
0.01775464 -0.012625065 -0.011328649 4288295729
0.019357944 -0.011039037 -0.013036219 4288165425
0.020612709 -0.0079867058 -0.016098324 4287904559
0.0049554333 -0.019435424 -0.0059756888 4288430879
0.006906867 -0.019316342 -0.006329204 4288101419
0.0088583566 -0.019197162 -0.0066826558 4288100399
0.010657299 -0.018341314 -0.0077155689 4288099889
0.012140337 -0.016012874 -0.010105507 4287969074
0.013923235 -0.015157726 -0.011135373 4287969074
0.015861455 -0.015038919 -0.011486076 4287904049
0.017799713 -0.014919978 -0.011836687 4288165679
0.0194059 -0.013329457 -0.013541419 4288100399
0.020326413 -0.0087971725 -0.017950635 4288493354
0.0082905702 -0.018552151 -0.0099131679 4288233254
0.010386348 -0.019172069 -0.0095871659 4288035374
0.012022179 -0.017575879 -0.011294263 4287903794
0.013805091 -0.016718592 -0.012322462 4287969328
0.015903685 -0.017338034 -0.011996661 4288034864
0.018007677 -0.017957028 -0.011671807 4287904049
0.019287666 -0.014886018 -0.014725147 4288231213
0.020377595 -0.011078488 -0.018449493 4288559654
0.015624925 -0.018160354 -0.013859986 4287904303
0.01772593 -0.018781703 -0.013536214 4288232234
0.019003743 -0.015702222 -0.016582465 4288101164
0.020091668 -0.011884045 -0.02029806 4288363813
0.017281659 -0.018859345 -0.0160698 4287512113
0.018885722 -0.017256025 -0.017764093 4287839278
0.020142563 -0.014169093 -0.020799756 4287709993
-0.017081816 -0.056430545 0.0011829827 4286922044
-0.0154084 -0.05402137 -0.0011877548 4287314744
-0.013750974 -0.051612999 -0.003555486 4286789188
-0.017201755 -0.058050413 -4.9600378e-05 4286986813
-0.015414964 -0.056399565 -0.0017487761 4287641653
-0.013638753 -0.054749276 -0.0034458842 4287838258
-0.011873171 -0.05309945 -0.0051410105 4287968563
-0.010239311 -0.050685894 -0.0074992236 4288098358
-0.017211441 -0.060437102 -0.00061650015 4287379259
-0.015421797 -0.058781799 -0.0023128632 4287641144
-0.01364274 -0.057127055 -0.0040071597 4287707698
-0.01175604 -0.056239437 -0.0050354209 4287969328
-0.0099955276 -0.054585513 -0.0067261923 4288295218
-0.0081220083 -0.053698447 -0.0077518765 4287771959
-0.0063800514 -0.052045431 -0.0094390418 4287116864
-0.017441515 -0.061289269 -0.0025141006 4287641399
-0.015654381 -0.059629824 -0.0042066639 4287641144
-0.013647001 -0.059508812 -0.0045714779 4287641654
-0.011757601 -0.058618914 -0.0055985777 4287641653
-0.0098734647 -0.057729211 -0.0066246232 4288034098
-0.0079945587 -0.056839671 -0.0076496182 4288099634
-0.0061209202 -0.05595031 -0.0086736102 4287904049
-0.0043813959 -0.054293033 -0.010356912 4287838769
-0.0026525147 -0.052636247 -0.012038225 4287968308
-0.00093427673 -0.050980028 -0.013717474 4287444538
-0.01756132 -0.062908232 -0.003746002 4288687664
-0.01577403 -0.061244484 -0.0054352684 4287641909
-0.013766799 -0.061123516 -0.00580006 4287772469
-0.011877406 -0.060231473 -0.0068255058 4287903284
-0.0099932477 -0.059339624 -0.0078498898 4287969073
-0.0081143416 -0.058447938 -0.0088732122 4287969074
-0.0061147027 -0.058326941 -0.0092362529 4287707189
-0.0043723397 -0.056665178 -0.010916786 4287904049
-0.0025092289 -0.055774089 -0.011936953 4287706933
-0.00091950595 -0.053343233 -0.014271697 4287837494
0.00079092756 -0.051683072 -0.015946088 4287445049
0.0026301183 -0.050793063 -0.016961632 4287117119
-0.014001671 -0.061964642 -0.0076879775 4287181888
-0.012114942 -0.061070617 -0.0087112552 4287444029
-0.010112993 -0.060949709 -0.0090749105 4287903028
-0.0081109479 -0.060828682 -0.0094384803 4288230958
-0.0062346123 -0.059934925 -0.010459597 4287706933
-0.0044920631 -0.058268841 -0.012136808 4287968819
-0.0026289672 -0.057375651 -0.013155336 4287772468
-0.00077113509 -0.056482624 -0.014172787 4287707189
0.0010813922 -0.055589732 -0.015189221 4287772979
0.0029286407 -0.054697078 -0.016204549 4287838768
0.005054459 -0.055347931 -0.015909461 4287641909
0.0073303357 -0.056769829 -0.014961021 4287576119
0.0093223937 -0.056648266 -0.015321901 4286332484
-0.010593634 -0.060234185 -0.012270573 4287835963
-0.0084767938 -0.0608886 -0.011976215 4287575098
-0.0064801574 -0.060767796 -0.012338723 4287706424
-0.0044834241 -0.060646858 -0.012701157 4287837494
-0.002486594 -0.060525786 -0.013063501 4287903284
-0.00075711682 -0.058855992 -0.014734763 4287707189
0.00082528964 -0.056412589 -0.017058065 4287772979
0.0028089471 -0.056291904 -0.017417705 4287577139
0.0052180029 -0.058492538 -0.015818099 4287772979
0.0077876821 -0.061465722 -0.013568773 4287446069
0.010084603 -0.06289044 -0.012627418 4287184439
-0.0065998435 -0.062373023 -0.013559974 4287050819
-0.0046032593 -0.062252071 -0.013922366 4286985793
-0.0026065856 -0.062131014 -0.014284681 4287510074
-0.00087694451 -0.060456943 -0.015952645 4287575608
0.00084203109 -0.058783349 -0.017618621 4287707189
0.0026892833 -0.057886433 -0.018630629 4287838258
0.0052393042 -0.060869511 -0.016384521 4287838259
0.0078108609 -0.063851118 -0.014142192 4287379769
0.010256968 -0.066055685 -0.012554117 4287052603
-0.0029879734 -0.062178444 -0.016809076 4287378749
-0.0012635477 -0.06050035 -0.0184728 4287248444
0.00058630854 -0.059601273 -0.019483717 4287706933
0.0027084164 -0.060258921 -0.019193081 4287903283
0.0051188581 -0.062472355 -0.017603755 4288099633
0.0075454712 -0.064684719 -0.016017266 4287445049
0.0096946023 -0.06534031 -0.015731204 4286790973
0.00046686456 -0.061195176 -0.020696219 4287445303
0.0025886446 -0.061854985 -0.020407181 4288100399
0.0048571564 -0.063294649 -0.019470878 4287576118
0.0069924854 -0.06395337 -0.019184098 4286659648
0.012415115 0.024201645 0.015962727 4283465263
0.014666498 0.022951465 0.017050263 4283469344
0.017576382 0.018965341 0.021008588 4283664164
0.0078275502 0.025152324 0.012601556 4282872643
0.0094421357 0.026643636 0.010817662 4283662124
0.010889646 0.028820997 0.0083183274 4283663144
0.012798242 0.028937954 0.007972952 4283793193
0.015192159 0.026996002 0.0097771622 4283792938
0.018588964 0.020938028 0.01587471 4283860004
0.0054922663 0.024861766 0.010334678 4282217548
0.0071070269 0.026357289 0.0085540917 4283661103
0.0088645965 0.027163232 0.0074918196 4283860769
0.010304425 0.029346643 0.0049988721 4283731483
0.01236375 0.028774412 0.0053703059 4283795488
0.014266912 0.028891111 0.0050259754 4283795233
0.016991533 0.025566148 0.0082535837 4283861278
0.019576123 0.022931091 0.010762498 4283927324
0.023200281 0.016169347 0.017547995 4283990819
0.0046356507 0.026772173 0.0055796988 4283529523
0.0063878484 0.027579859 0.0045200121 4283924519
0.008288078 0.027696135 0.0041760225 4283925283
0.0097202174 0.029885538 0.0016894937 4283927834
0.011612467 0.030001478 0.001347065 4283862554
0.013504766 0.030117502 0.0010046922 4283927579
0.01605358 0.027471518 0.003513284 4283992348
0.018623952 0.024826929 0.0060180333 4284056354
0.021385381 0.021493562 0.0092306901 4284056099
0.023484953 0.020922042 0.0095934775 4284056354
0.025065247 0.022420481 0.007823037 4284056609
0.026812352 0.02322866 0.0067648999 4284058394
0.02927514 0.021278504 0.0085469801 4283795488
0.0018914901 0.028589113 0.0011835564 4283595823
0.0037807152 0.02870453 0.00084141269 4283859494
0.005820509 0.028126525 0.0012128223 4283859493
0.0080189481 0.02685556 0.0022963695 4283859493
0.0096046738 0.02835813 0.00052782893 4283925538
0.011655405 0.027780997 0.00089749135 4283925539
0.013389021 0.028590066 -0.00015694834 4283990819
0.015937075 0.025935372 0.0023450423 4284056354
0.018006742 0.025359688 0.0027114265 4284056353
0.02008182 0.024784371 0.0030769352 4284056098
0.022162281 0.024209509 0.0034414921 4284056608
0.023723956 0.025711173 0.0016777422 4283926303
0.025097458 0.027904069 -0.00079258718 4283859238
0.026995108 0.028020976 -0.0011354964 4283791918
0.030172322 0.02329725 0.0034753177 4283792939
0.034500137 0.014427681 0.012322508 4283860259
2.9750168e-05 0.026252696 0.0010791775 4282609994
0.0014866404 0.028456198 -0.0014019664 4283405083
0.0032227449 0.029267121 -0.0024554599 4283599393
0.0052542016 0.028686428 -0.0020842329 4283731483
0.0075971484 0.02671513 -0.00029120035 4283931149
0.0096448772 0.026135556 7.7249482e-05 4283925539
0.011539627 0.026251625 -0.00026564859 4283991073
0.01359551 0.025672767 0.0001014173 4284056353
0.015656807 0.025094317 0.00046756305 4284056098
0.017557032 0.025210978 0.00012387149 4284056098
0.019288102 0.026022244 -0.00092820078 4284056098
0.021185664 0.026138905 -0.0012712833 4284056354
0.02290868 0.026949845 -0.0023217648 4283995663
0.024449047 0.028454607 -0.0040782327 4283860258
0.026338523 0.028571019 -0.0044196602 4283793194
0.028958509 0.025912674 -0.0019369517 4283858983
0.031970646 0.02186868 0.001952976 4283990819
0.035579093 0.015746612 0.0079522878 4283991583
-0.0022555813 0.026007496 -0.0011637677 4283594548
-0.00051150471 0.026820881 -0.0022171643 4283859748
0.00093769282 0.029030433 -0.0046919193 4283727913
0.0026657805 0.029843014 -0.0057422891 4283726893
0.0046889 0.029259643 -0.0053712428 4283793958
0.0070231892 0.027281269 -0.0035816561 4283860258
0.0093736686 0.025303999 -0.0017949883 4283925284
0.011423871 0.024722496 -0.0014286041 4284056099
0.013479486 0.024141453 -0.0010631774 4284056354
0.015213266 0.024954876 -0.0021141898 4284056098
0.016775366 0.026464971 -0.0038714791 4284056098
0.018495731 0.027277734 -0.0049199387 4284056098
0.020382423 0.027393727 -0.0052610552 4284056609
0.02209473 0.028206171 -0.0063079195 4283926558
0.023801649 0.029018363 -0.007353751 4283928598
0.02568295 0.029134281 -0.0076936958 4283927833
0.027929159 0.027858531 -0.0066248635 4283993114
0.030556427 0.025192088 -0.0041501233 4284058138
0.03339304 0.021831512 -0.00097582117 4284056099
0.036065988 0.019168045 0.0014907941 4284056353
0.038567174 0.017201245 0.003251154 4284056608
0.040300772 0.018015683 0.0022009648 4284056354
0.042028919 0.018829864 0.0011518281 4283861278
0.045563359 0.013391357 0.0064124167 4283794978
-0.0027878098 0.026587343 -0.0044531776 4283924008
-0.0011936799 0.028102903 -0.0062134601 4283993369
0.00038976595 0.029617945 -0.0079717822 4283925538
0.0021098368 0.030432176 -0.0090190331 4283859239
0.0042746328 0.029146049 -0.0079395846 4283858984
0.0064502358 0.027860716 -0.0068620676 4283926814
0.0089474395 0.025176695 -0.0043712603 4283927069
0.011308149 0.023193613 -0.0025913781 4284056609
0.013363488 0.022610378 -0.0022275932 4284056099
0.014443476 0.02622281 -0.0061014136 4284056099
0.015828881 0.028435601 -0.0085590677 4284056354
0.017704692 0.028550843 -0.0088982815 4283990564
0.019923596 0.027268715 -0.0078280913 4284056098
0.021979028 0.02668592 -0.0074639842 4283991073
0.02368601 0.027500279 -0.0085081449 4283925028
0.025746811 0.026917981 -0.0081448779 4283990819
0.027995275 0.025638053 -0.0070798127 4283990564
0.030439477 0.023660965 -0.0053143566 4284056099
0.032712102 0.022382703 -0.0042535225 4284055843
0.034805078 0.021802727 -0.0038958034 4284056099
0.036517262 0.022617936 -0.0049404921 4284056863
0.037636738 0.025524557 -0.0080850041 4283926049
0.039131522 0.027035795 -0.0098259374 4283729189
0.041621167 0.025062028 -0.008068284 4283401258
0.046165146 0.016122188 0.00067474693 4283599393
-0.0062561743 0.022733554 -0.0027957484 4282020179
-0.0046431832 0.024254398 -0.0045562349 4283659573
-0.0030408576 0.025774712 -0.0063147703 4284186403
-0.0015909746 0.027997166 -0.0087796496 4284056099
-0.0003015995 0.0309212 -0.011949383 4284059159
0.001554925 0.031034566 -0.012285644 4284058648
0.003711205 0.029743629 -0.011208069 4283993624
0.0058782995 0.028453443 -0.010132382 4283992603
0.0083666705 0.025760222 -0.0076467106 4283990564
0.010718696 0.023770113 -0.0058703078 4284056099
0.012444485 0.024587275 -0.0069165854 4284056609
0.013675027 0.027508356 -0.010075246 4283991584
0.015050057 0.029726995 -0.012525977 4283927578
0.017083675 0.029140521 -0.012159744 4283994898
0.019636806 0.026451794 -0.0096853832 4283796763
0.021863343 0.025165901 -0.008619871 4283991838
0.023747133 0.025281891 -0.0089603253 4284056099
0.025630912 0.025397956 -0.0093007181 4284056098
0.02751467 0.025514124 -0.0096410289 4284121889
0.029952876 0.023530219 -0.0078795776 4284122144
0.031844649 0.023647044 -0.0082212081 4284121889
0.033736385 0.023763958 -0.0085627604 4284056353
0.035242282 0.025280057 -0.010302452 4283926813
0.036346167 0.028194375 -0.013437415 4283796509
0.037825041 0.029708965 -0.015172102 4283662124
0.040096954 0.028426779 -0.014114155 4283661869
0.043601528 0.022951972 -0.0088749817 4283727658
0.047561772 0.016082477 -0.0022501331 4283794469
-0.0055691525 0.016979698 0.00029575452 4282347599
-0.0042122602 0.019916255 -0.0028797528 4283661614
-0.0028767772 0.022851553 -0.0060512647 4284187168
-0.0017043501 0.026490584 -0.0099256104 4284121889
-0.0002701357 0.028718583 -0.012382515 4284056099
0.0014419854 0.029536625 -0.013424983 4284055844
0.0035978295 0.028241331 -0.012350697 4283924773
0.00561212 0.027650988 -0.011983056 4283990564
0.0079419725 0.025652939 -0.010207758 4283990563
0.010130264 0.024359891 -0.0091391439 4284056353
0.012008473 0.024475003 -0.0094790058 4283991838
0.013071053 0.028107971 -0.013332874 4283925538
0.014604222 0.029629193 -0.015074816 4283925029
0.016632188 0.029040216 -0.014709239 4283858728
0.019179167 0.026342468 -0.012240489 4283927834
0.021747671 0.023646135 -0.0097755641 4283991073
0.023631353 0.023762118 -0.010115999 4284056099
0.025694299 0.023175631 -0.0097564785 4284056098
0.027580643 0.023291964 -0.010097253 4284121888
0.029466962 0.023408372 -0.010437959 4284122144
0.031165894 0.024226926 -0.011477015 4284056098
0.032669362 0.025747152 -0.013213018 4284121889
0.034162026 0.027266769 -0.014946949 4283991584
0.035253018 0.030188942 -0.018072853 4283862043
0.03691677 0.031005662 -0.019105291 4283796764
0.039378289 0.02901726 -0.01735267 4283862554
0.042466372 0.024926698 -0.013516246 4283928343
0.045792822 0.020137373 -0.0089905774 4283926559
0.048530232 0.017452631 -0.0065552499 4283990819
0.0510775 0.015469853 -0.004817782 4284056099
0.053426534 0.014188591 -0.0037767477 4284056099
0.054918453 0.015708935 -0.00550994 4283990053
0.057936922 0.012328308 -0.0023928061 4283925539
-0.0035104565 0.014146198 0.00019584969 4283661103
-0.0020195507 0.016383987 -0.0022664815 4284055333
-0.00096901506 0.020741981 -0.0068409909 4284055589
0.00033757091 0.023684364 -0.010000461 4283991074
0.0020632036 0.024505379 -0.011043708 4283989799
0.0039330311 0.024619615 -0.011382335 4283990053
0.0056507066 0.025440358 -0.01242405 4284056098
0.0073630624 0.026260832 -0.013464682 4284121888
0.0089125037 0.027787101 -0.015206415 4284122398
0.010932043 0.027195185 -0.014841201 4284056863
0.012468096 0.028720809 -0.016580377 4283993878
0.014159065 0.029540369 -0.017616905 4283860003
0.015844673 0.030359646 -0.018652353 4283858728
0.018380119 0.02765255 -0.01618824 4283990819
0.020937093 0.024946857 -0.013727956 4284057628
0.023339167 0.022947468 -0.011970214 4284056099
0.025220038 0.02306338 -0.012310061 4284055843
0.026919076 0.023883961 -0.013347642 4284056098
0.028243734 0.02611305 -0.015778653 4284056354
0.029739389 0.027637033 -0.017509947 4284056099
0.031414125 0.028456353 -0.018542875 4283924773
0.033083435 0.029275425 -0.019574756 4283924774
0.03474731 0.030094232 -0.0206056 4283925028
0.036603685 0.030209256 -0.020940538 4283925284
0.039061904 0.028214181 -0.019192353 4283991329
0.04194285 0.024813699 -0.016059224 4283991074
0.044850618 0.021414973 -0.012930862 4283991074
0.047159079 0.020126682 -0.011885947 4283990818
0.049055398 0.02024461 -0.012227759 4284056353
0.050309353 0.022470322 -0.014645305 4284056608
0.05133028 0.025397507 -0.017751291 4283860258
0.053426921 0.024812246 -0.017398447 4283861278
0.057528205 0.01790889 -0.010832185 4283794723
-0.0029464737 0.0090599395 0.0025474187 4283793193
-0.0013031475 0.010595661 0.00079149567 4284055078
4.6942383e-05 0.013549235 -0.0023692232 4283989544
0.0013756081 0.016501538 -0.0055259485 4283858473
0.0028294809 0.018743817 -0.0079763187 4283924774
0.004565984 0.019567717 -0.0090198033 4283991073
0.0059930868 0.021808539 -0.011465188 4283990053
0.0075588375 0.023340035 -0.013206585 4284121889
0.0087990202 0.026287431 -0.016346978 4284121888
0.010658175 0.026401365 -0.016683398 4284055844
0.011866141 0.029346975 -0.019817816 4283993114
0.013383612 0.030875875 -0.021550195 4283993369
0.015058503 0.0316967 -0.022582065 4284058393
0.017411537 0.029687637 -0.020820636 4284124438
0.02012785 0.026265208 -0.017666942 4284056864
0.022518555 0.02425864 -0.015912183 4284055844
0.024567494 0.023666993 -0.015553478 4284056354
0.026076879 0.02519598 -0.017284019 4284056609
0.027391162 0.027430907 -0.019708116 4284056864
0.028689258 0.029664973 -0.02212926 4283993369
0.030730011 0.029073175 -0.021768801 4283862299
0.032776114 0.028481752 -0.021409193 4283928598
0.034632444 0.028596697 -0.021744182 4283991074
0.036884271 0.027300255 -0.020692734 4284056609
0.039146788 0.026004577 -0.019643134 4284056098
0.041826323 0.023298819 -0.017210923 4284056098
0.044321451 0.021299705 -0.015474237 4284121889
0.046415538 0.020711847 -0.015122905 4284121889
0.047881227 0.02223907 -0.016844751 4283990308
0.048908211 0.02517521 -0.019945158 4283994898
0.04969696 0.028814642 -0.023731396 4283860003
0.051993787 0.027521709 -0.022687504 4283858474
0.055189215 0.023412552 -0.018890087 4283858728
0.059540145 0.015785221 -0.01165669 4283858983
-0.0027912967 0.006087359 0.0027744398 4283135293
-0.0010039471 0.0069161542 0.0017231349 4283990053
0.00049586967 0.0091674998 -0.00073068216 4283924773
0.0019796342 0.011417914 -0.0031814827 4283858218
0.0034473278 0.01366749 -0.0056293346 4283924263
0.0050481521 0.015205257 -0.007373875 4283924264
0.0064863861 0.01745322 -0.009816248 4283924773
0.007908538 0.019700278 -0.012255644 4284056609
0.0088428296 0.024077618 -0.016788529 4284055589
0.01038466 0.025612148 -0.018522102 4284056353
0.01142785 0.029276306 -0.022347275 4284056098
0.012940135 0.030809253 -0.0240754 4284056609
0.014609717 0.031631853 -0.025104597 4284056099
0.016956761 0.029615942 -0.023347126 4283990308
0.019666752 0.026182333 -0.020200683 4284056099
0.022051459 0.024168966 -0.018449917 4284056099
0.023915958 0.024283873 -0.018786807 4284056354
0.025054546 0.027234489 -0.021901466 4283991329
0.026724085 0.02805764 -0.022930223 4283926049
0.028201357 0.029589107 -0.024651419 4283860258
0.030425992 0.028286422 -0.023598609 4283928089
0.032469116 0.027692709 -0.023240181 4283995664
0.034907419 0.025683245 -0.021498557 4284056354
0.037164181 0.024382817 -0.020451337 4284056353
0.039631952 0.022375371 -0.018714882 4284121634
0.041912794 0.021076571 -0.017671822 4284187424
0.043381572 0.022608187 -0.019391034 4284121633
0.045047883 0.02343196 -0.020418573 4284121888
0.046286587 0.025669655 -0.022823313 4284121888
0.047722816 0.027199483 -0.024536399 4284057883
0.04871529 0.030142214 -0.027623789 4283993369
0.05078179 0.029550845 -0.027268883 4283927323
0.053519014 0.026840677 -0.024853289 4283927069
0.05762466 0.019894551 -0.018321287 4284058649
0.062238347 0.011539709 -0.010426428 4284058394
-0.0030434467 0.0052479729 0.00089183077 4283135548
-0.0012587421 0.0060787536 -0.00015732646 4283989798
0.00037970766 0.0076228715 -0.0019055996 4283989799
0.0021511279 0.008453019 -0.0029522134 4283989289
0.0037709177 0.0099961646 -0.0046969075 4283858728
0.0052309893 0.012251839 -0.0071382737 4283858473
0.0068267025 0.013793692 -0.0088784676 4283924519
0.0082572997 0.016047746 -0.011314351 4283990053
0.0096717998 0.018300913 -0.013747253 4283990308
0.010910414 0.021265563 -0.016873863 4283924263
0.011965074 0.024941236 -0.020692704 4283924263
0.01332318 0.027191183 -0.023115139 4284121379
0.015000883 0.028016442 -0.024144124 4284121889
0.017184835 0.026706282 -0.023087827 4284121888
0.019206323 0.02610844 -0.022727665 4284122144
0.021233188 0.025511023 -0.022368401 4284056099
0.022908196 0.026336495 -0.023396607 4284056099
0.024396503 0.027872782 -0.025116574 4284059923
0.02605802 0.028697606 -0.026142199 4283925794
0.027900811 0.02881146 -0.026474942 4283858474
0.030122312 0.027504256 -0.025424927 4283858729
0.032546606 0.025487369 -0.023685876 4283858983
0.035181731 0.022761393 -0.021259317 4284057119
0.037640885 0.020746857 -0.019526403 4284056608
0.03971583 0.020153243 -0.019175174 4284121379
0.041390434 0.020979524 -0.020202659 4284187424
0.042443022 0.023934294 -0.023294427 4284187679
0.043890428 0.025468972 -0.025006291 4284122143
0.045326971 0.027003121 -0.026716165 4284055844
0.047179833 0.027118508 -0.027050018 4283990053
0.048383776 0.029360659 -0.02944327 4283925793
0.050447315 0.028766977 -0.029089486 4283926558
0.053181067 0.026047986 -0.026679963 4283926303
0.057506576 0.01837163 -0.019478885 4283990818
0.063026249 0.0071578436 -0.0088654915 4283990563
-0.041532252 -0.016723637 0.024784874 4283267383
-0.039709035 -0.015166108 0.023004856 4284181304
-0.0046843886 0.0014315806 0.0021605548 4281692248
-0.0028889962 0.002265092 0.0011110045 4283464244
-0.0013750754 0.0045300759 -0.0013353527 4284055334
0.00026358292 0.0060785264 -0.0030803094 4283989288
0.0020350516 0.006910827 -0.0041252589 4283989544
0.0036550462 0.0084582753 -0.0058666477 4283989288
0.0052643456 0.01000521 -0.0076060733 4283989544
0.006862957 0.011551563 -0.0093434304 4283989544
0.0086051002 0.012382455 -0.010382766 4283989799
0.010184973 0.013927873 -0.012116639 4283989543
0.011754133 0.01547271 -0.013848443 4283989288
0.013150249 0.017731417 -0.016272832 4283924774
0.014200259 0.021417674 -0.020082375 4284122399
0.015726455 0.022960145 -0.021806192 4283990308
0.017412268 0.023788203 -0.022834934 4284055588
0.019265788 0.023902256 -0.023169979 4284121633
0.020767784 0.025443517 -0.024889203 4284122144
0.022437464 0.026270824 -0.025914762 4284055843
0.023739455 0.028524408 -0.028321614 4284057374
0.025392953 0.029350905 -0.029344104 4284059414
0.02704104 0.030177156 -0.030365549 4283993114
0.029440543 0.028152214 -0.028627172 4283993369
0.031856149 0.026128339 -0.026891571 4284124948
0.034482442 0.023393121 -0.024470098 4284056863
0.036932897 0.021371633 -0.022740683 4284056098
0.038999502 0.020775322 -0.022389565 4284056353
0.040463421 0.02231523 -0.024101222 4284056099
0.04150581 0.025278013 -0.027184419 4283991839
0.043150716 0.026104817 -0.028204709 4283797018
0.044790149 0.026931362 -0.029223949 4283796253
0.047064357 0.025623962 -0.028186135 4283858983
0.048916999 0.025739443 -0.028519869 4283990564
0.050769534 0.025855014 -0.028853502 4284056098
0.053729367 0.022416972 -0.025767626 4284056098
0.058285158 0.014006678 -0.017902663 4284056098
-0.041334849 -0.021214027 0.026396401 4281959234
-0.039582197 -0.018930126 0.023910169 4282025023
-0.037677038 -0.018089633 0.022840954 4283921968
-0.001215484 0.0015455969 -0.0011185985 4284183853
0.00056938827 0.0023807622 -0.0021643788 4284184619
0.0023489706 0.0032157004 -0.0032091318 4284120359
0.0039772317 0.0047680102 -0.0049487073 4284054824
0.0054461136 0.0070370995 -0.007381578 4284055079
0.0070503019 0.008588139 -0.0091166412 4283989544
0.0087978654 0.0094215088 -0.010155289 4283989544
0.010696862 0.0095377676 -0.010499014 4283989289
0.012595899 0.0096541233 -0.01084267 4283989034
0.014008526 0.011920307 -0.013265013 4284054824
0.015240218 0.014901955 -0.016376745 4283989288
0.01661792 0.017166186 -0.018792624 4283923498
0.017979501 0.019429527 -0.021205509 4283924264
0.019324947 0.021691937 -0.023615353 4283924518
0.02082984 0.02323775 -0.02533178 4283989798
0.021967394 0.026214134 -0.028426161 4284055588
0.023264397 0.028473841 -0.030827034 4284122399
0.024728889 0.030017458 -0.032535933 4284057373
0.026555309 0.030130303 -0.032865718 4284058139
0.02894883 0.028098494 -0.031131238 4284057883
0.031358443 0.026067777 -0.029399585 4284057119
0.033978559 0.023323607 -0.026983745 4284056099
0.036423035 0.021295231 -0.025258241 4284055843
0.038284168 0.021410707 -0.025593916 4284056353
0.039335251 0.024382601 -0.028672021 4283991839
0.040159568 0.028067144 -0.032431301 4283928853
0.041996263 0.028181383 -0.032762352 4283796253
0.044464551 0.026154948 -0.031040784 4283795999
0.047162123 0.023416217 -0.028638341 4283863574
0.049233284 0.022818651 -0.028289318 4283990564
0.051746953 0.020795379 -0.026575746 4284121888
0.055161916 0.015921503 -0.022135999 4284121378
0.060854413 0.003922686 -0.010885398 4284121634
-0.041217308 -0.024997707 0.027288541 4282023238
-0.039537597 -0.021983217 0.024099845 4281632068
-0.03771105 -0.02041686 0.022325937 4281500998
-0.035981741 -0.018127728 0.019849043 4281762629
-0.034178931 -0.016562622 0.01807959 4282679864
-0.032110389 -0.017166983 0.018423926 4283396924
-0.030036252 -0.017770898 0.018767331 4283725874
0.0010147169 -0.0020497777 -0.00056298263 4284314158
0.0025187768 0.00022776052 -0.0029973984 4284119339
0.0041526332 0.0017846636 -0.0047346065 4284120359
0.0057757907 0.0033410713 -0.0064698309 4284186659
0.0073882565 0.004896868 -0.0082030063 4284055333
0.0089900121 0.0064521618 -0.0099342028 4283989288
0.010737661 0.0072877966 -0.010971112 4283858473
0.012639266 0.0074043013 -0.011315238 4283923499
0.01437892 0.0082396418 -0.01235055 4283923499
0.015783872 0.010511924 -0.014766394 4284054569
0.01717272 0.012783274 -0.017179208 4283989289
0.018715475 0.014335543 -0.018899269 4283989288
0.020247491 0.015887212 -0.020617262 4283858984
0.021593302 0.018156257 -0.023022108 4283858983
0.022744847 0.021142133 -0.026112303 4283925284
0.023694051 0.024844365 -0.029886378 4284057373
0.025166837 0.026392773 -0.031593367 4284056098
0.026628826 0.027940648 -0.033298381 4284056099
0.02902442 0.025902491 -0.031569313 4284056098
0.031052966 0.02529929 -0.03121493 4284122143
0.03328111 0.023979723 -0.030175976 4284121889
0.035322994 0.023377545 -0.029823851 4284056098
0.037370201 0.022775784 -0.029472612 4284056353
0.038411077 0.025755692 -0.032542154 4283992603
0.039430372 0.028734352 -0.035607725 4283858983
0.041258883 0.028848106 -0.035937283 4283857964
0.043718487 0.026814673 -0.034219172 4283859748
0.04704646 0.021920014 -0.029775709 4283925028
0.049764641 0.019174095 -0.027383644 4283990563
0.052941151 0.014999039 -0.02363316 4284056098
0.057476677 0.0065356828 -0.015804911 4284121634
-0.041257661 -0.027342182 0.026761483 4281892679
-0.039655928 -0.023593139 0.022874635 4281631558
-0.037829172 -0.022022512 0.021104004 4281305414
-0.036099505 -0.019726913 0.018632058 4281370693
-0.034207251 -0.018882822 0.017568666 4281762629
-0.03222822 -0.01876409 0.017208572 4281893698
-0.030248988 -0.018645253 0.016848512 4282285378
-0.028269563 -0.018526297 0.016488496 4283592254
0.0062528849 -0.0010894574 -0.0048756897 4284380203
0.0077252612 0.0011928827 -0.0072990507 4284119593
0.009181533 0.0034743659 -0.0097194724 4283923499
0.010621723 0.0057549812 -0.012136891 4283792683
0.012045823 0.0080346614 -0.014551286 4284054569
0.013777442 0.0088717118 -0.015583502 4283988524
0.015503719 0.0097084902 -0.016614635 4283988524
0.017391827 0.0098244585 -0.016956095 4283988778
0.019110061 0.01066095 -0.01798561 4283923754
0.02082292 0.011497196 -0.019014088 4283924264
0.022179864 0.013773404 -0.021415908 4283792938
0.023342708 0.016768616 -0.024501424 4283727913
0.024664672 0.019042823 -0.026896723 4283793449
0.025787132 0.022035751 -0.029974788 4283858473
0.027446119 0.022869177 -0.030993145 4283989289
0.029288404 0.022983123 -0.031325702 4284120869
0.031130647 0.023097161 -0.031658176 4284187168
0.032972839 0.023211289 -0.031990569 4284252959
0.034618184 0.024044305 -0.033006199 4284187679
0.036258098 0.024877036 -0.034020733 4284056098
0.03728608 0.027864788 -0.037081223 4283929108
0.038292482 0.030851299 -0.040137745 4283926813
0.04031498 0.030246099 -0.039783459 4283858983
0.042763203 0.028205566 -0.038068347 4283859494
0.046292044 0.022577342 -0.032954048 4283926048
0.049863793 0.016951878 -0.02784742 4283991583
0.054351602 0.0084595941 -0.020030765 4284056863
0.066651762 -0.018551793 0.0050664525 4284055589
-0.041298252 -0.029690716 0.02623133 4281499213
-0.039612126 -0.026658718 0.023054861 4281240134
-0.037779797 -0.025083441 0.021286491 4281435719
-0.036044408 -0.02278107 0.018818501 4281435973
-0.03414673 -0.021934535 0.017755773 4281436229
-0.032254223 -0.021088224 0.016694054 4281239623
-0.030366879 -0.020242121 0.015633352 4281305158
-0.028484713 -0.019396242 0.01457366 4281435973
-0.026607726 -0.018550534 0.01351494 4281959489
-0.024633404 -0.018431727 0.013155978 4282417214
-0.022658926 -0.018312823 0.012797058 4283070778
0.0093724318 0.00048823282 -0.0095111569 4284052783
0.010818366 0.0027756244 -0.011924545 4283988268
0.012089249 0.0057854094 -0.01502343 4284054568
0.013823602 0.0066247247 -0.016054431 4284053804
0.01538825 0.008186765 -0.0177719 4283988524
0.017443262 0.0075799972 -0.01742634 4283988778
0.019164225 0.0084187947 -0.018454688 4283923498
0.021052221 0.0085349753 -0.018795958 4283989289
0.022414928 0.010817967 -0.021193737 4283924009
0.023939261 0.012378033 -0.022903521 4283859239
0.025272343 0.014659457 -0.025295828 4283858984
0.026955614 0.015496444 -0.026316967 4283859493
0.028261757 0.017776351 -0.028704217 4283924519
0.029928815 0.018612575 -0.029722314 4284055333
0.03139922 0.020169772 -0.031421922 4284121633
0.03305275 0.021005321 -0.03243738 4284187678
0.034110993 0.024003405 -0.035496749 4284187169
0.035546266 0.025558759 -0.037189841 4284121888
0.036566742 0.028554641 -0.04024221 4284056353
0.037974987 0.030108515 -0.041930273 4283994134
0.039787136 0.030221274 -0.042256862 4283927834
0.042439427 0.027453793 -0.039866433 4283993114
0.045964126 0.021808077 -0.034764796 4283926558
0.050608899 0.012566388 -0.02627952 4283991583
0.05641406 -0.00026869401 -0.014417888 4283990563
0.063199125 -0.015975323 0.00013564527 4284056099
0.068761334 -0.027359035 0.010607138 4283990308
-0.041260894 -0.032773618 0.026399549 4281434443
-0.039568882 -0.029732641 0.023228642 4281371459
-0.037814554 -0.027422812 0.020762127 4281370693
-0.035989869 -0.025843661 0.018998601 4281436229
-0.034264635 -0.023535367 0.016537536 4281305414
-0.032280471 -0.023416411 0.01617644 4281435719
-0.030390408 -0.022568028 0.015116889 4281370438
-0.028505515 -0.021719862 0.014058359 4281435973
-0.026725467 -0.020142879 0.01230327 4281501763
-0.024853628 -0.019295301 0.011247259 4281828674
-0.022881959 -0.019176606 0.010888821 4281827654
-0.021017823 -0.018329281 0.0098343734 4283003713
-0.018938098 -0.018938866 0.010172086 4284050488
0.012608759 0.0013558418 -0.013438235 4284378419
0.014030926 0.0036484785 -0.015842184 4284248624
0.015601169 0.0052151345 -0.017557263 4284053294
0.017327525 0.0060563609 -0.018585028 4283922734
0.01921808 0.0061725937 -0.018926838 4284053804
0.020936398 0.0070134997 -0.019952942 4283988779
0.022474401 0.0085785761 -0.021661876 4283989289
0.024179261 0.0094188601 -0.022685386 4283924264
0.025518093 0.011707108 -0.0250737 4283858984
0.027389782 0.011822689 -0.025411706 4283924264
0.029075745 0.012662102 -0.026431572 4283924264
0.030567914 0.014224917 -0.028131861 4283989034
0.032049291 0.01578711 -0.029830094 4283989289
0.033519842 0.017348785 -0.031526335 4283858729
0.034586713 0.020355996 -0.034580499 4283857963
0.035831131 0.0226391 -0.036951229 4283924008
0.036655702 0.026366789 -0.040677004 4283990308
0.038066845 0.027925165 -0.042362228 4284055844
0.039881565 0.028038107 -0.042689264 4284056354
0.04253576 0.025262132 -0.040305868 4284056609
0.046699427 0.017432991 -0.033186559 4284056863
0.052213717 0.0052761994 -0.022018174 4284056609
0.058909066 -0.010483574 -0.0074854624 4284056098
0.06506063 -0.024071123 0.0049990993 4284056098
0.069304228 -0.031159472 0.011388935 4284055844
-0.039122645 -0.036476407 0.026892561 4281759569
-0.037599351 -0.031962615 0.022331145 4281174343
-0.035935905 -0.028914604 0.019172247 4281436228
-0.034204941 -0.026599582 0.016715184 4281435973
-0.032306988 -0.025748651 0.015655737 4281435463
-0.03041419 -0.024897989 0.014597338 4281370184
-0.028526578 -0.024047535 0.013539951 4281370183
-0.026843149 -0.021734949 0.011091797 4281239368
-0.02497128 -0.020885233 0.010037441 4281435974
-0.022999737 -0.020766567 0.0096790008 4281240133
-0.021135572 -0.019917127 0.0086261928 4281371714
-0.019276623 -0.01906791 0.007574413 4281895483
0.016633503 -0.0014010668 -0.013928128 4284183344
0.018045325 0.00089762732 -0.016325001 4283988014
0.019610418 0.0024684705 -0.018035639 4284053804
0.021164756 0.0040387623 -0.019744251 4284119593
0.02270833 0.0056085587 -0.021450866 4284054569
0.024241148 0.0071777403 -0.023155423 4283989288
0.025763184 0.0087464042 -0.024857996 4283924009
0.027640123 0.0088623129 -0.025196945 4283923754
0.029331509 0.0097042359 -0.026216099 4283989544
0.03101748 0.010545935 -0.027234189 4283989288
0.032507118 0.012113016 -0.028930586 4283989289
0.03417955 0.012954064 -0.029946085 4283857964
0.035453994 0.015245378 -0.032317214 4283858219
0.036712233 0.017535821 -0.034685396 4283858473
0.03755096 0.021275178 -0.038405333 4283925538
0.038771421 0.023563478 -0.040766545 4283924773
0.04018271 0.025126245 -0.042448305 4284056099
0.043470655 0.020168729 -0.038044654 4284056098
0.048070613 0.010868121 -0.029594965 4284056098
0.05467625 -0.0049447678 -0.015083058 4284055843
0.061182238 -0.020026226 -0.0012668576 4284055843
0.06581673 -0.028586876 0.0064631589 4284055589
0.069176614 -0.032801893 0.010140564 4283857708
-0.036885943 -0.040925238 0.028070178 4281824083
-0.035538796 -0.034930479 0.022126302 4281565513
-0.033968601 -0.031140085 0.018278833 4281631559
-0.032242451 -0.028818782 0.015827682 4281500743
-0.030344259 -0.027965676 0.014769945 4281500489
-0.028451238 -0.027112734 0.013713192 4281369673
-0.026662733 -0.025526721 0.011963271 4281174344
-0.024986845 -0.023208033 0.0095215775 4281304903
-0.023117449 -0.022356261 0.0084693879 4281370438
-0.021253247 -0.021504682 0.0074182376 4281240644
-0.019284178 -0.021386001 0.0070603751 4281894208
0.021564383 0.00032681599 -0.018860886 4284380204
0.023116231 0.0019013695 -0.020565607 4284119849
0.024834609 0.002746813 -0.021588195 4283989289
0.026367601 0.0043204725 -0.023289386 4283858728
0.027889829 0.0058935322 -0.024988504 4283989544
0.029586626 0.0067379475 -0.026006956 4283989544
0.031278007 0.0075821765 -0.027024392 4283989034
0.032963969 0.0084261484 -0.028040715 4283858219
0.034451086 0.0099974461 -0.029733177 4283857709
0.035927381 0.011568218 -0.031423647 4283858219
0.037194073 0.013865624 -0.033788264 4283857964
0.038444553 0.016162179 -0.036149919 4283923499
0.039474651 0.019184727 -0.039183825 4283858218
0.041517504 0.018572286 -0.038839899 4283858218
0.045032535 0.012874171 -0.033776812 4283924263
0.05028842 0.001367528 -0.023330983 4283989798
0.057134733 -0.01521739 -0.0081872782 4283989288
0.062363625 -0.025985908 0.001551602 4283923244
0.066130862 -0.031667817 0.0065695569 4283657789
-0.033025902 -0.041586701 0.025385823 4282870349
-0.031813968 -0.034841169 0.018769417 4282283083
-0.030181076 -0.031777497 0.015629686 4281565258
-0.028376471 -0.030186336 0.013880085 4281303884
-0.026582409 -0.028595667 0.012132443 4281238348
-0.024798919 -0.027005579 0.01038684 4281306179
-0.023025986 -0.025416043 0.0086432286 4281437758
-0.021156404 -0.024561953 0.0075927116 4281697603
-0.019292008 -0.023708146 0.0065432526 4281959233
0.023174273 -0.00035667047 -0.021047935 4284577573
0.024895372 0.00049110129 -0.022069331 4284185893
0.026431251 0.0020692572 -0.02376768 4283924774
0.027956368 0.0036467984 -0.025463976 4283989799
0.029655891 0.0044935532 -0.026481226 4284054569
0.031350002 0.005340077 -0.027497426 4284054569
0.033038683 0.0061864071 -0.028512608 4283857964
0.034528695 0.0077622123 -0.030202225 4283858219
0.036007881 0.0093374997 -0.031889848 4283857709
0.0376749 0.010182757 -0.03290084 4283857709
0.039135154 0.011757035 -0.034584843 4283989288
0.040584572 0.013330765 -0.036266871 4283923498
0.042643268 0.012717128 -0.035927422 4283923498
0.046382353 0.0062739551 -0.030207753 4283989544
0.052078389 -0.0067233033 -0.018447321 4283989288
0.058515385 -0.021899719 -0.00468913 4283924009
0.062890619 -0.029786494 0.0023369081 4283790898
0.066004038 -0.033301007 0.0053281896 4283590724
-0.030112449 -0.034864094 0.015787892 4281300058
-0.028398622 -0.032530468 0.013349142 4280910418
-0.026502665 -0.03167304 0.012295282 4281172814
-0.024713609 -0.030078288 0.010551956 4281305668
-0.022935119 -0.028484102 0.0088106729 4281567043
-0.021274295 -0.026153263 0.0063818842 4281763394
-0.019409869 -0.025297318 0.0053340755 4281959234
0.0264946 -0.00018605962 -0.024249017 4284382499
0.027657915 0.0028611757 -0.027294178 4284185638
0.02953981 0.0029775202 -0.027633924 4284120358
0.031421669 0.0030939654 -0.027973581 4284120613
0.033303488 0.0032105222 -0.028313145 4283989034
0.034412883 0.0062548481 -0.031348243 4283858219
0.036088064 0.0071026869 -0.032359093 4283857964
0.037559334 0.0086819008 -0.034041844 4283792683
0.039422102 0.0087976865 -0.034377649 4283858218
0.041080955 0.0096448213 -0.035385314 4283858218
0.043560486 0.0075673871 -0.033705987 4283858729
0.047311373 0.0011055581 -0.028003525 4283989288
0.053017721 -0.011929866 -0.016275058 4283989289
0.059035294 -0.025689732 -0.0038939007 4283989289
0.062764764 -0.031408574 0.00110396 4283790134
-0.024831984 -0.031680059 0.0093330927 4280842844
-0.022949081 -0.030821089 0.0082834139 4281237074
-0.021071356 -0.029962305 0.0072347708 4281434698
-0.019308466 -0.028364595 0.0054998137 4281763393
0.031493016 0.00084381178 -0.02845281 4284512293
0.033187151 0.0016947687 -0.029465564 4284054059
0.034682933 0.0032796152 -0.031149544 4284054824
0.036167912 0.0048638545 -0.032831449 4283793194
0.038038686 0.0049800463 -0.03316877 4283792683
0.039708398 0.0058299266 -0.034176785 4283792939
0.041372653 0.0066796057 -0.035183776 4283858219
0.043650564 0.0053292476 -0.034180149 4283858218
0.047402505 -0.0011518858 -0.028492946 4283989544
0.05310839 -0.01422612 -0.016794564 4283989544
