# .PCD v0.7 - Point Cloud Data file format
VERSION 0.7
FIELDS x y z rgba
SIZE 4 4 4 4
TYPE F F F U
COUNT 1 1 1 1
WIDTH 973
HEIGHT 1
VIEWPOINT 0 0 0 1 0 0 0
POINTS 973
DATA ascii
-0.014387757 0.027911037 0.036842454 4289866529
-0.012138061 0.026738074 0.037863974 4289866529
-0.0096898042 0.024906438 0.0396167 4289605154
-0.0076064579 0.024394888 0.039899427 4290128158
-0.00532455 0.02322468 0.040913381 4290062879
-0.0030319169 0.022055365 0.041924827 4290258974
-0.00072854385 0.020886922 0.042933814 4290193184
0.0011832677 0.021036569 0.042479053 4290193184
0.0035027303 0.019869564 0.043484271 4289931554
0.0056264587 0.019361572 0.043757692 4289800739
0.0083828792 0.016880257 0.046215963 4289277479
0.012643024 0.0097963847 0.053765874 4288688429
-0.01773021 0.016632089 0.047342241 4286137153
-0.017584149 0.023408026 0.039539009 4290389278
-0.016053848 0.024880271 0.037620999 4290324253
-0.013987102 0.024365062 0.037905809 4290128413
-0.011729941 0.023188313 0.038922168 4290128413
-0.0096496604 0.022674251 0.039203901 4289801504
-0.0075639561 0.022160718 0.039484348 4289932063
-0.0054728352 0.021647669 0.039763555 4289932063
-0.0033763014 0.021135122 0.040041532 4289604389
-0.0010760911 0.019962031 0.041047942 4289996578
0.0010339059 0.019450668 0.041322812 4290127394
0.0033528693 0.018279225 0.042324822 4290258209
0.0056825504 0.017108647 0.043324374 4290062114
0.0086496212 0.013958506 0.046502739 4289604133
0.012912698 0.0068508014 0.054033659 4289146154
-0.017200679 0.019845644 0.040595055 4289668904
-0.015482616 0.020658238 0.039410803 4289931554
-0.013587635 0.020806052 0.038959652 4290389534
-0.011692535 0.020953942 0.038508523 4290192929
-0.0097973123 0.021101918 0.038057424 4289734949
-0.0079019815 0.021249967 0.037606351 4289145388
-0.005813811 0.020734476 0.037884582 4289341994
-0.0037202276 0.020219494 0.038161594 4289668904
-0.0014231876 0.019041792 0.039165378 4289995814
0.00088458136 0.017864969 0.040166717 4289864999
0.0032030456 0.016689094 0.04116552 4289734183
0.0057382546 0.014851514 0.042887993 4289734439
0.0087068602 0.011690535 0.046057694 4289080364
0.012970218 0.0045587644 0.053570315 4288753198
-0.017171554 0.017604394 0.040178593 4289538598
-0.015629958 0.019086208 0.038264468 4289931043
-0.013735067 0.01923399 0.037813321 4290193183
-0.011840053 0.019381855 0.037362196 4289931043
-0.0097576976 0.018863559 0.037640035 4289603878
-0.0078598037 0.019011781 0.037188329 4288949549
-0.0059617944 0.019160083 0.036736649 4289080109
-0.0040636994 0.019308468 0.036285006 4289537833
-0.0019676685 0.018791534 0.036559813 4289864744
0.0003342703 0.017609891 0.037559155 4289995558
0.0022405796 0.017759131 0.03710572 4290127394
0.0047644414 0.015914083 0.038825907 4289538599
0.0075127967 0.0134058 0.041266236 4289146409
0.012182787 0.0049199536 0.050210886 4288753199
-0.017495535 0.016697481 0.038299326 4289275693
-0.015956294 0.018183496 0.036389008 4289669414
-0.014245842 0.018999886 0.035209887 4290127394
-0.012171879 0.018478647 0.035487995 4290062369
-0.010092475 0.017957872 0.035764903 4289211179
-0.0083869919 0.018774133 0.034587093 4288425014
-0.0064943954 0.018921986 0.034136683 4288359479
-0.0046017021 0.019069923 0.033686306 4288098869
-0.0023136288 0.01788269 0.034685615 4288359478
-0.00041545928 0.01803121 0.034234051 4288294199
0.0012798272 0.018846989 0.033058979 4287899969
-0.018171418 0.017138153 0.034966856 4289471533
-0.016460977 0.017956626 0.033789318 4289472553
-0.014937222 0.019445859 0.031886034 4289276713
-0.01268737 0.018250879 0.032890838 4289211179
-0.010800388 0.01839813 0.032441638 4288359478
-0.0089133009 0.018545467 0.031992473 4287834179
-0.019197922 0.018939624 0.030190876 4288161344
-0.017679274 0.020432694 0.028292088 4288160579
0.020835847 -0.0033813491 0.040066313 4287441988
0.0047874451 0.02020696 0.013711862 4288816183
0.0055677965 0.023749409 0.0097170342 4289013299
0.0074099153 0.023894023 0.0092791682 4289537323
0.010133339 0.021322865 0.011679301 4290257444
0.014661893 0.013323445 0.019745285 4290126883
-0.012106858 0.024342733 0.0089730639 4288751159
-0.010665696 0.025851972 0.0071095433 4288882739
-0.0088426955 0.025994416 0.0066757137 4290388258
-0.0066219233 0.024771303 0.0076677818 4290389024
-0.004591953 0.024231721 0.0079450728 4290389024
-0.002556596 0.023692612 0.0082211923 4290062368
-0.00072270632 0.023836225 0.0077850148 4289539108
0.0013207123 0.023297958 0.0080593014 4289931809
0.0027330667 0.024805566 0.0062030293 4290062624
0.0037052408 0.02767553 0.0029311155 4290454814
0.0050910711 0.029181229 0.0010812792 4289800993
0.0073467605 0.02796147 0.0020655866 4289146409
0.011172479 0.021976015 0.0079981051 4289342759
0.017525803 0.0085061416 0.021692162 4289342759
-0.014265109 0.023370855 0.0075896326 4288687408
-0.013393082 0.026941577 0.0035889673 4289799718
-0.011967562 0.028453995 0.0017324237 4289145643
-0.010160603 0.028595172 0.0013024032 4290062113
-0.0077576376 0.026681311 0.0030064241 4289800483
-0.0057412721 0.02613847 0.0032852835 4290716188
-0.0037195124 0.025596101 0.0035629778 4290520093
-0.0021056384 0.0264231 0.0024205141 4290128158
-0.00028774515 0.026565552 0.00198821 4289669923
0.0013182536 0.027392067 0.00084779458 4289866274
0.0022752024 0.030269617 -0.0024139271 4290912794
0.0034281686 0.032461971 -0.0049636024 4290520093
0.0056647249 0.031236388 -0.0039780955 4289866019
0.0094698668 0.025229601 0.0019444602 4289931554
0.014448971 0.015811937 0.01138077 4289931298
-0.015345991 0.025298577 0.0029253878 4289016104
-0.014295854 0.028191388 -0.00035246904 4290520093
-0.013073772 0.030394996 -0.0029142401 4290520093
-0.011671752 0.031909972 -0.0047617867 4289277223
-0.0094865598 0.030675309 -0.0037678904 4289081384
-0.0070895664 0.028754506 -0.0020673552 4289931809
-0.0048803315 0.027521895 -0.0010790513 4290651419
-0.0032796226 0.028349999 -0.0022166879 4289997088
-0.001266066 0.027805001 -0.0019386257 4289931809
0.00032941252 0.028632868 -0.0030748895 4289997089
0.0017052256 0.030146385 -0.0049157552 4290258718
0.0028533861 0.032344963 -0.0074593676 4290520093
0.0048644133 0.031800099 -0.0071804496 4290454814
0.0082149021 0.027143564 -0.0026784739 4290520093
0.012052625 0.021119753 0.0032215121 4290520093
0.01844256 0.0075654648 0.016840708 4290323999
-0.01604956 0.025868032 -0.00030136271 4289473574
-0.015577443 0.030839151 -0.0057009105 4289866018
-0.014177866 0.032358248 -0.007544687 4290781979
-0.012397692 0.032497302 -0.0079683587 4290847513
-0.010022752 0.030568125 -0.0062676063 4290913049
-0.0074309111 0.027951064 -0.003863127 4290847514
-0.0052248463 0.02671382 -0.0028773888 4290585884
-0.0036267005 0.027543902 -0.0040127672 4289866273
-0.0020338185 0.028373659 -0.0051468313 4290062623
-0.00044621155 0.029203093 -0.0062795691 4289800738
0.0013502836 0.029344026 -0.0067066671 4289800738
0.0031468011 0.029485036 -0.0071337111 4290062114
0.0049433447 0.029626144 -0.007560689 4289734948
0.0074063279 0.027704684 -0.0058803363 4289604389
0.010110078 0.025097173 -0.0035018765 4289669925
0.015337165 0.014932882 0.0065844571 4289538853
-0.016002268 0.023681074 -0.00068212301 4288884778
-0.016096309 0.030744573 -0.0081963064 4290127393
-0.014894441 0.032959633 -0.010743327 4289996833
-0.013122335 0.033098038 -0.011165088 4289931809
-0.010954123 0.031853281 -0.010173787 4289669923
-0.0083738416 0.029226566 -0.0077731824 4290193183
-0.0059755854 0.027292805 -0.00608283 4290258718
-0.0041793138 0.027433451 -0.006510077 4289735459
-0.0021743551 0.026883384 -0.0062332964 4289408294
-0.00079796091 0.02840564 -0.0080677932 4289735458
0.0014237016 0.02716554 -0.0070887767 4289670179
0.0034394003 0.02661659 -0.0068143392 4289866273
0.0050218701 0.027448058 -0.007944013 4289735459
0.006820973 0.027589457 -0.008371532 4289866274
0.0090692714 0.026351843 -0.0073986212 4290455069
0.013146224 0.019600399 -0.00083163078 4290454814
0.020724993 0.0025161915 0.016206855 4290454814
-0.016044766 0.028575653 -0.0085646734 4289866020
-0.014647227 0.030103253 -0.010401333 4290258463
-0.01326023 0.031630121 -0.012235413 4289997599
-0.011290342 0.031074781 -0.011952201 4289866273
-0.0091146119 0.029826302 -0.010965955 4290128159
-0.0065219291 0.027191896 -0.0085748555 4289997088
-0.0045252927 0.026638905 -0.0082978141 4289800738
-0.0029401854 0.027472405 -0.0094267335 4289604388
-0.0013603531 0.028305579 -0.010554331 4289670179
0.00064170733 0.027753277 -0.010278382 4289800994
0.002649121 0.027201485 -0.010003636 4289800994
0.0042237155 0.028034527 -0.011129778 4289931808
0.0060147382 0.028175285 -0.011555381 4290127904
0.0080301575 0.027624384 -0.011282339 4290978328
0.011640199 0.022233155 -0.0061247433 4290847513
0.017360071 0.010623354 0.005298798 4290716444
-0.015424673 0.02431258 -0.0068204552 4288753454
-0.014593083 0.027934767 -0.01077014 4289734948
-0.013593044 0.030858729 -0.014009534 4290259228
-0.012218948 0.03238903 -0.015837178 4289997598
-0.010254629 0.031831134 -0.015554249 4290978328
-0.0076761693 0.029186862 -0.013166395 4290978328
-0.0052819699 0.027239751 -0.011484942 4290978328
-0.003288269 0.026684426 -0.011208797 4289800738
-0.001710996 0.027519589 -0.012334133 4289474084
7.4546784e-05 0.02765964 -0.012758641 4289474083
0.0018601194 0.027799791 -0.013183083 4289670433
0.0034268349 0.028634427 -0.014305755 4290063134
0.0049882568 0.029468704 -0.015427047 4290520604
0.0069927238 0.028914766 -0.01515305 4289539364
0.0099098645 0.025586303 -0.012094775 4289342759
0.014460001 0.017405339 -0.0041727228 4289866019
-0.014731415 0.026460763 -0.011844946 4289670688
-0.013730649 0.029393502 -0.015077907 4289735714
-0.012553655 0.031626418 -0.017604016 4289670434
-0.010792356 0.031764116 -0.0180231 4290650908
-0.0084228739 0.029808467 -0.016340848 4290454813
-0.0060373805 0.02785412 -0.014662289 4290912794
-0.0044680163 0.028690742 -0.015784165 4290782233
-0.0026932471 0.028829848 -0.01620619 4289669923
-0.00091844425 0.02896907 -0.016628137 4289735714
0.0010723807 0.028411593 -0.016352765 4289735714
0.00241258 0.029944321 -0.018168505 4290847514
0.003963463 0.030779993 -0.019285686 4290650908
0.0059569962 0.030222969 -0.0190107 4289931554
0.0086357072 0.027578684 -0.01665272 4289538853
0.011794252 0.023544624 -0.012911403 4289146408
0.017999891 0.01047134 -0.00016224501 4289342759
-0.014567744 0.017136503 -0.0047739502 4286268224
-0.015445337 0.027089557 -0.015023622 4289473318
-0.014646363 0.030731091 -0.018948968 4290520604
-0.013282299 0.032269366 -0.020767678 4289800994
-0.011529092 0.032406405 -0.021184858 4289277223
-0.0093707927 0.031143501 -0.020204276 4288950058
-0.0069966763 0.029181739 -0.018528026 4289931554
-0.0048143789 0.027920878 -0.017553028 4289604389
-0.0032528639 0.028759204 -0.018671362 4289735458
-0.0014834851 0.028897991 -0.019092023 4289669923
7.013604e-05 0.029735826 -0.020208303 4289604644
0.0016184524 0.030573348 -0.021323249 4290127393
0.0029403754 0.032109097 -0.023131268 4290716444
0.0049229488 0.03154907 -0.022855375 4290781979
0.0075900964 0.028895097 -0.020501217 4290323999
0.010278478 0.026242938 -0.018152071 4290062113
0.014610248 0.0187084 -0.010964618 4290651164
0.022750668 1.8291175e-05 0.0072691143 4290520093
-0.014141083 0.013529103 -0.0037648994 4287445304
-0.016157988 0.027731838 -0.018192537 4288426288
-0.015366059 0.031383723 -0.022107957 4290454303
-0.013812672 0.032223083 -0.023223016 4290847259
-0.012264539 0.033062164 -0.0243368 4290323999
-0.010519348 0.033198673 -0.024751998 4289669668
-0.0079542808 0.030527217 -0.022380747 4290389278
-0.0057831295 0.02926111 -0.021406407 4290716444
-0.0040218644 0.029399158 -0.021825217 4289735203
-0.0024734996 0.030238671 -0.022938669 4289997089
-0.00071483478 0.030376704 -0.023356721 4289996835
0.00060736015 0.031916782 -0.025161624 4290192929
0.0021398552 0.032755334 -0.026271082 4290127393
0.004337687 0.031491932 -0.025302701 4289538853
0.0067723691 0.029529074 -0.0236452 4289473318
0.0092229843 0.027567567 -0.021991411 4289735458
0.012615604 0.022807734 -0.017580234 4289343269
0.019558113 0.0075551495 -0.0028329617 4289343269
-0.015912011 0.02486133 -0.017860873 4286594878
-0.01589036 0.031344779 -0.024559621 4289930789
-0.014932532 0.034300372 -0.027762448 4290193184
-0.013397582 0.0351406 -0.028871445 4289996834
-0.01126159 0.03386718 -0.027892191 4290062113
-0.0085006841 0.030482093 -0.024830446 4290258464
-0.0063353926 0.029211199 -0.023858063 4289997089
-0.0045795552 0.029348811 -0.024275595 4289931553
-0.0028236844 0.02948652 -0.024693061 4289997089
-0.0010677911 0.029624326 -0.025110461 4290062369
0.00047009438 0.030465389 -0.026219625 4289800484
0.0017819926 0.032009084 -0.02801865 4290192673
0.0039766394 0.030741071 -0.027052812 4289865763
0.0059559122 0.030176515 -0.026779369 4289538598
0.0090837963 0.026100745 -0.023060523 4289408294
0.012012219 0.022729753 -0.020037876 4289211688
0.018476753 0.0088322237 -0.0067006955 4289211688
-0.016025949 0.029900366 -0.025612835 4289276458
-0.015263986 0.03357181 -0.029504545 4290192929
-0.013532367 0.033707142 -0.029916607 4290127393
-0.011598788 0.033135928 -0.02963455 4289735458
-0.008841686 0.029739607 -0.026580174 4289800994
-0.0068867765 0.029170291 -0.02630309 4289277989
-0.0049265139 0.028601488 -0.026027214 4289343779
-0.0031734221 0.028738977 -0.026444022 4289278244
-0.0012051314 0.028170997 -0.026169907 4289278244
0.00055066869 0.028308885 -0.026587214 4289278499
0.00230648 0.028446881 -0.027004447 4289409314
0.004062295 0.028584963 -0.027421616 4289147429
0.0062697083 0.027313629 -0.026462005 4289147428
0.0089446306 0.024634184 -0.024129445 4289081894
0.012334101 0.019843562 -0.019740636 4288885543
0.01879965 0.0059024692 -0.0064367424 4288623658
0.045198508 -0.060657572 0.057780996 4289081894
-0.015967779 0.027746752 -0.02597151 4288033843
-0.015398622 0.032138646 -0.030549526 4289277223
-0.013667118 0.032273959 -0.030961569 4289669923
-0.01153218 0.030991711 -0.029988687 4289343779
-0.0089779086 0.0282932 -0.02763471 4289343778
-0.0070233233 0.027721668 -0.027359214 4289540383
-0.0048537366 0.02644247 -0.026394391 4289344288
-0.0030981004 0.026580157 -0.026811808 4289344544
-0.0011274703 0.026010124 -0.026539866 4289148449
0.00063086674 0.026148217 -0.026957773 4289475359
0.0028297529 0.024871701 -0.025999634 4290129434
0.0050392784 0.023596127 -0.025043938 4289671454
0.007259436 0.022321442 -0.024090655 4289605918
0.0099466871 0.019634239 -0.021767626 4289474594
0.013347859 0.014829274 -0.017393153 4288885799
0.019822404 0.00084521249 -0.0041243844 4288885799
0.045272224 -0.063097954 0.057200525 4289474594
-0.015909996 0.025589047 -0.026333239 4288099634
-0.014944725 0.028571427 -0.029518072 4289605409
-0.013006557 0.027996125 -0.02924055 4289998364
-0.011063013 0.027421346 -0.028964227 4289737499
-0.0089099668 0.026136244 -0.027998891 4289344798
-0.0069530532 0.025562709 -0.0277256 4289083679
-0.0047813319 0.024279272 -0.026764549 4289083679
-0.0030231588 0.024417145 -0.027182575 4289214493
-0.0012649633 0.024555126 -0.027600529 4289345309
0.00049325451 0.024693197 -0.028018415 4289738008
0.002911672 0.022702741 -0.026377056 4289672729
0.0053460449 0.020713581 -0.024739373 4289999893
0.0077963397 0.018725827 -0.023105437 4289738008
0.010262577 0.016739372 -0.021475175 4289214238
0.013898179 0.01121068 -0.016429244 4289017634
0.020843074 -0.0042337179 -0.0018278942 4288886564
0.044868231 -0.064126253 0.055253141 4289279774
-0.015465971 0.021999517 -0.025315741 4287707188
-0.014296081 0.024277659 -0.027805578 4289671454
-0.012744825 0.025127802 -0.028911836 4289933339
-0.010997567 0.025264423 -0.029327568 4289934103
-0.0088424124 0.023975154 -0.028366085 4289934358
-0.0066765808 0.022686789 -0.02740702 4288756258
-0.0045000985 0.021399403 -0.026450448 4288887329
-0.0025248453 0.020825302 -0.026183035 4289214493
-0.00097334385 0.021676062 -0.027288903 4289476379
0.00057287142 0.022526504 -0.028393436 4289738008
0.0029931962 0.020529639 -0.026757494 4289476379
0.0056519918 0.017822551 -0.024441063 4289541658
0.008106865 0.015828574 -0.022813123 4289280029
0.010577666 0.013835944 -0.021188891 4289280029
0.013755821 0.0097119398 -0.017521577 4289083424
0.021162262 -0.007202208 -0.0015921637 4288756258
0.044464663 -0.065149859 0.05330918 4289280029
-0.015409343 0.019829152 -0.025686711 4288820264
-0.014236301 0.022114078 -0.028172346 4289408804
-0.012682308 0.022966603 -0.029277619 4290130199
-0.010731447 0.022388024 -0.029006345 4290130708
-0.0087752342 0.021809964 -0.028736277 4289738008
-0.0068136491 0.021232368 -0.028467368 4289083679
-0.0046376996 0.019940564 -0.027513985 4288952864
-0.0026627816 0.019364262 -0.02724814 4288887328
-0.00046817213 0.018074086 -0.026298994 4289345563
0.00065209344 0.020355685 -0.028771471 4289934613
0.00285469 0.019066371 -0.027824117 4289869334
0.0050679222 0.017777959 -0.026879165 4289934613
0.0079666525 0.014349908 -0.023890896 4290000659
0.010436704 0.012350686 -0.022271434 4290000659
0.01407402 0.0067872815 -0.017252365 4289280539
0.044061542 -0.06616874 0.051368661 4290000659
-0.014774419 0.015499977 -0.023996942 4289670944
-0.013981339 0.019228315 -0.027854824 4289474594
-0.012421966 0.020083485 -0.02895977 4289475869
-0.01086783 0.020938283 -0.030063357 4289476379
-0.0091154464 0.021075396 -0.030480238 4290261778
-0.0071568601 0.020495443 -0.030212309 4289149214
-0.0047752783 0.018482001 -0.028577328 4289018398
-0.0025892146 0.017186724 -0.027629577 4289018653
-0.00060662255 0.016608907 -0.027367081 4289018653
0.00073093176 0.01818073 -0.029152513 4289738774
0.0024967641 0.018319512 -0.029572126 4290065939
0.0047068 0.017026486 -0.028629722 4289804053
0.0073769465 0.014302991 -0.026329163 4289476888
0.0098409429 0.012296766 -0.024713205 4289281049
0.013471166 0.0067153238 -0.019705607 4288953883
0.020634612 -0.009589199 -0.0045314198 4288888604
0.043896876 -0.067897588 0.050108757 4289281049
-0.015104521 0.014755663 -0.025751371 4288624678
-0.014117848 0.017774517 -0.028914873 4289998873
-0.012558389 0.018631855 -0.030018203 4290327314
-0.011004172 0.019488836 -0.031120162 4290065684
-0.0094552152 0.020345518 -0.032220788 4289673238
-0.0072936639 0.01904376 -0.031270668 4289608214
-0.0051214322 0.017742885 -0.030322965 4288888094
-0.0029385686 0.016442994 -0.029377762 4288888604
-0.0013868138 0.017300306 -0.030478748 4288823069
-5.691871e-05 0.018875847 -0.03225901 4289411609
0.0019200519 0.018295651 -0.03199672 4289673239
0.0039023384 0.017715985 -0.031735614 4289346838
0.0065635778 0.014983028 -0.029439492 4289936909
0.0087916441 0.013687313 -0.028504558 4289413650
-0.015049204 0.012570705 -0.026132923 4288952609
-0.014059193 0.01559856 -0.029290678 4289934613
-0.012496989 0.016458252 -0.030392962 4290000658
-0.011140481 0.018039653 -0.032176774 4289674259
-0.0097945407 0.019620281 -0.033957958 4289609999
-0.0074304268 0.017592339 -0.032328837 4288758809
-0.015763361 0.013280958 -0.029249934 4290001933
-0.014780615 0.016316952 -0.032399368 4289543699
-0.016738854 -0.067390606 -0.010117497 4286594624
-0.014224824 0.007115677 0.022339711 4283857964
-0.013094708 0.00072237849 0.026186593 4284054824
-0.012597319 0.0018924549 0.019190876 4284117809
0.005302798 0.017116776 -0.033894308 4284316454
0.0072900616 0.016535519 -0.033635881 4283988524
0.010430841 0.012356278 -0.029999284 4283857963
0.015926482 0.00098466501 -0.019617734 4283857198
0.039528236 -0.059130009 0.036131997 4283988524
0.048059601 -0.078377768 0.053827398 4283988524
0.050904199 -0.080366299 0.055343587 4283857198
0.053027954 -0.080198154 0.054839861 4283987503
0.055151649 -0.08002986 0.05433625 4283985974
-0.0062288158 0.01772581 -0.035162717 4284445994
-0.0044793449 0.01786299 -0.035578683 4284314923
-0.0029433593 0.018723415 -0.036672626 4284250663
-0.0011965036 0.018860592 -0.037087813 4284317474
0.00076917931 0.018275142 -0.036826149 4284251939
0.0025187172 0.018412758 -0.037241802 4284120869
0.0044923723 0.01782814 -0.036981873 4284058648
0.0062445551 0.017966162 -0.03739801 4283600159
0.0091439076 0.014494788 -0.034442723 4283469599
0.013926527 0.0052520782 -0.026104525 4283730974
0.045732256 -0.073638052 0.046506498 4283600159
0.050493866 -0.08140187 0.053392578 4283469343
0.052860178 -0.081954554 0.053560011 4283927833
0.05498372 -0.081786275 0.053056441 4283988014
-0.015010543 0.0015051216 -0.020343142 4283590214
-0.016284164 0.013277598 -0.031675622 4284250409
-0.015500762 0.017048765 -0.03549828 4284316199
-0.014151696 0.018638147 -0.037273765 4284317729
-0.012813188 0.020226801 -0.03904666 4283990818
-0.011282586 0.021088606 -0.040138032 4283795999
-0.0091412142 0.019772131 -0.039192975 4283730209
-0.0071971938 0.01918239 -0.038928125 4283860768
-0.0050371885 0.017867617 -0.037987392 4284055844
-0.0035064332 0.018729821 -0.039078433 4284252704
-0.0017650165 0.018866565 -0.039492331 4284121633
-2.3577362e-05 0.019003425 -0.039906152 4284057119
0.0017178617 0.019140385 -0.040319905 4283926048
0.0034593083 0.019277457 -0.040733561 4283793704
0.0056538954 0.017965997 -0.039800525 4283727659
0.0080883056 0.015931435 -0.038197301 4283795234
0.01216181 0.0088310167 -0.031893481 4283798804
0.018633764 -0.0055018961 -0.01888804 4283798804
0.041969627 -0.064518958 0.035193752 4283793448
0.049598977 -0.080986664 0.050105982 4283795234
0.052447267 -0.08298783 0.051611509 4283995154
0.054568 -0.082819745 0.051108625 4283923753
0.056438204 -0.081929147 0.049938217 4283921969
-0.01496074 -0.00071207434 -0.020747539 4283524679
-0.016612273 0.012554124 -0.033414863 4284251173
-0.016219623 0.017793994 -0.038587339 4284252449
-0.014878247 0.019387161 -0.040357746 4284252704
-0.013547421 0.020979563 -0.042125527 4283862298
-0.012024686 0.021842882 -0.043213338 4283730209
-0.0098918341 0.020521421 -0.042269602 4283861279
-0.0077483207 0.019200852 -0.041328281 4283863319
-0.0055941604 0.017881276 -0.040389448 4283925283
-0.0040686317 0.018745225 -0.041477613 4284187679
-0.0023326501 0.018881556 -0.041890215 4284121633
-0.0005966574 0.01901798 -0.042302746 4283991583
0.0011393502 0.019154515 -0.042715199 4283927833
0.002651643 0.020017864 -0.043799888 4283794214
0.0048377141 0.018701425 -0.04286816 4283727149
0.007263422 0.016659597 -0.041267782 4283792939
0.010631723 0.011714853 -0.036989361 4283793193
0.015911788 0.00096617267 -0.02736119 4283924519
0.048220754 -0.079107389 0.045493327 4283792939
0.051789846 -0.083291337 0.048999183 4283924519
0.053905122 -0.083123684 0.048497587 4283990819
0.055770077 -0.082231328 0.047330089 4283788858
-0.013777297 -0.0073230155 -0.017081266 4283459653
-0.016556602 0.010372479 -0.033794016 4283922733
-0.016742926 0.01782153 -0.040988971 4284121124
-0.015800491 0.020880591 -0.044108965 4283991838
-0.014280379 0.021745777 -0.045194585 4283923498
-0.012563266 0.021880077 -0.045603119 4283858474
-0.010436244 0.020553771 -0.044661239 4283924519
-0.0082985945 0.019228417 -0.043721873 4283925028
-0.0061502792 0.017903974 -0.042784914 4284056609
-0.0046299919 0.01876975 -0.043870218 4284121888
-0.0028994493 0.018905634 -0.044281539 4284122143
-0.0013870783 0.019770958 -0.045364752 4284122143
0.00034083426 0.01990686 -0.045775279 4284058394
0.0018452443 0.020771747 -0.046856463 4283994133
0.0037966557 0.020178981 -0.046596095 4283928089
0.0062109903 0.018129729 -0.044997953 4284059414
0.0093356185 0.013897046 -0.041397005 4283993114
0.013662672 0.0060266778 -0.034462474 4283926558
0.021599701 -0.012756854 -0.017527981 4283926558
0.045876347 -0.074296162 0.038231708 4284059414
0.050888538 -0.082858473 0.045727782 4283993114
0.052995697 -0.082691446 0.045228124 4284056099
0.055102784 -0.082524315 0.044728581 4284186404
0.056957107 -0.081630468 0.043565355 4283919674
-0.015926979 0.0059860162 -0.032146119 4283659319
-0.016877159 0.016391302 -0.042031851 4284055334
-0.015934024 0.019459136 -0.045145411 4283993879
-0.014613241 0.021059446 -0.046904217 4283926049
-0.012898911 0.021193549 -0.047312073 4283923754
-0.011184532 0.021327734 -0.047719881 4283925539
-0.0090553798 0.019997377 -0.046781778 4283992349
-0.006915573 0.018667908 -0.045846097 4284122909
-0.005190488 0.018803263 -0.046256199 4284121379
-0.0034653768 0.018938737 -0.046666212 4284187168
-0.0017402582 0.019074304 -0.047076166 4284121888
-0.00023576245 0.019941282 -0.048155785 4284056353
0.0012634061 0.020807993 -0.049234107 4283991073
0.0034351274 0.019481679 -0.048305519 4283991074
0.0058460571 0.01742564 -0.046711497 4283990819
0.0087353997 0.013910033 -0.043786719 4283990564
0.012352981 0.0082058832 -0.038868345 4284055843
0.018851789 -0.0062554516 -0.025968106 4284055843
0.043535717 -0.069445103 0.030999048 4283990818
0.049988501 -0.082412139 0.04246619 4283990564
0.052087545 -0.082245752 0.04196848 4284055588
0.054186519 -0.082079247 0.041470867 4284186149
0.056032941 -0.081183836 0.040311165 4284052528
-0.015298951 0.00158225 -0.03051077 4283525954
-0.017011352 0.014961369 -0.043074518 4284055079
-0.01646062 0.019508667 -0.047529336 4283990564
-0.014746465 0.019642629 -0.047937248 4283927579
-0.013435964 0.021246601 -0.049690221 4283993368
-0.01172702 0.021380369 -0.050096728 4283993368
-0.0098108873 0.020779716 -0.049831852 4284058394
-0.0076795965 0.019445268 -0.04889749 4284056354
-0.0057501309 0.018845875 -0.048635613 4284121633
-0.0038153268 0.018246964 -0.048374891 4284121633
-0.002092991 0.018382322 -0.048784174 4284187169
-0.00059108436 0.019251324 -0.049861573 4284187169
0.0011286065 0.019386694 -0.050270058 4284121889
0.0037512556 0.016589837 -0.048010848 4284121634
0.0063951239 0.013794757 -0.045756597 4284121634
0.0090602115 0.01100146 -0.0435073 4283989288
0.011746507 0.0082099661 -0.041262943 4284054568
0.017526623 -0.004098922 -0.030386547 4284055079
0.041440532 -0.06528604 0.024458531 4283989288
0.049089756 -0.081952333 0.039214496 4283989288
0.051427655 -0.082517967 0.039380569 4284055079
0.053521167 -0.082351878 0.038884275 4284054059
0.055866882 -0.082916632 0.039048679 4284053038
-0.014099419 -0.0050527342 -0.026867479 4283656514
-0.01656444 0.011318363 -0.042098362 4283988779
-0.016397338 0.017354591 -0.047889955 4284122144
-0.015078645 0.018963436 -0.04964168 4284122143
-0.013165575 0.018360153 -0.049377881 4284122144
-0.01145146 0.018494319 -0.049785625 4284121889
-0.0095303506 0.017891867 -0.049523585 4284121634
-0.0076039024 0.017289966 -0.049262721 4284186914
-0.0054598488 0.015952216 -0.048334569 4284121123
-0.0037350021 0.016087672 -0.048744522 4284186659
-0.0015750118 0.014751434 -0.047820032 4284186403
0.00015516207 0.014887519 -0.048231095 4284186659
0.0021082275 0.014288194 -0.047976106 4284055078
0.0045176409 0.012218915 -0.04639174 4284055588
0.0071711615 0.0094159059 -0.044146363 4284056099
0.0093842261 0.0080843605 -0.04323402 4283990308
0.012074843 0.0052845404 -0.040997326 4283989799
0.017856581 -0.0070612095 -0.030149322 4283989798
0.041038893 -0.066229701 0.022574522 4283990308
0.048436377 -0.082212791 0.036633495 4283990308
0.05101537 -0.083514675 0.03745956 4283989798
0.053106077 -0.083348796 0.036963932 4283988778
0.055700839 -0.084649116 0.03778642 4283988013
-0.0053620748 -0.064738184 0.025890093 4283066188
-0.015731763 0.0061825924 -0.039789043 4283525953
-0.016138285 0.014456604 -0.047582902 4284121123
-0.014814015 0.016070278 -0.049332701 4284186914
-0.01309742 0.016204538 -0.049741112 4284121378
-0.010972582 0.014860604 -0.048811927 4284054823
-0.0088371038 0.013517659 -0.047885239 4284055079
-0.0069003813 0.012914374 -0.04762847 4284055843
-0.004534211 0.010834575 -0.046039149 4284121379
-0.0023668148 0.0094944686 -0.045119788 4284121633
-0.0004061386 0.0088933408 -0.044868428 4284121889
0.0015598349 0.0082927942 -0.044618282 4284122143
0.003531117 0.0076927729 -0.04436931 4284121889
0.0057330392 0.0063557848 -0.043457776 4284121889
0.0079455525 0.0050197802 -0.04254872 4283989543
0.0099380389 0.0044217594 -0.042304534 4283989034
0.012635659 0.0016137548 -0.040076043 4283989289
0.018185737 -0.010032032 -0.029918239 4283989289
0.040637676 -0.067168608 0.020693906 4283989544
0.048027761 -0.083200186 0.034718443 4284054824
0.050603528 -0.084506676 0.035541996 4284054569
0.052691426 -0.08434099 0.035047047 4283987759
0.055534806 -0.086381271 0.036524415 4283788858
-0.0075191893 -0.06654869 0.025160376 4283197003
-0.0062474199 -0.063421041 0.021994453 4282610249
-0.0053673945 -0.058809381 0.017490517 4283656513
-0.014514543 -0.00045915693 -0.036156133 4283525698
-0.015292235 0.0093243234 -0.045274913 4283855923
-0.014153004 0.011685133 -0.047693059 4283989033
-0.012023449 0.010337099 -0.046768382 4283989034
-0.009883251 0.0089900717 -0.045846187 4283989034
-0.0075258464 0.0069028288 -0.044259887 4283989034
-0.0057800896 0.0070396885 -0.044674989 4283988779
-0.0033987649 0.0049545951 -0.043094259 4283988524
-0.0014304854 0.0043517724 -0.042846434 4283988524
0.00076025352 0.0030092783 -0.041935828 4284054824
0.0027418025 0.0024077632 -0.041691035 4284120359
0.0047286637 0.0018067919 -0.041447416 4284120359
0.0067208409 0.0012063161 -0.041204926 4284055334
0.0084905364 0.0013458431 -0.04162512 4284054569
0.010721054 7.0296228e-06 -0.04072354 4284054824
0.013428319 -0.002808921 -0.038503926 4283988778
0.018749788 -0.013750087 -0.029033778 4284054314
0.040477946 -0.068841219 0.019475106 4284054569
0.047132216 -0.082706496 0.031491451 4283988778
0.049699433 -0.084017947 0.032313701 4283988524
0.052028205 -0.084590688 0.032477103 4283987759
0.05461387 -0.085900471 0.033295229 4283656258
-0.0082130991 -0.065966979 0.02194003 4282609738
-0.006583672 -0.064321592 0.020123653 4282479179
-0.0055201165 -0.060441952 0.016299944 4282936138
-0.013107114 -0.0078756064 -0.031877369 4283459654
-0.014252488 0.0034262463 -0.042315289 4283856688
-0.013096862 0.0057948641 -0.044732392 4284054569
-0.011152964 0.0051874146 -0.044480834 4283988778
-0.009000048 0.003837008 -0.043564972 4283922989
-0.0068364702 0.0024875253 -0.042651504 4283922989
-0.0048712492 0.0018821098 -0.042404819 4283923244
-0.0026890561 0.00053434819 -0.041495655 4283989033
-0.00071052462 -6.9778413e-05 -0.04125195 4283989289
0.0012733378 -0.00067345053 -0.0410094 4283989033
0.0030429102 -0.00053425133 -0.04142981 4284054569
0.004812479 -0.000394959 -0.04185015 4284054569
0.006806951 -0.0009973906 -0.041609891 4284054569
0.0088067167 -0.0015993007 -0.041370824 4284054569
0.011272212 -0.0036835447 -0.039814375 4284054569
0.013986463 -0.0065076388 -0.037602998 4284054824
0.019548139 -0.018222075 -0.027500682 4284054824
0.040318239 -0.070513517 0.018256526 4284054824
0.045994457 -0.081458926 0.027618142 4284054824
0.048796616 -0.083515763 0.029095234 4284053804
0.051117077 -0.08409135 0.029259013 4283987503
-0.0085465051 -0.066866994 0.020068798 4281952093
-0.006919492 -0.065217391 0.018256243 4282411349
-0.0056727976 -0.062074225 0.015109587 4282673234
-0.012667254 -0.01159418 -0.03095632 4283723579
-0.013606213 -0.0010051616 -0.040706292 4283922479
-0.01263766 0.0021169409 -0.043786321 4283989289
-0.010485325 0.00076199323 -0.042873643 4283923499
-0.008525826 0.00015372038 -0.042627424 4283857964
-0.0061487295 -0.001944989 -0.041055739 4283792173
-0.0045907982 -0.0010612011 -0.042138509 4283857453
-0.0026152879 -0.0016678646 -0.041895829 4283923244
-0.0010626167 -0.00078427047 -0.042977188 4283988524
0.0011349842 -0.0021349788 -0.042074755 4283988779
0.0031238049 -0.0027402714 -0.041834984 4283989033
0.0051179305 -0.0033450127 -0.041596375 4283989033
0.0073420592 -0.0046932548 -0.040700037 4284054569
0.0093494542 -0.005296763 -0.040464364 4284054824
0.011362124 -0.0058997013 -0.040229898 4284054824
0.014310712 -0.0094757676 -0.037368495 4283989289
0.020580148 -0.023454454 -0.025323737 4283989289
0.040399179 -0.072928309 0.017693369 4283989289
0.045344926 -0.081678614 0.025066851 4283989289
0.047895089 -0.083000138 0.025886627 4283922734
0.050207209 -0.083578497 0.026050711 4283921459
-0.0074369013 -0.065358996 0.015724882 4282411094
-0.0060101524 -0.06295681 0.013252638 4282541653
-0.012613934 -0.013828151 -0.031374466 4283789368
-0.013352185 -0.0039567761 -0.040438421 4283658553
-0.012377631 -0.00082555413 -0.043513253 4284054569
-0.010421168 -0.0014363416 -0.043268032 4283923244
-0.0084593631 -0.0020466 -0.043023996 4283923245
-0.0062862933 -0.0034040138 -0.042119436 4283923244
-0.0043111369 -0.0040130392 -0.04187835 4283923499
-0.0023306645 -0.0046215132 -0.041638508 4283923244
-0.00055874512 -0.0044823587 -0.042059649 4283923245
0.0012131892 -0.0043431073 -0.042480722 4283988779
0.0032043122 -0.0049503818 -0.042243145 4283988779
0.0052007474 -0.0055571124 -0.042006724 4284054058
0.0074269809 -0.0069095828 -0.041114137 4284120104
0.0092095248 -0.0067690238 -0.041537367 4284120104
0.011451641 -0.0081199706 -0.040648419 4283858473
0.014401698 -0.011706769 -0.037795581 4284119850
0.02113989 -0.027217712 -0.02447214 4284119849
0.040239301 -0.074602172 0.01647366 4284119850
0.044696268 -0.081889242 0.022522239 4284053804
0.046994824 -0.082470998 0.022687798 4283987248
0.049298622 -0.083052203 0.022852214 4283789879
-0.0079534464 -0.065491512 0.013200156 4282410584
-0.006531544 -0.063083187 0.010733996 4282280278
-0.012945883 -0.014564369 -0.033122137 4284180539
-0.013098933 -0.006916903 -0.04017669 4283723833
-0.011920646 -0.0045269653 -0.042584382 4283988268
-0.0097561553 -0.0058896877 -0.041681208 4283857198
-0.0079871416 -0.0057512224 -0.042102009 4283988523
-0.0058066659 -0.0071124025 -0.041202493 4284053803
-0.0042406507 -0.0062236637 -0.042283919 4284054059
-0.0022578724 -0.0068341009 -0.042046249 4284119849
-0.00069711357 -0.0059455223 -0.043126237 4284054314
0.0015073232 -0.0073043555 -0.042232063 4283858473
0.003284432 -0.0071645901 -0.042654283 4284054824
0.0055048093 -0.0085219666 -0.041763671 4284119848
0.0075115003 -0.0091299415 -0.041531242 4284120104
0.0095234886 -0.0097374022 -0.041299995 4284251174
0.011540765 -0.010344315 -0.041069914 4284512293
0.014724541 -0.014689714 -0.037571803 4284577573
0.021228606 -0.029498603 -0.02493633 4284577573
0.04031964 -0.077022865 0.015906135 4284577573
0.049135774 -0.084752008 0.021613738 4284180029
-0.008287508 -0.066368848 0.011346198 4281954134
-0.00705209 -0.063200474 0.0082219094 4281890383
-0.0073333643 -0.054005448 -0.00020084833 4282805834
-0.013041388 -0.0091325864 -0.04058224 4283723579
-0.011662409 -0.0074886121 -0.042325281 4283987504
-0.0094931759 -0.0088552535 -0.041426562 4284053549
-0.0077189989 -0.0087164119 -0.041848607 4284119083
-0.0057392828 -0.009329509 -0.041612044 4284119849
-0.0039623864 -0.0091902241 -0.042034566 4284119594
-0.0021854714 -0.00905082 -0.042457003 4284054313
1.841411e-05 -0.010414191 -0.041566022 4284120103
0.0018006749 -0.010274127 -0.04198955 4284120103
0.0035829395 -0.010133944 -0.042412989 4284185384
0.0051437765 -0.0092427805 -0.043491114 4284577064
0.0071474798 -0.0098532178 -0.043259591 4284707113
-0.0086211078 -0.067241535 0.0094957007 4282083164
-0.0073876716 -0.064064637 0.0063784607 4282411859
-0.013178915 -0.010597292 -0.041650243 4283920949
-0.011404976 -0.010458697 -0.042072408 4283922733
-0.00923099 -0.011829324 -0.041178115 4284053548
-0.0074516535 -0.011690073 -0.041601386 4284119593
-0.0058775842 -0.010796458 -0.042681515 4284381479
-0.0041008294 -0.010657184 -0.043104004 4284315689
-0.0021134503 -0.011271611 -0.042870719 4284380968
9.2525035e-05 -0.012639191 -0.041983552 4284445738
-0.0080048032 -0.055676956 -0.0038447338 4282738769
-0.0082411841 -0.065018594 0.0020430235 4282410838
-0.008526165 -0.055745613 -0.006319697 4282607443
-0.0092328228 -0.055042919 -0.0094446531 4282346834
-0.011663567 -0.037366416 -0.024986394 4283656258
-0.010495983 -0.052033436 -0.014524733 4282412369
-0.012183767 -0.037364904 -0.027408574 4283983679
-0.01138521 -0.050530713 -0.018278714 4282280278
-0.012703124 -0.037354324 -0.029824214 4283460929
-0.012272768 -0.049010191 -0.022019727 4282151248
-0.013221622 -0.037334736 -0.032233212 4282741828
-0.012417424 -0.050555971 -0.023146998 4281886813
-0.012987439 -0.040389378 -0.032037444 4282415683
-0.011439763 -0.048863519 -0.027312059 4282282319
-0.010529019 -0.044854295 -0.030992255 4283394373
-0.0013640113 0.019135613 0.030196132 4282398344
0.00011799857 0.020622168 0.028303225 4281614218
0.0015894473 0.022107942 0.026412942 4280172704
0.0040906705 0.020248041 0.028128617 4280107168
0.0080829896 0.013708059 0.034880843 4279714213
0.015329346 -0.0028561838 0.052411664 4279845538
-0.011880208 0.020197524 0.027679924 4282859894
-0.0098172426 0.019671153 0.027957411 4282531964
-0.0083246008 0.021162564 0.026065096 4280829838
-0.0062587932 0.020636568 0.026342021 4278996389
-0.0041875802 0.020111067 0.026617715 4278996388
-0.0023108572 0.020257862 0.026171219 4278799018
-0.00083915517 0.021747943 0.024284121 4278667438
-0.019661225 0.011153102 0.036034349 4280896648
-0.020046558 0.020087482 0.026156165 4279062688
-0.018359806 0.020908417 0.024987534 4278995878
-0.010530446 0.020139849 0.024657242 4278796723
-0.0090454519 0.021635016 0.022770047 4278733738
-0.0071822777 0.021780593 0.022326654 4278603178
-0.0051220022 0.021252034 0.022603283 4278537644
-0.0015922748 0.022217812 0.020996703 4279060648
6.6202134e-05 0.023037309 0.019835381 4279521178
0.0025500245 0.021162936 0.021545192 4279390108
0.0063117333 0.015250754 0.027552279 4278994858
0.011186197 0.0059775375 0.037129033 4279060648
-0.019462716 0.0082212798 0.036333703 4280897413
-0.020191256 0.018540828 0.025028255 4278734759
-0.019217242 0.022075457 0.020969965 4278341038
-0.017365325 0.022219745 0.020528939 4278406319
-0.015329752 0.021686664 0.020809485 4279454879
-0.013102572 0.02047679 0.021809746 4278995624
-0.010864671 0.01926787 0.02280747 4278338234
-0.0093820132 0.020767214 0.020924129 4278733739
-0.0075215958 0.020912549 0.02048137 4279126949
-0.0054642819 0.020381553 0.020757033 4278668969
0.002611421 0.018938119 0.021131657 4278668458
0.0057435073 0.015032478 0.024977978 4278274739
0.013180612 0.0038540661 0.036217868 4279322788
0.017948346 -0.0047660843 0.045031726 4279913113
-0.018228807 0.0011978596 0.040961646 4281880949
-0.020160541 0.016314121 0.024622332 4278996899
-0.015473858 0.020148948 0.019688163 4279258529
-0.013433162 0.019614089 0.019965917 4278996388
-0.011009794 0.017721284 0.021679737 4278733738
-0.0080544092 0.020728014 0.017922016 4278734248
-0.006592527 0.02223024 0.016047031 4278996388
-0.0043441504 0.021018064 0.017039174 4279716253
-0.0024889149 0.02116322 0.01659782 4279977374
-0.00022443756 0.019952426 0.017586306 4279583653
0.0020507015 0.018742584 0.018572265 4279321768
0.0049662292 0.015500877 0.021696622 4280565913
0.0072707199 0.014293458 0.022675773 4281287053
0.0087250024 0.015795704 0.020802982 4282728313
-0.019604761 0.01203575 0.026374074 4279062688
-0.019682396 0.019687077 0.018011089 4278799783
-0.011720151 0.018219281 0.018400982 4278470324
-0.010435935 0.020408031 0.015809502 4279585694
-0.0091675743 0.022595631 0.013221862 4279781788
-0.0073258691 0.022739543 0.012783589 4283249023
-0.018700693 0.0063705891 0.02955042 4281553529
-0.01929301 0.016100818 0.019047299 4278472874
-0.017976824 0.018298279 0.016452916 4278537643
-0.015761919 0.017074218 0.017446008 4279651739
-0.014278539 0.018586505 0.015572252 4280699534
-0.016750649 -0.0034420826 0.037009746 4281684599
-0.017840467 0.008381512 0.02437233 4279456919
-0.016679898 0.011273831 0.021061365 4279062943
-0.015175063 0.012792103 0.019185686 4279521689
-0.014792893 0.01842604 0.013025634 4282731118
-0.015328471 -0.0035106018 0.033957414 4281946738
-0.012521561 -0.069865167 0.064093716 4282405994
-0.012848459 -0.070870996 0.062140431 4282077808
-0.010765538 -0.070709556 0.061643768 4282013294
-0.013174888 -0.071872115 0.060190577 4281881459
-0.011432353 -0.070266381 0.058310557 4281881459
-0.013666775 -0.072143883 0.057553098 4281881458
-0.011929296 -0.07053414 0.055677541 4281881203
-0.013992075 -0.073133335 0.055611663 4282209644
-0.012425359 -0.070792839 0.053051196 4281946994
-0.010361303 -0.070632815 0.052559055 4282733414
-0.014151361 -0.074847206 0.054361485 4282405739
-0.012752373 -0.071771264 0.05111862 4281750643
-0.011032775 -0.070154145 0.04925403 4281947249
-0.013414867 -0.071282893 0.047818355 4281750133
-0.011702966 -0.06966202 0.045958824 4281881458
-0.014076088 -0.070781007 0.044527873 4282077553
-0.01237189 -0.069156438 0.042673498 4281946738
-0.014233317 -0.072472006 0.043294407 4282274158
-0.01286931 -0.069372565 0.040079713 4281946484
-0.01100776 -0.068479761 0.038913544 4281619063
-0.014223125 -0.074900299 0.042741969 4282405993
-0.013025817 -0.071054488 0.0388529 4281553273
-0.011336874 -0.069422305 0.037008837 4281160319
-0.013352077 -0.071996465 0.036947764 4281683069
-0.012010481 -0.068881288 0.033751652 4281881204
-0.01401712 -0.071450114 0.033692088 4282012019
-0.012682796 -0.068326831 0.030504337 4281684599
-0.014680874 -0.070890293 0.030446282 4282862953
-0.013181794 -0.068502635 0.027941542 4281946483
-0.011349071 -0.067603335 0.026788875 4281881969
-0.013508063 -0.069415405 0.026058529 4282274413
-0.011503439 -0.069259912 0.025580607 4281881969
-0.0096758567 -0.068358719 0.02443089 4282144873
-0.013490591 -0.071819842 0.025521984 4282601579
-0.011657756 -0.070916191 0.024372568 4281553784
-0.010007087 -0.069265008 0.022554178 4280242063
-0.012160238 -0.071071774 0.021826113 4280569229
-0.010514606 -0.069416687 0.020012256 4281160064
-0.012661848 -0.071218327 0.019286325 4281553019
-0.011021253 -0.069559291 0.017476954 4281554293
-0.0093911774 -0.067900896 0.015670136 4281883498
-0.013336297 -0.07060121 0.016086997 4282273394
-0.011527065 -0.069692776 0.014948215 4281553784
-0.0097230375 -0.068784624 0.013810769 4281619828
-0.013835981 -0.070727438 0.013562022 4282468978
-0.011855863 -0.070573777 0.013090003 4281094528
-0.010054443 -0.069663674 0.011954806 4281226363
-0.012536105 -0.06993261 0.0099106161 4281554039
-0.010563988 -0.069779426 0.0094406074 4281357689
-0.0089542568 -0.068109542 0.0076486124 4281817454
-0.013390798 -0.068517089 0.0060803397 4281881203
-0.011429448 -0.068364769 0.0056128753 4281488504
-0.0098300613 -0.066691354 0.003826644 4281489778
-0.014243811 -0.067083821 0.0022630913 4283124073
-0.012471404 -0.066169411 0.001139689 4281487483
-0.010885011 -0.064492628 -0.00064014667 4281225854
-0.013689253 -0.063186795 -0.0039741881 4281422203
-0.01247976 -0.05997711 -0.0070595108 4280899454
-0.014193531 -0.063246697 -0.0064475909 4281815668
-0.013349529 -0.058494579 -0.01083456 4280701828
-0.011804949 -0.05681226 -0.012597788 4281753193
-0.014874544 -0.062528089 -0.009568125 4282469999
-0.014217626 -0.056994233 -0.014596635 4280505223
-0.012683388 -0.055308383 -0.016354112 4281557099
-0.015376922 -0.062567741 -0.012026761 4282731628
-0.014544029 -0.05779044 -0.016391378 4280504968
-0.01319484 -0.05532923 -0.018795811 4281032564
-0.014330562 -0.060902867 -0.016233115 4280701828
-0.01279318 -0.059208047 -0.017984807 4280899708
-0.011636522 -0.055967528 -0.02103108 4281819494
-0.02763151 -0.073757619 -0.0052563706 4282536044
-0.013758678 -0.065575331 -0.014784512 4282274668
-0.012392703 -0.063099772 -0.017183147 4279323553
-0.030337181 -0.072384924 -0.0085690031 4282470764
-0.02612764 -0.073562413 -0.018445026 4282667369
-0.028821606 -0.072122619 -0.021710429 4282077553
0.042543136 -0.066041708 0.045471191 4285755418
-0.00062714517 0.01886371 -0.034676734 4286086663
0.0011251606 0.019001424 -0.035093136 4285299989
0.044534162 -0.083584681 0.021286873 4284904483
0.011629505 -0.012572825 -0.04149437 4285099559
0.01481453 -0.016931098 -0.038006444 4285165093
0.021316927 -0.031783607 -0.025403494 4285165093
0.039919615 -0.077948928 0.014034973 4285165093
0.044129439 -0.084530666 0.019402003 4285230628
0.046424609 -0.085117012 0.019565096 4285099559
0.001877293 -0.012498926 -0.042407669 4284968744
0.0036620721 -0.012358528 -0.042831685 4285099304
0.005446855 -0.012218039 -0.043255638 4285230374
0.0074554943 -0.01283022 -0.043026973 4285361188
0.0096959621 -0.014194481 -0.04214754 4285426724
0.01194701 -0.015557729 -0.041270565 4285361188
0.015599597 -0.021433126 -0.036492154 4285361443
0.021873811 -0.035576623 -0.024573585 4285296164
0.039520014 -0.078870222 0.012167202 4285296164
0.043482717 -0.084720567 0.01687243 4285361189
0.04577221 -0.085309535 0.017035222 4285295398
-0.013316404 -0.012061696 -0.042718031 4284968234
-0.011345465 -0.01268018 -0.042482935 4285165348
-0.0093691796 -0.013298132 -0.042249028 4285165858
-0.0075899884 -0.013158895 -0.042672265 4285099558
-0.00581076 -0.013019547 -0.043095436 4285164583
-0.003615994 -0.014392588 -0.042209066 4285229863
-0.0018314011 -0.01425257 -0.042633317 4285360934
0.00037930161 -0.015624076 -0.041750599 4285295398
0.0019535311 -0.014727801 -0.042828761 4285361189
0.0041775368 -0.016098071 -0.041948982 4285426469
0.0057491101 -0.015201695 -0.043026358 4285426978
0.0077627152 -0.015815705 -0.042800479 4285361443
0.0095552951 -0.015674353 -0.043226097 4285426978
0.012263706 -0.01855113 -0.041052949 4285361443
0.01568817 -0.023689274 -0.036937557 4285361188
0.022195186 -0.038628306 -0.024401484 4285361188
0.039120868 -0.079786897 0.010302885 4285361188
0.042594634 -0.0841479 0.013702946 4285295143
0.044630937 -0.083986372 0.013220193 4285163564
-0.013259582 -0.014285289 -0.043129358 4285098029
-0.011483274 -0.014146522 -0.043552093 4285361189
-0.0095073432 -0.014766678 -0.043319751 4285360934
-0.0077282898 -0.014627457 -0.043742955 4285360934
-0.0059492104 -0.014488116 -0.044166084 4285361188
-0.0035474598 -0.016623978 -0.042629767 4285295399
-0.0015501678 -0.017241973 -0.042402133 4285361189
0.00045244768 -0.017859485 -0.042175651 4285361189
0.002029378 -0.016960781 -0.043252844 4285361189
0.0040373243 -0.017577637 -0.043027446 4285361188
0.0060505681 -0.018193904 -0.042803239 4285361443
0.0080691166 -0.018809643 -0.042580206 4285361443
0.010092955 -0.019424845 -0.042358346 4285361444
0.012350852 -0.020796288 -0.041489534 4285361188
0.016007749 -0.026706051 -0.036738496 4285361189
0.022515766 -0.041688498 -0.024235513 4285361189
0.038482808 -0.079942957 0.0077964384 4285295398
0.041707844 -0.083561793 0.010543315 4285295399
0.043980688 -0.084156409 0.01070678 4284966449
-0.013203137 -0.016512956 -0.043543652 4285229608
-0.011424329 -0.016373996 -0.043966986 4285295398
-0.0094460808 -0.016996223 -0.043736823 4285360679
-0.007664524 -0.016856793 -0.044160619 4285360933
-0.0056782477 -0.017478075 -0.043932203 4285361189
-0.0032719634 -0.019620094 -0.042401895 4285360933
-0.0012697279 -0.020239886 -0.042177089 4285295398
0.00073783472 -0.020859133 -0.041953459 4285361189
0.0023201369 -0.019957867 -0.04303024 4285426724
0.0043330267 -0.020576481 -0.042807706 4285360933
0.0061306283 -0.020434964 -0.043234687 4285361189
0.0081514679 -0.021052685 -0.043013848 4285361188
0.010177607 -0.021669868 -0.042794172 4285361443
0.012666132 -0.023804445 -0.041282665 4285361189
0.016326535 -0.029731337 -0.036545563 4285427234
0.023069363 -0.045515608 -0.023430508 4285427234
0.038084757 -0.080848023 0.005940577 4285361444
0.041064121 -0.083720088 0.0080367755 4285295398
-0.012953196 -0.019508656 -0.043307867 4285295144
-0.011365749 -0.018605653 -0.044384863 4285295143
-0.0091860369 -0.01999322 -0.043505099 4285360678
-0.0076011494 -0.019090202 -0.04458132 4285295398
-0.0054080971 -0.020476464 -0.043704532 4285360933
-0.003204409 -0.021861847 -0.042830158 4285295398
-0.0011998676 -0.022483628 -0.042607546 4285361189
0.00080998614 -0.02310488 -0.042386103 4285361189
0.0028251559 -0.023725588 -0.042165846 4285360933
0.0046279132 -0.023583788 -0.042594139 4285295398
0.0064306706 -0.023441862 -0.043022346 4285295143
0.0089025423 -0.025584515 -0.041512009 4285295399
0.011164624 -0.026964437 -0.040650856 4285295398
0.01389396 -0.029865611 -0.038502399 4285361188
0.017799444 -0.036569696 -0.033137545 4285361698
0.03768713 -0.081748366 0.0040880907 4285426979
0.040904451 -0.08538954 0.0068203527 4285229353
-0.012897722 -0.021746706 -0.043729734 4285229354
-0.010914929 -0.02237298 -0.043504059 4285295143
-0.0089267716 -0.022998746 -0.043279517 4285295399
-0.0069332905 -0.023623925 -0.043056197 4285295143
-0.0049344636 -0.024248581 -0.042834051 4285295398
-0.0027233921 -0.025637653 -0.041964751 4285229864
