# .PCD v0.7 - Point Cloud Data file format
VERSION 0.7
FIELDS x y z rgba
SIZE 4 4 4 4
TYPE F F F U
COUNT 1 1 1 1
WIDTH 986
HEIGHT 1
VIEWPOINT 0 0 0 1 0 0 0
POINTS 986
DATA ascii
-0.0079294518 -0.017061204 -0.0045818565 4287380278
-0.0058725812 -0.017663419 -0.0043217828 4287576628
-0.0036418065 -0.019004121 -0.0033847198 4287445303
-0.0012291744 -0.021082632 -0.0017725148 4287445303
0.0010257438 -0.022421345 -0.00084061874 4287445303
0.0029384941 -0.022282377 -0.0012636273 4287445559
0.0048513114 -0.022143275 -0.0016865577 4287249973
0.0067641996 -0.022004075 -0.0021094284 4286988598
-0.012004472 -0.018146031 -0.0055645956 4287248954
-0.010116398 -0.018009551 -0.0059826812 4287379513
-0.0079023428 -0.019356012 -0.0050454503 4287314234
-0.005843129 -0.01996024 -0.0047875429 4287314488
-0.0037784949 -0.020564005 -0.0045307088 4287313978
-0.0017084442 -0.021167226 -0.0042750421 4287183419
0.00036701933 -0.021769926 -0.0040204688 4287249719
-0.01449189 -0.017600201 -0.0083193304 4287971878
-0.012297224 -0.018952645 -0.0073812855 4287445559
-0.010251857 -0.019560337 -0.0071221078 4287379514
-0.0080383234 -0.020911179 -0.0061880532 4287380023
-0.0059794448 -0.021517627 -0.0059317439 4287314488
-0.0042512938 -0.020636901 -0.0070262211 4287380023
-0.0023576394 -0.020499572 -0.0074452059 4286922553
-0.014781017 -0.018397585 -0.010129935 4287709994
-0.012589525 -0.019754618 -0.0091944924 4287315509
-0.010547172 -0.020364672 -0.0089363521 4287183928
-0.0081742592 -0.022466049 -0.0073304507 4287053114
-0.00628094 -0.022328995 -0.0077495421 4286595643
-0.012724373 -0.02130039 -0.010330286 4287184438
-0.010842063 -0.021164387 -0.010747138 4286922298
-0.013016026 -0.022095218 -0.012138255 4286792249
0.017123591 -0.057837032 -0.0026003856 4287051329
0.019867241 -0.06074591 -0.00042431708 4287444793
0.02263221 -0.063653022 0.001747102 4286987068
0.017360404 -0.060985833 -0.0024846075 4287051839
0.019723278 -0.062372223 -0.0016187162 4288033589
0.022096813 -0.063757628 -0.00075510843 4287313978
0.010012418 -0.057661436 -0.0069293333 4286789444
0.012340013 -0.059055075 -0.0060592657 4286593603
0.01486538 -0.06121584 -0.0045405542 4286528833
0.017217014 -0.062607467 -0.0036756091 4286855999
0.019771732 -0.064765826 -0.002163175 4287640634
0.021952331 -0.065387994 -0.0019524316 4288359478
0.0077334158 -0.058639228 -0.0083271405 4286921024
0.0098708943 -0.059267431 -0.0081089837 4286855743
0.012382157 -0.061435826 -0.0065922355 4286725184
0.014535684 -0.062062584 -0.0063774874 4286660159
0.016694587 -0.062688828 -0.0061637601 4286725184
0.019051023 -0.064084321 -0.0053030732 4286855488
0.021418154 -0.065478921 -0.0044445838 4287966013
0.004932411 -0.057292424 -0.011672764 4287182908
0.0072348751 -0.058696866 -0.010803892 4287641144
0.0095480271 -0.060100377 -0.009937319 4287379259
0.011871882 -0.061503008 -0.0090729808 4286725183
0.014206417 -0.062904686 -0.0082109338 4286659648
0.016362283 -0.063533291 -0.0079982383 4286594114
0.018331513 -0.063389398 -0.0084331138 4286789954
-0.0015456527 -0.056982756 -0.013504072 4286528068
0.0003910549 -0.056842297 -0.013932566 4286790463
0.0026742071 -0.058252707 -0.013062957 4286855999
0.0046163797 -0.058111578 -0.013492457 4286790973
0.0070941448 -0.060295716 -0.011978335 4286790719
0.0092255846 -0.060928665 -0.011762179 4287182909
0.011546232 -0.062335871 -0.010900415 4287247934
-0.0037862547 -0.057932414 -0.014891068 4287248699
-0.0016847625 -0.058570385 -0.014670446 4287248444
0.00025179237 -0.058429912 -0.015098895 4287182908
0.0025344007 -0.05984471 -0.014232456 4286986814
0.0044764169 -0.059703581 -0.014661922 4286659648
0.0067751296 -0.061116993 -0.013798813 4286594369
0.0089035518 -0.061752319 -0.013583629 4286528323
0.010670073 -0.060833335 -0.014659679 4286593604
-0.0076325461 -0.060578197 -0.014550819 4288230449
-0.005696401 -0.060438156 -0.014979484 4288623403
-0.0039249845 -0.05951754 -0.016055647 4288100398
-0.0018238425 -0.060157701 -0.015836593 4287183418
0.00011255592 -0.060017243 -0.016265009 4287641144
0.0023946241 -0.061436407 -0.015401746 4287640634
0.0043364763 -0.061295323 -0.015831187 4286920768
0.0066346489 -0.062713087 -0.014971237 4286593348
-0.0074524954 -0.063731208 -0.014422561 4287444538
-0.0058351383 -0.062025174 -0.016145505 4288426289
-0.0040636919 -0.061102383 -0.017220028 4287772469
-0.0019628927 -0.06174472 -0.01700253 4287313978
0.00014329702 -0.062386543 -0.016786132 4287248699
0.0022548735 -0.063027829 -0.016570825 4286855234
-0.0082279369 -0.062181488 -0.018173836 4287247424
-0.006297417 -0.062041879 -0.018601272 4287836474
-0.0045312606 -0.061117299 -0.019672975 4287639869
-0.0024361312 -0.061762214 -0.019455872 4287770684
-0.00016583875 -0.063191071 -0.018596634 4287639104
-0.0048337765 -0.061910242 -0.021476515 4287050818
0.047916133 0.023532387 0.050641198 4283857198
0.049894728 0.023677956 0.050205007 4283600158
0.044491831 0.019641437 0.05249067 4284121124
0.044876833 0.024379674 0.046982344 4283993368
0.045455862 0.028459437 0.042206004 4283858473
0.047407676 0.028603049 0.041775722 4283792684
0.05125396 0.023503184 0.047126014 4283858729
0.036642559 0.022838037 0.046802096 4283721284
0.038828462 0.022323512 0.047093067 4283921714
0.04057315 0.023126673 0.045935154 4284055588
0.041860566 0.025246385 0.043331854 4284056099
0.042903315 0.028023208 0.04000945 4283926559
0.043924648 0.030798521 0.036691815 4283796763
0.045626417 0.031598799 0.035543576 4283795999
0.048742492 0.028452905 0.038722236 4283861024
0.053560227 0.020706896 0.046937607 4283927069
0.032382563 0.027688045 0.038805671 4283858474
0.034321107 0.027830301 0.038378026 4283859748
0.037141249 0.025328524 0.040841889 4283927833
0.03953658 0.024150036 0.041856583 4284057374
0.040813822 0.026275571 0.039260514 4284056098
0.042075004 0.028399995 0.03666804 4283991584
0.043089043 0.031183496 0.033358715 4283928343
0.04525042 0.030665338 0.033653706 4283992603
0.047889907 0.02882796 0.035386223 4283992603
0.051979907 0.023033917 0.041427761 4283991839
0.055634357 0.018562365 0.04602249 4284056353
0.058837213 0.015412159 0.049173906 4284056099
0.029201675 0.023149975 0.041382257 4283988269
0.029453259 0.02860333 0.0351681 4283924264
0.030521579 0.03139919 0.031853076 4283860259
0.032656211 0.030876469 0.032151993 4283860514
0.035677001 0.027701313 0.035334781 4283929109
0.038501587 0.02519121 0.037791096 4283926303
0.040445302 0.02533406 0.037362471 4283991074
0.041704312 0.027464908 0.034775469 4283990308
0.04294727 0.029594587 0.0321921 4283990818
0.044874813 0.029736465 0.031767212 4283990563
0.047510959 0.02789231 0.033495508 4284056099
0.050879743 0.024063829 0.037371732 4284055844
0.053797349 0.021561071 0.039807916 4284055844
0.055270817 0.023028661 0.03794378 4284056354
0.056980409 0.023834269 0.036797427 4283928599
0.061180286 0.018028963 0.042800058 4283795743
0.024548938 0.023257863 0.038893506 4283919674
0.02648999 0.02340002 0.038465098 4284185128
0.02759371 0.026207078 0.035148792 4284055843
0.028464079 0.029678643 0.031115856 4283862043
0.029522415 0.032482531 0.027809683 4283859749
0.031428747 0.03262243 0.02738915 4283792684
0.034655128 0.028769879 0.031286452 4283859494
0.037690841 0.02558497 0.03445771 4283926304
0.040077172 0.024397161 0.035467818 4283991328
0.041790053 0.025204763 0.034321986 4284056099
0.043497559 0.026011996 0.033177439 4284121889
0.045199666 0.026818909 0.03203414 4284121889
0.047604449 0.02563278 0.033040348 4284121888
0.050258547 0.023783442 0.034759831 4284056099
0.052204467 0.023926903 0.034331065 4284056609
0.053174146 0.026725061 0.031045038 4283925029
0.054369092 0.028858211 0.028477564 4283861534
0.057542913 0.0256842 0.031618938 4283468578
0.063263759 0.015881598 0.041880209 4283470109
0.017801218 0.023909934 0.036111098 4283787074
0.018342204 0.028735405 0.030625794 4283663653
0.02025374 0.028875239 0.030203775 4283860004
0.0229805 0.026339967 0.032668021 4283860003
0.02510923 0.025812156 0.032964703 4284056099
0.026197623 0.028626833 0.029658411 4284056353
0.027264681 0.031439982 0.026356932 4284058138
0.028524833 0.033583678 0.023779372 4283994134
0.03063754 0.033054985 0.024079813 4283993623
0.033854648 0.029188648 0.027969211 4283994133
0.03710378 0.025324699 0.031851653 4284059159
0.039709426 0.023464911 0.033576511 4284055844
0.040964115 0.02560854 0.031000484 4284055844
0.042894211 0.025750563 0.030575 4284122144
0.04482425 0.025892656 0.030149583 4284121889
0.047461711 0.024035517 0.031867664 4284056099
0.049161118 0.024844583 0.030726746 4284056098
0.050613936 0.026319358 0.028873771 4284056864
0.0515683 0.029125148 0.02559777 4283861788
0.052994229 0.030598139 0.023750791 4283793704
0.055655286 0.028743055 0.025463993 4283792684
0.060095169 0.02223241 0.032150418 4283858728
0.065606378 0.013065498 0.041666649 4283924263
0.015900109 0.028363749 0.028447729 4283923754
0.017013125 0.031188665 0.025142407 4283730209
0.019310419 0.029984953 0.026164971 4283795743
0.021822024 0.028111078 0.027905203 4283929364
0.024349667 0.026238453 0.029641949 4283990563
0.02584862 0.027720144 0.027781401 4284056353
0.027125305 0.029871495 0.025205158 4284056099
0.028385952 0.032021776 0.022632455 4283990564
0.030498374 0.031490885 0.022931308 4283990818
0.033494599 0.028281169 0.026094653 4283990564
0.036517493 0.025073476 0.029252168 4283990564
0.038892176 0.02387609 0.030258227 4284056099
0.039911717 0.026694987 0.02697416 4284056099
0.041600745 0.027505273 0.025837032 4284057628
0.043750316 0.026977558 0.026128035 4284123929
0.046376433 0.025113005 0.027843703 4284056609
0.048303578 0.025255047 0.027419049 4284056353
0.049507704 0.027401941 0.024859389 4284056099
0.050452091 0.030215761 0.021592233 4283994388
0.052113976 0.031024484 0.020461418 4283927834
0.054517355 0.029829932 0.021461625 4283927324
0.058189567 0.025298879 0.026006296 4283926814
0.06240765 0.019436151 0.03196032 4283992093
0.067444578 0.011575848 0.040028319 4283990563
0.011542581 0.020980816 0.034332082 4283788093
0.012519456 0.024492372 0.030299995 4284121124
0.013276983 0.028676009 0.025553241 4283991329
0.01478412 0.030162239 0.023693953 4283858984
0.016280614 0.031647816 0.021837031 4283792428
0.018569421 0.030439064 0.022858195 4283792683
0.021072332 0.028558031 0.02459532 4283990564
0.02359128 0.02667821 0.026329007 4283991328
0.025291281 0.027490867 0.02519065 4284121889
0.026985943 0.028303217 0.024053534 4284121634
0.028889345 0.028442843 0.023633605 4284121633
0.030792737 0.028582552 0.02321374 4284121889
0.033573795 0.026034273 0.025653033 4284056098
0.035932012 0.024831232 0.026659355 4284056099
0.038076099 0.024300721 0.026949745 4284056608
0.039088324 0.02712784 0.023673939 4283992349
0.040769447 0.027939731 0.022540215 4283927833
0.042910717 0.027409252 0.02283141 4283927833
0.045999024 0.024195839 0.025966514 4283796763
0.047923408 0.024337713 0.025542492 4283925284
0.049125377 0.026490971 0.022988336 4284122144
0.050067797 0.029313412 0.019728266 4284056098
0.051973231 0.02945411 0.019308588 4283990819
0.054376129 0.028255178 0.020305602 4284056863
0.058046874 0.02370875 0.02483901 4284056608
0.062008955 0.018495742 0.030071378 4284056353
0.066783987 0.011278104 0.037414134 4284121379
0.006457217 0.023173813 0.029688928 4283656004
0.0079991072 0.024666626 0.027825031 4283789878
0.0097175837 0.025482189 0.026683774 4283989798
0.011240914 0.026973844 0.024824053 4284056353
0.01236856 0.029817142 0.021528637 4284057373
0.013865314 0.031306971 0.019674949 4283928598
0.015351426 0.032796144 0.017823631 4283861788
0.017629072 0.031582214 0.01884394 4283927578
0.020120619 0.029693788 0.020578595 4283994134
0.023245862 0.025780965 0.024458174 4284056608
0.025151839 0.025920626 0.024037559 4284121378
0.026846603 0.026735166 0.022902077 4284121889
0.028749907 0.02687479 0.022482174 4284121633
0.030653203 0.027014485 0.022062326 4284121888
0.03299493 0.025805846 0.023068875 4284121633
0.035125412 0.025272068 0.023360547 4283990308
0.037036635 0.025412597 0.02293914 4284058138
0.038038872 0.028247735 0.019672183 4283926048
0.039939329 0.028387619 0.019253265 4283990054
0.042072315 0.027854307 0.019544676 4283924264
0.045151539 0.024629328 0.022673508 4283925538
0.047305726 0.024097782 0.022960328 4283925284
0.049224593 0.024239339 0.022537591 4284056353
0.050656874 0.025725897 0.020699156 4284056098
0.052816153 0.025194928 0.020985082 4284121888
0.05572642 0.022648264 0.023389978 4284121889
0.059160437 0.018759537 0.027202457 4284055843
0.06288027 0.014201608 0.031713497 4284122398
0.067920297 0.0062891357 0.039741125 4284056608
0.0027966648 0.027574491 0.02247135 4283858729
0.0045017451 0.028391084 0.021334577 4283466029
0.0065702274 0.027849475 0.021637436 4283796254
0.0086441264 0.027308336 0.02193916 4283926049
0.010344077 0.028124806 0.020803707 4284056609
0.011846412 0.029619316 0.018952031 4284122144
0.013338111 0.031113179 0.017102726 4283992349
0.015016858 0.031928338 0.015972136 4283927579
0.017090995 0.03138762 0.016274111 4284057374
0.019982563 0.028136985 0.019435318 4284056864
0.022695161 0.02556577 0.021876201 4284056099
0.024387343 0.026382232 0.020742886 4284056099
0.025652139 0.028552415 0.01818414 4283990053
0.027755704 0.028014218 0.018479977 4283990818
0.030080946 0.026799915 0.019486779 4283990564
0.03263589 0.024910025 0.021202881 4283990053
0.034320012 0.025726296 0.020071657 4284056098
0.035774384 0.027218308 0.018231256 4284122908
0.036763962 0.030061267 0.014973728 4284060179
0.038880683 0.029524546 0.015266972 4283993114
0.041235078 0.028312838 0.016267767 4283992349
0.04454026 0.024401046 0.020098336 4283992858
0.047164258 0.022516809 0.021799654 4283993623
0.049323414 0.021983545 0.022083797 4284056353
0.051730886 0.020776059 0.023073131 4284056353
0.05439464 0.018895037 0.024765823 4284121379
0.057819478 0.014992483 0.028570347 4284121634
0.061025184 0.011766378 0.031663451 4283923243
0.064764887 0.0071946606 0.036158543 4283857454
0.069823794 -0.00074259564 0.044162143 4283857198
-0.0005929023 0.023699865 0.024323687 4283921713
0.00042090192 0.027246393 0.020308018 4283858474
0.0019445121 0.028746465 0.018454606 4283794723
0.0034575462 0.030245796 0.01660363 4283794469
0.0056965314 0.029019842 0.017625423 4283864339
0.007759463 0.028475663 0.017927945 4283861788
0.0098277889 0.027932009 0.018229298 4283991074
0.011901505 0.027388824 0.018529518 4284056353
0.013396174 0.028887225 0.016682912 4284056353
0.015077673 0.0297048 0.01555332 4284056099
0.016954035 0.02984204 0.015139051 4284055844
0.019438889 0.027939973 0.01686528 4284056099
0.021939781 0.026039161 0.018588029 4284056099
0.023624038 0.026857266 0.017458076 4283990564
0.0246705 0.029712604 0.014194304 4283992093
0.026336078 0.030529501 0.013068596 4284058903
0.029077157 0.027951973 0.015496815 4283862299
0.031620737 0.026054706 0.017210463 4284057884
0.033515789 0.026193976 0.016792571 4284056099
0.034514099 0.029046236 0.013539687 4284055844
0.035717856 0.031218981 0.010999748 4284056864
0.037364587 0.032034948 0.0098786177 4283992604
0.04016684 0.02946241 0.012293721 4283992349
0.043694928 0.024859179 0.016823439 4283991329
0.047260299 0.020258825 0.021344963 4283990564
0.049902216 0.018369455 0.023037434 4284056099
0.052802905 0.015804503 0.025431095 4284056099
0.055724837 0.013241239 0.027820095 4284056354
0.05941261 0.0086502135 0.032314956 4284122145
0.062134176 0.0067670606 0.033990134 4283989544
0.065632209 0.0028570108 0.03776874 4283857198
0.070699319 -0.0051058009 0.045750685 4283790898
-0.0036480688 0.026107579 0.019282637 4283923243
-0.0022896267 0.028296547 0.016712273 4283990563
-0.00059520453 0.029116532 0.015581015 4283865869
0.00091534853 0.030620001 0.013733789 4283792938
0.0027778745 0.030755645 0.013322132 4283792174
0.0050083734 0.029524649 0.014342522 4283792938
0.0074362196 0.027611403 0.016075941 4283860259
0.0095015951 0.027065298 0.016376324 4284056609
0.011572342 0.026519697 0.01667553 4284056609
0.013259247 0.02733971 0.015546372 4284122144
0.015335426 0.026794681 0.015844511 4284121888
0.017017066 0.02761448 0.014716646 4284055843
0.019301269 0.026388029 0.01572557 4284056099
0.020980287 0.027207801 0.014598407 4283990563
0.022446003 0.028708901 0.012761774 4283990564
0.02369043 0.03089066 0.010217516 4283927069
0.025558738 0.031027727 0.0098053394 4283926558
0.028290927 0.028440818 0.012228893 4283795743
0.03104444 0.025855597 0.014647761 4284059924
0.033155371 0.025313824 0.014938846 4284056354
0.034151696 0.02817468 0.011693038 4284056353
0.035806581 0.028993359 0.010571714 4284121888
0.037685394 0.029131694 0.010157598 4284121888
0.040724076 0.025870934 0.013270479 4284121888
0.044258684 0.021252964 0.017787132 4284056353
0.0478306 0.01663778 0.022295671 4283990053
0.050959803 0.013383944 0.025388794 4283924008
0.054115608 0.010132167 0.02847613 4283858474
0.057052672 0.0075612739 0.030855238 4283923245
0.060010977 0.0049920306 0.033229727 4283922989
0.062739849 0.0031029284 0.034898296 4283857453
0.065991275 -0.00014143437 0.037964839 4283922478
0.071573235 -0.0094863102 0.047326468 4283791153
-0.0048065111 0.028679689 0.013842219 4283394883
-0.0031174347 0.029501371 0.012713728 4283924518
-0.0014335997 0.030322751 0.011586456 4283930638
6.6570938e-05 0.031829812 0.009744823 4283730974
0.0019183233 0.03196466 0.0093355365 4283796254
0.0043214075 0.03004292 0.011069428 4283928344
0.0067405775 0.028122438 0.012799831 4283992604
0.008986719 0.026888406 0.013813516 4284056354
0.010860082 0.027025165 0.013399711 4284056353
0.01253907 0.02784678 0.012273956 4284122144
0.014409855 0.027983522 0.011860849 4284122144
0.016480435 0.027435977 0.012158627 4284121888
0.018353947 0.027573092 0.011745049 4284056353
0.020022377 0.028394265 0.010621877 4283990563
0.021477716 0.029898932 0.0087908888 4283863063
0.023132816 0.030719349 0.0076707518 4283858984
0.024782578 0.03153941 0.0065518934 4283858473
0.027505878 0.028943121 0.008970785 4283924774
0.030250508 0.026348483 0.011385037 4283990819
0.032574229 0.02512116 0.012382375 4284056354
0.034237251 0.025942542 0.01126086 4284187424
0.036574248 0.024716355 0.012255393 4284187679
0.038921885 0.023491003 0.013247704 4284187169
0.042207282 0.019538414 0.017052781 4284121633
0.045290187 0.016270097 0.020147709 4284055843
0.048873965 0.011640526 0.024642052 4283857709
0.052255213 0.0076952651 0.028426211 4283791919
0.055183478 0.0051149242 0.030800574 4283791664
0.057887863 0.0032172836 0.032469504 4283791663
0.060360346 0.0020017885 0.033434723 4283857198
0.062843412 0.00078710914 0.034397718 4283988524
0.066349544 -0.0031484738 0.03815471 4283922478
0.07193397 -0.012523703 0.047492623 4283922478
-0.0037707686 0.030035492 0.0094433725 4283792173
-0.0019192919 0.030170135 0.0090340078 4283793704
-0.000424169 0.031681135 0.0071968352 4283859493
0.0016030371 0.031127641 0.0075020837 4283860003
0.004186321 0.028511345 0.0099444762 4283925028
0.0067910291 0.025896706 0.012382211 4283990819
0.0084726699 0.026720515 0.01125739 4283991074
0.0099574588 0.028231224 0.0094227744 4283990819
0.011431634 0.029741211 0.0075906208 4283992094
0.013682764 0.028503416 0.0086000739 4284056864
0.015745044 0.027953036 0.0088980692 4284056608
0.017812688 0.027403167 0.0091948984 4284056098
0.019270953 0.028912371 0.0073664663 4284056099
0.020511005 0.031106826 0.0048330538 4283863064
0.022155514 0.031928658 0.0037169121 4283927579
0.024220526 0.031378895 0.0040146206 4283927323
0.026937606 0.028773423 0.0064282641 4284058138
0.029894255 0.025484391 0.0095423525 4284124184
0.032656644 0.022882462 0.011946088 4284056099
0.034993194 0.021651763 0.012937402 4284055588
0.038019139 0.018368077 0.016036408 4284187168
0.040842798 0.015770879 0.018426884 4284252959
0.04391934 0.012491107 0.021514876 4284187424
0.047022507 0.0092133805 0.024597062 4283990054
0.049915355 0.0066215508 0.026972491 4283857708
0.05282947 0.0040313564 0.029343296 4283791153
0.055522569 0.0021263175 0.031009652 4283791154
0.0582316 0.00022248551 0.032672603 4283790898
0.06046132 -0.00031395629 0.032934841 4283922223
0.063196816 -0.0022156425 0.034592107 4283922989
0.066201128 -0.0047987141 0.036943391 4283922733
0.072293885 -0.015569575 0.04765249 4284053549
-0.00055803731 0.030160841 0.0060801096 4283924773
0.0014688633 0.029605122 0.0063837497 4284056099
0.0038679093 0.027669964 0.0081085749 4284056864
0.0060969964 0.02642584 0.0091193151 4283991074
0.0077707246 0.027251255 0.0079978956 4283991329
0.0090564229 0.02945511 0.0054589296 4283861533
0.01071424 0.030279528 0.0043411469 4283863064
0.013153583 0.02834774 0.0060573947 4283794724
0.015409593 0.027106026 0.0070625301 4283797273
0.017474264 0.026553709 0.0073583927 4283924773
0.018725444 0.028755493 0.0048273867 4284056353
0.019960625 0.030956179 0.0022999696 4284056353
0.021809945 0.031091776 0.001891925 4284056609
0.024084702 0.029851831 0.0028932961 4284056864
0.027016273 0.026549952 0.0060045691 4284122654
0.029974513 0.02325014 0.0091100363 4284122144
0.032959413 0.019952364 0.012209684 4284121379
0.03574758 0.017343648 0.014601223 4284056098
0.039009161 0.013362959 0.018391559 4284055588
0.042073999 0.010071345 0.021473795 4284055589
0.045165461 0.0067817681 0.024550226 4283923243
0.04781542 0.0048666932 0.026220966 4283856943
0.050718047 0.0022668615 0.028587628 4283791153
0.05316313 0.0010403953 0.029552087 4283790899
0.055376742 0.00050042197 0.029816091 4283856178
0.058085069 -0.0014099814 0.031474251 4283856433
0.060561903 -0.0026338808 0.032431971 4283987504
0.06329935 -0.0045418963 0.034083817 4284054059
0.066052705 -0.0064486936 0.035732269 4283988013
0.072142184 -0.017254688 0.046415612 4284119085
-0.00033619627 0.027255738 0.0063849539 4283465008
0.0018762462 0.026005816 0.007395965 4283924518
0.0039162673 0.025448941 0.0076951087 4284056099
0.0059616864 0.024892546 0.0079931226 4284056608
0.0072584897 0.027103627 0.005456645 4283927068
0.008348152 0.030005218 0.0022159587 4283859749
0.009998057 0.030831236 0.0011015809 4283792428
0.012428686 0.028892294 0.0028147288 4283793958
0.015074559 0.026263623 0.0052304398 4283927069
0.016934413 0.026399719 0.0048198635 4283990053
0.018385254 0.027917063 0.0029997425 4284056353
0.019825423 0.029433757 0.0011820002 4284056099
0.02209435 0.028188935 0.002181279 4284121888
0.024586454 0.026255034 0.0038812691 4284121888
0.027740143 0.022252928 0.0076852338 4284121889
0.03070797 0.018942907 0.010780308 4284121889
0.033922981 0.014945537 0.014570845 4284056353
0.037169978 0.010950595 0.018354397 4283924773
0.040223096 0.0076471157 0.021430869 4283857708
0.043074317 0.00503451 0.023802035 4283791918
0.045715638 0.003112182 0.025469653 4283922988
0.048372898 0.0011911057 0.027133826 4283922989
0.050809558 -4.0423125e-05 0.028096776 4283856944
0.053256806 -0.0012710802 0.029057454 4283791153
0.055714656 -0.0025009103 0.030015919 4283791153
0.05818307 -0.0037298165 0.030972082 4283856688
0.060662068 -0.0049578957 0.031926028 4284053549
0.063401483 -0.0068722814 0.033572495 4284118828
0.066409335 -0.0094724968 0.035909787 4284249134
0.072756097 -0.02100011 0.04725989 4284444974
0.0030493774 0.026695482 0.0037390171 4283660338
0.0047125481 0.027524369 0.0026231539 4283924264
0.006182123 0.029046897 0.00080178818 4283797528
0.0076410733 0.030568793 -0.0010171947 4283730974
0.0094766952 0.030702848 -0.0014226283 4283859748
0.011705007 0.029450243 -0.00041803019 4283925029
0.014341976 0.026812213 0.0019929623 4283991074
0.016395364 0.026254708 0.0022880053 4284057373
0.018249791 0.0263905 0.0018787002 4284121888
0.020104229 0.02652639 0.0014694626 4284187423
0.023216613 0.022508018 0.0052724192 4284187168
0.025936363 0.019876465 0.0076655336 4284186914
0.029107437 0.01586261 0.0114557 4284121124
0.031875193 0.013234757 0.013838358 4283923753
0.034884598 0.0099169798 0.016916063 4283922988
0.03814365 0.005909849 0.020687025 4283857198
0.040983353 0.0032875799 0.023054043 4283856943
0.043616019 0.0013579912 0.02471854 4283856689
0.046033628 0.00012050197 0.025682235 4283856688
0.048695523 -0.0018067397 0.027340446 4283922224
0.050900675 -0.0023518465 0.027602892 4283856179
0.05311108 -0.0028964691 0.027864251 4283987504
0.055810098 -0.0048207045 0.029514488 4283987758
0.058525026 -0.0067436472 0.031161301 4283986993
0.061255842 -0.0086652935 0.032804638 4284510509
0.0038366653 0.028790133 -0.0013158624 4283463224
0.0054839663 0.029620126 -0.0024265065 4283858728
0.0069351979 0.03114577 -0.0042404355 4283795998
0.0089561641 0.030583475 -0.0039401446 4283927834
0.01117862 0.0293261 -0.0029376296 4283992858
0.014008157 0.025983486 0.00017091818 4284057883
0.016461495 0.024033256 0.0018693013 4284121889
0.01893086 0.022084285 0.0035642162 4284121633
0.021209441 0.020831391 0.0045546284 4284187169
0.02454601 0.016106442 0.0090448111 4284187678
0.027283546 0.013467468 0.011427384 4284187169
0.030257214 0.010135978 0.01450455 4283923243
0.03282262 0.0081945211 0.016178632 4283791918
0.035624143 0.0055605285 0.018547304 4283856688
0.038669776 0.0022346117 0.021608811 4283790898
0.041291114 0.00029755011 0.023270776 4283856688
0.043700263 -0.00094499812 0.024232961 4283791153
0.046120048 -0.0021866895 0.025192937 4283856178
0.04855042 -0.0034274831 0.026150595 4283855923
0.050755259 -0.0039747693 0.026411474 4283921714
0.053204179 -0.0052140355 0.027365234 4284053294
0.056146629 -0.0078368708 0.029703438 4284184108
0.058866173 -0.0097659603 0.031344235 4284706604
0.0029623695 0.030073715 -0.0052417959 4283071799
0.0047870055 0.030206764 -0.0056449515 4283727914
0.0066116899 0.030339915 -0.0060480474 4283858983
0.0088229515 0.029077234 -0.0050463891 4283794724
0.011044908 0.027815459 -0.0040470734 4283925283
0.014071956 0.023764297 -0.00024542306 4284055843
0.016728524 0.0211103 0.0021481165 4284055588
0.019814324 0.017063573 0.0059369756 4284054568
0.022725541 0.01371631 0.0090194251 4283922478
0.026081976 0.0089775547 0.013493646 4283922989
0.028628029 0.0070279427 0.01516689 4283922989
0.031190077 0.0050795972 0.016836673 4283857198
0.03333357 0.0045249425 0.017108906 4283791153
0.035922248 0.0025787912 0.018772917 4283790898
0.038749516 -6.1929226e-05 0.021129366 4283856178
0.041147545 -0.0013097711 0.022090686 4283921204
0.043556184 -0.0025567077 0.023049688 4283987249
0.046206061 -0.0044980012 0.024700548 4283921968
0.048638597 -0.0057429671 0.025654437 4284118828
0.050845791 -0.0062922388 0.025913157 4284576554
0.0068598129 0.027437631 -0.005748251 4282872134
0.0092689581 0.025470831 -0.0040503051 4283990054
0.011694159 0.023505241 -0.0023558021 4284055588
0.014730599 0.019441687 0.0014338498 4284186148
0.017598011 0.016080115 0.0045175469 4284055334
0.020492116 0.012720592 0.0075954199 4283924009
0.02361933 0.0086639151 0.011365289 4283922733
0.026778545 0.0046097264 0.015128128 4283856944
0.029122829 0.0033530742 0.016097613 4283856944
0.031263355 0.002795931 0.016368778 4283856688
0.033409201 0.0022392683 0.01663884 4283791153
0.036219597 -0.00041149557 0.018992333 4283856433
0.038828872 -0.0023625679 0.02064692 4283790898
0.041229062 -0.0036146082 0.021604449 4283921204
0.043639857 -0.0048657395 0.022559674 4283987248
0.046061281 -0.0061160102 0.023512684 4284052784
0.048493303 -0.0073653609 0.024463387 4284706348
0.010292467 0.019744426 -0.00096632214 4282805834
0.01273296 0.017773457 0.00071980013 4283791154
0.015387714 0.015101783 0.0031004185 4283989798
0.018264703 0.01173 0.0061737206 4283857963
0.020964848 0.0090618245 0.0085444599 4283857198
0.024098765 0.0049926005 0.012302877 4283856944
0.027055833 0.0016269423 0.01535878 4283791153
0.029193386 0.0010672994 0.015628869 4283791153
0.031336263 0.00050814822 0.015897864 4283791153
0.033484459 -5.0503761e-05 0.016165769 4283790898
0.03651616 -0.0034102388 0.019205468 4283790899
0.038685642 -0.0039671324 0.019468827 4283987503
0.041085318 -0.0052235648 0.020423165 4284575279
0.01416016 0.010606889 0.0051700883 4283133764
0.016439322 0.0093362927 0.0061469013 4283791153
0.019130547 0.0066586509 0.0085129216 4283791664
0.021233095 0.0060939118 0.0087888939 4283856943
0.023753002 0.0041226074 0.010452814 4283791408
0.026497617 0.0014491789 0.012807284 4283791153
0.029052224 -0.00051943213 0.014463743 4283856433
0.031622808 -0.0024867132 0.016116718 4283987249
0.034209397 -0.0044527687 0.017766276 4283986993
0.037031319 -0.0071201026 0.020104004 4284183343
0.038986467 -0.0069762319 0.019672999 4284575788
0.01480367 0.0062316433 0.0068135969 4283264833
0.017290819 0.0042510517 0.0084795998 4283791153
0.019393018 0.0036840476 0.0087538734 4283856943
0.021703724 0.0024116039 0.0097205732 4283856689
0.024230942 0.00043424964 0.011377964 4283791153
0.026982654 -0.0022473745 0.013724249 4283791153
0.029755699 -0.0049273409 0.016065899 4283987249
0.032763895 -0.0083107948 0.019094085 4283986994
0.035582259 -0.01098723 0.021425895 4284248368
0.037983626 -0.01225239 0.022373075 4284380459
0.015250709 0.0025478378 0.0077507338 4283331388
0.017745137 0.00056128204 0.0094101224 4283660849
0.02005532 -0.00071571022 0.010373589 4283661359
0.022173222 -0.0012836419 0.010642825 4283922479
0.024707731 -0.0032669939 0.012293646 4283987249
0.027466528 -0.0059567839 0.014631702 4283920949
0.030457623 -0.0093524903 0.01765532 4283985973
0.033689018 -0.013453543 0.021362731 4284377653
0.015112326 0.00098396465 0.006602183 4283331899
0.017803468 -0.0017199144 0.0089482367 4283660594
0.0201158 -0.0030011125 0.0099079199 4283726894
0.023047103 -0.0064124167 0.012936221 4283791663
0.025594233 -0.0084014013 0.014579289 4284051508
0.028573561 -0.011808962 0.017597159 4284116024
0.015363097 -0.0020058528 0.0068347454 4282673743
0.01805868 -0.0047181733 0.0091732442 4283986994
0.020775627 -0.0074288175 0.011507109 4283987249
0.023716498 -0.010850325 0.014525032 4284378673
0.053814292 -0.02973146 0.029157206 4284574259
0.060340039 -0.043071888 0.041652896 4283854649
0.016001888 -0.0064348131 0.0084388033 4283131724
0.018707227 -0.0091551393 0.010768527 4283919929
0.049793497 -0.02583988 0.022938192 4284182833
0.05389975 -0.032103673 0.028618753 4283201084
0.060898364 -0.046909951 0.042442232 4283201083
0.044069324 -0.022770628 0.017851206 4283723834
0.046505243 -0.024054572 0.018774586 4282612799
0.049414791 -0.026767157 0.021053767 4282285124
0.053984832 -0.034480035 0.028077334 4282153543
0.060744993 -0.048617728 0.041188616 4282153544
0.039305486 -0.022535384 0.015489724 4283983934
0.041945633 -0.024542868 0.017093046 4282742848
0.04437574 -0.025831692 0.018014327 4281894463
0.046587832 -0.026402518 0.01825542 4281567808
0.049499109 -0.029123619 0.020527579 4281958213
0.054069515 -0.036860406 0.027532905 4282022729
0.060828269 -0.051041737 0.040611461 4281957448
0.039601736 -0.025594771 0.015657006 4282349639
0.042246476 -0.027608395 0.017254323 4281698624
0.044681396 -0.028901242 0.018171299 4281242428
0.046898473 -0.029473826 0.018409597 4281371714
0.049814172 -0.032203346 0.020674232 4281567299
0.054855164 -0.041401714 0.029011134 4281827398
0.06091116 -0.053469822 0.040031314 4281827398
0.034646392 -0.024619043 0.012625003 4282415173
0.037263811 -0.026641428 0.014223216 4282154054
0.039897207 -0.028662577 0.015818037 4282088774
0.042546563 -0.03068243 0.017409433 4281829439
0.04498627 -0.031979233 0.018322006 4281502784
0.048121355 -0.03543973 0.021256667 4281438269
0.05151397 -0.039619535 0.024859766 4281176128
0.057040751 -0.050287068 0.034518287 4281371714
0.062174924 -0.059506707 0.042813301 4281827908
0.029945161 -0.024346948 0.010274183 4283852609
0.032325845 -0.025653064 0.011196073 4282741828
0.034931894 -0.02768293 0.012791753 4281956938
0.037553929 -0.029711545 0.01438405 4281892168
0.040191926 -0.031738877 0.015972903 4282023494
0.043068595 -0.034488969 0.018232632 4282023748
0.046191946 -0.037961349 0.021161526 4281828419
0.050026074 -0.043602809 0.026104171 4281697859
0.054364234 -0.050688051 0.03238266 4281436738
0.059222419 -0.059215918 0.039993521 4281632069
0.027432613 -0.024643213 0.0081727989 4283659574
0.030011302 -0.02668184 0.0097693969 4282546754
0.032394115 -0.027992152 0.01068751 4282088263
0.034787569 -0.029301517 0.011603329 4281761099
0.037408873 -0.03133671 0.013190828 4281826379
0.040485866 -0.034823596 0.016121522 4281891914
0.044479601 -0.041213632 0.021737369 4281957193
0.048521273 -0.047600031 0.02734274 4282088008
0.05283872 -0.054708652 0.033609204 4282219079
0.056748372 -0.06036184 0.038522098 4282152778
0.02770279 -0.027705453 0.0083450414 4283398198
0.030286089 -0.029750317 0.0099357124 4282219589
0.032462016 -0.030335307 0.010175962 4281957449
0.035071954 -0.032377988 0.011760928 4281826123
0.038348861 -0.036605999 0.015359335 4281498959
0.042316735 -0.043017641 0.020965932 4281498704
0.046554886 -0.05015412 0.027233168 4281760333
0.051071286 -0.05801481 0.03415931 4281956683
0.05473562 -0.062958717 0.038392857 4282216529
0.027972225 -0.030776188 0.0085111223 4284705839
0.030560113 -0.032827199 0.010095771 4281957704
0.032741029 -0.033413991 0.010333285 4281760588
0.03535556 -0.035462841 0.011912294 4281695308
0.039286915 -0.041896857 0.017511999 4281563728
0.044144109 -0.051250756 0.025781652 4281562454
0.048626266 -0.059138037 0.032697078 4281561179
0.028034944 -0.033121288 0.0079995273 4284444464
0.030624766 -0.035178676 0.0095788082 4282022218
0.032808021 -0.035767511 0.0098141944 4281760333
0.035638429 -0.038556188 0.012057496 4281629263
0.040006422 -0.046476051 0.018979745 4281300823
0.027891539 -0.034734219 0.0068151345 4283986739
0.030272208 -0.036062136 0.0077204024 4281955154
0.027542602 -0.035608433 0.0049627488 4283526464
-0.05787148 -0.019192412 -0.00011308212 4284704308
-0.0048590899 -0.022251032 -0.010653969 4283659319
-0.0026303418 -0.023609139 -0.009729635 4284706094
-0.0084460117 -0.025574908 -0.009614598 4282546244
-0.0068826526 -0.023937732 -0.011374876 4282088009
-0.0048273541 -0.024550855 -0.011122644 4282809149
-0.0025964715 -0.025913164 -0.010202086 4284443699
-0.056239668 -0.027484901 -0.0030007791 4284704564
-0.013150599 -0.023638226 -0.013272019 4283264578
-0.010793261 -0.025760449 -0.011677634 4282480454
-0.0084198378 -0.027881332 -0.010086741 4282089029
-0.0066889413 -0.026991874 -0.011175361 4281827143
-0.0046286508 -0.027606845 -0.010925902 4282023494
-0.0023929663 -0.028973192 -0.010009669 4284508979
-0.015625682 -0.023050874 -0.015998647 4282480198
-0.013128672 -0.025935963 -0.013736401 4282087753
-0.010610241 -0.028819382 -0.011478804 4282022474
-0.0082322173 -0.030946493 -0.0098938383 4281957194
-0.0064959452 -0.03005451 -0.010982014 4281827144
-0.0042635538 -0.031425536 -0.010068489 4281892933
-0.0020204261 -0.03279566 -0.0091572534 4284574259
-0.022099916 -0.021201141 -0.019233122 4284246839
-0.01994599 -0.02258306 -0.018306104 4283070013
-0.017781306 -0.023964033 -0.017381424 4281957958
-0.015605833 -0.025344156 -0.016459001 4281369164
-0.013263348 -0.027480565 -0.014871355 4281565004
-0.010904782 -0.02961573 -0.013287127 4281695818
-0.0086917393 -0.030992746 -0.012372797 4281957194
-0.0064679496 -0.032368913 -0.011460725 4281891148
-0.0044003539 -0.032987706 -0.011216192 4282022474
-0.0019881539 -0.03511852 -0.0096434746 4284442168
-0.023946542 -0.023619652 -0.019272815 4284641834
-0.021941368 -0.024246067 -0.019016815 4283332408
-0.019782651 -0.025631942 -0.018094206 4282153033
-0.017763939 -0.02625715 -0.017841037 4281761354
-0.015432913 -0.028401069 -0.016255844 4281434699
-0.013241913 -0.029784262 -0.01534012 4281434954
-0.011040144 -0.031166598 -0.014426645 4281696073
-0.0091504529 -0.031029999 -0.014845081 4281891659
-0.0067684427 -0.033169776 -0.013270822 4281825614
-0.0047038458 -0.033790931 -0.013027262 4281955918
-0.028484058 -0.021598473 -0.022912346 4284378673
-0.02607831 -0.024516903 -0.020650188 4282677824
-0.023793723 -0.026671156 -0.019060003 4282219844
-0.021783564 -0.027299389 -0.018806765 4282089284
-0.019767974 -0.027927123 -0.018554647 4282023239
-0.017596338 -0.029316351 -0.017638078 4281957704
-0.015260715 -0.03146641 -0.016058888 4281891914
-0.013064895 -0.032853663 -0.015147496 4281500234
-0.011175469 -0.032717183 -0.015565954 4281434953
-0.0091247 -0.033341795 -0.015321185 4281302099
-0.0067407526 -0.03548792 -0.01375229 4280841568
-0.032306496 -0.023378305 -0.023206923 4284640049
-0.030326467 -0.024011374 -0.022948958 4283724088
-0.028340984 -0.024643913 -0.022692159 4282678843
-0.025930818 -0.027570739 -0.020437589 4282089029
-0.02378403 -0.028966397 -0.019519107 4282023494
-0.021771546 -0.029596627 -0.019268032 4281958213
-0.019753616 -0.030226439 -0.019018052 4281958723
-0.017579842 -0.03161981 -0.018105295 4281892168
-0.015242267 -0.033776291 -0.016531445 4281760843
-0.013044331 -0.035167694 -0.015623868 4281499468
-0.01115239 -0.035031065 -0.016042896 4281238348
-0.032174129 -0.026428543 -0.022987418 4284640049
-0.030189123 -0.027063422 -0.022732276 4282416703
-0.028198648 -0.027697757 -0.022478228 4282089283
-0.025923606 -0.029865846 -0.020895911 4281957959
-0.024059113 -0.029731914 -0.021309407 4281762374
-0.021904748 -0.03113126 -0.020395827 4282024769
-0.019739602 -0.032529779 -0.019484499 4281565258
-0.017413508 -0.034693688 -0.017913189 4281433424
-0.015377041 -0.035324074 -0.01766878 4281367124
-0.034997489 -0.034374274 -0.017954037 4284182068
-0.033383358 -0.032700263 -0.019700462 4282415429
-0.031911086 -0.030257106 -0.022109304 4281957959
-0.03018653 -0.029354237 -0.023186063 4281696583
-0.028057013 -0.030760109 -0.02227048 4281697094
-0.0260561 -0.0313958 -0.022020346 4281761864
-0.024049733 -0.03203094 -0.021771306 4281761865
-0.021893214 -0.033434547 -0.020861469 4281630539
-0.019578595 -0.035605915 -0.019292641 4281367633
-0.017547902 -0.036238968 -0.019048735 4281169498
-0.01551177 -0.036871552 -0.018805902 4281036899
-0.036138546 -0.041452348 -0.014012461 4284705839
-0.034626301 -0.039000019 -0.016425461 4282480199
-0.033386905 -0.035004236 -0.020162534 4281957449
-0.032042753 -0.031782344 -0.023230389 4281827144
-0.03018428 -0.03164918 -0.023642808 4281304393
-0.028052632 -0.03305921 -0.022731049 4281370693
-0.025771018 -0.035239868 -0.021160079 4281500743
-0.023757 -0.035876654 -0.020914402 4281499978
-0.021593023 -0.037284017 -0.020009547 4281564493
-0.019712623 -0.037148714 -0.020426407 4281302098
-0.034507949 -0.042093784 -0.016235124 4282674254
-0.033647511 -0.03576351 -0.021952098 4281825359
-0.032043371 -0.034081511 -0.023689626 4281695053
-0.030048709 -0.034722202 -0.023441559 4281696839
-0.027639586 -0.037683949 -0.021213198 4281696584
-0.025487032 -0.039096698 -0.020309277 4281630794
-0.023323718 -0.04050862 -0.019407626 4281368653
-0.033010531 -0.041954279 -0.01911379 4282674253
-0.031390194 -0.040266782 -0.02085162 4281826124
-0.029379908 -0.040908538 -0.020608682 4281630284
-0.026955735 -0.043877885 -0.018390244 4281434188
-0.024648946 -0.046069741 -0.01683473 4281825869
-0.022608999 -0.046709031 -0.016598117 4281038939
-0.028313447 -0.049455956 -0.015821245 4282281809
-0.026002202 -0.051654138 -0.01427176 4282608209
0.0012006462 0.026560824 0.0041476144 4282144364
0.00070637465 0.026432499 0.0016160458 4281484933
0.0016855672 0.027844541 -0.0027244992 4278931618
-0.0028203093 0.02887495 -0.0058391914 4282925683
0.0013702586 0.027037354 -0.0045353076 4278734248
0.0028299205 0.028572176 -0.0063446793 4278867869
0.004842177 0.028004639 -0.0060458835 4279984514
-0.0031290576 0.028079443 -0.0076429537 4282859639
-0.0016692616 0.029618431 -0.0094491988 4278799018
0.0025126338 0.027773809 -0.0081482502 4278801059
0.004896991 0.025798433 -0.0064498899 4278802333
0.0074875951 0.023121767 -0.0040553305 4279918213
-0.0036140606 0.027994312 -0.010144377 4282006153
0.00055888668 0.026142292 -0.0088465698 4278735013
0.0029344819 0.024159614 -0.0071513294 4278996898
0.0055134743 0.021473281 -0.0047608973 4278801059
0.0084938779 0.017379154 -0.00097896717 4279063453
0.011313662 0.013991997 0.0020984747 4280246653
-0.04892597 0.022524972 -0.00049031293 4282400384
-0.003392309 0.025086578 -0.0098414281 4281288328
-0.0015736744 0.025218863 -0.01024351 4278865828
0.0011541136 0.021813694 -0.0071543218 4278670243
0.0037241578 0.019117892 -0.0047686049 4278931364
0.012140084 0.00892023 0.004448249 4281229679
-0.054347906 0.032217667 -0.012203025 4281947504
-0.052364793 0.030913785 -0.011169596 4280175764
-0.050261158 0.028895913 -0.0094259996 4281287563
-0.002995003 0.021460246 -0.0088469377 4280306833
-0.00081057101 0.020173319 -0.0078563411 4278997408
0.0019294582 0.016758133 -0.0047781374 4278604709
0.0046962276 0.013344996 -0.0017057669 4278801569
0.0074897259 0.009933915 0.0013607782 4278932638
0.0099307038 0.0079430863 0.0030317716 4279064218
0.012580018 0.005244635 0.0053935777 4279851404
-0.058010403 0.030507963 -0.01248857 4281488503
-0.053238455 0.034472827 -0.017225111 4278535093
-0.051154088 0.032446951 -0.015482185 4279585183
-0.049165722 0.031139247 -0.014453189 4279319729
-0.04705165 0.029115658 -0.012716737 4283114639
-0.0020705275 0.015684199 -0.0057733413 4280110483
0.00012939051 0.014394019 -0.0047894921 4278866849
0.0027029067 0.011680916 -0.0024178599 4279063709
0.0052978285 0.008969456 -5.0900038e-05 4279129753
0.0079141371 0.0062596574 0.0023114122 4279457428
0.010172971 0.0049741715 0.0032825498 4279392149
0.012826722 0.0022673234 0.0056367554 4279852424
-0.059807573 0.028204683 -0.012454558 4279324320
-0.058727454 0.033371031 -0.017830059 4278536879
-0.057380345 0.036375307 -0.02106395 4278863278
-0.055534344 0.035779864 -0.020740476 4278993583
-0.051716369 0.033871129 -0.019387633 4278798509
-0.049851093 0.033277296 -0.019068258 4278996388
-0.047636371 0.030527251 -0.016625531 4278862513
-0.045517456 0.028497525 -0.014895077 4282853773
-0.001500126 0.011311047 -0.0041080429 4279849873
0.00088851526 0.0093029588 -0.0024357638 4279260824
0.0029307604 0.0087242797 -0.0021537156 4279391894
0.0051623061 0.0074322298 -0.0011800197 4279391639
0.0077777132 0.0047136471 0.0011758767 4279653778
0.010414511 0.0019967258 0.0035271244 4279720080
0.013072692 -0.00071853399 0.0058737276 4280572799
-0.063020796 0.022879854 -0.0091807228 4282274158
-0.061889436 0.028064884 -0.014556202 4278866594
-0.058949772 0.032649502 -0.019601559 4278799783
-0.05750351 0.03494028 -0.022118924 4278931619
-0.055865396 0.035786282 -0.02321488 4278734758
-0.054125901 0.035910357 -0.023601325 4278864808
-0.050422732 0.034716249 -0.022959901 4278799528
-0.04844841 0.033398785 -0.021934353 4278931364
-0.046229023 0.030640403 -0.019499244 4279125419
-0.043868374 0.02716296 -0.016363468 4281672868
-0.0076951385 0.011535589 -0.006082227 4283319659
-0.0055098347 0.010235295 -0.0051020128 4280438668
-0.0033137612 0.0089358538 -0.0041240598 4279849874
-0.00093123317 0.0069206208 -0.0024554364 4279653779
0.0011106208 0.0063396618 -0.0021750776 4279522708
0.002976831 0.0064754561 -0.0025876395 4279522453
0.0050268173 0.0058952942 -0.0023089244 4279587989
0.0076413229 0.0031679124 4.0543266e-05 4279719058
0.010277219 0.00044219941 0.002385369 4279916429
0.013317905 -0.0037128404 0.0061044209 4281292918
-0.063598111 0.025035154 -0.013812554 4278735269
-0.062385853 0.029509727 -0.018464159 4278604454
-0.057828519 0.034953937 -0.024589511 4278864808
-0.050658014 0.034002557 -0.024721872 4278471853
-0.048801091 0.033403799 -0.024403933 4278472619
-0.046938639 0.032805502 -0.024087165 4278996643
-0.044592347 0.029316062 -0.020956447 4278930089
-0.042585973 0.027996792 -0.0199412 4281609118
-0.0096724145 0.0098851137 -0.0067884321 4282009978
-0.0074930452 0.0085799247 -0.0058102957 4280832134
-0.0051327311 0.0065563321 -0.004141883 4280177039
-0.0025834627 0.0038149692 -0.0017849999 4279653523
-0.00053935871 0.0032318719 -0.0015068892 4279522709
0.0016883574 0.0019305535 -0.00053909607 4279260568
0.0035651065 0.0020671114 -0.00095398631 4279587988
0.0056254305 0.0014855042 -0.00067922799 4279719059
0.0080635175 -0.00053175166 0.00097243348 4279981199
0.011084206 -0.0047014728 0.0046859402 4280112779
0.014328439 -0.0095864013 0.0090802386 4281489269
-0.063001737 0.017759327 -0.0092156325 4280963204
-0.062231127 0.025883444 -0.017402608 4278669733
-0.060946073 0.02964271 -0.021331783 4278670243
-0.052632552 0.033169337 -0.026094016 4278537643
-0.050892841 0.033293501 -0.026480449 4278864808
-0.049152944 0.033417769 -0.026866859 4278537898
-0.047529545 0.034267418 -0.027955981 4278734248
-0.045433741 0.03221646 -0.026235333 4279192993
-0.043321785 0.030166691 -0.024518164 4279520159
-0.041068945 0.027393475 -0.022103552 4280494003
-0.013971295 0.010268301 -0.0091661066 4281748859
-0.01181129 0.0089570917 -0.0081871115 4280373899
-0.0096405335 0.0076468028 -0.0072104647 4279456663
-0.0074590035 0.0063373558 -0.0062360819 4279326104
-0.0050967336 0.0043074004 -0.0045731124 4279391894
-0.0027183592 0.0022786744 -0.0029135824 4279522708
-0.00032391772 0.0002512224 -0.0012575272 4279457174
0.0020865947 -0.0017748997 0.00039502094 4279522709
0.0043325275 -0.0030791461 0.0013555535 4279522198
0.0064058602 -0.0036619864 0.0016257898 4279784084
0.0090425536 -0.0064051896 0.0039571188 4280242573
0.011889283 -0.0098667964 0.0069706198 4281159043
0.015145358 -0.014766097 0.01135073 4282665073
-0.061429221 0.017140057 -0.011405418 4279783574
-0.060688328 0.025286026 -0.019567605 4279193758
-0.059711915 0.03124157 -0.025601001 4278669479
-0.058274914 0.033551145 -0.028101543 4278931364
-0.056543905 0.033674423 -0.028486246 4278996898
-0.054706816 0.033069573 -0.028167451 4278734504
-0.052864175 0.032465145 -0.027849788 4278799528
-0.051127236 0.032589085 -0.028235625 4278930854
-0.049617853 0.034168467 -0.030024922 4278471344
-0.048002381 0.035019681 -0.031110665 4278404278
-0.046034422 0.033688813 -0.030093607 4278732718
-0.04405563 0.032358747 -0.029078852 4278667438
-0.041816968 0.029575786 -0.026667723 4279520413
-0.039684024 0.027521189 -0.024960095 4279317689
-0.015938949 0.0086260177 -0.0098687541 4280831114
-0.01362576 0.0065855011 -0.0082001621 4280177038
-0.011620101 0.0059947111 -0.0079172682 4279719059
-0.0096089914 0.0054044053 -0.0076355096 4279522709
-0.0075924471 0.0048145615 -0.0073548248 4279522709
-0.0052308775 0.0027780011 -0.005696672 4279457174
-0.0026807487 1.9259751e-05 -0.0033532172 4279653779
-0.00010921434 -0.0027378276 -0.0010144203 4279588244
0.0026615225 -0.0062163025 0.0020072702 4279588244
0.0050980635 -0.0082470253 0.003649218 4279587988
0.0077337883 -0.010999113 0.005974073 4279850128
0.010019302 -0.012304582 0.0069226706 4282009468
-0.060538579 0.0076217875 -0.0047354163 4279981198
-0.060051713 0.017987408 -0.014999174 4279128734
-0.059443574 0.026885828 -0.023839034 4278407594
-0.058296654 0.0313951 -0.028446335 4278538919
-0.056769196 0.032979704 -0.030236579 4278603944
-0.054935049 0.03237243 -0.029918808 4278472619
-0.051583249 0.033349402 -0.031388849 4278537388
-0.048473995 0.03578534 -0.03425552 4278273209
-0.042314384 0.030322088 -0.029820135 4279258018
-0.040317092 0.028989213 -0.028812706 4280630938
-0.022614863 0.011810888 -0.014605042 4281551999
-0.020647313 0.011214726 -0.014315695 4280569738
-0.018213432 0.0084381104 -0.011953685 4280177039
-0.015914384 0.0063899159 -0.010287013 4279718038
-0.013599243 0.0043430477 -0.0086238561 4279456665
-0.011429612 0.0030237883 -0.0076536341 4279391384
-0.0094134994 0.0024316534 -0.0073746452 4279063964
-0.0073919483 0.0018400252 -0.0070967712 4279260058
-0.0050257519 -0.00020277873 -0.0054445635 4278932384
-0.0026434809 -0.0022442639 -0.003795871 4279128989
0.00010475889 -0.0057353824 -0.00077755563 4279915919
0.0028797351 -0.0092244744 0.0022349763 4280898179
0.0055011511 -0.011986405 0.0045562414 4282533748
-0.05974419 -0.0012108237 0.0011961418 4280243594
-0.059038457 0.0077205226 -0.0076456983 4279719313
-0.058493834 0.017380632 -0.017175436 4279521179
-0.057917867 0.02630298 -0.025988327 4279063199
-0.056685444 0.030091276 -0.029880928 4278669989
-0.055162843 0.031679936 -0.031666763 4278800294
-0.053542484 0.032535531 -0.032750532 4278406574
-0.05203807 0.034123115 -0.034532227 4278668203
-0.0504306 0.03497795 -0.035613008 4279061413
-0.048712101 0.035100676 -0.035994679 4278473129
-0.046874572 0.034491867 -0.035679005 4278668458
-0.045031559 0.033883527 -0.035364494 4278602924
-0.041075397 0.031206084 -0.033347808 4278733994
