# .PCD v0.7 - Point Cloud Data file format
VERSION 0.7
FIELDS x y z rgba
SIZE 4 4 4 4
TYPE F F F U
COUNT 1 1 1 1
WIDTH 635
HEIGHT 1
VIEWPOINT 0 0 0 1 0 0 0
POINTS 635
DATA ascii
0.016861353 -0.016988106 -0.0011154558 4286789954
0.02014897 -0.022154056 0.0030855685 4287508798
0.014922973 -0.0195105 -0.0012292899 4287183419
0.01745915 -0.021653183 0.00032973289 4287314234
0.020383675 -0.025314145 0.0032014102 4287902773
0.0031867959 -0.014188997 -0.0069384123 4286985794
0.0054853633 -0.01558046 -0.0060303058 4287379004
0.0079672672 -0.017733909 -0.0044652484 4287444538
0.010465246 -0.019886173 -0.0029034466 4287248698
0.012979288 -0.022037178 -0.0013448857 4287510328
0.0151481 -0.02266226 -0.0011045933 4287575608
0.017688889 -0.024811104 0.00044850213 4287640889
0.020245731 -0.026958756 0.0019983826 4288098358
-0.0011870041 -0.01453118 -0.0086093089 4287052349
0.0010948926 -0.01592838 -0.0077012251 4287641143
0.0032204054 -0.01655928 -0.0074539776 4287510328
0.0056908876 -0.018720202 -0.0058914982 4288033588
0.0080049857 -0.020114787 -0.0049898736 4287314233
0.010504927 -0.022273429 -0.003433388 4287510328
0.012843143 -0.023666136 -0.0025365953 4287575864
0.015011612 -0.024293415 -0.0022978601 4287575608
0.017551687 -0.026448846 -0.00074953632 4287510584
0.020107817 -0.028603055 0.00079557998 4287509819
-0.0050689988 -0.017167278 -0.0082999021 4286854468
-0.0027957819 -0.018569678 -0.0073934682 4287706678
-0.00099660456 -0.017667286 -0.0084637962 4287837494
0.0012901127 -0.019068532 -0.0075599514 4287706423
0.0034206249 -0.019701265 -0.0073153898 4287772214
0.0057261325 -0.021100923 -0.0064153485 4287837493
0.0080423765 -0.022499762 -0.0055174269 4287968053
0.01019441 -0.023130618 -0.0052770898 4287575865
0.012529418 -0.024527855 -0.0043829419 4287444538
0.014694881 -0.025157563 -0.0041451794 4286985793
0.017048646 -0.026553228 -0.0032547605 4286985539
-0.011362854 -0.017627992 -0.0095574372 4287444794
-0.0095639937 -0.016723953 -0.010626439 4287379513
-0.0071567334 -0.018903054 -0.0090610906 4287903539
-0.0048894696 -0.020310335 -0.0081567802 4288034099
-0.0026114322 -0.021716803 -0.0072546005 4288360499
-0.00080689415 -0.020811871 -0.0083244145 4288099123
0.0013205521 -0.021447115 -0.008080937 4287837493
0.0032866411 -0.02131208 -0.0084939972 4287510329
0.0054222122 -0.021946497 -0.0082520284 4287641143
0.0073910914 -0.021811001 -0.0086654536 4287640634
0.0097095221 -0.023213856 -0.0077712126 4287378749
0.011861261 -0.023846842 -0.0075323177 4286985793
0.01383828 -0.02371037 -0.0079471506 4287116098
-0.013008274 -0.021678664 -0.0083411038 4286921024
-0.011494618 -0.019225307 -0.010726441 4287837493
-0.0096957274 -0.018319085 -0.011793811 4288492078
-0.0072891749 -0.020504743 -0.010233216 4288296238
-0.0050224178 -0.021916419 -0.0093320869 4287837748
-0.0027449019 -0.023327269 -0.00843307 4287837494
-0.00077911094 -0.02319251 -0.0088462532 4287968054
0.0011867546 -0.023057617 -0.0092593506 4287771959
0.0029861219 -0.022150606 -0.010326248 4287313723
0.0047802143 -0.021243773 -0.011391968 4287182909
0.0065690279 -0.020337217 -0.012456443 4286986049
0.0085271262 -0.020202331 -0.01286751 4287116354
-0.013285439 -0.022506557 -0.010171462 4287051839
-0.011626352 -0.020822279 -0.01189521 4287771958
-0.0098274387 -0.019913912 -0.012960959 4288426034
-0.0074215718 -0.022106126 -0.011405136 4288229683
-0.0051553436 -0.023522191 -0.01050717 4287771959
-0.0033534989 -0.022613235 -0.011573236 4287313213
-0.0012348182 -0.023253568 -0.011331305 4287312958
0.00056183711 -0.022344701 -0.012396093 4287116608
0.0025196113 -0.022210233 -0.012807395 4286985539
-0.01370709 -0.022551954 -0.01265363 4286593603
-0.011758056 -0.022418998 -0.013063785 4287771704
-0.0096587054 -0.023063391 -0.012819778 4287902774
-0.0078596957 -0.022152677 -0.013883859 4287509819
-0.0059103779 -0.022019297 -0.014293768 4287117119
-0.0041191839 -0.021108918 -0.015355986 4287770174
-0.010390803 -0.021543436 -0.016599525 4287181379
0.02018982 0.0054473355 0.032825515 4281619318
0.015645508 0.0049391016 0.031074155 4281946738
0.01639086 0.010093875 0.025808722 4279324318
0.019266713 0.014666922 0.020826366 4278665653
0.032048315 -0.0099661723 0.04369032 4278667184
0.036697425 -0.019122198 0.052203462 4278864808
0.0069311038 0.00488469 0.029477395 4280240278
0.0085988827 0.0064617321 0.027670655 4280699534
0.010429639 0.0073189959 0.026557982 4278996388
0.012078848 0.0088950023 0.024755318 4278931874
0.013538457 0.011189319 0.022264291 4278538664
0.016594019 0.015056409 0.017982118 4279389089
0.018756222 0.014474623 0.018256769 4278930343
0.021303112 0.012457028 0.01990724 4278929833
0.024827668 0.0068508759 0.024993706 4278799018
0.028979979 -0.00090546906 0.032133155 4278799784
0.033981781 -0.011527985 0.042007301 4278931364
0.038663089 -0.020710044 0.050492398 4278996898
0.0014730394 0.0087355897 0.023574684 4281092998
0.008731693 0.012168027 0.019143645 4278732973
0.010709275 0.012304254 0.018728476 4278603943
0.012329366 0.013882734 0.016935296 4278865573
0.026891261 0.0046215579 0.024052829 4279192739
0.031270977 -0.0038764104 0.031853177 4278996899
0.036515456 -0.015248179 0.0423784 4278931364
0.040831305 -0.023016825 0.049465761 4282143088
-0.0071081817 -0.00083035976 0.031405639 4282274413
-0.005246032 3.2417476e-05 0.030288983 4281881204
-0.0035436414 0.001619868 0.028481014 4279979924
-0.0023234747 0.005380936 0.02459953 4278996643
-0.001129929 0.0091402903 0.020723727 4278734248
3.7007034e-05 0.012897931 0.016853593 4278732974
0.0018382259 0.013757147 0.015750129 4278930089
0.0036341995 0.01461608 0.014647898 4279061414
0.0079033151 0.013438649 0.015201307 4278667948
0.010045987 0.012850665 0.015476408 4278472619
0.011836872 0.013709702 0.014375581 4278800039
0.013803732 0.013845421 0.013962847 4278930853
0.015218813 0.01614996 0.011491186 4278406319
0.020083081 0.012808219 0.014095486 4278340784
0.022823226 0.0100554 0.016420539 4278603433
0.025390135 0.0080263093 0.018057115 4278669479
0.028959576 0.0023886338 0.023107994 4278669479
0.033771612 -0.0075767264 0.032247815 4278603944
0.038861129 -0.018258408 0.042054489 4278997409
0.042798884 -0.024605796 0.047753349 4281619319
-0.012565304 0.0037911683 0.024804253 4282732904
-0.0097781681 0.0098826885 0.018430855 4278535349
-0.0056867339 0.0094247982 0.018293712 4278995879
-0.0038723908 0.010286704 0.017188918 4278537898
-0.00254241 0.013328619 0.014015968 4278472365
0.00054886937 0.017229252 0.0097497134 4278929834
0.0028293394 0.015910506 0.010717272 4278799528
0.0095595531 0.012684956 0.01292055 4278734758
0.011701964 0.012094863 0.013194193 4278799783
0.013487589 0.012955874 0.012096168 4278603434
0.015267923 0.013816588 0.010999371 4278865318
0.017415788 0.013227262 0.011272094 4278996644
0.019569043 0.012638368 0.011543806 4278865318
0.021919418 0.011325486 0.012497482 4278734248
0.024086056 0.010737784 0.01276652 4278668714
0.0312324 -0.00057190657 0.022840604 4278406064
0.036489367 -0.012012474 0.033310715 4278668714
0.041421577 -0.021999776 0.042402551 4278799784
-0.015815917 0.0078633428 0.018490266 4280045203
-0.014565464 0.011647694 0.014618394 4278995368
-0.013195403 0.014700502 0.01144316 4278274483
-0.006591592 0.011452608 0.013662702 4278733739
-0.004633721 0.011586644 0.013251043 4278603434
-0.0031543188 0.013907641 0.010774936 4278865318
0.0071154498 0.012393408 0.010782543 4278930854
0.0092494562 0.011800475 0.011056171 4278865319
0.011210628 0.011935651 0.010644513 4278799783
0.013352755 0.011343516 0.010916621 4278537898
0.015316691 0.011479117 0.010504565 4278668968
0.017466918 0.010887727 0.010775185 4278603434
0.019433588 0.011023775 0.010362745 4278471853
0.021208694 0.011886686 0.009268905 4278537389
0.025136778 0.012159005 0.0084455712 4278272444
0.043373801 -0.023575947 0.040703807 4280438414
0.04652283 -0.027056992 0.043652259 4282732903
0.049059667 -0.028360352 0.044564355 4282535534
-0.025021996 0.0011785179 0.023538977 4282471784
-0.023298856 0.0027793944 0.021735698 4281159808
-0.021718878 0.0051126555 0.019242499 4279259039
-0.02015477 0.0074449331 0.016752716 4278865828
-0.018606517 0.0097762272 0.014266415 4278603434
-0.017214786 0.012838967 0.011092993 4278405554
-0.015557628 0.014435954 0.0093039861 4279126948
-0.013765048 0.015300237 0.0082066739 4278931108
-0.011680365 0.014700562 0.0084881457 4278734248
-0.0092875548 0.01263798 0.010145065 4278667948
-0.0071866103 0.012039661 0.010423294 4278340529
-0.0052368827 0.012173116 0.010013339 4278603434
-0.0037650838 0.014500089 0.0075438013 4278734759
-0.0021472089 0.016095169 0.0057636453 4278800039
-0.00037523732 0.01695884 0.0046712644 4279061669
0.0018935241 0.015630528 0.005634685 4278800038
0.0045131184 0.01284226 0.0079645989 4278669479
0.0068087466 0.011516005 0.0089226076 4278406828
0.0085890032 0.012380742 0.0078287935 4278472363
0.01072007 0.011785492 0.008101522 4278537898
0.012675811 0.01192043 0.007691103 4278407338
0.014998358 0.010596521 0.0086437697 4278407083
0.016959514 0.010732062 0.0082323859 4278472618
0.018731972 0.011596821 0.0071407082 4278537643
0.020116299 0.013919212 0.0046905437 4278340019
0.02167869 0.015511833 0.0029231375 4279061413
0.024017371 0.014189646 0.0038728593 4278799783
0.027363839 0.0092264488 0.0082112467 4278864554
0.031556055 0.001353249 0.015252202 4278536624
0.036011804 -0.0072437897 0.022957999 4279062433
0.040739097 -0.016564026 0.031326942 4279324829
0.045115605 -0.024424046 0.038329575 4279390364
-0.029729638 0.0029603392 0.019718327 4282470763
-0.027189303 0.011317931 0.011279513 4278272954
-0.023308691 0.011581399 0.010461935 4278799019
-0.021503266 0.012448326 0.0093631791 4278406828
-0.01984084 0.014049716 0.0075761834 4278537898
-0.01447938 0.016647659 0.0042922776 4278536879
-0.0074728392 0.011172757 0.0085659241 4278406319
-0.0056824237 0.01203952 0.0074710427 4278734248
-0.0038972422 0.012906037 0.0063773515 4278669479
-0.0024409741 0.01523862 0.0039160354 4278734503
-0.00034263358 0.014638372 0.0041935043 4278668969
0.0019283071 0.013305806 0.0051532229 4278603434
0.0042099915 0.011974148 0.0061107306 4278406319
0.0061574094 0.012108132 0.0057017831 4278536879
0.0096966997 0.013840549 0.0035220729 4278534074
0.014314014 0.011181988 0.0054265624 4278799783
0.016267005 0.01131697 0.0050168978 4278537898
0.018031493 0.012183368 0.0039285356 4278602923
0.020768922 0.016839132 -0.00095525431 4278471854
0.023096401 0.015511811 -6.4619817e-06 4278930853
0.026231512 0.011263035 0.0036464063 4278603434
0.033416174 -0.00014811009 0.013633938 4278538154
0.037901595 -0.0087691173 0.021313913 4278669478
0.043290779 -0.020304754 0.031677768 4278735269
0.047277294 -0.026726916 0.037307598 4282012529
-0.033566926 -0.00040037185 0.020749211 4280831878
-0.032663275 0.0063773543 0.014106865 4278734758
-0.031564262 0.011675797 0.0088571524 4278799783
-0.028208341 0.014888458 0.0052823974 4278733739
-0.022038784 0.01306846 0.0061332053 4278471854
-0.020384137 0.014673732 0.0043510916 4278865319
-0.018740039 0.016278334 0.0025713099 4278930853
-0.010457505 0.013857968 0.0036956547 4278537389
-0.008219596 0.01251822 0.0046585342 4278865319
-0.0064398088 0.013386428 0.0035675308 4278996389
-0.0043473206 0.012783356 0.0038443981 4278669224
-0.0024110414 0.012916096 0.0034374213 4278472363
-0.00063899532 0.013784111 0.0023482954 4278734504
0.0016287528 0.012447007 0.0033053597 4278472108
0.0035679452 0.012580305 0.002898044 4278405808
0.01399684 0.010313183 0.0035758531 4278471854
0.015761327 0.011181615 0.0024890257 4278537898
0.017332148 0.012783311 0.00072624441 4278996388
0.018701259 0.015117727 -0.0017108736 4278275249
0.028858759 0.0068636909 0.0047604321 4278407084
0.03184697 0.0033385232 0.0077177528 4278669478
0.03631131 -0.0053100511 0.015382388 4278669478
0.041888416 -0.017614134 0.026397265 4278931874
0.046706699 -0.026984446 0.034704659 4278997664
0.049658701 -0.029765047 0.036953319 4282667878
-0.035332587 -0.0043775961 0.022052366 4282862698
-0.034976106 0.0061249509 0.011963979 4279849364
-0.033862811 0.01143948 0.0067226542 4278538408
-0.030630898 0.01540073 0.0024651652 4279127204
-0.028717782 0.015530407 0.002061951 4278734759
-0.026675072 0.014920451 0.002346742 4278995878
-0.022573169 0.013702087 0.0029130178 4278865319
-0.020788889 0.014571965 0.0018220944 4278668713
-0.01900978 0.015441589 0.00073234132 4278668969
-0.017235901 0.01631102 -0.00035627419 4278734504
-0.015321773 0.016441539 -0.0007591215 4278734248
-0.013111282 0.015095279 0.00020610867 4278865318
-0.011040784 0.014488168 0.00048568798 4278733993
-0.0089648478 0.013881542 0.00076420931 4278668204
-0.0047966279 0.012669705 0.0013181185 4278276014
-0.0027043633 0.012064546 0.0015934678 4278603943
-0.00077081844 0.012197211 0.0011871522 4278472873
0.00099600479 0.013067156 0.00010085385 4278668713
0.0043416806 0.01554314 -0.0027471357 4278733229
0.0062648244 0.015675552 -0.0031509162 4278930853
0.0083655156 0.01507169 -0.0028767944 4279061413
0.011192251 0.011523344 0.00010534097 4278995880
0.013497233 0.0101851 0.0010518646 4278471854
0.01525642 0.011055343 -3.2204203e-05 4278733993
0.016822103 0.012661085 -0.0017906735 4278930854
0.018758824 0.012795165 -0.0021967562 4278668458
0.020695562 0.012929365 -0.0026027495 4278996898
0.022828497 0.012328573 -0.0023347521 4278997154
0.025165647 0.010993294 -0.0013944143 4278997153
0.028118068 0.0074545965 0.0015620803 4279062943
0.031097196 0.0039178953 0.0045130793 4278669734
0.035344273 -0.0040231571 0.01148855 4278669989
0.04090739 -0.016365252 0.022478458 4278669989
0.048867721 -0.029288761 0.033681773 4282602599
-0.035222199 0.0052706823 0.010105611 4280833154
-0.034229022 0.011342995 0.0041874712 4278866083
-0.032672133 0.013700314 0.0017184475 4278472109
-0.02283727 0.012866057 0.0010731043 4278734504
-0.020918336 0.012996562 0.00066899043 4278668968
-0.018999275 0.013127171 0.00026491191 4278668968
-0.017222676 0.013998896 -0.00082260044 4278472363
-0.015160743 0.01338879 -0.00054304209 4278406828
-0.013241287 0.013519771 -0.00094693061 4278668713
-0.011321727 0.013650887 -0.0013507539 4278668203
-0.0029972903 0.011217661 -0.00024706963 4278927793
-0.0010665543 0.01135014 -0.00065279659 4278668713
0.00036437809 0.013700806 -0.0030938543 4278603433
0.014937576 0.010200143 -0.001872302 4278603434
0.016500823 0.01181002 -0.0036269398 4278931364
0.018625392 0.011206225 -0.0033590132 4278538153
0.020948656 0.0098653659 -0.0024192417 4278669223
0.0230866 0.0092627406 -0.0021539452 4278997153
0.025229884 0.0086605996 -0.0018896731 4278604199
0.027982565 0.0058480725 0.00038711214 4278473639
0.030960614 0.0023004115 0.0033301357 4278670243
0.035412204 -0.0064013675 0.010958099 4278867104
0.040555954 -0.017307736 0.020581212 4278801568
0.045567773 -0.027472176 0.029518727 4279784849
-0.03477345 -4.8868358e-05 0.012375859 4281029504
-0.034357663 0.0097659156 0.0030328827 4279390618
-0.032800358 0.012129761 0.00056867395 4278603433
-0.031135138 0.013748176 -0.0012062294 4278996389
-0.029101226 0.013133176 -0.00092301797 4278930854
-0.027319971 0.014006808 -0.0020103124 4278996388
-0.025148664 0.012648493 -0.0010439837 4278930854
-0.023235355 0.012778483 -0.001447021 4278603433
-0.021184821 0.012164995 -0.0011669314 4278669478
-0.019268561 0.012295403 -0.0015704213 4278407083
-0.017209757 0.011682764 -0.001291954 4278537898
-0.01529057 0.011813603 -0.0016958835 4278734249
-0.013519015 0.012687378 -0.0027805334 4278537134
-0.011752691 0.013560958 -0.0038640394 4278405809
-0.010144677 0.015176721 -0.0056259637 4278667694
-0.0082357265 0.0153073 -0.0060274084 4279519903
-0.0034509189 0.011117443 -0.0027621733 4278600374
-0.0013618879 0.01050774 -0.0024893256 4278603179
6.6768378e-05 0.012864776 -0.0049249856 4278865319
0.0014794767 0.015220851 -0.0073572011 4278734248
0.0030480213 0.016834706 -0.0091102198 4278340784
0.0051293075 0.016225003 -0.0088354163 4278340784
0.0073931031 0.014875017 -0.0078870328 4278275504
0.012500301 0.0099562109 -0.0039762268 4278996643
0.014619146 0.0093495846 -0.0037089374 4278996899
0.016179938 0.010963641 -0.0054597752 4278865828
0.018682454 0.0088777095 -0.0038492505 4278538409
0.021201028 0.0067929626 -0.0022419668 4278472874
0.025690775 0.0048451647 -0.0010476164 4278342569
0.028249403 0.0027636066 0.00055151619 4278473639
0.03123172 -0.00079465657 0.0034854431 4278671009
0.035273273 -0.0080448464 0.0097561786 4279195034
0.040414087 -0.018984072 0.019355308 4279129499
0.045211308 -0.028440811 0.027603086 4280505734
-0.034326438 -0.0053900406 0.014630272 4281029248
-0.033895124 0.0044540986 0.0053053554 4280111249
-0.032807644 0.009812668 0.00010396633 4278538408
-0.031139541 0.011435628 -0.0016683387 4278472618
-0.029229488 0.011565052 -0.0020709494 4278930853
-0.027448189 0.012440853 -0.0031566275 4278406828
-0.025672067 0.013316408 -0.0042411285 4278602668
-0.021861587 0.013575368 -0.0050437404 4278796468
-0.019816581 0.012959473 -0.0047641033 4278732974
-0.017623868 0.011598699 -0.0038052285 4278865064
-0.015855063 0.012474328 -0.0048877662 4278537898
-0.014091481 0.013349719 -0.0059691081 4278733738
-0.010732912 0.015844487 -0.0088063255 4278995878
-0.0089876913 0.016718976 -0.0098835416 4279389344
-0.0066147074 0.014616087 -0.0082518039 4278996389
-0.0018204227 0.010414012 -0.0049982602 4278406319
-0.00023043156 0.01203347 -0.0067526763 4278603433
0.0011800043 0.0143959 -0.0091795037 4278603944
0.0030892976 0.014527217 -0.0095804827 4278866084
0.0051729195 0.013915502 -0.0093078045 4278997154
0.0076158233 0.011818245 -0.0076901326 4279128223
0.010074802 0.0097222254 -0.0060757296 4279062688
0.012549829 0.0076274797 -0.0044646459 4278866083
0.014671013 0.0070188493 -0.0041994839 4278342059
0.016609941 0.0071529672 -0.0046061138 4278407594
0.018739197 0.0065450668 -0.0043424345 4278669478
0.021259721 0.0044539794 -0.0027405187 4278538918
0.023796288 0.0023640469 -0.0011418369 4278932128
0.026150571 0.0010169372 -0.00021497719 4278866593
0.028716516 -0.0010706857 0.0013777371 4278932383
0.03150212 -0.0038982108 0.0036346037 4279063963
0.035546996 -0.011169903 0.0098882029 4279195034
0.040272243 -0.020660095 0.018129632 4279063708
0.044643559 -0.028664105 0.025025129 4281553528
-0.033765789 -0.011502154 0.017553192 4281160319
-0.033316288 -0.0016285107 0.0082457475 4280635783
-0.032573808 0.0059934929 0.001002592 4278867104
-0.031267624 0.0098678321 -0.0028160745 4278604453
-0.02935772 0.0099972188 -0.0032186722 4278538409
-0.027833801 0.012372114 -0.0056657465 4278537643
-0.026062977 0.013249524 -0.0067475429 4278471344
-0.018037219 0.011523642 -0.006311846 4278602668
-0.016418438 0.013148449 -0.0080697751 4278603178
-0.014662828 0.014025524 -0.0091478406 4278996134
-0.0022781789 0.010329299 -0.0075005209 4278734504
-0.00036115944 0.010460906 -0.0079033067 4278669223
0.0015559234 0.010592632 -0.0083060181 4278538408
0.0034730807 0.010724492 -0.0087086437 4278735269
0.0053902939 0.010856502 -0.0091111874 4278735268
0.0074843206 0.010243438 -0.0088422457 4278407594
0.012599029 0.0052946955 -0.0049560457 4278276779
0.017038878 0.0033293813 -0.0037618221 4278407593
0.019365909 0.0019756407 -0.0028328244 4278735268
0.021703644 0.00062271208 -0.0019059312 4278866338
0.02424752 -0.0014732108 -0.00031369366 4278997663
0.026213046 -0.0013367534 -0.00072552823 4279063199
0.028580151 -0.0026872233 0.00019545248 4279128989
0.031161401 -0.0047802031 0.0017801281 4279128989
0.035407737 -0.012817122 0.0086835595 4279194523
0.040130414 -0.02233579 0.016904194 4279194268
0.044076584 -0.028878354 0.022453856 4282012528
-0.033552792 -0.015385576 0.01840895 4282012019
-0.032857385 -0.0069857761 0.010485 4280766854
-0.032099944 0.00065904856 0.0032550395 4280046478
-0.031272467 0.007549338 -0.0032825556 4278801568
-0.029611748 0.0091805384 -0.0050466349 4278538919
-0.028218646 0.012312494 -0.0081682773 4278340529
-0.026584301 0.01394213 -0.0099266311 4278405553
-0.025094364 0.01632151 -0.0123615 4279519903
-0.022801053 0.014199167 -0.010723558 4278536113
-0.018591683 0.012207441 -0.0094889766 4278667949
-0.016980682 0.013836056 -0.011241985 4278603178
-0.015233029 0.014714696 -0.012316719 4278799273
-0.013490628 0.015593141 -0.013390293 4278602923
-0.011753444 0.016471289 -0.01446265 4278996388
-0.0094006099 0.014353812 -0.01283662 4278407338
-0.0070316717 0.012237571 -0.011213887 4278800038
-0.0044860803 0.0093741044 -0.0089213336 4278866084
-0.002571959 0.0095053986 -0.0093236053 4278997153
-0.0004918538 0.0088886544 -0.0090537136 4278800548
0.0015936531 0.0082724616 -0.0087849023 4278408104
0.0038557984 0.0069090128 -0.007846226 4278539174
0.0061286949 0.0055463836 -0.0069096736 4278473894
0.0084123127 0.0041846633 -0.0059753149 4278801058
0.01052741 0.0035709962 -0.0057123546 4278473638
0.012829814 0.0022107735 -0.00478171 4279128733
0.014958333 0.0015982911 -0.0045213643 4278801059
0.017466746 -0.00050701946 -0.002926914 4278801059
0.019611342 -0.0011181533 -0.002669761 4278997409
0.021953883 -0.0024750382 -0.0017471933 4278997664
0.02411186 -0.003085047 -0.0014926256 4279063199
0.026275167 -0.003694497 -0.0012391047 4279063198
0.028845027 -0.0057948455 0.00034291809 4279063454
0.031837478 -0.0093851089 0.0032501603 4279456663
0.036092304 -0.017445393 0.010133759 4279456663
0.040197231 -0.024756305 0.016342092 4279390873
0.043510359 -0.029083468 0.019889202 4282733414
-0.033340853 -0.019281827 0.019255299 4282208623
-0.032400247 -0.012364574 0.012708413 4280832388
-0.031627815 -0.004696995 0.0054916721 4279980434
-0.031277601 0.0052266791 -0.0037520076 4279194268
-0.030116763 0.0098746046 -0.0082289698 4278866593
-0.025354806 0.01552856 -0.014169915 4279061668
-0.023201216 0.014151789 -0.01321285 4279192739
-0.017108712 0.012281775 -0.012379549 4278602923
-0.01536103 0.013162591 -0.013452654 4278734248
-0.013618585 0.014043197 -0.014524611 4278734504
-0.011728991 0.014172323 -0.014922087 4278865829
-0.0093741901 0.012048431 -0.013301403 4279259039
-0.0068455674 0.0091749206 -0.011011903 4279128223
-0.004776638 0.0085550323 -0.010741542 4278669479
-0.0025392361 0.0071851313 -0.0098011708 4278407594
-0.00045679882 0.0065663978 -0.0095334668 4278604199
0.0019678213 0.0044479147 -0.0079269987 4278670499
0.004066404 0.0038305447 -0.0076625026 4278801058
0.0063441135 0.0024639368 -0.006730279 4278801058
0.0082797743 0.0025973171 -0.0071366113 4278932638
0.010752667 0.00048265606 -0.0055399034 4278735779
0.012696415 0.00061684102 -0.0059477482 4279194268
0.015009005 -0.0007468611 -0.005022468 4278866594
0.017519381 -0.0028585792 -0.0034333526 4278669989
0.020045806 -0.0049690157 -0.0018474781 4279063454
0.022203421 -0.005581297 -0.0015945979 4279062944
0.024756555 -0.0076896176 -1.4199875e-05 4279062944
0.027127966 -0.0090486482 0.00089927111 4279063964
0.030111326 -0.012650512 0.0038000802 4279456919
0.032918282 -0.015502669 0.0060327919 4279194524
0.03656964 -0.02134335 0.01090934 4280963969
0.04026369 -0.027180873 0.015777014 4282209643
-0.032062341 -0.017009199 0.014237062 4280439688
-0.031157415 -0.010074668 0.007712529 4279652759
-0.030914526 0.00063376874 -0.0021909829 4280439434
-0.030244138 0.0083164126 -0.0093696574 4279129243
-0.029242385 0.013730392 -0.014506846 4278866084
-0.019272674 0.011352852 -0.013792002 4278799783
-0.017236713 0.010727808 -0.013516887 4278800039
-0.015342142 0.010857016 -0.013915605 4278800039
-0.013596978 0.011739939 -0.014986453 4278734759
-0.011704866 0.011869222 -0.01538447 4278669223
-0.0095029436 0.010492183 -0.014440262 4278341804
-0.0023439825 0.0041081756 -0.009612361 4278473384
-0.00025653467 0.0034876019 -0.0093473587 4278538918
0.0020045154 0.0021151975 -0.0084150676 4278801313
0.004105445 0.0014958233 -0.0081526954 4278801568
0.0065588541 -0.00062695891 -0.0065570083 4278604963
0.0086758994 -0.0012449995 -0.0062978473 4279063454
0.01097722 -0.0026140735 -0.0053736661 4278867104
0.01292615 -0.0024795383 -0.0057826024 4278473894
0.015059341 -0.0030960739 -0.0055265375 4278736289
0.017758567 -0.0059651881 -0.0032783882 4278736289
0.020479178 -0.0088326707 -0.0010346165 4279194523
0.023221163 -0.011698559 0.0012047673 4279456664
0.026179414 -0.015313305 0.0041024284 4279915153
0.02876923 -0.017425507 0.0056703836 4281161083
0.0315753 -0.020286553 0.0078966357 4282537064
-0.030808765 -0.014716066 0.0092407214 4280571268
-0.030430194 -0.0047339424 3.3657532e-05 4280636294
-0.029995453 0.0044862702 -0.00848311 4279915153
-0.029240597 0.011430562 -0.014960992 4278800293
-0.027618948 0.013072349 -0.016706873 4278538153
-0.025874484 0.01395674 -0.017776523 4279062178
-0.023863222 0.01332742 -0.01749808 4279062433
-0.021846499 0.012698643 -0.017220743 4278866083
-0.019400302 0.0098013803 -0.014927556 4278997153
-0.017364662 0.0091741234 -0.014654025 4278866085
-0.015176903 0.0077914074 -0.013710395 4278603944
-0.013277031 0.0079210922 -0.014110129 4278472874
-0.011073045 0.0065396801 -0.013169691 4278407339
-0.0090129562 0.0059145764 -0.012900939 4278669733
-0.0067901053 0.0045347437 -0.011964323 4279062944
-0.0047164969 0.0039107427 -0.011698198 4278735269
-0.0023121051 0.0017776042 -0.01009755 4278669989
-5.6963414e-05 0.00040031224 -0.0091673974 4279128733
0.0022088997 -0.00097608566 -0.0082394425 4278801059
0.0041441433 -0.00084299594 -0.0086458866 4278997919
0.006426163 -0.0022180602 -0.007721087 4278998174
0.0085428692 -0.0028382987 -0.0074635022 4279128989
0.010664973 -0.0034580156 -0.0072069266 4279128989
0.012792446 -0.0040772408 -0.0069513978 4278866849
0.015293371 -0.0062027946 -0.0053702244 4279325594
0.018557176 -0.011339895 -0.0011413051 4279521689
0.021669004 -0.015721314 0.0024177209 4280438924
0.024620829 -0.019347504 0.0053084493 4281356924
0.027599357 -0.022971712 0.0081936717 4282143854
-0.030581307 -0.018614776 0.010081169 4282209133
-0.029825103 -0.010882996 0.0029171156 4280571268
-0.029372375 -0.0016354769 -0.0055837836 4280308874
-0.028727856 0.0060889646 -0.012724118 4279587223
-0.027484093 0.010013737 -0.016488429 4278735269
-0.025734257 0.010900602 -0.017557535 4278997409
-0.023717988 0.0102695 -0.01728183 4278735013
-0.021557774 0.0088801906 -0.016335957 4278538409
-0.017204951 0.0061040893 -0.014450703 4278341804
-0.015158836 0.0054754317 -0.014180891 4278341804
-0.013107277 0.0048473254 -0.013912167 4278538663
-0.010898475 0.0034619272 -0.012976065 4278735268
-0.008678887 0.0020773336 -0.012042098 4278800804
-0.0066057034 0.0014510676 -0.011777652 4279128478
-0.0045270845 0.00082529336 -0.011514267 4278866594
-0.0019555502 -0.002071172 -0.0092532914 4278866593
0.00014190003 -0.0026954114 -0.0089936685 4279063198
0.0024126023 -0.0040758625 -0.0080699679 4279063198
0.0043530241 -0.0039424375 -0.0084775072 4278998429
0.0064666755 -0.004565157 -0.0082209986 4279063454
0.0087615624 -0.0059435442 -0.0073021487 4279390873
0.010888662 -0.006565094 -0.0070482665 4279653014
0.013383511 -0.0086977258 -0.0054708375 4279391128
0.016078267 -0.011584677 -0.0032349669 4279586714
0.0195405 -0.017491601 0.0016411915 4282139774
-0.029466715 -0.015534088 0.0044355392 4281553018
-0.028751384 -0.0077832267 -0.0027034273 4280832389
-0.028216857 0.00072580576 -0.010503024 4280570249
-0.027089324 0.0054238066 -0.014933463 4279325084
-0.025461752 0.007074818 -0.016674019 4278735524
-0.023437794 0.0064420179 -0.016401526 4278407338
-0.021270085 0.0050488636 -0.015460515 4278473128
-0.019091558 0.0036565065 -0.014521647 4278800803
-0.017045889 0.003025569 -0.014253516 4278669479
-0.015141081 0.0031554252 -0.014654417 4278407594
-0.012938228 0.0017651543 -0.013720427 4278866339
-0.010572944 -0.0003842786 -0.012121746 4278866339
-0.0085001737 -0.0010128766 -0.011858949 4278866338
-0.0062649995 -0.0024006516 -0.010931456 4279128734
-0.0043383613 -0.0022686645 -0.011336474 4279128733
-0.0017623715 -0.0051734746 -0.0090830345 4279194268
0.0003400892 -0.0057995841 -0.0088260612 4278801058
0.0027832538 -0.0079429001 -0.0072432337 4279390874
0.0047315247 -0.0078089237 -0.0076524196 4279915153
0.0070258453 -0.0091918632 -0.0067367805 4280569739
0.009155225 -0.0098155737 -0.0064851185 4281747584
-0.029476117 -0.017909922 0.0039270557 4282732139
-0.028631676 -0.010900982 -0.0025255745 4280832644
-0.027962524 -0.0031313822 -0.0096383337 4280439434
-0.026956197 0.0023439005 -0.014730614 4279521943
-0.025190283 0.003236182 -0.015799845 4279062944
-0.023158651 0.0026017502 -0.015530668 4278538663
-0.020845298 0.00044163316 -0.013926437 4278735268
-0.018797409 -0.00019146502 -0.013660505 4278735269
-0.016887534 -6.1377883e-05 -0.014062572 4278931874
-0.015269805 0.0015938655 -0.015797291 4278538663
-0.01306745 0.00019918382 -0.014866486 4278473128
-0.010551386 -0.0027189776 -0.012607342 4279128223
-0.0083221495 -0.0041116178 -0.011681968 4278997408
-0.0059253611 -0.0062651411 -0.010094686 4278931873
-0.0038314015 -0.0068942383 -0.009837809 4278932384
-0.0014077462 -0.0090457052 -0.0082559353 4279063198
0.00070237368 -0.0096734092 -0.0080022542 4279259294
0.0029853769 -0.01106175 -0.0070877103 4280110739
0.0051089711 -0.011688314 -0.0068366928 4281682048
-0.028637249 -0.013261043 -0.0030231881 4280897923
-0.027963784 -0.005469434 -0.010120479 4280243083
-0.026693787 -0.0015102699 -0.013865767 4279521944
-0.025052454 0.00015029311 -0.015602652 4278800803
-0.023151096 0.00027944893 -0.016003188 4278735269
-0.020835761 -0.0018870234 -0.014404327 4278472873
-0.01878554 -0.0025221333 -0.014140541 4278735014
-0.016873147 -0.0023918822 -0.01454314 4278801059
-0.015106585 -0.0014968142 -0.015610427 4278538663
-0.013048019 -0.0021309927 -0.015348123 4278866083
-0.010378875 -0.0058221295 -0.012432238 4279127969
-0.008144822 -0.0072187483 -0.011511197 4279455644
-0.0055867583 -0.010142483 -0.0092672473 4279718294
-0.0034851395 -0.010773234 -0.0090136221 4280962694
-0.0012161396 -0.012167081 -0.0080996482 4282925684
-0.029016461 -0.013320185 -0.0055267503 4281946739
-0.028219584 -0.0062752441 -0.011939796 4280177038
-0.026821729 -0.003073357 -0.015009979 4278997919
-0.025047738 -0.0021761954 -0.016077649 4279063199
-0.023143854 -0.0020468906 -0.016478732 4278276524
-0.020964321 -0.0034523383 -0.01555007 4278735269
-0.01891442 -0.004089646 -0.015287848 4278931619
-0.016859066 -0.0047265217 -0.015026655 4278997153
-0.01479828 -0.0053628609 -0.014766557 4279128223
-0.01258361 -0.0067654178 -0.013844913 4279783319
-0.010055955 -0.0097002089 -0.01160132 4279913368
-0.0076606348 -0.011867061 -0.01002363 4281288329
-0.0052492283 -0.014032625 -0.0084492443 4282991728
-0.028221156 -0.0086170733 -0.012424718 4280438924
-0.026690457 -0.0061764345 -0.01482411 4279128733
-0.025175612 -0.0037368089 -0.017220024 4278736034
-0.023136962 -0.0043773279 -0.016957277 4278931618
-0.021092843 -0.0050173402 -0.016695581 4278931619
-0.018482249 -0.0087346584 -0.013784169 4278603689
-0.016273629 -0.010142259 -0.012864671 4279324319
-0.013908666 -0.01231803 -0.011285814 4279389853
-0.011824079 -0.012954853 -0.011032239 4280306324
-0.028223019 -0.010963 -0.012912638 4282011509
-0.026818689 -0.0077432916 -0.015971098 4279652503
-0.025039311 -0.0068414509 -0.017036647 4278997154
-0.022726145 -0.0090278164 -0.015452134 4279193503
-0.02039687 -0.011212967 -0.013870931 4281027974
-0.017911401 -0.014168471 -0.011631984 4282336889
-0.02642994 -0.012408048 -0.014470912 4281551999
-0.024639871 -0.011503316 -0.015537093 4281159554
-0.022316728 -0.013695516 -0.013959594 4282011253
-0.019840252 -0.016660504 -0.011725366 4282666095
-0.0030501038 -0.023407735 -0.021205414 4282993768
-0.0052774176 -0.024341807 -0.022605225 4283124583
-0.0085318163 -0.024472654 -0.029526655 4282797929
-0.0085077174 -0.026837759 -0.030035827 4280700044
-0.0087917745 -0.027613528 -0.03182511 4281224323
-0.0090754516 -0.028384678 -0.033611007 4282732904
-0.029372517 -0.024833672 -0.035854269 4282536554
-0.031764727 -0.024096057 -0.038509652 4280700044
