# .PCD v0.7 - Point Cloud Data file format
VERSION 0.7
FIELDS x y z rgba
SIZE 4 4 4 4
TYPE F F F U
COUNT 1 1 1 1
WIDTH 971
HEIGHT 1
VIEWPOINT 0 0 0 1 0 0 0
POINTS 971
DATA ascii
0.025779113 0.019453924 0.013097744 4284056354
0.029132161 0.014032234 0.018420957 4284121634
0.032709099 0.0079210736 0.024444513 4284122143
0.035967425 0.0031969957 0.029044461 4283989798
0.038890991 -0.00014108047 0.032223769 4283790644
0.041463606 -0.0020939969 0.033985205 4283724854
0.044435531 -0.0054289065 0.037155971 4283790133
0.047045738 -0.0073794127 0.038910866 4283790133
0.049672022 -0.0093288347 0.040662967 4283724599
0.052114706 -0.010586143 0.041707605 4283789878
0.05497282 -0.013224453 0.044158708 4283855413
-0.00047282875 0.031127766 0.0010824995 4282411348
0.0015437789 0.030543877 0.0014600037 4283200573
0.0035658404 0.029960396 0.0018365905 4283858219
0.0054422952 0.030073458 0.0015006475 4283928088
0.0070113242 0.031578541 -0.00025752746 4283665438
0.0088825002 0.031691454 -0.00059239566 4283794214
0.011071965 0.030413162 0.00049314741 4283859494
0.013595879 0.027744597 0.0029962538 4283861024
0.015976846 0.025772741 0.0047863526 4283991839
0.018373976 0.023801982 0.0065735774 4283990818
0.020957183 0.021137252 0.0090662697 4284121889
0.02425229 0.015694555 0.014386305 4284055588
0.027415186 0.010949258 0.01899137 4283923753
0.030615777 0.0062063001 0.023589812 4283790898
0.033673365 0.0021600984 0.027475227 4283724344
0.036579877 -0.0011898763 0.030649096 4283658553
0.039327223 -0.0038441084 0.033112869 4283724599
0.041907325 -0.0058031045 0.034867987 4283790133
0.044694964 -0.0084547177 0.037324701 4283724599
0.047115814 -0.009717837 0.038369764 4283790134
0.049547374 -0.010980271 0.039413031 4283790133
0.051989619 -0.012241907 0.040454414 4283921204
0.054644763 -0.014195874 0.042196494 4284312628
0.00070391968 0.032523051 -0.0032411097 4281821278
0.0025640614 0.032635041 -0.0035742046 4283331388
0.0044242591 0.032747112 -0.0039072465 4283728169
0.0062845163 0.03285927 -0.0042402335 4283600414
0.0084573589 0.031575549 -0.0031551411 4283730718
0.010799985 0.029594699 -0.0013633501 4283861533
0.013320453 0.02691726 0.0011336654 4283992858
0.016355529 0.022148717 0.0057495823 4283990564
0.019261288 0.01807984 0.0096517811 4283990564
0.022369083 0.013315868 0.014254835 4284121889
0.025514593 0.0085542463 0.018851262 4284121633
0.028522661 0.0044918656 0.022735327 4283990563
0.031385213 0.0011282191 0.025908537 4283724854
0.03409417 -0.0015371852 0.028372325 4283658554
0.037007831 -0.004897546 0.031536549 4283658554
0.039390706 -0.0061675757 0.032584842 4283724089
0.041784316 -0.0074369088 0.033631325 4283724599
0.044188634 -0.0087054372 0.034675937 4283790133
0.046991598 -0.011364669 0.037123296 4283855413
0.049619377 -0.013326973 0.038865093 4284052018
0.052063871 -0.014592782 0.039902747 4284640049
0.0041618422 0.031944651 -0.0057535158 4282871879
0.0060192905 0.03205663 -0.006086011 4283465008
0.0081890151 0.03076838 -0.0050037182 4283793704
0.010687158 0.028080836 -0.0025094859 4283925539
0.013691355 0.023295186 0.0021001603 4284056354
0.017061643 0.017112516 0.0081150057 4283990563
0.020146655 0.012331884 0.012710379 4283924263
0.02343894 0.0068542734 0.018004026 4283791408
0.026257504 0.0034769587 0.021176584 4283790899
0.028928034 0.00080038235 0.023640402 4283790644
0.031620078 -0.0018747561 0.026100401 4283724853
0.033972975 -0.0031511523 0.027150609 4283789879
0.03670267 -0.0058238618 0.02960407 4283724344
0.039082415 -0.0070983991 0.030649576 4283724344
0.041472897 -0.0083722472 0.03169328 4283854904
0.043874081 -0.0096452832 0.032735109 4284051509
0.046673585 -0.012313373 0.035176396 4284378419
0.0060609318 0.029853586 -0.0065159132 4282084948
0.0085448213 0.027156431 -0.004025904 4283333683
0.011526205 0.022354152 0.00057602115 4283793449
0.01486798 0.016150184 0.0065808194 4283924518
0.018258233 0.0099492297 0.012577013 4284056353
0.021530252 0.0044529922 0.017860819 4283926303
0.024167709 0.0017655604 0.020323701 4283857964
0.026482496 0.00048229471 0.021377109 4283724854
0.028808061 -0.00080027059 0.02242871 4283724853
0.031499337 -0.003484115 0.024882145 4283790133
0.034212142 -0.0061665848 0.027331863 4283790134
0.036580719 -0.0074462667 0.028375987 4283658808
0.038774461 -0.0080246106 0.028717805 4283723833
0.040973544 -0.0086025447 0.029058743 4284116533
0.0437508 -0.01128073 0.03149724 4284443188
0.016203199 0.0082664452 0.01173843 4283330878
0.019288389 0.0034554265 0.016310245 4283791919
0.02207816 5.4530799e-05 0.019471046 4283595314
0.024217876 -0.00052981451 0.019820414 4283725108
0.026534915 -0.0018172897 0.020870063 4283789878
0.029037356 -0.0038074143 0.022618614 4283724344
0.03191058 -0.0072028562 0.025764804 4283658554
0.034810703 -0.010596596 0.028906241 4283723323
0.036824185 -0.010474168 0.028546628 4283918908
0.019825175 -0.0009498857 0.017917596 4283594548
0.022125615 -0.0022429042 0.018966775 4283660083
0.02443682 -0.0035351478 0.020014051 4283790389
0.026758809 -0.0048266836 0.021059517 4283855924
0.029614959 -0.0082340911 0.024200294 4283790133
0.032498017 -0.011639759 0.027336355 4283723579
0.035587817 -0.015748926 0.031165775 4283788859
0.020033622 -0.003955625 0.018113367 4283264833
0.02233899 -0.0052526556 0.019158255 4283791154
0.024992984 -0.0079650432 0.021598082 4283855668
0.027496904 -0.0099681541 0.02333625 4283921204
0.030365577 -0.013385616 0.026466429 4284247604
0.033084158 -0.016093791 0.02889495 4284573494
0.020241432 -0.0069697499 0.018302709 4283264833
0.022717811 -0.0089812204 0.020040616 4283856433
0.025547866 -0.012412041 0.023169171 4283921459
0.028233388 -0.015131079 0.025596745 4283920183
0.03094044 -0.017848708 0.028020557 4284248113
0.017662603 -0.0065478161 0.015357827 4282607698
0.020285418 -0.0092796162 0.017789677 4283330878
0.023095679 -0.012722552 0.020913318 4283659828
0.025764283 -0.015451364 0.023337148 4283920694
0.028625695 -0.018890999 0.026451807 4284312119
0.048050277 -0.029994242 0.035311434 4284507958
0.053242285 -0.041240364 0.045987848 4284573749
0.017864726 -0.0095682219 0.01554359 4282936394
0.020492144 -0.012308389 0.017967932 4283657789
0.023141108 -0.015047155 0.02038848 4283984953
0.044530891 -0.026793756 0.029591259 4284311099
0.048117086 -0.032373711 0.034739308 4283264579
0.053504363 -0.044367343 0.046077605 4283199808
0.018226426 -0.013314299 0.016416278 4283131724
0.020698242 -0.015345573 0.018139813 4283919164
0.044785924 -0.02987548 0.029717635 4283983933
0.048183583 -0.034757257 0.034164179 4282479178
0.053375438 -0.046072513 0.044787046 4282544459
0.040007941 -0.029626623 0.027135078 4283068230
0.042610891 -0.031655468 0.028830912 4282544459
0.045229949 -0.033683255 0.030523989 4282282574
0.048442062 -0.037862271 0.034271758 4282151504
0.053246513 -0.047777392 0.043496717 4282151248
0.039883822 -0.031274743 0.02588759 4282478923
0.04248615 -0.033310108 0.02757851 4282217293
0.045483515 -0.036783934 0.030636024 4282086479
0.049084216 -0.042414881 0.035741407 4282086479
0.053897001 -0.05235976 0.04494147 4282151504
0.034604613 -0.028835498 0.021259788 4282609484
0.037174113 -0.030879579 0.02295145 4282414409
0.039943643 -0.033644848 0.025324289 4282152268
0.042734656 -0.036408693 0.027693387 4282086988
0.045736447 -0.039893053 0.030741747 4282152779
0.049725071 -0.046984568 0.037198145 4282283083
0.032104719 -0.029143281 0.019016817 4282545223
0.034481775 -0.030470006 0.020022545 4282218059
0.036869574 -0.031796016 0.021026477 4282087244
0.039635625 -0.03457012 0.023393266 4281956429
0.043168955 -0.040239893 0.028483722 4282021454
0.046934433 -0.04663109 0.034248017 4282152269
0.051131949 -0.054467157 0.041365582 4282282828
0.029616505 -0.02944126 0.016778719 4283265598
0.032333415 -0.03222733 0.019147329 4282152524
0.034893613 -0.034285046 0.020830538 4281891404
0.037469923 -0.036341675 0.022510957 4281955663
0.040613137 -0.040577032 0.026230659 4281956174
0.044906322 -0.049169004 0.034026016 4282152269
0.048697077 -0.055578083 0.03977076 4282020434
0.029494632 -0.031066485 0.015548446 4283134528
0.032386117 -0.03459049 0.018591017 4282152524
0.035126425 -0.037383668 0.02094885 4282152269
0.038249727 -0.041633353 0.024662036 4282020943
0.042139012 -0.04879605 0.031085767 4282217804
0.046640426 -0.058141246 0.039535731 4282282318
0.027018616 -0.031350084 0.013318797 4284507959
0.029545302 -0.033423029 0.014997781 4283134018
0.031912901 -0.034763388 0.015995093 4282152268
0.035358615 -0.040490694 0.021060873 4282086733
0.039569654 -0.049139731 0.028830606 4282086733
0.043845225 -0.057784751 0.036588959 4282086989
0.027066909 -0.033704288 0.012770404 4283854138
0.029423302 -0.035049804 0.013766333 4282741828
0.031965472 -0.037128113 0.015437591 4282085969
0.035590153 -0.043606058 0.021166522 4281823063
0.040165316 -0.053747378 0.030268162 4281823319
0.026945401 -0.035326391 0.011542459 4283657278
0.02947351 -0.037412204 0.013211169 4282741318
0.031842858 -0.038761072 0.014201497 4281561434
0.024312582 -0.034854852 0.0086481581 4284639028
0.026654577 -0.036209948 0.0096398378 4283264834
0.029179363 -0.038302414 0.011304145 4281559648
0.00060384348 -0.025299452 -0.0081494609 4284638774
-0.0036594383 -0.025593318 -0.0099838143 4283460164
-0.0015882999 -0.026228495 -0.0096583059 4283200063
0.00062726438 -0.027614139 -0.0086616566 4284246838
-0.0055782273 -0.028021708 -0.010145723 4282936904
-0.0036408976 -0.027905814 -0.010493211 4282414153
-0.0014312677 -0.029296272 -0.0094989529 4282873919
0.00065039098 -0.029932864 -0.009176909 4284377399
-0.012361687 -0.024636246 -0.014986158 4284639028
-0.010193191 -0.026033908 -0.013988261 4283462714
-0.0080138482 -0.02743084 -0.012992174 4282349383
-0.0056930929 -0.029582672 -0.011327851 4282153544
-0.0037559122 -0.0294668 -0.01167532 4281957194
-0.0014107972 -0.031616993 -0.010015148 4283005499
0.00081187859 -0.033010803 -0.0090265013 4284377144
-0.014751829 -0.024020381 -0.017823597 4284575279
-0.012352616 -0.026940055 -0.015486696 4283267893
-0.01005685 -0.029100135 -0.013823037 4282221373
-0.0077448636 -0.031259082 -0.012162237 4282220100
-0.0055470802 -0.032659121 -0.011172715 4282219079
-0.0036046766 -0.032542937 -0.011521126 4282022474
-0.0015264004 -0.033184178 -0.011201925 4283135038
0.00069579855 -0.034582362 -0.010216553 4284442423
-0.014386393 -0.028601743 -0.01631375 4284511018
-0.012221616 -0.030008391 -0.015321973 4282155329
-0.010045987 -0.031414323 -0.014332007 4281762373
-0.0077319294 -0.03357967 -0.012676552 4281567299
-0.0056621991 -0.03422381 -0.012357675 4282022473
-0.0038528815 -0.033347793 -0.013372451 4281956429
-0.0015063435 -0.035510778 -0.01172258 4282936394
-0.018909663 -0.02656129 -0.02013623 4284115259
-0.0165364 -0.029500015 -0.017808206 4282938433
-0.014380246 -0.030911587 -0.016818296 4282218823
-0.012213249 -0.032322481 -0.015830224 4281891659
-0.0099106729 -0.034495048 -0.014177851 4281956939
-0.0077192895 -0.035904229 -0.013193958 4281631304
-0.0055170804 -0.037312597 -0.012211964 4281304139
-0.003569603 -0.037196144 -0.012561306 4281563728
-0.021261498 -0.025913849 -0.022957888 4284116024
-0.018907934 -0.028862469 -0.020633083 4282807619
-0.016416237 -0.032574847 -0.017646061 4282153544
-0.014255188 -0.03399051 -0.016660346 4281891913
-0.012083285 -0.03540536 -0.015676528 4281890893
-0.010149665 -0.035290085 -0.016023658 4281890893
-0.0080887005 -0.035939224 -0.015706666 4281695053
-0.0058923252 -0.037352301 -0.014726918 4281041489
-0.0036851242 -0.038764566 -0.013749056 4280580958
-0.025696866 -0.023828045 -0.026765108 4284378164
-0.023379236 -0.026787654 -0.024440695 4283071034
-0.021150969 -0.028978236 -0.022785407 4282349639
-0.018792801 -0.031935193 -0.020468093 4281956429
-0.016645752 -0.033356078 -0.019483335 4281825614
-0.01436881 -0.035543419 -0.017836524 4281629009
-0.012197368 -0.036962606 -0.016855955 4281628499
-0.010263905 -0.036847368 -0.017203078 4281563219
-0.0080761462 -0.0382654 -0.016225215 4281563219
-0.025807209 -0.025345951 -0.027914938 4282808128
-0.023598485 -0.027544275 -0.026261225 4281891913
-0.021262698 -0.030511312 -0.023946662 4281695053
-0.019018821 -0.032707281 -0.022299141 4281891404
-0.016758725 -0.034902193 -0.020654397 4281760334
-0.014601283 -0.036326662 -0.019674752 4281629008
-0.012432981 -0.037750408 -0.018696927 4281497174
-0.010253854 -0.039173342 -0.017720997 4281431383
-0.029685415 -0.027086385 -0.028386712 4283921459
-0.027698919 -0.02774749 -0.028062169 4282546498
-0.025706902 -0.0284082 -0.027738489 4281826123
-0.023493432 -0.03061264 -0.02609067 4281564493
-0.02137439 -0.032044105 -0.025107708 4281565258
-0.019244492 -0.033474781 -0.024126649 4281696328
-0.017103724 -0.034904711 -0.0231474 4281695308
-0.014952123 -0.036333837 -0.022170046 4281628499
-0.031387717 -0.031039707 -0.027208656 4284573748
-0.029595837 -0.030153252 -0.02821143 4282285634
-0.027809195 -0.029266983 -0.029213242 4282089028
-0.025712349 -0.030704305 -0.028229799 4282153288
-0.023604624 -0.032140814 -0.027248252 4281957449
-0.021265008 -0.035124876 -0.024947725 4281891913
-0.019356608 -0.035011627 -0.025290735 4281631049
-0.017216302 -0.036445908 -0.024314746 4281434189
-0.015065163 -0.037879385 -0.023340655 4280842844
-0.031013295 -0.036448635 -0.025056837 4283202359
-0.029706106 -0.031674601 -0.029363938 4281958469
-0.027714834 -0.032339752 -0.0290436 4281892423
-0.02561307 -0.033781052 -0.028064426 4282088263
-0.02317743 -0.037550978 -0.025109299 4281892168
-0.021045886 -0.038990326 -0.024135258 4281826123
-0.0192426 -0.038100488 -0.025137983 4281298529
-0.029517934 -0.035532922 -0.028539039 4282087753
-0.027621076 -0.035420857 -0.028880358 4281826888
-0.025409557 -0.037644967 -0.02724725 4281891913
-0.022966795 -0.041425236 -0.024301736 4281826889
-0.02093786 -0.042089984 -0.023989582 4281759314
-0.028834127 -0.043310218 -0.024436513 4283000398
-0.027017936 -0.04241582 -0.025438618 4282022729
-0.024788253 -0.044645287 -0.023813829 4282153544
-0.02254235 -0.046873726 -0.022191815 4281957194
-0.014127627 0.029235518 0.012975137 4282798439
-0.012983359 0.033496141 0.0083074654 4278800038
-0.011107415 0.033608511 0.0079711033 4279128989
-0.016251117 0.028286384 0.011435323 4279389343
-0.013841905 0.036139883 0.0028404342 4278404023
-0.0073347539 0.031623811 0.0068682274 4280506244
-0.018368505 0.027342321 0.0098980637 4279193759
-0.015933767 0.035220958 0.0013168668 4279061414
-0.014325581 0.036723241 -0.00045238715 4279389854
-0.012220077 0.035443231 0.00065085106 4278667948
-0.0099740289 0.033468731 0.0024692761 4278864808
-0.0075793453 0.030800169 0.005001544 4278932129
-0.0054331347 0.029522846 0.0060976734 4279391894
-0.022694856 0.028386714 0.0065447344 4279127714
-0.021046638 0.029895334 0.0047714291 4278734248
-0.019409053 0.031403437 0.0030000424 4278799784
-0.014559984 0.035924338 -0.0023022266 4278470069
-0.0079557747 0.030678382 0.0024233293 4278537644
-0.0058153756 0.029396391 0.003517082 4278473638
-0.0040768906 0.030205959 0.0024668537 4278671008
-0.0022034124 0.030318512 0.0021311874 4280508028
-0.026765518 0.028049676 0.0046335822 4281683833
-0.025435537 0.031665452 0.00070940703 4278273974
-0.023800708 0.03317754 -0.0010582739 4278404789
-0.021950066 0.033287894 -0.0013904897 4278667949
-0.019983381 0.032697923 -0.0010064272 4278341293
-0.018366933 0.034209102 -0.0027705869 4278406828
-0.0081994683 0.029866137 0.00056518614 4278996388
-0.0063316673 0.029978162 0.00023039244 4278276523
-0.0047386251 0.031488512 -0.0015291255 4278538919
-0.0030161403 0.032299355 -0.0025747567 4278473383
-0.0012989566 0.033109959 -0.0036193784 4279391128
-0.028949559 0.027834171 0.0023906725 4282733414
-0.026191451 0.034383606 -0.0047232746 4278468538
-0.020324893 0.032604832 -0.0035703136 4278733738
-0.018595159 0.033417594 -0.0046160915 4278668969
-0.016749576 0.033527844 -0.0049472465 4278537643
-0.014780052 0.032936104 -0.0045651966 4278799783
-0.012805015 0.032344762 -0.0041840794 4278865318
-0.010566086 0.030350246 -0.0023794612 4278799784
-0.0085746795 0.029760055 -0.0020011486 4278537388
-0.006846942 0.030573187 -0.0030461932 4278602668
0.002156388 0.032533444 -0.0061298194 4280373644
-0.03112179 0.027628379 0.00015268847 4278668968
-0.030081026 0.033383302 -0.0059041474 4278995878
-0.028558984 0.035608746 -0.0083787516 4278537134
-0.026730374 0.035717562 -0.0087071871 4278603178
-0.022508219 0.032410793 -0.0057966951 4278536369
-0.020434536 0.031111181 -0.0047015268 4278340274
-0.018704757 0.031926062 -0.0057456745 4278537898
-0.016859278 0.032036286 -0.0060768258 4278603433
-0.015013658 0.03214661 -0.0064079305 4278472618
-0.013041582 0.031552911 -0.0060279714 4278668968
-0.011064008 0.030959614 -0.005648938 4278472363
-0.009080939 0.030366739 -0.0052708206 4278602669
-0.0061952285 0.034810007 -0.010190114 4278929833
-0.0044968575 0.035623692 -0.011228104 4279127204
-0.0023763143 0.034327716 -0.010140697 4278995880
4.5429915e-05 0.03162647 -0.0076398263 4278471599
0.0020451508 0.031035107 -0.0072642979 4278932129
0.0038997605 0.031146822 -0.0075963526 4279722374
-0.035040244 0.026614286 -0.0010323385 4281224323
-0.033475369 0.028848482 -0.0035098381 4278931109
-0.031926408 0.031081818 -0.0059844069 4278602923
-0.027267963 0.037069097 -0.012677716 4278602923
-0.025119916 0.03505557 -0.01086738 4278274229
-0.020774961 0.031031597 -0.0072551975 4278799273
-0.01893241 0.031141538 -0.0075859074 4278734504
-0.017089717 0.031251583 -0.0079165678 4278603433
-0.015246905 0.031361699 -0.0082472004 4278537898
-0.013403967 0.031471923 -0.008577778 4278603433
-0.011689786 0.032288402 -0.0096172495 4278537898
-0.0098493174 0.032398649 -0.0099472515 4278799273
-0.0048858859 0.035551876 -0.013764876 4278667439
-0.002771154 0.034251165 -0.012679743 4278274994
0.0043900646 0.026829328 -0.0059104655 4278538153
0.0065615736 0.025532385 -0.0048352284 4278801313
0.0095228255 0.020713639 -0.00024150591 4279262099
-0.039299943 0.028448809 -0.0050736712 4281684343
-0.037914507 0.032110579 -0.0089748427 4279716509
-0.036086984 0.032218855 -0.0093034487 4278799783
-0.034355715 0.033037446 -0.010345066 4278931363
-0.032530494 0.033145756 -0.010673128 4278472108
-0.020884186 0.029542781 -0.0083827637 4278865319
-0.019277655 0.031070612 -0.010131874 4278930343
-0.017681733 0.032597862 -0.01187896 4278603434
-0.015973121 0.033415973 -0.012915914 4278865064
-0.014017709 0.032816857 -0.012536307 4279061669
-0.012056813 0.032218195 -0.012157664 4278865318
-0.010221835 0.032328084 -0.012486703 4278472363
0.0022654347 0.025917623 -0.0074210493 4278799783
0.0047288686 0.02320173 -0.0049409261 4278472363
0.00736681 0.019780371 -0.0017616954 4278472873
0.01034297 0.01494737 0.0028176298 4278408104
0.013673492 0.008703649 0.0087942043 4279129753
-0.041505143 0.028990922 -0.0080099311 4282207603
-0.040290281 0.034089476 -0.013329569 4278535349
-0.038567379 0.03490955 -0.014368154 4278469303
-0.034655742 0.032986969 -0.012885334 4278667439
-0.032737046 0.032382667 -0.012501532 4278406573
-0.031016111 0.033202939 -0.013539518 4278668969
-0.029300399 0.034022972 -0.014576511 4278734503
-0.02758988 0.034842838 -0.015612531 4278735014
-0.025445692 0.032815985 -0.013811561 4278799783
-0.023397632 0.031501681 -0.01272198 4278602923
-0.021338671 0.030188061 -0.011634251 4278602923
-0.019622192 0.031008568 -0.012671046 4278602668
-0.010462422 0.031556156 -0.014314272 4278472108
-0.0087640882 0.03237614 -0.015347457 4278930854
-0.0070710294 0.033195861 -0.016379576 4278864808
-0.0052439459 0.03330553 -0.016707003 4279127459
-0.0029907636 0.031286247 -0.014924772 4278996389
-0.00043196604 0.027849022 -0.011739959 4278930343
0.0025959872 0.022285447 -0.0064531919 4279127204
0.0053668879 0.018142961 -0.002577601 4278668969
0.0083229169 0.013293494 0.0019935248 4278538409
0.011161212 0.0091552138 0.0058572395 4278867359
0.014189988 0.0043103285 0.010415497 4280374919
-0.043527402 0.028116686 -0.0095146187 4278800294
-0.042210259 0.03251607 -0.014113985 4278864554
-0.040749013 0.035483494 -0.017285097 4278601904
-0.039036818 0.03630504 -0.018320123 4278863789
-0.034955092 0.032945462 -0.015418889 4278799020
-0.032943211 0.031624179 -0.014326464 4278602923
-0.031224914 0.032446414 -0.015362334 4278799783
-0.029303446 0.03184025 -0.014980597 4278603689
-0.0275902 0.032662366 -0.016015423 4278603689
-0.025443904 0.030629177 -0.014219907 4278669224
-0.023505837 0.030024258 -0.013840957 4278668969
-0.021562241 0.029419705 -0.01346289 4278668458
-0.020083681 0.031668816 -0.015909372 4278405554
-0.018861778 0.035343297 -0.019763725 4278273464
-0.017174572 0.036164377 -0.020793475 4278798253
-0.010571562 0.030076327 -0.0154349 4278602923
-0.0088731796 0.030898469 -0.016466426 4278603433
-0.0070436038 0.031008178 -0.016794385 4278537898
-0.0049356334 0.029693933 -0.015718199 4278800549
-0.002391275 0.026244914 -0.012539256 4278669224
0.00018005446 0.022797622 -0.0093650641 4279128478
0.003220059 0.017217457 -0.0040938552 4279062943
0.006153252 0.012351371 0.00046956446 4279194523
0.0091241859 0.00748761 0.0050263414 4279587989
0.011666927 0.0047593452 0.0074789962 4279915918
0.014389236 0.0013216026 0.010626505 4281030524
-0.047369726 0.027139919 -0.010688015 4281619064
-0.041030593 0.035460666 -0.019808128 4278799273
-0.039323717 0.036284022 -0.020840555 4278733738
-0.037435465 0.035673365 -0.020454802 4278470834
-0.033149011 0.03087029 -0.016147923 4278602923
-0.031230658 0.03026166 -0.015767392 4278537898
-0.029410809 0.030369706 -0.016094444 4278472618
-0.027697504 0.031193953 -0.017127629 4278341548
-0.025770605 0.03058609 -0.016748438 4278668968
-0.023950279 0.030694418 -0.017075375 4278603434
-0.022129811 0.03080285 -0.017402269 4278864808
-0.019089304 0.034596533 -0.021574764 4278732463
-0.01752761 0.036134772 -0.023305703 4279127203
-0.015474364 0.034812458 -0.022223409 4278865319
-0.013025552 0.031346437 -0.019036066 4278733994
-0.0088486113 0.028706515 -0.016883818 4278669223
-0.0067438558 0.027387695 -0.015810527 4278735013
-0.0040722676 0.02321288 -0.011937542 4278866338
-0.0013683103 0.019040063 -0.0080702435 4278538918
0.0013680086 0.014869325 -0.0042087119 4278341804
0.0041366816 0.010700621 -0.00035290886 4278604199
0.006787952 0.0072475038 0.0027987361 4279063198
0.0094661787 0.0037960932 0.0059456164 4279915918
0.012016229 0.0010596067 0.0083902543 4280112779
0.014745682 -0.0023885146 0.01152813 4281031034
-0.049822584 0.030597301 -0.01645004 4280504969
-0.048169494 0.032143816 -0.018195193 4278800549
-0.04644724 0.032969888 -0.019228987 4278538154
-0.035455897 0.032170258 -0.019759174 4278274739
-0.033354431 0.030121025 -0.017965959 4278864808
-0.031641394 0.030947216 -0.018997582 4278734504
-0.029933594 0.031773183 -0.020028193 4278537898
-0.028337561 0.033317223 -0.021762386 4278864808
-0.026315123 0.031988204 -0.020678338 4278799273
-0.02439373 0.031377912 -0.020299781 4278668713
-0.022581436 0.031485826 -0.020625234 4278537898
-0.011051252 0.028551163 -0.019075977 4278668968
-0.0085574165 0.025077187 -0.015904952 4278930854
-0.0059004389 0.020888366 -0.012039432 4279127459
-0.0029334389 0.015268937 -0.0067822142 4278931618
-6.4820051e-05 0.010368332 -0.0022308612 4278997408
0.0024088882 0.0076182038 0.00022045244 4278276524
0.0049041882 0.0048694611 0.0026679644 4278407848
0.0071218796 0.0035535693 0.0037180353 4278735523
0.0096549653 0.00080730766 0.0061589396 4279128989
0.012209628 -0.0019375607 0.0085960524 4279850638
0.014943525 -0.0053962283 0.01172476 4281228914
-0.053954139 0.033259954 -0.021163842 4278929323
-0.052378118 0.03553278 -0.023613963 4278404533
-0.050447173 0.034192942 -0.022517709 4278470068
-0.048582107 0.033575989 -0.022131519 4278405554
-0.04679101 0.033681527 -0.022454029 4278603178
-0.045081921 0.03450907 -0.023483787 4278799784
-0.04337801 0.035336338 -0.024512518 4278602669
-0.039805166 0.035547405 -0.025155421 4278405809
-0.03773956 0.033489317 -0.023360893 4278405809
-0.035657659 0.031432319 -0.021569271 4278734249
-0.033756137 0.030818177 -0.021189135 4278864808
-0.032152168 0.03236682 -0.022921558 4278799273
-0.023032054 0.03218209 -0.023838134 4278537898
-0.021462128 0.033729196 -0.025563993 4278537898
-0.020022668 0.035995446 -0.027988374 4278799273
-0.018231615 0.03610234 -0.028309822 4278668714
-0.016315214 0.035489969 -0.027931672 4278865573
-0.013625853 0.030563042 -0.023360318 4278733993
-0.011029337 0.026357466 -0.019494198 4278669224
-0.0080005601 0.019997366 -0.013539605 4278538153
-0.0050592497 0.014358938 -0.008291211 4278735013
-0.0020748079 0.0087232031 -0.003050467 4279062688
0.0005286634 0.0052452534 9.2742033e-05 4279129498
0.0028709993 0.0032054037 0.001838943 4279325338
0.005082801 0.0018847212 0.0028866353 4278735779
0.0073054209 0.00056478381 0.0039324667 4279456664
0.0096909925 -0.001472149 0.0056711687 4279260313
0.012557209 -0.0056606382 0.0094896434 4279456663
0.015455756 -0.0098471269 0.013302452 4281360749
-0.055980422 0.033157349 -0.023354981 4280373133
-0.052767277 0.036990475 -0.027535904 4278338998
-0.047054403 0.033682257 -0.024963006 4279192229
-0.045268573 0.033787519 -0.02528454 4278603434
-0.043652035 0.035340652 -0.027016249 4278668714
-0.041871183 0.03544578 -0.027336758 4278799528
-0.040000029 0.03482743 -0.026953101 4278865319
-0.037937686 0.032762632 -0.025163027 4278668969
-0.03595455 0.031422175 -0.024079032 4278668713
-0.034156859 0.031528644 -0.024402305 4278537388
-0.02336736 0.032169458 -0.026341151 4278799783
-0.021685593 0.032998577 -0.027363449 4278472363
-0.020009078 0.033827484 -0.028384726 4278800038
-0.018093094 0.033212855 -0.028008308 4278735014
-0.015671328 0.029712629 -0.024841331 4278801313
-0.012967065 0.024771441 -0.020284371 4278604708
-0.010225032 0.019832566 -0.015734069 4278932128
-0.0071789846 0.01345402 -0.0097976495 4279586713
-0.004220251 0.0077993236 -0.0045657796 4279586714
-0.0014954135 0.0035887361 -0.00073249452 4280045968
0.00083816797 0.0015417747 0.0010101711 4279718804
0.0031879656 -0.00050407648 0.0027499674 4279587733
0.005407393 -0.001828678 0.0037929825 4279587989
0.0076376349 -0.0031524859 0.0048340978 4279260568
0.010334596 -0.0066352338 0.0079524992 4279522453
0.012903858 -0.0093965307 0.010373608 4280045968
0.015809368 -0.013595529 0.014175086 4281159809
-0.059169374 0.02568532 -0.018142268 4281226108
-0.057805501 0.03088248 -0.023419224 4278537899
-0.056413174 0.035350323 -0.027982499 4278864809
-0.054710403 0.036181293 -0.029008102 4279258273
-0.053155109 0.038465776 -0.03144452 4278865318
-0.051172622 0.036389187 -0.029645558 4278537389
-0.049250335 0.0350402 -0.028554436 4278667694
-0.047237888 0.032965522 -0.02676075 4278405809
-0.045454845 0.033070575 -0.02708181 4278930344
-0.043671601 0.033175718 -0.027402844 4278799528
-0.041975431 0.034006879 -0.028426819 4278341038
-0.040104546 0.033386316 -0.028044812 4278603178
-0.03832075 0.033491753 -0.02836575 4278537898
-0.0363461 0.032146439 -0.027283598 4278472363
-0.034752615 0.033702902 -0.029007524 4278405809
-0.033169717 0.035258852 -0.030729465 4278602414
-0.031700805 0.037539233 -0.033149563 4278996389
-0.029929616 0.037644356 -0.033467896 4278603689
-0.027831942 0.035575666 -0.031688813 4278340528
-0.025383629 0.031334624 -0.027816702 4278865063
-0.023587808 0.03144148 -0.028139248 4278602923
-0.02179186 0.03154844 -0.028461751 4278603434
-0.019756727 0.030207524 -0.027389843 4278603943
-0.017221853 0.025971953 -0.023532953 4278866084
-0.014654592 0.021738455 -0.019681841 4278866339
-0.011927355 0.016783498 -0.015140724 4278407339
-0.0091623664 0.011830844 -0.010606269 4278604199
-0.0064925961 0.007603772 -0.0067733196 4279521943
-0.003926117 0.0041017681 -0.0036403742 4279914898
-0.001332663 0.0006014742 -0.00051219389 4280177040
0.00086465478 -0.00072900951 0.00053125992 4279980944
0.0033602715 -0.003503792 0.0029585483 4279784338
0.0055846237 -0.0048324019 0.0039972765 4279719059
0.0081180334 -0.0076047182 0.0064179441 4279522454
0.010824814 -0.011097692 0.0095262183 4279587734
0.013404064 -0.013867028 0.011938849 4280635019
-0.060964279 0.022660106 -0.017509568 4282602343
-0.059756324 0.030062681 -0.024897903 4279128478
-0.05834996 0.034544192 -0.029453769 4278537898
-0.053328596 0.03777159 -0.033227067 4278864299
-0.047420986 0.032253362 -0.028555032 4278537134
-0.045640729 0.032358214 -0.028875623 4278799529
-0.044029146 0.03391967 -0.030599847 4278537643
-0.042340994 0.034752466 -0.031620741 4278537898
-0.040568225 0.034857132 -0.031939786 4278537898
-0.038610302 0.033506341 -0.030858021 4278668969
-0.036736615 0.032883927 -0.030478079 4278537898
-0.035150997 0.034444265 -0.032197315 4278602669
-0.030139871 0.036941074 -0.035249185 4278799018
-0.028154105 0.035592511 -0.034172058 4278406064
-0.023807891 0.030718075 -0.029933885 4278668969
-0.021664724 0.02864589 -0.028167848 4278865574
-0.019027807 0.023670062 -0.023622423 4278866084
-0.01623106 0.017970581 -0.018388659 4278931874
-0.013391197 0.012273826 -0.013162594 4278407339
-0.0082326494 0.0045158416 -0.0062014582 4278473384
-0.0060737133 0.0031784549 -0.0051547615 4279652760
-0.0039039142 0.0018418357 -0.00410992 4279980434
-0.0015850775 -0.00021911785 -0.0023747515 4279850384
0.0010317452 -0.0037287176 0.00074095 4279718803
0.0036755353 -0.0072366074 0.0038518971 4279784338
0.0060537681 -0.009293668 0.0055766692 4279980688
0.0087461136 -0.012798429 0.0086790798 4280766853
-0.061011702 0.020464152 -0.017913811 4281946229
-0.059799626 0.027888557 -0.025286261 4279062944
-0.058389738 0.032383189 -0.029832762 4278931618
-0.056815371 0.034681521 -0.032262769 4278340784
-0.047524795 0.030815074 -0.029644713 4278733738
-0.045826226 0.031650454 -0.03066596 4278733738
-0.044301428 0.033946425 -0.033086605 4278864808
-0.042792514 0.036241561 -0.035504311 4278864554
-0.040940948 0.035615474 -0.035122219 4278667948
-0.038991503 0.034259833 -0.034042299 4279061413
-0.037126154 0.03363473 -0.033662561 4278734248
-0.035548382 0.035198852 -0.035377014 4278406828
-0.026040137 0.03135046 -0.032794181 4278472364
-0.023686141 0.027813351 -0.029640455 4278996389
-0.021072082 0.022820909 -0.025102733 4278735013
-0.018301055 0.017102536 -0.019877862 4279062688
-0.015364997 0.010658626 -0.013967201 4278931618
-0.0082152113 0.0022602566 -0.0066665616 4278932383
-0.0060540289 0.00091867149 -0.00562362 4279522198
-0.0038819872 -0.00042220205 -0.0045825043 4279653523
-0.0014230385 -0.0032167286 -0.0021622228 4279784338
0.0011982247 -0.0067368746 0.00094431732 4279980943
0.0039898753 -0.010982193 0.0047356458 4280242574
0.0065216683 -0.013772011 0.0071431315 4281290368
0.0090750419 -0.016560443 0.0095468191 4282533239
-0.059483357 0.021306366 -0.021460339 4278800549
-0.058116511 0.026548935 -0.026702825 4279062688
-0.056656338 0.030322002 -0.030534651 4278669223
-0.05522278 0.034093596 -0.034361608 4278996644
-0.053603746 0.035663597 -0.03608083 4279061923
-0.051775083 0.035033464 -0.035696704 4278996134
-0.049712665 0.032204583 -0.03321353 4278734249
-0.047786057 0.030842857 -0.032133237 4278864808
-0.046092816 0.03168004 -0.033151884 4278602668
-0.037324958 0.032934904 -0.035443753 4278929834
-0.035749666 0.034503229 -0.037154477 4278406828
-0.034084722 0.035339363 -0.038167547 4278865319
-0.032116234 0.033980846 -0.03709415 4278537898
-0.030242458 0.033354424 -0.036717333 4278538408
-0.028038256 0.030534955 -0.034258865 4278538663
-0.025701448 0.026985886 -0.031110518 4279062433
-0.022996575 0.021246035 -0.025887262 4279062688
-0.020248584 0.01550889 -0.020671718 4278735013
-0.017338403 0.0090438686 -0.014771558 4278865829
-0.014744908 0.0047728568 -0.01095533 4279260568
-0.012492329 0.0026944764 -0.0092187729 4279326358
-0.010223504 0.00061713532 -0.0074850009 4278998683
-0.0080682449 -0.00072923303 -0.0064444286 4278736033
-0.0057696402 -0.0028045923 -0.0047158436 4278605219
-0.003589984 -0.0041493028 -0.0036794851 4279391383
-0.0011237375 -0.0069520399 -0.0012672031 4279653269
0.0016452298 -0.01121185 0.0025181016 4280112013
0.0043032914 -0.014740504 0.0056097573 4281355904
-0.059109382 0.013957914 -0.016956002 4280242319
-0.05772011 0.019216858 -0.022190876 4279127968
-0.05643332 0.025209542 -0.028119221 4278538409
-0.055053517 0.029728407 -0.032640189 4278930853
-0.053635173 0.033509944 -0.036456022 4278799528
-0.051804088 0.032877758 -0.036074031 4278537643
-0.049967431 0.032245986 -0.035692975 4278734504
-0.047968023 0.030144481 -0.03391711 4278602668
-0.044927858 0.034761541 -0.038736761 4278471344
-0.041504703 0.035703056 -0.040065035 4278602669
-0.037428677 0.031505585 -0.036526512 4278799019
-0.035950571 0.03381215 -0.038928423 4278668458
-0.034188204 0.033916466 -0.039245393 4278407083
-0.03222014 0.032553576 -0.038175281 4278735014
-0.03003028 0.029724514 -0.035721004 4278734504
-0.027710631 0.026163509 -0.032578021 4278865318
-0.025031477 0.020404782 -0.027363647 4278735014
-0.022309206 0.014648661 -0.022156913 4278473129
-0.019659974 0.0096280463 -0.017648928 4278997664
-0.017210782 0.0060751401 -0.014528912 4279128733
-0.01485616 0.0032564364 -0.012103798 4279325593
-0.012604192 0.001171533 -0.010372153 4279653523
-0.010335971 -0.00091234967 -0.0086433068 4279850385
-0.0081811659 -0.0022630841 -0.0076060076 4279457174
-0.0056185052 -0.0058087073 -0.0045059612 4279260058
-0.0031638704 -0.0086209029 -0.0020983769 4279325338
-0.00041221827 -0.012894824 0.0016799178 4280308363
0.0020909719 -0.015703827 0.0040789312 4281945465
-0.058797501 0.0073133968 -0.013177407 4280439178
-0.05738844 0.012588523 -0.018404141 4279390619
-0.056016713 0.017861605 -0.023624115 4279063453
-0.054750033 0.02387042 -0.029535443 4278604198
-0.053385302 0.028401388 -0.034043636 4278866083
-0.051906407 0.031455502 -0.037151638 4278865318
-0.050221525 0.032296274 -0.038165625 4278734249
-0.048541807 0.03313683 -0.03917861 4278602924
-0.045281716 0.035554208 -0.041896883 4278799274
-0.043706715 0.037130691 -0.043601152 4278866084
-0.041696392 0.035023704 -0.041832063 4278800039
-0.039669782 0.032917716 -0.040065806 4278603179
-0.035956658 0.031653441 -0.039313249 4278734504
-0.034091786 0.031021887 -0.038938314 4278800293
-0.031810954 0.027447583 -0.035796862 4278931619
-0.029503115 0.023874972 -0.032660201 4278997153
-0.027060278 0.019568577 -0.028837427 4278669479
-0.02447436 0.014528856 -0.024329945 4278800804
-0.021964066 0.010226667 -0.020519141 4279195034
-0.019537419 0.0066614933 -0.01740353 4279325593
-0.017202504 0.0038328767 -0.014981641 4279587734
-0.014845952 0.0010056421 -0.012563564 4279653268
-0.012591917 -0.001085639 -0.010837324 4279850383
-0.010194808 -0.0039102435 -0.0084263654 4279850385
-0.0077761039 -0.0067334548 -0.0060191983 4279849873
-0.0053357892 -0.0095552728 -0.0036158292 4279980943
-0.0027390011 -0.013109542 -0.00053017586 4280766598
-0.058785208 0.0043412149 -0.012911404 4280242829
-0.057183258 0.0074108057 -0.016035199 4279587734
-0.055667408 0.011219401 -0.019852098 4279325338
-0.054245718 0.015766576 -0.024360674 4278998173
-0.052996457 0.021791656 -0.030255407 4278473128
-0.051571175 0.025595194 -0.034055777 4278538154
-0.050399326 0.031615935 -0.039936475 4279193504
-0.048800528 0.033197887 -0.041641954 4278800038
-0.04389476 0.036462624 -0.045360275 4278406319
-0.037824735 0.030124629 -0.040074863 4278275249
-0.03586591 0.02875234 -0.03900994 4279062433
-0.033596888 0.025166411 -0.035874818 4279062689
-0.031300858 0.021582182 -0.032744482 4278735014
-0.028977789 0.017999664 -0.029618919 4278603943
-0.026627727 0.014418829 -0.026498146 4278931618
-0.024250641 0.010839693 -0.023382153 4279259803
-0.021846555 0.0072622672 -0.020270936 4279522198
-0.019647218 0.0051608756 -0.018540097 4279653523
-0.017431632 0.0030605532 -0.016812097 4279784338
-0.015078545 0.00022447482 -0.014400085 4279915918
-0.012579892 -0.00334692 -0.01130554 4280112268
-0.010054234 -0.0069165826 -0.0082157413 4280177548
-0.0075015984 -0.010484524 -0.0051307022 4280766598
-0.0050539896 -0.01331456 -0.002735341 4281944953
-0.060232513 -0.0039474554 -0.0074392674 4281550724
-0.058832824 0.0021033436 -0.013348124 4279653524
-0.057165638 0.0044392198 -0.015770014 4279391129
-0.055514336 0.0067741983 -0.018188942 4279128733
-0.053878911 0.0091083646 -0.020604992 4279128989
-0.052399509 0.012925748 -0.024406862 4279128989
-0.051165015 0.018967316 -0.030285574 4278342314
-0.050048672 0.025748173 -0.036849942 4278473128
-0.048746072 0.030301584 -0.041326746 4279128223
-0.047313869 0.033370413 -0.044412829 4279062434
-0.045735955 0.034955602 -0.046111092 4278537899
-0.043996252 0.035058033 -0.046424404 4278275504
-0.040058561 0.031559311 -0.043598272 4278341039
-0.037833758 0.02795977 -0.040463701 4278930853
-0.035484985 0.023621481 -0.036644388 4279259294
-0.033004224 0.018544912 -0.032141771 4279193503
-0.030587986 0.014210749 -0.028334409 4278341803
-0.02834934 0.0113586 -0.025909007 4278604198
-0.026412047 0.010727294 -0.0255503 4278276524
-0.024248511 0.0086170733 -0.023818217 4279325339
-0.022068739 0.0065079704 -0.022089012 4279850130
-0.019872695 0.0043998808 -0.020362608 4279718803
-0.017423585 0.00081452727 -0.017267685 4279849874
-0.015068561 -0.0020301044 -0.014862726 4279981199
-0.01219679 -0.0078287423 -0.0097227124 4280243339
-0.009661302 -0.011408679 -0.0066430117 4281290624
-0.0070988424 -0.01498685 -0.0035680998 4282795634
-0.058762282 -0.0016282499 -0.012398599 4281160573
-0.057024837 -3.0167401e-05 -0.014122806 4279719059
-0.055362448 0.0023119375 -0.016538799 4279325594
-0.053648695 0.003908813 -0.018258596 4279325594
-0.052155212 0.0077377781 -0.02205468 4279128989
-0.050688341 0.011565268 -0.025845896 4279129243
-0.049549259 0.018366851 -0.032399353 4278867359
-0.0483803 0.024421975 -0.03825279 4278538408
-0.047173426 0.029731067 -0.043407619 4278931618
-0.045753948 0.032807834 -0.046484683 4279259294
-0.044097692 0.033653691 -0.047488347 4279127969
-0.042180516 0.032269977 -0.046422869 4279127714
-0.03988684 0.027915275 -0.042603821 4278603943
-0.037372649 0.022076976 -0.037413727 4278604199
-0.034815282 0.016241327 -0.032231323 4278341804
-0.032314271 0.011150826 -0.027744055 4278669479
-0.028037503 0.0069139116 -0.024281284 4278276524
-0.026197255 0.007023029 -0.024612112 4278801058
-0.024136476 0.0056486242 -0.023571916 4279587734
-0.021951914 0.0035332516 -0.021848559 4279653269
-0.019635551 0.00067749619 -0.01944356 4279653268
-0.017297536 -0.0021768957 -0.01704232 4280243594
-0.014816985 -0.0057710968 -0.013961338 4280636548
-0.012062162 -0.010845639 -0.0095189204 4281815668
0.032069702 -0.041869678 0.014313499 4280770679
0.035519116 -0.047648527 0.019338481 4280505733
0.040092103 -0.057850406 0.028393749 4280571268
-0.05707036 -0.0022760704 -0.014566213 4282472039
-0.055404916 7.2609633e-05 -0.016977729 4279784338
-0.053688295 0.0016739666 -0.018694781 4279522198
-0.051982172 0.0032747649 -0.020409821 4278932638
-0.050431468 0.0063674673 -0.02350416 4279391129
-0.048977144 0.010205071 -0.027284723 4279456663
-0.047782898 0.016278919 -0.033129375 4279259804
-0.046631396 0.022350326 -0.038966272 4278538663
-0.045439474 0.02767371 -0.044106666 4278603943
-0.043769747 0.028522436 -0.045111071 4279194013
-0.04175102 0.026389943 -0.043363623 4279062688
-0.039351061 0.021278016 -0.038870055 4279063199
-0.03691335 0.016168449 -0.03438326 4278931874
-0.034437872 0.011061165 -0.02990314 4279129498
-0.032123245 0.0074454844 -0.026801337 4279850129
-0.030087508 0.0060649514 -0.025760228 4279653014
-0.028040886 0.00468513 -0.024720952 4279063454
-0.026090726 0.0040502176 -0.024367938 4278867103
-0.024135046 0.0034157559 -0.024015825 4278669733
-0.02194842 0.0012940168 -0.022297867 4279849619
-0.019630104 -0.0015703104 -0.019899867 4280440199
-0.017053999 -0.0059202611 -0.016140878 4281030269
0.029229283 -0.04066854 0.010746158 4281031543
0.031946797 -0.043506362 0.013074583 4280375173
0.035572015 -0.050042555 0.018758308 4280505478
0.039605461 -0.058055229 0.025776144 4280767109
0.043515414 -0.06532459 0.032112665 4280832644
-0.053728148 -0.00056493282 -0.019134043 4279980688
-0.052088737 0.0017888397 -0.021535741 4279325594
-0.050392948 0.003393434 -0.023245582 4279391128
-0.048857622 0.0064939372 -0.02633043 4279522198
-0.04734356 0.0095932335 -0.029411316 4279391129
-0.046172142 0.015683051 -0.035238463 4279325084
-0.044794396 0.019527189 -0.038996693 4279455899
-0.043271907 0.021874681 -0.041376945 4278669988
-0.041146569 0.018989291 -0.038951699 4278801058
-0.038908519 0.015358001 -0.035844695 4278932128
-0.036549665 0.010981295 -0.032057382 4279128734
-0.034351341 0.0081004798 -0.029645067 4279260823
-0.032032236 0.0044742748 -0.026552418 4279391128
-0.030093394 0.0038362779 -0.026199166 4279456663
-0.028044537 0.0024522841 -0.025163697 4279718803
-0.026091963 0.0018153526 -0.024812795 4278932893
-0.024024002 0.00043264031 -0.023780564 4279194013
-0.021832608 -0.0016952604 -0.02206853 4279456154
-0.019509703 -0.0045679547 -0.019678045 4281226364
0.02423726 -0.038827293 0.0068752887 4280899198
0.026581001 -0.040190898 0.0078599853 4280374918
0.029107202 -0.042296246 0.0095140068 4280243848
0.032172691 -0.046627291 0.013177193 4280374154
0.03562459 -0.052440546 0.018175062 4280374154
0.039658777 -0.060476907 0.025174405 4280767109
0.043022275 -0.065542392 0.029486477 4281291388
-0.052056357 -0.0011982135 -0.021285862 4280439944
-0.050427131 0.0011614934 -0.023680665 4279457174
-0.048738986 0.0027700104 -0.02538575 4279325594
-0.047061361 0.0043779761 -0.02708881 4279718294
-0.045554645 0.0074855648 -0.030161701 4279587478
-0.044152088 0.011341926 -0.033916075 4279391129
-0.042519525 0.012947571 -0.035610836 4279456664
-0.040632814 0.01230387 -0.03525031 4279259803
-0.038558699 0.010161679 -0.033522785 4279653268
-0.03646832 0.00802055 -0.031798113 4279653268
-0.034361668 0.0058805272 -0.030076329 4279784338
-0.032238744 0.0037415139 -0.028357364 4279784338
-0.030099548 0.0016035773 -0.026641235 4279849620
-0.028048441 0.00021538883 -0.025609523 4279718804
-0.026093483 -0.00042358041 -0.025260735 4279784848
-0.024023287 -0.0018104836 -0.024232257 4280440198
-0.021604992 -0.0054411143 -0.021165421 4282078828
0.024448633 -0.041933708 0.0069924025 4280374919
0.026966132 -0.044046141 0.0086428998 4279915919
0.02932821 -0.045412846 0.0096210679 4280374153
0.032223724 -0.049012147 0.012604463 4280374153
0.035676856 -0.054842554 0.017588783 4280505224
0.039352585 -0.061414368 0.023233533 4280570759
-0.050605543 0.00043096393 -0.025490301 4281422713
-0.048845217 0.0012910478 -0.026506364 4279653014
-0.047012702 0.0013985373 -0.026836706 4279456664
-0.045500115 0.0045150705 -0.029904004 4279784083
-0.044008814 0.0076304711 -0.032967381 4279456663
-0.042368017 0.0092408396 -0.034660276 4279391128
-0.040473513 0.0085954145 -0.034302834 4279391128
-0.038482718 0.0071987659 -0.033263978 4279587733
-0.036387563 0.0050514787 -0.031545229 4279718803
-0.034276128 0.0029052049 -0.02982929 4279850130
-0.032049611 8.8661909e-06 -0.027435355 4280046224
-0.029902965 -0.0021350831 -0.025725635 4280045968
-0.027948432 -0.0027764067 -0.025378495 4279980944
-0.025988393 -0.0034172609 -0.02503231 4280768383
0.022316597 -0.043676041 0.0061251139 4280964223
0.024659386 -0.045048513 0.0071032448 4279522199
0.027181609 -0.0471671 0.0087478375 4280046478
0.02971998 -0.049284607 0.010389696 4280308363
0.032622591 -0.05289425 0.01336348 4280374154
0.03590557 -0.057995036 0.017666329 4280767619
0.039226171 -0.063093461 0.021962591 4281619318
-0.048802368 -0.0016971119 -0.026259622 4280112523
-0.047118999 -8.02055e-05 -0.027957134 4279850129
-0.045446157 0.0015361421 -0.029652629 4279587734
-0.044031538 0.0054147094 -0.033392526 4279914389
-0.042302616 0.0062754937 -0.034401037 4279586969
-0.040490963 0.0063821077 -0.034727346 4279456154
-0.038407311 0.0042275079 -0.033011585 4279784083
-0.036400676 0.0028276034 -0.031978905 4279849873
-0.034287147 0.00067496672 -0.030268356 4279981198
-0.032157354 -0.0014766194 -0.028560672 4280046989
-0.030011319 -0.0036270916 -0.026855865 4280505988
-0.027953036 -0.0050235838 -0.025832118 4281948014
0.017385434 -0.041790612 0.0022746921 4282275434
0.019863982 -0.043918751 0.0039218366 4280767363
0.022521826 -0.046795174 0.0062338477 4280439433
0.025035338 -0.048920892 0.0078748902 4279325594
0.027733523 -0.051794633 0.010179876 4279129243
0.030624423 -0.055415899 0.013147316 4280308618
0.033542193 -0.059035398 0.016110051 4280702083
0.036310244 -0.06190452 0.018402856 4281684853
-0.045631915 0.00081857294 -0.031450573 4280178314
-0.043972127 0.0024385452 -0.03314032 4279914643
-0.042322882 0.0040579773 -0.0348281 4279783319
-0.040508665 0.0041647181 -0.035154887 4279652503
-0.038603827 0.0035156384 -0.034802616 4279522454
-0.036600322 0.0021112151 -0.033772729 4279849874
-0.034394249 -0.00080371648 -0.031388555 4280177549
-0.032166563 -0.0037172697 -0.029008206 4280702848
0.014958676 -0.042016096 7.8909099e-05 4281554039
0.017423116 -0.044151619 0.0017234385 4280571269
0.019743409 -0.04553432 0.0026987297 4280243339
0.022400452 -0.048419423 0.0050042076 4280308619
0.025079001 -0.051303081 0.0073058857 4279194524
0.028284159 -0.056439191 0.011599022 4278998173
0.031526938 -0.061572842 0.015885502 4280112269
0.034459881 -0.065202244 0.018837247 4281881458
-0.045658194 -0.0014119111 -0.031886313 4282210919
-0.044160016 0.0017296784 -0.034930974 4280571269
-0.042513281 0.0033533052 -0.036615018 4279849108
-0.040701866 0.0034598559 -0.03694132 4279718038
-0.038799994 0.0028083734 -0.036590166 4279653269
-0.036613643 -0.00011641905 -0.034209255 4280112014
-0.034405649 -0.003039889 -0.031832129 4280636548
-0.032176033 -0.0059619695 -0.02945881 4281357434
0.012391597 -0.04147736 -0.0027782954 4280833154
0.014839247 -0.043620512 -0.0011358149 4280439688
0.017460503 -0.046516664 0.0011691889 4280243084
0.019783003 -0.0479035 0.0021407111 4280439433
0.022441927 -0.050797142 0.0044391667 4280439434
0.0256189 -0.055950113 0.0087255379 4280373899
0.02900172 -0.061854191 0.013668717 4280177548
0.032085754 -0.066248924 0.017278425 4282340458
-0.042618543 0.0018925965 -0.037721723 4281227893
-0.040807262 0.0019991137 -0.038048025 4280439688
-0.038815506 0.0005852133 -0.03702274 4280702339
-0.036534406 -0.0031082593 -0.033973575 4282471529
0.0080134869 -0.0418 -0.0046089254 4281618553
0.0096927583 -0.040167429 -0.0062933974 4280832643
0.012272831 -0.043074958 -0.0039879014 4280439689
0.014874447 -0.045981035 -0.0016861418 4280439433
0.01749758 -0.048885711 0.0006118482 4280373898
0.019982267 -0.051032789 0.0022428511 4280177803
0.022808425 -0.054690696 0.0051965481 4280832389
0.026157532 -0.060614176 0.010132314 4281356413
0.02904552 -0.06426806 0.013075163 4282602343
0.0056304522 -0.041993313 -0.0067897555 4281357434
0.0077489875 -0.042633817 -0.0064790701 4279653268
0.0097238831 -0.042514957 -0.0068327417 4279259548
0.012154095 -0.044672236 -0.005197261 4280242828
0.014909346 -0.048345573 -0.0022395113 4280373898
0.017534375 -0.051258735 5.1490031e-05 4280635783
0.020500546 -0.055686988 0.0036618467 4281029249
0.023336489 -0.059355058 0.006605464 4282273139
0.00074006617 -0.039248012 -0.011268359 4281555313
0.0032592155 -0.042176925 -0.0089656673 4280964224
0.0053693205 -0.042820208 -0.0086552277 4280112014
0.0076310709 -0.044224285 -0.0076833447 4279981199
0.0097547323 -0.04486654 -0.0073750955 4278931874
0.012338568 -0.047791034 -0.0050836476 4279980688
0.01509824 -0.051474914 -0.0021349834 4280832389
0.01772783 -0.054396369 0.00014848541 4281094784
0.020698253 -0.058837354 0.003748117 4282600048
0.00076176599 -0.041586854 -0.011798862 4280636294
0.0031421222 -0.043760546 -0.010164823 4280439433
0.0052519143 -0.044406019 -0.009856008 4279981454
0.0075131841 -0.045814417 -0.0088873655 4280046734
0.0099340081 -0.04798533 -0.0072603086 4279914898
0.012522437 -0.050918192 -0.0049763033 4279586458
-0.0060073398 -0.038916104 -0.015911207 4280705399
-0.0036681406 -0.041099072 -0.014275137 4279916684
-0.0014478825 -0.042514786 -0.013302818 4279129244
0.00064533949 -0.043163665 -0.0129929 4279718548
0.0028845258 -0.044577949 -0.012023829 4280112013
0.0051345304 -0.045991518 -0.011056566 4280112268
0.0076871328 -0.048935413 -0.0087730112 4280374153
0.010261275 -0.051877901 -0.0064932341 4280635784
