# .PCD v0.7 - Point Cloud Data file format
VERSION 0.7
FIELDS x y z rgba
SIZE 4 4 4 4
TYPE F F F U
COUNT 1 1 1 1
WIDTH 981
HEIGHT 1
VIEWPOINT 0 0 0 1 0 0 0
POINTS 981
DATA ascii
0.028638605 -0.01324252 0.023020456 4286790973
0.031296849 -0.015207723 0.024737755 4286856253
0.034176275 -0.017869689 0.027150752 4286725438
0.035622366 -0.015646301 0.024673002 4286725438
0.037052251 -0.013423875 0.022198377 4286529854
-0.0304171 0.0013862364 0.012142809 4288622639
-0.029480156 0.0071456321 0.0060872305 4289342759
-0.028188873 0.010788802 0.002171075 4289081383
-0.026384037 0.011612829 0.0010997783 4288884779
-0.024308905 0.011028092 0.0014485326 4289146408
-0.02208785 0.0097397603 0.0025052447 4289146408
-0.019999087 0.0091560818 0.0028515421 4289800483
-0.018196523 0.0099802949 0.0017809998 4289342503
-0.016399235 0.010804281 0.00071151555 4289473319
-0.014758464 0.012331482 -0.0010639038 4289276714
-0.012512788 0.011045087 -1.1378899e-05 4289080108
-0.010412883 0.010462578 0.0003332179 4289080108
-0.0086260885 0.0112863 -0.00073402189 4289668904
-0.0071685277 0.013515275 -0.0032101609 4290127139
-0.0053977668 0.01433818 -0.0042742845 4289407528
-0.0031303577 0.013053667 -0.0032254755 4288687918
-0.00085215829 0.011769868 -0.0021785516 4289145643
0.00091868639 0.012593072 -0.0032424666 4289210923
0.0026841518 0.013416074 -0.0043053571 4289406763
0.0049785171 0.012133569 -0.0032612178 4288818224
0.0080067143 0.0080455989 0.00058682635 4288490294
0.026065223 -0.013635673 0.020757275 4286790719
0.028709464 -0.015608348 0.0224721 4286856253
0.031167483 -0.016879685 0.023486512 4286921789
0.033841148 -0.018850327 0.025196029 4286725694
0.035284936 -0.016620539 0.022723729 4286594623
-0.031806447 0.006853383 0.0038436074 4289344288
-0.030117907 0.0083870552 0.0020620748 4289408804
-0.028704435 0.0113337 -0.0011350866 4290193438
-0.027042523 0.012865961 -0.002911564 4289800993
-0.024978425 0.012278348 -0.0025624391 4290127393
-0.022628281 0.010278698 -0.00079968385 4290585374
-0.020404883 0.0089862086 0.00025336817 4290389279
-0.018898971 0.011224125 -0.0022272114 4289669413
-0.017260738 0.012755346 -0.0039988738 4289145899
-0.015331108 0.012874849 -0.004357839 4289211178
-0.012940224 0.010878209 -0.0026022885 4289145898
-0.01053315 0.0088826194 -0.00084963441 4289015083
-0.0087463036 0.0097084977 -0.0019152313 4289276713
-0.0071265772 0.011239104 -0.0036831256 4290454559
-0.0056820326 0.013473846 -0.0061517339 4290389024
-0.0035849214 0.012889363 -0.0058079977 4289800228
-0.0013125613 0.0116009 -0.0047633685 4289342504
0.00079803914 0.011017397 -0.0044219512 4289603879
0.0029140208 0.010434374 -0.0040814932 4289799973
0.0057470575 0.0070361197 -0.00094062462 4289538089
0.0089681689 0.0022321492 0.0035949778 4289014573
0.012226921 -0.0025694072 0.0081237126 4288491058
0.015523272 -0.0073684752 0.012645507 4287575098
0.018479895 -0.010758609 0.015763743 4286724929
0.021272011 -0.013443917 0.018179243 4286855743
0.02389154 -0.015424855 0.019893521 4286986814
0.026133675 -0.015999191 0.020211169 4286986814
0.028381128 -0.016573094 0.020527912 4286790463
0.030431785 -0.016444154 0.020147918 4286725183
0.03289197 -0.017719619 0.021158731 4286594879
0.034947846 -0.017590158 0.02077792 4286071874
-0.031013049 0.011064429 -0.0033652317 4289213984
-0.029218972 0.011891954 -0.0044312607 4289474338
-0.027430143 0.012719251 -0.0054962337 4289342503
-0.025371715 0.012129135 -0.0051477812 4289538599
-0.023027547 0.010122553 -0.0033888649 4289800484
-0.020809975 0.0088253766 -0.0023381226 4289669414
-0.019309051 0.011069436 -0.0048127491 4289342504
-0.017527815 0.011896778 -0.0058759954 4289407784
-0.015600983 0.012016095 -0.0062344428 4289996579
-0.013059843 0.009305086 -0.0037800558 4289865763
-0.010965876 0.0087178014 -0.0034376532 4289604389
-0.0090254284 0.0088382512 -0.0037984177 4289538853
-0.0075697973 0.011080131 -0.0062642153 4289734948
-0.0058016293 0.011907205 -0.0073245373 4290389279
-0.0038718022 0.012027293 -0.0076830946 4290127649
-0.0016025864 0.01073429 -0.0066412129 4290061858
0.00084978901 0.0087355785 -0.0049015321 4289865763
0.0034933574 0.0060317181 -0.0024655797 4289145643
0.0066916812 0.0012110285 0.0020625331 4288818479
0.0099276416 -0.0036072508 0.0065837745 4288556593
0.013018088 -0.0077172816 0.010400379 4287902518
0.015954958 -0.011119612 0.01351388 4287575609
0.018730182 -0.01381474 0.015925789 4287052093
0.021335687 -0.015803181 0.017637597 4286921279
0.023957267 -0.017790459 0.019346463 4286986814
0.026201794 -0.018366806 0.01966201 4287052604
0.028053144 -0.017533213 0.018587263 4286725438
0.03010099 -0.017404437 0.018207805 4286529343
-0.029468667 0.011041321 -0.0063062757 4290197518
-0.027413309 0.010448731 -0.005959006 4289604389
-0.025352471 0.0098565668 -0.0056126844 4289473063
-0.023286149 0.009264797 -0.005267268 4289603369
-0.021357007 0.0093839467 -0.005626386 4289930789
-0.01971845 0.010923795 -0.0073915888 4289734949
-0.017942518 0.011752933 -0.0084521417 4290454303
-0.015719779 0.01045201 -0.0074054766 4290389024
-0.013179425 0.0077322423 -0.0049576163 4290519839
-0.011241831 0.0078524165 -0.0053179227 4290389279
-0.0094629638 0.0086821243 -0.0063787252 4289342504
-0.0076894127 0.0095115975 -0.007438466 4289865763
-0.0060853511 0.011050001 -0.0091967266 4289538598
-0.0041583329 0.01116991 -0.0095547643 4289604134
-0.0015532114 0.0084547624 -0.0071184859 4289473319
0.0015900545 0.0036151893 -0.0025919117 4289407529
0.0045960601 -0.00051344186 0.0012301467 4289014829
0.0076343212 -0.0046399608 0.0050463043 4288556849
0.010524577 -0.0080563128 0.0081600267 4287771703
0.01325872 -0.010762848 0.010572704 4287510329
0.016014352 -0.013467968 0.012981521 4287379514
0.018414807 -0.014756456 0.013996301 4287183163
0.02082596 -0.016044125 0.015009129 4287052093
0.023054123 -0.016623765 0.015325988 4287117884
0.025287615 -0.017202988 0.015641985 4286660923
-0.025607727 0.0090058036 -0.0074865036 4289410078
-0.023544382 0.0084117129 -0.0071422476 4289342758
-0.021760531 0.0092432946 -0.0082027763 4289800484
-0.019981958 0.010074649 -0.0092622396 4289931299
-0.018208675 0.010905772 -0.010320652 4289277223
-0.015838537 0.0088881776 -0.0085763223 4289211944
-0.013605423 0.0075835884 -0.0075348131 4289342503
-0.011673331 0.0077034086 -0.0078941081 4289865763
-0.0097411871 0.007823322 -0.0082533397 4289800228
-0.0081315823 0.0093662962 -0.01000939 4289734948
-0.0058767647 0.0080634654 -0.0089716036 4289800229
-0.003611166 0.0067614391 -0.0079357885 4289603623
-0.00065737963 0.0026162826 -0.0041141212 4289341739
0.002500711 -0.0022375286 0.00039800256 4288818479
0.0056964494 -0.0070889145 0.0049032643 4288295219
0.0085749812 -0.010516882 0.008010732 4287706423
0.011120172 -0.012522489 0.0097233895 4287248443
0.013498703 -0.013816878 0.010738755 4287183419
0.01588795 -0.01511047 0.011752164 4287117884
0.018099762 -0.015693486 0.01207024 4286987324
0.020126067 -0.015566468 0.01169447 4287118139
0.021958794 -0.014729895 0.010626355 4286987579
-0.024081491 0.0089931637 -0.010415283 4290063644
-0.02230566 0.0098264031 -0.01147267 4289343014
-0.020535111 0.01065946 -0.012529038 4290127903
-0.018769849 0.011492245 -0.013584306 4289735459
-0.016408388 0.0094675347 -0.011843325 4289473574
-0.014030736 0.0074439794 -0.010105313 4289276968
-0.011948388 0.0068494305 -0.0097657703 4289407784
-0.010019056 0.0069691613 -0.010124484 4289996579
-0.0077674314 0.0056617185 -0.0090895593 4289865508
-0.0050135776 0.0022145957 -0.0059676524 4289276714
-0.0023993179 -0.00051745027 -0.0035464577 4289276714
0.00023647025 -0.0032480508 -0.0011291765 4288818478
0.0030656476 -0.0066901743 0.0019789692 4288164404
0.0059217066 -0.010130517 0.0050822087 4287575608
0.0086274017 -0.012856446 0.0074867401 4287510073
0.01117466 -0.014868453 0.0091940779 4287248698
0.013372781 -0.015454724 0.0095128622 4287183164
0.015576256 -0.016040541 0.0098307375 4287117883
0.017597089 -0.015913941 0.0094559211 4287183673
0.019617889 -0.015787259 0.0090811718 4286922298
-0.021087233 0.011257581 -0.015785802 4289343268
-0.019182462 0.011375375 -0.016140271 4290323743
-0.016977213 0.010060303 -0.01510036 4289603368
-0.014455337 0.0073133223 -0.012669042 4289865508
-0.012067489 0.0052839443 -0.010937798 4289799974
-0.0096634775 0.0032556914 -0.0092095472 4289669159
-0.0070823357 0.00051270425 -0.0067890044 4289276714
-0.004152365 -0.0036601648 -0.0029830858 4288556848
-0.0013564304 -0.0071154684 0.00012280419 4288295474
0.0012973566 -0.0098535791 0.0025300421 4287968564
0.0036292672 -0.011160001 0.0035470761 4287771959
0.0059719272 -0.012465581 0.0045621712 4287314234
0.0085024294 -0.014485262 0.0062675383 4287313978
0.011049055 -0.016503826 0.0079699997 4287314234
0.013246873 -0.017092273 0.0082871858 4287183929
0.01507977 -0.016251653 0.0072221328 4287053368
-0.021638323 0.01186911 -0.019032599 4289477654
-0.019447036 0.010548718 -0.01799351 4289604898
-0.017094865 0.0085104033 -0.016260788 4289342248
-0.014573783 0.0057546794 -0.013835982 4289342503
-0.011720315 0.0015637353 -0.010026064 4289669669
-0.0091507584 -0.0011887774 -0.0076101143 4289080363
-0.0063988641 -0.0046578348 -0.0045045577 4288818733
-0.0036200657 -0.0081251115 -0.0014039278 4288360753
-0.00081436522 -0.01159063 0.0016917828 4287706678
0.0013428368 -0.012184352 0.0020144787 4287771958
0.0035054125 -0.012777597 0.0023362152 4287575864
0.0056733862 -0.013370402 0.0026570279 4287183163
0.0082005672 -0.015396789 0.0043580346 4287314234
0.010743855 -0.01742202 0.0060560871 4287314234
0.012574118 -0.016579494 0.004993109 4287184694
-0.013929367 0.0005928725 -0.011535732 4289213984
-0.011063594 -0.0036103353 -0.0077380817 4288427054
-0.0083234608 -0.0070910901 -0.0046387464 4288034353
-0.0057170317 -0.0098498762 -0.0022362191 4287707444
-0.003252387 -0.011887215 -0.00052900612 4287445559
-0.0007715784 -0.013923451 0.0011752788 4287706934
0.0015566796 -0.015238829 0.002186222 4287510329
0.0035529621 -0.015114427 0.0018154532 4287444793
0.0058973823 -0.01642862 0.0028236117 4287641654
0.0080758035 -0.017022833 0.003140904 4287184183
0.010259593 -0.0176166 0.0034572929 4287448108
-0.010563575 -0.0080832168 -0.0061574616 4288166444
-0.0081292018 -0.010129169 -0.004449781 4287576884
-0.0055182055 -0.012896366 -0.0020547714 4287445559
-0.0030488223 -0.01493986 -0.00035346113 4287445559
-0.00072911754 -0.016260296 0.00065568835 4287510839
0.0014328435 -0.016858026 0.00097413547 4287379513
0.0034289882 -0.016733617 0.00060339458 4287510328
0.0054251514 -0.016609117 0.00023273006 4287838768
-0.010529622 -0.010398567 -0.0066585857 4287708463
-0.0082508028 -0.011726201 -0.005645413 4287380279
-0.0058008879 -0.013777599 -0.0039455332 4287314488
-0.0031718612 -0.016552195 -0.0015604775 4287183673
-0.001018282 -0.017152786 -0.0012421925 4287118139
0.00097233057 -0.017028838 -0.0016119871 4287118904
-0.01065072 -0.011990957 -0.0078507718 4287577138
-0.0083723664 -0.013322957 -0.0068408344 4287117883
-0.0059230924 -0.015380889 -0.0051458217 4287248699
-0.0036204904 -0.016711131 -0.0041402709 4287052603
-0.0013071001 -0.018040583 -0.0031366386 4286726713
-0.010771781 -0.013583027 -0.0090427231 4287446324
-0.008493904 -0.014919415 -0.0080360323 4287118139
-0.006205231 -0.016254961 -0.0070312992 4286921788
-0.0040684193 -0.016861036 -0.0067133047 4286725949
-0.010892816 -0.015174806 -0.010234457 4286988344
-0.0087725148 -0.015784331 -0.0099152494 4286596154
-0.01116807 -0.016032711 -0.012109079 4286661434
0.021355869 -0.056919344 0.0027779546 4286005828
0.015804969 -0.053613499 -0.0023618862 4286136643
0.018043382 -0.05423376 -0.0020785518 4286267969
0.021414105 -0.059346482 0.0021855552 4286071108
0.011039829 -0.053278282 -0.0048364997 4286528323
0.013264529 -0.053901821 -0.0045524873 4286332484
0.015859172 -0.056027576 -0.0029433984 4286398273
0.0081713535 -0.052045956 -0.0083477795 4287640123
0.010735832 -0.054180339 -0.0067382529 4286921024
0.012957519 -0.05480621 -0.0064553265 4286463299
0.0056684688 -0.052307159 -0.010526297 4286659903
0.0080449544 -0.053692833 -0.0095804818 4287902518
0.010432186 -0.055077717 -0.0086365137 4286790463
-0.0015209243 -0.049774453 -0.014594742 4286529089
0.0013199002 -0.053443432 -0.011663188 4286790974
0.0035140887 -0.054075874 -0.01137887 4286790974
0.0057136454 -0.05470784 -0.011095447 4286986814
0.0079185814 -0.055339381 -0.010812943 4287575098
-0.0038176477 -0.05076699 -0.01610063 4287378239
-0.0011567771 -0.053686798 -0.013834232 4286725693
0.0011945404 -0.055083111 -0.012890623 4286660159
0.003556598 -0.056478575 -0.01194894 4286725694
0.0057585202 -0.05711256 -0.011667621 4286790464
0.0079658143 -0.057746142 -0.011387159 4287117118
-0.006108284 -0.051754415 -0.017603949 4287575608
-0.0037816651 -0.053156868 -0.016659278 4287576118
-0.0012816228 -0.055321813 -0.015058209 4286594623
0.001069203 -0.05672247 -0.014117816 4286529344
0.0032627247 -0.057359293 -0.013836701 4286463809
-0.0080839172 -0.054268748 -0.017788362 4288231213
-0.0060748011 -0.054144084 -0.018161926 4288493353
-0.0039058216 -0.054785013 -0.017878156 4287970094
-0.0015689433 -0.05619096 -0.016938638 4286855998
0.00044830889 -0.056065403 -0.017313413 4286397763
-0.0083618499 -0.055126235 -0.01966203 4288492843
-0.0065125674 -0.054233707 -0.02069113 4288755239
-0.0043492913 -0.054877117 -0.020408008 4287575863
-0.002018258 -0.05628781 -0.019470681 4286986814
-0.0071064606 -0.053544104 -0.023868099 4287901753
0.045178812 -0.019308448 0.027323196 4283526974
0.049247228 -0.025448851 0.033199474 4282480198
0.042323299 -0.019028641 0.024360223 4284114749
0.045484342 -0.022393979 0.027449729 4282414408
0.049556486 -0.028553672 0.033310354 4281956429
0.03721381 -0.018162496 0.021091552 4283199043
0.039910771 -0.020137869 0.022792006 4282479689
0.043054834 -0.02351521 0.025876286 4282217548
0.045789182 -0.025487974 0.027569944 4282086989
0.05008598 -0.032368205 0.034107313 4281955919
0.037294071 -0.020537935 0.02053356 4282545223
0.040205773 -0.023223564 0.022920879 4282218059
0.043138862 -0.025907733 0.025304323 4282086734
0.046093345 -0.028590463 0.027683878 4282021454
0.050614428 -0.036195494 0.034894653 4282020944
0.029568763 -0.017653301 0.015578592 4283133253
0.032224406 -0.019644536 0.017276479 4282610504
0.035103243 -0.02234111 0.01966309 4282479944
0.037583832 -0.023623727 0.020663643 4282152268
0.040287577 -0.025611617 0.022352861 4281955919
0.043437757 -0.029010229 0.025419401 4281824849
0.047050484 -0.033818595 0.029860275 4281759568
0.029843614 -0.020728931 0.015719889 4282937413
0.03229972 -0.022017621 0.016721515 4282152779
0.035180427 -0.024722703 0.019101093 4282021709
0.03766324 -0.026009507 0.020097936 4281956429
0.040581398 -0.028712049 0.022470778 4281825103
0.044596121 -0.034953646 0.028282044 4281889874
0.048876807 -0.041899987 0.034772433 4281889363
0.026673742 -0.018963054 0.011406558 4283919418
0.029513502 -0.021679617 0.013786966 4282545733
0.032374691 -0.024394736 0.01616347 4281956939
0.035257287 -0.027108401 0.018536104 4282021964
0.038161304 -0.029820606 0.020904856 4281956174
0.042147603 -0.036083587 0.026706362 4281890893
0.046826754 -0.044474244 0.034559458 4281890639
0.026744612 -0.021327153 0.010859443 4283200574
0.029586254 -0.024052262 0.013232866 4282218568
0.03244932 -0.026775919 0.015602397 4282087499
0.03616035 -0.032350011 0.020714803 4282087498
0.03991428 -0.03792128 0.025819356 4282087243
0.044347122 -0.045627601 0.032973103 4281954898
0.024580229 -0.02310767 0.010000164 4284639029
0.026815161 -0.02369535 0.010309355 4283004734
0.029658671 -0.026428953 0.012675742 4282022473
0.032727394 -0.029876463 0.015723834 4281891659
0.037061717 -0.037613124 0.022877416 4281891659
0.041873366 -0.046775855 0.031389281 4282021964
0.024256952 -0.024041891 0.0080782641 4284377653
0.027083606 -0.026785389 0.010441093 4283004223
0.02952983 -0.028092057 0.011431167 4282088009
0.032801196 -0.032268003 0.015155086 4281825359
0.037342496 -0.040745728 0.022973659 4281300824
0.023934022 -0.024971448 0.0061598513 4283854904
0.027153313 -0.029163845 0.0098832492 4282544968
0.029802516 -0.031194583 0.011552421 4281823829
0.024001863 -0.027341053 0.0056092348 4282803793
-0.0041907057 -0.018463761 -0.007913135 4283721538
-0.0022139698 -0.018340804 -0.0082804505 4284639539
-0.0066087842 -0.01872243 -0.010109598 4283394883
-0.0041506439 -0.020799235 -0.0084311161 4282937669
-0.0020063594 -0.021409035 -0.0081177894 4284442933
-0.01128887 -0.017621696 -0.013298729 4283460418
-0.0088583119 -0.01970695 -0.011620278 4282284104
-0.0064115971 -0.021791071 -0.0099447388 4282088008
-0.0041108876 -0.023138776 -0.0089521315 4282284359
-0.015923843 -0.016500041 -0.016482357 4284049978
-0.013520896 -0.018593729 -0.014803929 4282741829
-0.011101779 -0.020686314 -0.013128432 4282283083
-0.0083532706 -0.024253294 -0.01009714 4282153034
-0.0063743554 -0.024130456 -0.010465052 4282022473
-0.0042334199 -0.02474492 -0.010154525 4282284359
-0.002087079 -0.025358938 -0.0098449197 4284507959
-0.017992642 -0.018200204 -0.017302377 4283527993
-0.015895233 -0.018820174 -0.016985828 4282155329
-0.013490248 -0.020920202 -0.015312813 4281632069
-0.011069082 -0.023019142 -0.013642659 4281696584
-0.0084753111 -0.025856934 -0.011297729 4281695563
-0.0063374117 -0.02647388 -0.010988386 4281891914
-0.0043559223 -0.026350766 -0.011356698 4282349639
-0.0022098906 -0.026966959 -0.011048688 4284442169
-0.020061035 -0.019899912 -0.018122135 4283266364
-0.017821155 -0.021265142 -0.017128678 4282480709
-0.015570469 -0.022629559 -0.016137199 4281957449
-0.013459895 -0.023250714 -0.015824715 4281631558
-0.011190284 -0.024613768 -0.014836537 4281957959
-0.0087536052 -0.026718132 -0.013174163 4281891913
-0.0066187046 -0.027337447 -0.012865951 4281890893
-0.0043167397 -0.028698072 -0.011883541 4282218058
-0.022549056 -0.019363277 -0.020973995 4284117044
-0.020037759 -0.022224076 -0.018627444 4282153289
-0.017941054 -0.022848517 -0.018314233 4282021964
-0.01583891 -0.023472495 -0.018001946 4281826634
-0.013429832 -0.025585324 -0.016339617 4281566534
-0.011158027 -0.026952527 -0.015355213 4281827654
-0.0087193027 -0.029063284 -0.013698212 4281891913
-0.0065820292 -0.029684611 -0.01339209 4281759823
-0.0042778701 -0.03104943 -0.012413411 4281627734
-0.0021270961 -0.031669736 -0.012109573 4281886303
-0.027355149 -0.016687632 -0.02548945 4282939708
-0.025019575 -0.01881209 -0.023818878 4282285124
-0.022388116 -0.022430375 -0.020799572 4282022728
-0.020014789 -0.024552256 -0.01913584 4281891658
-0.017770499 -0.025925845 -0.018149899 4281760589
-0.015811194 -0.025804736 -0.018514561 4281825358
-0.01355065 -0.027177125 -0.017531419 4281630794
-0.011585854 -0.027055435 -0.017896911 4281564238
-0.0091531575 -0.029173002 -0.016243812 4281629008
-0.03106229 -0.019983605 -0.024587197 4284705584
-0.029133178 -0.019865051 -0.02494677 4283463989
-0.027069647 -0.020496368 -0.02463109 4282154053
-0.024726652 -0.022626854 -0.02296686 4281957703
-0.022507153 -0.024006568 -0.021979829 4281892169
-0.020134468 -0.026135005 -0.020320965 4281891659
-0.017890658 -0.027512982 -0.019338271 4281694799
-0.015783772 -0.028140999 -0.019030185 4281694288
-0.013671443 -0.028768636 -0.018723002 4281498703
-0.011553697 -0.029395759 -0.01841676 4281171539
-0.034913905 -0.022535846 -0.024362633 4284573494
-0.032982476 -0.022417396 -0.024722828 4284116533
-0.031179726 -0.021546379 -0.025757542 4282154819
-0.029119294 -0.022180155 -0.025443023 4282154309
-0.026785083 -0.024317816 -0.023782244 4281958724
-0.024434682 -0.026454329 -0.022124453 4281957704
-0.022347122 -0.027086131 -0.021814669 4281826378
-0.020111922 -0.028469101 -0.020833788 4281760589
-0.018010784 -0.029099777 -0.020526404 4281498449
-0.015904218 -0.02973 -0.020219928 4281366869
-0.034661412 -0.026365414 -0.023512533 4283593528
-0.03297396 -0.024736837 -0.025221152 4282676804
-0.031297132 -0.023108855 -0.026927667 4281826633
-0.029105697 -0.024499312 -0.025942316 4282022984
-0.026903428 -0.025889032 -0.024958843 4281762374
-0.024553675 -0.028032072 -0.023305906 4281761863
-0.022327069 -0.029420055 -0.022326784 4281826379
-0.020089664 -0.030807212 -0.021349639 4281695308
-0.018130884 -0.030686274 -0.021714311 4281366614
-0.035393663 -0.036385506 -0.016926125 4284377143
-0.034409851 -0.030207679 -0.022672014 4283461183
-0.03296572 -0.027060367 -0.025722461 4282153289
-0.031286035 -0.025427848 -0.027426245 4281630283
-0.028961249 -0.027579218 -0.025773769 4281957450
-0.026887923 -0.028216437 -0.025464905 4281892168
-0.024536114 -0.030365892 -0.02381728 4281500744
-0.022307314 -0.031758033 -0.022841938 4281564494
-0.020209573 -0.032393396 -0.022537343 4281234523
-0.032580942 -0.031665362 -0.02421627 4282348364
-0.030890338 -0.030027896 -0.025918735 4282087499
-0.028686438 -0.031426273 -0.024942363 4281760333
-0.026471708 -0.03282389 -0.023967858 4281629518
-0.024382509 -0.033462211 -0.023663539 4281760589
-0.022148825 -0.034858383 -0.022692427 4280971619
-0.03011151 -0.036928505 -0.022419814 4282216784
-0.027889308 -0.038330138 -0.021450128 4281890384
-0.02565629 -0.039730936 -0.020482421 4281824848
-0.023820981 -0.038848937 -0.021516312 4281367889
0.038477659 0.035781428 0.04804574 4279061668
0.03942097 0.039111301 0.043970712 4278732208
0.042540133 0.03603619 0.047292441 4278928814
0.033702508 0.02924256 0.053118728 4280439943
0.034496751 0.033230186 0.048301257 4278932383
0.036202826 0.040556625 0.039422959 4278272699
0.037989728 0.041325044 0.038313232 4279453859
0.040431499 0.040165551 0.03941723 4279192229
0.044666383 0.033867955 0.04641553 4278864299
0.027260875 0.034421928 0.044497274 4282536554
0.028466526 0.037131354 0.041166812 4278601904
0.030683063 0.036611691 0.041532353 4278340528
0.032695718 0.036737792 0.041159064 4278538408
0.034072645 0.038799573 0.038573682 4278800038
0.047248054 0.030407146 0.047004424 4279061669
0.051113628 0.025381774 0.052501231 4278800293
0.023923937 0.036540482 0.039211884 4281161339
0.02452204 0.04120256 0.033675693 4278272444
0.026304245 0.041974813 0.032570072 4278403004
0.033735171 0.037815761 0.036617003 4278341548
0.035308018 0.039235763 0.034775361 4278603944
0.03686998 0.040655173 0.032935731 4278800039
0.039519981 0.0388394 0.034769483 4278537898
0.042408474 0.036377959 0.037334047 4278603433
0.045768663 0.0326248 0.04136119 4278735013
0.047566053 0.033398464 0.04025311 4278603689
0.049127381 0.034818046 0.038413838 4278472618
0.021523312 0.028801523 0.045373373 4282275179
0.021989144 0.03413327 0.039100036 4278734248
0.022411862 0.03946241 0.032834694 4278995878
0.02339381 0.042838085 0.028785748 4278996134
0.025569594 0.042311504 0.029155491 4278471599
0.031816754 0.035411544 0.03650371 4279061159
0.03403265 0.034887634 0.036866136 4278799783
0.035611141 0.036312416 0.035026766 4278669224
0.037178773 0.037736528 0.03318949 4278603688
0.039394356 0.037212767 0.033552103 4278735013
0.042059816 0.03539151 0.035378039 4278735014
0.044516273 0.034220099 0.0364694 4278669224
0.046466254 0.040308811 0.029148249 4278733994
0.048453487 0.040433839 0.028780071 4279389089
0.052562274 0.03472621 0.034978621 4278929834
0.059103668 0.022542581 0.04845956 4278732718
0.016709646 0.03616783 0.034203768 4280439688
0.018508408 0.036945283 0.033098273 4278735013
0.019716062 0.039680865 0.029787397 4278406828
0.022267248 0.044495657 0.023912305 4278405043
0.024835946 0.042661488 0.025750862 4278601903
0.033906691 0.033254512 0.035643868 4278930854
0.035485454 0.034683689 0.033807807 4278669224
0.037270106 0.03546077 0.032705314 4278538409
0.039049271 0.036237545 0.031603873 4278800549
0.041489322 0.035060726 0.032694921 4278800549
0.043040723 0.036488377 0.030864144 4278407594
0.044729643 0.043245427 0.022834824 4278667694
0.047163747 0.042068459 0.023927139 4279389854
0.050786369 0.037640825 0.028657509 4279324063
0.055399515 0.03061527 0.036290914 4278733994
0.060553536 0.022293597 0.045367457 4278471599
0.011312615 0.038888671 0.02857965 4278535604
0.012911078 0.040322892 0.026742844 4278403768
0.017614609 0.037948176 0.028950082 4278667948
0.019202229 0.039381854 0.027115474 4278603689
0.020581275 0.041469768 0.024549546 4278341039
0.030731224 0.034766383 0.031137163 4278734504
0.033147097 0.033583496 0.0322292 4278473128
0.034504164 0.03567037 0.02966761 4278604199
0.035845 0.037756246 0.027109122 4278406573
0.037608124 0.038534231 0.026012359 4278275249
0.040031634 0.037352048 0.027103154 4278734503
0.041791819 0.038129967 0.026007017 4278603944
0.042864472 0.040866487 0.022728389 4278471854
0.064184234 0.016185485 0.048807889 4278735778
0.0086728111 0.039135143 0.025540749 4279587478
0.011293696 0.043984246 0.019675681 4278403513
0.018883955 0.038434595 0.025182409 4278800039
0.020655908 0.039214909 0.024085289 4278538409
0.022222165 0.040651731 0.022258079 4278538664
0.024386477 0.040117953 0.022624986 4278604453
0.026967417 0.038271531 0.024451373 4278603944
0.02977276 0.035769857 0.027004512 4278473129
0.031755399 0.035894249 0.026636915 4278538409
0.041442521 0.037172314 0.024073238 4278995624
0.042967424 0.038607173 0.022254096 4278472874
0.044251576 0.040696368 0.019711321 4278734504
0.046682209 0.039510503 0.020797705 4278996644
0.050064385 0.035706826 0.024780991 4278931109
0.054192442 0.029941786 0.030931043 4278735014
0.058128104 0.024834141 0.036348499 4278538663
0.064053006 0.0144962 0.047543801 4278670499
0.0056771431 0.033329044 0.02947857 4279915409
0.0069432184 0.036094084 0.026176633 4278735014
0.0086749382 0.044260472 0.016654672 4279453859
0.010612257 0.044381496 0.016295085 4279389343
0.013685605 0.040544383 0.02032485 4279126693
0.016599182 0.037368875 0.023617642 4278602414
0.018760741 0.036832534 0.023983305 4278799273
0.020730209 0.036955819 0.023617936 4278538664
0.022499509 0.037738223 0.02252304 4278669479
0.024668977 0.037202559 0.022887377 4278407594
0.026843738 0.03666734 0.023250742 4278604199
0.029231977 0.035473987 0.024341209 4278538409
0.030787434 0.036914755 0.022519546 4278275504
0.032784551 0.043084539 0.015249526 4279323809
0.035169706 0.04189124 0.016340757 4279127714
0.041542143 0.034904212 0.023592984 4278799273
0.043524019 0.035028946 0.023225835 4278538409
0.045276076 0.035810888 0.022134686 4278800803
0.047719732 0.034621567 0.023215307 4278866338
0.051349334 0.030148782 0.027909437 4278538664
0.055491909 0.024365153 0.03404177 4278539428
0.06016361 0.017271563 0.041609436 4278408614
0.066109918 0.0069001876 0.052774131 4278669989
0.00023048371 0.036776088 0.023141181 4282602599
0.0020162165 0.037561033 0.022044463 4279258783
0.0039723068 0.037682988 0.021681203 4278997153
0.0055715758 0.039130151 0.019854134 4278538154
0.0064356849 0.043226253 0.015103498 4278272954
0.0081864595 0.044009268 0.014013471 4278271934
0.018248405 0.036553785 0.02132648 4279192738
0.020212419 0.036676742 0.020962136 4278538664
0.021976437 0.037460968 0.019869944 4278669734
0.023937646 0.03758388 0.019506222 4278407083
0.026104093 0.037045978 0.019869467 4278669734
0.02806784 0.037169166 0.019505365 4278669733
0.029188715 0.039934587 0.016237622 4278537898
0.031797778 0.044141117 0.01116419 4278405299
0.034390539 0.042282727 0.012978641 4278471854
0.043852724 0.032097325 0.023464924 4278603943
0.046298824 0.030903742 0.024541782 4278800293
0.049452148 0.027733352 0.027782513 4278800294
0.053336889 0.022587668 0.033182628 4278277033
0.057502076 0.016785871 0.03929583 4278604454
0.061715461 0.01098717 0.045400165 4278997664
-0.0028548948 0.039053693 0.017918957 4280503694
0.0031482633 0.038751908 0.017567331 4278275759
0.0050935242 0.038873248 0.017206131 4278800039
0.0061341077 0.042317562 0.013196098 4278799528
0.0076986514 0.04376705 0.011378916 4278472108
0.0098113678 0.043223172 0.011750134 4278471853
0.012307463 0.041351505 0.013576975 4278537388
0.015203061 0.038153116 0.016856423 4278668714
0.017736752 0.036283936 0.018676395 4278733993
0.019498233 0.037070133 0.017586304 4278800294
0.0223975 0.040631413 0.013231931 4278599609
0.024750015 0.039427094 0.014322335 4278468538
0.027321063 0.037560582 0.016135631 4278864808
0.028434467 0.040334269 0.012875972 4278603944
0.040620424 0.033664841 0.019014133 4278799783
0.044180736 0.029157102 0.023697658 4278800803
0.047778547 0.024651829 0.028374234 4278669733
0.051181804 0.020810347 0.032323621 4278801314
0.054851908 0.016309716 0.036986955 4279195543
0.05832205 0.012472581 0.040924065 4279457428
0.062064379 0.00797664 0.045574121 4279587988
-0.0054029711 0.031220917 0.024042973 4282405483
-0.0045887716 0.036017664 0.018559622 4278733993
0.0047942288 0.037958354 0.01529344 4278996134
0.0061944127 0.040079918 0.012748374 4278668969
0.0077618994 0.041533947 0.010933986 4278800039
0.0098770708 0.040988006 0.011303121 4278800293
0.012186421 0.039776251 0.012397906 4278603689
0.014698045 0.037899099 0.014216928 4278800038
0.017031543 0.036688991 0.015307331 4278602923
0.018391229 0.038808379 0.012770129 4278471853
0.021061983 0.043044396 0.0077048149 4278599354
0.026575277 0.037965354 0.012775825 4279125164
0.027891561 0.040082395 0.010246878 4278603944
0.029404679 0.041533705 0.0084431823 4278800293
0.031338405 0.04165525 0.0080848318 4278865829
0.034145735 0.039119214 0.010611171 4278865318
0.037637804 0.03459188 0.01529553 4278996644
0.041391216 0.029402871 0.020693185 4278734758
0.045187511 0.024216637 0.026082942 4278669734
0.049026676 0.019033205 0.03146477 4278735269
0.052908722 0.013852499 0.036838748 4279129243
0.055895381 0.011328142 0.039332166 4279195289
0.058903381 0.0088052042 0.041821703 4279850383
0.062172621 0.005620636 0.045024492 4279981454
-0.0086049736 0.03419169 0.018097883 4280439944
-0.0073044449 0.036993291 0.014815925 4278931109
-0.0044335052 0.041253082 0.0097221602 4279061668
-0.0030221939 0.043381598 0.0071798284 4279390363
-0.00093689002 0.042831317 0.0075525362 4279258018
0.0020299144 0.038934939 0.011561831 4278340018
0.0044952761 0.037048079 0.013384132 4278799273
0.006254388 0.037838094 0.012297524 4278538154
0.0076415334 0.039965447 0.0097599383 4278669223
0.0097564533 0.039417319 0.010127457 4278669223
0.011876717 0.038869631 0.010493992 4278603688
0.014576422 0.036317483 0.013033116 4278735014
0.016327359 0.037107326 0.011948278 4278734504
0.018416928 0.043360688 0.0047207326 4279323808
0.020334857 0.04348094 0.0043650754 4279127459
0.022867136 0.041598942 0.0061754789 4278995879
0.026037995 0.037716143 0.01014754 4278733483
0.028190089 0.037170999 0.010508591 4278603944
0.030134596 0.037293188 0.010148214 4278538919
0.032725699 0.035415158 0.011947917 4278604453
0.036205873 0.030871756 0.016622821 4278604199
0.039723575 0.026330836 0.021290781 4278800549
0.043502428 0.021126062 0.026670406 4278735268
0.046871528 0.017256241 0.030606056 4279129754
0.050501764 0.01272257 0.035253376 4279719059
0.05370608 0.0095228553 0.038459718 4279653778
0.056468345 0.0076560415 0.040228136 4279850128
0.059009477 0.0064557567 0.041277595 4279981454
0.062520251 0.0025952198 0.04518728 4279915918
-0.0093613714 0.035298105 0.013996953 4279718039
-0.0080710202 0.038107771 0.010723552 4278538663
-0.0068021342 0.040916175 0.0074541923 4278341039
0.00401894 0.036813639 0.010752944 4278668969
0.0059531853 0.036934365 0.010393837 4278604199
0.0075211767 0.038397137 0.0085860323 4278407083
0.0096358433 0.03784683 0.0089519452 4278538409
0.011567354 0.037967585 0.0085935015 4278603944
0.013690032 0.037417956 0.0089579839 4278538664
0.015042523 0.039549954 0.0064320508 4278276013
0.017698951 0.043811083 0.0013893992 4278403513
0.019810673 0.043261036 0.0017561205 4278274484
0.028487917 0.034251094 0.010763867 4278865573
0.03128856 0.031697139 0.013278035 4278735268
0.034326013 0.02847565 0.016506659 4278538663
0.038480692 0.021911994 0.023319772 4278539173
0.042247482 0.016689003 0.02868825 4278735779
0.045163304 0.014142569 0.031181296 4279456665
0.048100509 0.011597555 0.033670433 4279915664
0.051059067 0.0090539716 0.036155678 4279719058
0.054038972 0.0065118261 0.038636968 4279850130
0.0565718 0.0053065903 0.039684653 4279915918
0.059115209 0.0041021332 0.040730372 4279981454
0.06310676 -0.0011061877 0.046057619 4279981453
-0.0086877048 0.03035016 0.016454285 4279455899
-0.0077061877 0.034518391 0.011731515 4278342059
-0.0067569017 0.038684689 0.0070147868 4278538663
-0.0056730472 0.042174935 0.0030297786 4278930343
-0.0039380416 0.042967513 0.0019507594 4278668713
-0.0016917996 0.041738309 0.003046982 4278537643
0.0010898616 0.038488865 0.0063139033 4278800039
0.0035432801 0.036588192 0.0081284065 4278800038
0.0052917954 0.037381895 0.0070471 4278276013
0.012996012 0.037863478 0.0056173224 4278341548
0.014534572 0.039329015 0.0038185902 4278538409
0.016258731 0.040121637 0.0027421378 4278537643
0.029414611 0.029308181 0.013165979 4279062178
0.032865569 0.0247324 0.017822882 4278669734
0.036138833 0.020830218 0.021756103 4278342058
0.043002442 0.01236131 0.030320624 4279261079
0.045928255 0.0098068342 0.032805167 4279719313
0.048649445 0.0079242811 0.034571037 4280046989
0.051386643 0.006042771 0.036334038 4279785103
0.054139808 0.0041623376 0.038094133 4279784848
0.056674886 0.0029529668 0.039138049 4280047244
0.059457306 0.0010745265 0.040892839 4280309384
0.063931629 -0.0054901168 0.047630563 4280899709
-0.0078570992 0.024703715 0.01962099 4280569993
-0.0068585351 0.02888605 0.014905045 4279325849
-0.0060561523 0.033742972 0.0094705727 4279390619
-0.0049581006 0.037244935 0.0054913033 4278866338
-0.0035482422 0.039392926 0.0029642321 4278669479
-0.0014663897 0.038835898 0.0033325758 4278407594
0.0007955879 0.037603386 0.0044225939 4278669734
0.0027135126 0.037723023 0.0040664636 4278537643
0.0042712428 0.039193794 0.0022671875 4278668203
0.014220841 0.038442366 0.0019309167 4278800294
0.015942378 0.039237052 0.00085658208 4278603689
0.017658494 0.040031426 -0.00021664798 4278800038
0.020377243 0.037454672 0.0022991709 4278996899
0.023321742 0.03420534 0.0055281613 4278865574
0.027121037 0.028262421 0.011618638 4278930853
0.030549295 0.023669921 0.016268028 4279062688
0.0340151 0.019079909 0.020910481 4278997409
0.037303392 0.015165638 0.024830932 4279195034
0.040623855 0.011253435 0.028745526 4279522963
0.043535583 0.0086893328 0.031225985 4279915919
0.045799315 0.0081451163 0.031561673 4279980944
0.048745729 0.0055833608 0.034035832 4279850129
0.051485002 0.0036955252 0.035793431 4279981454
0.05424026 0.001808729 0.037548162 4280178314
0.057011489 -7.6979399e-05 0.039300002 4280506244
0.060035236 -0.0026335195 0.04176002 4281227384
-0.0071868673 0.019710246 0.02204431 4280635018
-0.006012857 0.023227688 0.018059095 4279653013
-0.0051932596 0.028100908 0.012633091 4279587733
-0.0031594224 0.035805441 0.0039680488 4278735014
-0.0015853345 0.037281357 0.0021688975 4278669479
0.00015255995 0.03807861 0.0010927878 4278473129
0.0018850863 0.038875602 1.7728657e-05 4278603434
0.0046035163 0.043178998 -0.0050070751 4279061669
0.0064944383 0.043297172 -0.0053580217 4278996644
0.0087613389 0.042061001 -0.0042719617 4279061414
0.011992393 0.037440434 0.00040188804 4278864809
0.014294198 0.036206592 0.0014815815 4278668969
0.016606705 0.034973528 0.0025592968 4278800293
0.018731164 0.034417737 0.0029186383 4278669734
0.021868186 0.030480515 0.0068568941 4278735269
0.024833266 0.027221616 0.010073746 4278669478
0.028652463 0.021260384 0.016145537 4278538663
0.031891439 0.017329842 0.02006503 4278604199
0.03495039 0.014077071 0.023264656 4279129754
0.037821244 0.011501566 0.025745912 4279522964
0.040713493 0.0089274831 0.028223274 4279522963
0.043627143 0.0063548274 0.030696722 4280046478
0.045893297 0.0058086291 0.03103034 4279980944
0.048841637 0.0032383129 0.033497475 4279849873
0.051582992 0.0013441294 0.035249725 4280177803
0.05457136 -0.001223512 0.037709571 4280965244
0.057347365 -0.0031154007 0.039455563 4282340968
-0.0076259822 0.019463833 0.019395171 4281094019
-0.0062956735 0.022310756 0.016140996 4280634763
-0.0051504597 0.025837313 0.012169568 4280175253
-0.0036994629 0.028000798 0.0096448418 4279519394
-0.0026025884 0.031524535 0.0056824628 4279256743
-0.0013608783 0.034366228 0.0024450384 4278536624
-0.00031506643 0.037886947 -0.001507733 4279324573
0.001058016 0.04004588 -0.0040177498 4278669733
0.013980806 0.035324741 -0.00040248968 4278734504
0.016877893 0.032050483 0.0028184615 4279062434
0.020000407 0.02809928 0.0067493115 4278932128
0.023557696 0.022793073 0.012102926 4278866594
0.026750006 0.018846396 0.016020956 4278604708
0.02976786 0.015580039 0.019219762 4279063708
0.032812513 0.012315426 0.022413651 4279128988
0.035459917 0.010408312 0.024177996 4279260058
0.038338061 0.007824596 0.026651261 4279719058
0.041020188 0.0059198625 0.028409252 4279784338
0.043718349 0.0040161759 0.030164378 4279718803
0.046209708 0.002790805 0.031206226 4280243084
0.048937172 0.00088912994 0.032956049 4280636548
0.051908791 -0.001688309 0.035412297 4282275433
-0.007906314 0.018542934 0.017473457 4281159044
-0.0067388937 0.022081662 0.013506168 4280240789
-0.005434867 0.024935722 0.010263598 4279387814
-0.003820017 0.026422668 0.0084634591 4279846814
-0.0022159033 0.027909078 0.006665336 4279715489
-0.0011370778 0.031442609 0.0027147569 4278731699
-8.5135922e-05 0.034974545 -0.0012307707 4278404024
0.0011168234 0.037822649 -0.0044540726 4278538665
0.0026564561 0.039305307 -0.0062399395 4278931618
0.0041853189 0.040787421 -0.0080237836 4278733993
0.0060733631 0.040905423 -0.0083741881 4278602923
0.0085243694 0.03897877 -0.0065789595 4278472109
0.011372192 0.035690404 -0.0033573173 4278734248
0.014439907 0.031722575 0.00057358481 4278603944
0.017931316 0.026394676 0.0059259664 4278473893
0.021465704 0.021069564 0.011270436 4278669988
0.024841944 0.016427975 0.015894277 4278801058
0.027848173 0.013149943 0.019086851 4278932383
0.03046825 0.011234444 0.020851152 4279522708
0.032895193 0.010000292 0.021901319 4279588244
0.03575654 0.00740676 0.024370978 4279653523
0.038210187 0.0061744191 0.025416369 4279784593
0.041108958 0.0035833977 0.027879221 4279981199
0.043809183 0.0016733892 0.029628938 4279850130
0.046748046 -0.00091493875 0.032084495 4280833408
-0.0093785748 0.0140756 0.019518835 4282732394
-0.0086600184 0.019683477 0.013398049 4280370584
-0.0073420256 0.022547003 0.010159476 4279846048
-0.0058822036 0.024723992 0.0076430384 4279911584
-0.0039405487 0.024844781 0.0072822515 4279977629
-0.0021675266 0.025650617 0.0062044468 4279977118
-0.00057120994 0.027140927 0.0044112094 4279976863
0.00066626817 0.029999856 0.0011879131 4279781788
0.001705518 0.033541963 -0.0027468577 4279321769
0.0027178675 0.037082464 -0.0066765789 4279649699
0.0042496584 0.038569108 -0.0084576309 4278866084
0.0063251071 0.038003318 -0.0080944337 4278538409
0.0093433689 0.034019187 -0.0041644759 4278538409
0.012584057 0.029353585 0.00047260337 4279128478
0.016055239 0.024006944 0.0058153402 4279128478
0.019373849 0.019346349 0.010438139 4279128733
0.022531794 0.015371289 0.014342433 4279850129
0.025521018 0.012081251 0.017529776 4280112014
0.028129805 0.010158457 0.019291123 4279653779
0.030548327 0.0089193657 0.020339465 4279522964
0.03318654 0.0069985837 0.022095485 4279850639
0.035840776 0.0050789416 0.023848554 4279981199
0.038511053 0.0031603426 0.025598763 4280374154
0.041197363 0.0012428351 0.02734605 4280571268
0.043899667 -0.00067353249 0.029090418 4282079083
-0.0074628294 0.020962823 0.0089735147 4281549193
-0.0058394819 0.022458907 0.0071783941 4280107424
-0.0042268671 0.023954447 0.0053852815 4280041633
-0.0024564639 0.024762247 0.0043096673 4280107423
-0.00086260214 0.026256744 0.0025202166 4280107933
0.00072051026 0.02775069 0.00073277391 4280108699
0.0021163262 0.029930625 -0.0017664563 4279911838
0.0034959894 0.03210967 -0.0042626765 4279649953
0.0073147248 0.032348275 -0.0049714483 4278996644
0.010535339 0.027666122 -0.00034236535 4278407338
0.014173608 0.021614816 0.005702639 4278473639
0.017474845 0.016937822 0.010316933 4279063454
0.020422898 0.013634171 0.01350346 4279325338
0.023199704 0.011017561 0.015975172 4280046733
0.025797198 0.009087462 0.017733557 4280046478
0.028614204 0.0064735785 0.0201979 4279915663
0.031040363 0.0052305944 0.021241551 4279785103
0.033477183 0.0039884038 0.022283247 4279784848
0.036136199 0.0020625219 0.024030497 4280242573
0.038811248 0.00013771653 0.025774835 4280701318
-0.0057970732 0.02018968 0.0067106429 4281089939
-0.0043471754 0.022379208 0.0042060576 4280565914
-0.0027450472 0.023878474 0.0024183318 4280434844
-0.00098261982 0.024688039 0.0013459306 4280435354
0.0007744357 0.025497392 0.00027454458 4280501653
0.0025261287 0.02630645 -0.00079573877 4280370838
0.003914278 0.028492514 -0.0032884814 4280108699
0.0060133897 0.027923819 -0.002933111 4279257254
0.01191213 0.020594534 0.0041673351 4278735523
0.015380452 0.015212867 0.0094838943 4279325339
0.018314153 0.011897374 0.012664696 4279653269
0.020884261 0.0099588744 0.014423037 4279784338
0.023272522 0.0087089725 0.015470156 4280046734
0.026072694 0.006085217 0.017930938 4279850129
0.029097594 0.0027757995 0.021095095 4280046989
0.031737354 0.00084202364 0.022840796 4280112269
0.034184486 -0.00040384382 0.023877269 4281225599
0.036430925 -0.00096235424 0.024206048 4282796144
-0.0026969351 0.021616373 0.0019547101 4281613453
-0.0012734793 0.023810942 -0.00053983741 4281220499
0.00048095547 0.024622254 -0.0016090311 4280566168
0.0027587302 0.023360353 -0.00054523163 4280435099
0.0045104809 0.024171721 -0.0016138349 4279452584
0.0068017021 0.02291083 -0.00055239722 4279518628
0.0096565578 0.019579276 0.0026345029 4279125928
0.012725268 0.015559193 0.0065251198 4279717018
0.016015911 0.010851037 0.011118 4280045968
0.018574679 0.0089052767 0.01287335 4279980688
0.020954497 0.0076503642 0.013918677 4280046478
0.023542758 0.0057065897 0.015668737 4280177548
0.026748387 0.0016955249 0.019534299 4280112524
0.029579971 -0.0009348467 0.021982679 4280308873
0.032432988 -0.0035637766 0.024427155 4280963203
-0.0024811327 0.018656429 0.0021985266 4283250808
-0.0010519028 0.020857874 -0.00029209442 4281874573
0.00070796907 0.021671701 -0.0013606343 4280565404
0.0028146058 0.02109896 -0.0010101181 4280304283
0.0043903515 0.022605676 -0.0027860552 4279649443
0.0068625696 0.020647582 -0.0010198765 4279714724
0.0099032987 0.01661263 0.002865877 4279191719
0.013163105 0.011887237 0.0074527543 4280110484
0.016271004 0.0078566633 0.011326177 4280373133
0.018642351 0.0065967925 0.01236969 4280243084
0.021414179 0.0039537214 0.014822287 4280046478
0.024207454 0.0013121404 0.017270943 4280112269
0.027222451 -0.0020197034 0.020420225 4280177548
0.030264281 -0.0053498223 0.02356465 4281094273
0.033127256 -0.0079867467 0.026000595 4282665073
0.00076112151 0.019408226 -0.0018264819 4282464898
0.0023424625 0.020919543 -0.0036002006 4281219733
0.003913071 0.022430234 -0.0053718127 4279320494
0.0063792951 0.020465255 -0.0036095083 4279583398
0.0097814556 0.015027162 0.0016791709 4279191464
0.013039973 0.010286491 0.0062546376 4279849108
0.016146757 0.006242808 0.010118278 4280111503
0.018709682 0.0042842366 0.011862909 4280177548
0.021872848 0.00024428219 0.015716242 4280374154
0.024870817 -0.0030995756 0.018860301 4281028228
0.027895615 -0.0064416528 0.021999458 4282075513
0.0036148895 0.021566413 -0.0072456151 4280303774
0.0062589198 0.01889753 -0.0047829617 4279649443
0.0096596256 0.013441961 0.00049266778 4279650209
0.013289822 0.0072922967 0.006464174 4280504458
0.01640087 0.0032358058 0.010317078 4280112014
0.019352274 -0.00012199581 0.013461312 4280177549
0.022719614 -0.00487075 0.018005097 4281160063
0.02573007 -0.0082246661 0.021138528 4283122798
0.0066813733 0.015231904 -0.0038469639 4282464898
0.010272328 0.0090601481 0.0021167733 4280763284
0.013725337 0.0035905354 0.0073695015 4280700298
0.017032327 -0.0011774153 0.011912735 4281290623
0.020185217 -0.0052441731 0.015747922 4282796399
0.014718293 -0.0022277012 0.010366628 4282665073
0.042366154 -0.050653607 0.032146275 4280968049
-0.062705807 -0.0010295883 -0.0065158457 4281556589
0.03741648 -0.043167286 0.022381859 4280245888
0.042440321 -0.053105511 0.031531177 4280506499
0.027024796 -0.030824162 0.0086407308 4280902514
0.029873937 -0.033583447 0.010986203 4280310404
0.033151045 -0.037784986 0.014689097 4280113033
0.037490122 -0.045592837 0.021786997 4280178059
0.042305492 -0.054839887 0.03023337 4280505479
0.024264434 -0.030439302 0.0057361294 4281490033
0.027094012 -0.033208549 0.0080784615 4280179079
0.030145442 -0.036700569 0.011096476 4280047499
0.033223677 -0.040190846 0.014109643 4280112269
0.037357636 -0.047298588 0.020510586 4280243084
0.042170662 -0.05657395 0.028935811 4280308874
0.022098018 -0.032220572 0.0048767496 4281619828
0.024721211 -0.034272596 0.0065356065 4280374919
0.027162913 -0.035597019 0.0075132046 4279719569
0.030216044 -0.039099753 0.01052261 4279850128
0.033295967 -0.042600691 0.013527142 4280046733
0.037225153 -0.049004011 0.019234421 4280308619
0.041827515 -0.05758176 0.026962074 4280832643
0.019931855 -0.03400141 0.0040176325 4281161339
0.022354363 -0.035331547 0.0049952604 4280309384
0.024982288 -0.03738983 0.0066482965 4280046988
0.027428871 -0.038718201 0.0076216627 4279719568
0.030286303 -0.041502953 0.009945685 4279784593
0.033570688 -0.045742989 0.013617365 4280046478
0.037298132 -0.051437341 0.018633759 4280045969
0.041692864 -0.059313007 0.02566663 4280177294
0.017020009 -0.032855496 0.00045025535 4282340714
0.019993478 -0.036385372 0.0034574531 4280440199
0.022418192 -0.037719682 0.0044313744 4280243339
0.024853613 -0.039053276 0.0054034181 4280178059
0.02769416 -0.041847795 0.0077238213 4279981454
0.030955978 -0.046102405 0.011389675 4280046478
0.034452539 -0.051085383 0.015723767 4280504968
0.038191907 -0.056796305 0.020724682 4280636039
0.0117526 -0.030348457 -0.0040867124 4280964478
0.014314903 -0.032424316 -0.0024318267 4280243849
0.017265931 -0.035966538 0.00057115778 4280046734
0.019865779 -0.038039796 0.0022192635 4279915664
0.022673395 -0.040845342 0.0045389794 4280046733
0.025308061 -0.042916134 0.0061807837 4280177804
0.028549982 -0.047185101 0.009840278 4280439944
0.031824052 -0.051451869 0.013493879 4280767619
0.035535146 -0.057182021 0.018486666 4282143343
0.0094378404 -0.031368002 -0.0056090038 4282013039
0.011807993 -0.032714918 -0.004631931 4280046988
0.014555785 -0.035533182 -0.0023080856 4279981453
0.017325047 -0.038350046 1.1920929e-05 4279981199
0.019926932 -0.040429667 0.0016546808 4280177548
0.022927927 -0.043979332 0.0046402812 4280177548
0.025955725 -0.047527194 0.0076210219 4280505223
0.029601004 -0.053279035 0.012612538 4280636549
0.033089593 -0.05829294 0.016924789 4281422713
0.036413468 -0.062569484 0.020559339 4282536809
0.0051233415 -0.032507628 -0.006756423 4282210919
0.0069538616 -0.031643622 -0.0078029949 4279587988
0.0094907116 -0.033734269 -0.0061535798 4279653268
0.011863062 -0.035085365 -0.0051802285 4279719314
0.014612732 -0.03791222 -0.002863314 4279850128
0.01719787 -0.03999947 -0.001222562 4280112269
0.020176426 -0.043561481 0.0017588213 4280308619
0.023564512 -0.048597261 0.0060778465 4281160319
0.027184175 -0.054368168 0.011060731 4282209643
0.0024840496 -0.03203398 -0.0096213203 4281750644
0.0049987677 -0.034132786 -0.0079729185 4280309384
0.007179454 -0.034748517 -0.007672634 4279719059
0.0097210314 -0.036845401 -0.0060290247 4279260569
0.012098256 -0.038200468 -0.0050599352 4279719314
0.014852476 -0.041035697 -0.0027504936 4280046734
0.017628154 -0.043869466 -0.00044494867 4280308618
0.020990772 -0.048922084 0.0038670339 4280701574
0.024390949 -0.053972244 0.0081722159 4281486463
0.027828667 -0.059019938 0.012470519 4282994534
0.00019592047 -0.033033133 -0.011134214 4280833154
0.0025297012 -0.034395814 -0.010160721 4280177803
0.0050464459 -0.036500923 -0.0085176975 4279980689
0.0072294977 -0.037118658 -0.008219514 4279128733
0.0095955152 -0.038478933 -0.0072517209 4279457174
0.012332816 -0.041324005 -0.0049458779 4279653778
0.015091583 -0.044167608 -0.0026439242 4281225088
0.017871791 -0.047009677 -0.0003458783 4283058029
-0.006862931 -0.030543208 -0.01526593 4280901494
-0.0044006258 -0.032658711 -0.013618155 4280374663
-0.0020861626 -0.034027144 -0.012644573 4280046989
0.00040574931 -0.036140591 -0.011002063 4279784339
