# .PCD v0.7 - Point Cloud Data file format
VERSION 0.7
FIELDS x y z rgba
SIZE 4 4 4 4
TYPE F F F U
COUNT 1 1 1 1
WIDTH 975
HEIGHT 1
VIEWPOINT 0 0 0 1 0 0 0
POINTS 975
DATA ascii
-0.0048090704 0.028801013 0.040340908 4290193439
-0.003056664 0.029583456 0.039229389 4290062369
-0.0013095513 0.030365612 0.03811894 4290062114
0.00076247752 0.029831141 0.03848689 4289866020
0.0031755269 0.027981058 0.040330153 4289669669
0.0059457086 0.024816448 0.043645561 4289800483
0.0097817816 0.017707737 0.051378407 4289407783
0.016138934 0.001398202 0.069412045 4289407783
-0.019954652 0.024927719 0.043638255 4289015849
-0.01928087 0.031010382 0.036584858 4290193439
-0.017669894 0.032456487 0.034733031 4289997088
-0.015639178 0.031916648 0.035107028 4289539364
-0.013310693 0.030054096 0.036961313 4290127903
-0.010817159 0.027531218 0.039552696 4290062369
-0.0089080594 0.027654748 0.039181326 4289931809
-0.0071530491 0.028439403 0.038070861 4289473829
-0.0052464455 0.028562881 0.037700061 4289538598
-0.0031801872 0.028025726 0.038067359 4290127393
-0.00127073 0.028149521 0.037696104 4289931553
0.00080373138 0.027613014 0.038061902 4290258719
0.0032188743 0.025756516 0.039899744 4289604644
0.0058204941 0.02324111 0.042470474 4288950824
0.0093086064 0.017427959 0.048714422 4288688428
0.015304584 0.0023826472 0.065238327 4288688428
-0.019942757 0.022699432 0.043212656 4286726459
-0.01926481 0.028801937 0.036173429 4289866019
-0.01765088 0.030252522 0.034324382 4289800483
-0.015474446 0.029046722 0.035435732 4289735458
-0.013287142 0.027841691 0.03654502 4289670179
-0.011088986 0.026637377 0.037652288 4289931808
-0.0093339793 0.027424123 0.036543425 4290128414
-0.0074302293 0.027547335 0.036173116 4290193693
-0.0053696781 0.027007554 0.0365398 4290586394
-0.0029848889 0.025142351 0.038378391 4290259484
-0.0010701381 0.025266461 0.038006086 4290194204
0.0011742041 0.02406555 0.039104603 4289605409
0.003596805 0.02220298 0.040935978 4289277989
0.0065459609 0.018354924 0.044967312 4289016359
0.010045856 0.01252291 0.051193956 4288950824
0.016051175 -0.002571933 0.067677669 4288623148
-0.019661035 0.019133609 0.044262964 4286202944
-0.019249033 0.026589297 0.035758857 4289997088
-0.017351311 0.026711794 0.035389468 4290389533
-0.015167236 0.025502061 0.036496021 4290455834
-0.013118099 0.024959084 0.036863048 4290194204
-0.01121195 0.025082309 0.036492161 4290259738
-0.0093056932 0.025205603 0.036121301 4290455579
-0.0073993318 0.025328971 0.035750475 4290521369
-0.0050232857 0.023456583 0.037585698 4290390554
-0.0027902611 0.022250427 0.03868296 4290390554
-0.00070831552 0.021709956 0.039043896 4290652439
0.0015436634 0.020505121 0.04013763 4290194459
0.003806442 0.019301092 0.041229263 4289867038
0.0067598447 0.015440222 0.04524976 4289147174
0.010263465 0.0095888302 0.051460661 4288754729
0.016270069 -0.0055560656 0.067905754 4288754729
-0.019380301 0.015554871 0.045303557 4286530619
-0.018958416 0.023035094 0.036815893 4289605154
-0.017052721 0.023158068 0.036444925 4289997853
-0.014861036 0.021944478 0.03754659 4289998364
-0.012804076 0.021399764 0.037910454 4290129689
-0.01103827 0.022191493 0.036802694 4289671708
-0.0091267191 0.0223151 0.03643078 4289671708
-0.0070613921 0.021771125 0.036793165 4289541149
-0.0048342608 0.020560144 0.03788818 4289606429
-0.0025962926 0.019349938 0.038981143 4289279264
-0.00067095459 0.019474702 0.038606752 4290391829
0.0015832856 0.018265646 0.039696701 4290064408
0.0036812201 0.017724138 0.040052939 4289998873
0.0066334978 0.013850112 0.044063639 4289737244
0.010135472 0.0079789907 0.050259843 4289148449
-0.018806178 0.02013883 0.037127487 4289801759
-0.016895201 0.020262118 0.036755472 4290129178
-0.014984075 0.020385483 0.03638348 4289998618
-0.013072841 0.020508921 0.03601151 4290261014
-0.011161484 0.020632431 0.035639569 4289606428
-0.0092500225 0.020756006 0.035267655 4289279263
-0.007184945 0.020209808 0.035628401 4289279263
-0.0051144212 0.019664072 0.035988096 4289868314
-0.0028795712 0.018449286 0.037078314 4289802778
-0.00095700473 0.018573852 0.036704447 4289999128
0.0012941174 0.017360218 0.037791654 4289868314
0.003556028 0.016147388 0.038876764 4289737243
0.0059983656 0.014266521 0.040689319 4289541149
0.0096629113 0.007706549 0.04760132 4289344799
0.015830943 -0.0082078874 0.064700745 4289279263
-0.018654577 0.017233977 0.037432745 4289409058
-0.017018113 0.018703362 0.035592508 4289671708
-0.01524967 0.019499388 0.034487471 4289737499
-0.013195924 0.018950086 0.034848534 4289802778
-0.011136692 0.018401172 0.035208624 4289671964
-0.0092226267 0.0185249 0.034836192 4289541148
-0.0073084608 0.018648699 0.034463786 4289148703
-0.005394198 0.018772576 0.03409142 4289476379
-0.0031624697 0.01755321 0.035178892 4290196244
-0.0010812953 0.017006099 0.035534937 4290392594
0.0011693947 0.015788067 0.036618885 4290522643
0.0032641329 0.015241975 0.036972396 4289868314
0.0058725998 0.012683386 0.039508399 4289934359
0.0095353201 0.0061015002 0.046404071 4289672984
0.015699083 -0.0098654963 0.063464314 4289280539
-0.018640656 0.014995841 0.036999106 4289867804
-0.017140981 0.01714479 0.034429677 4290064409
-0.015230034 0.017268084 0.034057673 4290065173
-0.013318967 0.017391456 0.033685699 4290523409
-0.011259992 0.016840326 0.034044158 4289999894
-0.0096469522 0.018312791 0.032211997 4289345564
-0.0077382363 0.018436218 0.031840637 4289279263
-0.0055177622 0.017211635 0.032926943 4289476378
-0.0034449808 0.016661718 0.033282887 4289934868
-0.0012055486 0.015438549 0.034365572 4290261778
0.00071691722 0.015563151 0.033991754 4289934614
0.0029726028 0.014341135 0.035071433 4290786058
0.0054083318 0.012446783 0.036875207 4290197519
0.0092358105 0.0051696375 0.044481318 4289608724
0.015217986 -0.010177303 0.060777742 4289608724
-0.018763881 0.013430968 0.035831545 4289148703
-0.017263789 0.015586443 0.033267006 4289869334
-0.015495174 0.016386777 0.032165222 4290066194
-0.013586875 0.016509935 0.031793758 4289346584
-0.011530858 0.015956447 0.032151062 4289608979
-0.0097699426 0.016756501 0.031050945 4289019928
-0.0077083483 0.016203513 0.031407267 4289937419
-0.019160468 0.013225514 0.033205751 4288954648
-0.017665315 0.015387179 0.030647153 4289346838
0.0069377534 0.017072456 0.0143884 4288430879
0.0086406916 0.017880416 0.013308479 4289606683
0.011791401 0.013204796 0.017939944 4291895053
0.015901346 0.0051054657 0.026130551 4290389534
-0.0060741231 0.02169678 0.0082762018 4290849809
-0.0035687312 0.019061586 0.010778734 4292158979
-0.0012071729 0.017116562 0.012561829 4291112714
0.00083447248 0.016549552 0.012912366 4289672474
0.0025400557 0.017359639 0.011833353 4289802268
0.0035466701 0.020921942 0.0079005891 4289867804
0.0045264661 0.024482578 0.0039730947 4290128414
0.0061945803 0.025290444 0.0029016046 4289996833
0.008764673 0.022660024 0.005392001 4289996579
0.012461159 0.015906518 0.012148093 4289276969
0.0180797 0.0022840686 0.026004974 4289472553
-0.013313167 0.018322477 0.010025781 4290194458
-0.012212366 0.021901097 0.0060825162 4289998364
-0.010983877 0.024786534 0.0028602506 4290063389
-0.0091482215 0.024905233 0.0025031033 4290586139
-0.0071526691 0.024332801 0.0028607405 4290324509
-0.0046641864 0.021687843 0.0053598499 4291109909
-0.0023193434 0.019735148 0.0071412306 4290651929
-0.00046195835 0.019855585 0.0067801094 4289997599
0.0010543615 0.021357071 0.0049938401 4289932064
0.0022135079 0.02423859 0.0017855011 4290127904
0.0035271235 0.026428677 -0.0007070431 4290716444
0.0046460591 0.029307757 -0.003907437 4289800483
0.0068312995 0.02804674 -0.0028404165 4288557614
0.010131136 0.022648867 0.0024845598 4288491824
0.015153892 0.011048872 0.01418667 4288949804
-0.014326166 0.020971745 0.0046044597 4289408038
-0.01324071 0.024560226 0.00067248871 4290258973
-0.012027726 0.027453344 -0.0025401143 4289670433
-0.01036524 0.028264521 -0.0036076987 4289081384
-0.008388754 0.027688708 -0.0032480722 4289015848
-0.0057575144 0.024340535 -3.9244071e-05 4289997344
-0.0035944097 0.023073237 0.0010283717 4289997344
-0.0015882254 0.022499595 0.0013824098 4290324254
-0.00025814772 0.024697103 -0.0011084685 4290062368
0.0012289286 0.026201108 -0.0028856732 4289996834
0.0025295503 0.028396871 -0.0053707003 4290912794
0.00381409 0.030591667 -0.0078525413 4290781724
0.0058070235 0.030017547 -0.0074955588 4290650909
0.0089081451 0.025293091 -0.0028893701 4290585373
0.013352256 0.01572977 0.0066645909 4290584863
0.019763233 -0.00074310601 0.023277329 4290584863
-0.014593352 0.020166241 0.0027705219 4288425778
-0.013964102 0.025853688 -0.0032918036 4290390298
-0.012607157 0.028058946 -0.0057833083 4290912794
-0.011109434 0.02956748 -0.0075596441 4290520093
-0.0091439635 0.028988775 -0.0071995459 4290651164
-0.0066865757 0.02632433 -0.0047076829 4290650908
-0.0043725036 0.024356572 -0.0029303234 4290520093
-0.0025448538 0.024475057 -0.0032856788 4289866018
-0.0010575801 0.025983386 -0.0050596977 4289996578
0.0007647872 0.026101701 -0.0054138964 4289996578
0.002587188 0.026220106 -0.0057680337 4290389279
0.0040530972 0.027727252 -0.0075376686 4290389279
0.0058701783 0.027845481 -0.0078906398 4289734948
0.008421775 0.025187837 -0.0054165674 4290062369
0.012112724 0.018368801 0.0012907234 4290389279
0.016991323 0.0073915385 0.012221859 4290454559
-0.015008729 0.020063804 0.00022808136 4287182908
-0.014383562 0.02576833 -0.0058201021 4289865763
-0.013031568 0.027979769 -0.008305667 4290193184
-0.011538982 0.029492352 -0.010077728 4289996834
-0.0097384527 0.029608823 -0.010428008 4290062113
-0.0074518993 0.027632661 -0.0086503616 4290258463
-0.0051491857 0.025657628 -0.0068757972 4290062369
-0.0029976778 0.02438098 -0.005812584 4289800738
-0.0013454854 0.025196236 -0.0068745334 4289604133
0.00047409162 0.025314363 -0.0072281938 4289473319
0.0022937059 0.025432585 -0.00758179 4290258464
0.0041133426 0.025550889 -0.0079353303 4290389023
0.0055714622 0.027061967 -0.0097000534 4290389023
0.0077526607 0.025787769 -0.0086422125 4290062369
0.010316882 0.023122329 -0.0061771851 4289800483
0.014413135 0.014891818 0.00191629 4289735204
0.021829398 -0.0051605217 0.021957735 4289735204
-0.014532998 0.015766602 0.0019539695 4286071108
-0.01465122 0.024991551 -0.0076320153 4289799209
-0.013147734 0.026509043 -0.0094029037 4290192419
-0.01165491 0.028025981 -0.01117169 4290389023
-0.0096953474 0.027442465 -0.010813751 4290323744
-0.0078921728 0.027559182 -0.011164489 4290127649
-0.0055954605 0.02557726 -0.0093938084 4289800738
-0.0036169402 0.024995241 -0.0090393526 4289800738
-0.0016330145 0.024413694 -0.0086859334 4289408294
0.0001837723 0.024531644 -0.0090390481 4289539108
0.0021758191 0.023950791 -0.0086870771 4289997089
0.0039953478 0.024069097 -0.0090405885 4290127393
0.0054537058 0.025584534 -0.010802037 4290062114
0.0070846081 0.026401054 -0.0118579 4290323999
0.0094540119 0.024424516 -0.01010076 4290847258
0.012782751 0.018959071 -0.004834475 4290847259
0.018641707 0.0044247061 0.0095484862 4290847259
-0.014314856 0.021408828 -0.0066079726 4289079854
-0.013110269 0.024336124 -0.0097923698 4290061603
-0.011614513 0.025857532 -0.011558373 4290258464
-0.0098115131 0.025974147 -0.011909146 4290192928
-0.0081700943 0.026792798 -0.012965944 4290847259
-0.0058766864 0.024804104 -0.011199563 4290847513
-0.0037341267 0.023518126 -0.010141229 4290847513
-0.0017504841 0.022934373 -0.0097894277 4290324254
-0.00010617822 0.023753531 -0.010846466 4289800738
0.0015327856 0.024572486 -0.011902432 4289735459
0.0033441596 0.024690252 -0.012254369 4290389533
0.0047947057 0.026209529 -0.014010969 4290455069
0.0064176358 0.027027659 -0.015063577 4289996834
0.0084067732 0.026444802 -0.014712431 4289866019
0.011343634 0.022361409 -0.010858201 4289735204
0.01584194 0.012680039 -0.001407813 4289669668
-0.013979495 0.017813228 -0.0055935415 4287248443
-0.013226528 0.022863712 -0.010890873 4289930789
-0.011886649 0.025093969 -0.013359081 4290062369
-0.0099276491 0.024506049 -0.013004378 4289866274
-0.0084476285 0.026030997 -0.014763911 4291109143
-0.0064858347 0.025443478 -0.014409659 4290782233
-0.0045186095 0.024856346 -0.014056359 4290978583
-0.0027154945 0.024973305 -0.014406895 4290782234
-0.0010845549 0.025793813 -0.015459717 4289997088
0.00071594492 0.025910774 -0.015809612 4290193183
0.0025164708 0.026027832 -0.016159441 4290062368
0.004136771 0.026847865 -0.017209953 4290781979
0.0057517104 0.027667651 -0.018259343 4290651164
0.0077325143 0.027082087 -0.017908234 4289996833
0.010283578 0.024389803 -0.015460541 4288950314
0.014001984 0.017485786 -0.0088249883 4288950314
0.020098018 0.002160985 0.0061779218 4288950058
-0.013344005 0.012790792 -0.0031790126 4285940804
-0.013189506 0.020684723 -0.011284877 4289342249
-0.01215839 0.024334976 -0.015156313 4290192928
-0.010678191 0.025864149 -0.016912578 4289604643
-0.0092086606 0.027392751 -0.018666752 4289408549
-0.0072578751 0.026802292 -0.018311989 4289539364
-0.0051350221 0.025506362 -0.017256536 4290324253
-0.003509406 0.026328556 -0.018306689 4290062623
-0.0017170981 0.026444882 -0.018655073 4290193439
-0.00027418137 0.027972227 -0.020403715 4290193183
0.0016902126 0.027383098 -0.020051254 4290062624
0.0029396825 0.029614817 -0.022496279 4290716444
0.004538592 0.030435726 -0.023540897 4290978074
0.0063175745 0.030551655 -0.023886334 4290651164
0.0088490471 0.027849397 -0.021441493 4290323999
0.011974387 0.023035498 -0.016909666 4290585373
0.017072178 0.011181947 -0.0054199221 4290519584
-0.013765071 0.021337647 -0.014492722 4288884013
-0.013052762 0.026415994 -0.019758811 4290193184
-0.012061056 0.030074649 -0.023614198 4290716953
-0.010612752 0.03160616 -0.025360886 4289277734
-0.0086837187 0.031012163 -0.025003601 4289539364
-0.0065827891 0.029710453 -0.02394722 4289866273
-0.0043019056 0.027701532 -0.022193264 4290651163
-0.0023485906 0.027109375 -0.02184049 4290127903
-0.00056441501 0.02722528 -0.022187214 4290323998
0.0010425709 0.028048696 -0.023231886 4290127903
0.0022844039 0.030286433 -0.025670439 4290127903
0.0036927424 0.031816091 -0.027408797 4290323999
0.0056461431 0.031224389 -0.027055696 4289866018
0.008168757 0.028512869 -0.02461578 4290258463
0.011094084 0.024389712 -0.020789169 4290323999
0.014824849 0.01744316 -0.01418919 4290192673
0.021353232 0.00061302632 0.0021215512 4290192673
-0.01403378 0.020581596 -0.016288519 4287183418
-0.013945371 0.028519079 -0.024344848 4290192673
-0.013124593 0.032898612 -0.028889485 4290847513
-0.011692151 0.034433469 -0.030629814 4290585884
-0.0097794905 0.033836182 -0.030270969 4290520604
-0.0071961842 0.030398056 -0.027119292 4290847514
-0.0050929859 0.029092237 -0.026066612 4290193439
-0.0029790103 0.027787175 -0.025015909 4290193439
-0.0015517212 0.029322166 -0.02675489 4290193439
0.00039599463 0.028727651 -0.026402554 4289800738
0.0018099211 0.030261911 -0.028138751 4290192929
0.0035779439 0.03037703 -0.028482132 4289996578
0.005531054 0.029783148 -0.028130632 4289800484
0.0080528557 0.027062887 -0.025697205 4289931043
0.010786567 0.023635376 -0.022574103 4289800228
0.01374023 0.019501129 -0.018762898 4289604134
0.019663408 0.0047429502 -0.0045668171 4289146408
-0.014149368 0.019116759 -0.017381389 4286136898
-0.01452541 0.029217865 -0.027516579 4290257698
-0.013553664 0.032896921 -0.031351481 4290258208
-0.012126356 0.034435753 -0.033087444 4289669668
-0.0100559 0.033123277 -0.032031868 4289538853
-0.0078085214 0.031099055 -0.030281447 4289800739
-0.0055450052 0.029075962 -0.028534094 4290127393
-0.0037798658 0.029190522 -0.028877201 4290062114
-0.0018405132 0.028593194 -0.02852498 4289669669
-7.2639436e-05 0.028708111 -0.028868478 4289734948
0.0016952567 0.02882313 -0.029211905 4289604134
0.0038276203 0.02751532 -0.028167868 4289800228
0.0059707388 0.026208278 -0.027125791 4289996579
0.0083121695 0.024190953 -0.025393117 4289734949
0.010859976 0.021463795 -0.022971319 4289342503
0.013622193 0.01802738 -0.019861989 4289080618
0.019345934 0.0039339364 -0.00639117 4288557104
0.042773947 -0.065425426 0.060511943 4289277224
-0.014328189 0.026353018 -0.027191838 4288426034
-0.013508245 0.030758524 -0.031716391 4289669158
-0.011917435 0.031586885 -0.032753408 4289538854
-0.0098420605 0.030270342 -0.031702068 4289146409
-0.0077559315 0.028954614 -0.030652808 4289408294
-0.005659014 0.027639652 -0.029605517 4289408038
-0.0040653273 0.028468573 -0.030642807 4289146153
-0.0023029633 0.02858304 -0.030985307 4288884778
-0.00018716604 0.027269585 -0.029941469 4289277223
0.0017599799 0.026670774 -0.029592287 4289669668
0.0040766373 0.024645094 -0.027859885 4289473064
0.0064093806 0.022620594 -0.026130583 4289669414
0.0089456514 0.019883908 -0.023713257 4289276714
0.011123165 0.018574949 -0.022681044 4288884524
0.013889756 0.015127968 -0.019580869 4288426544
0.020006184 -0.00043431669 -0.0047646882 4288426544
0.042233191 -0.06573163 0.057844143 4289080874
-0.013821498 0.022044577 -0.025482103 4287837238
-0.01298992 0.026463909 -0.029998992 4289734438
-0.011548739 0.028012292 -0.031731032 4289800739
-0.0094657987 0.026691923 -0.030684546 4289211944
-0.0075378567 0.026089171 -0.030333608 4289277223
-0.0052675754 0.024053525 -0.028597597 4289081129
-0.0036657788 0.024885101 -0.029634755 4289145898
-0.0017216429 0.024283731 -0.029286796 4289145899
5.1360577e-05 0.024398973 -0.029631296 4289341993
0.0020035952 0.023798287 -0.029284716 4289865253
0.0043249652 0.021766433 -0.027558263 4290061603
0.0066624433 0.019735694 -0.025834816 4289603623
0.0090160035 0.017706139 -0.024114462 4289473064
0.011195734 0.016392989 -0.023085997 4288949804
0.014156621 0.012220152 -0.019306088 4288491823
0.020665033 -0.0048196986 -0.0031510491 4288491823
0.042295154 -0.068172663 0.057243571 4289015339
-0.013471045 0.018438725 -0.024479274 4288752943
-0.012788069 0.023591174 -0.029681418 4289734438
-0.011020791 0.023705462 -0.030025251 4290192674
-0.0090905242 0.023100628 -0.029676557 4289996323
-0.007154841 0.02249624 -0.029328842 4289276459
-0.0053820461 0.022611186 -0.02967352 4288818478
-0.0034382232 0.022007488 -0.029327188 4288883758
-0.0014890172 0.021404268 -0.028981883 4288818223
0.00028923154 0.021519857 -0.029327398 4289276204
0.0020675026 0.021635538 -0.02967285 4289472553
0.0042091981 0.020315325 -0.028640585 4289472553
0.0067304261 0.017560191 -0.026233708 4289603369
0.0090860352 0.01552422 -0.024518691 4289145644
0.011457719 0.013489436 -0.022806764 4289080109
0.014422813 0.0093038045 -0.019037593 4288818478
0.041755304 -0.068467334 0.054584391 4289080109
-0.013585743 0.016985836 -0.025563218 4289079599
-0.012586884 0.020710019 -0.0293702 4289799208
-0.010974452 0.021546217 -0.030406417 4289799973
-0.0092045516 0.021660762 -0.030750694 4289865509
-0.0072691627 0.02105418 -0.030404592 4289145389
-0.0053283572 0.020448009 -0.030059416 4288752943
-0.0033821538 0.01984233 -0.029715255 4288818479
-0.0014305636 0.019237092 -0.029372074 4288687408
0.00035024807 0.019352848 -0.02971809 4289210924
0.0023099296 0.018748345 -0.029376321 4289799464
0.004456535 0.017424047 -0.028348301 4289538089
0.0067980811 0.015380586 -0.026635658 4289407018
0.0091557242 0.01333824 -0.024926014 4289537834
0.01133986 0.012016743 -0.023905087 4289537834
0.014496049 0.0070985258 -0.019460553 4289079853
0.041817099 -0.070909888 0.05398263 4289537834
-0.013700414 0.015533196 -0.026646977 4288817969
-0.012700815 0.019268276 -0.030445799 4289603114
-0.010928415 0.019382881 -0.030790642 4289734438
-0.0093185492 0.020221176 -0.03182463 4289472554
-0.0072181746 0.018888948 -0.030791398 4289668649
-0.0056109019 0.019727314 -0.031824775 4288949038
-0.003667675 0.01911922 -0.031481661 4288817969
-0.0018923767 0.019234503 -0.03182669 4288687154
0.00023494288 0.017904466 -0.030798435 4288751923
0.0020156503 0.018020308 -0.031144358 4289799463
0.0041590892 0.016691519 -0.03011908 4289538088
0.0066813603 0.013919102 -0.027725684 4289538089
0.0090383589 0.011870202 -0.026020903 4289471533
0.011222022 0.010544341 -0.025003202 4288817203
0.013992673 0.0070542321 -0.021937022 4288293433
0.041478295 -0.071914211 0.052014008 4288817203
-0.013815042 0.014080843 -0.027730528 4289340973
-0.012814708 0.017826797 -0.031521205 4289995559
-0.011361901 0.019393275 -0.033242241 4289799464
-0.0095949322 0.019507611 -0.033585958 4289733928
-0.0074977167 0.018170876 -0.032555483 4289341739
-0.0055575036 0.017560316 -0.03221352 4288491313
-0.0037823617 0.01767548 -0.032558609 4288620343
-0.0021803379 0.018515868 -0.033589154 4288227644
-0.000231985 0.017906142 -0.033248536 4288162873
0.001543235 0.018021626 -0.033593398 4288752689
0.0036808364 0.016688125 -0.032570302 4288884013
0.0058291703 0.01535541 -0.031549223 4288490294
0.0079882443 0.014023459 -0.030530106 4288162619
0.0099687949 0.013416383 -0.030195396 4288292413
0.040739931 -0.071467206 0.0486883 4288031038
-0.014083836 0.013357224 -0.029501403 4289275694
-0.01324233 0.01784219 -0.033970404 4290061093
-0.011635106 0.018684531 -0.035000656 4289669668
-0.010195438 0.020254621 -0.036715791 4289341739
-0.0081067272 0.018912945 -0.03568694 4289406764
-0.0063424744 0.019027308 -0.03602998 4288359478
-0.0045781769 0.019141778 -0.036372948 4287900479
-0.0029868372 0.019983642 -0.037399761 4287964993
-0.0010495111 0.019371018 -0.037058674 4287572804
-0.014660314 0.014099529 -0.032640617 4287442244
-0.013669241 0.017866604 -0.036412958 4287703364
0.0023486428 0.014795963 0.031723715 4284380969
0.0047757216 0.012894467 0.033524211 4283791918
0.0082495883 0.0069430619 0.039665833 4283660849
0.014214236 -0.0084551051 0.055927325 4283660849
-0.0079843625 0.015323794 0.029518684 4284639794
-0.0059202537 0.014768843 0.029872892 4284511273
-0.0041670278 0.015570771 0.028776089 4284511784
-0.0020973869 0.015016332 0.029129339 4284251429
-0.00018584728 0.015140187 0.028757615 4284251429
0.0017257594 0.015264129 0.028385947 4284057373
0.0038063452 0.014710587 0.028737286 4283534624
0.0070935264 0.0094159953 0.034144394 4283469343
0.012166549 -0.0026476458 0.046762064 4283534369
-0.016591843 0.017363785 0.025484497 4284183343
-0.014989 0.018848434 0.02366415 4283924774
-0.012954973 0.018289085 0.02402241 4284186404
-0.010465644 0.0156874 0.026554432 4284186404
-0.0082599893 0.014448661 0.02763352 4284118828
-0.0063541457 0.014571913 0.027262729 4284186659
-0.0047642216 0.016056113 0.025445189 4284317728
-0.0027028918 0.015498899 0.025798418 4284121888
-0.00063612685 0.014942151 0.026150603 4284057119
0.00110396 0.015745616 0.025058176 4283792428
0.003176216 0.015189385 0.025409419 4283791664
0.0059395842 0.011915367 0.028642753 4283794213
0.010645043 0.0011700504 0.039793663 4283795233
-0.019982234 0.0031407624 0.038515024 4283590213
-0.019815054 0.012157589 0.028700108 4284186149
-0.018466145 0.015015602 0.025427463 4284186658
-0.016996838 0.017188689 0.022883914 4283859494
-0.015543506 0.019360768 0.020343568 4283468833
-0.013517808 0.018798718 0.020701718 4283730718
-0.01088753 0.015504563 0.023952123 4283864338
-0.0086876936 0.014261123 0.025028955 4283925538
-0.006787315 0.014384001 0.024659211 4284121124
-0.0053603277 0.016554762 0.022124287 4284186658
-0.0033073314 0.015994852 0.022477413 4284056098
-0.0014120787 0.016117634 0.022108845 4283929619
0.00048322976 0.016240491 0.021740323 4283796508
0.0023785904 0.016363438 0.021371856 4283793958
0.0051302575 0.01307776 0.024599124 4283794723
0.0091263652 0.0050229467 0.032851581 4283926049
0.013716791 -0.0050717443 0.043245833 4284057374
-0.019172005 -0.0032451637 0.042408735 4283590214
-0.020073384 0.011290703 0.026817029 4284120359
-0.019004308 0.015529303 0.022103865 4284122399
-0.017259527 0.016336689 0.021013295 4283860258
-0.015519995 0.017143821 0.019923814 4283791919
-0.013344966 0.015894243 0.021002004 4283726128
-0.011159085 0.0146454 0.022078183 4283792938
-0.0091146566 0.014082517 0.022431126 4284057119
-0.0076846592 0.01625994 0.019900488 4284121124
-0.0059553646 0.017066797 0.018813293 4284383264
-0.0040710233 0.017188778 0.018446777 4284317728
-0.0020235926 0.016626403 0.018799374 4284187679
-0.00013643131 0.016748723 0.018432429 4283664929
0.002087567 0.015502894 0.019501612 4283534113
0.0046645068 0.012890017 0.022003762 4283795488
0.007610485 0.0089111328 0.025935749 4284121888
0.0098829232 0.0076687299 0.026995661 4284510764
0.012703529 0.004376851 0.030201433 4284575023
-0.019515254 0.006298203 0.029273352 4283590724
-0.019125305 0.013991741 0.020956656 4283990054
-0.017521828 0.015489299 0.019146109 4283928599
-0.015640836 0.01561057 0.018779866 4283730719
-0.013466246 0.014356587 0.019854793 4283664929
-0.011430241 0.01379084 0.020207671 4283730718
-0.009845119 0.015287561 0.018400889 4284056098
-0.0087350309 0.018845143 0.014439256 4284316454
-0.018687092 -9.7017735e-05 0.033155568 4283459399
-0.018969197 0.011073615 0.021250652 4283923499
-0.017501328 0.013266103 0.018722303 4283924773
-0.015617751 0.013387514 0.018355537 4283794468
-0.013734065 0.013509015 0.017988814 4283727659
-0.012447305 0.016389376 0.01474844 4284315433
-0.01102997 0.018578885 0.01223022 4284643873
-0.017983597 0.0039915778 0.025851561 4283592509
-0.016916964 0.0082691796 0.021168837 4283792939
-0.01516379 0.0090836398 0.020081637 4283661104
-0.01591168 0.0011668764 0.025749428 4282675274
-0.0078587309 -0.067539103 0.019943655 4282674509
-0.0064302497 -0.064406879 0.01686145 4282938434
-0.010145765 -0.068553917 0.018442467 4282477394
-0.008420255 -0.066918559 0.016707603 4282153288
-0.0071462281 -0.063025385 0.012962802 4282936393
-0.0089807101 -0.066284575 0.013481493 4282542419
-0.0075672418 -0.063136019 0.010415456 4282738513
-0.0092522353 -0.067151882 0.01160132 4282607188
-0.0076943003 -0.064751931 0.0092097661 4282672978
-0.0076748841 -0.067126818 0.0086701317 4282738258
-0.0096505545 -0.069634117 0.0085161384 4282148444
-0.0079483129 -0.067982815 0.0067990785 4281889109
-0.0081930459 -0.056435123 -0.0035437236 4282544204
-0.0085135736 -0.067306817 0.0036062959 4282345304
-0.0087639391 -0.055727072 -0.0067105927 4283000909
-0.0093696415 -0.065085851 -0.00089844037 4282476119
-0.010173693 -0.055062912 -0.014837008 4282215509
-0.011333082 -0.051217176 -0.020589659 4282346578
-0.012143839 -0.037198618 -0.032751381 4283787584
-0.01189835 -0.050438121 -0.023703562 4282149719
-0.012412999 -0.037929356 -0.034527622 4282611013
-0.012462553 -0.049645804 -0.026807493 4282020943
-0.012531359 -0.039431788 -0.035648588 4282349384
-0.011992618 -0.054290898 -0.025346441 4282148444
-0.01144762 -0.047162056 -0.031567734 4282153034
-0.010491926 -0.042371161 -0.035830554 4283067208
-0.0097662397 -0.058049425 -0.024918275 4282804303
-0.014854711 0.0054569282 0.02107867 4281097844
-0.014768414 -0.0066669211 0.031019183 4281030523
-0.0141165 -0.00027242675 0.024209777 4278930854
-0.014389101 0.010297578 0.013125532 4283254888
-0.013237089 -0.0067265779 0.028034469 4279783063
-0.012735873 -0.0018723048 0.02008307 4280634253
-0.011403151 -0.010459889 0.026012365 4281289093
-0.013856761 -0.074031882 0.061332446 4282340458
-0.01597508 -0.076613277 0.06115647 4282078573
-0.014121346 -0.075022191 0.059356432 4281881458
-0.016491592 -0.076142639 0.057794627 4282078063
-0.014385521 -0.076007783 0.05738385 4281881204
-0.014048308 0.0044983588 -0.020897731 4283190118
0.00852862 0.017041069 -0.036048628 4282400638
0.011454154 0.012800844 -0.032311656 4281288838
0.017133759 -0.0015992597 -0.019064836 4281485699
0.038604129 -0.065928154 0.040621795 4279977374
0.045141704 -0.081748925 0.05513737 4279780003
0.047489092 -0.082333498 0.055399779 4280501908
-0.016752549 -0.077123396 0.055825047 4282666604
-0.014909126 -0.075524352 0.054033607 4282142578
-0.013208874 -0.073193803 0.051554207 4282536553
-0.008879438 0.02039835 -0.039492302 4282658443
-0.006791167 0.019052451 -0.038466655 4281283738
-0.0050323643 0.019166557 -0.038808562 4278664379
-0.0034463219 0.020010199 -0.039832644 4279322789
-0.0016901456 0.020124346 -0.040173877 4278930853
6.6053122e-05 0.020238593 -0.040515035 4278865318
0.0020030998 0.01962403 -0.040175442 4279126693
0.0035784729 0.020467389 -0.041197136 4279126694
0.0053346902 0.020581942 -0.041538075 4278337468
0.0099964887 0.01644206 -0.038148046 4278271169
0.047143608 -0.083350264 0.053423256 4278271169
0.04949329 -0.083936714 0.053683668 4278601648
0.051637936 -0.083795704 0.053268187 4279783064
-0.017013121 -0.078099474 0.053858951 4282732394
-0.015431657 -0.075027466 0.050693326 4282077554
-0.013739079 -0.072690919 0.048220385 4282077808
-0.015187997 0.0059451796 -0.027208479 4282142323
-0.015543457 0.016320936 -0.037138496 4282661504
-0.014565043 0.020097978 -0.040900029 4281483403
-0.012658045 0.01947844 -0.040556841 4281156239
-0.011393249 0.02178864 -0.042945538 4279977118
-0.009650737 0.02190149 -0.043284431 4279451819
-0.0079081804 0.022014437 -0.043623254 4279123888
-0.0058257058 0.020663913 -0.042599738 4279519393
-0.0042503402 0.021509033 -0.04362008 4278996134
-0.0023297071 0.020891022 -0.043279119 4278668713
-0.00058168173 0.02100474 -0.043618694 4278537134
0.0029143989 0.021232478 -0.044297613 4278864299
0.0046624467 0.021346498 -0.044636965 4278666928
0.0062217712 0.022191182 -0.045653719 4278601648
0.041223265 -0.072097957 0.040391438 4278601648
0.050866671 -0.083351992 0.049947977 4279258019
0.05342871 -0.084669359 0.050879847 4281094528
-0.015953124 -0.074517205 0.047363017 4281750134
-0.014268201 -0.072174698 0.044896588 4281815669
-0.015001196 0.0030126385 -0.026933001 4281422203
-0.015810087 0.015624287 -0.038889259 4279259293
-0.014989987 0.02014686 -0.043324254 4278537388
-0.01340675 0.020994131 -0.044344872 4278799274
-0.0041906908 0.019356553 -0.043999322 4278602414
-0.0027930737 0.020937389 -0.045695886 4278602923
-0.0010505393 0.021050734 -0.046034403 4278733483
0.0026177391 0.020544659 -0.046034284 4278535858
0.0039912723 0.022124343 -0.047725864 4279127714
0.0055425912 0.022970721 -0.048739452 4278538153
0.008044634 0.020153925 -0.046375088 4278799783
0.011537597 0.01367664 -0.0406406 4278668714
0.016651422 0.0013447888 -0.029520821 4278603179
0.045226 -0.080979556 0.045444101 4278472619
0.047968194 -0.083034821 0.047050003 4278668714
0.050306432 -0.083626188 0.047309436 4278668968
0.052862622 -0.084948294 0.048239175 4281094529
-0.0163441 -0.074732326 0.044728458 4281815668
-0.014664181 -0.072383627 0.042267915 4281815669
-0.014362555 -0.0021404251 -0.024619211 4281488249
-0.01592283 0.014195068 -0.039955564 4278866083
-0.015570413 0.020941788 -0.04642231 4278405809
-0.014154043 0.022527548 -0.048119683 4278930090
-0.012586795 0.023376042 -0.049135465 4279192228
-0.010696385 0.022751322 -0.048792262 4278799783
-0.0088005699 0.022127062 -0.048450034 4278274229
-0.006729763 0.020767104 -0.047430884 4278405299
-0.0048204735 0.020143874 -0.047091071 4278602669
-0.0032557286 0.020992771 -0.048106011 4278603178
-0.0015186816 0.021105774 -0.048443452 4278799784
0.00057902187 0.019747937 -0.047429167 4278340274
0.0019554459 0.021332074 -0.049118116 4278271933
0.0050528459 0.023028657 -0.051140931 4278340529
0.014568727 0.007211525 -0.037349425 4278603434
0.021535495 -0.011761077 -0.02022009 4278603434
0.049746919 -0.083891414 0.044677671 4279193504
0.052297235 -0.085218184 0.04560519 4278669988
0.054643042 -0.085811011 0.045861736 4282667878
-0.016605128 -0.075679317 0.042784736 4282143344
-0.015059434 -0.072583556 0.039646026 4281815669
-0.015422162 0.0098086484 -0.038304038 4278865828
-0.01552568 0.018793266 -0.046794876 4278275759
-0.011299908 0.023562346 -0.051872361 4279258274
-0.0092456788 0.022196839 -0.050853342 4278865065
-0.0052770935 0.020206435 -0.049497172 4278406319
-0.003542874 0.020319143 -0.049834147 4278602923
-0.0019861013 0.021169741 -0.050845757 4278668713
-0.00025453046 0.021282494 -0.051182054 4278603178
0.001294218 0.022132797 -0.052191935 4278603178
0.0028376095 0.022982838 -0.053200707 4278275249
0.0068626106 0.020997601 -0.051854357 4278275759
0.0093710199 0.01816399 -0.049504414 4278866084
0.012881998 0.01164899 -0.043803185 4278669734
0.019225918 -0.0051724613 -0.028723527 4278669734
0.041271381 -0.071177281 0.030822882 4278275759
0.046861254 -0.083551072 0.0417943 4278472618
0.049607374 -0.085618921 0.043389611 4278669734
0.05173257 -0.085479029 0.04297803 4278670244
0.054072674 -0.086074345 0.043233983 4279784849
-0.016736697 -0.077364743 0.041526943 4282863974
-0.015322212 -0.07351736 0.037712816 4282012019
-0.013531141 -0.071899801 0.03594825 4281814904
-0.014616493 0.0039219968 -0.035309777 4279521434
-0.015481248 0.016640604 -0.047170464 4278669479
-0.0059049204 0.021018257 -0.052570648 4278734504
-0.0040042624 0.020390274 -0.052232444 4278537898
-0.0022755116 0.020502741 -0.052568275 4278603434
-0.00036678091 0.019875489 -0.052231479 4278734504
0.0011820123 0.020727968 -0.053239711 4278734758
0.0029107742 0.020840729 -0.053575315 4278996643
0.0048275441 0.020214334 -0.053239822 4279062433
0.0071310587 0.018110145 -0.051564299 4278997408
0.0094506219 0.016007144 -0.049891859 4278866339
0.012570471 0.010950204 -0.045544632 4278669733
0.018112611 -0.0029671676 -0.033177484 4278669733
0.039707005 -0.067693278 0.024892222 4278931874
0.046515629 -0.084533714 0.039843932 4278931874
0.049258389 -0.086608268 0.041434929 4278669733
0.051592883 -0.087206237 0.04169023 4278408103
0.053932659 -0.087803714 0.041944616 4278408104
-0.015847743 -0.072956257 0.034422413 4282339438
-0.013796017 -0.072824784 0.034022305 4280372878
-0.01381284 -0.0019905381 -0.032334756 4281094783
-0.015281469 0.013740364 -0.04687351 4278997153
-0.015120614 0.021286888 -0.053964067 4278734249
-0.01356395 0.022141181 -0.054972824 4278734248
-0.012012597 0.022995243 -0.055980463 4278406318
-0.010133769 0.022363361 -0.055639915 4278668713
-0.0079113953 0.020246578 -0.053954303 4278865318
-0.0056728981 0.018130906 -0.052271701 4278603434
-0.0037671812 0.017501088 -0.051936138 4278931108
-0.0020332076 0.017613878 -0.052272994 4278537898
-0.00011942163 0.016984798 -0.051938832 4278997409
0.0016172528 0.017097984 -0.052276045 4278538664
0.0035390928 0.016469609 -0.051943231 4278604454
0.0054662786 0.015841717 -0.051611431 4278604199
0.0077798553 0.013731685 -0.049942836 4278276779
0.0099162869 0.012363963 -0.04894565 4278277034
0.012846936 0.0080332831 -0.045279153 4278342569
0.018192418 -0.0051843673 -0.033611167 4278342569
0.038960781 -0.067140095 0.021649614 4278277034
0.046170373 -0.085511647 0.03789708 4278277034
0.049119048 -0.088332973 0.040148973 4278342569
0.051241253 -0.08819323 0.039738007 4278997408
0.053792648 -0.089532785 0.040655497 4279391128
-0.016240805 -0.073129103 0.031820714 4280569994
-0.014328666 -0.072250858 0.030743459 4281225853
-0.012705568 -0.0094206743 -0.028030025 4281553528
-0.01508233 0.010831632 -0.046582825 4279325593
-0.014914539 0.018400306 -0.053658195 4278603689
-0.013513338 0.020002494 -0.055339303 4278866338
-0.011632174 0.019368485 -0.055000953 4279062944
-0.0095793791 0.017989857 -0.053991616 4279128478
-0.0075158328 0.016612075 -0.052984335 4278997153
-0.0052699521 0.014490392 -0.051308136 4278669734
-0.0031822473 0.013114396 -0.050305389 4278735269
-0.0012607351 0.012483556 -0.049974464 4278669734
0.00066614896 0.011853114 -0.049644463 4278473639
0.0045359991 0.010593701 -0.048987418 4278408104
0.0066666193 0.0092210509 -0.04799258 4278342568
0.0089983009 0.0071057156 -0.04633246 4278473639
0.010959987 0.0064781383 -0.04600884 4278473383
0.013514128 0.0036216564 -0.04368756 4278604453
0.018470285 -0.008148618 -0.033382185 4278604453
0.038826853 -0.068801351 0.020410895 4278473383
0.045825481 -0.086484902 0.035953719 4278538918
0.048561499 -0.088572867 0.037536036 4278604453
0.050889973 -0.089175515 0.037789222 4278932129
0.053223733 -0.08977773 0.03804151 4280046478
0.055345617 -0.089637779 0.037630789 4282668134
-0.01676438 -0.072543435 0.028548637 4282011254
-0.014994152 -0.070914321 0.026798077 4281684599
-0.013097942 -0.070034824 0.025725663 4282143853
-0.011448354 -0.017633483 -0.023078147 4282405739
-0.014107171 0.0041749924 -0.042936552 4281291389
-0.014235068 0.013262071 -0.051343024 4278407339
-0.012659568 0.014121907 -0.052352134 4278276014
-0.0066150948 0.010723706 -0.050014593 4278277034
-0.0045251995 0.0093433745 -0.049015619 4278277034
-0.0024245679 0.0079638921 -0.048018686 4278342568
-0.00048997626 0.0073317289 -0.047691967 4278408103
0.0012705401 0.0074463524 -0.048033897 4278604964
0.0032132082 0.0068148896 -0.047708526 4278735523
0.0051612221 0.0061839297 -0.047384165 4278669988
0.0073020793 0.0048076212 -0.046394624 4278801058
0.0092634857 0.0041777045 -0.046072643 4278866848
0.01142307 0.0028028414 -0.04508657 4278801313
0.013593346 0.0014287941 -0.044102482 4278932129
0.018549245 -0.010376144 -0.033823576 4278997664
0.03889652 -0.071207069 0.01983548 4278801059
0.045480937 -0.087453447 0.034013811 4278867104
0.048004687 -0.088803746 0.03492989 4278604963
0.050115861 -0.088664703 0.034521077 4279063964
0.052012675 -0.087781481 0.033451434 4280898689
-0.015390769 -0.0710629 0.024215735 4282339183
-0.013499886 -0.070181645 0.023146041 4282078064
-0.011475146 -0.070051707 0.022751357 4282537064
-0.013134386 -0.0025118887 -0.039312761 4281553273
-0.013241604 0.0066025034 -0.047703378 4279195034
-0.011968359 0.0089652129 -0.050053954 4278866848
-0.010058329 0.0083286874 -0.049724497 4278932383
-0.0083087832 0.0084420554 -0.050064713 4278932638
-0.0062220842 0.0070571117 -0.049068563 4278736288
-0.0041246377 0.0056729764 -0.048074417 4279129243
-0.00201644 0.0042896233 -0.047082223 4278998174
-0.00042731315 0.0051531494 -0.048091836 4278867104
0.0015150309 0.0045194477 -0.047768187 4278932384
0.0034627281 0.0038861781 -0.047445506 4278997919
0.0056004375 0.0025051795 -0.04645871 4278932384
0.0075615346 0.0018730201 -0.046138458 4279063454
0.0095279776 0.0012413301 -0.045819141 4279128989
0.011692435 -0.00013754889 -0.04483733 4278932639
0.014258299 -0.003010571 -0.042531572 4278997919
0.019023946 -0.01410234 -0.032943092 4278932639
0.038559042 -0.07212285 0.017934222 4278997919
0.044724643 -0.086923815 0.030755715 4278997919
0.047239825 -0.088278972 0.031670097 4278736288
0.049342804 -0.088140465 0.031262863 4279260059
0.0512316 -0.087255605 0.030196441 4281685619
-0.015653081 -0.07195615 0.022313464 4282797673
-0.013901129 -0.070319436 0.020573109 4281750388
-0.011881895 -0.070189856 0.02017948 4282012784
-0.01231898 -0.0084766708 -0.036380671 4281422204
-0.012881201 0.0029210858 -0.046760734 4279325848
-0.011599541 0.0052908361 -0.049107984 4279260569
-0.0096817873 0.0046526976 -0.048781715 4278801569
-0.007758636 0.0040149987 -0.048456438 4278867104
-0.0059984773 0.0041291639 -0.048798636 4279063708
-0.003725078 0.0019897521 -0.047142711 4278801569
-0.0017830841 0.0013536364 -0.046820823 4278801569
-0.00018855557 0.0022196919 -0.047829818 4278801314
0.0015797243 0.0023348182 -0.048173256 4279128989
0.0037115887 0.00094901025 -0.047188722 4279063454
0.0058541596 -0.00043595582 -0.046206225 4278867359
0.0078203008 -0.0010699518 -0.045888606 4279063964
0.0096019693 -0.00095350295 -0.046234295 4279063454
0.01176863 -0.0023366027 -0.045256171 4278866849
0.014531514 -0.0059677809 -0.042296067 4279195034
0.019893324 -0.019340239 -0.030750541 4278801569
0.038628388 -0.074532285 0.017356036 4278998429
0.043763503 -0.08563187 0.026848292 4279195034
0.046267465 -0.086992033 0.027761566 4279063964
0.048570827 -0.087602876 0.028014688 4279391128
-0.014165543 -0.071203843 0.018678106 4281684343
-0.012149155 -0.071074463 0.018285021 4280897923
-0.010415524 -0.069434382 0.016551781 4281557353
-0.012589332 -0.0091862231 -0.038140401 4280701573
-0.012679309 -1.8786639e-05 -0.046494629 4279325848
-0.011391912 0.002357807 -0.048838034 4279260314
-0.0094691031 0.0017177872 -0.048514374 4279063708
-0.0077064373 0.0018319823 -0.048857156 4279063708
-0.005607307 0.00043918565 -0.047870051 4279063199
-0.0036683269 -0.00019940734 -0.047549315 4278866849
-0.0015503839 -0.0015908144 -0.046565659 4278735779
4.9535185e-05 -0.00072224811 -0.047574054 4278866594
0.0018230416 -0.00060676411 -0.047918495 4278932384
0.0039597638 -0.0019965582 -0.046938263 4279195034
0.0062915012 -0.0041380934 -0.045298215 4279195034
0.0082653649 -0.004773736 -0.044983737 4279391638
0.010054935 -0.0046567544 -0.045330953 4279391638
0.012229132 -0.0060436465 -0.04435765 4279129753
0.015194051 -0.010437053 -0.040747449 4279063964
0.020958647 -0.025351219 -0.0279148 4279063964
0.038697384 -0.076945685 0.016774824 4279063964
0.043215226 -0.085824363 0.024269352 4279063964
0.045713328 -0.087189294 0.025180494 4279129243
0.048222058 -0.088553362 0.026089625 4280177294
-0.014565498 -0.071325809 0.016117025 4280962694
-0.012693193 -0.070439152 0.015056006 4281225853
-0.01110867 -0.068037733 0.012659079 4281948524
-0.012395374 -0.012160968 -0.037899047 4281816179
-0.012635399 -0.0022106692 -0.046900179 4279260314
-0.011184931 -0.00058368966 -0.048574336 4279260569
-0.0092570856 -0.0012255199 -0.048253365 4278932384
-0.0073238425 -0.0018668771 -0.047933355 4279128989
-0.0052171536 -0.0032635741 -0.046950996 4279128989
-0.0034411661 -0.0031482689 -0.047296181 4278998429
-0.0014917627 -0.0037882589 -0.046979062 4279194268
0.00028695166 -0.0036725439 -0.047324594 4278736288
0.0020656735 -0.0035567358 -0.047670059 4278998683
0.0042072646 -0.0049505495 -0.046694096 4279195034
0.0063595846 -0.0063435547 -0.045720059 4279195289
0.0085226037 -0.0077357367 -0.044748075 4279064218
0.010127917 -0.0068640672 -0.045755412 4279588499
0.012304304 -0.0082551464 -0.044785842 4279523219
0.015270714 -0.012661424 -0.041185863 4279588499
0.021429371 -0.029126607 -0.027070994 4279654034
0.038766045 -0.079363145 0.016190598 4279588499
0.042873215 -0.086761154 0.0223532 4279654034
0.045159891 -0.087377481 0.022606121 4279784593
0.047451876 -0.087993361 0.022858156 4281816179
-0.016570825 -0.073847711 0.015959011 4283253868
-0.014964733 -0.071438678 0.013562652 4282142069
-0.013097771 -0.070550226 0.012504312 4281684599
-0.011236068 -0.069661997 0.011447078 4281881969
-0.012434639 -0.0051652603 -0.046644986 4279325593
-0.011138454 -0.0027751252 -0.048980173 4278997919
-0.0090457276 -0.004177276 -0.047998589 4279325848
-0.0072726235 -0.0040623918 -0.04834339 4279326104
-0.0053316168 -0.0047053061 -0.048026457 4279587988
-0.0037263185 -0.003832303 -0.04903277 4279654289
-0.0016066805 -0.0052321926 -0.0480561 4279784594
0.00034778565 -0.0058738887 -0.047741521 4280047243
0.0026648007 -0.0080295838 -0.046108712 4280375173
0.0046353564 -0.0086700208 -0.045797098 4280506499
-0.015363242 -0.071542621 0.011015018 4282862953
-0.01336338 -0.071414344 0.01062513 4281618809
-0.011504345 -0.070524119 0.0095700789 4281684853
-0.012548521 -0.0066066943 -0.047720365 4279719314
-0.010932628 -0.0057312809 -0.048727416 4279784848
-0.0091597065 -0.0056165494 -0.049072288 4279785104
-0.0068917014 -0.0077824518 -0.047435407 4280047243
-0.0049429759 -0.0084270276 -0.047121633 4280244104
-0.0031592362 -0.0083112456 -0.047468342 4281752429
-0.013490546 -0.073037967 0.0094135683 4280963204
-0.011772241 -0.071381614 0.0076965224 4280963713
-0.012505557 -0.0088107958 -0.048135038 4281752938
-0.01088696 -0.0079330467 -0.04914096 4281686894
-0.014031384 -0.072362229 0.0062146317 4282011508
-0.012320917 -0.070702054 0.0045024287 4281619063
-0.010621078 -0.0690424 0.0027923423 4281816433
-0.014708892 -0.070904657 0.0023647381 4282469743
-0.01272814 -0.070777506 0.0019786458 4281815669
-0.011176538 -0.068345748 -0.00038693962 4281488503
-0.013835818 -0.066991441 -0.0038322185 4281290879
-0.012445513 -0.063783996 -0.0068475278 4281029250
-0.014380828 -0.066265382 -0.0069916146 4281487483
-0.013140768 -0.062277265 -0.010655467 4280701829
-0.01163654 -0.059835464 -0.013001808 4281621104
-0.016595822 -0.067200914 -0.0084497156 4283190374
-0.015064664 -0.064751118 -0.010796581 4282208114
-0.013977192 -0.059978202 -0.015105234 4280701319
-0.015467666 -0.064773284 -0.013280538 4282863208
-0.014527079 -0.059210815 -0.01823182 4280635784
-0.013043553 -0.056757398 -0.020564213 4281359729
-0.014506992 -0.061546274 -0.018741369 4280373643
-0.013165347 -0.058307312 -0.021720678 4281292663
-0.014345162 -0.064666934 -0.018603843 4281815159
-0.0128529 -0.062199943 -0.020928059 4281355904
-0.02891095 -0.073493429 -0.011542713 4282929254
-0.0016518272 0.015222935 0.03174413 4287328513
0.00042888895 0.014671478 0.03209696 4285043713
-0.019692842 0.013710875 0.029859053 4285032239
-0.0070217624 0.019653117 0.013356828 4285230629
0.015736351 -0.016402178 -0.040314391 4284900914
0.021701718 -0.032158703 -0.026892668 4284900914
0.042531572 -0.087693281 0.020440521 4284967214
0.044815235 -0.088311963 0.02069238 4284901424
0.0092215016 -0.014443878 -0.043639135 4285098539
0.010840271 -0.013567004 -0.044645768 4285229864
0.013220878 -0.015724465 -0.043029826 4285360933
0.016006486 -0.019397415 -0.040107235 4285426468
0.021776225 -0.034441046 -0.027374925 4285426468
0.038294829 -0.08193671 0.013053299 4285426468
0.041985109 -0.08786314 0.01787856 4285426724
0.044470944 -0.08924178 0.018782111 4285294888
-0.0006262958 -0.013452657 -0.045607932 4285032239
0.0013462976 -0.01409756 -0.045300156 4284966958
0.0031460151 -0.01398037 -0.045649692 4285164839
0.0053075664 -0.015385833 -0.044687517 4285295654
0.0071126483 -0.015268084 -0.045037925 4285360933
0.009290278 -0.016672313 -0.044078652 4285426724
0.0111007 -0.016553968 -0.044429909 4285492259
0.013485985 -0.018717542 -0.042819869 4285492259
0.016664548 -0.023922093 -0.038599938 4285426468
0.022047393 -0.03748782 -0.027207462 4285426468
0.037755996 -0.082079716 0.010509939 4285426468
0.041029319 -0.086504288 0.014021014 4285360678
0.043711625 -0.088647641 0.015574058 4285228843
-0.012306273 -0.011784077 -0.047893863 4285097773
-0.010363646 -0.012433782 -0.047582448 4285295399
-0.0084156319 -0.013082974 -0.047272034 4285229864
-0.0062975474 -0.014496293 -0.046305269 4285164328
-0.0041687004 -0.015908848 -0.045340456 4285295399
-0.0020291321 -0.017320544 -0.044377685 4285360934
-0.0002242364 -0.017203271 -0.044728413 4285426468
0.0017560609 -0.017849784 -0.04442383 4285426979
0.0033856109 -0.016968355 -0.04542961 4285360934
0.0053712875 -0.017614271 -0.045125879 4285361188
0.0071789026 -0.017496329 -0.045476761 4285426723
0.0095448084 -0.019667961 -0.043868076 4285492004
0.011737986 -0.021075338 -0.042915083 4285492003
0.014133323 -0.023244798 -0.041311923 4285426468
0.016932966 -0.026938453 -0.038408596 4285426468
0.022711484 -0.042067967 -0.025744161 4285426468
0.037420049 -0.082975931 0.0086233513 4285426468
0.040279794 -0.085889719 0.010826197 4285360934
0.042745858 -0.087278299 0.01172698 4285032238
-0.011794701 -0.016300421 -0.046344437 4285164074
-0.010159984 -0.015417319 -0.047350194 4285230373
-0.00820693 -0.016068358 -0.047042422 4285295654
-0.0064129755 -0.015952136 -0.047391288 4285295398
-0.0041174516 -0.018135659 -0.045774531 4285360933
-0.0019756891 -0.019551545 -0.044815503 4285360934
0.00017681345 -0.020966649 -0.04385842 4285295398
0.0018144064 -0.02008266 -0.044864196 4285361188
0.0036245473 -0.019964792 -0.045215752 4285426979
0.0054346882 -0.019846827 -0.045567237 4285426469
0.0074280798 -0.020494282 -0.045266572 4285426468
0.009426821 -0.021141268 -0.044966847 4285426468
0.011996713 -0.024083465 -0.042715013 4285426469
0.014396736 -0.02625908 -0.041117709 4285426469
0.017588617 -0.031492971 -0.036923558 4285361188
0.03728646 -0.084631808 0.0073886709 4285426469
0.039940678 -0.086790137 0.0089371735 4285294889
-0.011909667 -0.017755922 -0.047430307 4285295144
-0.010115951 -0.017639961 -0.047779322 4285295399
-0.008160539 -0.018293027 -0.047473677 4285295399
-0.0060353912 -0.019714579 -0.046514854 4285360934
-0.0038995109 -0.0211353 -0.045558088 4285295399
-0.0017528757 -0.022555232 -0.044603266 4285295399
0.00023212284 -0.023205876 -0.044302989 4285360933
0.0018724129 -0.022319555 -0.045307644 4285361189
0.0036850832 -0.022201523 -0.045659691 4285426469
0.0054977573 -0.022083394 -0.046011668 4285426469
0.0074935071 -0.022732846 -0.045713101 4285426469
0.0098661035 -0.024917014 -0.044115648 4285360934
0.012443187 -0.027867354 -0.041871797 4285361188
0.014850559 -0.030048944 -0.040280934 4285360934
0.018049112 -0.035297573 -0.036099613 4285360934
