# .PCD v0.7 - Point Cloud Data file format
VERSION 0.7
FIELDS x y z rgba
SIZE 4 4 4 4
TYPE F F F U
COUNT 1 1 1 1
WIDTH 982
HEIGHT 1
VIEWPOINT 0 0 0 1 0 0 0
POINTS 982
DATA ascii
0.026083777 0.037258342 0.0030426774 4290912539
0.028659884 0.035395853 0.0047145803 4290912539
0.0314948 0.032863483 0.0070902593 4289865763
0.033368714 0.033016987 0.0066331532 4289407783
0.034994386 0.033841345 0.0054698493 4289473574
0.036112972 0.036006533 0.0028966516 4289669924
0.037722621 0.036829725 0.0017373692 4289408294
0.039326891 0.037652552 0.00057945959 4289931299
0.041184608 0.037805095 0.00012658723 4290062114
0.043303713 0.03728801 0.00037681498 4289604134
0.04595631 0.035432421 0.0020306204 4289996578
0.050492197 0.028893316 0.0085927825 4289734948
0.01828412 0.035793118 0.0030114669 4288750903
0.019219164 0.038642485 -0.00027753599 4290258718
0.02082916 0.039467301 -0.0014356775 4290323999
0.02290328 0.038943619 -0.0011767121 4288688428
0.025457444 0.037072703 0.00049551949 4290062113
0.02826754 0.03452953 0.0028705057 4290520093
0.030856168 0.03266158 0.0045344457 4289800483
0.032970011 0.032141455 0.0047839507 4289604134
0.034345157 0.033640821 0.0029182713 4289539108
0.035459019 0.035812117 0.0003512986 4289866019
0.036810175 0.037309669 -0.0015084175 4289538854
0.03866256 0.037461713 -0.0019600345 4290127393
0.041032095 0.036269575 -0.0010074321 4290650909
0.043934666 0.033734582 0.0013454612 4290650909
0.046858378 0.031201448 0.0036932267 4289931299
0.05193574 0.023298346 0.011636905 4289734948
0.017000459 0.03764677 -0.0016605509 4289014318
0.018152198 0.039827093 -0.0042322092 4290978328
0.019751698 0.040653266 -0.0053861598 4290062369
0.021580391 0.040802781 -0.0058324542 4289146409
0.024120543 0.038924191 -0.0041618226 4289669925
0.026916405 0.03637116 -0.0017900467 4290389279
0.029733479 0.033819936 0.00057661161 4289996578
0.031591285 0.033972144 0.0001234524 4289669669
0.033449046 0.034124427 -0.0003296379 4289865763
0.034054652 0.037651606 -0.0042945668 4289800484
0.035899051 0.037802935 -0.0047442857 4290192928
0.037487641 0.038628906 -0.0058950456 4290585629
0.040621195 0.035408564 -0.0028417222 4290716444
0.043781187 0.032190509 0.00020516664 4290912538
0.047758706 0.026953103 0.0053430796 4290912538
0.053643014 0.017003588 0.015360303 4290650908
0.014116704 0.038694203 -0.0051631732 4287965758
0.015492659 0.04020169 -0.0070227804 4289800484
0.016858008 0.041708391 -0.0088797361 4290192673
0.018444356 0.042535666 -0.010028805 4290650908
0.02049398 0.042005599 -0.0097671561 4290650909
0.023022758 0.0401196 -0.008098809 4290650653
0.026046634 0.036878899 -0.005027554 4290585373
0.028612537 0.034996063 -0.0033680936 4289865763
0.030704528 0.034469813 -0.0031165909 4289604133
0.032306693 0.035298817 -0.0042691063 4289473319
0.03340308 0.037481792 -0.0068218103 4289734948
0.034736365 0.038986571 -0.0086704046 4290519839
0.03631448 0.039813824 -0.0098168869 4289277223
0.039436221 0.036581703 -0.0067690751 4288753963
0.04310606 0.031999268 -0.0023313267 4289604389
0.047603384 0.025391728 0.0041900426 4289669668
0.053750452 0.014733486 0.01487988 4289343013
0.013520923 0.038546488 -0.0076904707 4288228409
0.0148919 0.040057909 -0.0095455237 4289604133
0.016481023 0.040887512 -0.010693651 4290127393
0.018064849 0.041716713 -0.011840386 4289538853
0.01987743 0.041864917 -0.012282748 4289604389
0.022400171 0.039971866 -0.010617891 4290127393
0.024938799 0.038080245 -0.0089568924 4290062114
0.027493346 0.036189951 -0.0072996775 4289604133
0.029574409 0.035660639 -0.0070471745 4289931299
0.03141341 0.035811398 -0.0074956752 4289865763
0.032752395 0.037320934 -0.0093423612 4289734693
0.033828057 0.039508834 -0.011884917 4290847004
0.035398342 0.040337641 -0.013027799 4289866018
0.038252994 0.037772592 -0.010683307 4289669668
0.041649997 0.033852421 -0.006950818 4290062369
0.046395034 0.026543627 0.00025353394 4290520348
0.051996093 0.017205514 0.0095295869 4290651419
0.014042195 0.034989178 -0.0066911392 4288686643
0.015421461 0.036505673 -0.0085449126 4288950569
0.017018672 0.037338063 -0.0096933041 4289211944
0.018379388 0.038853168 -0.01154238 4289015594
0.020197183 0.0390018 -0.011986009 4289015593
0.022251466 0.038467892 -0.011728819 4289669669
0.024550196 0.037252083 -0.010772761 4289669669
0.026859529 0.036037192 -0.0098191798 4289734948
0.02893497 0.035505258 -0.0095669683 4289865763
0.030521456 0.036337346 -0.010712298 4289734693
0.031603035 0.038532183 -0.013251334 4290323234
0.032163799 0.042088434 -0.017180143 4290454049
0.034228433 0.041555934 -0.016925048 4290258208
0.036813781 0.039662141 -0.01527998 4290454303
0.040716879 0.034366407 -0.01016408 4290519838
0.045188442 0.02771326 -0.0036698002 4290388513
0.050244335 0.019704148 0.0041988697 4289930789
0.0540221 0.015100386 0.0085871704 4289275693
0.014785208 0.030733095 -0.0049990248 4288295218
0.016175427 0.032254785 -0.0068520904 4288819753
0.018240016 0.031719297 -0.0065992791 4289211944
0.019847963 0.032554831 -0.0077485498 4288885034
0.021216972 0.034075044 -0.0095962416 4289277479
0.022575345 0.035594504 -0.011441321 4289081128
0.024400972 0.035743948 -0.011886731 4289342759
0.026468171 0.035209101 -0.011634229 4289342759
0.028052157 0.036043085 -0.012777335 4289080873
0.029630799 0.036876708 -0.013919078 4288884523
0.030954538 0.038393714 -0.01575534 4289472808
0.032015394 0.040593468 -0.018284235 4289734438
0.033824857 0.040742077 -0.018725326 4289342249
0.0364068 0.038841497 -0.017084433 4289407528
0.03978508 0.034893729 -0.013367412 4289734694
0.044246394 0.028218068 -0.00688738 4289603368
0.048760675 0.021546844 -0.00042019039 4289341228
0.051451046 0.019655515 0.0011945404 4288687153
0.017153142 0.027298735 -0.0044719391 4288819498
0.019230682 0.02676213 -0.0042239605 4288884779
0.020852009 0.027600935 -0.0053748218 4289212198
0.022234617 0.029126603 -0.0072224922 4289408549
0.023606587 0.030651536 -0.0090675373 4289146919
0.025445379 0.03080206 -0.0095161553 4289146664
0.027042784 0.031639248 -0.010660915 4289408293
0.028634842 0.032476075 -0.011804314 4289016104
0.029974867 0.033998728 -0.013641312 4289015849
0.031054914 0.03620648 -0.016169867 4289342504
0.032622963 0.037041586 -0.01730722 4288818988
0.03444029 0.037190855 -0.017750215 4289080619
0.036772136 0.035969675 -0.016808452 4288818734
0.040154312 0.032009207 -0.013102402 4288884268
0.04409346 0.026681742 -0.0080218883 4288687663
0.04780969 0.022042487 -0.0036420738 4288687153
0.015820976 0.023549533 -0.0030513089 4287180868
0.017227761 0.025081316 -0.0049017733 4288557358
0.019307645 0.024542691 -0.0046559917 4288492333
0.020931724 0.025383933 -0.0058059013 4288885289
0.022783708 0.025535369 -0.0062578665 4289016104
0.02416398 0.027065288 -0.008101549 4288950569
0.026010629 0.027216468 -0.0085520763 4288819754
0.027616104 0.028056491 -0.0096971337 4288754474
0.029216224 0.028896201 -0.010840865 4288754474
0.030811016 0.029735524 -0.011983182 4289212198
0.032400455 0.030574495 -0.01312413 4289146664
0.033984542 0.031413116 -0.014263701 4288884778
0.035817683 0.031563699 -0.014710539 4288884523
0.037907835 0.031026909 -0.014466575 4289211178
0.041042138 0.027741633 -0.011463495 4288949548
0.044202901 0.024458621 -0.0084667951 4288818734
0.046594996 0.023238279 -0.0075428048 4288621618
0.01633695 0.019938447 -0.0020917878 4287311684
0.017752031 0.021475207 -0.0039408924 4288426288
0.019384185 0.022319153 -0.0050911224 4288557613
0.020780701 0.023854621 -0.006935603 4288819753
0.022865571 0.023314405 -0.0066925744 4288819753
0.024484441 0.024157569 -0.0078394068 4288754474
0.026574595 0.023617968 -0.0075975265 4288754474
0.027947182 0.02515183 -0.0094358977 4288819753
0.030039921 0.024612656 -0.0091945603 4289016104
0.03164544 0.025455035 -0.01033782 4289016104
0.033494502 0.025606778 -0.010788653 4288885289
0.035091963 0.026448678 -0.011929808 4288950569
0.037192468 0.025910486 -0.011690099 4288819498
0.039298218 0.02537282 -0.011451596 4288884523
0.041928228 0.023456771 -0.0098373527 4288884523
0.04404974 0.022920582 -0.0096025513 4288491823
0.016185198 0.018398453 -0.0032294774 4287378238
0.017600598 0.019939587 -0.0050753215 4288557359
0.019005401 0.021479946 -0.006918502 4288623149
0.0206297 0.022325542 -0.0080651278 4288819244
0.02271424 0.021783136 -0.007823687 4288623404
0.024568655 0.021934874 -0.0082761645 4288754474
0.026184965 0.022780094 -0.0094206315 4288688939
0.028036688 0.022931792 -0.0098723136 4288950569
0.030131767 0.022390597 -0.0096331723 4289081383
0.031740032 0.023235437 -0.010775461 4288885033
0.033840336 0.022694863 -0.010537444 4288558124
0.035443202 0.023539428 -0.011678287 4288688939
0.037548702 0.022999458 -0.011441401 4288819753
0.03940279 0.023151889 -0.011893248 4288885289
0.041516103 0.022612773 -0.011658181 4289015848
0.043372698 0.022765581 -0.012110507 4288491823
0.015589599 0.018252429 -0.0057555307 4286985283
0.017224604 0.019100867 -0.0069031799 4287903284
0.019081561 0.019252535 -0.0073564919 4288361009
0.020938521 0.019404296 -0.0078097368 4288622639
0.022795482 0.019556146 -0.0082629137 4288687919
0.024652436 0.019708093 -0.0087160114 4288819244
0.026509374 0.019860137 -0.0091690309 4288426798
0.02836629 0.020012256 -0.0096219871 4288885033
0.03022318 0.020164475 -0.010074853 4288950313
0.03158839 0.021706622 -0.011904588 4288885033
0.033688374 0.021163847 -0.011668165 4288623404
0.035542473 0.021316122 -0.012120138 4288754474
0.037650291 0.020774215 -0.01188553 4288558123
0.03950692 0.020926867 -0.012337988 4288558123
0.041363485 0.021079607 -0.012790357 4288819753
0.042958248 0.021926016 -0.013927218 4288492333
0.024265837 0.018873103 -0.010537751 4288033079
0.026120011 0.01902492 -0.010990096 4288098614
0.028214451 0.018479306 -0.010754235 4288098868
0.029828284 0.019328821 -0.011894556 4288622128
0.031682372 0.019480918 -0.01234666 4288557359
0.033536416 0.019633092 -0.012798692 4288688683
0.035390407 0.019785356 -0.013250638 4288492589
0.037244342 0.019937713 -0.013702492 4288492589
0.039098218 0.020090159 -0.014154264 4288623149
0.040952019 0.020242684 -0.014605948 4289015083
0.042544223 0.021091115 -0.015740547 4288752943
0.029676564 0.017798327 -0.013024952 4286789698
0.031285148 0.018649735 -0.014162288 4287706423
0.032888394 0.019500751 -0.015298208 4287968819
0.034987651 0.018953752 -0.015064891 4288295728
0.037092172 0.018407229 -0.014832743 4288491823
0.038945936 0.018559672 -0.015284478 4288753453
0.040282335 0.020108629 -0.017100135 4288491313
0.041608073 0.021656759 -0.018913073 4288294453
-0.027598884 -0.0094213374 0.018676184 4287709230
-0.025990997 -0.0078453161 0.01679809 4287839023
-0.024233397 -0.006980598 0.015625339 4287904304
-0.022643689 -0.0054058135 0.013751797 4287446323
-0.025515173 -0.012280811 0.01843432 4287838513
-0.023746904 -0.011413101 0.017260585 4288034609
-0.022146296 -0.009833131 0.015387688 4287903538
-0.020060536 -0.010390881 0.015616883 4287707699
-0.018304985 -0.0095239095 0.014446491 4287708463
-0.016554583 -0.0086572655 0.013277421 4288035374
-0.015328746 -0.0056558698 0.010016082 4287773998
-0.027442615 -0.014743123 0.018430643 4288430879
-0.025512096 -0.014588092 0.017957345 4288231214
-0.02374107 -0.01371802 0.016784579 4288034609
-0.022299852 -0.011418793 0.014215432 4287837748
-0.020049449 -0.012693327 0.015141238 4287837748
-0.018291157 -0.011823941 0.013971785 4287904048
-0.01653802 -0.01095492 0.012803702 4287904049
-0.01479001 -0.01008622 0.011636948 4288230959
-0.013047166 -0.0092178322 0.010471536 4288230958
-0.011309486 -0.0083497651 0.0093074739 4288165168
-0.0092152134 -0.0089084394 0.0095333401 4288099889
-0.0074825771 -0.0080405809 0.0083706621 4287707953
-0.0059412979 -0.0064602122 0.0065162834 4287839023
-0.0045993514 -0.0041680075 0.0039722044 4287775019
-0.027904954 -0.014902044 0.01585377 4288168994
-0.025979843 -0.014747482 0.015381768 4288492588
-0.02421404 -0.013875645 0.014211891 4288100399
-0.022291224 -0.013721067 0.013740603 4288034353
-0.020203467 -0.014283102 0.013965962 4288165423
-0.018277671 -0.014128085 0.013494095 4287838258
-0.016181666 -0.014689233 0.013717534 4287838258
-0.014425628 -0.013817731 0.012550469 4288230959
-0.01267476 -0.012946513 0.011384698 4288230959
-0.010929041 -0.012075644 0.010220315 4288033843
-0.009007819 -0.011920508 0.0097499434 4288099124
-0.0070864782 -0.011765253 0.0092796255 4287969074
-0.0055369437 -0.010179941 0.0074265953 4287904049
-0.0039979108 -0.0085953213 0.0055761654 4288100144
-0.0022781007 -0.0077260472 0.0044185072 4288099889
-0.00075740367 -0.0061427541 0.002572773 4287575608
0.0009493269 -0.0052742846 0.0014184341 4287116865
-0.027750503 -0.017930839 0.016073771 4288103203
-0.02597684 -0.017056379 0.014903568 4288296238
-0.024208289 -0.016182233 0.0137347 4288165423
-0.022282954 -0.016027484 0.013262764 4288165169
-0.020357441 -0.015872616 0.01279087 4288034609
-0.018264573 -0.016436297 0.01301332 4288034608
-0.016505953 -0.01556256 0.011847185 4287903793
-0.014579982 -0.015407365 0.011375403 4287772724
-0.01265385 -0.01525205 0.010903662 4287903539
-0.010549795 -0.01581442 0.011123681 4288034353
-0.0088011995 -0.014941078 0.0099603217 4288099378
-0.0070577972 -0.014068004 0.0087982733 4287837493
-0.0053195581 -0.013195302 0.0076375995 4287837748
-0.0035865195 -0.012322892 0.0064782891 4287903539
-0.0020497255 -0.010734092 0.004631849 4288033844
-0.00052344054 -0.0091459788 0.002788024 4287902518
0.0013850443 -0.0089912675 0.0023212302 4288099379
0.0030946098 -0.0081203543 0.001167981 4287640889
0.0050006099 -0.0079656281 0.00070196576 4287705658
0.0064980499 -0.0063794516 -0.0011344906 4287705659
0.007984966 -0.0047940537 -0.0029682433 4287509819
0.0096709393 -0.0039246418 -0.0041154064 4287313213
0.011139397 -0.0023404919 -0.0059445277 4286985793
-0.0280581 -0.018802363 0.014199685 4287775528
-0.026286986 -0.017925974 0.013031751 4287969074
-0.024361935 -0.017771374 0.012559796 4288296493
-0.022436734 -0.017616663 0.012087872 4287969328
-0.020347018 -0.0181829 0.012309326 4287904048
-0.018418808 -0.018027756 0.011836817 4288034608
-0.016490471 -0.017872501 0.011364352 4287576373
-0.014389686 -0.018437523 0.011583341 4287641398
-0.012458391 -0.018281829 0.01111031 4287772213
-0.010526963 -0.018126015 0.010637328 4287706934
-0.0087756254 -0.017250296 0.009474948 4287902773
-0.006846603 -0.017094467 0.0090027153 4287902518
-0.0052885301 -0.015499782 0.0071541909 4287706423
-0.0035527535 -0.014625002 0.0059958678 4287968564
-0.0020130053 -0.013031628 0.0041520279 4288164658
-0.00029027462 -0.012157712 0.0029970538 4287968564
0.0016233809 -0.012002598 0.0025289822 4287902774
0.0035371222 -0.011847358 0.0020609926 4288098868
0.0054509416 -0.011692021 0.001593044 4287902518
0.0069566369 -0.01010083 -0.00024209544 4287902518
0.0082450509 -0.0077927671 -0.0027575418 4287772213
0.010145802 -0.0076381676 -0.0032220483 4287707189
0.011622522 -0.0060490631 -0.0050498154 4287576118
0.013518065 -0.0058946572 -0.0055128671 4287510329
0.015196297 -0.0050234012 -0.0066562314 4287379514
0.016869254 -0.0041524507 -0.0077982228 4287051328
-0.026752841 -0.018066976 0.010469664 4287119414
-0.024833214 -0.017912839 0.0099990163 4287381299
-0.022751946 -0.018482063 0.010220766 4288035884
-0.020665195 -0.019050766 0.010441303 4287642928
-0.018739786 -0.018895876 0.009969458 4287707443
-0.016814198 -0.018740866 0.0094976518 4287575864
-0.014716405 -0.01930834 0.0097156726 4287772468
-0.012613177 -0.019875277 0.0099324416 4287838004
-0.010504495 -0.020441663 0.010147957 4287837749
-0.0087504387 -0.019563582 0.0089865606 4287706679
-0.0068188831 -0.019407567 0.0085136946 4287771703
-0.0052578524 -0.017808367 0.0066678114 4287968564
-0.0035193488 -0.016931172 0.0055104289 4287903028
-0.001786042 -0.016054351 0.0043544341 4287837748
0.00013534725 -0.015898731 0.0038843844 4287968563
0.001860898 -0.015022311 0.0027304571 4287772213
0.0035812333 -0.014146227 0.0015778784 4287968564
0.0052963421 -0.013270441 0.00042667612 4287902774
0.0070062093 -0.012394939 -0.00072321482 4287968053
0.0087108575 -0.011519779 -0.0018716939 4287771958
0.010619432 -0.011364553 -0.0023381114 4287641398
0.012528051 -0.011209216 -0.00280446 4287837494
0.014436718 -0.011053752 -0.0032707322 4287641398
0.01612829 -0.01017924 -0.004415689 4287444793
0.018034369 -0.010023776 -0.0048811603 4287183418
0.019940469 -0.0098682009 -0.0053465553 4287445558
0.021621503 -0.008994218 -0.0064886846 4287510839
0.023069493 -0.0074024312 -0.0083056539 4287313724
0.024276514 -0.0050935708 -0.010795431 4287117884
0.025700642 -0.0035035126 -0.012606405 4287575353
0.026878463 -0.0011967905 -0.015088935 4287117629
-0.015042659 -0.020174492 0.0078514479 4287119669
-0.0129424 -0.020743851 0.008067267 4287250229
-0.010836713 -0.021312673 0.008281827 4287184438
-0.0089054182 -0.021156821 0.00780892 4287772723
-0.0071564578 -0.020276878 0.0066505112 4287903538
-0.005227562 -0.020120997 0.0061783604 4287706933
-0.003298562 -0.019964997 0.0057062693 4287969584
-0.0015598722 -0.019085582 0.0045506172 4287970094
0.0001736097 -0.018206436 0.0033962782 4287838513
0.0020976029 -0.018050518 0.0029256586 4287706934
0.0040216856 -0.017894451 0.0024551209 4287837749
0.0055438131 -0.016293447 0.00062256679 4287903028
0.0072590746 -0.015415374 -0.00052693207 4287837749
0.0087627731 -0.013815586 -0.0023548473 4287837748
0.010673866 -0.013660166 -0.0028218813 4288099889
0.012796633 -0.014226232 -0.0026103612 4288165425
0.014710464 -0.014070373 -0.0030779112 4288099378
0.016407408 -0.013193201 -0.0042225588 4287576374
0.017879523 -0.011595476 -0.006042283 4287445559
0.019785494 -0.011439916 -0.0065076482 4287379513
0.021691475 -0.011284236 -0.0069729239 4287379513
0.023369949 -0.010408189 -0.0081126839 4287117884
0.024812937 -0.0088123716 -0.0099250153 4287706679
0.026478153 -0.0079371668 -0.011061357 4287641653
0.027667098 -0.0056230091 -0.013541592 4288296749
-0.0082225651 -0.018237013 0.0020549204 4287839023
-0.0059372559 -0.019534033 0.0029526446 4288297259
-0.0038287938 -0.020104397 0.0031651724 4288101419
-0.001714915 -0.020674247 0.0033765025 4288035374
1.8652529e-05 -0.019792933 0.0022238083 4287969329
0.0017470159 -0.018911991 0.0010725018 4287575863
0.0038664527 -0.019481014 0.0012826901 4287706423
0.0055896714 -0.018600259 0.00013281591 4287706424
0.0073076636 -0.017719816 -0.0010156957 4287510583
0.0088143162 -0.016115513 -0.0028409613 4287576118
0.01093667 -0.016683858 -0.0026311511 4287641909
0.012852978 -0.016527895 -0.003099381 4287903538
0.014769327 -0.01637182 -0.0035675382 4287968563
0.016469013 -0.015492316 -0.0047111465 4287968563
0.01794406 -0.01388998 -0.0065283049 4287641653
0.01963054 -0.013011325 -0.0076685175 4287445049
0.021311741 -0.012132991 -0.0088073537 4287445049
0.023214947 -0.011977423 -0.0092718676 4287510328
0.025118154 -0.011821765 -0.009736307 4287380024
0.026556134 -0.010221902 -0.011543989 4287969329
0.027512992 -0.0071791746 -0.014690995 4288428329
0.0031174645 -0.018886227 -0.0019248771 4287644204
0.0048328117 -0.018003959 -0.0030711694 4287380788
0.0065429136 -0.017121945 -0.0042161299 4287380788
0.0082477964 -0.01624031 -0.0053596972 4287577138
0.010781579 -0.018263649 -0.0037984243 4287315764
0.012697749 -0.018107701 -0.0042666206 4287642419
0.014827795 -0.018677372 -0.0040601837 4287772978
0.016313724 -0.017069969 -0.0058767078 4287903284
0.017789062 -0.015463274 -0.0076906076 4287641654
0.019475628 -0.014582437 -0.008829169 4287641143
0.021381337 -0.014426794 -0.0092943888 4287379513
0.023514144 -0.014995676 -0.009088194 4287314488
0.025422513 -0.014839586 -0.009553887 4287706933
0.026866108 -0.013234977 -0.011359561 4287772469
0.027593959 -0.0094590671 -0.015170747 4288363559
0.0072708353 -0.01489896 -0.0092215315 4287906344
0.0095849186 -0.016201381 -0.0083367117 4287316783
0.011487696 -0.016046528 -0.0088016447 4286596154
0.014031373 -0.018075306 -0.0072476687 4286922808
0.015725914 -0.017191876 -0.0083866809 4287248699
0.017634101 -0.017036263 -0.0088526867 4287248699
0.019099168 -0.015425999 -0.010660611 4287445559
0.021226309 -0.01599763 -0.010454793 4287445559
0.023358766 -0.016568687 -0.010250168 4287510838
0.025496516 -0.017139215 -0.01004676 4287445813
0.0264787 -0.01407719 -0.013186689 4287838513
0.018944528 -0.016994346 -0.011819217 4287119414
0.020847313 -0.016838927 -0.012283715 4287381045
0.022976756 -0.01741242 -0.012080033 4287446324
0.025111508 -0.017985355 -0.011877556 4287708208
0.026787642 -0.017100591 -0.013009894 4287577138
0.025937028 -0.016478512 -0.016165357 4287185203
-0.014974754 -0.0569495 -0.00097523071 4286660158
-0.013696071 -0.053753559 -0.0041031931 4287445049
-0.011917099 -0.052837078 -0.005242696 4287640889
-0.0097904839 -0.05343901 -0.0050600227 4287117118
-0.0080165714 -0.052522678 -0.0061980989 4286854723
-0.01462638 -0.060851503 -0.00018790923 4286659903
-0.013168152 -0.058407921 -0.0026512546 4287313979
-0.011204984 -0.05824988 -0.0031322641 4287968054
-0.0094179064 -0.057330463 -0.004272013 4287640633
-0.0074571446 -0.057172362 -0.0047522355 4287509818
-0.0060407929 -0.054731656 -0.0072049517 4287444538
-0.0042719096 -0.053813342 -0.0083399657 4287445049
-0.0025082268 -0.052895296 -0.009473579 4286725184
-0.014783423 -0.062474061 -0.0013874611 4287052604
-0.013154022 -0.060787816 -0.0031874692 4287379514
-0.011361692 -0.05986594 -0.0043269349 4287837494
-0.0095745623 -0.058944378 -0.0054650446 4287837494
-0.007613942 -0.058786277 -0.0059452346 4287902773
-0.0058345385 -0.05786505 -0.0070813065 4287575864
-0.0040603057 -0.056944143 -0.0082159545 4287641144
-0.0022912659 -0.056023557 -0.0093492549 4287445303
-0.00033820793 -0.055865575 -0.0098272134 4287248698
0.0016149394 -0.055707458 -0.010305101 4287313978
0.0035681613 -0.055549223 -0.010782899 4287182909
0.0053242892 -0.054629166 -0.011912649 4287247934
0.0068753585 -0.052947845 -0.013692411 4287575864
0.0086183771 -0.052028585 -0.014818745 4286855233
-0.015276138 -0.062563807 -0.0039018979 4286855998
-0.013310745 -0.062405724 -0.0043835556 4287379514
-0.01134523 -0.062247518 -0.0048651574 4287575864
-0.0095553733 -0.061323572 -0.0060022725 4287837494
-0.0079491548 -0.059634503 -0.0077929897 4287706679
-0.0061723217 -0.058711369 -0.0089267362 4287445049
-0.0042169541 -0.058553483 -0.0094054695 4287445049
-0.0020751245 -0.059160192 -0.0092311371 4287445049
-0.00011692569 -0.0590018 -0.0097103547 4287314234
0.0016496964 -0.058078986 -0.010841208 4287248698
0.0036054105 -0.057920534 -0.011319617 4287313978
0.0053642355 -0.056998093 -0.012448354 4287902774
0.0071178377 -0.056075949 -0.013575735 4287903284
0.0090684555 -0.055917535 -0.014052598 4287510329
0.011633802 -0.058048729 -0.012584029 4287052349
0.014630187 -0.06170458 -0.0098235225 4286659394
-0.015767951 -0.062644571 -0.0064096292 4286723908
-0.013637718 -0.063255146 -0.0062347008 4287051329
-0.011674989 -0.063097179 -0.0067156283 4287313724
-0.00988774 -0.062171299 -0.0078504486 4287379259
-0.0084621049 -0.059710536 -0.010290591 4287771703
-0.006509643 -0.059553031 -0.010768725 4287248699
-0.0043735579 -0.060162488 -0.01059474 4287314234
-0.001859773 -0.06230526 -0.0091191819 4287445303
-8.5238367e-05 -0.061379779 -0.010250404 4287445303
0.0016840659 -0.060454544 -0.011380292 4287445303
0.0034481734 -0.059529644 -0.012508768 4287968563
0.0054037981 -0.059371088 -0.012987076 4287903284
0.0073594898 -0.05921239 -0.013465288 4287837494
0.0093152449 -0.059053566 -0.013943422 4287445049
0.012089778 -0.061956335 -0.011834051 4287117884
0.015092861 -0.065622419 -0.0090835392 4286987068
-0.012177031 -0.063171968 -0.009215693 4287378239
-0.010044262 -0.063784301 -0.0090428209 4287051584
-0.0086181648 -0.061317045 -0.01147811 4287509819
-0.0068465024 -0.060390029 -0.012607276 4287313724
-0.0047134347 -0.061001915 -0.012434232 4287314234
-0.0022030845 -0.063151434 -0.010962806 4287445048
-0.00024254993 -0.062992871 -0.011442608 4287314234
0.001526814 -0.062065486 -0.012570865 4287576118
0.0034848563 -0.061906885 -0.013049866 4288099378
0.0054429695 -0.061748128 -0.013528782 4287772469
0.0076003373 -0.062357325 -0.013361047 4287641654
0.0091575608 -0.06066243 -0.015132247 4287510328
0.011726618 -0.062806308 -0.013674508 4287771959
0.01472583 -0.066483513 -0.010931361 4286463808
-0.0070024505 -0.06199405 -0.013792924 4287247424
-0.0050528422 -0.061836649 -0.01427026 4287706170
-0.0027316809 -0.063221648 -0.013451195 4287379514
-0.00058821589 -0.063834593 -0.013282168 4287314744
0.0013695918 -0.063676149 -0.01376121 4287510074
0.0033274814 -0.063517541 -0.014240171 4287444793
0.0054817572 -0.064129263 -0.014073442 4287314234
0.0074424259 -0.063970178 -0.01455289 4287444793
0.0092015304 -0.063040942 -0.015676565 4287772468
0.011159658 -0.062881798 -0.016155183 4287182908
0.013945445 -0.065800786 -0.014061737 4286201668
0.00083079189 -0.063740447 -0.01624186 4287704894
0.0029766858 -0.06435509 -0.016074874 4286528323
0.0049318224 -0.064196616 -0.016553085 4287117118
0.006887041 -0.064037964 -0.017031185 4287313213
0.0088423155 -0.063879192 -0.017509211 4286986048
0.010797635 -0.063720286 -0.017987151 4286855234
-0.045256544 0.02094369 0.050043382 4283991329
-0.043328974 0.021098856 0.049571082 4283926049
-0.040453177 0.016585853 0.054305941 4283599393
-0.04951467 0.020376962 0.04831785 4283787329
-0.048483875 0.025219552 0.042637419 4283989033
-0.04697023 0.02738121 0.039940249 4283925538
-0.044941928 0.026864456 0.04021861 4283858219
-0.042502467 0.024340922 0.042722452 4283859494
-0.03962798 0.019812528 0.047445953 4283859748
-0.036716145 0.015287239 0.0521603 4283926048
-0.028775383 0.015247438 0.050990827 4283923244
-0.026670996 0.014737271 0.051250897 4283926813
-0.051833522 0.019975342 0.046124149 4283721283
-0.050663967 0.02416206 0.041195039 4284119083
-0.049271774 0.027002478 0.037758846 4283993369
-0.047770787 0.02916958 0.035069752 4283925794
-0.045888375 0.029320985 0.03460842 4283859494
-0.043600712 0.027458593 0.036369007 4283860514
-0.041021612 0.024255449 0.039605651 4283994388
-0.038696375 0.022396203 0.041357122 4283990818
-0.036355 0.020538364 0.043104637 4284056354
-0.03443427 0.020693131 0.042634137 4284056609
-0.033106279 0.023528842 0.039214026 4284056608
-0.031497467 0.0250229 0.037272625 4283861279
-0.029591974 0.025176622 0.036805991 4283793448
-0.026592892 0.020643435 0.041487481 4283795488
-0.023079958 0.014105186 0.048364349 4283927579
-0.053080898 0.024458898 0.038270209 4283985974
-0.051437166 0.025959479 0.0363231 4284121124
-0.050057422 0.028807536 0.032896604 4283991583
-0.048439641 0.030306179 0.030955892 4284059924
-0.046435762 0.029782975 0.031236783 4283993368
-0.04402196 0.02723985 0.033733439 4283993114
-0.04144929 0.024025243 0.036963247 4284057118
-0.03941023 0.023505 0.037235696 4284056099
-0.03750835 0.023658138 0.036769722 4284056099
-0.035606246 0.02381135 0.036303736 4283990564
-0.034296039 0.026654273 0.03289463 4283926304
-0.032554749 0.02747898 0.031696111 4283858984
-0.030665223 0.027631355 0.031233344 4283791918
-0.02799559 0.024424989 0.034439724 4283859494
-0.025299218 0.021220841 0.037639607 4283926048
-0.022576164 0.018018909 0.040833 4283991074
-0.020318199 0.01683259 0.041824248 4284056354
-0.018216025 0.016318109 0.04208168 4284121889
-0.016954537 0.019157574 0.038684938 4284056609
-0.01571409 0.02199544 0.035293359 4283993624
-0.013447464 0.02081009 0.036282688 4283795233
-0.009929698 0.014935285 0.042369906 4283795999
-0.053838994 0.026275184 0.033408146 4284054058
-0.052084159 0.027102502 0.032207474 4283989798
-0.050207708 0.027253181 0.031747416 4283858983
-0.048460301 0.028080054 0.030548602 4283991073
-0.046454038 0.027554769 0.030827243 4284056609
-0.044307668 0.026354361 0.031841908 4284056098
-0.042013239 0.024479404 0.033590753 4284056098
-0.040122282 0.024631536 0.033127356 4284056353
-0.038373601 0.025458772 0.031928509 4284056099
-0.036484819 0.025610853 0.03146575 4283991329
-0.034891453 0.027112238 0.029534642 4283995663
-0.033158001 0.027938429 0.028339665 4283928089
-0.031276505 0.028090114 0.027878832 4283927069
-0.028771732 0.025546033 0.030346833 4283993369
-0.026562382 0.024351258 0.031346496 4283993368
-0.024342213 0.023157381 0.032343607 4284056353
-0.022111278 0.021964483 0.033338089 4284056099
-0.020535026 0.023464898 0.03141157 4283991073
-0.019307259 0.026310332 0.028029699 4283926049
-0.017928835 0.028481483 0.025381338 4283793958
-0.015694525 0.027289078 0.026375238 4283726384
-0.012918536 0.024080902 0.029547583 4283792938
-0.0095769577 0.018858887 0.034892518 4283859749
-0.0063750744 0.014312163 0.039501432 4283924519
-0.055749241 0.023889201 0.033457886 4283920949
-0.054473769 0.027434673 0.029301424 4283993114
-0.052605603 0.027584562 0.028843306 4283862298
-0.050484333 0.026377549 0.029860593 4283929363
-0.048481282 0.025849711 0.03013825 4283992348
-0.046472665 0.025322407 0.030414533 4283991074
-0.044458512 0.02479561 0.030689511 4284056353
-0.042301808 0.023591653 0.031698346 4284121888
-0.040692907 0.025098393 0.029766586 4284121888
-0.039094348 0.026604328 0.027837466 4284056099
-0.037361193 0.027432535 0.026644055 4284056099
-0.035485532 0.027583571 0.026184514 4283924773
-0.033459362 0.027058069 0.026456874 4283926303
-0.0314277 0.026533123 0.026727896 4283926048
-0.029234972 0.025332546 0.0277282 4283991329
-0.027347837 0.025484767 0.027266052 4284056099
-0.025460515 0.025637062 0.0268039 4284056354
-0.023573 0.02578944 0.026341751 4284056098
-0.022183772 0.027967772 0.023695674 4284056099
-0.020641487 0.029469859 0.021780785 4283862043
-0.01893815 0.030296281 0.02059523 4283794214
-0.016891737 0.029773064 0.020863056 4283792684
-0.014309578 0.027227014 0.023305792 4283926814
-0.011526618 0.024008552 0.026468091 4283994134
-0.0088990517 0.02146633 0.028899834 4283990818
-0.0066195764 0.020273462 0.029879522 4284055844
-0.0048915036 0.021102346 0.028688189 4284121889
-0.0033586249 0.022604194 0.026776079 4284056863
-0.0020289384 0.024778444 0.024145063 4283993368
-0.00012904033 0.024932673 0.023680538 4283860513
0.0031568855 0.020377927 0.028257485 4283860768
-0.056254346 0.024375079 0.03009164 4283989798
-0.054743972 0.026568554 0.027420025 4283861789
-0.053125668 0.028079975 0.025488984 4283794979
-0.05101281 0.02686784 0.026504993 4283796764
-0.048760291 0.024976199 0.02825379 4283927069
-0.046623129 0.023766128 0.029263925 4283925283
-0.044609275 0.023237072 0.029537257 4284056354
-0.042726662 0.023388356 0.029075768 4284056098
-0.041262161 0.025578614 0.026415687 4284056099
-0.039671201 0.027088227 0.024491716 4284056354
-0.037945863 0.027917888 0.023301903 4283925538
-0.035930824 0.027389243 0.023575183 4283925539
-0.033610176 0.025503546 0.025307719 4283925028
-0.031731505 0.025654899 0.0248475 4284056098
-0.029697288 0.025127999 0.025116239 4284122144
-0.028131526 0.026636027 0.023198713 4284121888
-0.026576165 0.028143227 0.021283817 4284121889
-0.024867933 0.02897197 0.020098548 4284056099
-0.023330774 0.030477896 0.018188182 4284056099
-0.021466855 0.030628463 0.017731886 4283993113
-0.019774009 0.031456169 0.016550537 4283994133
-0.017564606 0.030252971 0.017543782 4283993878
-0.015167896 0.028374128 0.019258171 4283994134
-0.012396704 0.0251438 0.022414956 4284057883
-0.010326266 0.024620488 0.022675414 4284056099
-0.0084348992 0.0247737 0.022212725 4284055844
-0.0067305826 0.025602799 0.02102885 4284056609
-0.0050314255 0.026431514 0.019846343 4284058649
-0.0035299323 0.027935216 0.017945293 4283925284
-0.0016487055 0.02808791 0.017485317 4283923754
0.00062817335 0.026890868 0.018462516 4283925029
0.0041183271 0.021646556 0.023744781 4283925539
0.0072448663 0.017754771 0.027582113 4283992093
-0.05816121 0.021989971 0.0301411 4283853883
-0.056758057 0.024874266 0.02673528 4284057628
-0.055255082 0.027073646 0.024070397 4283859494
-0.053520996 0.027905621 0.022879679 4283792429
-0.051539961 0.027371516 0.023159195 4283858728
-0.049424727 0.02615522 0.024171274 4283860258
-0.047167365 0.024257435 0.025913861 4283925793
-0.045027796 0.023043215 0.026920069 4284056099
-0.043013979 0.022511989 0.02719174 4284056099
-0.041551564 0.024708541 0.024537135 4284056354
-0.040246692 0.027585499 0.021155838 4284125969
-0.038384635 0.027735263 0.020699497 4283861789
-0.036375191 0.027203904 0.020972479 4283796763
-0.033760909 0.023949225 0.024158698 4283928088
-0.031729851 0.023419786 0.024426453 4284056863
-0.029693272 0.022890851 0.024692904 4284122144
-0.028282311 0.025083728 0.022051264 4284121888
-0.026566189 0.025915172 0.020865645 4284121888
-0.025507506 0.029465865 0.016779736 4284055844
-0.023812216 0.030295761 0.015599325 4283990308
-0.021785308 0.029766401 0.01586841 4283924773
-0.019581888 0.028558254 0.016859692 4283924773
-0.017194007 0.026672071 0.018571142 4283924773
-0.014966406 0.025466032 0.019556616 4284055844
-0.01272805 0.024260979 0.020539477 4284055844
-0.010842219 0.024413634 0.020078059 4284056098
-0.0091405399 0.025244555 0.018896475 4284055844
-0.0074440464 0.026075132 0.017716214 4284056353
-0.0061319359 0.028260885 0.015099438 4284059924
-0.0046433695 0.029767869 0.013204878 4283927579
-0.0025805943 0.029242134 0.013465747 4283926304
-0.00011730567 0.027362714 0.015159255 4283926558
0.0029626638 0.023453951 0.018997904 4283928344
0.0054659396 0.021577932 0.020681754 4283859748
0.0073686615 0.021732643 0.020216729 4283661869
-0.060185838 0.020286672 0.029452655 4283721283
-0.058886815 0.023866327 0.025315251 4284121124
-0.057260405 0.025386851 0.023388725 4284058138
-0.055644322 0.02690657 0.021464821 4283994388
-0.054038551 0.028425558 0.019543443 4283993114
-0.052065726 0.027888516 0.019823302 4284058393
-0.0498305 0.02598232 0.021566216 4284058393
-0.047710236 0.024762074 0.022573709 4284056353
-0.045579109 0.023542799 0.023578543 4284056099
-0.04370993 0.023692885 0.023120262 4284056354
-0.042118508 0.025211068 0.021202747 4284057374
-0.040537488 0.026728515 0.019287776 4283925539
-0.038966801 0.028245158 0.017375443 4283924519
-0.036818642 0.027027588 0.018376362 4283925538
-0.034510035 0.025127765 0.02010173 4283926558
-0.032337595 0.023912279 0.0210968 4283991073
-0.030154366 0.022697698 0.022089325 4284056608
-0.028433021 0.02353166 0.020903964 4284122144
-0.02687699 0.025047539 0.018995538 4284056609
-0.025657114 0.027926844 0.015642133 4283925538
-0.023961704 0.028758895 0.014463343 4283994133
-0.021766935 0.027545637 0.015453268 4283928089
-0.01939055 0.025651844 0.017162476 4283926304
-0.016998101 0.023759419 0.018867802 4283924773
-0.015117962 0.023911437 0.018407639 4284122144
-0.01323767 0.02406355 0.017947506 4284056098
-0.011538673 0.024896363 0.01676812 4284121889
-0.0098448507 0.02572879 0.015590105 4284056353
-0.0083429106 0.027241031 0.013695484 4284055844
-0.0068514794 0.028752536 0.011803448 4284056864
-0.0049864613 0.028903784 0.011347339 4283993114
-0.0029266477 0.028375568 0.011607282 4283927578
-0.00066408142 0.027168619 0.012581252 4283992858
0.0020091869 0.024604429 0.014982074 4283926048
0.0040958077 0.024078663 0.015235599 4283858729
-0.06055994 0.020110384 0.02683527 4283919928
-0.05915023 0.023012388 0.023441061 4284120868
-0.057290848 0.023161188 0.022984795 4284056353
-0.055792045 0.025373111 0.020330917 4283990309
-0.054063004 0.026208907 0.019144688 4283990308
-0.052213412 0.026357111 0.01869097 4284055844
-0.050107125 0.025131315 0.019698408 4283990308
-0.048251744 0.025280107 0.019243363 4284055844
-0.046262588 0.024742376 0.019517604 4284056099
-0.044404071 0.02489154 0.019061889 4284056099
-0.042822924 0.026413186 0.01715019 4284124439
-0.041252133 0.027934114 0.015241034 4283860768
-0.039403517 0.028082691 0.014787907 4283859493
-0.037407901 0.027545763 0.015060859 4283860003
-0.035107981 0.025638711 0.016783256 4284058649
-0.032943998 0.024418112 0.017777063 4284057628
-0.030614521 0.022513576 0.019492328 4284056353
-0.028898355 0.023349218 0.018309925 4284121634
-0.027027283 0.023500022 0.017851613 4284056353
-0.025806654 0.026388045 0.014504684 4283992093
-0.023945827 0.026538182 0.014049003 4283928853
-0.02191687 0.026004547 0.01431418 4283795489
-0.019541223 0.024104135 0.016018517 4283798549
-0.017322775 0.022888549 0.016999386 4283925284
-0.015269462 0.022357076 0.017258823 4284122399
-0.013567839 0.023192171 0.016080391 4284056353
-0.011690143 0.023344107 0.015620917 4284121888
-0.010363918 0.025543813 0.01301061 4284122143
-0.0088669807 0.02706001 0.011120491 4284122144
-0.0071913376 0.027893266 0.0099486932 4284056099
-0.0051372498 0.027362356 0.010208245 4283924774
-0.0028832667 0.026150217 0.011180935 4283924519
-0.00081570074 0.025620559 0.011437317 4284056098
0.0014570318 0.024410138 0.012405494 4284056099
0.0033355989 0.024562772 0.011946291 4283923499
-0.060372379 0.016490478 0.02788889 4283920948
-0.058953982 0.019401811 0.024499182 4284121124
-0.057204183 0.020241246 0.023309372 4284055843
-0.055579472 0.021770265 0.021389902 4284121634
-0.053842362 0.022608824 0.020203311 4284121634
-0.052110273 0.023447033 0.019017998 4284056098
-0.050383229 0.024284905 0.017833974 4284121888
-0.048530582 0.024433421 0.017379556 4284122144
-0.046944279 0.025959685 0.015469749 4284122144
-0.045096431 0.026107945 0.015016614 4284055844
-0.043664131 0.028321443 0.012384359 4284056864
-0.041823756 0.028469237 0.011933153 4284124694
-0.040127065 0.029305121 0.010756837 4284124184
-0.037849259 0.02738961 0.012479601 4284058138
-0.035853755 0.026850561 0.012750873 4284057628
-0.03370088 0.02562467 0.013744025 4284056354
-0.031846207 0.025773969 0.013289584 4284056099
-0.029834177 0.025236474 0.013556985 4284056609
-0.02797645 0.025386164 0.013101915 4284058138
-0.026443433 0.026908865 0.011205802 4283990309
-0.02475575 0.027744597 0.01003213 4283858218
-0.022737693 0.027207835 0.010298325 4283858218
-0.0203734 0.025299979 0.01200035 4283924774
-0.017993022 0.023393471 0.013698552 4283991583
-0.015947986 0.022859149 0.013958259 4284056353
-0.013897497 0.022325359 0.014216702 4284056099
-0.012384567 0.023846978 0.01232592 4284056353
-0.011065759 0.02605262 0.00972238 4284056353
-0.0097627304 0.028257018 0.0071228053 4283994133
-0.0077196769 0.027722929 0.0073833 4283796253
-0.0054795928 0.026505252 0.0083559211 4283797274
-0.0030345283 0.024604606 0.010038773 4283990564
-0.0011641942 0.024756385 0.0095814411 4284056099
0.00070622936 0.024908265 0.0091241542 4283924263
-0.06007408 0.012164958 0.029664177 4283790388
-0.058415201 0.013700865 0.027739506 4283989033
-0.056649391 0.01454369 0.026547395 4284055589
-0.054888617 0.015386183 0.025356568 4283989543
-0.05337787 0.017612085 0.022709694 4284055334
-0.05163243 0.018453479 0.021522734 4284055334
-0.050147627 0.020677414 0.018882316 4284055333
-0.048417572 0.02151772 0.017699238 4284055843
-0.046559449 0.021666683 0.017243486 4284056099
-0.044836838 0.022506516 0.016062327 4283989799
-0.043396067 0.024727203 0.013432924 4284056098
-0.041970935 0.026946666 0.010807456 4283989798
-0.039986741 0.026404344 0.011079689 4283989543
-0.037704367 0.024482625 0.012796273 4283990053
-0.035852838 0.02463148 0.012342462 4283990053
-0.034001101 0.024780421 0.011888653 4284056099
-0.032303449 0.025618795 0.010713955 4284056098
-0.030610885 0.02645679 0.0095406082 4284121634
-0.028763864 0.026605574 0.0090881269 4284057628
-0.027078878 0.027443109 0.0079167504 4284059414
-0.025234144 0.02759186 0.0074649472 4283991838
-0.023389239 0.027740704 0.0070131589 4283992093
-0.021033611 0.025825555 0.0087123122 4284058393
-0.018489119 0.023224015 0.01112386 4284057374
-0.016274203 0.021999411 0.012098955 4284056099
-0.014761079 0.023525326 0.010211343 4284056354
-0.013077639 0.024363276 0.0090407562 4284057374
-0.011582796 0.025887821 0.0071577784 4283991074
-0.010098454 0.027411647 0.0052773897 4283926049
-0.0082471073 0.027561631 0.0048245043 4283925028
-0.0058214627 0.025652779 0.0065070074 4283797018
-0.0035738423 0.024431428 0.0074744895 4283859748
-0.0015122071 0.023896847 0.0077289809 4283925283
0.00035546347 0.024048485 0.0072723553 4283792429
-0.057993192 0.0086685382 0.030231562 4283989034
-0.05633105 0.010209002 0.028309476 4283989544
-0.054559562 0.011054456 0.027117647 4284120868
-0.053037699 0.013287697 0.024473004 4284055588
-0.051281553 0.014132068 0.023285042 4283989544
-0.049658041 0.015669748 0.021372594 4283924264
-0.047914606 0.016513232 0.020187855 4283858984
-0.046176221 0.017356381 0.019004405 4283991328
-0.044442911 0.018199194 0.017822254 4283990818
-0.042852815 0.019734483 0.015918229 4284056608
-0.041413907 0.02196151 0.01329435 4284122144
-0.039560247 0.022110347 0.012839869 4284122144
-0.037560258 0.021567147 0.013106575 4284121634
-0.035852287 0.022408284 0.011930916 4284121633
-0.034149405 0.023249086 0.010756565 4284121379
-0.032605704 0.024781087 0.0088642407 4284121633
-0.030758958 0.024929738 0.0084117409 4284121888
-0.029071387 0.025769526 0.0072413068 4284056353
-0.027550969 0.027299883 0.0053548664 4284056609
-0.025876287 0.028138787 0.004187705 4284056864
-0.024039429 0.028286949 0.003737865 4284057119
-0.021692503 0.026364543 0.005434107 4284056354
-0.019329499 0.024443502 0.0071264673 4284056098
-0.017301012 0.023903437 0.0073868353 4284056098
-0.015444968 0.024053462 0.0069325399 4284055844
-0.014130514 0.026271658 0.0043399911 4284057628
-0.012465388 0.027110344 0.0031755958 4283992348
-0.010991324 0.028637653 0.0013010446 4283858473
-0.0089621507 0.028098004 0.0015616007 4283857963
-0.0067363903 0.026870431 0.0025310051 4283925539
-0.0043060742 0.024955487 0.0042073932 4283861788
-0.002252724 0.024418084 0.0044621788 4283793959
-0.00059224293 0.025256889 0.0032993052 4283467558
-0.058029789 0.0064019784 0.029798154 4283989034
-0.056247894 0.0072503611 0.028605297 4283924008
-0.054470982 0.0080983639 0.027413759 4283989034
-0.0526991 0.0089460313 0.026223503 4283989544
-0.051056985 0.010489386 0.024309788 4283923498
-0.049297813 0.011336215 0.023122713 4283923754
-0.047413673 0.011487082 0.022660438 4283858474
-0.045396585 0.010942623 0.022921007 4283858728
-0.043644633 0.011789091 0.021735866 4283924774
-0.04189771 0.012635186 0.020552065 4283925029
-0.040577691 0.015565217 0.017206933 4283924774
-0.038705584 0.01571548 0.016747892 4283924263
-0.036979172 0.016560156 0.015569292 4283924008
-0.0354064 0.0180986 0.01367308 4283990819
-0.033692826 0.018942427 0.012497695 4284055843
-0.031984333 0.019785888 0.011323659 4283990053
-0.030280944 0.020629011 0.010150932 4284055843
-0.02890097 0.022858351 0.0075468477 4283989544
-0.027536701 0.025086464 0.0049467068 4283989799
-0.025859278 0.025927765 0.0037804749 4284056099
-0.023852747 0.025383445 0.0040443894 4284056098
-0.021840777 0.024839684 0.0043069888 4284121889
-0.019650932 0.023604259 0.0052813794 4284055844
-0.017975498 0.024445681 0.0041159261 4284056098
-0.016305234 0.025286766 0.002951799 4283990308
-0.015000846 0.027510641 0.00036670826 4284056864
-0.01334621 0.02835064 -0.00079345983 4284059668
-0.011511099 0.028499175 -0.0012424784 4283994133
-0.0094875544 0.027956914 -0.00098227896 4284058394
-0.0072676167 0.026724456 -1.4765188e-05 4284058903
-0.0050369836 0.025492983 0.0009501446 4283860004
-0.0031881705 0.025642963 0.0004980322 4283793194
-0.058294605 0.0055294707 0.027910106 4283922733
-0.056282032 0.0049820021 0.028169744 4283989034
-0.054621603 0.0065310001 0.026254669 4283858219
-0.052727725 0.0066823773 0.025789801 4283924009
-0.051082615 0.0082302466 0.023878638 4283923754
-0.04919352 0.0083813891 0.023415051 4283923754
-0.047433984 0.0092303902 0.022229616 4283858984
-0.045547035 0.0093814954 0.021766663 4283858474
-0.043659832 0.0095327087 0.021303717 4283858729
-0.04191016 0.010381177 0.020120818 4283858984
-0.040165547 0.011229284 0.018939275 4283859239
-0.038425993 0.012077067 0.017759029 4283923754
-0.036837224 0.013621062 0.0158621 4283857963
-0.034962151 0.013771661 0.015402403 4283792683
-0.033237856 0.014618441 0.014226072 4283924263
-0.031518649 0.015464891 0.013051052 4283924264
-0.029648263 0.015615351 0.012592688 4284056353
-0.028254498 0.017852277 0.0099901985 4283991074
-0.026876446 0.020087983 0.0073916689 4284056864
-0.02551413 0.022322536 0.004797006 4284056354
-0.023666862 0.022471465 0.0043445602 4283990564
-0.021819446 0.022620473 0.0038921274 4284056354
-0.019799683 0.022075217 0.0041511804 4283990309
-0.018124137 0.022918787 0.0029873494 4283924263
-0.016453754 0.023762036 0.0018248502 4283989288
-0.015328977 0.026686169 -0.001464894 4284055843
-0.013676871 0.027528109 -0.0026227841 4284056353
-0.012029957 0.028369699 -0.0037793573 4283990308
-0.009823937 0.027131701 -0.0028119115 4283990308
-0.0077979453 0.026587524 -0.0025539352 4284056099
-0.0055731349 0.025351172 -0.0015909122 4283924774
-0.003925804 0.026193177 -0.0027473709 4283727914
-0.058558892 0.0046615191 0.026025478 4283987248
-0.056316521 0.0027095303 0.027731065 4283987759
-0.054415066 0.0028613806 0.027264234 4283989034
-0.05263501 0.0037139319 0.026075225 4283989289
-0.050984289 0.0052665845 0.02416594 4283923498
-0.049343903 0.0068184435 0.022259291 4283989544
-0.047454659 0.0069696009 0.021795679 4283924009
-0.04569738 0.0078206137 0.020612482 4283924264
-0.043675389 0.0072722137 0.020868432 4283923753
-0.041922953 0.0081229955 0.019686546 4283924264
-0.040035378 0.0082743317 0.019223575 4283923754
-0.03814758 0.0084257573 0.018760614 4283923754
-0.036405075 0.0092760101 0.01758128 4283924009
-0.03451949 0.0094274171 0.017118979 4283924264
-0.03293528 0.01097545 0.015226636 4283924008
-0.031054582 0.01112663 0.014765661 4283924009
-0.029173698 0.011277899 0.014304692 4283989034
-0.027610082 0.012824558 0.012417536 4283989034
-0.026218254 0.015067849 0.0098206103 4284055334
-0.024678115 0.016612794 0.0079393387 4283924009
-0.02281506 0.016762953 0.0074829925 4283858728
-0.021121163 0.017609984 0.006316185 4283925028
-0.019432414 0.018456686 0.0051506981 4283926049
-0.017748807 0.019303065 0.0039865524 4283925539
-0.016247649 0.020845275 0.0021151416 4283924773
-0.014756948 0.022386681 0.00024639629 4283924263
-0.013094131 0.023231626 -0.00091247354 4284056099
-0.011251274 0.023380753 -0.0013634162 4284056353
-0.0094082914 0.023529956 -0.0018143328 4284056098
-0.0075652041 0.023679269 -0.0022652028 4284055844
-0.0059152134 0.024523558 -0.0034207208 4283924008
-0.0042704158 0.025367474 -0.0045748521 4283466283
-0.058482092 0.0016878694 0.026311785 4284053294
-0.056235153 -0.00027028099 0.028011154 4284053803
-0.054328497 -0.00011808053 0.027542997 4284054568
-0.052664492 0.0014398098 0.025633734 4284054823
-0.051134903 0.0036995746 0.023007121 4284120103
-0.049494188 0.0052557364 0.021103684 4284054823
-0.047475625 0.0047046915 0.021358658 4283989543
-0.045847651 0.0062599778 0.019458462 4283989289
-0.043691281 0.0050075985 0.020430084 4283989289
-0.041798759 0.0051591992 0.019965801 4283989543
-0.039766017 0.0046095811 0.020217523 4283923754
-0.038013007 0.0054626912 0.019037243 4283923754
-0.036265079 0.0063154697 0.017858271 4283924008
-0.034522224 0.007167913 0.016680602 4283924009
-0.032784473 0.0080200732 0.0155042 4283924009
-0.030898582 0.0081716217 0.015041914 4283924264
-0.029012498 0.0083232671 0.014579643 4283989289
-0.027284738 0.0091748387 0.013405934 4283989034
-0.025562096 0.010026071 0.012233535 4283923498
-0.02417222 0.012275804 0.0096420869 4283989288
-0.02229866 0.012426767 0.0091831386 4284055334
-0.020763163 0.013975769 0.0073064901 4283858983
-0.018894587 0.014126513 0.0068488959 4283859238
-0.017200287 0.014975883 0.0056837611 4283859748
-0.015334059 0.015126616 0.0052268766 4283859239
-0.01382713 0.016673699 0.0033574477 4283858728
-0.011965953 0.016824182 0.0029019229 4283858728
-0.01028965 0.017672461 0.0017414764 4283991074
-0.0084308721 0.017822929 0.001286678 4283990818
-0.0071429573 0.020065296 -0.0012791324 4283990819
-0.0056778677 0.021609381 -0.0031379554 4283857709
-0.0040276572 0.02245589 -0.0042917551 4281955918
-0.051037651 0.00072321296 0.023285069 4284447269
-0.049264777 0.0015796125 0.022101153 4284447014
-0.04736777 0.0017312914 0.021635551 4284185893
-0.045470539 0.0018830635 0.021169953 4284186148
-0.043438565 0.0013309643 0.02142008 4284185894
-0.041538205 0.0014831424 0.02095383 4284120358
-0.039497826 0.00093192607 0.021201979 4284120615
