# .PCD v0.7 - Point Cloud Data file format
VERSION 0.7
FIELDS x y z rgba
SIZE 4 4 4 4
TYPE F F F U
COUNT 1 1 1 1
WIDTH 296
HEIGHT 1
VIEWPOINT 0 0 0 1 0 0 0
POINTS 296
DATA ascii
0.0043904558 -0.0028054342 0.032396853 4288031548
0.0091802813 -0.0054432303 0.034265883 4286463044
0.0011119097 0.00048787147 0.026780603 4287836474
0.0031680986 0.00062953681 0.026347244 4289734948
0.0058524199 -0.002162315 0.028653214 4289537579
0.0083985329 -0.0042192861 0.03027047 4290648868
-0.0013821758 0.00013418496 0.024603711 4288425014
0.00021396205 0.0024832189 0.022118481 4288883504
0.0022566505 0.002623938 0.021687949 4289735459
0.0047699101 0.00055801868 0.023307076 4289407274
0.0074587949 -0.0022421181 0.025605561 4290191653
0.010331303 -0.0057758465 0.028581696 4288622129
0.012900956 -0.0078375414 0.030189263 4287902263
0.015151698 -0.0084282607 0.0304316 4288033844
-0.0038643777 -0.00020955503 0.022431297 4286986558
-0.0022652969 0.0021461099 0.019950258 4289407274
-0.0006821081 0.0045007467 0.017472686 4289604644
0.0013470873 0.0046405196 0.017044993 4288688684
0.0038462952 0.0025670975 0.018662119 4288819499
0.0066802464 -0.00098031759 0.021638012 4289538853
0.0095410198 -0.0045258105 0.024608398 4290258464
0.011934623 -0.0058575645 0.025533469 4289539363
0.014004357 -0.0057143643 0.025097711 4289080365
0.016074173 -0.005571045 0.024662027 4287510073
-0.0067640208 0.0016793907 0.018214947 4288162874
-0.0048784539 0.0025596395 0.017104292 4289604643
-0.0028496534 0.0026991293 0.016676484 4289604643
-0.0014251918 0.0058001429 0.013524329 4290389278
0.00059317052 0.0059391484 0.013098901 4290323743
0.0029245466 0.0045983642 0.014033498 4289342758
0.0057440847 0.0010390729 0.017004179 4290455069
0.0084286332 -0.0017786622 0.019290464 4289735204
0.010641228 -0.0023765042 0.019537428 4289800739
0.012524985 -0.0014953911 0.018427903 4289605154
0.014573276 -0.0013535768 0.017996738 4289080873
0.016966604 -0.0026893765 0.018918885 4289079854
0.019896116 -0.0062403083 0.021866975 4289471533
0.022852393 -0.0097892657 0.024809549 4287378238
-0.0093541667 0.0021060109 0.015372789 4288099124
-0.0076169744 0.0037309974 0.013583651 4289015339
-0.0055991188 0.003869608 0.013158059 4289407528
-0.0034328848 0.0032656342 0.013412574 4289538598
-0.0017139763 0.0048897192 0.01162757 4290062369
0.0003015697 0.005028531 0.011202736 4289277224
0.0026297569 0.0036831796 0.012134697 4288753964
0.0052866228 0.0008547008 0.014420101 4289408295
0.0074800998 0.00025320053 0.014669338 4289539363
0.0095147304 0.00039383769 0.014240863 4289800993
0.011215538 0.0020174161 0.012460236 4289539364
0.013075367 0.002899155 0.011357479 4289997089
0.015446801 0.001557529 0.012280893 4289408294
0.018353872 -0.0020058304 0.015225464 4289407528
0.021287702 -0.0055672228 0.018164502 4289864488
0.023887683 -0.0076456517 0.019751398 4288819498
-0.01005204 0.0034309477 0.011431906 4289602858
-0.0081825554 0.0043142736 0.010327827 4290257954
-0.0060274526 0.003707245 0.010582943 4290650909
-0.0038668811 0.0031006336 0.01083702 4290389278
-0.0018516034 0.0032392964 0.01041214 4289800483
0.00016379356 0.0033780932 0.0099873394 4289408038
0.002335377 0.0027726591 0.010239337 4289277734
0.0046711713 0.0014235973 0.011166483 4289212199
0.0066948757 0.0015633255 0.010740191 4289735713
0.0087186694 0.0017031729 0.01031398 4289866528
0.010409012 0.0033303648 0.0085388385 4290193183
0.012258187 0.0042135343 0.0074399821 4289343014
0.014446303 0.0036100149 0.00768907 4288950313
0.016989395 0.0015208498 0.0092827976 4289211943
0.019725993 -0.0013098866 0.011545453 4289407529
0.022484025 -0.0041390359 0.013803745 4289210923
0.025080664 -0.0062240958 0.015386483 4289536813
0.027878828 -0.0090501904 0.017636532 4288031548
-0.013808899 -0.0007365942 0.013106404 4287705659
-0.012475222 0.0031408221 0.0092846379 4289014574
-0.010748401 0.0047736242 0.0075041689 4289865253
-0.0086044371 0.0041635111 0.0077598803 4289211433
-0.0064550079 0.0035538822 0.0080145262 4290520094
-0.0041522086 0.0021976829 0.0089449435 4290389534
-0.0019891784 0.0015891939 0.0091969445 4289538853
0.00017929822 0.00098125637 0.0094478615 4289538853
0.0020414144 0.0018668547 0.0083474331 4289343013
0.0042154342 0.0012595505 0.0085973628 4289539108
0.0062336475 0.0013988912 0.0081722289 4289735714
0.0082519501 0.0015383363 0.0077471584 4289539363
0.0097705685 0.0039153546 0.0053034648 4290062368
0.01127325 0.0062913224 0.0028632544 4290127904
0.013447683 0.0056846663 0.003113579 4289604644
0.015627515 0.0050785094 0.0033628605 4289408293
0.018344544 0.0022376627 0.0056230649 4289538853
0.021262918 -0.0013463944 0.0085489638 4289473573
0.024208037 -0.0049284846 0.011469329 4288883504
0.027179889 -0.0085085779 0.014384178 4288098104
-0.016623944 0.0012230426 0.0089214053 4286398529
-0.014886536 0.0028606653 0.0071418062 4288688429
-0.013022602 0.0037477463 0.0060419478 4289734694
-0.011443272 0.006134145 0.0035894886 4289015593
-0.0094527006 0.0062706992 0.0031695068 4288753963
-0.0071718879 0.004908517 0.0041011684 4289081128
-0.0045848377 0.0020486414 0.0063811205 4290193438
-0.002277106 0.00068852305 0.0073072724 4289800994
-0.00026468188 0.00082708895 0.0068830661 4289408549
0.0017478392 0.00096577406 0.0064589381 4289670434
0.0037604645 0.0011045933 0.0060348772 4289604643
0.0056121275 0.0019918829 0.0049384758 4289081383
0.0076222569 0.0021307766 0.0045151301 4289343013
0.0092996731 0.003765732 0.0027492866 4289277223
0.010797407 0.006147936 0.000315018 4289735203
0.012794416 0.0062862933 -0.00010528043 4288754219
0.015140325 0.0049299225 0.00081374496 4289408038
0.017851107 0.0020800084 0.0030686446 4289603878
0.020942822 -0.0022624731 0.0066561513 4289146919
0.024066607 -0.0066025406 0.01023698 4287968054
-0.017549016 0.0040955991 0.0036493819 4288491823
-0.015558988 0.0042317584 0.0032292493 4289408294
-0.013842568 0.0058724284 0.0014574006 4290258719
-0.012136661 0.0075124428 -0.0003121011 4290389534
-0.0101569 0.007648252 -0.000729803 4289604644
-0.0077423938 0.0055292696 0.00087512285 4289342758
-0.0051642433 0.0026601106 0.0031503141 4290455578
-0.0028650165 0.0012950301 0.0040750019 4289800993
-0.00086076558 0.0014330074 0.0036525019 4289670179
0.00098805875 0.0023220032 0.0025581531 4290062623
0.0029898509 0.00246007 0.0021363646 4289866019
0.00499174 0.0025982633 0.0017146505 4290193183
0.0069937184 0.0027365908 0.0012930147 4290062368
0.0089957714 0.0028750375 0.00087146088 4289669923
0.010660116 0.0045136213 -0.00088827312 4289604389
0.012656968 0.0046519786 -0.0013085455 4289211944
0.015176572 0.0025416017 0.00027527288 4289538598
0.018066041 -0.0010663271 0.0031906702 4289341994
0.021341383 -0.0061707497 0.0074342657 4288491058
-0.019416131 0.00082047284 0.0042212754 4286920258
-0.018077813 0.0047304928 0.00042301789 4287902263
-0.016095951 0.0048660636 4.5821071e-06 4289277223
-0.014113933 0.0050017834 -0.00041377917 4289538853
-0.012410499 0.0066459626 -0.0021794699 4289539364
-0.01057557 0.0075355917 -0.0032697618 4289015848
-0.0083117858 0.0061634779 -0.0023410879 4289735713
-0.0057425126 0.0032849684 -7.0583075e-05 4289735713
-0.0034518205 0.001914978 0.00085255876 4289735714
-0.0014557131 0.0020523965 0.00043177977 4289735458
0.00054049119 0.0021899492 1.1071563e-05 4289866529
0.0023787618 0.0030804798 -0.0010793358 4290324254
0.0042117909 0.0039708093 -0.002168525 4290520348
0.0065296628 0.0026033521 -0.0012506172 4290585628
0.0086922534 0.0019890666 -0.0010029711 4289931554
0.010860264 0.0013752505 -0.00075631216 4289800739
0.012690924 0.00226596 -0.0018446594 4289407783
0.015212491 0.00014923513 -0.00026619062 4289538600
0.01828026 -0.0042210668 0.003306454 4289080109
0.021738887 -0.010091886 0.0082029868 4287510073
-0.019551076 -0.00081287324 0.0030180886 4286854723
-0.018211998 0.0031080395 -0.00077210739 4287379259
-0.01623027 0.0032435954 -0.0011905171 4288623148
-0.01438491 0.0041358098 -0.0022815168 4289081384
-0.012544759 0.0050277859 -0.0033713318 4289343268
-0.010709807 0.0059195757 -0.0044599921 4289343269
-0.008735545 0.0060551018 -0.0048764609 4289997344
-0.0063196458 0.003923282 -0.0032816418 4289735714
-0.0040374659 0.0025483221 -0.0023599528 4289801249
-0.0022020414 0.0034406483 -0.0034483373 4289866273
-0.00052701682 0.0050879493 -0.0052041896 4289931298
0.0012952723 0.0059795678 -0.0062895752 4289081128
0.0035938583 0.0046062768 -0.005371023 4289343014
0.0059032105 0.0032338277 -0.0044545755 4290258718
0.0085550025 0.00035320222 -0.0022074506 4289342758
0.010722674 -0.00026279688 -0.00196236 4289277223
0.012895752 -0.00087825954 -0.0017183572 4289473319
0.015421934 -0.0030011684 -0.00014585815 4289211179
0.01831726 -0.0066304654 0.0027518701 4286790974
0.021597721 -0.011764929 0.0069713388 4286659903
-0.019814275 -0.001686655 0.0011423863 4287181889
-0.01821515 0.00072678924 -0.0012948588 4287511094
-0.016230911 0.00086249411 -0.0017138124 4288296749
-0.014246523 0.0009983182 -0.0021327138 4288754728
-0.01253999 0.0026513785 -0.0038924925 4288362284
-0.010702327 0.0035454854 -0.0049800389 4288558379
-0.0088698715 0.0044393837 -0.0060664453 4289212199
-0.0067486577 0.0038169697 -0.0058139972 4289866018
-0.0044723414 0.0024373084 -0.0048944177 4289996578
-0.0027945302 0.0040890053 -0.0066476613 4289931554
-0.0011273213 0.0057401508 -0.0083986372 4290389534
0.00052933395 0.0073906332 -0.010147236 4289146664
0.0026563928 0.0067692846 -0.0098956004 4288819499
0.0052778758 0.0038777366 -0.0076487102 4289408293
0.0079207905 0.00098779798 -0.0054062465 4290193184
0.010416776 -0.0011439621 -0.00383252 4289669924
0.012757845 -0.0025182143 -0.0029257769 4288491824
0.015283324 -0.0046476722 -0.0013580564 4286725694
0.018177569 -0.0082879215 0.0015316587 4285940804
-0.019948937 -0.0033172294 -5.8775768e-05 4287182144
-0.018087804 -0.0024198443 -0.0011500083 4287511093
-0.01609838 -0.0022837967 -0.0015700646 4288231469
-0.014381096 -0.00062574446 -0.003328965 4288820263
-0.012674347 0.0010316372 -0.0050855102 4288427563
-0.010978125 0.0026884824 -0.0068397745 4288231469
-0.0091483109 0.0035843104 -0.0079239532 4288754474
-0.0071769021 0.0037197471 -0.0083397441 4289016104
-0.0050559193 0.0030953139 -0.0080888383 4289408038
-0.0033859089 0.0047508031 -0.0098371729 4289538853
-0.0018812977 0.0071653575 -0.012248714 4289669923
-7.7627599e-05 0.0080600381 -0.01332688 4289473573
0.0022012405 0.0066766366 -0.012410723 4289473573
0.0048164912 0.003775999 -0.010169167 4289800738
0.0072876923 0.0016358346 -0.008595218 4289604389
0.010111284 -0.0020205081 -0.0056991959 4289342759
0.012961619 -0.0056748837 -0.0028087208 4288034098
0.015491731 -0.0078105778 -0.0012468752 4285875268
-0.020467438 -0.0026565194 -0.0032682577 4286725184
-0.018222392 -0.0040479451 -0.002349304 4287446069
-0.016233124 -0.0039119199 -0.0027693408 4288231468
-0.014243707 -0.0037757531 -0.0031893114 4288493099
-0.012670033 -0.0013507009 -0.0056110481 4288230959
-0.010970943 0.00031061471 -0.0073626088 4288165423
-0.0092823841 0.0019713938 -0.0091118785 4288296238
-0.007457763 0.0028691441 -0.010193221 4288230959
-0.0056383684 0.0037666932 -0.011273354 4289081384
-0.0038241856 0.0046639815 -0.01235231 4289081384
-0.0020152517 0.0055610985 -0.013430089 4289081129
-0.00021155924 0.0064579099 -0.014506646 4289211688
0.0019068159 0.0058316141 -0.014256477 4288950058
0.0045185164 0.0029220134 -0.012020711 4289669669
0.007316947 -0.00074705482 -0.0091277221 4289277224
0.010478079 -0.005935967 -0.0049180919 4287249464
0.01316471 -0.0088399947 -0.0026978087 4286267968
-0.020984814 -0.0019824505 -0.0064678574 4287377218
-0.018748276 -0.0033787936 -0.0055504562 4287183419
-0.01650092 -0.0047742948 -0.0046351859 4287969329
-0.014378548 -0.0054036006 -0.0043883519 4288230959
-0.012666047 -0.0037371218 -0.0061395885 4288099889
-0.010964073 -0.0020712614 -0.0078884596 4288099633
-0.0092726499 -0.00040596724 -0.0096350545 4288230448
-0.0075917691 0.0012586862 -0.011379298 4288426799
-0.0057723448 0.002158381 -0.012457807 4288754219
-0.003958147 0.0030578449 -0.013535123 4288754218
-0.0021491833 0.0039571077 -0.014611285 4288623404
-0.00034546107 0.0048560798 -0.015686203 4288949803
0.001932364 0.0034639388 -0.014776409 4289211434
0.0045458414 0.00054581463 -0.012547649 4289014828
0.0076761171 -0.0046605393 -0.0083431201 4288230194
0.010508224 -0.0083380193 -0.0054653715 4287118139
0.013196632 -0.011250615 -0.0032520611 4286267713
-0.017034203 -0.004096657 -0.0078279572 4287378749
-0.01478456 -0.0054961741 -0.0069164122 4287903029
-0.012800649 -0.0053603053 -0.0073351534 4287771448
-0.010957539 -0.0044572055 -0.0084173167 4287706423
-0.0092632286 -0.0027874261 -0.0101612 4288033844
-0.0075794868 -0.001118198 -0.011902799 4288034099
-0.0056084357 -0.00098270178 -0.012318444 4288427053
-0.0037888587 -8.071959e-05 -0.013395254 4288099888
-0.0018202737 5.4866076e-05 -0.013810184 4287772979
-0.00016545132 0.0017225817 -0.015545249 4288230448
0.0021171793 0.00032643974 -0.014639814 4288361009
0.0045728423 -0.001834482 -0.013077521 4287117884
0.007539399 -0.0062904879 -0.0095432596 4286071108
-0.013349466 -0.004674837 -0.010517837 4287377983
-0.011373565 -0.0045394003 -0.010934793 4287640123
-0.0093975514 -0.0044038072 -0.011351679 4287837238
-0.0074214302 -0.0042680949 -0.011768495 4288033589
-0.0055939555 -0.0033634752 -0.012845469 4287969074
-0.0037717037 -0.0024591535 -0.013921213 4287969073
-0.0019546822 -0.0015550628 -0.014995751 4288034608
-0.00029965118 0.00011698902 -0.016727578 4288164913
0.0021418817 -0.0020515025 -0.015167386 4288229939
0.0047615841 -0.004986614 -0.012953066 4286855999
-0.011929415 -0.0038410649 -0.014105939 4287704639
-0.0098183155 -0.0044773221 -0.013861408 4287444028
-0.0075558834 -0.0058841929 -0.012958733 4287509819
-0.0055798031 -0.0057483763 -0.013375459 4287641399
-0.0037548617 -0.0048416555 -0.014450156 4287903793
-0.0019351505 -0.0039351881 -0.015523621 4287969329
-0.00027725101 -0.0022586361 -0.017252777 4288361008
0.0020070113 -0.0036633313 -0.01635428 4288295219
-0.0061595291 -0.0050449148 -0.016536424 4287247169
-0.0040404536 -0.0056824088 -0.016294936 4287444028
-0.0020696707 -0.0055467039 -0.016710354 4287510838
-0.00025517493 -0.0046383217 -0.01778098 4288165934
0.0018721782 -0.005274877 -0.017540948 4287640888
-0.0047782697 -0.0041932315 -0.020100756 4287050818
-0.0025112331 -0.0056081265 -0.01920536 4287117373
-0.00038964301 -0.0062473714 -0.018965861 4287379003
0.0017373674 -0.0068861097 -0.018727401 4287378494
0.0014439076 -0.0077203289 -0.020565143 4287442243
0.031017814 -0.010093763 0.032689467 4282732904
-0.024203219 -0.0039538518 -0.027633268 4282928743
-0.0005158335 -0.0070835799 -0.031107523 4282862954
-0.00080643222 -0.0078836977 -0.032920163 4282994278
-0.032777473 -0.0060457364 -0.032093793 4282994534
-0.01754351 -0.0065669343 -0.036495723 4282798439
-0.039113581 -0.0071830004 -0.035136655 4282206584
-0.041463912 -0.0064752102 -0.037828662 4280302243
-0.0046661012 -0.0071885213 -0.042918541 4282143090
-0.00495103 -0.0079544857 -0.044706777 4282470508
-0.027746372 -0.0075507611 -0.051228292 4282731884
-0.0091727078 -0.0069878027 -0.056968682 4282732393
-0.0094514638 -0.0077130198 -0.058727629 4280502163
