# .PCD v0.7 - Point Cloud Data file format
VERSION 0.7
FIELDS x y z rgba
SIZE 4 4 4 4
TYPE F F F U
COUNT 1 1 1 1
WIDTH 909
HEIGHT 1
VIEWPOINT 0 0 0 1 0 0 0
POINTS 909
DATA ascii
0.0044200569 0.012756895 0.040519543 4287710249
-0.002524402 0.0057990067 0.046062268 4289540384
-0.0011784583 0.0086660236 0.042747453 4289343779
0.00047960132 0.010169212 0.04087998 4290455578
0.0028045848 0.0089475326 0.041898206 4290128668
0.0049683116 0.0084075816 0.042193905 4291372814
0.0069627464 0.0085487477 0.041768819 4288756513
-0.0028263777 0.0048419051 0.044123434 4289081384
-0.0013186187 0.0070338584 0.041536033 4288885033
0.00017320737 0.0092248134 0.038952045 4289146663
0.0023258552 0.0086818002 0.039248362 4289670434
0.0048276559 0.0067731403 0.040980875 4290390299
0.0073455833 0.0048657544 0.042709969 4289539618
0.0091708116 0.0056901984 0.041565739 4289343779
0.011170652 0.005831901 0.041139618 4289344034
0.012805458 0.0073382445 0.039280847 4289540639
0.014800079 0.007479731 0.038855962 4289605918
0.016794749 0.0076213181 0.03843113 4290586904
0.019551765 0.0050361268 0.040864974 4290390299
0.022330195 0.0024525784 0.043294266 4290389278
0.026109664 -0.0035360754 0.049286664 4290193184
0.032916255 -0.019738406 0.06596306 4290193184
-0.0032889061 0.0045754127 0.04146874 4288687409
-0.0019496866 0.0074593537 0.038168602 4289799973
-0.00046541542 0.0096562915 0.035591207 4289800739
0.0018479154 0.0084250234 0.036605224 4289408038
0.004000362 0.0078798868 0.036899962 4289735204
0.006506931 0.0059650913 0.038626507 4290323999
0.0086755902 0.0054212622 0.038917921 4289211944
0.011029352 0.0041932426 0.039923534 4289473829
0.012664434 0.0057039522 0.038068026 4289146663
0.014473904 0.0065297075 0.036929004 4289735204
0.016465802 0.0066710822 0.03650476 4289342759
0.01940966 0.0033930317 0.039645702 4289473574
0.022959463 -0.0019341707 0.044918336 4289538854
0.02772649 -0.011359401 0.054453284 4289734948
-0.0042329952 0.0063824579 0.036667697 4288818224
-0.0027430393 0.0085862167 0.034094013 4289995813
-0.00093671679 0.0094133131 0.032956861 4290258209
0.0012019686 0.0088649131 0.033252783 4290061858
0.0033461042 0.0083169863 0.03354761 4290258464
0.0056698248 0.00708225 0.034556188 4289342503
0.0078274943 0.0065354593 0.034848273 4289211944
0.01017008 0.0053022765 0.035852917 4289342503
0.011976913 0.0061299317 0.034716055 4289277223
0.013778444 0.0069572814 0.033580385 4290389278
0.015762206 0.0070980676 0.033157855 4290454814
0.018696995 0.0038084798 0.036292396 4290192928
0.022430029 -0.0022227615 0.042264611 4289865763
0.027971113 -0.014421925 0.054619022 4289603624
-0.005404681 0.00047685951 0.040185384 4287640123
-0.0045327619 0.0054502375 0.034747235 4289277224
-0.0028817281 0.0069701262 0.0328945 4289604134
-0.00090938434 0.0071093962 0.032473862 4289146408
0.0012316853 0.0065589733 0.032767601 4289146154
0.0032068975 0.0066986121 0.032346487 4289342504
0.0051822029 0.0068383515 0.031925417 4289538853
0.0073342249 0.0062889643 0.032217026 4289146409
0.0094916746 0.0057399981 0.032507569 4289277224
0.011654537 0.0051915534 0.032797001 4289342759
0.013453476 0.006020885 0.031663537 4289538598
0.015247121 0.0068499893 0.030531229 4289604134
0.017985493 0.0042373203 0.032949023 4289931043
0.021901373 -0.0025022924 0.039617553 4289603879
0.027628947 -0.015429214 0.05265253 4289603368
-0.0061757714 0.0016123801 0.036111467 4287444283
-0.0049924813 0.0052151568 0.032115832 4289211689
-0.0033465363 0.0067390166 0.030267486 4289996579
-0.0012138858 0.0061856993 0.030561263 4289800483
0.0010926388 0.0049408861 0.03156665 4289931043
0.003067743 0.0050805025 0.031145545 4289276969
0.0050429367 0.0052202232 0.030724498 4289277224
0.0071946606 0.004668612 0.031014482 4289473318
0.0093518123 0.0041174404 0.031303421 4289342503
0.011332572 0.0042578168 0.030881388 4289342504
0.013128906 0.0050891824 0.029750096 4289211689
0.015294261 0.0045388676 0.030037502 4288950059
0.01803444 0.0019176155 0.03244824 4289015338
0.021758489 -0.0041534007 0.038392358 4289080619
0.027677508 -0.017812036 0.052103482 4289080619
-0.0066301897 0.0013757721 0.033477478 4288229684
-0.0056116506 0.0056838579 0.028778287 4288949549
-0.0038105547 0.0065169521 0.027647121 4290258208
-0.0016835518 0.0059610456 0.02794042 4289865763
0.00078539178 0.0040172301 0.029654818 4290520093
0.0029286332 0.0034626536 0.029944794 4290258464
0.0050773025 0.0029085465 0.030233683 4289342759
0.0070551336 0.003048528 0.029812129 4289408038
0.0092119873 0.0024951436 0.030099457 4289342759
0.011011019 0.0033287741 0.028969178 4289146154
0.012804769 0.0041620731 0.027840132 4289996579
0.015154094 0.0029165111 0.028833581 4290192673
0.018083032 -0.00040617585 0.031944364 4290323744
0.021807943 -0.0064967573 0.03787335 4290388769
0.027920686 -0.020891234 0.05225677 4290257954
-0.0073985383 0.0025424622 0.029426677 4288294964
-0.0062296316 0.006165918 0.025450708 4289014828
-0.0045991987 0.0076973774 0.023612255 4289211689
-0.0026485622 0.0078350492 0.023196207 4289211689
-0.00019365922 0.0058836974 0.024908582 4289408038
0.0022773817 0.003933575 0.026617596 4289669925
0.0047645271 0.0019847266 0.028323198 4289408038
0.0067395754 0.0021244958 0.027902225 4289408038
0.0087146983 0.0022643581 0.027481304 4289473318
0.010327049 0.0037951432 0.02564724 4289408038
0.012296945 0.0039348193 0.025227575 4289800483
0.014827184 0.001989495 0.026924355 4290127648
0.017941836 -0.0020392239 0.030732533 4290127648
0.022049142 -0.0095388368 0.038055569 4290127394
0.028357934 -0.024673425 0.053107545 4290062114
-0.0080081597 0.0030275919 0.026099155 4288883504
-0.0068464391 0.0066614114 0.022133028 4290192163
-0.0050612316 0.0074976906 0.021008549 4289996323
-0.0031160563 0.0076349452 0.020593638 4290192673
-0.00066718459 0.0056766607 0.022302253 4290258209
0.0016272925 0.0044179261 0.023300281 4290192673
0.0039325319 0.0031600967 0.024296058 4289015338
0.0058967695 0.0032990836 0.023877377 4289734948
0.0078610852 0.0034381635 0.023458743 4289276968
0.0096442327 0.0042749457 0.0223352 4290585374
0.011422094 0.0051114559 0.021212852 4289996834
0.013754386 0.0038560033 0.022203216 4289146409
0.017043673 -0.00088382512 0.026707793 4289277224
0.021713857 -0.010498881 0.03612338 4289407783
0.028599463 -0.027771771 0.053246617 4289276968
-0.0096433833 -0.00082150847 0.027452691 4286724673
-0.0087735876 0.0042276382 0.022073099 4289079599
-0.0074620768 0.0071703009 0.018825291 4289930534
-0.0055224709 0.0073070563 0.018411489 4290061858
-0.0035827607 0.0074439161 0.017997729 4290127394
-0.0013075769 0.0061793514 0.01899646 4290192673
0.00097838044 0.0049156919 0.019992927 4289669669
0.0034481399 0.00295249 0.021692267 4289342504
0.0054069236 0.003091082 0.02127474 4289604134
0.0071874 0.003929738 0.020153342 4289604134
0.0087815598 0.0054679587 0.018329756 4289865763
0.010916226 0.0049066804 0.018616894 4290585374
0.013056301 0.0043458268 0.018902997 4290454814
0.016336106 -0.00040987879 0.023397883 4290454814
0.021378979 -0.011454254 0.034194663 4290258209
0.028840274 -0.030878633 0.053379454 4290258209
-0.010397773 0.0003817752 0.023426158 4287117118
-0.0095374733 0.0054454394 0.018060217 4289408294
-0.0079170614 0.0069890358 0.016233793 4289276968
-0.0059829056 0.0071253963 0.015821144 4288819244
-0.0037190169 0.0058556087 0.016818821 4289146153
-0.0014443286 0.0045866556 0.017814325 4289538598
0.00067097321 0.0040213391 0.018103549 4289473319
0.0026188605 0.0041590296 0.017688246 4289604134
0.0047423393 0.0035944842 0.017975884 4289604133
0.0065148771 0.0044347458 0.016857833 4289669669
0.0081012808 0.0059767105 0.015039258 4289865763
0.010227621 0.0054126456 0.015326494 4289866020
0.012359366 0.0048490725 0.015612666 4289407783
0.01581859 -0.00062397867 0.020797981 4289604133
0.021236047 -0.013106205 0.032968841 4289407783
0.029080343 -0.033993915 0.053505965 4289407783
-0.010996677 0.00089675561 0.020118615 4288098869
-0.009986572 0.0052692257 0.015471011 4289276459
-0.0083712302 0.0068168007 0.013648992 4290192673
-0.0062805824 0.006247256 0.013941579 4289800483
-0.0040198602 0.0049728863 0.014936592 4290062113
-0.0017483346 0.0036993511 0.015929433 4289865764
0.00036397949 0.0031316169 0.016217612 4289538598
0.0023090839 0.003269095 0.015802894 4289604134
0.0042542592 0.0034066997 0.015388247 4289408039
0.006021522 0.0042487569 0.014272984 4289473319
0.0076028258 0.0057947449 0.012458771 4289538598
0.0099068619 0.0045240745 0.013445118 4289473574
0.012593638 0.0018467382 0.015827147 4289015594
0.016245259 -0.0043470562 0.021696744 4289146409
0.021667209 -0.016868085 0.033836715 4289015338
0.029513719 -0.03782092 0.054323487 4289015338
-0.011286866 8.6277723e-06 0.018229401 4288818224
-0.010434862 0.0051020607 0.012888517 4289145644
-0.0085064061 0.0052378699 0.01247697 4290192928
-0.0064160638 0.0046661012 0.012767933 4289996834
-0.0039913915 0.0026798509 0.014461618 4290454814
-0.0020519346 0.0028167255 0.014047947 4290258464
5.7414174e-05 0.0022465587 0.014335129 4289342759
0.0018272512 0.0030907951 0.013220774 4289407783
0.0037669688 0.0032279976 0.01280728 4289669669
0.0053511411 0.004778374 0.010995729 4289604133
0.0072856545 0.0049154051 0.010583501 4290389279
0.0097696595 0.0029339902 0.012265101 4290585629
0.012641385 -0.00045812875 0.015338035 4290323999
0.016482342 -0.0073772147 0.02188926 4290520093
0.022097269 -0.020642847 0.034695104 4290323744
0.029558308 -0.040249899 0.053740188 4290323744
-0.012190931 0.0019668974 0.013533369 4288621873
-0.011038601 0.0056541786 0.0096106716 4289473064
-0.0091182813 0.0057893842 0.0092008375 4289277223
-0.0070362687 0.0052148439 0.0094919074 4289342759
-0.0046202764 0.0032214038 0.011182483 4289211944
-0.0026889555 0.0033576824 0.01077053 4289735204
-0.00058794767 0.0027847849 0.011057781 4289735204
0.0015184917 0.0022123605 0.011343937 4289604389
0.0032804757 0.0030582733 0.010233035 4289473574
0.0050371736 0.0039038919 0.0091233179 4289800483
0.0067886002 0.0047492534 0.0080148168 4289866019
0.0094495192 0.0020525716 0.010388959 4289735204
0.012317508 -0.0013506785 0.013454374 4289735204
0.016718693 -0.0104158 0.02207545 4289996834
0.022526229 -0.024430454 0.035543956 4290192928
0.029602541 -0.042682931 0.053153865 4290389279
-0.012939684 0.0032346807 0.0095546916 4288621874
-0.011485122 0.005507268 0.007043127 4289996324
-0.0097289868 0.0063543171 0.0059346557 4290323999
-0.007816691 0.0064890459 0.0055266023 4290258464
-0.0054120682 0.0044882633 0.0072146002 4290192673
-0.0031580739 0.003200423 0.0082011074 4290258463
-0.0010627136 0.002624888 0.0084879249 4289408038
0.00086599216 0.0027611665 0.0080766678 4289669668
0.0029695183 0.0021864511 0.0083618537 4289538853
0.0047236159 0.0030340627 0.0072543547 4290192928
0.0064724199 0.0038814396 0.0061480179 4289800483
0.0087642632 0.0025968552 0.0071269739 4289342759
0.011808608 -0.0015282705 0.0108801 4289146408
0.016389981 -0.01133237 0.020174777 4289277223
0.022763282 -0.027520865 0.035690308 4289277223
0.029452974 -0.044410273 0.051872134 4289146409
-0.014996596 0.0015258715 0.0087969564 4286659904
-0.013686899 0.0045202449 0.0055891983 4289668904
-0.012242567 0.0067985579 0.0030848309 4289669159
-0.01049706 0.0076470561 0.0019802339 4289473319
-0.0084343515 0.0070667267 0.0022721104 4289407783
-0.0060384385 0.0050588325 0.0039569177 4289800228
-0.0037929527 0.0037659928 0.0049419478 4289538853
-0.0018751435 0.0039013848 0.0045329314 4289146409
4.2743981e-05 0.0040368959 0.0041239746 4289277223
0.0021352805 0.0034592189 0.0044098347 4289473574
0.0040559843 0.0035951324 0.0040004402 4289866019
0.0057968497 0.0044440776 0.0028974973 4290454814
0.0080801621 0.0031545535 0.0038748756 4290193184
0.010929987 -0.00027173012 0.0069275312 4290258464
0.015685817 -0.010819562 0.016893698 4290193184
0.022427823 -0.028483257 0.033756375 4290193184
0.029496703 -0.046849266 0.0512814 4290389024
-0.015281156 0.00066969544 0.006930694 4286921533
-0.014126532 0.0043895617 0.0030323118 4289342504
-0.012687117 0.0066740587 0.00053391326 4289276968
-0.010630172 0.0060910806 0.00082522538 4289342504
-0.0085677691 0.0055085421 0.0011154916 4288753453
-0.006336242 0.0042102933 0.0021000355 4289145898
-0.0042602941 0.0036289617 0.0023875292 4289342504
-0.0023479573 0.0037639514 0.0019796668 4289342759
-0.00043553859 0.0038990602 0.0015718667 4289342759
0.0014769621 0.0040342882 0.0011641374 4289211688
0.003566578 0.0034543201 0.0014490252 4289538853
0.0056616068 0.0028747991 0.0017328793 4289473318
0.0079444125 0.001580894 0.0027070437 4288492334
0.010793168 -0.0018563345 0.0057516098 4289081129
0.015358303 -0.011722408 0.015003191 4289277223
0.022283185 -0.030155301 0.032515623 4289277223
0.029347006 -0.048578173 0.049998507 4289538343
-0.015715472 0.00053755194 0.0043711811 4288295219
-0.014718197 0.0049870983 -0.00021400675 4289146154
-0.013130855 0.0065585561 -0.00201027 4289931043
-0.010921396 0.0052541867 -0.0010245088 4289865764
-0.0087011345 0.0039506406 -4.0925108e-05 4290192929
-0.0063066073 0.0019295737 0.0016341768 4289407783
-0.0045606643 0.0027826726 0.00053305831 4289342504
-0.0028199777 0.0036354959 -0.00056686718 4289408038
-0.0012560673 0.0052059516 -0.0023577055 4289277223
0.00064561516 0.0053403974 -0.0027631419 4289342248
0.0025473684 0.0054749399 -0.0031685205 4289538853
0.0051673278 0.0027404204 -0.000812307 4289408038
0.0078087002 7.5176358e-06 0.0015394166 4289277224
0.010841254 -0.0041575581 0.0052651241 4289146408
0.015406288 -0.014054067 0.01449346 4289276968
0.022328794 -0.032543592 0.031963184 4289276968
0.029197343 -0.05030676 0.048715837 4289276459
-0.01644893 0.0018574595 0.0004283702 4288033078
-0.015156057 0.0048766397 -0.0027559018 4288884268
-0.013418499 0.0057309233 -0.0038539479 4290258463
-0.0112122 0.004421927 -0.0028707981 4290454814
-0.0088344626 0.0023930222 -0.0011971369 4290585629
-0.0066039413 0.0010859855 -0.00021904707 4290520093
-0.0048606098 0.0019410402 -0.0013179649 4289407783
-0.0029538721 0.0020756088 -0.0017246595 4289342503
-0.0013897195 0.0036504231 -0.003512226 4289408038
0.00033782795 0.0045046806 -0.0046075396 4289342248
0.0024134591 0.0039193667 -0.0043230075 4289604389
0.0048531853 0.0018955544 -0.0026620142 4290454814
0.0078550391 -0.0022848547 0.0010601692 4290258464
0.01107369 -0.0071819946 0.0054632574 4290716189
0.015828654 -0.017827623 0.015354825 4290519583
0.022754122 -0.036373422 0.032780699 4290388769
0.029047702 -0.052035034 0.047433406 4289995814
-0.017031051 0.0024714619 -0.0028078957 4288491824
-0.015593119 0.0047752447 -0.0052911453 4289407528
-0.014015961 0.0063546188 -0.0070786267 4289081129
-0.012133759 0.0064870343 -0.0074804076 4289408038
-0.0096096061 0.0037276223 -0.0051176352 4289800995
-0.0073902681 0.0024154335 -0.0041404972 4289734948
-0.0053259507 0.0018267184 -0.0038555432 4289866018
-0.0035931617 0.0026833043 -0.0049504749 4289604389
-0.0018656217 0.0035396069 -0.0060442197 4289604389
-0.00014335662 0.0043956675 -0.0071367449 4289734949
0.0017501265 0.0045296103 -0.0075403727 4290062369
0.0041811354 0.0024987161 -0.0058825458 4289996834
0.0071737245 -0.0016954243 -0.0021683164 4289931298
0.010751911 -0.0080510005 0.0035971254 4290323999
0.016062748 -0.020892903 0.015521264 4290585374
0.022988496 -0.039495081 0.03290385 4290585374
0.028898098 -0.05376298 0.046151213 4289799718
0.032767542 -0.060097419 0.051854983 4288687408
0.034706537 -0.059224963 0.050717078 4289406254
-0.01905825 0.00078810006 -0.0035540974 4285875268
-0.01761201 0.0030988567 -0.0060342341 4289604389
-0.01602938 0.0046828203 -0.0078196656 4290454814
-0.014457311 0.0062662065 -0.0096027888 4289931298
-0.012580592 0.0063982159 -0.010003415 4289800483
-0.010383207 0.0050799772 -0.0090249628 4289800995
-0.0081750564 0.0037626475 -0.0080487672 4290455069
-0.006121736 0.0031709634 -0.0077631469 4289539108
-0.0040629879 0.0025797226 -0.0074785626 4289473318
-0.0019988194 0.0019890219 -0.0071950811 4289734948
-0.00027650222 0.0028472356 -0.0082859769 4289931298
0.0014405437 0.0037052371 -0.0093756951 4289408038
0.0035102628 0.0031151995 -0.0090931207 4289146408
0.0064935647 -0.0010925755 -0.0053869188 4289408038
0.010246217 -0.0081918463 0.0010500373 4289538853
0.016109124 -0.023243316 0.014997598 4289342759
0.022842849 -0.041179024 0.031654276 4289146408
0.02874852 -0.055490613 0.044869259 4288884269
0.03222613 -0.060399309 0.049194284 4288883759
0.033764485 -0.058080003 0.046696074 4289536813
-0.020217456 0.004336074 -0.0095400214 4287380788
-0.018789455 0.0066519901 -0.012011252 4289081383
-0.017073184 0.0075110868 -0.013099849 4289866018
-0.015362136 0.0083699673 -0.014187288 4289866274
-0.013498902 0.0085010082 -0.014585052 4289670179
-0.011155274 0.0064501017 -0.012919105 4290127648
-0.0089583024 0.0051276237 -0.01194386 4289670179
-0.0069159716 0.0045329407 -0.011657519 4289539364
-0.0050363317 0.0046655647 -0.012058455 4289604644
-0.0031566024 0.0047983006 -0.012459332 4289538853
-0.0012768134 0.0049311519 -0.012860139 4290062113
0.00025082752 0.0065165758 -0.014629827 4290127904
0.0024829805 0.0051971748 -0.013661553 4289996834
0.0052702203 0.0017011613 -0.010645529 4289604389
0.0095571987 -0.0075980648 -0.0021730578 4289866019
0.015968371 -0.02487231 0.013788752 4289866019
0.023076162 -0.044313207 0.031768203 4289866019
0.028598975 -0.057217918 0.043587543 4289996324
0.031685505 -0.060692146 0.046540312 4289145133
0.033218935 -0.058366679 0.044048131 4288882994
-0.012085702 0.0085674971 -0.017486328 4290066193
-0.0099025816 0.0072396845 -0.016511463 4289410078
-0.0080391727 0.0073710494 -0.016909026 4289278499
-0.0060077608 0.0067735091 -0.016621955 4289212708
-0.0043121092 0.0076340921 -0.017703975 4289670433
-0.0024484694 0.0077657886 -0.018101346 4289670943
-0.00076067448 0.0086259991 -0.019181479 4289540128
0.001457613 0.0073012784 -0.018213574 4288951589
0.0045929514 0.0023373514 -0.013839396 4289539874
0.0090532675 -0.0077186674 -0.0047051227 4289473828
0.015827648 -0.026501037 0.012580119 4289473828
0.02311947 -0.04672832 0.031195847 4289473828
0.028257521 -0.058217637 0.04162664 4289211944
0.030951045 -0.060248815 0.043214165 4288884523
0.03247688 -0.057917379 0.040728584 4288360499
-0.0058061033 0.011958253 -0.024293615 4287644714
0.0083663762 -0.007100217 -0.007909989 4287709484
0.015500538 -0.027399607 0.010692777 4287709484
0.022973349 -0.048417836 0.029942134 4287709484
0.027916469 -0.059212677 0.039669223 4289082658
0.030412167 -0.060521297 0.040575229 4288623913
-0.0083874501 -0.029054679 -0.039539039 4284442678
-0.0065163821 -0.028922737 -0.039938204 4284376888
0.045108911 -0.063650854 0.035539478 4282602344
0.0094951391 0.0072089732 0.077396147 4285229864
0.01104565 0.0093260631 0.074739948 4285820189
0.014348228 0.0048766397 0.079463191 4285885469
0.0054214299 0.012614131 0.068461508 4285296163
0.0071221925 0.014077082 0.066551834 4285689373
0.0088123605 0.015539303 0.064644501 4285754398
0.011551596 0.013048436 0.067155264 4285885723
0.014491603 0.0099006258 0.070396893 4285820443
0.017640386 0.0060964264 0.074367672 4285624094
0.02026744 0.0042690523 0.0761289 4285493023
0.022348663 0.0044168197 0.075685672 4285427743
0.023670005 0.0071958192 0.072310008 4285493278
0.024584647 0.01128858 0.067473821 4285755164
0.026639257 0.011434656 0.067036413 4285820698
0.030476009 0.0056658611 0.073181726 4285820443
0.0025710985 0.01344027 0.064706631 4285098538
0.0039299093 0.016230103 0.061329246 4285821463
0.0061227903 0.015711945 0.061633818 4285820953
0.0077998899 0.017177582 0.059732601 4285623329
0.010348484 0.015337933 0.061505333 4285689119
0.012734115 0.014160167 0.062540956 4285886489
0.01567585 0.011001624 0.065773919 4285689628
0.01772216 0.011146836 0.06533806 4285558813
0.019768529 0.01129213 0.064902253 4285624603
0.020676177 0.015397355 0.060077548 4285820953
0.022514109 0.016201463 0.058914274 4285689118
0.024346741 0.017005216 0.057752229 4285492003
0.02775663 0.012533374 0.062429629 4285623584
0.031604983 0.0067458525 0.068557523 4285689629
0.0017655157 0.014428768 0.060529448 4285098793
0.0031142943 0.017226581 0.057160839 4285493279
0.0047835708 0.018695936 0.055264555 4285821719
0.0067893565 0.018838 0.054837123 4285952533
0.0095001496 0.016327668 0.057340518 4285952279
0.012053534 0.014481816 0.059107304 4285755419
0.014804624 0.011974443 0.061602265 4285624349
0.016655898 0.012781426 0.060437709 4285624349
0.018314939 0.014250495 0.058543868 4285624093
0.019584123 0.017043207 0.055192634 4285952788
0.021216523 0.018510479 0.053304613 4285886488
0.023228168 0.018653501 0.052876346 4285754908
0.026425622 0.014826968 0.056817025 4285820699
0.030456435 0.0083571412 0.063661262 4285820953
0.0012921765 0.014102891 0.057832129 4285164838
0.0023002401 0.018240817 0.053005606 4285558814
0.0041298047 0.01904808 0.05184707 4285623839
0.006300848 0.018524047 0.052152984 4285623583
0.0093575493 0.014673885 0.056113206 4285623583
0.011910275 0.012821428 0.057875112 4285623839
0.014116351 0.012300093 0.058173731 4285624349
0.015775632 0.013773412 0.056283154 4285624349
0.017611016 0.014581501 0.055123687 4285624349
0.018872852 0.017382402 0.051780686 4285624093
0.02068961 0.018189311 0.050625302 4285820953
0.022695817 0.01833193 0.050198175 4285821209
0.025491811 0.015819475 0.052677169 4285755929
0.029509945 0.0093268938 0.059507467 4285690394
0.037029039 -0.0084398091 0.07865794 4285690394
0.001149971 0.012449436 0.056604959 4285230373
0.0019912422 0.017268557 0.051057048 4285624604
0.0036477298 0.018745672 0.049170114 4285886744
0.0058131553 0.018219039 0.049475551 4285952279
0.0088632889 0.014355317 0.053427152 4285755164
0.011410013 0.012495875 0.055185318 4285689374
0.013429254 0.012639061 0.054755144 4285624349
0.015264668 0.013449285 0.053597234 4285624603
0.016908254 0.014925916 0.051713377 4285624349
0.018541198 0.016401865 0.049831845 4285558558
0.020163469 0.017877154 0.047952592 4285558048
0.02235882 0.017353218 0.048252083 4285558049
0.024954051 0.015497711 0.050000302 4285558558
0.029564619 0.0069854446 0.058988445 4285558558
0.00034794211 0.013477992 0.052457549 4285361954
0.0015150383 0.016971156 0.048382357 4285755419
0.0033367649 0.017782211 0.047228739 4285754909
0.0054992437 0.017253131 0.047533162 4285886488
0.0081941485 0.014715463 0.05001989 4285952023
0.010553852 0.013518352 0.051047646 4285623838
0.012743317 0.01299144 0.051346436 4285558558
0.014938194 0.012464985 0.051644132 4285624604
0.016579395 0.013945792 0.049764112 4285624348
0.018020902 0.0160947 0.0471614 4285821208
0.019829841 0.016905393 0.046011001 4285886743
0.022605399 0.014373913 0.04848098 4285886743
0.025402382 0.011844043 0.050946467 4285755674
0.030018404 0.0033038557 0.059911713 4285624093
-0.0014743134 0.010346357 0.053122789 4284901423
-0.00045254081 0.014524341 0.048323251 4285755673
0.0010396168 0.016682763 0.045714281 4285820954
0.0026859865 0.018167835 0.043836147 4285491493
0.0048401468 0.017635997 0.044140615 4285754398
0.0071752295 0.016432751 0.045170166 4285820444
0.0096992478 0.014558583 0.046923138 4285689629
0.01187773 0.014028694 0.047222584 4285558559
0.01406163 0.013499267 0.047520943 4285624349
0.015692418 0.01498368 0.045646466 4285755418
0.017312564 0.016467411 0.043774314 4285754908
0.019113563 0.017279755 0.042627215 4285623328
0.022074442 0.014068369 0.045814618 4285754654
0.025258973 0.010188561 0.04971806 4285821208
0.030471077 -0.000390701 0.060825422 4285689628
-0.0029112697 0.014098238 0.046079926 4285032749
-0.0014160573 0.016263273 0.043475285 4285689884
0.00023047253 0.017752666 0.041600332 4286017558
0.0020363629 0.018566873 0.040453434 4286214164
0.004182227 0.018032253 0.040757984 4286082584
0.006684117 0.01614989 0.042510599 4285952024
0.0090241507 0.014942687 0.043535806 4285689883
0.010833059 0.015757408 0.042388491 4285689628
0.012636691 0.016571846 0.041242376 4285623838
0.014621008 0.016712651 0.040819719 4285952024
0.016228056 0.018199842 0.03895364 4286148884
0.01820712 0.018340431 0.03853222 4285754398
0.020962249 0.015790056 0.040993199 4285689119
0.024722222 0.0098784529 0.047049768 4285820444
0.030324558 -0.0020810515 0.059571177 4285886234
-0.0032130182 0.013144821 0.044143856 4285032494
-0.0017200261 0.015316252 0.041544616 4285623329
9.1198832e-05 0.016132925 0.04039818 4285492004
0.001897186 0.016949303 0.039252914 4285556773
0.004042767 0.016412463 0.03955584 4285557029
0.0061937869 0.015876081 0.039857663 4285689374
0.0083502382 0.015340123 0.040158436 4285624348
0.0097903237 0.017508272 0.037570827 4285689883
0.011763792 0.017648224 0.03715042 4285689628
0.013551526 0.018463768 0.036009394 4285754653
0.015710898 0.017928377 0.036309741 4285951513
0.017684516 0.018068571 0.035889477 4286214419
0.020045808 0.016858954 0.036907159 4286083349
0.023596779 0.011601601 0.042233005 4285886234
0.029580556 -0.0017474443 0.056163624 4285754653
-4.8026443e-05 0.014513414 0.039196186 4286999563
0.0020971671 0.013974268 0.03949745 4286735894
0.0082102492 0.013716117 0.038953207 4285425194
0.0098310523 0.015212744 0.037090674 4285360424
0.011624169 0.016030755 0.035950094 4285425959
0.013783202 0.015493076 0.036248781 4285294378
0.019905413 0.015237045 0.035703644 4285490729
0.02345477 0.009962149 0.041016489 4285623329
0.029434647 -0.0034307465 0.054914609 4285557538
-0.022674248 0.012257144 -0.022130627 4285425958
-0.021434486 0.015315793 -0.025270505 4285688353
-0.01976081 0.016176201 -0.026346713 4286081309
-0.017474823 0.014107976 -0.02467861 4286015519
-0.015329774 0.012772925 -0.023699105 4285818404
-0.024637692 0.010627314 -0.022852913 4285164328
-0.023532942 0.014430117 -0.0266745 4285623839
-0.022008166 0.016027223 -0.028434409 4285820698
-0.02019091 0.016154762 -0.028822564 4285820444
-0.018219344 0.015548166 -0.0285265 4286017048
-0.015928604 0.013473865 -0.026864313 4286017048
-0.013781298 0.012134727 -0.025888544 4285689118
-0.01178541 0.011530153 -0.025597431 4285624093
-0.0099489652 0.011659577 -0.025989272 4285624349
-0.0084475055 0.013255782 -0.027743639 4285624094
-0.0069566593 0.014851376 -0.029495716 4285689118
-0.0053035356 0.015713327 -0.030565243 4285951004
-0.003129039 0.014376715 -0.029594734 4286081819
-0.00058738142 0.01157587 -0.027268421 4286016028
0.0023374707 0.0073117986 -0.023589596 4285884703
0.0071299784 -0.0042718276 -0.0131386 4285753378
0.01405647 -0.023901418 0.0047449134 4285753378
0.022071669 -0.047179766 0.025981581 4285753378
0.027192688 -0.058739714 0.036362894 4285622309
0.029679852 -0.060053349 0.037267409 4285557029
-0.02533859 0.012075245 -0.026706539 4285295654
-0.024097718 0.01515118 -0.029833488 4285689628
-0.022729374 0.017488874 -0.032272108 4285623583
-0.020922922 0.01761565 -0.032657962 4285557539
-0.018962346 0.017006084 -0.032361232 4285754909
-0.016682968 0.014924467 -0.030701606 4285820699
-0.0143875 0.012844119 -0.029045388 4285755164
-0.012561951 0.012972664 -0.02943499 4285623839
-0.010571621 0.01236558 -0.029144239 4285689884
-0.0090779439 0.013965588 -0.030893687 4285820954
-0.0075948536 0.015564911 -0.032640763 4285754909
-0.0059496947 0.016428526 -0.033706971 4285820189
-0.0037837178 0.015086964 -0.03273797 4285754399
-0.0014289729 0.0130115 -0.031093774 4286016539
0.0016646273 0.0079990663 -0.026745562 4286082584
0.0062626079 -0.0028856918 -0.016995009 4285951259
0.013359234 -0.023309149 0.0015227795 4285951259
0.021360232 -0.046657905 0.022709375 4285951259
0.026661457 -0.058987208 0.033741109 4285689373
0.02875465 -0.058838308 0.033295542 4285492514
-0.025894813 0.012801502 -0.029863762 4285295909
-0.024661332 0.01588558 -0.032982506 4285886999
-0.023300573 0.018229254 -0.035414606 4285820698
-0.021653406 0.019094259 -0.036480203 4285623583
-0.01970382 0.018481761 -0.036182787 4285689373
-0.017279319 0.015654363 -0.033845395 4285886743
-0.015151702 0.014305145 -0.032872077 4285755419
-0.0130133 0.012956738 -0.031900942 4285624093
-0.011357624 0.01382288 -0.032967947 4285624349
-0.0098743774 0.015426479 -0.034711864 4285755164
-0.0082318969 0.016291901 -0.0357759 4285886743
-0.0065946802 0.01715707 -0.036838725 4285623584
-0.0046124011 0.01654771 -0.036547635 4285557794
-0.002091188 0.013728019 -0.034230202 4285623584
0.00081244111 0.0094364434 -0.030566823 4285689374
0.0055799708 -0.002218388 -0.020163553 4285624348
0.012849011 -0.023439892 -0.001015285 4285689374
0.021027014 -0.047595017 0.020794192 4285689374
0.026131012 -0.059225626 0.031126054 4285624348
0.028412562 -0.059812933 0.031354025 4285427489
-0.026735805 0.015024271 -0.034374263 4285427489
-0.025223784 0.016633373 -0.036121666 4285756183
-0.023722298 0.018241789 -0.037866697 4285952789
-0.022080414 0.019108616 -0.038929567 4285886489
-0.020136476 0.018493485 -0.038632579 4285886744
-0.017874502 0.01639764 -0.036979262 4285755673
-0.015596412 0.014302999 -0.03532926 4285624093
-0.01346387 0.012949873 -0.034360245 4285624349
-0.01181348 0.013817795 -0.035424478 4285624349
-0.010502305 0.016165178 -0.037840404 4285690139
-0.0086981282 0.016292524 -0.038225211 4286018579
-0.0072385184 0.017899003 -0.039960608 4285755164
-0.0050895736 0.016547546 -0.038994625 4285623584
-0.0029299073 0.015196998 -0.038030885 4285755418
0.00050276145 0.0086747669 -0.032354064 4285821209
0.005264461 -0.0030151531 -0.021976165 4285690393
0.013082221 -0.026515774 -0.00085679442 4285886999
0.021070855 -0.050004162 0.020226261 4285886999
0.025601344 -0.05945494 0.028517677 4285690393
0.027683547 -0.059306823 0.028074449 4285427489
-0.02810359 0.010448556 -0.03236106 4285032749
-0.027146563 0.015037935 -0.036828503 4285559069
-0.025785081 0.017394535 -0.039250895 4285624349
-0.024291359 0.019006725 -0.040990971 4285624094
-0.022355869 0.018388752 -0.040693969 4285623839
-0.020414911 0.017771278 -0.040398039 4285624093
-0.01815629 0.015668631 -0.038748965 4285624094
-0.016199134 0.015052505 -0.038456343 4285689884
-0.014075097 0.013694398 -0.037488788 4285624349
-0.012760911 0.016048431 -0.039900508 4285624349
-0.01112907 0.016917303 -0.04095906 4285558558
-0.0093330368 0.017044064 -0.041342132 4285821208
-0.0077090636 0.0179126 -0.042398833 4285820953
-0.0057407692 0.017297909 -0.042108089 4285820954
-0.0034121424 0.015201081 -0.040473267 4285755929
1.3347715e-05 0.0086588264 -0.034809858 4285624349
0.0053149834 -0.0052891523 -0.022442395 4285558814
0.013314717 -0.029600121 -0.00070451852 4285624349
0.021302503 -0.053157926 0.020325648 4285624349
0.025263283 -0.060415603 0.026585756 4285493023
0.02714918 -0.059527554 0.02547398 4285098539
-0.028789066 0.01195069 -0.036177263 4285164583
-0.027556531 0.015060533 -0.039276034 4285559069
-0.026199967 0.017423276 -0.041692421 4285624349
-0.024415478 0.017548352 -0.042073704 4285689629
-0.022329696 0.016182814 -0.041101687 4285689629
-0.020079881 0.01407294 -0.039455779 4285689373
-0.01812581 0.013454311 -0.039164245 4285624093
-0.0163249 0.013580956 -0.039548714 4285624349
-0.014685176 0.014452323 -0.04060746 4285624604
-0.012886763 0.014579009 -0.040991232 4285624349
-0.011421472 0.016194288 -0.042721339 4285558558
-0.0096282363 0.016320836 -0.043103829 4285624094
-0.0081788301 0.017935243 -0.044830434 4285623839
-0.0058669746 0.01583061 -0.043197099 4285624094
-0.0037163384 0.014470745 -0.042238072 4285558558
6.4563006e-05 0.0064220503 -0.035247866 4285558813
0.0055477619 -0.0083102807 -0.02224189 4285558813
0.013917051 -0.034178697 0.00077996496 4285558814
0.021157518 -0.054834604 0.019081453 4285558813
0.024353754 -0.059143953 0.022653019 4285558814
0.026229003 -0.05825448 0.02154517 4285032494
-0.029053785 0.011225738 -0.037948497 4285164583
-0.027965732 0.015092175 -0.041716933 4285624604
-0.026468977 0.016713116 -0.043451115 4285952534
-0.024687305 0.016837973 -0.04383181 4285952533
-0.022604696 0.015467871 -0.042862438 4286083858
-0.020358227 0.013351236 -0.041220814 4285952534
-0.018251397 0.011983074 -0.040256429 4285689883
-0.016767457 0.013603624 -0.041987486 4285624349
-0.014971927 0.013730012 -0.042370714 4285624859
-0.013340063 0.014603082 -0.043426052 4285690139
-0.011713471 0.015475944 -0.044480227 4285624348
-0.010261212 0.017094731 -0.046204157 4285689884
-0.0086478107 0.01796684 -0.0472553 4285689883
-0.0065164194 0.01660116 -0.046295583 4285689629
-0.0038430206 0.012999348 -0.043330088 4285624093
-0.00024408475 0.0056721307 -0.03702639 4285558813
0.0059622638 -0.012085147 -0.021379426 4285558813
0.014147714 -0.037284173 0.00091649313 4285558813
0.02120032 -0.057255864 0.018504532 4285558813
0.024017071 -0.060088694 0.020732915 4285559069
0.025696572 -0.058452688 0.018961331 4284900913
-0.029736765 0.012756806 -0.041743301 4285295653
-0.028374128 0.015132781 -0.044151105 4285624094
-0.026882485 0.016757727 -0.045880936 4285689373
-0.024958707 0.016132232 -0.045586482 4285623328
-0.022879273 0.01475757 -0.044619754 4285886233
-0.020636156 0.012634184 -0.042982392 4285952534
-0.018843621 0.012760121 -0.043365166 4285689884
-0.016892768 0.012137014 -0.043076195 4285624349
-0.01509738 0.012263369 -0.043459415 4285558813
-0.013138346 0.011641059 -0.043172024 4285690139
-0.011838827 0.014013629 -0.045565642 4285689884
-0.010555223 0.01638516 -0.047955722 4286018069
-0.0089444369 0.017259244 -0.049004652 4285952533
-0.0066419952 0.015140973 -0.047379315 4286018068
-0.0039696768 0.011528254 -0.044421878 4285821208
-0.00019318238 0.0034315661 -0.037467208 4285492768
0.0060111731 -0.01437784 -0.021859601 4285492768
0.014562573 -0.041145362 0.001712814 4285624094
0.020867627 -0.058187 0.016593775 4285492768
0.023300303 -0.05953493 0.017486537 4285427488
-0.030278839 0.013552893 -0.044850878 4285361443
-0.028923795 0.015934873 -0.047252133 4285558558
-0.027295195 0.01681127 -0.048304059 4285623328
-0.025524445 0.016935334 -0.048682436 4285557794
-0.023453511 0.015555728 -0.047717221 4285623328
-0.021524511 0.014928628 -0.047425389 4285820699
-0.019123957 0.012047537 -0.045122765 4285689884
-0.017334133 0.012173381 -0.045504883 4285624350
-0.015222792 0.010797001 -0.044547915 4285558813
-0.013754219 0.012425408 -0.046268933 4285690138
-0.012296222 0.014053132 -0.047987565 4285689628
-0.01101755 0.016430825 -0.050371692 4285623328
-0.009240672 0.016556311 -0.050750621 4285557794
-0.0071156323 0.015181459 -0.049796149 4285755164
-0.0042730123 0.010807432 -0.046179548 4286018323
3.6749989e-05 0.00043711811 -0.037245534 4285689884
0.0066059008 -0.018923543 -0.020347925 4285689884
0.014976319 -0.045019276 0.0024996176 4285689884
0.020347951 -0.058364145 0.014022643 4285558303
0.022774756 -0.059716888 0.014913382 4285493024
-0.031098157 0.015872017 -0.049293444 4285624094
-0.029472299 0.016750257 -0.050343223 4285821463
-0.027996168 0.018382754 -0.05206313 4285820953
-0.026089042 0.017751783 -0.051768489 4285755164
-0.02402661 0.016367193 -0.050804734 4285821209
-0.021800891 0.014229629 -0.049173653 4285952789
-0.019714244 0.01284695 -0.048214905 4285624348
-0.017774709 0.012218695 -0.047926858 4285558813
-0.016150787 0.013097569 -0.048975632 4285558813
-0.014695309 0.014729373 -0.050690547 4285755929
-0.013250414 0.016360495 -0.052403077 4285887254
-0.011647597 0.017238226 -0.05344709 4285558048
-0.0097076781 0.016610567 -0.053158686 4285558049
-0.0074146278 0.014478575 -0.051541254 4285558048
-0.0045759454 0.010091268 -0.047933772 4285624094
0.00026597828 -0.0025658011 -0.037030071 4285558813
0.0071991496 -0.023486368 -0.018848965 4285558813
0.015204452 -0.048154369 0.0026142336 4285624094
0.019829065 -0.05853229 0.011458272 4285624348
0.022060119 -0.059138499 0.011685276 4285361699
-0.032988027 0.014304668 -0.049987584 4285032749
-0.031637572 0.016699191 -0.052378014 4285493533
-0.030303001 0.019092698 -0.054764986 4285690139
-0.028839961 0.020728536 -0.056478754 4285755929
-0.027093478 0.020850874 -0.056851968 4285755674
-0.024748214 0.017948292 -0.054550931 4285690138
-0.022381522 0.015047312 -0.052254394 4285624349
-0.020148396 0.012903877 -0.050629787 4285493023
-0.018529847 0.013784427 -0.051675849 4285558814
-0.017076872 0.015420198 -0.053386971 4285558813
-0.015634507 0.0170554 -0.055095784 4285624349
-0.01420271 0.018689934 -0.056802206 4285887509
-0.012613185 0.019568864 -0.057841748 4285887254
-0.010686927 0.018938061 -0.057552099 4285886999
-0.0082342438 0.016044032 -0.055273227 4285821718
-0.0050548166 0.010134157 -0.05034744 4285756184
-4.2561442e-05 -0.0033145174 -0.038807776 4285756184
0.0076092482 -0.027312279 -0.018024454 4285756184
0.015431847 -0.051297806 0.0027225837 4285821718
0.019684985 -0.060198642 0.01022174 4285624604
0.021726012 -0.060053624 0.0097871479 4285361699
-0.032974094 0.012101777 -0.050389692 4285032494
-0.031759381 0.015262153 -0.053445041 4285427744
-0.0302829 0.016903136 -0.055158466 4285426978
-0.028816968 0.018543538 -0.056869596 4285427234
-0.026921146 0.017907429 -0.056575872 4285427233
-0.0247209 0.015754912 -0.054949343 4285493023
-0.022504561 0.013603643 -0.053326167 4285493278
-0.020736568 0.013727807 -0.053703733 4285559069
-0.019125968 0.014609933 -0.054746464 4285559069
-0.017680779 0.016249549 -0.056452647 4285559069
-0.016083345 0.01713099 -0.057492383 4285493278
-0.014656663 0.018769521 -0.059194453 4285558814
-0.013240568 0.020407349 -0.060894154 4285558559
-0.011322632 0.019773804 -0.060604371 4285689883
-0.0088788457 0.016870473 -0.058330245 4285689883
-0.0057090521 0.010942552 -0.053415619 4285493533
-0.00017186627 -0.0048149824 -0.039921332 4285493789
0.007836774 -0.030394822 -0.017869465 4285558813
0.015474368 -0.053693645 0.0021651946 4285558813
0.01916728 -0.060353063 0.0076674763 4285493789
0.021202816 -0.060208403 0.0072340798 4285361698
-0.031465262 0.011541277 -0.052509084 4285492259
-0.030121841 0.013948362 -0.054888025 4285426469
-0.028506361 0.014832463 -0.055930547 4285426979
-0.026602857 0.014194716 -0.055640131 4285360934
-0.024544604 0.012796808 -0.054685444 4285295399
-0.022627562 0.012160238 -0.054397747 4285163563
-0.020550452 0.010763917 -0.053446963 4285097773
-0.01909177 0.01240864 -0.055152774 4285097774
-0.017483704 0.013292864 -0.056193218 4285097774
-0.01461393 0.016579557 -0.059594296 4285164073
-0.013194945 0.018221982 -0.06129133 4285229608
-0.011445299 0.018345505 -0.061664484 4285361698
-0.0091756955 0.016192377 -0.060056962 4285427744
-0.0058342405 0.0094881132 -0.054495052 4285427744
-0.00030113012 -0.0063151643 -0.04103468 4285427744
0.0080635659 -0.033485748 -0.01772077 4285427744
0.015332583 -0.05533538 0.000946871 4285427744
0.018837009 -0.061256431 0.0057773199 4285427743
0.020680403 -0.06035421 0.0046877395 4285229863
-0.030895293 0.0062805749 -0.050250687 4285491494
-0.029255904 0.0071683787 -0.051296763 4285491748
-0.027621739 0.0080559738 -0.052341692 4285557539
-0.025699876 0.0074172802 -0.052056819 4285492003
-0.023921698 0.0075419284 -0.052436739 4285623838
-0.022143409 0.0076666884 -0.052816607 4285492259
-0.02036503 0.0077915601 -0.053196408 4285492259
-0.018743686 0.0086788014 -0.05423817 4285624094
-0.017127573 0.0095657595 -0.055278681 4285558303
-0.015679151 0.011214301 -0.056978822 4285492258
-0.014076218 0.012100544 -0.05801636 4285360679
-0.012478553 0.012986593 -0.059052698 4285360678
-0.010545257 0.012349728 -0.058769494 4285294889
-0.0084334761 0.010952316 -0.057828814 4285295144
-0.0052562878 0.0049902909 -0.052942261 4285295399
0.00046185032 -0.011618666 -0.038860627 4285230118
0.0084707588 -0.03734564 -0.016921408 4285295399
0.015190825 -0.056976832 -0.00027122069 4285295399
0.018134244 -0.060634866 0.0025791619 4285230118
0.019969653 -0.059730984 0.0014929045 4285164073
-0.032256328 0.0016390048 -0.048289597 4285163309
-0.030741945 0.0032955445 -0.050001338 4285425958
-0.029097177 0.0041858666 -0.051046923 4285491748
-0.02717042 0.003545288 -0.050764881 4285557284
-0.025530748 0.0044354908 -0.051809207 4285492259
-0.023747377 0.0045604818 -0.052190259 4285557793
-0.021963902 0.0046855919 -0.052571237 4285558049
-0.019871816 0.0032816529 -0.051630288 4285623584
-0.018239744 0.004171785 -0.052672632 4285689374
-0.016453333 0.0042974316 -0.05305399 4285623583
-0.01499135 0.0059512369 -0.054753728 4285623584
-0.013375036 0.0068405904 -0.055792451 4285557539
-0.011763997 0.0077297427 -0.056830004 4285492004
-0.0096474439 0.0063281693 -0.055893704 4285426469
-0.0076930933 0.0056907795 -0.055616602 4285426468
-0.0046798028 0.00047533959 -0.051402166 4285426979
0.0010447316 -0.016180761 -0.037358321 4285426979
0.0086959228 -0.040455543 -0.016786795 4285426978
0.014681917 -0.057092898 -0.0027984129 4285426979
0.017805144 -0.061524473 0.00069913454 4285426468
0.019826848 -0.061380811 0.00026867352 4284901424
-0.032244645 -0.00059111416 -0.048711941 4285228844
-0.030589283 0.00030202419 -0.049758218 4285426213
-0.028798386 0.00042717904 -0.050141141 4285492004
-0.027007379 0.000552468 -0.050524004 4285557284
-0.025216244 0.00067788735 -0.0509068 4285557283
-0.023425013 0.00080342218 -0.051289529 4285557794
-0.021633685 0.00092906877 -0.051672198 4285492258
-0.019688189 0.00028808415 -0.051395483 4285623584
-0.017894 0.00041416287 -0.051778592 4285558049
-0.016259134 0.0013067387 -0.052819803 4285689119
-0.014467455 0.001432877 -0.053202197 4285557794
-0.012840442 0.0023251921 -0.054241598 4285426468
-0.010883868 0.0016855337 -0.053966746 4285492003
-0.0090919733 0.0018120296 -0.054348916 4285492004
-0.007127285 0.0011732057 -0.054075681 4285491749
-0.0042801984 -0.0032914355 -0.050529614 4285492003
0.0012700073 -0.019229837 -0.037177123 4285426469
0.0085588917 -0.042044081 -0.017965682 4285492003
0.014357194 -0.057964653 -0.0046658674 4285426469
0.017290395 -0.061644994 -0.0018299017 4285295144
-0.032233305 -0.0028252974 -0.049137317 4285294888
-0.030575231 -0.0019298345 -0.050182529 4285492003
-0.028922372 -0.0010346249 -0.051226541 4285492003
-0.026845053 -0.0024487302 -0.050289422 4285557538
-0.025048733 -0.0023229644 -0.050673343 4285557538
-0.023252308 -0.0021970794 -0.05105719 4285558048
-0.02145578 -0.0020710602 -0.051440969 4285623839
-0.019505285 -0.0027138814 -0.051166989 4285558049
-0.01770591 -0.0025874376 -0.0515512 4285558049
-0.016065657 -0.0016923025 -0.052591898 4285492513
-0.014268786 -0.0015658066 -0.052975409 4285492258
-0.01263639 -0.00067100674 -0.054014266 4285426468
-0.010674827 -0.001312457 -0.053742193 4285492259
-0.0090476274 -0.00041778386 -0.054779768 4285492003
-0.0074256994 0.00047663599 -0.055816106 4285491749
-0.0045825429 -0.0040012524 -0.052279137 4285492259
0.00060513616 -0.018451028 -0.040265173 4285492259
0.0080607943 -0.042098224 -0.020448379 4285492259
0.01384965 -0.058064826 -0.0071813404 4285492259
0.016962301 -0.062523164 -0.0037013534 4285294123
-0.030148372 -0.0064825118 -0.04863131 4285426978
-0.028484814 -0.0055844188 -0.049675979 4285492769
-0.026540369 -0.0062302575 -0.049402699 4285558049
-0.024736196 -0.0061039403 -0.049788289 4285558048
-0.022931919 -0.0059775114 -0.050173827 4285558048
-0.021429621 -0.0043083206 -0.051872648 4285558049
-0.019476779 -0.0049531981 -0.051600784 4285557793
-0.017674878 -0.0048265904 -0.051985554 4285492258
-0.015872896 -0.0046998337 -0.052370228 4285492259
-0.014070824 -0.0045729876 -0.052754842 4285426468
-0.012597434 -0.0029052421 -0.054447055 4285492259
-0.010633532 -0.0035486966 -0.054177143 4285492259
-0.009003628 -0.0026516691 -0.05521363 4285492004
-0.00720663 -0.0025247112 -0.055596814 4285557539
-0.0045344383 -0.0062456727 -0.052722156 4285492258
0.0002968125 -0.019197762 -0.042041354 4285492258
0.0073831081 -0.04137411 -0.023574851 4285492258
0.013159871 -0.057387002 -0.010339917 4285557284
0.016077532 -0.061090074 -0.0075171939 4285425449
-0.029172845 -0.014149942 -0.044461198 4285229098
-0.027347721 -0.014022402 -0.04485146 4285229863
-0.025522478 -0.013894752 -0.045241654 4285229609
-0.023988187 -0.012219228 -0.046944194 4285426723
-0.02231624 -0.011318043 -0.047988728 4285492513
-0.020800389 -0.0096435919 -0.049687155 4285426978
-0.018834531 -0.010289699 -0.049419709 4285558304
-0.017175652 -0.009389028 -0.050461233 4285492514
-0.015204299 -0.010034524 -0.0501948 4285426724
-0.013712082 -0.0083612576 -0.05188781 4285360933
-0.012066279 -0.0074612051 -0.052926227 4285360933
-0.010592569 -0.005789049 -0.054615058 4285492004
-0.008790452 -0.0056618303 -0.054999419 4285492004
-0.0069882683 -0.0055344999 -0.055383697 4285360679
-0.0044866763 -0.0084941462 -0.053168193 4285491748
-0.0001886189 -0.019168206 -0.044463463 4285491748
0.012288403 -0.055924572 -0.014136852 4285491238
0.015750822 -0.06195239 -0.0093768891 4285359659
-0.013744228 -0.019266121 -0.044776656 4284967213
-0.012225125 -0.017586641 -0.046472088 4284901678
-0.010880608 -0.015133135 -0.048815727 4284967723
-0.0092186928 -0.014229648 -0.049855836 4285033258
-0.0072234124 -0.014875107 -0.049595848 4285360169
-0.0053947195 -0.014745899 -0.049985774 4285294889
-0.0030420162 -0.016938418 -0.048430681 4285294378
0.0007453002 -0.025319964 -0.041696873 4285425704
0.011601109 -0.05521781 -0.017274044 4285425194
0.011462372 -0.056824461 -0.018466325 4285097519
