# .PCD v0.7 - Point Cloud Data file format
VERSION 0.7
FIELDS x y z rgba
SIZE 4 4 4 4
TYPE F F F U
COUNT 1 1 1 1
WIDTH 970
HEIGHT 1
VIEWPOINT 0 0 0 1 0 0 0
POINTS 970
DATA ascii
0.020381236 -0.068267845 -0.0010768017 4286986303
0.020224383 -0.069927968 -0.0022613704 4286593858
0.012466505 -0.066025294 -0.007265809 4286724418
0.015054472 -0.06813211 -0.0057692109 4286594368
0.012311876 -0.067667089 -0.0084374622 4286136388
0.014693916 -0.069024093 -0.0076036146 4286789954
0.017086595 -0.070380099 -0.0067722648 4286658628
0.0093871467 -0.066428028 -0.011757768 4286071108
0.0020110309 -0.0631909 -0.016090306 4286919748
0.0047296993 -0.066084631 -0.013935617 4286593859
0.0070760138 -0.067453615 -0.01309983 4286528578
-0.00045973808 -0.063431732 -0.018083155 4287837239
0.0018594116 -0.064807482 -0.017244156 4287052604
0.0045770891 -0.067710049 -0.015095714 4286267459
0.0090800188 -0.06969244 -0.014087465 4286985283
-0.0023613088 -0.065962575 -0.018103123 4287248699
-0.00061075389 -0.065043591 -0.019233678 4288362029
0.0017078221 -0.066423751 -0.018397782 4287446069
0.0042307898 -0.068569086 -0.016909979 4286790973
-0.0026979223 -0.066807427 -0.019909799 4287118393
-0.00076174736 -0.066655181 -0.02038401 4288624169
0.001174517 -0.066502787 -0.020858128 4287248698
0.0034978837 -0.067886822 -0.020026553 4287445049
0.064427018 0.009364251 0.047028791 4284318749
0.071856476 -0.0033459924 0.060976688 4284185894
0.060134839 0.012693327 0.040547479 4284379183
0.063998245 0.0083302557 0.045109686 4284054313
0.071420729 -0.0044246055 0.059026573 4284054314
0.065714344 0.0021153986 0.048948649 4284182578
0.073692508 -0.01197838 0.064266786 4283987504
0.06769532 -0.0047807954 0.053483393 4284052528
0.06442824 -0.0040433146 0.04989465 4284313139
0.068602338 -0.0091017857 0.055128213 4283921203
0.002518259 0.026532874 0.020868964 4283854138
0.0044053197 0.026682006 0.020407345 4284052784
0.0064961724 0.026171304 0.020675905 4284381989
0.062756822 -0.0072177835 0.050608892 4284115513
0.06558948 -0.009019997 0.05225743 4283920949
0.069507651 -0.013440289 0.056760561 4283855669
-0.0001039207 0.026793355 0.018012322 4283854903
0.00098222494 0.029591991 0.014633199 4283729699
0.0030514598 0.029077275 0.014905339 4283665438
0.0051260889 0.028563075 0.015176224 4283797019
0.0076184273 0.026725473 0.016901709 4284379948
0.060296305 -0.0084286034 0.04917473 4284115513
0.063117705 -0.010238372 0.05082107 4283920183
0.065690368 -0.011389494 0.051749911 4283855159
0.069342405 -0.015168041 0.055528339 4283788858
-0.0021305531 0.02507315 0.017350219 4283987248
-0.0010331497 0.027881389 0.013974812 4283989288
4.3109059e-05 0.030688064 0.010604577 4283598884
0.0019007921 0.030834839 0.01015012 4283727913
0.0043684319 0.028988622 0.011876622 4283862043
0.006646134 0.027807852 0.012872985 4283925284
0.0089345165 0.026628049 0.013866751 4284054314
0.011022329 0.026112892 0.014132926 4284382499
0.057328857 -0.0083139874 0.046314616 4283722558
0.060392708 -0.010791652 0.048673358 4283658044
0.063216023 -0.012607872 0.050314326 4283657788
0.066055179 -0.01442273 0.051951509 4283658044
0.069711141 -0.018214114 0.055719148 4283788603
-0.0041568428 0.023353321 0.016688295 4284183854
-0.0030481927 0.026171157 0.013316598 4283861278
-0.0015704371 0.027653022 0.011404756 4283729699
-0.00030095503 0.0298011 0.008768905 4283726638
0.0013535395 0.030614465 0.007589018 4283726638
0.0034089983 0.030094264 0.0078613404 4283925028
0.0056755655 0.028908225 0.0088570956 4283925793
0.007744424 0.028389281 0.0091262087 4284317474
0.010029722 0.027204847 0.010117549 4284316963
0.012325671 0.02602138 0.011106299 4284381224
0.054125201 -0.0075219013 0.042747162 4283853118
0.056910776 -0.0093478449 0.044392291 4283657278
0.059712216 -0.011172481 0.046033658 4283658044
0.063052438 -0.014319628 0.049093474 4283658044
0.065890864 -0.016141132 0.050725941 4283658298
0.069812223 -0.02060733 0.055193964 4283788858
-0.0056317151 0.026470875 0.010477353 4284445738
-0.0037718713 0.02661754 0.010022158 4283924263
-0.0023017451 0.028103152 0.0081154853 4283734034
-0.00084213167 0.029588057 0.0062114038 4283599649
0.00080717728 0.030403154 0.0050344504 4283927834
0.0032627694 0.028542684 0.0067541078 4283994134
0.0053232983 0.028020786 0.0070235562 4284056354
0.0071810186 0.028167762 0.0065692347 4284252703
0.009038806 0.028314827 0.0061149597 4284317729
0.010896653 0.028461965 0.0056607183 4284316454
0.013186827 0.027273705 0.0066476632 4284249133
0.015706468 0.02541879 0.0083520152 4284379184
0.048690125 -0.0062049553 0.038964286 4283722558
0.051195253 -0.0073750392 0.039899528 4283657533
0.053457633 -0.0078794025 0.040120773 4283723323
0.056237176 -0.0097124726 0.041762523 4283658043
0.059291184 -0.012208529 0.044110667 4283658043
0.062888853 -0.016031139 0.047872808 4283789369
0.06625437 -0.019187167 0.050918367 4283920439
0.070979178 -0.025659695 0.057498846 4284050999
-0.002837047 0.027895225 0.0055600014 4284445994
-0.0011850633 0.028712636 0.0043839533 4284186404
0.00066171587 0.028858496 0.0039321221 4283991583
0.0027112439 0.028333416 0.0042025466 4283991584
0.0047661513 0.027808851 0.0044717193 4284056098
0.0066184737 0.027955385 0.0040187072 4284121889
0.0082602352 0.028772403 0.002845468 4284055843
0.00968346 0.030259253 0.0009539444 4283927324
0.011743918 0.029735444 0.0012219977 4283730464
0.014028307 0.028542394 0.0022071395 4283861024
0.016544603 0.026680676 0.0039074589 4284186404
0.018852938 0.025489688 0.0048868712 4284516374
0.045791268 -0.0060376264 0.036122411 4283918653
0.049026005 -0.0092156343 0.039191328 4283723068
0.051535927 -0.01038976 0.0401222 4283658044
0.05355021 -0.010228902 0.0396307 4283723323
0.056075912 -0.011401564 0.040557791 4283854648
0.059387363 -0.014573082 0.043608252 4283854648
0.062725261 -0.01774241 0.046652313 4283920439
0.066089615 -0.020909518 0.049690004 4284050489
-0.0011332259 0.026494589 0.0040037166 4284641324
0.00051629916 0.027314076 0.0028299559 4284055843
0.0029704347 0.025440237 0.0045401324 4284056353
0.0048252381 0.025586879 0.0040864479 4284056863
0.0066801123 0.025733599 0.0036327969 4284056609
0.0076933801 0.028570889 0.00030438788 4283991583
0.0088985376 0.030734172 -0.0023007449 4283859493
0.010519277 0.031551871 -0.0034671025 4283727913
0.013008256 0.029681334 -0.0017651208 4283862809
0.015513204 0.027812099 -6.6937879e-05 4283924774
0.018034101 0.025944231 0.001627421 4284054823
0.020570934 0.024077741 0.0033178944 4284314924
0.042667516 -0.0051853023 0.032575436 4283984443
0.04612216 -0.0090462528 0.036352489 4283592253
0.049113475 -0.011565268 0.038702615 4283658553
0.051625516 -0.012743622 0.039629702 4283789369
0.053895228 -0.013251774 0.039845914 4283854904
0.056425709 -0.014428429 0.040768594 4283854394
0.059483115 -0.016941816 0.043102849 4284378419
0.0020153448 0.026591234 0.00055711903 4284708388
0.004064329 0.026061768 0.00082444958 4284513314
0.0059111379 0.02620784 0.00037276931 4284252194
0.0075478107 0.027028827 -0.00079597905 4283995918
0.0087534897 0.029198749 -0.0033963472 4283859494
0.010589857 0.029344251 -0.0038452856 4283858218
0.012644421 0.028815648 -0.0035790056 4283857963
0.015145987 0.026939536 -0.001884901 4283925538
0.017440014 0.025738595 -0.00090853684 4284056353
0.020423066 0.022517847 0.0022049863 4284187168
0.024576612 0.015932459 0.008875018 4284186404
0.029014654 0.0086782798 0.016244039 4284186149
0.033276998 0.0021017641 0.022887584 4284053803
0.03664542 -0.0017795376 0.026675683 4283986739
0.039806288 -0.0049857385 0.029746156 4283854138
0.042751592 -0.0075173564 0.032100804 4283854649
0.046207529 -0.011391446 0.035867792 4283789624
0.049200542 -0.01391913 0.038210969 4283854903
0.051964704 -0.015773326 0.039841622 4283854903
0.054492082 -0.01695475 0.04076178 4283920439
0.057285309 -0.018806435 0.042385478 4283985974
0.0035094023 0.025872743 -0.0017110547 4284250153
0.0055581592 0.025341079 -0.0014452068 4284055078
0.0069822706 0.026841143 -0.00332727 4283925794
0.008395832 0.028340414 -0.0052066492 4283667223
0.010229442 0.028485693 -0.0056549199 4283927069
0.012716956 0.026601808 -0.0039623966 4283992859
0.015220433 0.024719244 -0.0022736667 4283991073
0.018632933 0.020134017 0.0022604037 4283989798
0.021856677 0.016227659 0.0060737878 4284121124
0.026255142 0.0089460202 0.013434431 4284121379
0.030249547 0.0030198433 0.0193602 4284056099
0.034057841 -0.0022273138 0.024564669 4283791664
0.036962442 -0.0047711991 0.026922636 4283724344
0.040127438 -0.0079880357 0.029983886 4283854394
0.043077111 -0.010528155 0.032330979 4283854393
0.046292469 -0.013740793 0.035380065 4283854904
0.048792869 -0.014928907 0.03630336 4283855159
0.051803447 -0.017463878 0.038635802 4283920694
0.054330293 -0.018649735 0.03955283 4284117044
0.057377886 -0.021181524 0.041876327 4284377654
0.0064176172 0.026662547 -0.005852011 4283660848
0.0080386288 0.027486756 -0.0070136189 4283858729
0.010084566 0.02695296 -0.0067485766 4283924518
0.013006855 0.023705108 -0.0036367401 4284056864
0.015955709 0.020459462 -0.00053132791 4284055843
0.020046407 0.013824902 0.0061211977 4284055589
0.023964491 0.0078726597 0.012050772 4283988779
0.028387072 0.00056872144 0.019387547 4283790644
0.031712964 -0.0033425875 0.023166351 4283658298
0.03460335 -0.005896505 0.025521185 4283592253
0.037514959 -0.0084486455 0.027870901 4283723323
0.040208787 -0.010322005 0.029508661 4283723833
0.043160155 -0.012870789 0.031848803 4283789369
0.046132721 -0.015417784 0.034183849 4283789623
0.048879534 -0.017286673 0.035808932 4283920439
0.051891796 -0.019830264 0.038134392 4284509234
0.005853828 0.026493097 -0.0083703008 4282283083
0.008106336 0.02527524 -0.0073938239 4283529779
0.010584384 0.023377307 -0.0057088602 4283858219
0.01394856 0.018757243 -0.0011859862 4283924263
0.017349899 0.014140263 0.0033278279 4284055843
0.022125505 0.0054436661 0.012087418 4284186659
0.025842626 0.00015378371 0.017287821 4283923754
0.029602209 -0.0051326416 0.022477917 4283791154
0.032250214 -0.0070165396 0.024121754 4283724089
0.034914147 -0.0088991113 0.025761824 4283657788
0.037830107 -0.011459708 0.028103944 4283723324
0.040767271 -0.014018498 0.030440968 4283723578
0.04324279 -0.01521758 0.03136367 4283854648
0.045728907 -0.016415752 0.032283906 4283920439
0.048472308 -0.018291481 0.033904877 4284182323
0.015322849 0.012421325 0.0026667919 4282542673
0.019181155 0.0064245127 0.0085814185 4283593783
0.023532534 -0.00093372539 0.015899561 4283725109
0.027041126 -0.0055574141 0.020375866 4283658809
0.030131008 -0.0088136084 0.023430683 4283592253
0.03255564 -0.010021567 0.024362303 4283657788
0.035224132 -0.011910371 0.025996357 4283788858
0.03861624 -0.015842594 0.029739488 4283854649
0.04108594 -0.01704663 0.030660279 4283854138
0.020569123 3.9283186e-05 0.012393527 4283264069
0.024269365 -0.0052872635 0.017571844 4283592763
0.02733683 -0.0085563324 0.0206239 4283526973
0.030203119 -0.011138752 0.022964876 4283657533
0.032629859 -0.012350895 0.023892678 4283723068
0.035766322 -0.015614204 0.026928093 4283788858
0.039165001 -0.019559093 0.030659821 4283788603
0.041403793 -0.020083368 0.030873518 4283984954
0.024337888 -0.0075969771 0.017118506 4283263559
0.027856577 -0.012250684 0.021569468 4283526974
0.030502342 -0.014154695 0.02319913 4283658044
0.033394199 -0.016743787 0.02552741 4283788603
0.036540106 -0.020017333 0.028552361 4283853884
0.039948016 -0.023974687 0.032272041 4284115003
0.024406029 -0.0099108592 0.016662195 4283263814
0.027925789 -0.014579915 0.021101516 4283657788
0.031255379 -0.018556997 0.024830308 4283788859
0.034386847 -0.021842793 0.027850542 4283788859
0.037312232 -0.024437919 0.030164178 4284313139
0.024917377 -0.013611935 0.01760539 4283525954
0.028443489 -0.018295847 0.022031691 4283788604
0.031779662 -0.022285648 0.025749121 4283788859
0.034688152 -0.024890982 0.028060231 4284377143
0.025649078 -0.018019773 0.019238938 4283656513
0.028735729 -0.021331333 0.022253636 4283983933
0.052498639 -0.036511391 0.034541786 4283984189
0.026379129 -0.022445031 0.020860042 4283786818
0.048576944 -0.03352192 0.028977778 4283787584
0.052831579 -0.039604798 0.034708325 4282937159
0.046149872 -0.034676954 0.027574867 4282674254
0.04890579 -0.036604419 0.029153723 4282347598
0.0531637 -0.042706795 0.034868799 4282216529
0.058971323 -0.052980304 0.044708449 4282085713
0.043489255 -0.035127819 0.025483709 4283262793
0.046231177 -0.037063047 0.027060974 4282543439
0.04947862 -0.040393889 0.0300126 4282412368
0.053989932 -0.047213852 0.036400024 4282347344
0.041313659 -0.036971219 0.024775356 4282412878
0.044046883 -0.038913824 0.026349772 4282085714
0.047037955 -0.041556016 0.028608557 4282085713
0.050539449 -0.045597784 0.032237276 4282281553
0.055309013 -0.053139284 0.039292499 4282412624
0.03890454 -0.038110428 0.023378748 4283132233
0.041626409 -0.040060662 0.024950948 4282216528
0.044364177 -0.04200954 0.026519407 4282020689
0.047843073 -0.046066381 0.030143727 4282020689
0.052086957 -0.052229278 0.035818148 4282216273
0.05711969 -0.06049636 0.043536812 4282281554
0.035808623 -0.037125818 0.019921511 4282936648
0.038511172 -0.039084278 0.021493468 4282282318
0.041702107 -0.042452887 0.024434205 4282152014
0.044919528 -0.045819283 0.027368557 4282151504
0.049612679 -0.053415462 0.034406442 4282281298
0.053875733 -0.059596598 0.0400615 4282346323
0.032735892 -0.036121368 0.016471967 4283917888
0.035880581 -0.039504878 0.019415665 4282675784
0.038818397 -0.042177983 0.021667656 4282152013
0.042721502 -0.047681116 0.026653308 4282152013
0.0469057 -0.053888559 0.032312762 4282283339
0.051378924 -0.060799636 0.038644128 4282281809
0.055173177 -0.065584317 0.042914309 4282411603
0.03257814 -0.03778287 0.015286647 4283723324
0.03572163 -0.041177444 0.018222492 4282544713
0.03865847 -0.043859415 0.020468198 4282020943
0.043267198 -0.051510811 0.027490634 4282086734
0.047934249 -0.059157506 0.034498956 4282217038
0.052177329 -0.065379806 0.040129445 4282346833
0.03264806 -0.040157087 0.014785016 4283331133
0.035793014 -0.043562509 0.01771237 4282413643
0.039197415 -0.047678322 0.021315504 4282085458
0.043811657 -0.055353455 0.028318726 4281888343
0.032717593 -0.042535387 0.014280468 4283265344
0.035633907 -0.045236662 0.016518064 4282282318
0.039036907 -0.049365737 0.020111784 4281953624
0.032559499 -0.044200383 0.01309265 4282804559
0.0021936111 -0.033216409 -0.0067159384 4283524678
0.004702501 -0.03525766 -0.0051466264 4283921459
0.0074270293 -0.038028099 -0.0029022666 4284638774
0.0022377223 -0.035548449 -0.0071784407 4282871368
0.0045516603 -0.036863141 -0.0062924605 4283724853
0.0072752088 -0.039642408 -0.0040543685 4284704308
-0.0021298565 -0.03597977 -0.0087374039 4282870604
0.0001674518 -0.037300371 -0.0078508388 4282347599
0.0024754442 -0.038620047 -0.0069667706 4282348618
0.0047941096 -0.039938711 -0.006085244 4283854903
-0.0047512501 -0.035511442 -0.01144002 4282740554
-0.0019024089 -0.039051816 -0.0085230246 4282282574
0.00039964914 -0.040376477 -0.0076408396 4282085969
0.002712369 -0.041700132 -0.006761224 4282151759
0.0046429299 -0.041547976 -0.007233792 4283919673
-0.0073550865 -0.035028137 -0.014136845 4282611779
-0.0047143139 -0.037840895 -0.011898428 4282218568
-0.0020522699 -0.040651888 -0.00966514 4282283594
0.00024922565 -0.041980959 -0.008786072 4282414154
0.0025613792 -0.043309055 -0.0079095783 4282413388
0.0046880022 -0.043896556 -0.0077088596 4283590214
-0.011831343 -0.034678116 -0.016364653 4283788859
-0.0095811188 -0.036016077 -0.015476698 4282416448
-0.0071374178 -0.038095973 -0.013916301 4281827398
-0.0046777353 -0.040174507 -0.012359739 4281957449
-0.0022020936 -0.042251639 -0.010807035 4282283849
9.8839402e-05 -0.043585159 -0.0099311033 4282414408
0.0022170767 -0.044175632 -0.0097300494 4282413388
-0.011801008 -0.036998697 -0.016814474 4283854904
-0.0091888532 -0.039831504 -0.014582247 4282218569
-0.007285662 -0.039682135 -0.015048589 4281891913
-0.0048267543 -0.041767322 -0.013496728 4281566023
-0.0025397204 -0.043106399 -0.012620759 4282087753
-5.1513314e-05 -0.04518903 -0.0110759 4282086733
0.0022595227 -0.046525978 -0.010205632 4282150484
-0.016591288 -0.035131417 -0.02038445 4283394884
-0.013840325 -0.038723938 -0.017476469 4282675529
-0.011771031 -0.039323397 -0.017267242 4282413899
-0.0095166229 -0.040669836 -0.016386773 4282217548
-0.007251516 -0.042015292 -0.015508899 4282020943
-0.0049757287 -0.043359809 -0.014633493 4281825104
-0.0026892684 -0.044703342 -0.013760661 4281432404
-0.018953487 -0.035342887 -0.022388503 4284639538
-0.016565457 -0.037447378 -0.020829471 4282544459
-0.013987236 -0.040300615 -0.018602123 4282413643
-0.011918291 -0.040902302 -0.018394442 4282283083
-0.0096644349 -0.042253174 -0.017517097 4282152013
-0.0073998943 -0.043603055 -0.016642338 4281890128
-0.0053094663 -0.044202693 -0.016439656 4281889874
-0.021635942 -0.03403838 -0.025733629 4283200573
-0.019098625 -0.036903784 -0.023502981 4282545733
-0.016539998 -0.039767437 -0.021277422 4282348108
-0.013960086 -0.042629302 -0.019056987 4282152269
-0.011712197 -0.043985166 -0.01818154 4282152523
-0.0098122023 -0.043836199 -0.018647201 4282020434
-0.0073662885 -0.045942217 -0.017106934 4281757784
-0.023479082 -0.036490902 -0.02571319 4282941494
-0.021448366 -0.037100427 -0.025499742 4282350658
-0.018906705 -0.03997431 -0.023276621 4282022728
-0.01668606 -0.041336872 -0.022397958 4282086989
-0.014107123 -0.044207588 -0.020183802 4282152268
-0.012036234 -0.044813521 -0.019979868 4281955918
-0.0099599399 -0.04541894 -0.019777114 4281561688
-0.025808573 -0.036674425 -0.027706427 4284709918
-0.023623236 -0.03804455 -0.026822589 4282090813
-0.021427214 -0.039413661 -0.025941323 4282219078
-0.018883869 -0.042296156 -0.023725111 4281957450
-0.016490184 -0.044419944 -0.022182111 4281694289
-0.014254108 -0.045785584 -0.021310408 4281563473
-0.012536053 -0.044880696 -0.022441566 4281562710
-0.027811155 -0.038368255 -0.028356247 4282416704
-0.025952131 -0.038223386 -0.028812524 4281762883
-0.023767345 -0.039597929 -0.027931795 4281240898
-0.021075524 -0.043250173 -0.025050215 4281957193
-0.018693298 -0.045381553 -0.023509376 4281956939
-0.016636573 -0.045993209 -0.023305386 4281824083
-0.014747828 -0.045845404 -0.023768499 4281430108
-0.028266571 -0.047687568 -0.022317538 4283983934
-0.027325287 -0.042966448 -0.026789438 4282414918
-0.025775738 -0.041296422 -0.028583322 4282088773
-0.023586243 -0.042674944 -0.027707055 4281436993
-0.020890273 -0.046337806 -0.024834603 4281957703
-0.01833564 -0.049236931 -0.02263416 4281956429
-0.016441859 -0.049088866 -0.02309861 4281824594
-0.022756286 -0.04881721 -0.02482711 4282283338
-0.020210676 -0.051725879 -0.022631079 4282219078
-0.018146843 -0.052341558 -0.022432165 4282019924
-0.019203402 -0.058668055 -0.01911688 4282804303
0.0029553622 0.025692808 -0.0042400062 4283254888
0.0045842156 0.026517468 -0.0054036584 4282406759
0.002810739 0.024158183 -0.0053351438 4282067609
0.0042327791 0.025666732 -0.0072102062 4280568973
0.0024620965 0.023307923 -0.007142189 4281157259
0.0038817748 0.024820719 -0.0090134591 4279061413
0.0057096556 0.024965324 -0.0094604883 4278669733
0.0085977018 0.021692567 -0.0063567562 4278998428
0.011727013 0.01773867 -0.0025499398 4279982728
0.0021139123 0.022462372 -0.0089458749 4281025679
0.0037377514 0.023293233 -0.010103478 4279060648
0.0061930083 0.021380048 -0.0084228432 4278472874
0.0097233057 0.016039662 -0.0032032607 4278669479
0.013296083 0.010702766 0.0020059533 4278735779
0.016911361 0.0053692833 0.0072048903 4279261589
0.0015625209 0.022310076 -0.011455192 4280303518
0.0035937652 0.021766009 -0.011193315 4279388579
0.0073019899 0.015717328 -0.0052716732 4278864808
0.011058014 0.0096725225 0.00063834712 4278603433
0.014433332 0.0050070174 0.0051241182 4278800803
0.017412003 0.0017195977 0.0081894882 4279588499
0.0020292178 0.018713005 -0.010421249 4279585438
0.0048924573 0.015405063 -0.007336108 4278799273
0.0086172521 0.0093378872 -0.0014332179 4278931108
0.012389846 0.0032745898 0.0044580549 4279062689
0.015568096 -0.00071500987 0.0082234535 4280046224
0.018128116 -0.0026328452 0.0098688658 4281161339
0.0029011555 0.013716947 -0.0079851057 4282467449
0.0061882511 0.0090133995 -0.0035008956 4279782808
0.009929616 0.0029277429 0.0023832507 4278407084
0.013296407 -0.0017693527 0.006848162 4278800803
0.016058866 -0.0043869279 0.0091945436 4279981198
0.018842589 -0.0070027113 0.011535807 4280833663
0.0045831241 0.005918175 -0.0027478607 4281421184
0.0076868385 0.0018959716 0.0010159425 4280111503
0.010614119 -0.0014288276 0.0040691514 4279980944
0.013567977 -0.0047514252 0.0071159396 4279718803
0.01654841 -0.0080718137 0.010156302 4279325594
0.019555403 -0.011389993 0.013190245 4281162103
-0.046360672 0.021775829 -0.013980158 4280950708
0.0058557503 -0.00052534789 0.0010558832 4281944699
0.0083602667 -0.0024677813 0.0026998706 4280308108
0.010880765 -0.0044088475 0.0043400228 4280177549
0.013627991 -0.0070453286 0.0066769924 4280177548
0.016609903 -0.010376602 0.0097088274 4279588244
0.02005052 -0.015098386 0.014132941 4280047243
-0.05125051 0.026351525 -0.020636691 4282798694
-0.04988949 0.028603423 -0.023223253 4280241299
-0.047862314 0.027330099 -0.022219677 4280567698
-0.045824334 0.026057646 -0.021218659 4283050123
0.001931496 -0.0024002194 0.00085449964 4281813883
0.0044192113 -0.0043507963 0.0024975389 4279980179
0.006720297 -0.0056003332 0.0034356918 4279063199
0.0086215548 -0.0054500848 0.0029705931 4279391128
0.010730792 -0.0059989765 0.0032053124 4280308618
0.013687614 -0.0093433522 0.006235037 4280505479
0.017097421 -0.014083073 0.010655181 4280308618
0.020760272 -0.019518368 0.015764117 4280636293
0.024028555 -0.023553409 0.019468483 4282471783
-0.052398235 0.010447346 -0.0064579826 4282797928
-0.053276442 0.025448782 -0.021973999 4281093764
-0.048678979 0.029393695 -0.026849058 4278665653
-0.046515942 0.027408931 -0.025132928 4279715743
-0.044478267 0.026132157 -0.024135102 4279058098
-0.04242982 0.024856254 -0.023139814 4282264213
0.0021775067 -0.0053812563 0.0011308771 4281551744
0.0046697631 -0.0073380321 0.0027678553 4279456409
0.0071780197 -0.0092934743 0.0044010524 4279194524
0.0090871006 -0.0091426373 0.003934022 4278866849
0.011619348 -0.011095978 0.0055614952 4279521943
0.014588252 -0.014450379 0.0085801091 4280308363
0.018009726 -0.019204579 0.012985976 4280767108
0.021252733 -0.023254968 0.016686689 4281683579
-0.055170804 0.023841256 -0.022592584 4280832134
-0.052959464 0.031210639 -0.030611001 4278272444
-0.051093295 0.030635655 -0.030322004 4278666163
-0.047205836 0.028778164 -0.029034395 4278667184
-0.045320526 0.028204922 -0.028749917 4279389344
-0.043285802 0.026923532 -0.027754538 4281154199
-0.00044656545 -0.0049970224 -0.001633347 4281748859
0.0022258349 -0.0076663569 0.00070193596 4280374153
0.0049195327 -0.010333888 0.0030320901 4279784849
0.0074323379 -0.012295581 0.0046592634 4279128988
0.0095514357 -0.012848184 0.0048881657 4278997919
0.012505852 -0.01621484 0.0079020802 4279128733
0.015486844 -0.019579276 0.010909582 4281420164
-0.057309739 0.023659151 -0.024642484 4278472618
-0.0548255 0.029627435 -0.031220125 4278864298
-0.053223409 0.030473633 -0.032359675 4279062178
-0.051493287 0.030607859 -0.03278476 4278800548
-0.049762957 0.03074217 -0.033209845 4278667949
-0.046019599 0.029589035 -0.032637551 4278667948
-0.043995999 0.028302329 -0.03164275 4278603179
-0.041815296 0.026305988 -0.029940648 4278996389
-0.0056845956 -0.0019162856 -0.0067303302 4281290623
-0.0030531064 -0.0045978054 -0.0043917643 4280766854
-0.00059432536 -0.0065706968 -0.0027565137 4280636039
0.0022737905 -0.0099555925 0.00027003326 4280374408
0.0049691834 -0.012631789 0.0025932491 4280308874
0.0076858588 -0.015306212 0.0049113259 4280243339
0.010219179 -0.017272778 0.0065286588 4279653524
0.013597585 -0.022061385 0.010922045 4280111758
0.016593307 -0.025435664 0.013917778 4281617279
-0.058958076 0.020627573 -0.023829181 4280177294
-0.058178425 0.026481217 -0.029974943 4278668968
-0.056816004 0.02875918 -0.032542579 4278602159
-0.046435311 0.029564539 -0.035093091 4278406318
-0.044847973 0.030412162 -0.036227107 4278603179
-0.042973496 0.029833784 -0.035943151 4278472109
-0.041093528 0.02925593 -0.035660468 4279192994
-0.038602382 0.02582882 -0.032550924 4280306324
-0.036546819 0.024540538 -0.031566985 4281020578
-0.0078822486 -0.0029111058 -0.0080839749 4282731374
-0.0056420825 -0.00418365 -0.0071443422 4280635783
-0.0032000616 -0.0061645173 -0.0055100089 4280439434
-0.00074203312 -0.0081440657 -0.0038794708 4280373898
0.0023213848 -0.012248933 -0.00016479753 4280504968
0.0052175857 -0.015642561 0.0028468277 4280701318
0.0081403591 -0.019033916 0.0058520082 4280897924
0.011089716 -0.022423059 0.0088507645 4281160064
0.014065646 -0.025809981 0.011843108 4282534004
-0.058854066 0.017723054 -0.023452949 4279521179
-0.057823367 0.02216094 -0.028162193 4278669479
-0.056824178 0.026596427 -0.03286358 4278799783
-0.048575349 0.029415177 -0.03711842 4278799273
-0.04670947 0.028833693 -0.036834091 4278668203
-0.044981427 0.028968008 -0.037258483 4278536879
-0.043545045 0.030532587 -0.039096385 4278798764
-0.04167334 0.029951857 -0.038813334 4278469303
-0.039644934 0.028656965 -0.037826069 4278796724
-0.037298024 0.025934124 -0.035431787 4279256489
-0.035399333 0.025355769 -0.035155155 4279255723
-0.033495195 0.024777927 -0.034879804 4278462163
-0.012655325 -0.0011972673 -0.01177305 4281944698
-0.010256767 -0.0031885132 -0.010133158 4280176274
-0.0076565407 -0.0058903545 -0.0078001171 4279193759
-0.0054116286 -0.0071668886 -0.0068649612 4279718294
-0.0033469796 -0.0077309459 -0.0066280542 4280242573
-0.00050247461 -0.01113984 -0.0036120806 4280308363
0.0025648624 -0.015257604 9.1833994e-05 4280570504
0.0058630072 -0.020083629 0.0044817943 4280963203
0.0087952018 -0.023485243 0.0074764956 4281618043
-0.058273703 0.011932679 -0.020236203 4279586204
-0.05746986 0.01782323 -0.026361909 4278538153
-0.056334414 0.021553859 -0.030346055 4279193248
-0.055097975 0.024563819 -0.033613984 4279193503
-0.053752623 0.026853705 -0.036167599 4279062179
-0.052290455 0.028424218 -0.038008913 4278799784
-0.050703518 0.029275879 -0.039139815 4278733994
-0.048846103 0.028691463 -0.038855165 4278799529
-0.04698319 0.028107563 -0.038571805 4278471344
-0.04540097 0.028959107 -0.039701357 4278602668
-0.042251855 0.030661285 -0.041956492 4278402748
-0.036316082 0.027480664 -0.039708689 4279519393
-0.03442549 0.026899543 -0.039431654 4280044183
-0.032206222 0.024886856 -0.037753306 4281416593
-0.015181392 -0.00074192882 -0.014514141 4283254378
-0.012439303 -0.0041703507 -0.011481682 4281552254
-0.010036197 -0.0061678104 -0.0098478515 4279718294
-0.007617075 -0.0081639513 -0.0082178302 4279193758
-0.0053700581 -0.0094447285 -0.0072864639 4279259548
-0.0029215887 -0.011438347 -0.0056634694 4280242828
-7.0314854e-05 -0.01485765 -0.002657352 4280570504
0.003199663 -0.019701444 0.0017280392 4280963459
0.0065068118 -0.024542153 0.006104365 4281552509
-0.057338476 0.003951408 -0.014907938 4282470253
-0.056509323 0.0098614395 -0.021026857 4279521434
-0.055597879 0.01504714 -0.026426544 4278538153
-0.054469235 0.018788245 -0.030400846 4278669223
-0.053496465 0.023248166 -0.035076164 4278669224
-0.052158348 0.025544131 -0.03762307 4278800039
-0.050970845 0.028559297 -0.040872298 4278800039
-0.049116381 0.02797243 -0.04058858 4278602923
-0.047256432 0.027386069 -0.040306147 4278405809
-0.045533881 0.0275199 -0.040729225 4278471344
-0.042384565 0.029226422 -0.042981192 4279454369
-0.040666781 0.029360153 -0.04340291 4279124653
-0.036762387 0.02747198 -0.042143285 4278668204
-0.034718655 0.026169715 -0.041166142 4278602923
-0.032825582 0.025586657 -0.040891297 4278865319
-0.029942729 0.020695865 -0.036423385 4278864808
-0.026522569 0.013654593 -0.029869363 4278863789
-0.022879943 0.005899962 -0.022630546 4280892569
-0.020038918 0.0017370805 -0.018891484 4281616513
-0.017515264 -0.00098878145 -0.01655305 4280962693
-0.015147574 -0.0029958747 -0.014915556 4280766344
-0.012403995 -0.0064351708 -0.011891617 4280701319
-0.0096337982 -0.0098722875 -0.0088741286 4280636039
-0.0072074793 -0.01187446 -0.00725077 4280308619
-0.0047651678 -0.013875216 -0.0056312829 4280374409
-0.002306845 -0.015874662 -0.0040156022 4280701829
0.00055385381 -0.019304223 -0.0010199538 4282142324
0.048484176 -0.063023791 0.035307758 4281557864
0.052492283 -0.06855347 0.040241946 4281883753
-0.057652034 -0.0078301579 -0.0056128642 4282008959
-0.057120055 0.00027308613 -0.013859004 4281030014
-0.056159943 0.0054778494 -0.019259382 4279455899
-0.054739974 0.0077864826 -0.021821782 4279194014
-0.053716071 0.01226335 -0.026499959 4279194014
-0.052594237 0.016014952 -0.030464403 4278800803
-0.05163072 0.020487327 -0.035127595 4278866084
-0.050564013 0.024234829 -0.039078362 4278931108
-0.049111433 0.025813479 -0.040910739 4278799783
-0.04766921 0.027391367 -0.042740453 4278733738
-0.044670694 0.029823333 -0.04569006 4278667949
-0.042961121 0.029956322 -0.046109837 4278996644
-0.041100793 0.029368114 -0.045828886 4278865574
-0.039081722 0.028059319 -0.044849105 4278602669
-0.035169899 0.026165282 -0.043596085 4278602923
-0.032960035 0.024138633 -0.041925244 4278472108
-0.029914901 0.018512074 -0.036770914 4278668713
-0.026327774 0.010728844 -0.029536499 4279062689
-0.022682235 0.0029502288 -0.022316292 4278866084
-0.019665472 -0.0019451417 -0.017892465 4280242573
-0.017309263 -0.0039598495 -0.016257145 4280439179
-0.014759943 -0.0066923946 -0.013931451 4280373643
-0.012009583 -0.010142162 -0.010917339 4280570503
-0.0090502053 -0.014308527 -0.0072167572 4280504969
-0.0066140443 -0.016316526 -0.0056007085 4280570248
-0.0039742067 -0.019041486 -0.0032969145 4280766853
-0.0013130531 -0.021764711 -0.00099821668 4281160063
0.0013693869 -0.024486139 0.0012953542 4281879673
0.043648683 -0.057065219 0.02709768 4281492074
0.04831874 -0.064759888 0.034069404 4281358964
-0.056784116 -0.0041441172 -0.012112473 4280899199
-0.055690795 0.00035107881 -0.016798092 4279129243
-0.054381065 0.0033928528 -0.020064643 4279129499
-0.052965663 0.0057077259 -0.022620954 4279456408
-0.051695175 0.0087466389 -0.025877727 4279063963
-0.050709404 0.013233908 -0.030536689 4278998429
-0.049755156 0.017718777 -0.035187796 4278604199
-0.048695281 0.021476779 -0.039128706 4278996388
-0.04780148 0.025957137 -0.043764822 4279127204
-0.037652373 0.027481904 -0.04699295 4278930853
-0.035145216 0.024001269 -0.043927908 4278668969
-0.032289475 0.019077528 -0.039476309 4278472363
-0.028905578 0.011989392 -0.032946069 4278734758
-0.025634877 0.0056277439 -0.027124017 4278669223
-0.022485293 -8.02055e-06 -0.022008199 4278998174
-0.019807979 -0.0034748316 -0.018984579 4280177549
-0.017452516 -0.0054961964 -0.017353972 4280373643
-0.014904141 -0.0082376078 -0.015034573 4280374153
-0.012154944 -0.01169847 -0.012028338 4280308363
-0.0090147629 -0.016599119 -0.007645865 4280308108
-0.0060222149 -0.020775937 -0.0039631007 4280504458
-0.00337274 -0.023508981 -0.0016681543 4282207859
0.035244949 -0.046193287 0.01464431 4281491564
0.038876422 -0.051052861 0.018908277 4281096059
0.043485731 -0.058776669 0.025876861 4281029759
0.048391156 -0.067212269 0.033509001 4281160318
-0.056568176 -0.0078506283 -0.011083709 4282602088
-0.055344723 -0.0040695556 -0.015057103 4280504968
-0.053899951 -0.0017459095 -0.017615885 4279784083
-0.052470848 0.00057655573 -0.020170718 4279522198
-0.050928347 0.0021706223 -0.022018919 4279522198
-0.049791269 0.0059453584 -0.025970815 4279587733
-0.048949085 0.011172008 -0.031319104 4278867103
-0.048143737 0.016395949 -0.036658309 4278669733
-0.047514841 0.022343626 -0.042688556 4279062689
-0.046785831 0.027561774 -0.048008837 4278996134
-0.045369141 0.029146612 -0.049825728 4278602923
-0.043815278 0.030004807 -0.05094175 4278930343
-0.041815951 0.02868556 -0.049963735 4278668713
-0.039805874 0.027367288 -0.048988339 4278734504
-0.037163071 0.023148777 -0.045230448 4278996134
-0.034172051 0.017482642 -0.040089082 4279061669
-0.030816942 0.010370202 -0.033568151 4279193503
-0.027735621 0.0047113299 -0.028448783 4279390874
-0.025110051 0.001229275 -0.025420785 4279588244
-0.022457868 -0.0022505857 -0.022399228 4279785104
-0.019779064 -0.0057282671 -0.019384131 4279981453
-0.017247669 -0.0084799156 -0.017067185 4280505224
-0.014871635 -0.010506161 -0.015446441 4280505223
-0.012120944 -0.013977885 -0.012448722 4280439433
-0.0089796968 -0.01889383 -0.0080779139 4280701318
-0.0059858672 -0.023083776 -0.0044052107 4280963459
-0.0031474233 -0.026548281 -0.0014287448 4281945209
0.032628454 -0.046584696 0.012583816 4281949288
0.03508611 -0.047864579 0.013452044 4281095804
0.038483642 -0.052020423 0.017027557 4280833409
0.042852856 -0.059049718 0.023302633 4280832899
0.047512691 -0.066793501 0.030241083 4281094783
0.051509961 -0.072376631 0.035138793 4279783063
-0.055121087 -0.0077774227 -0.01403168 4280832898
-0.053791448 -0.004716631 -0.017290149 4279718294
-0.05223038 -0.0031168759 -0.019139757 4279587223
-0.050808467 -0.00078831986 -0.021687888 4279718548
-0.049402252 0.0015391521 -0.024232145 4279784083
-0.048414044 0.0060529038 -0.028872112 4279587734
-0.04745739 0.010564364 -0.033504292 4279325593
-0.046811104 0.016530871 -0.039525762 4278931618
-0.045922853 0.021037199 -0.044141002 4278669224
-0.04492145 0.024812805 -0.048051111 4279062433
-0.043651633 0.027130211 -0.050561391 4279062179
-0.041647531 0.025806965 -0.049587876 4278669224
-0.039174758 0.022301517 -0.046530895 4278538154
-0.035898894 0.015160736 -0.040006969 4278734249
-0.032727875 0.0087514818 -0.034190021 4278866085
-0.029830217 0.0038002096 -0.029771484 4279194269
-0.027058609 -0.00042114407 -0.02605477 4279456663
-0.024918586 -0.0017332435 -0.025114123 4279784849
-0.022430785 -0.0044972748 -0.02279322 4280177804
-0.01992166 -0.0072595775 -0.020477423 4280243084
-0.017391235 -0.010020085 -0.018166762 4280374408
-0.015192419 -0.011327177 -0.017240219 4280570758
-0.012445547 -0.014810175 -0.014249714 4280832899
-0.009308517 -0.019741811 -0.0098892814 4281750388
0.032697033 -0.048973151 0.012072111 4280767363
0.035386212 -0.050978877 0.013613032 4280504968
0.038323417 -0.053704672 0.015826095 4280570503
0.042220861 -0.059313603 0.020735014 4280767364
0.046872914 -0.067082115 0.027657397 4281291643
-0.053437017 -0.0091602579 -0.015568763 4281423734
-0.051865064 -0.007555306 -0.017417815 4280177803
-0.050560713 -0.0044875517 -0.02066345 4279784083
-0.049146056 -0.0021529123 -0.023204863 4279718293
-0.047880985 0.00091198087 -0.026440712 4279652759
-0.046500295 0.0032442138 -0.028973691 4279522199
-0.045692131 0.0084990487 -0.034290742 4279325339
-0.044778958 0.013020452 -0.038902357 4279063199
-0.043897338 0.017539445 -0.043506108 4278473129
-0.042900167 0.021325771 -0.047406979 4279259548
-0.040880702 0.019999303 -0.046440504 4278866338
-0.037935868 0.014294248 -0.041314028 4278539683
-0.03432817 0.005673755 -0.033425465 4278998175
-0.031287737 -2.3614615e-05 -0.028322341 4279129498
-0.029006705 -0.0020711161 -0.026688565 4279719059
-0.026872665 -0.0033881888 -0.025749795 4279915664
-0.024562217 -0.0054331571 -0.024123129 4280046478
-0.022235744 -0.0074768029 -0.022500271 4280046733
-0.019551307 -0.010976017 -0.019502856 4280374154
-0.017013893 -0.013744779 -0.01720044 4280636294
-0.014807686 -0.015055634 -0.016279018 4281422968
0.030090043 -0.049352087 0.010017993 4281750388
0.03276521 -0.051365666 0.011557421 4281095039
0.03545627 -0.053377859 0.013093052 4280636039
0.038627032 -0.056835942 0.015973493 4280636039
0.042527925 -0.062462099 0.02086851 4280767108
0.046471216 -0.068084814 0.025753304 4281422713
-0.051878661 -0.0098085552 -0.01780434 4282145128
-0.050442547 -0.0074658133 -0.020346243 4280243339
-0.049153194 -0.0043903999 -0.023581648 4279915409
-0.047751047 -0.0020500496 -0.026115105 4279456409
-0.045955487 -0.0019108988 -0.026556384 4279260059
-0.044715762 0.0011609532 -0.029779382 4279391129
-0.043638669 0.004964225 -0.033691909 4278997663
-0.042732134 0.0094982833 -0.038292035 4279129499
-0.041416354 0.011832412 -0.04080392 4279063964
-0.039517917 0.011236034 -0.040540516 4278801059
-0.036700606 0.0062474981 -0.036125347 4279390873
-0.033536322 -0.00020189583 -0.030336147 4279522709
-0.031111881 -0.0029889196 -0.028013017 4279981199
-0.028986476 -0.0043111406 -0.027075525 4280046734
-0.026687495 -0.0063637346 -0.025450969 4280046734
-0.024372496 -0.0084149912 -0.023830278 4280046989
-0.021705247 -0.011926644 -0.020836882 4280243339
-0.01952368 -0.01324404 -0.01991285 4280440199
-0.017157964 -0.015290998 -0.018304346 4280898688
0.027273752 -0.048994221 0.0072925705 4281422204
0.030379709 -0.052468814 0.010180423 4280898434
0.033285782 -0.055214874 0.012387885 4280898434
0.036213044 -0.057959095 0.014590213 4280898179
0.039393201 -0.0614274 0.017460223 4281028993
0.043068528 -0.066344798 0.021668043 4281880949
-0.050325148 -0.010452606 -0.020035215 4281489524
-0.048898913 -0.0081039965 -0.022569772 4280439688
-0.047354832 -0.0064922124 -0.024405299 4279391128
-0.045957297 -0.0041455813 -0.026932701 4279587734
-0.044436619 -0.0025354549 -0.028762288 4279325593
-0.04320924 0.00054428726 -0.031975679 4279260058
-0.041858748 0.0028875619 -0.034491301 4279391128
-0.040523954 0.0052296631 -0.037002958 4279325848
-0.038308546 0.0031634793 -0.035363216 4279522198
-0.035773024 -0.00037008896 -0.03234607 4279653268
-0.032746851 -0.0061037764 -0.027265579 4280112013
-0.030779451 -0.006696701 -0.027020525 4280112013
-0.028806612 -0.0072890371 -0.026776761 4280046478
-0.026665725 -0.0086143538 -0.025846267 4279980944
-0.024348818 -0.01067204 -0.024230925 4280308873
-0.021847986 -0.013461463 -0.02193274 4280636804
-0.019496404 -0.015516192 -0.020325797 4282276199
0.024474949 -0.048621319 0.0045729335 4279916173
0.027116735 -0.050650947 0.0061105695 4279849874
0.030221488 -0.054136597 0.008990569 4280832898
0.033578936 -0.058348499 0.012536636 4280832898
0.036739346 -0.06182947 0.015403233 4280964223
0.040157724 -0.066036262 0.018934608 4281880949
-0.047226794 -0.0094758198 -0.024095053 4281227639
-0.045959443 -0.0063844249 -0.027311925 4279850639
-0.044713035 -0.0032945611 -0.030523578 4279391128
-0.043346368 -0.00094357505 -0.033038389 4278998173
-0.041707598 -6.8046153e-05 -0.03416729 4279587733
-0.040073954 0.000807181 -0.035294861 4279456663
-0.037848696 -0.0012648478 -0.033662446 4279653269
-0.035455577 -0.0040720962 -0.031344824 4279784338
-0.032886639 -0.0076138824 -0.028343981 4280177548
-0.030919574 -0.0082090423 -0.028100489 4280242828
-0.029106833 -0.0080676973 -0.028545352 4280177549
-0.026481874 -0.011604831 -0.025558041 4280112013
-0.02432549 -0.012933224 -0.024634533 4281095038
0.022124419 -0.049696557 0.00320605 4281422713
0.024536772 -0.05100242 0.0040686484 4280505988
0.027401093 -0.053769611 0.0062730964 4279587989
0.030509947 -0.057265885 0.0091439728 4280374408
0.034097262 -0.062221363 0.013350224 4280898433
0.037493031 -0.066443227 0.01687726 4281291899
0.040689327 -0.069932163 0.019727074 4282078063
-0.046097703 -0.0078873821 -0.028385494 4282144364
-0.044712201 -0.0055284947 -0.030900139 4279915664
-0.043342397 -0.0031707212 -0.033410862 4279325594
-0.041844584 -0.0015534572 -0.035228215 4279128988
-0.040210865 -0.00067606196 -0.036354199 4279522198
-0.037986346 -0.0027547367 -0.034726493 4279391128
-0.035442539 -0.0063095726 -0.031727716 4279849874
-0.033026375 -0.0091237053 -0.029422196 4280177549
-0.031059638 -0.0097210854 -0.029180249 4280177293
-0.029087462 -0.010317907 -0.02893961 4280570758
-0.026461028 -0.013865896 -0.025960816 4280964479
0.017176922 -0.048720218 0.00030420907 4282013548
0.019779975 -0.050766461 0.0018412713 4280898434
0.022398939 -0.052811272 0.0033744816 4280571014
0.0245982 -0.05338762 0.0035614464 4280308874
0.027684642 -0.056896769 0.0064295586 4279718294
0.030797614 -0.060403705 0.0092913453 4280963203
0.034162827 -0.064641297 0.012815978 4282142833
-0.043338776 -0.0054020584 -0.033786263 4280440200
-0.041694574 -0.0045217276 -0.034913331 4279784594
-0.039909348 -0.0043831058 -0.035351865 4279391128
-0.038123928 -0.004244335 -0.035790347 4279521944
-0.035732694 -0.0070693046 -0.033485308 4279914898
-0.033320121 -0.0098925084 -0.031185426 4280177549
-0.031042948 -0.011973396 -0.029575258 4280505223
-0.028909117 -0.013312571 -0.028652912 4281488504
0.014021933 -0.046830826 -0.003745296 4281686128
0.01681263 -0.049621902 -0.001536252 4280767874
0.019412238 -0.05167494 -3.2689422e-06 4280570759
0.022242742 -0.054462604 0.0021962356 4280571014
0.025094464 -0.057248451 0.0043906551 4280439944
0.028407913 -0.061503537 0.0079180058 4280505223
0.031753175 -0.06575603 0.011437707 4282273648
-0.041545302 -0.007498581 -0.034604505 4281423733
-0.039900824 -0.0066159964 -0.035729907 4280177549
-0.038112901 -0.0064770915 -0.036169045 4279653269
-0.035871185 -0.0085674971 -0.034555264 4279849873
-0.033305697 -0.012142494 -0.031578027 4280177548
-0.031026624 -0.014229834 -0.02997322 4281685363
0.011712521 -0.047872834 -0.0050999979 4280046734
0.014075328 -0.049196295 -0.0042354222 4280243084
0.016867682 -0.051996 -0.0020332839 4280308619
0.019469177 -0.054055534 -0.00050561316 4280636038
0.022301327 -0.056851767 0.0016869549 4280897923
0.025372101 -0.060384206 0.0045425314 4281552763
0.028689446 -0.064652182 0.0080592036 4283254634
-0.038102239 -0.0087139122 -0.036550738 4281161338
-0.035858601 -0.010810755 -0.03494231 4280637313
0.0092079118 -0.048168071 -0.0071230317 4281553784
0.011763461 -0.050238185 -0.0055892933 4279194523
0.014128339 -0.051565863 -0.0047284868 4279915408
0.016922362 -0.054374211 -0.0025332551 4280439178
0.019737605 -0.057180725 -0.00034311973 4280832644
0.02257408 -0.059985436 0.0018419344 4281421693
0.025648953 -0.0635285 0.0046883766 4283058284
0.0043854155 -0.047117941 -0.010008009 4281489523
0.0069135875 -0.049197026 -0.0084726196 4281095039
0.0092565976 -0.050531082 -0.0076099094 4280636293
0.011814017 -0.052607618 -0.006081501 4279849873
0.014387369 -0.054682784 -0.0045569036 4279653014
0.017394736 -0.058242522 -0.0017023589 4280766854
0.020005245 -0.060314424 -0.00018667988 4281683324
0.0019157082 -0.047387533 -0.012022516 4280834428
0.0040385984 -0.04798191 -0.011825779 4280570758
0.0067615695 -0.050813906 -0.0096265618 4280308363
0.0091040209 -0.052152373 -0.0087669622 4280439434
0.011864189 -0.05498118 -0.0065766517 4280439433
0.014439415 -0.057062753 -0.0050573926 4280308365
0.017657056 -0.061378546 -0.0015460281 4281748604
-0.0009223558 -0.046149231 -0.015369666 4280441474
0.0015723445 -0.048244365 -0.013836043 4279653523
0.0040829889 -0.050338089 -0.012306279 4280242829
0.0066096038 -0.052430458 -0.010780277 4280373643
0.0091521628 -0.054521449 -0.0092580896 4280373643
0.011913985 -0.057358824 -0.0070747305 4280570248
0.014697045 -0.060194455 -0.0048964312 4281552509
-0.0031754524 -0.047145002 -0.016707128 4280636804
-0.0010719635 -0.047745563 -0.016509091 4280505478
0.0014219619 -0.049847342 -0.014980162 4280177549
0.0039318353 -0.051947676 -0.013455072 4279652759
0.0066554919 -0.054797135 -0.011269027 4280111248
0.0091999248 -0.056894548 -0.0097521748 4280897413
0.012166526 -0.060490645 -0.0069122454 4281813883
-0.0078782588 -0.046023779 -0.019575635 4281164653
-0.0052380413 -0.048889197 -0.017376123 4280834429
-0.0029506162 -0.050245807 -0.016513294 4280570759
-0.00065251067 -0.051601477 -0.015652934 4280439689
0.001848571 -0.053709216 -0.01413068 4280439433
0.0047555566 -0.057321332 -0.011284554 4280439434
0.007096231 -0.05867327 -0.010434339 4280635274
0.0096478164 -0.060776658 -0.0089241657 4281420929
-0.010465406 -0.045488708 -0.022239104 4280309893
-0.0080263093 -0.047608443 -0.020706875 4280309384
-0.0053870603 -0.050482683 -0.018513622 4280505479
-0.0031002089 -0.05184371 -0.017653896 4280309383
-0.00061319768 -0.053959303 -0.01613312 4280505479
0.002273988 -0.057584055 -0.013290374 4280636293
0.0049929619 -0.06045153 -0.011116279 4281356413
-0.013034999 -0.044938736 -0.024896763 4279261079
-0.010791335 -0.046307921 -0.024029993 4279587989
-0.0083556511 -0.048434488 -0.022501802 4279915154
-0.0055360571 -0.052075885 -0.019650908 4279980944
-0.0032497644 -0.053441323 -0.018794285 4280374919
-0.00038500875 -0.057078913 -0.015954273 4280636548
0.0023143813 -0.059956811 -0.013781974 4281225088
0.0052295662 -0.063590176 -0.010954115 4282533238
-0.013181448 -0.046509556 -0.02601821 4278997409
-0.01111681 -0.047122449 -0.025817536 4279914899
-0.0085034184 -0.050016351 -0.023631038 4279784593
-0.0056850091 -0.053668775 -0.020787971 4279391639
-0.0032128766 -0.055798754 -0.019273439 4279784594
-0.00053571537 -0.058687285 -0.017102292 4280963459
-0.016247921 -0.052193098 -0.022897871 4280116093
-0.014867827 -0.049754456 -0.025351688 4279390619
-0.012976624 -0.049606338 -0.025815323 4278997154
-0.010907046 -0.050221018 -0.025617484 4279719314
-0.0082893372 -0.053123347 -0.023438545 4280243339
-0.0056503676 -0.056023888 -0.021264726 4280439944
-0.0029901564 -0.058922626 -0.019096022 4281160574
-0.015714511 -0.056837328 -0.021379663 4281030014
-0.01449614 -0.05362571 -0.024492444 4279914389
-0.012597155 -0.053477041 -0.024958016 4279456154
-0.010520004 -0.054093309 -0.024763653 4280177549
-0.0075339153 -0.058533669 -0.021274531 4280767108
-0.0048827007 -0.06144198 -0.019110205 4281421693
-0.0025822446 -0.062819481 -0.018266825 4282138243
-0.01395309 -0.058277689 -0.022982897 4282732648
-0.012218896 -0.057360582 -0.024109947 4280504713
-0.0097784437 -0.059513159 -0.022602508 4280701318
-0.0071415231 -0.062431492 -0.020441275 4283190374
-0.0092165619 -0.064185224 -0.021113582 4282797674
-0.0017773584 -0.069162227 -0.025781948 4282730354
0.00072126091 -0.071335845 -0.024307754 4283124584
-0.0021150112 -0.069988556 -0.027574562 4281942149
-0.0022650361 -0.071589939 -0.028717604 4282467958
0.00032385811 -0.070570327 -0.035154663 4282798694
0.060825229 0.013067577 0.043179374 4285035553
0.0099179372 0.025550961 0.017896026 4286213653
-0.0076784119 0.026994344 0.010204874 4284966448
-0.0031769723 0.027022509 0.0037336461 4287587848
0.028703853 0.011626627 0.015963122 4285363739
0.00037092343 0.025769887 0.0017279498 4285294889
0.060094405 -0.020656809 0.044005413 4284901169
0.054258771 -0.022716999 0.037837509 4285097519
0.057307106 -0.025266349 0.040147826 4285097773
0.025193373 -0.038000122 0.01095639 4285228589
0.023059985 -0.03980647 0.010262728 4285163054
0.025475742 -0.041085728 0.011144042 4285163309
0.027680188 -0.04164619 0.011341233 4285031984
0.022903973 -0.041455619 0.0090860501 4285032238
0.025100093 -0.042019047 0.0092835538 4285163564
0.02516262 -0.044392563 0.0087846722 4285097520
0.017163705 -0.039988808 0.0029434487 4285031984
0.017430551 -0.043076627 0.0031342488 4284966449
0.019820128 -0.044375785 0.0040087383 4284900914
-0.05347044 -0.0136801 -0.016349815 4284966448
-0.053733155 -0.014468662 -0.018137131 4285360424
-0.052032299 -0.013588995 -0.019281792 4285294633
-0.016926996 -0.020587198 -0.018460084 4284901169
-0.053627782 -0.017475508 -0.017837333 4285163818
-0.052046724 -0.015852474 -0.019675648 4285425959
-0.05047603 -0.01423011 -0.0215114 4285228589
-0.019442946 -0.020072915 -0.021160498 4285163053
-0.016898744 -0.022876285 -0.018885817 4285294633
-0.014508717 -0.024940953 -0.017297916 4285228843
0.0071234256 -0.04125642 -0.0052062543 4284901424
-0.053523161 -0.020490959 -0.017543619 4285294124
-0.052061498 -0.018120088 -0.020072479 4285359914
-0.050487883 -0.016493201 -0.021905676 4285294633
-0.048794366 -0.01560954 -0.023045225 4285360423
-0.047238834 -0.013983831 -0.024873819 4285294634
-0.0459648 -0.010874443 -0.028079361 4285228844
-0.016870879 -0.025169455 -0.019314542 4285163053
-0.014829427 -0.025762402 -0.019092042 4285360424
-0.012248896 -0.028571472 -0.016832614 4285163309
-0.051951863 -0.021137051 -0.019781485 4285294634
-0.050372653 -0.019505359 -0.021612816 4285294889
-0.048673771 -0.018619157 -0.022752032 4285426469
-0.047112681 -0.016988628 -0.024578806 4285360934
-0.045832664 -0.013870098 -0.0277793 4285360424
-0.021750093 -0.022565566 -0.023592543 4285097519
-0.01203974 -0.03162051 -0.016595611 4285228844
-0.051718391 -0.02491001 -0.018807357 4285228589
