# .PCD v0.7 - Point Cloud Data file format
VERSION 0.7
FIELDS x y z rgba
SIZE 4 4 4 4
TYPE F F F U
COUNT 1 1 1 1
WIDTH 964
HEIGHT 1
VIEWPOINT 0 0 0 1 0 0 0
POINTS 964
DATA ascii
-0.0032811165 -0.035572164 -0.0073865918 4288164914
-0.0013039298 -0.03544984 -0.0077514914 4288164914
0.00082620978 -0.036098488 -0.0074628 4287903284
0.002806183 -0.035975754 -0.0078280196 4288034609
0.0054192692 -0.038935825 -0.005582937 4288688938
0.0078928992 -0.041123874 -0.0039937617 4288230959
0.010873549 -0.045621932 -0.00045277691 4287183928
-0.023048002 -0.039157033 -0.0042793686 4287052094
-0.021069113 -0.039035909 -0.0046455795 4288098868
-0.019341949 -0.037364908 -0.0063254316 4288295983
-0.017239638 -0.038018577 -0.0060341512 4288362029
-0.015131842 -0.038671754 -0.0057437648 4288558123
-0.013018597 -0.03932447 -0.0054542953 4288820009
-0.010899909 -0.039976723 -0.0051657381 4289081639
-0.0089150891 -0.039854489 -0.0055324631 4288688684
-0.0070722066 -0.038958237 -0.0065529947 4288623148
-0.0052346215 -0.03806217 -0.007572439 4288426798
-0.0032549649 -0.037939847 -0.0079379054 4288034098
-0.0012752526 -0.037817404 -0.008303293 4288099634
0.0010099821 -0.039241277 -0.0073647988 4288295983
0.003150586 -0.039891325 -0.0070795463 4288426798
0.0054546781 -0.04131373 -0.0061443048 4288491823
0.0079303309 -0.04350812 -0.0045604976 4287772215
0.010749042 -0.047246464 -0.0016797087 4286529343
-0.023288164 -0.039975546 -0.0061414549 4287313724
-0.021435175 -0.039077409 -0.0071628806 4288361009
-0.01946171 -0.038956493 -0.007528 4288295728
-0.017488148 -0.038835466 -0.0078930566 4288099889
-0.015383363 -0.039491005 -0.0076037985 4288296239
-0.013139326 -0.040922597 -0.0066616992 4288295983
-0.011020951 -0.041577034 -0.00637474 4288557869
-0.0090362988 -0.041454799 -0.0067414502 4288361518
-0.0070515648 -0.041332446 -0.0071080709 4288295983
-0.0050667673 -0.041209944 -0.0074745947 4288230449
-0.0030819103 -0.041087337 -0.0078410441 4287968819
-0.00094709173 -0.041740142 -0.0075565809 4288099634
0.0011931285 -0.042392462 -0.0072730752 4287903283
0.0031835027 -0.042269088 -0.0076402249 4288230449
0.0054897927 -0.043695666 -0.0067087123 4287969074
0.007806845 -0.045121513 -0.0057790624 4287641144
-0.023527969 -0.040789448 -0.0080000767 4287182398
-0.021677669 -0.039889276 -0.0090193721 4287706169
-0.019707039 -0.039768554 -0.0093839811 4287903028
-0.017736308 -0.039647691 -0.0097485045 4287903283
-0.015634511 -0.0403056 -0.0094603086 4288099379
-0.013393644 -0.041741721 -0.0085209804 4287968564
-0.011278275 -0.042398505 -0.0082351388 4288033843
-0.0092964657 -0.042276457 -0.00860132 4287968054
-0.0073145777 -0.04215426 -0.008967408 4287771448
-0.005188264 -0.042809986 -0.008683295 4287575864
-0.0032035634 -0.042687364 -0.0090497034 4287903540
-0.0010690801 -0.043342374 -0.0087668644 4287903028
0.0010708123 -0.043996856 -0.0084849531 4287706169
0.0030610301 -0.043873511 -0.0088520804 4287772469
0.0052090511 -0.044527225 -0.0085714618 4287574844
0.0076833852 -0.046734609 -0.006997393 4287443008
-0.021919798 -0.040696584 -0.01087235 4287510074
-0.019952003 -0.040576033 -0.011236423 4287313213
-0.017984111 -0.040455349 -0.011600428 4287705404
-0.015623741 -0.042677648 -0.010011424 4287443773
-0.01351415 -0.043337084 -0.0097262943 4287443773
-0.011671394 -0.042434655 -0.010742013 4287574589
-0.0096951127 -0.042312957 -0.011107177 4287574334
-0.0078602619 -0.041410729 -0.012121224 4287574334
-0.0055981241 -0.04284934 -0.011188761 4287443774
-0.0036189519 -0.042727061 -0.011554145 4287443518
-0.0014901645 -0.043384515 -0.011271951 4287574334
0.00064403936 -0.044041507 -0.010990658 4287835708
0.0024738051 -0.043138981 -0.012003285 4287966523
0.004771065 -0.044574775 -0.011076727 4287966013
0.031069271 0.004465647 0.024578942 4283791154
-0.045469057 0.0017528608 0.033841968 4280584528
-0.031038705 -0.00098892301 0.034794852 4281437758
-0.029821474 0.0041556284 0.029493002 4280068664
-0.0279564 0.0049940869 0.028422629 4280133179
-0.025044475 -0.00062210113 0.033685483 4280132668
0.018157393 -0.0030230433 0.030786304 4282158134
0.018592067 0.0035244226 0.024180485 4281699898
0.019514477 0.0079289302 0.019660179 4280002108
0.021311607 0.0087657273 0.018604249 4280001854
0.023839694 0.0067502335 0.020314161 4279417394
0.026570663 0.0040230379 0.022711882 4281764668
0.02856525 0.0041479394 0.022344934 4282353974
0.029022587 0.0099729374 0.016460478 4283662633
-0.050314713 0.0063981116 0.026992662 4281241664
-0.048879508 0.010843813 0.022385042 4280980543
-0.04711673 0.012403749 0.020611057 4280064838
-0.044994194 0.011079952 0.021664722 4280261189
-0.042479683 0.0068743005 0.025540086 4278501944
-0.040128652 0.0041116849 0.027998706 4281177914
-0.038057823 0.0035114288 0.028338594 4281503294
-0.036394659 0.0057922006 0.025859868 4281045568
-0.034641434 0.0073521435 0.024088038 4280916539
-0.033224795 0.011071004 0.020207971 4281177659
-0.031500753 0.012629315 0.01844174 4281502528
-0.029559184 0.0127481 0.018082388 4281698624
-0.026800331 0.0078316703 0.022636626 4280397103
-0.024123129 0.00363677 0.026482569 4281374519
-0.021901984 0.0023200214 0.027518766 4281766198
-0.020169113 0.0038793609 0.025751272 4283530288
0.013967481 0.0038107708 0.021621015 4282158644
0.015088122 0.0075137839 0.017797489 4281571123
0.01635774 0.010499559 0.014670014 4281633598
0.017605856 0.013484098 0.011546573 4281763393
0.019557383 0.013605997 0.011187315 4281047354
0.022060649 0.011582471 0.012896789 4281307963
0.02458002 0.009560056 0.014603386 4281635894
0.026926184 0.0082536265 0.015618509 4281962294
0.027939189 0.011950634 0.011815352 4284448033
-0.052390624 0.0046937019 0.026157441 4282542164
-0.051276144 0.012047127 0.018731568 4280654398
-0.049605783 0.014334273 0.016256029 4280784704
-0.047861565 0.015897378 0.014488809 4281436738
-0.045850653 0.015291009 0.014837893 4281112123
-0.043453816 0.0117938 0.018003117 4280851513
-0.041225459 0.0097436085 0.019755868 4280721209
-0.039181758 0.0091395155 0.020099087 4281112124
-0.037441928 0.010702804 0.018333029 4281112124
-0.035818476 0.012987729 0.015866671 4280785978
-0.034210984 0.01527179 0.013403343 4280265014
-0.032396998 0.01611127 0.012345642 4281633344
-0.030360464 0.015507206 0.012690559 4281633089
-0.02773555 0.011296004 0.016536048 4281373244
-0.025316771 0.0085295811 0.018975988 4280527409
-0.023120251 0.007206969 0.020013377 4281571124
0.012652021 0.0072318539 0.015575357 4282354993
0.01375455 0.01094456 0.011763532 4281049904
0.015181582 0.013220005 0.0093354844 4280658223
0.016949244 0.014059149 0.0082882866 4281048119
0.019254696 0.012745529 0.0093073118 4280722484
0.021570895 0.011432648 0.010324497 4279355173
0.023897815 0.010120593 0.011339746 4281505844
0.025857203 0.010243319 0.010979295 4281767474
0.026857479 0.013950355 0.0071868505 4283858983
-0.052834321 0.006011568 0.022138707 4282541654
-0.051644873 0.012660388 0.015435848 4280914499
-0.049808409 0.013502542 0.014374992 4279480378
-0.047977123 0.014344461 0.013315152 4279221044
-0.046150979 0.015186168 0.012256345 4279547443
-0.043950278 0.013127726 0.014009062 4279548209
-0.041830894 0.011795141 0.015056744 4280655163
-0.039700586 0.010463364 0.016102431 4280785978
-0.037971284 0.012030289 0.014341628 4280851003
-0.036252547 0.013596728 0.012582831 4280916028
-0.034652714 0.015886728 0.010125957 4279222828
-0.032735717 0.016003851 0.0097710304 4279418413
-0.030704845 0.015397251 0.010115296 4279809583
-0.028202806 0.011896364 0.013253238 4280136238
-0.025911953 0.0098442361 0.01498997 4280786998
-0.023604859 0.0077932402 0.016723715 4281308983
-0.021903809 0.0093592405 0.014968762 4284577318
0.011849349 0.0085226074 0.011619076 4282681903
0.013114668 0.011525303 0.0085056815 4281372734
0.014534004 0.01380676 0.0060840696 4281048119
0.016471844 0.01392772 0.005727265 4280657714
0.01877147 0.012609389 0.0067440812 4280071468
0.021081818 0.011291869 0.0077589545 4281375794
0.023402907 0.0099750757 0.0087719783 4281570103
0.025545748 0.0093782842 0.0090978034 4281701939
0.026927339 0.011657998 0.006683616 4283859238
-0.053358022 0.008075051 0.017429832 4281304393
-0.052012566 0.013286907 0.012150208 4280719168
-0.050097387 0.013403047 0.011794943 4280849473
-0.048181999 0.013519298 0.011439716 4280784704
-0.046358492 0.014362969 0.010383043 4280785214
-0.044161078 0.012297802 0.01213132 4280915773
-0.042044822 0.010960661 0.01317621 4280981308
-0.040117916 0.011077985 0.012819132 4280916028
-0.038499277 0.013375428 0.010363568 4280981308
-0.036791075 0.014945462 0.0086100735 4281046589
-0.034877051 0.015062287 0.0082556009 4280915773
-0.033073742 0.015905432 0.0072031394 4280916028
-0.03104851 0.015296243 0.0075467937 4280916028
-0.028901521 0.013961703 0.00858647 4280719933
-0.026505787 0.011176519 0.011017263 4280785469
-0.024210032 0.0091182813 0.012748126 4280981563
-0.022146638 0.0085118786 0.013084989 4284317729
0.011557978 0.0076634064 0.0097374264 4283597354
0.012821145 0.010674626 0.0066311229 4281438779
0.014238162 0.012962416 0.0042149425 4281177148
0.015995141 0.013805225 0.0031730626 4281504060
0.018108191 0.013204098 0.0035024583 4281504060
0.020593438 0.011159994 0.0052002184 4281569593
0.022722574 0.010560095 0.0055268258 4281505079
0.025045842 0.0092392638 0.0065361373 4281505588
0.026039479 0.012967534 0.0027616546 4283336488
-0.053392846 0.0057796091 0.016948616 4281565259
-0.05204371 0.01100681 0.011679923 4280914754
-0.050385643 0.01331256 0.009221619 4280914754
-0.048564982 0.014158078 0.0081670303 4280849984
-0.046749476 0.015003391 0.0071134847 4281045569
-0.044560712 0.012931138 0.0088583771 4280980289
-0.04245295 0.011589162 0.0099014249 4281176894
-0.040434245 0.010976955 0.010244178 4281046333
-0.038615283 0.011822842 0.0091902781 4280915773
-0.036801521 0.012668524 0.008137418 4280980799
-0.034992974 0.013513967 0.0070855934 4281045568
-0.033300329 0.015087582 0.0053384034 4281046079
-0.031391468 0.015204251 0.0049850149 4281046334
-0.029250305 0.013864949 0.0060224459 4281242684
-0.026741941 0.010342889 0.0091425497 4281242429
-0.024449501 0.008277975 0.010868948 4281242683
-0.022264931 0.0069416463 0.011898585 4283598883
0.011097139 0.0075335801 0.0071737915 4284123674
0.012355462 0.010553129 0.0040750541 4281766199
0.013767485 0.012847058 0.0016648564 4281373753
0.015341245 0.014415935 -5.836552e-05 4280137259
0.017265376 0.014536157 -0.00041256053 4280266799
0.019555993 0.013208717 0.00059931166 4280918578
0.022043258 0.011158407 0.0022917204 4281374519
0.024546627 0.0091091767 0.0039813034 4281244213
0.025726909 0.01212462 0.00089752115 4282879784
-0.053508986 0.004212454 0.015764091 4281695308
-0.052326258 0.010919094 0.0091074929 4280719679
-0.050759587 0.013962965 0.0059558991 4280263484
-0.049036 0.015541989 0.0042057056 4278569263
-0.046955902 0.014193755 0.005250413 4278569773
-0.044770423 0.01211483 0.0069908351 4278569773
-0.042568658 0.010036945 0.0087283459 4281176383
-0.040550228 0.0094225183 0.0090694521 4281046589
-0.038731221 0.010270551 0.0080171963 4281046589
-0.036917429 0.01111836 0.006965979 4280720188
-0.035432432 0.01415801 0.0038300985 4280850238
-0.033858191 0.016465966 0.0013929773 4279026733
-0.031960193 0.016581934 0.0010415725 4278832169
-0.029714298 0.01450742 0.0027714372 4279288108
-0.026977737 0.009513922 0.0072712796 4280983349
-0.024809886 0.0081721172 0.0083005726 4281634363
-0.022507165 0.0061013922 0.010020167 4283468579
0.012062812 0.0097138956 0.0022091344 4281831224
0.013472511 0.012014203 -0.00019566156 4281569848
0.015043795 0.013587203 -0.0019150469 4279682083
0.016965102 0.01370725 -0.0022687148 4280267308
0.019252555 0.012375347 -0.0012596436 4279811623
0.021364976 0.011770032 -0.00093325414 4281114929
0.023671184 0.010439508 7.2531402e-05 4281767983
0.025223549 0.012011871 -0.0016429555 4282094894
-0.053625043 0.0026455745 0.014579764 4281825613
-0.052608084 0.010840386 0.0065417811 4281047609
-0.051132489 0.014626715 0.002700178 4280459578
-0.049327839 0.015475512 0.0016518496 4280850494
-0.047253545 0.014122616 0.0026942249 4280524604
-0.04497974 0.011303097 0.0051268153 4278373934
-0.04278126 0.0092185065 0.0068598967 4281046079
-0.040765788 0.0086017027 0.0071998648 4281110848
-0.038847107 0.0087185279 0.006844311 4281046333
-0.037138302 0.010301471 0.0051006582 4280981563
-0.035763163 0.014082499 0.0012782216 4280916283
-0.034193922 0.01639656 -0.0011529424 4280656439
-0.032188352 0.015779648 -0.00081076333 4281437759
-0.029714238 0.012233719 0.0022988478 4278898723
-0.027331587 0.0094217286 0.0047119576 4280982838
-0.025048424 0.0073432103 0.0064300653 4281700919
-0.023244265 0.0081933141 0.00538278 4282877999
0.0096691176 0.0094879344 2.0420179e-05 4282682159
0.011426186 0.01033707 -0.001016669 4281701428
0.013003044 0.011914633 -0.0027338248 4281439543
0.014746694 0.01276309 -0.0037682389 4281634363
0.016484957 0.013611346 -0.0048015621 4281699644
0.018583655 0.013002962 -0.0044744406 4281374008
0.020687703 0.012395002 -0.00414823 4281439544
0.022797097 0.011787497 -0.0038229059 4281442093
0.024911826 0.011180438 -0.0034984816 4281768239
-0.054306027 0.0062355921 0.008517189 4282282828
-0.053222802 0.013716564 0.0011971779 4280983348
-0.051504377 0.015303761 -0.00054550683 4281046078
-0.049618963 0.015418038 -0.00089529296 4281306434
-0.047550466 0.014060386 0.00014483789 4281240898
-0.0452828 0.01123184 0.0025718659 4280849984
-0.043187093 0.009876065 0.0036070514 4280263483
-0.041179974 0.009256579 0.0039468743 4280980544
-0.039473806 0.01084356 0.0022069495 4280981308
-0.03777821 0.012430042 0.00046901871 4280851003
-0.036200713 0.01475095 -0.0019587656 4279875119
-0.034418713 0.015601281 -0.0030006445 4281241918
-0.03230321 0.014247317 -0.0019686664 4281567808
-0.030061234 0.012159556 -0.00024813786 4281372478
-0.027684722 0.0093385205 0.0021594092 4281048119
-0.025528524 0.0079873502 0.003184095 4281701429
-0.023732375 0.0088390633 0.0021399893 4282487083
0.009380158 0.0086603537 -0.0018374287 4283076388
0.01113458 0.0095114335 -0.0028723162 4281896503
0.012359573 0.012554973 -0.0059447698 4280593963
0.014272561 0.012674384 -0.0062969979 4280918578
0.016185543 0.012793913 -0.0066491328 4281503803
0.018281262 0.012183145 -0.0063230824 4281178933
0.02019689 0.012303047 -0.0066755414 4280919853
0.022112492 0.012423076 -0.0070278961 4281440818
0.024600469 0.010353602 -0.0053504668 4281638188
-0.05474304 0.0076397657 0.0045636166 4282218313
-0.053585816 0.014403082 -0.002043243 4280722484
-0.05178931 0.015255544 -0.0030868459 4279743793
-0.049909372 0.015369467 -0.0034356355 4280720444
-0.047846694 0.014007159 -0.0023978348 4280524603
-0.045679111 0.01190757 -0.00066915341 4279546423
-0.043495256 0.009809047 0.001056565 4280263228
-0.041692432 0.010662422 1.2123957e-05 4280849728
-0.039996807 0.012253053 -0.0017225239 4280720189
-0.03820705 0.013105787 -0.0027643517 4280915773
-0.036422502 0.013958298 -0.0038051379 4279808563
-0.034643155 0.014810655 -0.0048449133 4279939378
-0.032643523 0.014188968 -0.0045049749 4280722993
-0.030407529 0.012094378 -0.0027884077 4280070449
-0.028273392 0.010737367 -0.0017630309 4280654143
-0.026128385 0.009381175 -0.00073963217 4281307199
-0.024466444 0.01097057 -0.0024674162 4281635893
0.0092607029 0.0071039721 -0.0030128495 4283861278
0.010671502 0.0094236508 -0.0054028537 4282093363
0.012066167 0.011742473 -0.0077898465 4280983093
0.013621928 0.013327468 -0.0094963498 4280397359
0.015526714 0.013446487 -0.0098469742 4280396848
0.017614057 0.012833081 -0.0095210876 4280396848
0.019706756 0.012220122 -0.0091961101 4281179189
0.021616846 0.012339808 -0.0095474496 4281244723
0.024098823 0.010263436 -0.0078738816 4281506864
-0.055017915 0.0075795576 0.002010664 4282088263
-0.05378164 0.0136212 -0.0038873216 4280720189
-0.051987778 0.014475647 -0.0049287789 4280654908
-0.050110649 0.014589369 -0.005277073 4280524094
-0.048051093 0.013222508 -0.0042420626 4280524094
-0.045980599 0.011856385 -0.0032089464 4280588864
-0.04399569 0.011231057 -0.0028684735 4280784704
-0.042203557 0.01208587 -0.0039092507 4280720189
-0.040416617 0.012940511 -0.0049490221 4280850238
-0.038425799 0.012315802 -0.0046093687 4280131648
-0.036643904 0.013170335 -0.0056480598 4279935808
-0.034977097 0.014763802 -0.0073738149 4280785469
-0.032983135 0.014139645 -0.007034549 4281241919
-0.030868385 0.012776997 -0.0060090218 4281176638
-0.028624814 0.010676473 -0.0042988043 4280980545
-0.026364986 0.0085770041 -0.0025914703 4281111360
-0.02470554 0.010170586 -0.0043155104 4284318238
0.0088033304 0.0070189983 -0.0055425358 4284122144
0.010724101 0.0071386769 -0.0058963676 4282354994
0.011947468 0.010199398 -0.0089551546 4281047354
0.013680458 0.011053681 -0.0099825896 4281372988
0.015587794 0.011172876 -0.010333676 4281503548
0.018042346 0.0090879798 -0.0086603183 4281372989
0.020142799 0.0084733441 -0.0083384346 4281242429
0.022060815 0.0085935295 -0.0086912382 4281242939
0.024169259 0.0079796314 -0.0083706379 4281504824
0.026283035 0.0073661506 -0.0080509558 4284576044
-0.054810692 0.0030693337 0.0036164569 4282022729
-0.053645451 0.0098719224 -0.0029619019 4280784704
-0.051843498 0.010729022 -0.0040032659 4280718659
-0.049958441 0.010843188 -0.0043530613 4281045058
-0.047891278 0.0094724074 -0.0033227708 4281175619
-0.046000469 0.0095871165 -0.0036734755 4280718659
-0.044205796 0.01044412 -0.004713146 4280849474
-0.042416316 0.011300936 -0.0057518296 4280915518
-0.040428642 0.010673754 -0.005413359 4280915008
-0.038435433 0.010047056 -0.0050758757 4280457284
-0.036757868 0.011645414 -0.0068004299 4280065349
-0.034871396 0.011760458 -0.0071498696 4281308219
-0.032872353 0.011134379 -0.0068131946 4281242174
-0.030867796 0.010508791 -0.0064774957 4281372479
-0.028975528 0.010624491 -0.0068277735 4281307198
-0.026601229 0.007777445 -0.0044398196 4281372223
-0.024697948 0.0078940615 -0.0047919601 4281634873
0.0086842626 0.0054675415 -0.0067142402 4284054059
0.010776389 0.0048496723 -0.0063929264 4282289714
0.012525529 0.0057070106 -0.0074217529 4281569338
0.01426929 0.0065641329 -0.0084494948 4281372733
0.016366784 0.0059469268 -0.0081289075 4281372479
0.018287394 0.0060670674 -0.0084823444 4281111614
0.020577837 0.004713878 -0.0074904193 4281242174
0.022503771 0.00483457 -0.0078446651 4281242939
0.024429673 0.0049553737 -0.0081988173 4281241918
0.026548523 0.0043400303 -0.0078816758 4281764159
0.028672691 0.003725186 -0.0075654653 4282221629
0.030802175 0.0031107888 -0.0072501497 4282286654
0.033138022 0.0017610863 -0.0062659951 4282156348
0.034873337 0.0026188567 -0.0072913514 4282222393
0.037222471 0.0012702122 -0.0063094692 4282026044
0.040627759 -0.00375361 -0.001988472 4281894209
0.046188429 -0.016125336 0.0090028923 4281894464
-0.054684762 -0.00071261078 0.0045189271 4282149208
-0.053427402 0.005364798 -0.0013563153 4280979524
-0.051529247 0.0054796189 -0.0017086384 4281046079
-0.049542796 0.0048496872 -0.0013720118 4280719678
-0.047641579 0.0049648806 -0.0017247614 4281372988
-0.045740154 0.0050802156 -0.0020774496 4280981053
-0.044030886 0.0066844001 -0.0038048797 4280719678
-0.042134475 0.0067996159 -0.004156495 4280784193
-0.040237892 0.0069149509 -0.0045080618 4280653889
-0.038236935 0.0062865242 -0.0041737189 4280718403
-0.036444221 0.0071459487 -0.0052110571 4280718148
-0.034547146 0.0072616264 -0.0055624717 4280850493
-0.032537673 0.0066340268 -0.005229468 4280786234
-0.030752566 0.0074933022 -0.0062651583 4280786234
-0.028737415 0.0068662763 -0.00593303 4280917304
-0.026476156 0.0047538951 -0.0042360057 4281374009
-0.024321664 0.0033853427 -0.0032242895 4281766453
0.0089025013 0.0024366155 -0.006537783 4284121634
0.011171032 0.001077123 -0.0055455575 4282158643
0.012754226 0.0026767254 -0.0072472179 4281569338
0.015033502 0.0013181493 -0.0062567862 4281634363
0.01696473 0.0014388338 -0.006612272 4281175109
0.01926009 8.1516802e-05 -0.0056246789 4281110849
0.021011898 0.00094165653 -0.0066519612 4280981308
0.023133192 0.00032412261 -0.0063371556 4281242684
0.024879567 0.001184158 -0.0073632607 4280981563
0.026813339 0.0013055727 -0.0077187689 4281240898
0.028942572 0.00068889558 -0.0074051479 4281567298
0.031077128 7.2620809e-05 -0.00709238 4281828674
0.033216987 -0.00054316968 -0.0067805434 4281632324
0.035158589 -0.00042079389 -0.0071371282 4281501763
0.037512604 -0.0017733946 -0.0061595226 4281632833
0.041548736 -0.0090241954 0.00014878623 4281371203
-0.054559734 -0.0045073032 0.0054118251 4282542164
-0.053210575 0.00084056705 0.00023641903 4281240644
-0.051301833 0.00095600635 -0.00011789519 4281241154
-0.049304921 0.00032450259 0.00021509174 4280980544
-0.04739311 0.00044031441 -0.0001396453 4281046843
-0.045481082 0.00055627525 -0.00049431343 4280981053
-0.043760892 0.002165392 -0.0022204602 4281046079
-0.041853879 0.0022812337 -0.0025740629 4281045058
-0.039946686 0.0023971722 -0.0029276209 4280980034
-0.037935298 0.0017672256 -0.0025968822 4280914753
-0.036025103 0.0018835738 -0.0029508332 4280785214
-0.034005325 0.0012542754 -0.0026214486 4280850239
-0.032092128 0.0013710186 -0.002975787 4280785469
-0.030178789 0.001487866 -0.003330077 4280720698
-0.028382789 0.0023500845 -0.0043661045 4281047353
-0.026231553 0.00097688287 -0.0033572195 4281308473
-0.023946639 -0.0011403933 -0.0016695568 4281961528
-0.021896522 -0.0017671734 -0.0013452908 4283920183
0.011222364 -0.0012243018 -0.0060514929 4281894718
0.01315614 -0.0011036843 -0.0064076195 4281633599
0.01508992 -0.00098296255 -0.0067636715 4281436993
0.01720291 -0.0016035065 -0.0064492607 4281371714
0.019139351 -0.001482375 -0.0068056071 4281241409
0.020891182 -0.00062007457 -0.0078312242 4281241918
0.022824891 -0.00049886853 -0.0081868852 4281307199
0.02494853 -0.0011182949 -0.0078740912 4281241918
0.027077507 -0.001737304 -0.0075621391 4281241918
0.029016465 -0.0016154274 -0.0079184929 4281305923
0.030955371 -0.0014934465 -0.0082747536 4281305668
0.03309492 -0.0021113902 -0.0079645114 4281305158
0.035036378 -0.0019890293 -0.0083210738 4281370694
0.037595991 -0.0040856674 -0.0066812946 4281370693
0.042259268 -0.013576627 0.0016049873 4281304903
-0.054595109 -0.0068153664 0.0049209036 4282216019
-0.053159829 -0.0022017434 0.00044308137 4281630283
-0.051160727 -0.0028353557 0.0007738499 4281438779
-0.049156073 -0.0034685284 0.0011036666 4281045823
-0.047236335 -0.0033522472 0.00074744876 4281046589
-0.045316409 -0.0032358542 0.00039127562 4280915518
-0.04339629 -0.0031193569 3.5139266e-05 4281045569
-0.041476 -0.0030027404 -0.00032094074 4281240899
-0.039656732 -0.0021376386 -0.0013600672 4281240644
-0.037634905 -0.0027691647 -0.0010329667 4281305668
-0.035714094 -0.0026521832 -0.0013888902 4281240898
-0.033793133 -0.0025350973 -0.001744769 4281110594
-0.031983968 -0.0016702041 -0.002781705 4281045823
-0.030065391 -0.0015530437 -0.0031369729 4281241664
-0.027912099 -0.0029305294 -0.002131959 4281110848
-0.025867891 -0.0035600662 -0.0018084492 4281240644
-0.023818199 -0.0041891113 -0.0014859042 4282287929
-0.021888372 -0.0040708333 -0.0018429211 4284050488
0.011615388 -0.0050179362 -0.0052200533 4281894974
0.013383396 -0.0041529462 -0.006247343 4281306179
0.015322395 -0.0040318817 -0.0066043413 4281371968
0.017261397 -0.003910698 -0.0069612428 4281371713
0.019382119 -0.0045327917 -0.0066498383 4281241409
0.021139342 -0.0036680028 -0.0076747811 4281110848
0.023265388 -0.0042895451 -0.0073641813 4281111104
0.025017183 -0.0034248382 -0.0083879316 4281111613
0.027148522 -0.0040457994 -0.0080781141 4281176128
0.029090025 -0.0039237589 -0.0084349336 4281240899
0.031229319 -0.0045440048 -0.0081264125 4281305924
0.033574462 -0.0059059709 -0.0071539856 4281370694
0.035523836 -0.0057831034 -0.0075119934 4281240134
0.037679058 -0.0064020231 -0.0072060688 4281370438
0.042759854 -0.0174044 0.0023850473 4281305159
-0.054551151 -0.0098793358 0.0051124003 4282150739
-0.053191949 -0.0045007244 -4.1570049e-05 4281499978
-0.051275406 -0.0043848827 -0.00039738556 4281175874
-0.04935867 -0.004268907 -0.00075314147 4280980289
-0.047351424 -0.0049040094 -0.00042541837 4280916539
-0.045338627 -0.0055386648 -9.8641496e-05 4281177148
-0.04341596 -0.0054220334 -0.0004552654 4281176639
-0.041591477 -0.0045545921 -0.0014937888 4281306689
-0.039671134 -0.0044378862 -0.0018498185 4281240899
-0.037646916 -0.0050714314 -0.0015248372 4281305668
-0.035723571 -0.0049543381 -0.0018812655 4281240644
-0.03369097 -0.0055871978 -0.0015576254 4281175363
-0.031876419 -0.0047198012 -0.0025939508 4281044803
-0.029838156 -0.0053520873 -0.0022711861 4281110084
-0.027911533 -0.0052343532 -0.0026278789 4281175618
-0.025745135 -0.0066152588 -0.0016285493 4281175363
-0.023812886 -0.0064969584 -0.0019861176 4282484023
-0.021880511 -0.0063785389 -0.0023436113 4284377908
0.011665761 -0.0073317811 -0.0057353694 4281568829
0.013783505 -0.0079565644 -0.0054253545 4281371713
0.015554219 -0.0070891157 -0.0064513665 4281175874
0.017498441 -0.0069676116 -0.0068092397 4281044803
0.019442651 -0.0068459958 -0.0071670166 4281175619
0.021571094 -0.0074696466 -0.0068586078 4280980033
0.023517942 -0.007347621 -0.0072166785 4281175874
0.025275126 -0.0064804256 -0.0082397554 4281240644
0.027219214 -0.0063583329 -0.0085971374 4281305924
0.029358253 -0.0069808364 -0.0082903039 4281567043
0.031502604 -0.0076029003 -0.0079843644 4281632324
0.033652283 -0.0082245544 -0.0076792631 4281436229
0.035604198 -0.0081014857 -0.0080377106 4281370438
0.038173251 -0.010210447 -0.0064096507 4281304649
0.043467853 -0.02198875 0.0038171643 4281304903
-0.053142231 -0.0075576156 0.00015397975 4281565513
-0.051305231 -0.0066877902 -0.00088560907 4281240388
-0.049385931 -0.0065716952 -0.001241866 4281305923
-0.047376309 -0.0072088391 -0.00091627939 4281436738
-0.045453954 -0.0070923567 -0.0012729443 4281436738
-0.043435898 -0.0077288076 -0.00094870478 4281371458
-0.041510496 -0.0076119304 -0.0013057757 4281371459
-0.03948405 -0.0082476214 -0.00098296814 4281174598
-0.037555639 -0.0081303418 -0.0013404265 4281175874
-0.035733309 -0.0072605908 -0.0023766677 4281240644
-0.033807267 -0.0071432367 -0.0027335188 4281174598
-0.03188106 -0.0070257634 -0.003090316 4281043529
-0.02995472 -0.0069081783 -0.0034470572 4281043784
-0.028028239 -0.0067904815 -0.0038037428 4281044294
-0.026101623 -0.0066726506 -0.0041603632 4280979779
-0.024174873 -0.0065546855 -0.0045169033 4283010088
0.009937048 -0.010519519 -0.005227698 4284448543
0.011886492 -0.010398053 -0.0055868085 4281307199
0.013662593 -0.0095282272 -0.0066122469 4281109828
0.015609359 -0.0094066784 -0.0069706719 4281174853
0.017556118 -0.0092850178 -0.0073290076 4281175109
0.019684268 -0.0099109486 -0.007022297 4280979779
0.022001868 -0.011284031 -0.0060519818 4281045058
0.02451694 -0.013403676 -0.0044196267 4281175619
0.026669189 -0.014027797 -0.0041170288 4281175363
0.02863461 -0.01390437 -0.004478341 4281697859
0.030599983 -0.01378081 -0.0048395377 4281500998
0.032960333 -0.015150554 -0.0038766549 4281566024
0.03513116 -0.015772991 -0.003577149 4281827908
0.037510186 -0.017141372 -0.0026174807 4281697859
0.040105436 -0.019255124 -0.00099920388 4281239624
-0.052601371 -0.015158921 0.0044332761 4281434443
-0.050827537 -0.013529845 0.002710171 4281240133
-0.048889611 -0.013412647 0.0023504402 4281371458
-0.046861496 -0.014050834 0.0026709232 4281632834
-0.045013178 -0.013177909 0.0016311016 4281436739
-0.043074686 -0.013060369 0.0012715012 4281502019
-0.04123405 -0.012187697 0.00023327209 4281174853
-0.039398599 -0.011315159 -0.00080394931 4281109318
-0.037671763 -0.0096881911 -0.0025177598 4281043529
-0.035849404 -0.0088162944 -0.0035523493 4280978248
-0.033923503 -0.0086989775 -0.0039091948 4280847178
-0.031885985 -0.0093357489 -0.0035897959 4280912204
-0.029957097 -0.0092180073 -0.0039470121 4280912204
-0.02826171 -0.0075923726 -0.00565462 4280716108
-0.026457403 -0.0067210123 -0.0066854297 4281240388
-0.024536166 -0.0066034123 -0.0070409751 4283138099
-0.022489954 -0.0072390884 -0.0067227478 4284574004
0.007536754 -0.010712557 -0.0073894281 4284704563
0.0094806701 -0.010591552 -0.0077476073 4283726128
0.011595087 -0.011220984 -0.0074404161 4280846669
0.013541708 -0.011099577 -0.0077989083 4280649809
0.015488321 -0.010978036 -0.0081573036 4280714833
0.017434934 -0.01085636 -0.0085155983 4280911693
0.019381527 -0.010734595 -0.0088738147 4280781389
0.022063801 -0.013611637 -0.0065806233 4280846923
0.025140733 -0.017986327 -0.0029666298 4281043019
0.028060567 -0.021609493 -2.0305626e-05 4281108043
0.030815229 -0.024481639 0.0022598514 4281434954
0.033202004 -0.025854222 0.0032144831 4281434954
0.035796795 -0.027974822 0.0048275627 4282609229
0.038007587 -0.028596915 0.0051181167 4282673488
-0.047698241 -0.026346385 0.01135231 4281825868
-0.045720052 -0.02622667 0.01098517 4281957958
-0.04374167 -0.026106849 0.010618065 4281892168
-0.041953478 -0.024472184 0.0088959392 4281892168
-0.040665228 -0.019052029 0.0037905714 4281761098
-0.03931376 -0.014391102 -0.00063120807 4280910928
-0.037891086 -0.010488883 -0.0043709204 4280255579
-0.036071386 -0.0096149594 -0.0054034013 4279655819
-0.034148302 -0.0094978362 -0.0057597402 4279328653
-0.032002475 -0.010893367 -0.0047668684 4279197073
-0.030073736 -0.010775663 -0.0051240753 4279458959
-0.028378155 -0.0091457143 -0.0068283956 4279459469
-0.026693169 -0.007516332 -0.0085306149 4279589773
-0.024774756 -0.0073989257 -0.0088856574 4280179079
-0.022731524 -0.0080369487 -0.0085685514 4280702339
-0.020428065 -0.010185353 -0.0069091897 4281291389
-0.018368509 -0.010822132 -0.0065949168 4281619318
-0.016303495 -0.011458464 -0.0062815677 4281684854
-0.01450387 -0.010584563 -0.0073093195 4281684599
-0.012433305 -0.011220329 -0.0069968235 4281291899
-0.010216482 -0.012610249 -0.0060161073 4281030269
-0.0081323273 -0.013244912 -0.005705921 4281030268
-0.0063350722 -0.012370683 -0.0067328755 4280964734
-0.0046919845 -0.010742538 -0.0084263962 4281095294
-0.0026049502 -0.011376731 -0.0081164334 4280964478
-0.00051249564 -0.012010433 -0.0078074243 4280767874
0.0015853681 -0.01264365 -0.0074993055 4280440455
0.0035290532 -0.012523025 -0.0078577232 4280505224
0.0053104907 -0.011649042 -0.0088811945 4280112523
0.0074165054 -0.012281403 -0.0085743014 4279655054
0.0091926195 -0.011407517 -0.009596603 4279457939
0.01130404 -0.012039281 -0.0092905145 4278933404
0.013247821 -0.011918046 -0.0096484851 4278933659
0.015191603 -0.011796683 -0.010006359 4279195289
0.017313762 -0.012427434 -0.0097019766 4279130263
0.019260211 -0.012305655 -0.010060152 4279392404
0.021941662 -0.015191369 -0.0077734725 4279196563
0.025763206 -0.02258601 -0.0015264964 4279458959
0.030016661 -0.031480327 0.0060311258 4279458959
-0.039229508 -0.017475389 -0.00046485709 4281358454
-0.037903871 -0.012803011 -0.0048717782 4278867613
-0.036081474 -0.01192683 -0.0059030615 4279195034
-0.034047399 -0.012568265 -0.0055864733 4278867359
-0.032118935 -0.01245071 -0.0059437323 4279063964
-0.030076515 -0.013091408 -0.0056285057 4278998429
-0.028494563 -0.010698766 -0.008001959 4278802079
-0.026690219 -0.009823136 -0.0090294648 4278801824
-0.024769273 -0.0097055882 -0.0093849879 4278932894
-0.022599135 -0.011103392 -0.0083995238 4279063454
-0.020545375 -0.011742838 -0.0080859642 4278801824
-0.018486124 -0.012381807 -0.0077733118 4279587478
-0.016554002 -0.012263104 -0.0081305373 4279260314
-0.01462179 -0.012144268 -0.0084876735 4278932894
-0.012689486 -0.012025319 -0.0088447463 4278998429
-0.010616459 -0.012662984 -0.008534288 4279128989
-0.0083946623 -0.014056794 -0.0075577335 4279194524
-0.0063080713 -0.014693372 -0.0072495923 4278932894
-0.0045134276 -0.013817027 -0.0082743075 4279064218
-0.0025727078 -0.013696946 -0.0086324606 4278933148
-0.00047789514 -0.014332645 -0.0083255451 4279063964
0.0014655963 -0.014212169 -0.0086840373 4278997919
0.0034091286 -0.014091544 -0.0090424288 4278801314
0.0051905811 -0.013215415 -0.010064235 4278997664
0.0071314909 -0.013094716 -0.010421952 4278866593
0.0092398934 -0.013728954 -0.010117071 4278604453
0.011183515 -0.01360786 -0.010475116 4278407849
0.013299992 -0.014241353 -0.010171531 4278669988
0.015246304 -0.014119811 -0.010529863 4278800803
0.017370831 -0.014752574 -0.010227585 4278866849
0.019319812 -0.014630653 -0.010586234 4279063964
0.022003127 -0.017524868 -0.0083065545 4279064218
0.026384346 -0.027202718 -9.9211466e-05 4279129753
-0.039346326 -0.019045316 -0.0016513681 4281292409
-0.03791694 -0.015121162 -0.0053756819 4278538918
-0.036091845 -0.014242686 -0.0064058197 4278866594
-0.034055386 -0.014886148 -0.0060913474 4278539938
-0.032124374 -0.014768444 -0.0064490908 4278736543
-0.030193228 -0.014650635 -0.0068067708 4278671263
-0.028610934 -0.012251541 -0.0091753062 4278933149
-0.026568558 -0.012894221 -0.0088615268 4278932894
-0.024520691 -0.013536416 -0.008548731 4278866594
-0.022591714 -0.01341828 -0.0089056548 4278735523
-0.020535577 -0.01405973 -0.0085942019 4278538663
-0.018473968 -0.014700718 -0.0082836729 4278735268
-0.016406886 -0.015341319 -0.007974023 4278800803
-0.014469452 -0.015222184 -0.0083321426 4278604453
-0.012531925 -0.015102915 -0.008690184 4278669988
-0.010594316 -0.014983527 -0.0090481471 4278735523
-0.0085134804 -0.015622742 -0.0087407064 4278538918
-0.00657304 -0.01550293 -0.0090990011 4278538918
-0.0044840202 -0.0161414 -0.0087928902 4278604453
-0.0026919842 -0.015262954 -0.0098153669 4278801058
-0.00059748068 -0.015900835 -0.0095100682 4278538918
0.001189284 -0.015022472 -0.010531383 4278669988
0.0032892339 -0.015659764 -0.0102269 4278538918
0.0049087591 -0.014023907 -0.011908894 4278801059
0.0070114546 -0.014660791 -0.011604736 4278538918
0.0092868544 -0.016054444 -0.010640601 4278276779
0.011403009 -0.016690232 -0.010338718 4278604454
0.013524543 -0.017325617 -0.010037693 4278538663
0.01547607 -0.017203763 -0.010396994 4278473384
0.017249539 -0.016325183 -0.011415122 4278801058
0.019379109 -0.016959682 -0.011115286 4278669733
0.022064272 -0.019862376 -0.0088426722 4278735523
0.026818063 -0.031080388 0.00065781176 4278670243
-0.039363015 -0.021378465 -0.0021660244 4279915919
-0.03782754 -0.018206753 -0.0052114641 4278538918
-0.035997052 -0.017325781 -0.0062409961 4278604198
-0.033955526 -0.017971151 -0.0059290966 4278538918
-0.032240901 -0.016327381 -0.0076271654 4278669988
-0.030196417 -0.016972281 -0.0073156678 4278538918
-0.028494928 -0.01532913 -0.0090110842 4278473638
-0.026328657 -0.016736008 -0.0080318144 4278801313
-0.024273049 -0.017379947 -0.0077220784 4278604453
-0.022336166 -0.017261334 -0.0080804667 4278473384
-0.02039919 -0.017142601 -0.0084387949 4278342314
-0.018462099 -0.01702372 -0.0087970411 4278473384
-0.016260389 -0.018427841 -0.0078238649 4278669733
-0.01431774 -0.018308401 -0.0081829643 4278604453
-0.012374997 -0.018188827 -0.008541978 4278604453
-0.010572482 -0.017308064 -0.0095650991 4278735523
-0.0086322688 -0.017188407 -0.0099234646 4278538918
-0.0065463074 -0.017829351 -0.0096185496 4278538918
-0.0044549145 -0.018469825 -0.0093145361 4278473384
-0.0026601851 -0.017589055 -0.010335843 4278473384
-0.00040959194 -0.01898919 -0.0093709482 4278735523
0.0013825558 -0.018108323 -0.010391585 4278473384
0.0034875534 -0.018747464 -0.010089698 4278735523
0.0052744038 -0.017866686 -0.011109165 4278735524
0.0072203763 -0.017745689 -0.011467831 4278538918
0.0093335062 -0.01838395 -0.011167157 4278538918
0.011621865 -0.019781031 -0.010208598 4278735524
0.013748433 -0.020418204 -0.0099102138 4278735524
0.015529981 -0.019537129 -0.01092822 4278538663
0.017484037 -0.019414999 -0.011287882 4278473383
0.019438079 -0.019292735 -0.011647451 4278473384
0.022491619 -0.023720749 -0.0080692498 4278669988
0.027250778 -0.034970693 0.0014052205 4278866593
-0.039579812 -0.022184297 -0.0040237447 4280374409
-0.038046528 -0.019004084 -0.0070621809 4278538918
-0.036008138 -0.019651912 -0.0067514544 4278669733
-0.033964243 -0.020299271 -0.0064417189 4278342314
-0.032025475 -0.020181134 -0.0068009263 4278604453
-0.030086566 -0.020062886 -0.0071600704 4278735523
-0.028147537 -0.019944504 -0.0075191511 4278604708
-0.026208375 -0.019826002 -0.0078781648 4278538918
-0.024147701 -0.020471744 -0.0075710816 4278473384
-0.022329669 -0.019588605 -0.0085959723 4278866338
-0.020263422 -0.020233765 -0.0082897386 4278604198
-0.018321108 -0.020114578 -0.0086489534 4278800803
-0.016246606 -0.020759016 -0.0083440794 4278735268
-0.014301423 -0.02063942 -0.0087036444 4278538663
-0.012218695 -0.02128309 -0.0084000854 4278669988
-0.010410797 -0.020399839 -0.009422536 4278538918
-0.0084653683 -0.020279884 -0.0097818812 4278604453
-0.0066653825 -0.019396871 -0.010802678 4278538663
-0.0044261105 -0.020802267 -0.0098392172 4278407594
-0.0024778061 -0.020681731 -0.010198782 4278931873
-0.00037588179 -0.021323539 -0.0098981624 4278931618
0.0014189444 -0.02044031 -0.010917674 4278931618
0.0035263225 -0.0210815 -0.010617848 4278997153
0.0051542483 -0.019436479 -0.012294794 4278931618
0.0072643533 -0.020077199 -0.011995322 4278735014
0.0092128702 -0.019955903 -0.012354351 4278800549
0.011500737 -0.02135732 -0.01139903 4278931618
0.013626989 -0.021996692 -0.011102262 4278997408
0.015583578 -0.021874517 -0.011462483 4278800803
0.017540164 -0.021752208 -0.011822603 4278866594
0.019496737 -0.021629803 -0.012182641 4278604453
0.022551801 -0.026070632 -0.0086147077 4278866593
0.027310982 -0.037352957 0.00083480682 4279063199
-0.039397258 -0.026056968 -0.0032044868 4280636549
-0.037957828 -0.022099912 -0.0069057038 4278866849
-0.0360195 -0.021982051 -0.0072650192 4278669733
-0.033865441 -0.023398787 -0.0062905317 4278538664
-0.031810988 -0.024047561 -0.0059843427 4278735779
-0.029751014 -0.024695918 -0.0056790444 4278866594
-0.028033074 -0.023043118 -0.007370892 4278932384
-0.026088689 -0.022924297 -0.007730878 4279260059
-0.024144176 -0.022805355 -0.0080907932 4279194269
-0.02219956 -0.022686295 -0.0084506487 4278801314
-0.020381395 -0.021800883 -0.0094738072 4278998429
-0.018309984 -0.022447772 -0.0091701103 4278800803
-0.016365048 -0.02232834 -0.0095297387 4279128733
-0.014420014 -0.022208765 -0.0098892851 4278669479
-0.012337603 -0.022854611 -0.0095873429 4279193759
-0.010669675 -0.021203823 -0.011269047 4278866084
-0.0087270811 -0.021084026 -0.011627859 4279062944
-0.0067844242 -0.020964116 -0.01198659 4278931109
-0.0043976009 -0.023138784 -0.010366905 4279259038
-0.0022960491 -0.023782827 -0.01006801 4279390109
-0.00018909201 -0.024426423 -0.0097700236 4279062943
0.0019232891 -0.02506955 -0.0094729289 4279062944
0.0040410645 -0.025712214 -0.0091767423 4278931873
0.0058413558 -0.024826311 -0.01019537 4278800549
0.0081286952 -0.026232325 -0.0092434846 4278866084
0.010259973 -0.026873745 -0.0089494735 4278931618
0.012057632 -0.025987625 -0.0099673271 4278997408
0.014366481 -0.027391873 -0.0090191476 4278800549
0.016336333 -0.027268864 -0.0093818158 4279259549
0.018483728 -0.027908809 -0.0090903975 4278931873
0.02063649 -0.028548315 -0.0087998211 4278932383
0.023709178 -0.033000983 -0.0052451268 4279194524
0.027742058 -0.041264288 0.0015663421 4279457173
-0.039116014 -0.030712306 -0.0017280839 4281029759
-0.037665207 -0.026743822 -0.0054231095 4279456663
-0.03561135 -0.027395017 -0.0051186602 4279063199
-0.033551972 -0.028045774 -0.0048151538 4278997153
-0.031376783 -0.029465429 -0.0038478223 4278997664
-0.029416729 -0.029345892 -0.0042109042 4278735524
-0.027572196 -0.028457232 -0.0052376799 4279128223
-0.025732908 -0.027568743 -0.0062633711 4279718294
-0.024019901 -0.025911771 -0.0079507707 4279586969
-0.022070069 -0.02579239 -0.0083115837 4279521944
-0.020372931 -0.024136074 -0.009995888 4279521944
-0.018299155 -0.02478499 -0.0096943034 4279586968
-0.016219914 -0.025433496 -0.009393598 4279586969
-0.014135215 -0.026081495 -0.0090938397 4279520158
-0.011907939 -0.027496748 -0.0081352182 4279454879
-0.010229107 -0.025841005 -0.0098156296 4279520413
-0.0084184371 -0.024953172 -0.010835186 4279849109
-0.0064678788 -0.02483277 -0.011195372 4279586969
-0.0042215288 -0.026246354 -0.010239888 4280045459
-0.0018138327 -0.028426073 -0.0086289495 4280045458
0.00030354038 -0.029071175 -0.0083345585 4280176273
0.0024263263 -0.029715814 -0.0080410466 4279980179
0.0043959208 -0.029593594 -0.0084042698 4279390619
0.0065268278 -0.030237488 -0.0081120692 4279914388
0.0091550313 -0.033179112 -0.0058562383 4279914389
0.011471422 -0.034587495 -0.0049129464 4279653013
0.013798553 -0.035995059 -0.0039715697 4279718804
0.015792403 -0.035870664 -0.0043387418 4279653269
0.017786246 -0.035746194 -0.0047058393 4279718803
0.019957468 -0.03638678 -0.0044204635 4282798183
0.02231412 -0.037792005 -0.0034840745 4282798694
-0.033132296 -0.033481441 -0.0026890263 4282863463
-0.031164479 -0.033361591 -0.0030536503 4283059814
-0.027112905 -0.033892684 -0.0031205751 4283059304
-0.013610367 -0.044844858 -0.023721097 4282928488
0.040152885 0.015604701 0.032364525 4285097518
0.055734918 0.011635229 0.034670979 4285295908
0.056627393 0.015228208 0.030815406 4285558558
0.033429157 0.01569704 0.030142868 4285098284
0.034033485 0.020700742 0.024874484 4285361444
0.035204284 0.023611862 0.021712257 4285559069
0.036965769 0.024431929 0.020651747 4285820954
0.039755657 0.021769624 0.023085935 4285820698
0.043404825 0.016323712 0.028309183 4285886489
0.046248306 0.013664957 0.030733669 4285493023
0.048253834 0.013791304 0.030365298 4285362463
0.049824186 0.015309263 0.028603496 4285428255
0.050943248 0.018217754 0.02545126 4285427743
0.051594876 0.022515766 0.020911559 4285427744
0.052890886 0.024726141 0.018463656 4285689373
0.055768587 0.022070061 0.020882254 4285754909
0.060284417 0.014551114 0.02815702 4285951513
0.031345673 0.021074858 0.021932868 4285164074
0.031527102 0.027490314 0.015283851 4285756184
0.03326989 0.028311294 0.014228391 4285623839
0.035211146 0.028433256 0.013871567 4285492514
0.037978731 0.025760945 0.016303128 4285558048
0.041395631 0.020994715 0.020820644 4285623838
0.044002149 0.019023996 0.022546947 4285624604
0.045766007 0.01984679 0.021487918 4285493279
0.047089681 0.022065133 0.019039826 4285493279
0.048397098 0.024282567 0.01659473 4285690394
0.049465533 0.027196646 0.013458574 4285755419
0.05118861 0.028017193 0.012407361 4285557794
0.054274827 0.024654001 0.015516007 4285492004
0.058310948 0.01850431 0.021390403 4285623838
0.030831 0.020884864 0.019335233 4284967469
0.030810086 0.02802084 0.012005096 4285690904
0.032343812 0.029544614 0.010256385 4285952788
0.034274198 0.029665917 0.0099015795 4285952789
0.037236687 0.026283417 0.013024047 4285886998
0.040435098 0.022202093 0.0168366 4285887509
0.04281842 0.020924669 0.017865509 4285624603
0.044568904 0.021748766 0.016810674 4285559068
0.046096724 0.023272712 0.015063465 4285559069
0.047393788 0.025496028 0.012625316 4285558813
0.048674621 0.027718358 0.010190258 4285887509
0.050389685 0.028540626 0.0091421604 4285886998
0.053466879 0.025166076 0.012244118 4285886998
0.057493303 0.018996317 0.018105261 4285886743
0.030317016 0.020703789 0.016744409 4284901679
0.030094087 0.028564706 0.0087364279 4285427999
0.031619966 0.030092314 0.0069925021 4285624093
0.033542175 0.030213121 0.0066392105 4285689883
0.036289379 0.027522206 0.0090612005 4285689884
0.039266955 0.024129938 0.012172615 4285624349
0.041636392 0.022847325 0.013200738 4285493278
0.043587822 0.022970334 0.012842361 4285559068
0.045322135 0.023795702 0.011792265 4285559069
0.046611544 0.026025008 0.0093606096 4285558814
0.048107091 0.027551495 0.0076227877 4285558558
0.050267018 0.026972055 0.0079580629 4285624093
0.052887723 0.024989836 0.0096721798 4285624348
0.056215763 0.020904478 0.013451485 4285558814
0.061207898 0.011912413 0.022047024 4285624349
0.030369271 0.025593638 0.008946009 4285428254
0.031700023 0.027831461 0.0065112524 4285624349
0.033624809 0.027952448 0.0061575016 4285558559
0.035755612 0.027368397 0.0064959787 4285624094
0.038518071 0.024669878 0.0089085475 4285558559
0.04109047 0.022677597 0.010626113 4285558558
0.043250568 0.022095684 0.010959432 4285559069
0.044982251 0.022923075 0.009911513 4285559068
0.046708439 0.023750201 0.0088646617 4285559068
0.048206903 0.025281221 0.0071296664 4285558814
0.050144326 0.025403745 0.0067741657 4285624094
0.052309223 0.024822552 0.0071070073 4285624094
0.054939903 0.022834629 0.0088143162 4285558558
0.059217356 0.015923783 0.015329359 4285492768
0.030445913 0.023322001 0.0084572192 4285493533
0.031579189 0.026274156 0.0053354325 4285624604
0.033097386 0.027810067 0.0035997126 4285821718
0.03522253 0.02722352 0.003937576 4285952788
0.037770208 0.025223106 0.0056545949 4285952788
0.040756524 0.021809883 0.0087477788 4285821208
0.043127637 0.020518851 0.009769002 4285624348
0.04507605 0.020641819 0.0094112959 4285559069
0.046585619 0.022177756 0.0076776026 4285624859
0.048084311 0.023713149 0.0059459331 4285624604
0.049572147 0.025247909 0.0042163758 4285690138
0.051503949 0.025370196 0.0038619982 4285887253
0.054125961 0.023375235 0.0055659628 4285886998
0.05816073 0.017147787 0.011380484 4285886233
0.030144164 0.015243385 0.013848471 4284903464
0.030126836 0.022466227 0.0065846546 4285427999
0.0310576 0.026136719 0.0027801124 4285624859
0.032570623 0.027676705 0.0010486674 4285689884
0.034895875 0.026378147 0.0020748125 4285558048
0.037440229 0.024371088 0.0037873918 4285820953
0.040422909 0.020946801 0.0068729436 4285887253
0.042790882 0.019651264 0.0078914175 4285624349
0.04473649 0.019774072 0.0075342366 4285493023
0.046243601 0.021314211 0.0058043608 4285558814
0.047296066 0.024270706 0.0027047126 4285690139
0.048776057 0.02580937 0.00097991992 4285623838
0.050472427 0.026639283 -5.7850499e-05 4285558048
0.053083073 0.024637125 0.001643193 4285689118
0.05687283 0.01909722 0.0067610266 4285886489
0.063999832 0.0036535636 0.021439387 4285886489
-0.015181366 0.0007077381 0.03113641 4285427744
-0.014116082 0.005843766 0.025863277 4285559069
-0.012138378 0.0059655681 0.025497867 4285886233
-0.0093302317 0.0017924681 0.029330151 4285886233
-0.0063486509 -0.0030942038 0.033855639 4285886234
-0.0043357201 -0.0029699206 0.033483952 4285493024
-0.0026155896 -0.0014148578 0.031716108 4285427744
-0.0010552891 0.00085485727 0.029252669 4285427743
0.00064079836 0.0024086311 0.027489418 4285362208
0.0020171553 0.0053915605 0.024334943 4285624093
0.0041580871 0.0047998801 0.024665168 4285886489
0.0066242404 0.0027796105 0.026385779 4285951514
0.0097568762 -0.002096884 0.030884029 4285885978
0.028657518 0.018644601 0.0078272326 4285298204
0.028820464 0.025175862 0.0012720311 4285362463
0.03013625 0.027432259 -0.0011448902 4285756439
0.031638741 0.028975919 -0.0028710463 4285624093
0.034158371 0.026960701 -0.0011589532 4285492259
0.036485776 0.025658056 -0.00013646157 4285623839
0.039878651 0.020799667 0.0043153102 4285624093
0.042240806 0.019499406 0.0053315712 4285690139
0.043964572 0.02033291 0.0042901346 4285558814
0.04524482 0.022587702 0.0018803058 4285558814
0.046065394 0.026262857 -0.001895024 4285887509
0.047532175 0.027805027 -0.0036140368 4285755928
0.049442258 0.027926005 -0.0039643762 4285558048
0.052271299 0.025206558 -0.0015834593 4285558048
0.055819079 0.020358682 0.0028405255 4285558304
0.061990872 0.0077057108 0.014757525 4285558303
-0.018446859 0.0054381937 0.023985775 4285427744
-0.016995553 0.0084334761 0.02082343 4285690649
-0.01543276 0.010709159 0.018364098 4285558559
-0.013343837 0.01011128 0.018701613 4285492768
-0.010834746 0.0073597953 0.021132115 4285689884
-0.0081631467 0.0038919002 0.024256157 4285689883
-0.0061825849 0.0040141717 0.023890438 4285624604
-0.0044945255 0.0055715963 0.022131806 4285493788
-0.002668146 0.006411083 0.021071229 4285493788
-0.00084707513 0.0072503611 0.020011721 4285690393
0.00065997615 0.0095234662 0.017563269 4285558814
0.0027791187 0.0089282617 0.01789584 4285426978
0.0049036853 0.0083334669 0.018227533 4285558303
0.0075209104 0.005589582 0.020638781 4285755164
0.0099945702 0.0035635307 0.022353105 4285427488
0.012148801 0.0029709265 0.022679524 4285231904
0.027757246 0.01993306 0.0038918583 4285495319
0.028108191 0.025768891 -0.0019594976 4285493278
0.029216254 0.028745465 -0.0050565433 4285888019
0.030708227 0.030292768 -0.0067773666 4285821973
0.032805629 0.029698029 -0.0064393897 4285755929
0.035532665 0.02696275 -0.0040470087 4285755928
