# .PCD v0.7 - Point Cloud Data file format
VERSION 0.7
FIELDS x y z rgba
SIZE 4 4 4 4
TYPE F F F U
COUNT 1 1 1 1
WIDTH 982
HEIGHT 1
VIEWPOINT 0 0 0 1 0 0 0
POINTS 982
DATA ascii
0.011151224 -0.0043217614 0.0079217311 4283659063
0.013601828 -0.0063298494 0.0095795132 4283724089
0.016251631 -0.0090518743 0.011926088 4283723578
0.018922828 -0.011772245 0.014268018 4283723324
0.04298567 -0.026048638 0.025088793 4283001419
0.045628652 -0.028041296 0.026705315 4282412878
0.048505411 -0.030745365 0.029003026 4282282573
0.051403478 -0.03344775 0.031296141 4281955664
0.055661671 -0.04042232 0.037685387 4281759568
-0.054436848 0.024491876 -0.013853077 4283921968
-0.053041041 0.027512381 -0.017086977 4283990309
-0.05156856 0.029807938 -0.019606698 4283991328
-0.0498107 0.029932449 -0.019996172 4283990564
-0.047949575 0.029333873 -0.019677304 4283924773
-0.045871556 0.027289912 -0.017944228 4283925029
-0.044210747 0.028138215 -0.019043146 4283991329
-0.042555042 0.028986251 -0.02014086 4284056609
-0.041131802 0.031278811 -0.022649299 4284056354
-0.039259009 0.030681508 -0.022332756 4284056608
-0.037261672 0.029362647 -0.021312563 4284056863
-0.035131857 0.027322866 -0.019590575 4284056353
-0.033358835 0.027449198 -0.019982843 4283990564
-0.031712599 0.028297074 -0.021078072 4283991838
-0.030201159 0.029865904 -0.022874508 4283860003
-0.02883251 0.032155178 -0.025370419 4283793704
-0.027074747 0.03228078 -0.025759038 4283793194
-0.024903923 0.030244431 -0.024045661 4283794213
-0.022716969 0.028209351 -0.022335842 4283860514
-0.020799793 0.027616076 -0.022028383 4283991074
-0.01902277 0.027743421 -0.022420984 4284056353
-0.016949035 0.026431046 -0.021416983 4284056863
-0.014562577 0.023680069 -0.019019853 4284056609
-0.011847444 0.019491676 -0.01523318 4284121634
-0.0087876245 0.013866972 -0.010060442 4284056098
-0.0055260956 0.0075262934 -0.0042011421 4283924518
-0.002862934 0.0040650293 -0.001133787 4283857709
-0.00017299131 0.00060580671 0.0019277469 4283726129
0.0022098012 -0.0014142543 0.003595117 4283791663
0.0047783107 -0.0041514263 0.0059525953 4283791409
0.007023681 -0.0054505393 0.0069194105 4283857199
0.0092798024 -0.0067487508 0.0078839418 4283791154
0.011901893 -0.0094817504 0.010229835 4283660084
0.014545396 -0.012213066 0.012571113 4283789623
0.017210297 -0.014942728 0.014907748 4283919929
0.040633123 -0.027122639 0.023639513 4282611013
0.043052454 -0.028407492 0.024569323 4281891148
0.045912307 -0.031121574 0.026864035 4281890893
0.049011104 -0.034548953 0.02983723 4281890383
0.052577075 -0.039403625 0.034169465 4281956174
0.056849182 -0.046398968 0.040539157 4282086733
-0.056605682 0.025081027 -0.01666216 4284053548
-0.055206791 0.02811035 -0.019890236 4283990309
-0.053544365 0.028960509 -0.020988196 4283927323
-0.051984534 0.03053611 -0.022792825 4283991073
-0.05033493 0.031385556 -0.023887869 4283858473
-0.04848475 0.030783987 -0.023568256 4283925028
-0.046418019 0.028732656 -0.021837648 4283926559
-0.044551432 0.028132407 -0.021521548 4283991839
-0.042679332 0.027532673 -0.021206651 4284056353
-0.041142158 0.029107189 -0.02300594 4284056353
-0.039266966 0.028507812 -0.022691548 4284056354
-0.037623882 0.029357387 -0.023784701 4284056353
-0.035621531 0.028034566 -0.022768881 4284056609
-0.03398072 0.028884107 -0.023861364 4283990818
-0.032091483 0.028286112 -0.023549866 4283991074
-0.030714571 0.030582396 -0.026042737 4283796764
-0.029221326 0.032154359 -0.0278318 4283794468
-0.027334228 0.03155648 -0.027519621 4283793703
-0.02516675 0.029513316 -0.025810488 4283859494
-0.022843041 0.026748754 -0.023406453 4283861278
-0.02092617 0.026153259 -0.02310059 4284057119
-0.019003823 0.025558263 -0.022795927 4284056609
-0.016483605 0.022075325 -0.019705642 4284121634
-0.013635084 0.017150573 -0.015229031 4284055843
-0.010442264 0.010785121 -0.0093695689 4283989289
-0.0076696351 0.0065878145 -0.0056053814 4283857709
-0.0050236508 0.0031142868 -0.0025425812 4283791664
-0.0025123432 0.00036394969 -0.00017932802 4283725108
2.0403415e-05 -0.0023847073 0.0021792226 4283725108
0.0024078339 -0.0044109896 0.0038406146 4283790644
0.0048113577 -0.0064360127 0.0054985327 4283856689
0.0074030608 -0.009180136 0.0078443661 4283922733
0.0098414123 -0.011202388 0.0094947219 4283922224
0.012473274 -0.013943374 0.01183188 4283921203
0.014946453 -0.015962929 0.013474766 4284508469
0.035682362 -0.026182517 0.02057763 4283329603
0.038079843 -0.027473561 0.021508764 4282282829
0.040487971 -0.028763674 0.022437606 4281890639
0.043118857 -0.030770384 0.02404682 4281956174
0.046409961 -0.034927644 0.027698567 4281890639
0.050167888 -0.040516675 0.03270622 4281956174
0.054188527 -0.046819329 0.038385414 4282020943
0.058702618 -0.05455175 0.045414619 4282347854
-0.057976604 0.019126981 -0.013087302 4283524678
-0.056908183 0.02508064 -0.019146966 4284054058
-0.055421956 0.027390016 -0.021660017 4284055844
-0.053856745 0.028970225 -0.023462636 4284123419
-0.052301973 0.030549822 -0.025262929 4283927324
-0.050657608 0.031401001 -0.026355144 4283993114
-0.048813023 0.030796861 -0.026036009 4283993114
-0.046857588 0.029465815 -0.025013508 4283992349
-0.04489132 0.028135655 -0.023993392 4283925028
-0.04324609 0.028987234 -0.025085542 4283990818
-0.04171928 0.030565334 -0.02687927 4283925283
-0.039971009 0.03068958 -0.027266305 4284056354
-0.03798528 0.029361108 -0.026250195 4284056354
-0.036110021 0.028759724 -0.025937412 4284056609
-0.034353189 0.028884837 -0.026326146 4284056354
-0.032722771 0.029735887 -0.027414624 4283924774
-0.031097509 0.030586643 -0.028501906 4283927323
-0.029741272 0.032888055 -0.030985212 4283730208
-0.027862467 0.032287374 -0.030672874 4283861789
-0.025840916 0.030962089 -0.029664207 4283929364
-0.023108952 0.026013315 -0.025173694 4283926813
-0.020909898 0.023966044 -0.023476357 4284056354
-0.018404208 0.020471029 -0.020391213 4284055843
-0.015871741 0.016978037 -0.017311899 4284055589
-0.012710199 0.010590605 -0.011460468 4283924008
-0.0096537992 0.0049306378 -0.0063134744 4283791664
-0.0073341578 0.0028925464 -0.0046424437 4283725363
-0.0046812817 -0.00059139356 -0.0015894212 4283660084
-0.0021628551 -0.0033499599 0.000765651 4283659573
0.00037699938 -0.0061068758 0.0031160698 4283790388
0.0027717203 -0.0081391931 0.0047708903 4283725109
0.005182527 -0.010170199 0.0064221979 4283856179
0.0077813268 -0.012922533 0.0087598655 4283921713
0.01022698 -0.014950842 0.010403704 4284050999
0.035538293 -0.027814455 0.019382311 4282153288
0.038141795 -0.029829934 0.020992424 4281630028
0.040761292 -0.031844147 0.022599092 4281825358
0.044244334 -0.036735721 0.026926218 4281890893
0.047979247 -0.042343967 0.031925656 4281890639
0.051974021 -0.04866825 0.037595596 4282087244
0.056016766 -0.054988898 0.043255098 4282217293
-0.05640728 0.018513326 -0.01526738 4283989288
-0.055269323 0.023752395 -0.020603061 4283990053
-0.05397936 0.027528392 -0.024519997 4284055843
-0.05252146 0.029842405 -0.027021738 4283924518
-0.050879657 0.030695554 -0.028111763 4283990564
-0.049038015 0.030088989 -0.027793651 4283925028
-0.046980597 0.028023792 -0.0260709 4283925029
-0.045014791 0.02668922 -0.025053997 4283925029
-0.043479927 0.028272094 -0.026846256 4283925539
-0.042181738 0.031312257 -0.030038413 4283926814
-0.040441543 0.031435896 -0.030423686 4283928598
-0.038582735 0.030831052 -0.030108998 4283928853
-0.036476225 0.028769864 -0.028396724 4283927578
-0.03460107 0.028166359 -0.028085519 4283991329
-0.032973245 0.029019373 -0.029171798 4283991073
-0.031221494 0.029144263 -0.029559303 4283925538
-0.029864796 0.031452216 -0.032037787 4283860513
-0.027986296 0.030849313 -0.031727042 4283991073
-0.025965236 0.029519605 -0.030721592 4283991074
-0.023095004 0.023828387 -0.025547097 4284056099
-0.020466775 0.019594043 -0.021771198 4284056609
-0.017806441 0.015362117 -0.01800238 4284056099
-0.014966287 0.010406077 -0.013547073 4283856944
-0.012239076 0.0061791502 -0.0097928755 4283790899
-0.0096328259 0.0026807413 -0.0067379726 4283725109
-0.0074669272 0.0013621412 -0.0057640392 4283725108
-0.0048151314 -0.0021327808 -0.0027190254 4283724853
-0.0021365471 -0.0056256801 0.00032015005 4283659573
0.00073248893 -0.0098419264 0.0040434715 4283724599
0.002968125 -0.011155076 0.0050023417 4283789368
0.0055526048 -0.01391729 0.0073364726 4283789114
0.0081584975 -0.016677856 0.0096659642 4284246328
0.033008512 -0.028145395 0.017260222 4283920439
0.035597954 -0.030168563 0.018868387 4281631304
0.038409743 -0.032912649 0.021153616 4281630793
0.041451905 -0.036377154 0.024114229 4281890639
0.045367502 -0.042727076 0.029786563 4281890384
0.049331069 -0.049073346 0.035448451 4282020943
0.053342618 -0.055416003 0.041099887 4282217038
-0.055730931 0.010449868 -0.010000437 4283856434
-0.054659508 0.016438622 -0.016034445 4283858219
-0.053630352 0.022424426 -0.022058977 4283990309
-0.052352637 0.026210468 -0.025964944 4284121379
-0.050802387 0.027798472 -0.027757632 4284056353
-0.048955731 0.02719005 -0.027442301 4284056354
-0.047103532 0.026582044 -0.02712811 4284056354
-0.04513821 0.025243048 -0.026114421 4283991073
-0.043713354 0.027561637 -0.028603612 4283925539
-0.04230424 0.029879149 -0.031089203 4283865104
-0.040795334 0.031464703 -0.03287236 4283796253
-0.038823888 0.030126449 -0.031859722 4283730464
-0.036720723 0.028058501 -0.030151719 4283732758
-0.034848526 0.02745253 -0.02984149 4283859494
-0.033349514 0.029037746 -0.031622183 4283991329
-0.031474315 0.028432222 -0.031312522 4284056609
-0.029988274 0.030016651 -0.033090163 4284056609
-0.027841635 0.027952218 -0.03139139 4284056609
-0.025541991 0.025159582 -0.029001901 4284056609
-0.022383645 0.017993014 -0.02245532 4284056099
-0.019598499 0.013017599 -0.017999608 4284055334
-0.016775914 0.0080449246 -0.013552045 4283858728
-0.014358483 0.0052611083 -0.011188293 4283857454
-0.011769429 0.0017504506 -0.0081379255 4283791154
-0.0094593018 -0.00030154735 -0.0064747976 4283790388
-0.0071330741 -0.0023523234 -0.0048151044 4283790388
-0.0044743456 -0.0058576614 -0.0017798836 4283790899
-0.001788877 -0.0093609765 0.0012495108 4283659318
0.0010868907 -0.013589785 0.0049614063 4283724599
0.0034961849 -0.015634149 0.0066031027 4283722813
0.0059215762 -0.01767724 0.0082413219 4284180283
0.033065856 -0.030497141 0.016748652 4283789623
0.036064237 -0.033975981 0.019710463 4282480964
0.03888312 -0.036728278 0.0219876 4281499979
0.042558677 -0.042375959 0.026973521 4281825359
0.046911366 -0.05019255 0.033983439 4282021199
0.050894372 -0.056557015 0.039626215 4282217038
-0.055057876 0.0023472346 -0.0047622388 4283855923
-0.053778194 0.0068854243 -0.0093834316 4283922478
-0.052906677 0.01436013 -0.016805699 4283923499
-0.051894531 0.020362232 -0.022813294 4283990309
-0.05072581 0.024892818 -0.02740971 4284187169
-0.049180396 0.026484869 -0.029197998 4284121634
-0.047540665 0.027342306 -0.030284202 4284056608
-0.045691222 0.026732039 -0.029971045 4283990564
-0.044056401 0.027589304 -0.031056028 4283992094
-0.042652152 0.029913019 -0.033535663 4283858983
-0.041148305 0.0315025 -0.035314389 4283792938
-0.039300717 0.030892447 -0.035000551 4283793448
-0.037206203 0.02881727 -0.033295561 4283860004
-0.035218924 0.02747597 -0.032289658 4283926049
-0.033346854 0.026867922 -0.031981044 4283991584
-0.031469278 0.026260324 -0.031673528 4284056354
-0.029454872 0.024921227 -0.030673424 4284056354
-0.027027547 0.021387476 -0.027596025 4284056609
-0.024436764 0.01712412 -0.023831861 4284122144
-0.021395817 0.010668762 -0.017998649 4284123164
-0.018732809 0.0064107068 -0.014250265 4283859493
-0.016327076 0.0036172234 -0.011890613 4283857963
-0.013899885 0.00082542002 -0.0095356666 4283792174
-0.011751264 -0.00050342828 -0.0085646622 4283856944
-0.009286508 -0.0032923669 -0.0062178052 4283856434
-0.0066449791 -0.0068099573 -0.0031871195 4283921459
-0.0039766952 -0.010325529 -0.0001622811 4283920949
-0.0016029477 -0.012379214 0.0014821403 4283789113
0.00095020235 -0.015161328 0.0038097645 4284049469
0.033122845 -0.03285297 0.016234081 4283265854
0.035919476 -0.03561575 0.018509416 4282349895
0.039149381 -0.039830118 0.022134785 4281499978
0.043245852 -0.046947852 0.028460259 4281432148
0.04760693 -0.054787792 0.035450201 4281628244
-0.054831155 -0.0021083914 -0.0030608152 4283657024
-0.053448573 0.0017066002 -0.006973729 4283922479
-0.052280195 0.006993562 -0.012281619 4283922734
-0.051245406 0.013014592 -0.018281043 4283857198
-0.0502529 0.019032773 -0.024271067 4283923499
-0.048997 0.022839148 -0.028155642 4283988523
-0.047767483 0.026643734 -0.032034311 4284055079
-0.046135448 0.027502863 -0.033117115 4283990563
-0.044728309 0.029833188 -0.035592545 4284060178
-0.043111809 0.030691383 -0.036671784 4283993368
-0.041615658 0.032284703 -0.038445558 4283859748
-0.03977637 0.031671844 -0.038131569 4283925539
-0.037690513 0.029589497 -0.036429621 4283927578
-0.035465322 0.026773609 -0.034037244 4283927578
-0.03347037 0.025428571 -0.03303628 4284056353
-0.031207554 0.022615556 -0.030652083 4284056609
-0.028792121 0.019069958 -0.027580382 4284121634
-0.02608221 0.014058288 -0.023131322 4284055844
-0.023334883 0.0090494268 -0.018690513 4283989798
-0.020689264 0.0047769435 -0.014948264 4283857964
-0.018295221 0.0019738004 -0.012592705 4283857454
-0.016024195 -9.4436109e-05 -0.010931108 4283856688
-0.013884209 -0.0014283732 -0.0099615725 4283856944
-0.011433788 -0.0042271838 -0.0076182461 4283725108
-0.0089619458 -0.0070242956 -0.0052796113 4283725108
-0.0063135028 -0.010552302 -0.0022587068 4283790389
-0.0039539039 -0.012613676 -0.00061621703 4283854648
-0.0015782267 -0.014673792 0.0010228078 4284180029
0.032778576 -0.033754446 0.014362752 4283135294
0.035774734 -0.037255205 0.017308587 4282349639
0.038797554 -0.040753908 0.020248648 4281366104
-0.054694325 -0.0058418587 -0.0020720526 4283591233
-0.053211838 -0.0027546175 -0.0052792961 4283856433
-0.051750392 0.00033120066 -0.0084818285 4283856433
-0.050502777 0.004893329 -0.013076084 4283856688
-0.049484976 0.010930687 -0.019058557 4283791409
-0.048611224 0.017703604 -0.025728637 4283857453
-0.04757636 0.022996657 -0.030995185 4283923753
-0.046257354 0.026072804 -0.034165762 4284055844
-0.045069158 0.029885523 -0.038026977 4283990819
-0.043570288 0.031483214 -0.039798118 4283993113
-0.041966833 0.032342725 -0.040872775 4283927324
-0.04025083 0.032464609 -0.041252717 4283927068
-0.038053289 0.029637933 -0.038860891 4283926304
-0.035588279 0.025338948 -0.035089083 4283990564
-0.033216819 0.021779124 -0.032016046 4283990563
-0.030690253 0.01748471 -0.028257718 4284056099
-0.028000578 0.012456231 -0.023815805 4284056099
-0.025139831 0.0066943057 -0.01869213 4284056864
-0.022781581 0.0038796663 -0.016335422 4283857199
-0.020540848 0.0018025227 -0.014672231 4283790899
-0.018283978 -0.00027341023 -0.013012485 4283790644
-0.015866689 -0.0030835271 -0.010668604 4283790643
-0.013574913 -0.0051567107 -0.0090164579 4283855924
-0.011267044 -0.00722868 -0.0073677502 4283855668
-0.0086384565 -0.010769121 -0.0043507945 4283790389
-0.006138064 -0.013572864 -0.0020249523 4283855669
-0.0036162362 -0.016374931 0.0002962607 4284507959
0.032434728 -0.034651212 0.01249486 4282479434
-0.054646768 -0.0088465512 -0.0017911727 4283722048
-0.053158335 -0.0057502314 -0.0049931896 4283921458
-0.051597364 -0.0033965781 -0.0074932184 4283921458
-0.050148331 -0.00030287728 -0.010686364 4283921713
-0.048720345 0.0027894229 -0.013874786 4283856434
-0.047719561 0.0088430382 -0.019840276 4283790899
-0.046656892 0.014153216 -0.025101433 4283856944
-0.045738094 0.020201202 -0.031048624 4283856689
-0.044752158 0.02550618 -0.03629268 4283990053
-0.043466717 0.028588833 -0.039449178 4284056354
-0.041972689 0.030190598 -0.041215897 4283990564
-0.04013665 0.029573094 -0.040904522 4283990308
-0.037934646 0.026738007 -0.038520291 4284056099
-0.035342731 0.021687035 -0.034068514 4284055844
-0.032713398 0.016638864 -0.029624986 4283990053
-0.030046627 0.011593394 -0.025189634 4283857963
-0.027473234 0.0072893165 -0.021451496 4283791153
-0.024867728 0.0029876418 -0.017720377 4283790899
-0.022502363 0.00016476586 -0.015371859 4283725108
-0.020254329 -0.0019184463 -0.013715194 4283789879
-0.018131621 -0.0032625347 -0.012748666 4283855668
-0.015709899 -0.0060810745 -0.010412369 4283921204
-0.013413504 -0.0081605092 -0.0087661576 4283921714
-0.010802113 -0.011713199 -0.0057537407 4284052273
-0.0081639662 -0.015263863 -0.0027471599 4284247603
0.032691475 -0.037744068 0.012651466 4281690209
-0.054776005 -0.010372147 -0.002910099 4283983424
-0.053196207 -0.0080107152 -0.0054094968 4284117553
-0.05144538 -0.0071371868 -0.0065140952 4283921203
-0.049891718 -0.0047774687 -0.0090075266 4283921459
-0.048255078 -0.003161788 -0.010803038 4283856434
-0.047034249 0.0014246851 -0.015371498 4283856434
-0.045741096 0.00526632 -0.019239632 4283856944
-0.045007668 0.01281862 -0.026565185 4283725618
-0.044217914 0.019624956 -0.033186868 4283791919
-0.04325185 0.024943817 -0.038414944 4284056354
-0.041634932 0.02580858 -0.039489333 4283990308
-0.03967125 0.024447884 -0.038491614 4284055589
-0.037216857 0.020121846 -0.03473727 4284055589
-0.034607768 0.015056871 -0.030300893 4284056099
-0.031961225 0.0099946186 -0.025872674 4283923499
-0.029661112 0.0071580522 -0.023516554 4283791408
-0.027208924 0.0035823546 -0.020477748 4283790643
-0.024996512 0.0014898889 -0.01881836 4283790388
-0.022767961 -0.00060138479 -0.017162437 4283790134
-0.020523287 -0.0026913956 -0.015509985 4283855923
-0.018121235 -0.0055201128 -0.013176059 4283921458
-0.015697733 -0.008347258 -0.010846768 4283921713
-0.013252795 -0.011172749 -0.0085221231 4284052529
-0.010786407 -0.013996586 -0.0062021283 4284313903
-0.0079947636 -0.018297277 -0.0025214877 4284573493
-0.051480837 -0.0093994439 -0.0069324197 4284510509
-0.049924076 -0.0070330277 -0.0094216354 4283987249
-0.048284508 -0.0054128021 -0.011214508 4283921459
-0.046756521 -0.0030482337 -0.013697204 4283921714
-0.045244277 -0.00068464875 -0.016176386 4283856178
-0.044173695 0.004656598 -0.021416206 4283791154
-0.043467574 0.01222882 -0.028719245 4283725618
-0.042590834 0.018308714 -0.034630634 4283792174
-0.040955253 0.019176982 -0.035707578 4284055588
-0.038856298 0.017069262 -0.034028437 4283921459
-0.036262095 0.011987831 -0.029600335 4283923754
-0.033875346 0.0083962753 -0.026555514 4283857454
-0.031461827 0.0048067123 -0.023516562 4283856434
-0.029277049 0.0027055182 -0.021856176 4283790388
-0.027076133 0.00060553476 -0.020199234 4283790388
-0.024992153 -0.00075042248 -0.019230956 4283790644
-0.022761643 -0.0028480627 -0.017580457 4283724853
-0.02051501 -0.0049444735 -0.015933396 4283856434
-0.018111169 -0.0077818483 -0.013606435 4283921458
-0.01582963 -0.0098755136 -0.011966972 4284314158
-0.013385572 -0.012709782 -0.009648731 4284575279
-0.048215926 -0.0084154084 -0.010937756 4284249134
-0.046682179 -0.0060438886 -0.013416857 4283921714
-0.045060545 -0.0044204816 -0.015202308 4283856178
-0.043768205 -0.00055710226 -0.01905377 4283856178
-0.042611219 0.0040512048 -0.023588222 4283725874
-0.041597553 0.0094037987 -0.028803799 4283725619
-0.040049553 0.011022419 -0.030572696 4283725364
-0.038044289 0.0096558817 -0.029590763 4283791153
-0.035549819 0.0053065643 -0.025865136 4283857709
-0.033390023 0.0031968057 -0.02420428 4283791918
-0.031338997 0.0018338561 -0.023232305 4283856689
-0.02940473 0.0012171268 -0.022947375 4283856944
-0.026944026 -0.0023798198 -0.019926911 4283790899
-0.024855234 -0.0037397556 -0.018963039 4283855668
-0.022620089 -0.0058436468 -0.01731847 4283921714
-0.020507045 -0.0072016492 -0.016359821 4283921969
-0.018101439 -0.010047615 -0.014039844 4284183343
-0.015961476 -0.011403486 -0.01308698 4284443698
-0.04660853 -0.0090480521 -0.013142676 4283987248
-0.044981301 -0.0074198768 -0.014926139 4283921968
-0.043470621 -0.0050433502 -0.017395029 4283921459
-0.042193227 -0.0011700429 -0.021234941 4283856178
-0.040942229 0.0027014203 -0.025068909 4283725619
-0.039489441 0.0050741546 -0.027524732 4283791664
-0.037468702 0.0037043802 -0.026549578 4283791154
-0.035198331 0.00083924457 -0.024206899 4283791409
-0.033272713 0.00021949783 -0.023921875 4283792428
-0.03134159 -0.00039974973 -0.023637986 4283791664
-0.029277585 -0.0017660931 -0.022672068 4283856943
-0.026942678 -0.0046262369 -0.020343369 4283725109
-0.024586312 -0.0074847415 -0.018019337 4283855669
-0.022479251 -0.0088476613 -0.017062753 4283921203
-0.020223349 -0.010956503 -0.015427647 4284444463
0.0019042641 -0.02601625 -0.004667168 4283330113
0.0039813146 -0.026623331 -0.00441415 4284180539
-0.043598168 -0.0065418854 -0.018493935 4284053039
-0.042102799 -0.0041598082 -0.020954486 4283921713
-0.040845655 -0.00027704611 -0.02478159 4283921714
-0.039159305 0.0006012544 -0.025864836 4283790899
-0.03724499 -2.1684915e-05 -0.025579115 4283790643
-0.034967519 -0.0028950498 -0.023244618 4283791154
-0.033277981 -0.0020161979 -0.024328401 4283792174
-0.031219974 -0.0033874288 -0.023364536 4283792429
-0.029278338 -0.0040080063 -0.023084544 4283726894
-0.02694165 -0.0068767592 -0.020762851 4283988523
-0.024583511 -0.0097438768 -0.018445818 4284183853
-0.022339106 -0.01186014 -0.016813245 4284640814
-0.00014169514 -0.027722903 -0.005395697 4283199299
0.0020967275 -0.029079564 -0.0044704452 4283003714
0.0041787475 -0.029688418 -0.0042202137 4284116024
-0.043619923 -0.0087935477 -0.018908009 4284379948
-0.042229846 -0.0056515187 -0.022048365 4284053293
-0.04097189 -0.0017578453 -0.025867445 4283922479
-0.039285496 -0.00087742507 -0.0269491 4283921968
-0.037255101 -0.0022552237 -0.025982676 4283856434
-0.035094865 -0.0043847039 -0.024336865 4283856434
-0.033161879 -0.0050083101 -0.024056785 4283791919
-0.031099036 -0.0063835159 -0.023097329 4283661613
-0.029025391 -0.0077579096 -0.022140156 4283792939
-0.026940957 -0.0091313794 -0.021185338 4284314923
-0.02458103 -0.012007073 -0.018875288 4284706093
-0.0025051236 -0.027929828 -0.0074697039 4283134274
-0.00027800351 -0.029291742 -0.0065454054 4282284358
0.0019598976 -0.030652814 -0.0056233387 4282416959
0.0040415898 -0.03126388 -0.0053746942 4284115769
-0.040987216 -0.0039936341 -0.026271271 4284380203
-0.039411604 -0.0023558103 -0.028033162 4284184363
-0.037497893 -0.0029831678 -0.027750615 4284118574
-0.035341017 -0.0051193759 -0.026109047 4284052783
-0.033289485 -0.0064999014 -0.025150426 4283987758
-0.030978821 -0.0093881264 -0.022836315 4284053548
-0.028773546 -0.011520609 -0.021205239 4284641068
-0.009256117 -0.025389649 -0.011393143 4284442423
-0.0070618019 -0.026758641 -0.010465166 4283068738
-0.0047006086 -0.028878771 -0.0088675786 4282348873
-0.0024820939 -0.030245781 -0.007944759 4282218313
-9.1396272e-05 -0.032363556 -0.0063535031 4281956938
0.0019871965 -0.032977149 -0.0061059128 4282808638
0.0042379647 -0.034341544 -0.0051899087 4284443188
-0.039651021 -0.0030766539 -0.029796727 4284250153
-0.03762427 -0.0044635087 -0.028836081 4284184364
-0.03558673 -0.0058494508 -0.027877795 4283987759
-0.03317441 -0.0095045492 -0.024888093 4284184109
-0.030983277 -0.011644714 -0.023258867 4284706348
-0.011425368 -0.026320748 -0.012784809 4284246328
-0.009089075 -0.028449453 -0.011186851 4283069504
-0.0067367032 -0.030576862 -0.009592345 4282349384
-0.0042123273 -0.033457197 -0.007331064 4282218569
-0.002142258 -0.034073837 -0.007083429 4281891659
-0.00022798777 -0.033936165 -0.0075059738 4281825614
0.0016863644 -0.033798359 -0.007928459 4282872643
0.004100509 -0.035920739 -0.0063471296 4284311099
-0.013733514 -0.026489541 -0.014845179 4284050999
-0.011411369 -0.028625906 -0.013249123 4282808128
-0.0089227334 -0.031517729 -0.010986706 4282087244
-0.0068718642 -0.032138176 -0.010736668 4282022474
-0.0041926876 -0.035783671 -0.0078131314 4282087753
-0.0021202937 -0.036402307 -0.0075676613 4281890383
-0.00020351261 -0.036264472 -0.0079907719 4281694034
0.0017133653 -0.036126494 -0.0084138121 4282542929
-0.015887581 -0.027407877 -0.016231282 4283723834
-0.013721809 -0.028792322 -0.015307149 4282416448
-0.011397719 -0.030935079 -0.013716461 4282023494
-0.0090575293 -0.03307654 -0.012129234 4282021708
-0.0067012683 -0.035216704 -0.010545522 4282152778
-0.00448443 -0.036597081 -0.0096322764 4281891148
-0.0024150461 -0.037218131 -0.0093877893 4281759314
-0.00050108135 -0.037080489 -0.0098102894 4281431893
-0.020455286 -0.025406361 -0.019879229 4284377399
-0.018174887 -0.027559064 -0.018284133 4283265853
-0.016020402 -0.028948851 -0.017360857 4282153544
-0.013710462 -0.031099193 -0.015772099 4281826889
-0.011384413 -0.033248328 -0.014186783 4281631049
-0.0091922879 -0.03463506 -0.013271553 4281696839
-0.0069894046 -0.036020845 -0.012358638 4281826124
-0.0047757849 -0.037405767 -0.011448029 4281759568
-0.0025513768 -0.038789816 -0.010539634 4281363553
-0.022181123 -0.028597809 -0.019251714 4284181559
-0.020040736 -0.029993169 -0.018328764 4283069758
-0.018028766 -0.030623548 -0.018075546 4282349383
-0.015727647 -0.032781184 -0.01648988 4282022219
-0.013410419 -0.034937575 -0.014907634 4281957194
-0.01122427 -0.03632921 -0.013994468 4281957703
-0.0093270093 -0.036193281 -0.01441366 4281630793
-0.0072771385 -0.036820337 -0.014168354 4281303119
-0.0050667077 -0.038209841 -0.013260331 4281366868
-0.022312887 -0.030131593 -0.020376137 4282612288
-0.020173013 -0.031531341 -0.019456372 4282088263
-0.018022358 -0.032930158 -0.018538954 4282022218
-0.01571928 -0.035094231 -0.016958622 4281891403
-0.013544433 -0.036491089 -0.016046373 4281957450
-0.01135879 -0.037887111 -0.015136389 4281760843
-0.0094616935 -0.037751205 -0.015555555 4281497429
-0.026178263 -0.031931043 -0.020674257 4283200574
-0.024049833 -0.0333362 -0.019755431 4282219078
-0.022177607 -0.033202775 -0.020169638 4282022728
-0.020032935 -0.034606487 -0.019254273 4281826380
-0.017877512 -0.036009334 -0.018341215 4281891404
-0.015852734 -0.03664308 -0.018093983 4281891148
-0.013678402 -0.038044341 -0.017184919 4281694799
-0.011640094 -0.038676836 -0.016940551 4281629008
-0.028050818 -0.03436859 -0.02071972 4284314923
-0.02643764 -0.032692827 -0.02246323 4282414918
-0.024443038 -0.03333132 -0.022211375 4281891659
-0.022442967 -0.033969298 -0.021960629 4281891913
-0.020301476 -0.035377644 -0.021047821 4281826633
-0.018010594 -0.037555695 -0.019474788 4281891913
-0.015844874 -0.038962081 -0.018567162 4281891659
-0.013812348 -0.039597295 -0.018323256 4281628498
-0.011920966 -0.039461926 -0.018741252 4281037664
-0.027806811 -0.038224973 -0.019853463 4282543949
-0.026441038 -0.03499712 -0.02292219 4282218313
-0.024574555 -0.034864232 -0.023335213 4282218824
-0.022441685 -0.036277659 -0.022423871 4282218824
-0.020162277 -0.038463168 -0.020853324 4281761609
-0.017728329 -0.041420259 -0.018625243 4281630028
-0.015696265 -0.042057805 -0.018382972 4281498959
-0.026061922 -0.03963282 -0.021398975 4282347854
-0.024184935 -0.039499193 -0.021814328 4282152779
-0.022041962 -0.040916212 -0.020908562 4282218569
-0.019617036 -0.04388275 -0.018685155 4282218569
-0.017447174 -0.045297645 -0.017785106 4281626714
-0.021112725 -0.048682243 -0.016770011 4282150229
-0.018802822 -0.050878666 -0.015216034 4282476884
0.040870965 0.028586905 0.052893076 4279586714
0.041549638 0.032627672 0.048060842 4278864299
0.042632468 0.035367578 0.044700719 4278863788
0.045018621 0.034211375 0.045736935 4279584163
0.036163077 0.028629702 0.050369196 4279784084
0.037286691 0.031381167 0.0470066 4278603433
0.03838896 0.034131087 0.043648791 4278472109
0.04355276 0.036510222 0.040176604 4278864044
0.032013308 0.033413652 0.042292386 4278865063
0.035676517 0.034350179 0.040709246 4278865319
0.037185546 0.035799377 0.038822941 4278603178
0.049310673 0.029319149 0.044705458 4278537389
0.052410394 0.026197672 0.047909819 4278865318
0.05530569 0.02373093 0.050382026 4278472618
0.030443225 0.036414236 0.036007892 4278272699
0.035116661 0.034067754 0.038081825 4278534074
0.037045036 0.03420838 0.037657626 4278537643
0.038758535 0.035005216 0.036505189 4278865319
0.040684216 0.035145782 0.036081683 4278668458
0.042830087 0.034630656 0.036385354 4278603178
0.045427002 0.032805007 0.038140856 4278668713
0.048490994 0.029669918 0.041344747 4278734248
0.050440583 0.029812492 0.040916186 4278734249
0.052159235 0.030610051 0.039762951 4278733993
0.056997675 0.02827693 0.04180159 4278403259
0.062538445 0.018605124 0.052216247 4278402748
0.025922887 0.029795879 0.041230511 4279454878
0.026269972 0.035212565 0.034962904 4278733739
0.027580921 0.037329763 0.032352734 4278536878
0.029487818 0.037468635 0.031933118 4278995114
0.034557592 0.033794381 0.035460956 4278405044
0.036904536 0.032617584 0.036492459 4278471854
0.039047483 0.032099977 0.036794979 4278472363
0.040761098 0.032899033 0.035644267 4278537898
0.043129355 0.031724039 0.036671188 4278603689
0.045508273 0.030549889 0.037695814 4278603433
0.047897846 0.029376548 0.038718205 4278537898
0.049157955 0.031490739 0.036119673 4278602668
0.051863305 0.035058849 0.03165596 4279519904
0.054257993 0.03388615 0.032677423 4279651739
0.058334168 0.028118489 0.038746115 4278798509
0.064630657 0.016447179 0.051291406 4278273719
0.021148462 0.030566297 0.037991688 4282275179
0.022301391 0.033354498 0.034648824 4278800804
0.024020337 0.034155589 0.033498179 4278668458
0.027040089 0.037079811 0.029744575 4278470324
0.028737774 0.037879549 0.028598761 4278406319
0.031049516 0.036695674 0.029634589 4278536368
0.036340445 0.032348424 0.033876162 4278537643
0.038692258 0.031167675 0.034903336 4278406828
0.040403295 0.031968784 0.033754807 4278668968
0.042328797 0.032109402 0.033331394 4278472363
0.044254269 0.032250106 0.032908052 4278668968
0.046404865 0.031731106 0.033207487 4278603433
0.047649454 0.033850748 0.030617351 4278406828
0.050789896 0.036109276 0.027610647 4278339254
0.053173434 0.034931399 0.028631261 4278930344
0.05652158 0.031119382 0.032528583 4278471599
0.060866386 0.024675537 0.039295606 4278602158
0.017583098 0.0341556 0.03141785 4279257764
0.019106463 0.035622831 0.02954117 4279126948
0.02100502 0.035760798 0.029123167 4278930854
0.023099221 0.035234772 0.029432727 4278734504
0.02480229 0.036036961 0.028287282 4278340274
0.033023983 0.034600813 0.028789887 4278471599
0.035988767 0.031425327 0.031990509 4278996134
0.038123146 0.030902727 0.03229161 4278603434
0.03896118 0.034355693 0.028254574 4278668969
0.040650956 0.035157464 0.027112471 4278602669
0.043002218 0.033972554 0.028136572 4278995624
0.045364141 0.032788455 0.029158423 4278865318
0.04659855 0.034913938 0.026575508 4278537898
0.06414412 0.019239187 0.041983094 4278669224
0.070799679 0.0068371557 0.055160567 4278800803
0.014912121 0.027638318 0.036208082 4282733414
0.023156632 0.03300035 0.029009992 4278799273
0.024664409 0.034471028 0.027140213 4278472363
0.026563019 0.034609206 0.026722355 4278996134
0.028054848 0.036078833 0.02485624 4279061669
0.030360291 0.034885783 0.025886783 4278996134
0.032467686 0.034358881 0.026192052 4278799784
0.035214655 0.031837083 0.028663406 4278668203
0.03691259 0.032641515 0.027521076 4278602669
0.039414693 0.036907524 0.022357542 4278270403
0.046686374 0.03267524 0.026141094 4278668969
0.048137993 0.034142651 0.024284368 4278472363
0.05004441 0.03428226 0.023865443 4278930854
0.05289254 0.031768512 0.026315054 4278865319
0.056238174 0.027930096 0.030193089 4278930343
0.060097337 0.022768147 0.035496067 4278734759
0.064486019 0.016283888 0.042220432 4278603943
0.071635328 0.0025153235 0.056795597 4278603943
0.012134213 0.028592106 0.032558657 4280569739
0.012954611 0.032747388 0.027774075 4278668458
0.013927564 0.036231179 0.023723245 4278733483
0.015435442 0.037705943 0.021856528 4278930853
0.017502278 0.037173353 0.022168729 4278405299
0.0203446 0.033966556 0.02537935 4278339509
0.023018479 0.031430248 0.027859839 4278929833
0.024526559 0.032905322 0.025993304 4278472363
0.026425071 0.033043474 0.02557545 4278537898
0.028323611 0.033181719 0.025157658 4278734758
0.030428039 0.032652341 0.025461869 4278538154
0.032120734 0.033458427 0.024322232 4278603178
0.034230523 0.032929584 0.024625372 4278602669
0.036950201 0.036541745 0.020191053 4278798254
0.038838059 0.036679648 0.019775942 4278340784
0.046546567 0.031098483 0.02498636 4278734504
0.048458301 0.031238427 0.024566226 4278800549
0.05083514 0.030046914 0.025578363 4278668969
0.054163564 0.026194055 0.029450202 4278669478
0.05776187 0.021678265 0.034029983 4278604199
0.061878648 0.015834928 0.040030312 4278669478
0.066286653 0.009330187 0.046733942 4278735779
0.0079999454 0.027411081 0.031518642 4282275179
0.0086742751 0.032253586 0.026010359 4279587478
0.010206245 0.033734195 0.024141507 4278472618
0.014738563 0.038171895 0.018549267 4278668459
0.016986754 0.036965474 0.019585446 4278470834
0.022685342 0.030531071 0.025987105 4278274229
0.024586402 0.030669341 0.025568644 4278537898
0.026287153 0.031477973 0.024428714 4278668969
0.027982594 0.032286286 0.023290006 4278603433
0.029878391 0.032424405 0.022872873 4278603433
0.031565845 0.033232294 0.021736039 4278734248
0.033458989 0.033370364 0.021319604 4278472363
0.038262226 0.036460757 0.017200997 4279061923
0.041031435 0.033923388 0.019654447 4278537644
0.043597586 0.032056235 0.021387007 4278340784
0.049237259 0.026989289 0.026271949 4278538154
0.052321434 0.023790319 0.02942195 4278603944
0.056137394 0.018590096 0.034707848 4278865829
0.059996001 0.013393071 0.039984431 4278407338
0.064137623 0.0075318962 0.045964427 4278538664
0.067841075 0.0030086786 0.050509658 4278866593
0.004246071 0.032445356 0.023522325 4281750134
0.0061277077 0.032581523 0.023107613 4279521434
0.0076572001 0.034066267 0.021242505 4278865829
0.0091761202 0.035550289 0.019379828 4278669224
0.011047356 0.035685927 0.018967576 4278406828
0.022157833 0.030309357 0.023396729 4278733738
0.024053454 0.030447222 0.022979453 4278668713
0.025348671 0.032602664 0.02040248 4278930854
0.027033532 0.033412404 0.019267758 4278537134
0.028918555 0.033549726 0.01885299 4278996134
0.031011742 0.033015221 0.019156415 4278734248
0.032688625 0.033824611 0.018023625 4278800038
0.046493813 0.02727508 0.023391409 4278865574
0.049785145 0.023393095 0.027251491 4278736034
0.054037184 0.016832948 0.033956032 4279063454
0.058577403 0.0096068271 0.041361183 4278932384
0.062226195 0.0050641112 0.045906775 4279326614
0.065431871 0.0018633753 0.049022 4279981454
0.068421297 -0.0006659627 0.051420934 4279981199
0.000843402 0.028590096 0.025392788 4282601833
0.0090409517 0.034007385 0.018249435 4278996134
0.010912091 0.034142993 0.017837189 4278538153
0.012599383 0.03495454 0.016703172 4278472618
0.016525961 0.034550324 0.016600711 4278538154
0.018973209 0.032660417 0.018348845 4278603433
0.021631122 0.030096708 0.020812914 4278668458
0.023324028 0.030909056 0.019677956 4278602924
0.025275551 0.037254363 0.012387721 4278403258
0.032551348 0.032270521 0.016885348 4278994859
0.034009688 0.033755504 0.015040077 4278537898
0.035673294 0.034566306 0.013911929 4278734249
0.037550192 0.034703426 0.013499247 4278996388
0.040533625 0.031474933 0.016654622 4278930854
0.043991692 0.02690256 0.021230251 4278996388
0.047713745 0.021660261 0.026510147 4279193249
0.051478449 0.016421206 0.031780694 4279062688
0.0559818 0.0091682188 0.03917573 4278997663
0.060074482 0.0032639652 0.045136593 4279194524
0.063028492 0.00072314218 0.047536578 4279588243
0.066003777 -0.001816038 0.049931958 4280177548
0.069485657 -0.0056967214 0.053740516 4280243084
-0.0015064813 0.02825493 0.023218006 4282602599
-0.00077812746 0.033146843 0.017732318 4279061923
8.071214e-05 0.037356976 0.012978591 4278535858
0.0017596371 0.038169697 0.011847766 4279191464
0.0041255876 0.036266766 0.013608413 4278862003
0.0089058168 0.032464691 0.017119195 4279323044
0.010776866 0.032600284 0.016706962 4278537898
0.012464251 0.033414014 0.015574569 4278668969
0.014519189 0.032871716 0.015882621 4278734504
0.016579527 0.032329895 0.016189549 4278800039
0.018645257 0.031788528 0.016495338 4278668969
0.020716384 0.031247608 0.016800055 4278865319
0.022201613 0.032738492 0.014951769 4278537134
0.023076922 0.036259346 0.010955852 4278733483
0.024532855 0.03774821 0.0091141742 4278406574
0.032203645 0.031392761 0.015032906 4278733484
0.034085825 0.031530119 0.014618952 4278538153
0.035967983 0.031667545 0.014205048 4278734759
0.038505461 0.029778482 0.015928917 4278538664
0.041943416 0.025189262 0.020497328 4278604198
0.045642491 0.019927714 0.025768986 4279063198
0.049384229 0.014669422 0.031031286 4279128989
0.05316864 0.009414278 0.036284309 4279326358
0.056763917 0.004836902 0.040818397 4279719314
0.060396485 0.00026238337 0.045344308 4279849873
0.062880687 -0.00093852729 0.04631979 4280046734
0.065615274 -0.0028124973 0.048000846 4280308618
0.069578156 -0.0080541223 0.053214982 4280177548
-0.004323151 0.029975729 0.018875798 4279588498
-0.0029395409 0.032156117 0.01629338 4278604198
-0.00021998212 0.036513649 0.011139276 4278733994
0.0014563687 0.037328348 0.010010652 4278997154
0.003473226 0.0367807 0.01032513 4278865829
0.0060221516 0.034190968 0.01279957 4278274738
0.010641679 0.031057797 0.015576893 4278472363
0.012329157 0.031873703 0.014446121 4278603434
0.014197588 0.032009244 0.014034571 4278538154
0.016066078 0.032144874 0.01362307 4278538154
0.01774307 0.032960258 0.012494788 4278472363
0.019608997 0.033095863 0.012083974 4278341548
0.022343121 0.036762852 0.0076870923 4278601903
0.023791332 0.038255528 0.0058504255 4279193249
0.026253406 0.036353961 0.0075856526 4278996644
0.029146655 0.033096626 0.010744022 4278733994
0.032066599 0.029841322 0.013896575 4278340529
0.033948675 0.029978668 0.013482638 4278603943
0.036261898 0.028760258 0.014491849 4278800038
0.039458811 0.024831716 0.018342679 4278538664
0.043571405 0.018195476 0.025028005 4278342058
0.047737353 0.011563215 0.031701665 4278604454
0.051277868 0.0069664083 0.03623604 4279260059
0.054397855 0.0037262775 0.039345112 4279915409
0.05754447 0.00048822165 0.042448353 4279784593
0.06048343 -0.0020712055 0.044838328 4280046478
0.062969811 -0.0032763146 0.045810036 4280308363
0.065466776 -0.004480511 0.046779446 4280177548
0.06967026 -0.010415696 0.052686412 4280308619
-0.0054135472 0.032538898 0.013412178 4281621613
-0.0038834549 0.034040704 0.01155981 4278735778
-0.002034571 0.034174167 0.011152066 4278604199
0.0081016272 0.031428583 0.01270471 4278733995
0.010325853 0.030198203 0.013729431 4278537898
0.011644032 0.032381043 0.011166867 4278341548
0.013132308 0.033880495 0.0093243048 4278407083
0.014798649 0.03469725 0.0081999153 4278669224
0.016842447 0.034149863 0.0085072573 4278407083
0.018891629 0.033602998 0.0088134352 4278472873
0.02035607 0.035101093 0.0069763283 4278275249
0.034662418 0.025706161 0.015188614 4278603943
0.037847389 0.021763589 0.019032041 4278604709
0.041500494 0.016463559 0.024287222 4278408614
0.045417007 0.010486994 0.030241841 4278866593
0.048934735 0.0058731399 0.034769583 4279259803
0.052037667 0.0026207939 0.037874028 4279980689
0.05493851 4.9632043e-05 0.040265691 4280177294
0.057629246 -0.0018409379 0.041946325 4280373898
0.060101844 -0.0030514412 0.042917665 4280374154
0.062585063 -0.0042611361 0.043886773 4280504968
0.065557688 -0.0068266839 0.046262927 4281030014
-0.0024964996 0.034021929 0.0085962173 4278867358
-0.00065291673 0.034155075 0.0081896894 4278604708
0.0011907667 0.034288302 0.0077831955 4278408103
0.0030345544 0.034421615 0.0073767374 4278537643
0.0050536022 0.033869788 0.0076874583 4278930599
0.0074337311 0.031948313 0.0094301701 4278799783
0.0092884675 0.032082669 0.0090214889 4278996389
0.010593779 0.034271114 0.0064667095 4278537134
0.015943408 0.0353573 0.0045327819 4279321003
0.018369287 0.033439692 0.0062657581 4279126948
0.019828692 0.034941748 0.0044331071 4278472363
0.02147663 0.035759632 0.0033147088 4278275758
0.02825319 0.032065228 0.0063576628 4278602923
0.032002412 0.026056446 0.012333928 4279061669
0.035799667 0.020051245 0.018299688 4279127459
0.039429776 0.014731962 0.023546632 4279128223
0.0428847 0.010098051 0.028076479 4279128478
0.046376985 0.0054669268 0.032598231 4279455899
0.049460188 0.0022021346 0.035698686 4280242573
0.052344177 -0.00037908927 0.038087368 4280242573
0.055249467 -0.0029586516 0.040471446 4280373899
0.057713628 -0.0041742288 0.041441269 4280439688
0.060188401 -0.0053889453 0.042408831 4280701829
0.062673792 -0.0066028237 0.04337417 4281029248
0.065887406 -0.0098575205 0.046446383 4281619573
-0.00061858445 0.031947426 0.0077934903 4279392149
0.0012276694 0.032080814 0.0073864139 4278801824
0.0030740239 0.032214299 0.0069793784 4278472874
0.0050954409 0.031660434 0.0072878995 4278406828
0.0069446526 0.031794287 0.0068803621 4278734249
0.008613646 0.032615282 0.0057585272 4278471854
0.0097284578 0.035496574 0.002496596 4278274738
0.011193279 0.037003051 0.00066579971 4278338743
0.013400711 0.035762981 0.0016877321 4278403514
0.01823505 0.031913228 0.0051475517 4278601904
0.019891053 0.032733787 0.0040289578 4278603434
0.021342766 0.034239735 0.0022013704 4278734248
0.023590431 0.03300301 0.0032147621 4278865574
0.025848806 0.031767111 0.0042259083 4279127459
0.029566804 0.025736295 0.010194089 4278668968
0.033332851 0.019709069 0.016151771 4278996389
0.037359267 0.013000708 0.022806237 4278931618
0.040794056 0.0083499476 0.027328873 4279194013
0.04404854 0.0043862909 0.031137293 4279457430
0.046894334 0.0017934218 0.033527594 4279915664
0.04953846 -0.00011391938 0.035208363 4280046478
0.0526499 -0.0033874847 0.038294408 4280242828
0.055331293 -0.0052919015 0.039967135 4280243083
0.057797626 -0.0065116659 0.040933188 4280308873
0.060274582 -0.0077306107 0.041897018 4281160829
0.062998474 -0.009631604 0.043560568 4282143853
0.0029410459 0.03069265 0.0058644689 4279326868
0.0044378564 0.032205451 0.0040296572 4278473893
0.006101504 0.033028185 0.0029105316 4278603433
0.0088647194 0.036739875 -0.0014604512 4278799784
0.0105046 0.037561093 -0.0025741039 4279062433
0.013079766 0.03493866 -0.00013163127 4278997154
0.015867118 0.031629384 0.0030165673 4278865063
0.01810085 0.030387009 0.0040295166 4278406064
0.019756936 0.03120975 0.0029125544 4278538153
0.021606509 0.031344309 0.00250545 4278669479
0.0244634 0.028040437 0.0056386045 4278668713
0.027959393 0.022676066 0.010888325 4278930853
0.031704899 0.016627584 0.016835574 4279062688
0.035079524 0.011956919 0.021359783 4278997408
0.038067229 0.0086629465 0.024464434 4279653779
0.041081619 0.0053710043 0.027563276 4279654033
0.044340152 0.0013945885 0.031360842 4279784848
0.047190405 -0.0012067482 0.033743586 4279719314
0.049839169 -0.0031202883 0.035418388 4279981199
0.052729372 -0.0057184696 0.037792452 4280308619
0.055184592 -0.0069435388 0.03875763 4280505734
0.058112063 -0.0095388368 0.041123696 4281095804
0.0041306093 0.031380288 0.0022058082 4280311169
0.0056144446 0.032896593 0.00037721964 4278539173
0.020210635 0.027615078 0.0039191633 4278930343
0.022862501 0.024989817 0.0063383956 4278669989
0.026340786 0.01960662 0.01157867 4278604454
0.029861804 0.014226589 0.016809659 4278735013
0.033425543 0.0088497587 0.022031317 4278997409
0.035985619 0.0069227256 0.023720309 4279391383
0.038561705 0.0049970001 0.025405807 4279981199
0.0411538 0.0030724816 0.027087891 4280046224
0.044196445 -0.00022820756 0.030172342 4279981199
0.047265749 -0.0035268627 0.033250999 4279784848
0.049693871 -0.0047584698 0.034218684 4279850384
0.052583177 -0.0073654428 0.036586341 4280570504
0.055265844 -0.0092828497 0.038248882 4281684853
0.0064166449 0.034987338 -0.0046808049 4278997918
0.0080539547 0.035812631 -0.005790669 4278407084
0.012251392 0.033997018 -0.0044679791 4278341039
0.0148382 0.031358019 -0.002041243 4278668968
0.017832529 0.027335303 0.0017939857 4278996643
0.020858936 0.023314986 0.0056222794 4278996388
0.024512604 0.017220207 0.01155976 4279193504
0.02801325 0.011821169 0.016781898 4278866083
0.031556625 0.0064252801 0.02199474 4278604198
0.034110665 0.004491169 0.023680033 4279914898
0.036680717 0.0025583506 0.025361823 4280177039
0.038843296 0.0020093806 0.025635289 4279980944
0.041654445 -0.0006124489 0.028013287 4280177549
0.04448691 -0.0032325946 0.030386614 4280373899
0.047560479 -0.0065418854 0.033456117 4280439944
0.049993418 -0.0077774599 0.034419399 4281095548
0.0079227909 0.034315821 -0.0068872827 4279195544
0.010109514 0.033056624 -0.0058741248 4278603943
0.012306977 0.031798273 -0.00486321 4278538408
0.015275974 0.027760522 -0.0010323883 4278472873
0.018469911 0.023030315 0.0034964005 4278865318
0.022483423 0.015524123 0.01083461 4278996388
0.026159249 0.0094113015 0.016752345 4279128223
0.029280502 0.0053849854 0.020549931 4279522710
0.032230243 0.0020552129 0.02363793 4278932893
0.034794264 0.00011526793 0.025316069 4279456663
0.037165403 -0.0011296682 0.026289271 4280177038
0.039124116 -0.00098670647 0.02585849 4280242573
0.04172549 -0.0029236302 0.027528634 4280243338
0.044342846 -0.0048592389 0.029195296 4280571014
0.047195751 -0.0074865669 0.031557642 4281685109
0.010531917 0.029462643 -0.0048583811 4279917704
0.013111573 0.026805539 -0.0024433793 4278604708
0.016282652 0.022058286 0.0020788009 4278866594
0.019683816 0.016616732 0.0072962106 4278473383
0.02332307 0.01048151 0.013207054 4278866593
0.026614338 0.0057432689 0.017702984 4279981198
0.02954163 0.0024008341 0.02078758 4280046733
0.032495629 -0.00093957409 0.023866365 4279718294
0.034858264 -0.0021896325 0.024838109 4279587224
0.037440263 -0.0041347109 0.026507417 4280046479
0.039615549 -0.0046870634 0.026774736 4280177294
0.042010188 -0.0059344545 0.027739616 4280701574
0.017856508 0.014231529 0.0072779018 4279984004
0.020895042 0.010172702 0.01107364 4279523219
0.023965653 0.0061162561 0.014862429 4279850384
0.026870485 0.0027611665 0.017943636 4280177038
0.029802026 -0.0005918853 0.021019034 4280373643
0.032557108 -0.0032444075 0.023389231 4280373644
0.035333555 -0.0058952644 0.025754808 4279848853
0.038131341 -0.0085444227 0.028115725 4280046223
0.040528156 -0.00979615 0.029076794 4280898178
0.042294137 -0.0089538246 0.027944414 4282860403
0.018858038 0.0084705129 0.010346027 4279853444
0.021719016 0.0051011071 0.013428459 4279326614
0.024021838 0.0038375668 0.014406458 4280046733
0.026730623 0.0011727475 0.016780091 4280112013
0.029861368 -0.0028921925 0.020545835 4280439434
0.033024147 -0.0069546849 0.024304604 4280635528
0.035807699 -0.0096137598 0.026662005 4279914134
0.038612597 -0.012271173 0.029014798 4280569739
0.022541098 7.7746809e-06 0.015767433 4279916173
0.024856746 -0.0012591593 0.016739255 4280112524
0.027380539 -0.0032285489 0.018406181 4280112268
0.030320562 -0.0066028014 0.021463193 4280308619
0.033692829 -0.011380799 0.02590674 4281159809
0.036691584 -0.014750592 0.02895098 4282730353
0.022977453 -0.0036954321 0.016696606 4279850639
0.025495172 -0.0056719035 0.01835984 4280047244
0.028226167 -0.0083525777 0.02071536 4280178313
0.030978534 -0.01103159 0.023066254 4280702084
0.034157414 -0.015119113 0.026801666 4281421693
0.023412697 -0.0074115768 0.017616367 4280309384
0.026326463 -0.010809802 0.020662472 4279980433
0.029266942 -0.014205955 0.023702785 4282140283
0.020575128 -0.0063090175 0.01409594 4281557354
0.02365528 -0.010430314 0.017832948 4280440708
0.026573293 -0.013839133 0.02086987 4280308619
0.035224188 -0.037431933 0.014758596 4280508538
0.038446143 -0.041672997 0.018365949 4280244613
0.042741351 -0.04956577 0.025334029 4280440454
0.047095202 -0.057454154 0.032289371 4280833154
0.035282612 -0.03979978 0.014234532 4280311423
0.037889749 -0.041854195 0.015814174 4279653779
0.042177342 -0.049771465 0.022765819 4280112524
0.046312846 -0.0569515 0.029033331 4280505479
0.050288253 -0.063394867 0.034618486 4282340968
0.033147354 -0.041581221 0.013473976 4281031034
0.035543215 -0.042907275 0.014378987 4279718548
0.038360152 -0.045703299 0.016623579 4279391129
0.042237729 -0.052173667 0.022215225 4280242828
0.046163276 -0.058640413 0.027796416 4281421948
0.030618422 -0.041885845 0.011371572 4280767364
0.033402417 -0.04469315 0.013616603 4280243083
0.036005415 -0.046761066 0.015187178 4279521944
0.038829423 -0.049565263 0.017423633 4278604199
0.042505432 -0.05531738 0.022330396 4280308619
0.046224065 -0.061066218 0.027227843 4281750133
0.028101265 -0.042180426 0.0092734527 4281030014
0.030277878 -0.042776726 0.0095071588 4280243339
