# .PCD v0.7 - Point Cloud Data file format
VERSION 0.7
FIELDS x y z rgba
SIZE 4 4 4 4
TYPE F F F U
COUNT 1 1 1 1
WIDTH 783
HEIGHT 1
VIEWPOINT 0 0 0 1 0 0 0
POINTS 783
DATA ascii
0.005896423 -0.0073015243 0.072389416 4281629009
0.007343065 -0.004460007 0.069065057 4279671374
0.010506053 -0.0090685487 0.073754922 4279410763
0.0020499341 -0.0016613826 0.063559294 4281633343
0.0027160831 0.0045862421 0.056606814 4280849985
0.0042647794 0.0067536235 0.054026585 4280915009
0.0067442916 0.0048437938 0.055809058 4280393534
0.010363363 -0.0018192977 0.062670708 4279353389
0.013709825 -0.0071208104 0.068070769 4281177404
0.016601745 -0.010382891 0.071287431 4281112378
0.019520545 -0.013643146 0.07449884 4281046588
0.021267744 -0.012151979 0.072637513 4281177913
0.021960923 -0.006591402 0.066438079 4281503804
0.023317512 -0.0037461221 0.063138612 4279419943
0.026983066 -0.0097160935 0.069233745 4280526388
0.031788576 -0.019749783 0.079650186 4279285559
-0.00017381087 0.0062061399 0.052175146 4280851259
0.0012175515 0.0090616085 0.04887468 4281111614
0.0032073557 0.0091887601 0.048480567 4281697858
0.005354885 0.0086344369 0.048811469 4281437249
0.0081491172 0.0053548887 0.05203918 4280394044
0.010807257 0.0027583838 0.054537702 4280654398
0.013486933 0.00016335398 0.057032045 4280981819
0.015851408 -0.001068376 0.058076456 4280786744
0.017200429 0.001785025 0.054784849 4280983093
0.018006891 0.0066787936 0.049332194 4281048884
0.019657854 0.0081683174 0.047493335 4281633598
0.022730825 0.004215613 0.051422525 4280198459
0.027290177 -0.0051752403 0.061107066 4279479869
0.033215817 -0.01932019 0.075814523 4279544894
-0.0018609576 0.0023744479 0.053558387 4281435973
-0.0010480061 0.0079770572 0.047360659 4280851259
0.00063470379 0.0094722249 0.045518111 4279873078
0.0026163571 0.0095988326 0.045125592 4279612724
0.0047555566 0.0090417527 0.045456506 4279546934
0.0073806383 0.0064342171 0.047954995 4280133178
0.0097016096 0.0051950514 0.049004655 4280851004
0.012033377 0.0039567053 0.0500522 4280916284
0.014039565 0.0040853694 0.049655177 4280981309
0.015533216 0.0062629133 0.047096033 4279744559
0.016663704 0.0098051168 0.043099668 4280461109
0.018472359 0.010615267 0.041987401 4281372223
0.021349173 0.0073306486 0.045191094 4281306944
0.025160825 0.00063659251 0.051982585 4280850493
0.031237511 -0.014238834 0.067380533 4280916284
-0.0025746711 0.0034642071 0.049468555 4281566024
-0.0017712153 0.0090838373 0.043285668 4280980544
-9.899959e-05 0.010582715 0.04144844 4281175873
0.0020264275 0.010022402 0.04178042 4281110594
0.004471872 0.0080905668 0.043554906 4281176384
0.0069335029 0.0061598197 0.045326304 4281110849
0.008923348 0.0062872171 0.044932365 4280915263
0.010913268 0.0064147264 0.044538479 4281111359
0.012903251 0.006542325 0.044144649 4281046333
0.014722593 0.0073551647 0.043031752 4280851259
0.016189862 0.0095377453 0.04048273 4279548719
0.018169265 0.009664949 0.040091202 4279939634
0.020863682 0.0070537142 0.042569943 4279873078
0.024486708 0.0010216311 0.048629567 4280655673
0.030367324 -0.013218686 0.063277543 4281176894
-0.0028478056 0.0025052801 0.047558565 4281435973
-0.0018967055 0.0074536428 0.042110801 4281045314
-0.00037602708 0.0096454583 0.039555509 4280849984
0.001746431 0.0090827756 0.039886385 4280394044
0.0045027994 0.0057676286 0.043097053 4281110594
0.0068066865 0.0045184419 0.04414349 4281241409
0.0087964162 0.0046458244 0.043749563 4281241663
0.010621052 0.0054610074 0.042637099 4281176639
0.012440387 0.0062759817 0.041525699 4281307199
0.014254425 0.0070906729 0.04041547 4281111358
0.015889943 0.0085922964 0.038589355 4281242174
0.018218324 0.0073453113 0.039631341 4281307199
0.020736042 0.0054122061 0.041387234 4281307964
0.024357406 -0.00063978881 0.047432546 4281177403
0.030234283 -0.014926575 0.062047064 4281242683
-0.003559228 0.0036243796 0.043489799 4281567808
-0.0024688765 0.0078965612 0.038775504 4279091758
-0.00080423802 0.0094036795 0.036946308 4279221553
0.0013125651 0.0088384151 0.037276659 4278961199
0.0042195432 0.0048214197 0.041199021 4280394554
0.0065202862 0.0035676062 0.04224281 4281176128
0.0086695254 0.0030047223 0.04256697 4281176638
0.010329213 0.0045120344 0.040739052 4281242428
0.01181059 0.0067084692 0.038196903 4281176893
0.013446268 0.0082144551 0.036373895 4280851259
0.015244316 0.0090304017 0.035268519 4279743793
0.017739914 0.0070891753 0.037023835 4280134964
0.020608433 0.0037709847 0.040204734 4280915518
0.024409203 -0.0029898137 0.046949539 4281242429
0.030468794 -0.018011615 0.062243424 4281242429
-0.0044152811 0.0054547712 0.038714845 4281307709
-0.0028912202 0.0076598413 0.036168605 4281046334
-0.0010803305 0.0084780529 0.035061676 4281632834
0.0010335073 0.0079103447 0.035391022 4279938868
0.0037798956 0.0045725405 0.038587369 4280590649
0.0062342621 0.0026215017 0.040345471 4280915773
0.0085426643 0.001363866 0.041384555 4281176638
0.010037765 0.003567718 0.03884444 4281176638
0.01151685 0.0057705939 0.036307614 4281111869
0.012639519 0.0093561746 0.032345247 4279157039
0.014426891 0.010173637 0.031243607 4279157039
0.017086674 0.0075336434 0.033709574 4278961453
0.020302624 0.0028213039 0.038309675 4278766123
0.02464159 -0.0060350522 0.047175784 4280655163
0.031069821 -0.022487074 0.063857004 4281111359
-0.006080579 0.0016172007 0.040088452 4281566534
-0.0054154657 0.0080030672 0.033238474 4280331314
-0.0034614168 0.008127626 0.032851215 4280721974
-0.0015072636 0.0082522891 0.032464005 4281438269
0.0007548295 0.0069870241 0.033508729 4281177914
0.0031843595 0.0050276443 0.035266824 4280330803
0.0056300536 0.0030694082 0.037021793 4280916029
0.0077679791 0.0025013611 0.03734491 4281176639
0.0094173998 0.0040167645 0.035525572 4281111869
0.010888822 0.0062257871 0.032995094 4280459578
0.0121742 0.0091278553 0.029755099 4281111868
0.014128949 0.0092533566 0.029368361 4281632834
0.016785238 0.0066043176 0.031828497 4280459833
0.019997176 0.0018763766 0.036417961 4280198714
0.024692591 -0.0083956122 0.046685264 4280784959
0.031302646 -0.025593624 0.0640378 4280980289
-0.0070640072 0.00417348 0.03461387 4281566023
-0.0058307089 0.0077871755 0.030645236 4281177659
-0.0038821511 0.007911358 0.030259043 4280658988
-0.0019334815 0.0080356523 0.0298729 4280724268
0.00032279268 0.0067655891 0.030915508 4280333864
0.0027463287 0.0047992244 0.032669906 4280852788
0.0050269067 0.0035309121 0.033707846 4281242428
0.0069946982 0.0036568418 0.033318222 4281111358
0.0084691234 0.0058725253 0.030791936 4281046078
0.010261852 0.0066945218 0.029692339 4280330038
0.01187944 0.0082124658 0.027882693 4280070194
0.014003899 0.0076417327 0.028207125 4281112634
0.016484179 0.0056797192 0.029950814 4280981309
0.019692108 0.00093610585 0.034529682 4280524093
0.024562702 -0.010064736 0.04548268 4280328764
0.031351566 -0.028013363 0.063503928 4280588863
-0.0076167546 0.0046561882 0.031303242 4283202358
-0.0063907914 0.0082803778 0.02734416 4282746419
-0.0043021627 0.0077042393 0.027673386 4283008559
-0.0023589768 0.0078281723 0.027288321 4282877998
4.5072287e-05 0.0058538392 0.029041613 4282551343
0.0023090057 0.0045799538 0.030079512 4281699898
0.0044248141 0.0040059537 0.030403649 4281437503
0.006222818 0.0048302785 0.029304473 4281175873
0.008015532 0.005654335 0.028206406 4281110338
0.0096359588 0.0071767531 0.026399372 4281243194
0.011585046 0.0073017664 0.026013663 4281179698
0.013706531 0.0067286454 0.026337055 4281245233
0.016183484 0.0047598481 0.028076477 4281180974
0.019209702 0.00069841743 0.031936802 4280919089
0.024072038 -0.010338083 0.042865366 4281179189
0.031034024 -0.02904214 0.061553258 4281112123
0.0018724315 0.0043697804 0.027495733 4283331133
0.0041413493 0.0030918941 0.028529452 4283004224
0.0060981624 0.0032170787 0.028141974 4282677058
0.0078909211 0.0040433407 0.027045522 4282350658
0.0095115639 0.0055701509 0.025241686 4282351169
0.011460532 0.0056951568 0.024856003 4282418743
0.013581719 0.0051198155 0.025177825 4282549814
0.016058024 0.0031443611 0.026912484 4282028849
0.019083086 -0.00093033165 0.030763278 4281767218
0.023582103 -0.010602348 0.040254675 4281635128
0.02998524 -0.027267098 0.056784648 4281635128
0.046049401 -0.055989854 0.050617047 4282601834
-0.0062229298 0.0052762851 0.027616663 4285165603
-0.0044253431 0.0061022341 0.026518798 4285296928
-0.0024822727 0.0062261373 0.026133744 4285427489
-0.0080064498 0.0021394119 0.028269777 4285427233
-0.0066365041 0.0050811097 0.025038337 4285886744
-0.0048442371 0.0059089065 0.023943141 4285886234
-0.0027560927 0.0053284019 0.024269253 4285820698
-0.00035599992 0.0033405945 0.026013548 4285886234
0.0019043274 0.0020576492 0.027045632 4285428254
0.004016865 0.0014790148 0.027367147 4285362973
0.0059735514 0.0016041845 0.026979687 4285362718
0.0076023825 0.0031358078 0.025177399 4285428254
0.0092205517 0.0046669021 0.023377256 4285558814
0.011166703 0.0047916993 0.02299211 4285689629
0.013628934 0.0028086007 0.024724644 4285754909
0.016107291 0.00082663447 0.026454058 4285427489
0.019133862 -0.0032611117 0.030294759 4285230883
0.023092873 -0.010857433 0.037650529 4284970018
0.029120928 -0.026171654 0.052735906 4284970018
-0.009940628 -0.00029954314 0.028208213 4284900913
-0.0086992048 0.0033584535 0.024270339 4285755418
-0.0070493557 0.0048950687 0.022466583 4285623584
-0.0052624121 0.0057247356 0.021374008 4285557539
-0.003029529 0.0044353753 0.022408156 4285558049
-0.00063276291 0.0024408028 0.024148179 4285754909
0.0017801784 0.00044729561 0.025885111 4285559324
0.0037339814 0.00057215244 0.025498131 4285493789
0.0056878664 0.00069714338 0.025111226 4285493789
0.0073142312 0.0022329912 0.023312666 4285559324
0.0089299232 0.0037683025 0.021516252 4285755419
0.010704115 0.0045979545 0.020426866 4285754908
0.013160344 0.0026078746 0.022155708 4285820444
0.015981719 -0.00079045445 0.0252889 4285820698
0.019184321 -0.0055960044 0.029823264 4285493278
0.023503752 -0.014625221 0.038566403 4285427489
0.029353371 -0.029283337 0.052913062 4285296674
0.036427014 -0.048158124 0.071447216 4285231138
-0.011040498 0.0030545071 0.022084491 4285032493
-0.0096749291 0.0060133636 0.018866818 4285821209
-0.0080409534 0.0075533837 0.017069401 4285755673
-0.0059749447 0.0069669411 0.017396552 4285689374
-0.0036030263 0.0049640015 0.019136565 4285689629
-0.0010620318 0.0022539347 0.021579849 4285820953
0.0011893138 0.00096158683 0.022607187 4285624604
0.0031349473 0.0010859147 0.022221815 4285558813
0.0050806552 0.0012103543 0.021836514 4285624604
0.0065355748 0.0034576803 0.019338485 4285821719
0.0081407577 0.0049967095 0.017547399 4285689628
0.010073248 0.0051206276 0.017164944 4285557794
0.01252079 0.0031233802 0.018890625 4285623329
0.015158791 0.00042038411 0.02131534 4285689374
0.018526379 -0.0051081032 0.026542358 4285755419
0.023733916 -0.017699353 0.038771823 4285755163
0.030132303 -0.034522735 0.055185724 4285558558
0.036104165 -0.049218953 0.069474131 4285492768
-0.011719942 0.0043057501 0.018105606 4285099048
-0.010222536 0.0065615438 0.015603344 4285559578
-0.0081622861 0.0059724152 0.015929921 4285756183
-0.0060965829 0.0053837374 0.016255498 4285886999
-0.0037253052 0.0033741519 0.017990755 4285886998
-0.0014905818 0.0020761862 0.019018089 4285755928
0.00059952587 0.0014893711 0.019339053 4285558814
0.0023788959 0.002323322 0.01825157 4285558814
0.004152976 0.0031570643 0.017165156 4285558813
0.0057583191 0.0047003403 0.015377251 4285690393
0.0075191334 0.0055334046 0.014293664 4285887254
0.0094434544 0.0056567863 0.013912822 4285886744
0.011882294 0.0036524311 0.015635295 4285821209
0.014337271 0.0016491786 0.01735471 4285821208
0.01786948 -0.0046066269 0.023271158 4285886488
0.023424817 -0.018655717 0.036872625 4285820699
0.030362902 -0.037658058 0.055345781 4285558303
0.035966568 -0.050983489 0.068202876 4285558049
-0.011980493 0.0034343079 0.016257232 4285230118
-0.01048537 0.0056964904 0.013760332 4285493533
-0.0084281079 0.0051049516 0.01408586 4285624349
-0.0063653775 0.0045138672 0.014410385 4285623838
-0.0041472986 0.0032103285 0.015437673 4285623838
-0.0020709783 0.002620317 0.01575966 4285558558
-0.00014445186 0.0027432963 0.015377983 4285559069
0.0019400716 0.002154015 0.015698491 4285559069
0.0035482384 0.0037017465 0.013913191 4285558814
0.0053090267 0.0045369342 0.012831111 4285624349
0.0068985634 0.0060837045 0.011049659 4285690138
0.0091519877 0.0047832206 0.012070467 4285820953
0.011416197 0.0034834966 0.013089268 4285820953
0.013691146 0.002184622 0.014105982 4285689884
0.017213631 -0.0040915757 0.020009734 4285623838
0.023116095 -0.019607358 0.03497684 4285558813
0.030228747 -0.039380297 0.054104965 4285493024
0.035459571 -0.051326439 0.06553819 4285493024
-0.011962645 0.0011359677 0.015820852 4285295908
-0.010464471 0.0034049675 0.013328173 4285624348
-0.0085491799 0.0035267696 0.01294838 4285821209
-0.0064867549 0.00293345 0.013271325 4285755418
-0.004418876 0.0023405775 0.013593265 4285689884
-0.0020407438 0.00031833351 0.015317473 4285624349
-0.00026674196 0.0011561736 0.01423419 4285558814
0.001659736 0.0012792572 0.013852595 4285559068
0.0031049885 0.0035456195 0.011370947 4285558813
0.0048604608 0.0043826327 0.010291588 4285558558
0.0066106319 0.005219385 0.0092133479 4285558303
0.008860901 0.0039143041 0.010231529 4285558303
0.011121951 0.002609998 0.011247708 4285558559
0.013741411 -0.0001205951 0.013656563 4285558814
0.017441407 -0.0071298555 0.020242332 4285493534
0.023166114 -0.021980636 0.034477063 4285493533
0.030458372 -0.042528287 0.054255966 4285493533
0.035322376 -0.053085878 0.064270601 4285427744
-0.01236159 0.0009874925 0.0132734 4285493533
-0.011009902 0.0039805248 0.010084412 4285755674
-0.0091027841 0.0041017979 0.0097062299 4285821208
-0.0070486851 0.0035056844 0.010029233 4286018069
-0.0048396029 0.0021928027 0.011051741 4285887253
-0.0026197024 0.00088071078 0.012072193 4285624349
-0.00038898736 -0.00043061376 0.013090627 4285558813
0.0015373528 -0.00030757487 0.012709038 4285559068
0.003143236 0.0012488142 0.010930625 4285624604
0.0045755506 0.0035210177 0.0084565403 4285689629
0.0063230731 0.0043597892 0.007380438 4285821208
0.0087384842 0.0023340359 0.0090928311 4285886999
0.010999054 0.0010252893 0.010105847 4285689883
0.013791356 -0.0024298653 0.013204154 4285558813
0.017844852 -0.01089216 0.021164004 4285493789
0.023931894 -0.027219623 0.036753256 4285493789
0.030505631 -0.044969514 0.053706627 4285493789
0.034447692 -0.051984794 0.060228556 4285361953
-0.014263969 -0.0014342889 0.013216738 4284967213
-0.013037134 0.0022884607 0.0093303332 4285559323
-0.011554271 0.0045695677 0.0068504391 4285493023
-0.0096553117 0.0046903044 0.0064738607 4285492003
-0.0074628741 0.0033718497 0.0074963374 4285623583
-0.0049608573 0.00061516464 0.0099147102 4285624093
-0.0027414337 -0.0007013604 0.010931995 4285689883
-0.00066592917 -0.0012979805 0.011249362 4285558814
0.0011001788 -0.00045611709 0.010170914 4285558813
0.0028610043 0.00038547814 0.0090936357 4285624604
0.0042910166 0.0026641116 0.0066248765 4285755418
0.0062013417 0.0027864501 0.0062466981 4285821208
0.0082798488 0.0021906197 0.0065638353 4285886744
0.010876197 -0.00055912137 0.008964194 4285887253
0.013840985 -0.0047432631 0.012748765 4285755929
0.018247306 -0.014667466 0.022076393 4285493533
0.024338294 -0.031045176 0.037627511 4285493533
0.030734092 -0.048132256 0.05384694 4285493534
0.033942811 -0.05230023 0.057583611 4285427745
-0.015199732 0.0013193935 0.0078764614 4285033004
-0.014126744 0.0057744831 0.0033017034 4285756694
-0.012379922 0.0066165887 0.0022282405 4285887509
-0.010350652 0.0060144067 0.0025527654 4285624093
-0.0080228634 0.0039689764 0.0042721061 4285689883
-0.0055297017 0.0012029484 0.0066857324 4285887509
-0.0034706555 0.00060295314 0.0070046489 4285624603
-0.0014061853 3.46452e-06 0.0073225261 4285558813
0.00050649047 0.00012561679 0.0069436361 4285558813
0.0022593141 0.00096888095 0.005869553 4285690393
0.0038442463 0.0025328025 0.0041018524 4285689628
0.0057490803 0.002654776 0.003724749 4285492258
0.0078219213 0.00205639 0.004041391 4285557794
0.010412082 -0.0007025376 0.0064364714 4285623838
0.013716985 -0.0063406155 0.01159782 4285558813
0.018296756 -0.017015681 0.021595297 4285558814
0.025101036 -0.036323242 0.039875537 4285558814
0.030599188 -0.04986424 0.052599099 4285493023
-0.016676012 0.0069988593 -0.00023832812 4285493533
-0.015213955 0.0092917122 -0.0027045091 4285624349
-0.013344843 0.0094104148 -0.0030752686 4285821719
-0.011188257 0.0080807135 -0.0020522389 4285953043
-0.0087281391 0.005303666 0.00036134475 4285755928
-0.0062465109 0.0025281459 0.0027707152 4285624604
-0.0040467791 0.0012015179 0.0037854321 4285558814
-0.0021450408 0.0013228506 0.0034086171 4285493278
-0.00040028989 0.0021676719 0.0023376707 4285559069
0.001498919 0.0022890493 0.0019615057 4285624859
0.0030733384 0.0038566887 0.00019912685 4285888019
0.0049673207 0.0039779693 -0.00017582549 4285756184
0.0070291348 0.0033766553 0.00014136246 4285755674
0.0097782277 -0.00011435896 0.0032238145 4285690393
0.01341987 -0.0072153211 0.0097560827 4285821463
0.018697545 -0.020812444 0.022492217 4285821464
0.025326576 -0.039456986 0.040038008 4285558558
0.03046431 -0.051595882 0.051351506 4285492769
-0.019334886 0.0089698136 -0.0044670398 4285296164
-0.018284354 0.013449673 -0.0090179741 4285558813
-0.016713228 0.015020467 -0.010777211 4285558304
-0.014448527 0.012957558 -0.0090552457 4285623584
-0.012024134 0.010169338 -0.0066411546 4285623839
-0.0095782168 0.0073826015 -0.0042312508 4285558303
-0.0072596632 0.005323492 -0.0025197668 4285558814
-0.0049249381 0.0032654703 -0.00081136188 4285558813
-0.0030367263 0.0033859238 -0.0011855115 4285559068
-0.0014622472 0.0049576983 -0.0029448429 4285493278
-5.7980418e-05 0.0072543025 -0.0053940034 4285493278
0.0016548 0.0080995001 -0.0064568282 4285624604
0.0038570799 0.0067692325 -0.005445498 4285755673
0.0064053684 0.0039899275 -0.0030552121 4285755928
0.009315718 -0.00023733824 0.00071081374 4285624603
0.013123129 -0.0080853105 0.0079177339 4285624348
0.018746026 -0.023173288 0.022002023 4285558558
0.025551466 -0.042599283 0.040194377 4285558558
0.029967446 -0.051879123 0.048728485 4285493024
-0.02104355 0.016187463 -0.013922742 4285361953
-0.019753661 0.019220155 -0.017067239 4285755929
-0.017933127 0.019335631 -0.017428467 4285952533
-0.015690465 0.017264724 -0.015707005 4285952534
-0.013001632 0.013009008 -0.011907676 4285887253
-0.010572601 0.010212407 -0.0095009292 4285624348
-0.0084194355 0.0088738985 -0.0084835682 4285624349
-0.0062554814 0.0075362325 -0.0074683111 4285559069
-0.0042347834 0.00692733 -0.0071466537 4285559324
-0.0028355718 0.0092300586 -0.009590039 4285559069
-0.0016117729 0.012259554 -0.012720691 4285558814
-8.5167587e-05 0.013832882 -0.014467131 4285624093
0.0024193861 0.011041891 -0.012074757 4285558303
0.0052803196 0.0067980997 -0.0083087506 4285558303
0.0085136704 0.0011026934 -0.0031723243 4285558558
0.012653947 -0.0082237646 0.0053949244 4285493789
0.018794194 -0.025538221 0.02150888 4285493789
0.025597529 -0.04502359 0.039657846 4285493789
0.029652126 -0.052879453 0.046798293 4285493534
-0.02311923 0.015295602 -0.015340838 4284967469
-0.022218276 0.020532083 -0.020563219 4285624349
-0.020678964 0.022109509 -0.022309743 4285821209
-0.018874627 0.022223935 -0.022667777 4285689373
-0.016508188 0.019414335 -0.020255275 4285886489
-0.013977047 0.015875377 -0.017154884 4285952533
-0.011710741 0.013799608 -0.015442825 4285690139
-0.0095768087 0.012455508 -0.014424959 4285624604
-0.007734485 0.012572892 -0.014790116 4285559069
-0.0058920756 0.012690395 -0.015155209 4285559069
-0.0046758465 0.015728056 -0.018277969 4285624604
-0.0036402047 0.019494295 -0.022085305 4285821464
-0.0014978498 0.01815125 -0.021068646 4285952533
0.0011490583 0.014620557 -0.017990541 4285886999
0.0043246076 0.0089037754 -0.012855743 4285755674
0.0075430721 0.0031897798 -0.007729332 4285624858
0.012185488 -0.0083531365 0.0028787272 4285559069
0.019017361 -0.028636105 0.021698525 4285559069
0.025821278 -0.048180662 0.039803576 4285559069
0.02933717 -0.053874984 0.044871498 4285427743
-0.023881998 0.017460026 -0.019891636 4285098284
-0.022728775 0.021243598 -0.023715001 4285755673
-0.02146725 0.024292011 -0.02684091 4285623584
-0.019538779 0.023672171 -0.026504721 4285557793
-0.017324183 0.021586299 -0.024787445 4285623584
-0.014807407 0.018035434 -0.021692332 4285755419
-0.012846496 0.017417986 -0.021362331 4285690138
-0.010731772 0.01606822 -0.020343862 4285558813
-0.0089083239 0.016184397 -0.020705285 4285559069
-0.0069310889 0.015568316 -0.020378277 4285690394
-0.0058867671 0.019345954 -0.024179311 4285690138
-0.0045510195 0.021657933 -0.026600361 4285821208
-0.0027460419 0.021773364 -0.026957802 4285689373
-0.00011887029 0.018230435 -0.023883902 4285821209
0.0028693452 0.013226271 -0.019443758 4285886998
0.0062346533 0.0067619197 -0.013640596 4285624093
0.011545271 -0.0077421889 -0.00031559938 4285624093
0.019239862 -0.031742446 0.021882014 4285624093
0.025688725 -0.04988452 0.038575962 4285624093
0.028661607 -0.053404532 0.041582003 4285361953
-0.024643037 0.01964676 -0.02442636 4285493278
-0.02323826 0.021968596 -0.026857058 4285756438
-0.021849398 0.024289493 -0.029284468 4285887508
-0.020064052 0.024402671 -0.029638754 4285821209
-0.017998289 0.02304513 -0.028614111 4285821208
-0.015493196 0.019482553 -0.025524791 4285887508
-0.013397779 0.018127061 -0.024505829 4285690139
-0.011439759 0.01750733 -0.024176804 4285624349
-0.0096271597 0.017622795 -0.024536092 4285558814
-0.0078144856 0.017738383 -0.024895305 4285690139
-0.0066266134 0.020791765 -0.027999472 4285821209
-0.005301211 0.023109645 -0.030413626 4285623584
-0.0033455007 0.022490319 -0.030083733 4285557793
-0.00089161098 0.019669741 -0.027700812 4285623583
0.002084557 0.014649443 -0.023269646 4285689629
0.0057766996 0.0066974647 -0.016111435 4285624093
0.011422981 -0.0093178824 -0.0014509489 4285624093
0.019461719 -0.03485731 0.022059428 4285624094
0.025556201 -0.051588051 0.037348591 4285624093
0.02816741 -0.053653315 0.038983725 4285361698
-0.025143806 0.020379178 -0.027565066 4285493533
-0.023614708 0.02196892 -0.029299906 4285559069
-0.02223083 0.024296101 -0.031721525 4285690138
-0.020450976 0.024408922 -0.032074731 4285821209
-0.018391017 0.023046564 -0.031052146 4285755674
-0.016034942 0.020210125 -0.028657032 4285690139
-0.013948027 0.018849682 -0.027639646 4285624349
-0.012146357 0.018964354 -0.027996834 4285624349
-0.010495301 0.019816063 -0.029039707 4285624349
-0.0085427761 0.019194003 -0.028711054 4285624349
-0.007209029 0.021518871 -0.031122085 4285953043
-0.0055738166 0.022369929 -0.032161545 4285886999
-0.0037824959 0.022484474 -0.03251629 4285820954
-0.0014988631 0.02039082 -0.030821707 4285820953
0.0014679283 0.015354615 -0.02640008 4285755928
0.0054889061 0.0059063286 -0.017893655 4285690138
0.011644956 -0.01236441 -0.0012230992 4285690138
0.019857703 -0.038716033 0.022911618 4285755928
0.0254237 -0.053291254 0.03612145 4285690138
0.027673939 -0.053893007 0.03639207 4285361698
-0.02551439 0.020384558 -0.030005613 4285559069
-0.023990449 0.021978386 -0.03173624 4285559068
-0.022342626 0.02283141 -0.032777347 4285624094
-0.020562891 0.022944223 -0.03313053 4285558559
-0.018363591 0.020837594 -0.031424854 4285624094
-0.016148139 0.018732157 -0.029722333 4285624349
-0.014206875 0.0181068 -0.029393282 4285624349
-0.012408018 0.018221255 -0.029749945 4285559068
-0.010759607 0.01907504 -0.030790703 4285558813
-0.0091164745 0.019928545 -0.031830296 4285624349
-0.0074786171 0.020781841 -0.032868754 4285624349
-0.0060046129 0.022373542 -0.034588628 4285690139
-0.0040575527 0.021749269 -0.034260277 4285821208
-0.0019411631 0.020387158 -0.033251423 4285690138
0.0011855364 0.014596999 -0.028158834 4285624859
0.0058785565 0.0021680295 -0.016950766 4285559068
0.012726016 -0.019108452 0.0023981563 4285624859
0.020427316 -0.043325327 0.02443392 4285624859
0.024759321 -0.052781746 0.032858018 4285559068
0.026821217 -0.052648984 0.032450359 4285427490
-0.02716111 0.017314881 -0.029336443 4284901423
-0.026013229 0.021141779 -0.033126455 4285558813
-0.024365481 0.021996874 -0.034166005 4285755673
-0.022588667 0.022109382 -0.0345187 4285821208
-0.02053779 0.020737585 -0.033500943 4285820953
-0.018476117 0.019366536 -0.032485206 4285624093
-0.016403627 0.017996326 -0.031471573 4285624094
-0.014465343 0.01736863 -0.031143598 4285624349
-0.012669306 0.017482903 -0.031499706 4285624859
-0.011324249 0.019821368 -0.033903375 4285559068
-0.009689115 0.020676553 -0.03493977 4285558813
-0.0080592744 0.021531541 -0.03597508 4285558558
-0.0062763207 0.021645442 -0.036328252 4285558559
-0.0044933073 0.02175945 -0.036681358 4285558558
-0.0023827478 0.020392537 -0.035674561 4285558814
0.00073709711 0.014584407 -0.030593576 4285493534
0.0060981065 -0.00084299594 -0.016696068 4285493534
0.013632927 -0.025143005 0.0053190552 4285558814
0.020646688 -0.046472281 0.024588211 4285558814
0.024450259 -0.053738043 0.030958857 4285493534
0.026149694 -0.05212646 0.029198308 4285361698
-0.027651567 0.018075068 -0.032457065 4285493279
-0.026253451 0.020422608 -0.034867123 4285624604
-0.024739798 0.022024464 -0.036589213 4285952533
-0.022834342 0.021392036 -0.036256682 4285952533
-0.020786617 0.020015642 -0.035241548 4286018323
-0.018588591 0.017895769 -0.033545356 4285886743
-0.016374428 0.015777066 -0.031852324 4285689883
-0.014433775 0.015147269 -0.031526413 4285624349
-0.01248768 0.014517963 -0.031201541 4285624604
-0.010986719 0.016119838 -0.032920577 4285624604
-0.0098021142 0.019207887 -0.035998229 4285624348
-0.0083277822 0.020808294 -0.037711829 4285755418
-0.0067058615 0.021665052 -0.038743813 4285821209
-0.0046065524 0.020292945 -0.037738167 4285755418
-0.0024964735 0.018921606 -0.036734525 4285558813
0.0009543635 0.011610791 -0.030310648 4285493534
0.006485939 -0.0046049356 -0.015770212 4285493534
0.014366217 -0.030461483 0.0075444276 4285558813
0.020691112 -0.048885651 0.02406016 4285558813
0.023610689 -0.052464016 0.027036108 4285427999
0.025658872 -0.052332141 0.026631169 4285296419
-0.027889121 0.017354209 -0.034199715 4285493279
-0.026621912 0.020455245 -0.037288032 4285493023
-0.025113415 0.022061188 -0.039005909 4285689374
-0.023079645 0.020679358 -0.037991304 4285623584
-0.021035064 0.019298382 -0.036978792 4285755164
-0.01897968 0.017918196 -0.035968341 4285886998
-0.016771492 0.015792493 -0.034278948 4285689884
-0.014981169 0.015906282 -0.034634013 4285624349
-0.012896076 0.014528312 -0.033629216 4285624604
-0.011400267 0.01613418 -0.035343964 4285624604
-0.010067791 0.018485136 -0.037735384 4285690138
-0.0087512955 0.02083512 -0.040123526 4285821464
-0.0069766492 0.020948473 -0.040475063 4285952278
-0.0047197714 0.018826716 -0.038794778 4285952789
-0.0022833683 0.015961155 -0.036440834 4285821208
0.0010049008 0.009373378 -0.030710066 4285689629
0.0067040063 -0.0076351687 -0.015529362 4285559068
0.014754951 -0.034312867 0.0084039001 4285689629
0.020735219 -0.051303111 0.023529164 4285689629
0.023479667 -0.054148294 0.025822598 4285427999
0.025348231 -0.053272538 0.024744168 4285164583
-0.028629374 0.019635987 -0.038669243 4285558814
-0.02711812 0.02124631 -0.040384483 4285690394
-0.025617447 0.022856116 -0.042097587 4285558048
-0.02372596 0.022218358 -0.041765496 4285557794
-0.021556083 0.020083465 -0.040073577 4285689375
-0.019370053 0.017949674 -0.038384736 4285755419
-0.017309692 0.016565531 -0.03737843 4285755419
-0.015527535 0.016678769 -0.037731897 4285624349
-0.013598111 0.016043972 -0.037406925 4285624349
-0.011962965 0.016905628 -0.038438611 4285690138
-0.010485608 0.018514819 -0.040146369 4285755419
-0.009018898 0.020123433 -0.041851945 4285754909
-0.0070891865 0.019489158 -0.041526727 4285557793
-0.0046723969 0.016613461 -0.039175473 4285755164
-0.0020709075 0.012992151 -0.036153246 4285886743
0.0015528575 0.0048910156 -0.029088575 4285624093
0.0072586052 -0.012167469 -0.013946435 4285624093
0.014971424 -0.037430517 0.0085805012 4285755418
0.020257201 -0.051485397 0.020976178 4285624093
0.02246559 -0.052100949 0.021246865 4285493024
0.024320778 -0.051223867 0.020172693 4284901933
-0.029367927 0.021940026 -0.04312272 4285624349
-0.027741563 0.022802364 -0.044151675 4285887508
-0.026120421 0.023664501 -0.045179494 4285821719
-0.024370898 0.023775239 -0.045526806 4285756184
-0.022212368 0.021633033 -0.043837506 4285887254
-0.02003767 0.019491944 -0.04215128 4285887509
-0.017988484 0.018102657 -0.041145969 4285624348
-0.016361501 0.018965758 -0.042174581 4285624349
-0.014445771 0.018327881 -0.041848533 4285624349
-0.012674283 0.018440668 -0.042199712 4285689883
-0.011055093 0.019303624 -0.043226518 4285887253
-0.0094411746 0.020166289 -0.044252172 4285623584
-0.0073594116 0.018779762 -0.043252811 4285492258
-0.0054272823 0.018143538 -0.042929631 4285558304
-0.0026744269 0.01376123 -0.039239626 4285558558
0.0012707748 0.0041370392 -0.030844711 4285624349
0.0073066093 -0.014470167 -0.014393515 4285624349
0.014845058 -0.039059088 0.0074070496 4285558558
0.020127423 -0.053155795 0.019772638 4285624349
0.02215904 -0.053025119 0.019370865 4285427489
0.023832425 -0.051397696 0.01762842 4284901678
-0.031354737 0.021140229 -0.044494536 4285296163
-0.029853892 0.022758536 -0.046201315 4285558814
-0.028107401 0.022868834 -0.046548206 4285493024
-0.026360806 0.022979252 -0.046895038 4285493023
-0.024614085 0.023089793 -0.0472418 4285558813
-0.02245887 0.020940822 -0.045556702 4285558814
-0.020565111 0.020299066 -0.045228194 4285493023
-0.018665906 0.019657712 -0.044900663 4285559069
-0.016905431 0.019769553 -0.045249835 4285558813
-0.015144866 0.019881543 -0.045598928 4285558558
-0.013533752 0.020746034 -0.046622623 4285558813
-0.011927903 0.021610267 -0.04764514 4285953044
-0.010017611 0.020970237 -0.047319416 4285887253
-0.0081018917 0.020330634 -0.046994634 4285821464
-0.0060205646 0.018939834 -0.045998402 4285821464
-0.0031139962 0.013792239 -0.041644301 4285821463
0.0013201982 0.0018850937 -0.031254604 4285755674
0.0078590438 -0.019030496 -0.012830785 4285755674
0.015402406 -0.043691359 0.0089153554 4285821463
0.019824069 -0.054075018 0.01789942 4285755674
0.021500301 -0.052443214 0.016159598 4285427489
0.02352374 -0.052312933 0.015759541 4284966959
-0.031218883 0.018187046 -0.044176523 4285229609
-0.02971248 0.019810084 -0.045881175 4285230374
-0.027960774 0.019920696 -0.046229113 4285295654
-0.026339564 0.020787191 -0.047253717 4285295654
-0.024457019 0.020142294 -0.046924789 4285427744
-0.022433061 0.01874245 -0.045921173 4285427233
-0.020675581 0.018853888 -0.046269912 4285493279
-0.019059319 0.019720502 -0.047293227 4285493534
-0.017304327 0.019832011 -0.047641303 4285493278
-0.015549261 0.019943621 -0.047989327 4285493533
-0.013943452 0.020809911 -0.04901031 4285559069
-0.012494944 0.022430379 -0.05070265 4285558813
-0.010902382 0.02329611 -0.051720873 4285624349
-0.0090003572 0.022653423 -0.05139501 4285690138
-0.0069328845 0.021257367 -0.05039927 4285624604
-0.0038783103 0.015339803 -0.045383211 4285559323
0.00087311491 0.0018896461 -0.033676997 4285493789
0.0084101371 -0.023608111 -0.011280524 4285559323
0.01561692 -0.046834528 0.009073643 4285559323
0.019521095 -0.054989532 0.016029678 4285493534
0.021370932 -0.054106362 0.014961311 4285362208
0.023572989 -0.054728776 0.015228488 4284967723
-0.029321481 0.015336476 -0.044214703 4285427233
-0.027559217 0.015447743 -0.044564746 4285492768
-0.025927279 0.016317111 -0.045589868 4285558558
-0.023901213 0.014912892 -0.04459 4285558814
-0.022000153 0.014267083 -0.044266291 4285426978
-0.020232107 0.014379185 -0.044617139 4285426978
-0.019028578 0.017520502 -0.047660101 4285295398
-0.017414872 0.018389259 -0.048681211 4285295398
-0.015659947 0.018500861 -0.049029205 4285361189
-0.013755757 0.017855823 -0.048705686 4285427234
-0.012301698 0.019481014 -0.050395895 4285493023
-0.010858275 0.021105662 -0.052083906 4285493024
-0.0091110878 0.021217227 -0.052430023 4285427488
-0.0072039776 0.020572811 -0.052106764 4285493279
-0.0041535757 0.014637474 -0.047102824 4285427999
0.0010876507 -0.0011196584 -0.033419792 4285427999
0.0091277957 -0.028958604 -0.0090749972 4285427743
0.016001347 -0.050741516 0.0098929759 4285493279
0.01921849 -0.055899359 0.014163313 4285427999
0.020889709 -0.054259084 0.0124309 4285362208
-0.028806869 0.010085069 -0.041886091 4285361189
-0.027031358 0.010197178 -0.042238757 4285492004
-0.025255751 0.010309398 -0.042591367 4285492513
-0.023480024 0.010421738 -0.042943917 4285492513
-0.021568563 0.0097744018 -0.042623885 4285492513
-0.019928265 0.010646798 -0.043648817 4285426213
-0.018575188 0.013037946 -0.046015568 4285558049
-0.017094407 0.01466886 -0.047708102 4285558304
-0.015185263 0.01402184 -0.047387265 4285558304
-0.013270695 0.013375271 -0.047067434 4285492514
-0.011654057 0.014246728 -0.048087254 4285426469
-0.010351423 0.016635247 -0.050443571 4285426723
-0.0087507106 0.01750594 -0.051460054 4285492258
-0.0071552843 0.018376414 -0.052475397 4285361189
-0.0039413348 0.011665523 -0.046817441 4285361444
0.0013015382 -0.0041375086 -0.033168685 4285361188
0.0093405806 -0.032057501 -0.008883547 4285361189
0.016043972 -0.053146265 0.0093718264 4285361189
0.018916249 -0.056804456 0.012300351 4285361188
0.020760735 -0.055917211 0.011236229 4285229608
-0.028543424 0.0063372925 -0.040919241 4285360424
-0.026632596 0.0056873709 -0.040600967 4285492004
-0.024716299 0.0050379187 -0.040283687 4285492259
-0.023060132 0.00591328 -0.041310314 4285492259
-0.021273736 0.0060264021 -0.041664902 4285492258
-0.019625399 0.006901484 -0.042689819 4285492258
-0.017982315 0.0077763908 -0.043713655 4285426214
-0.016344484 0.008651033 -0.044736318 4285558049
-0.014565755 0.0087641552 -0.045089025 4285558048
-0.012638111 0.0081162266 -0.044773404 4285558304
-0.010705046 0.0074687116 -0.044458728 4285623839
-0.009074945 0.0083433799 -0.045479555 4285623839
-0.0076069869 0.009978421 -0.047165886 4285558304
-0.0061496757 0.011612911 -0.048850022 4285492259
-0.0034053102 0.0071643852 -0.045206916 4285623839
0.0018445328 -0.0086840913 -0.031593554 4285623839
0.0092175715 -0.033644937 -0.010027398 4285492258
0.015916038 -0.054795258 0.0081836516 4285492258
0.018441459 -0.056945167 0.0097772377 4285689374
0.020456197 -0.056815587 0.0093787992 4285426723
-0.029706318 0.00016850233 -0.037589841 4285032239
-0.02803174 0.0010468587 -0.038618769 4285360423
-0.026362401 0.0019250363 -0.039646618 4285426468
-0.0244384 0.0012738258 -0.039332461 4285492003
-0.023039419 0.0036806613 -0.041698873 4285426468
-0.021115202 0.0030297339 -0.041384619 4285426469
-0.019461486 0.0039073452 -0.042408995 4285426468
-0.017531719 0.003256999 -0.042095672 4285492259
-0.016026486 0.0048982129 -0.043786593 4285492004
-0.014239889 0.0050118119 -0.04414089 4285558049
-0.012453195 0.0051255375 -0.044495095 4285558049
-0.010515101 0.0044761896 -0.044183083 4285492258
-0.0087256022 0.00459034 -0.044537686 4285492259
-0.0070927329 0.0054674447 -0.045557309 4285557538
-0.0054651573 0.0063443184 -0.046575796 4285557538
-0.0027085841 0.0018834397 -0.042944822 4285492004
0.0022214875 -0.012485676 -0.030694354 4285492259
0.0090945959 -0.035232045 -0.011171018 4285492004
0.015447974 -0.054919936 0.0056707649 4285492004
0.018312868 -0.058600448 0.0085845748 4285492004
0.019976607 -0.056947596 0.0068633901 4285228844
-0.029696722 -0.0020776391 -0.03798566 4285163563
-0.028019432 -0.0011969283 -0.039013516 4285229863
-0.026220296 -0.0010833591 -0.039370909 4285294889
-0.024550814 -0.00020291656 -0.040397041 4285426213
-0.022886571 0.00067733973 -0.041422106 4285426213
-0.021092433 0.00079095364 -0.041778233 4285426213
-0.019298214 0.00090467185 -0.0421343 4285426213
-0.017363418 0.00025241822 -0.041823559 4285361189
-0.015709486 0.0011325106 -0.042846218 4285426469
-0.014060829 0.0020123124 -0.043867718 4285492259
-0.012268934 0.0021263659 -0.04422297 4285558049
-0.010476973 0.0022405311 -0.044578154 4285492258
-0.0083772466 0.00082437694 -0.043605123 4285492258
-0.0067363419 0.0017042011 -0.044624772 4285492259
-0.0047823116 0.0010540187 -0.044317219 4285557538
-0.0023372695 -0.00188981 -0.042023275 4285492258
0.0024328865 -0.015535623 -0.030466434 4285492258
0.0086371899 -0.035290115 -0.013637268 4285492258
0.014470939 -0.052742936 0.0011818274 4285557539
0.017494004 -0.057199351 0.0047507258 4285426213
0.019497711 -0.057070471 0.0043544816 4285294123
-0.0277589 -0.0049834475 -0.038074609 4285163819
-0.026078817 -0.0041002259 -0.03910137 4285229354
-0.024274353 -0.0039862096 -0.039459735 4285294888
-0.022734348 -0.0023345202 -0.041151442 4285294889
-0.021069977 -0.0014520139 -0.042174798 4285294888
-0.01927321 -0.0013381168 -0.04253136 4285360679
-0.017336044 -0.0019923747 -0.042222749 4285360933
-0.015679423 -0.00110998 -0.043244291 4285426724
-0.014028084 -0.0002277866 -0.044264756 4285492259
-0.012381986 0.00065418333 -0.045284025 4285492514
-0.01059017 0.00076834112 -0.045639183 4285492258
-0.0084909275 -0.00065223128 -0.044669293 4285492258
-0.006849993 0.00022979826 -0.045687329 4285557793
-0.0048962831 -0.00042261183 -0.045381337 4285492259
-0.0024520718 -0.0033752397 -0.043093707 4285492514
0.0019861311 -0.015527166 -0.032886021 4285492258
0.0083475523 -0.036105692 -0.015437116 4285492258
0.013835076 -0.052076451 -0.0019724986 4285492258
0.016848948 -0.056546621 0.0015885618 4285360678
-0.021525804 -0.011522703 -0.035565916 4284900913
-0.019969467 -0.0098654777 -0.037257537 4285032494
-0.018148784 -0.0097500905 -0.037618857 4285098283
-0.016468171 -0.0088640824 -0.038643688 4285164074
-0.014935616 -0.0072080344 -0.040330332 4285229608
-0.013413671 -0.0055525377 -0.042014789 4285295398
-0.011754196 -0.0046674982 -0.04303515 4285492768
-0.010099988 -0.0037827119 -0.044054329 4285493024
-0.0081440471 -0.0044373795 -0.043750629 4285492769
-0.0064950697 -0.0035526901 -0.044768598 4285426724
-0.0046925172 -0.0034374893 -0.045125619 4285361189
-0.0022437796 -0.0063985661 -0.042845339 4285426723
0.0020326898 -0.017816402 -0.033322785 4285426724
0.0080582798 -0.036916591 -0.017233586 4285426724
0.01336984 -0.052165084 -0.0044593536 4285426724
0.016377155 -0.056648739 -0.000906742 4285295143
-0.012909975 -0.020284615 -0.031482358 4284966448
-0.011783689 -0.016305201 -0.035154272 4285164074
-0.010684084 -0.012327373 -0.038820811 4285164329
-0.0091591366 -0.010667078 -0.040502455 4285229864
-0.0071847886 -0.011322752 -0.040204007 4285230118
-0.0053610504 -0.011206314 -0.040565316 4285229863
-0.0038546436 -0.0095467865 -0.042243056 4285229863
-0.0013906844 -0.012515642 -0.039972261 4285230374
0.0027350895 -0.023194283 -0.031133775 4285230119
0.0084362142 -0.040806599 -0.016400104 4285230119
0.013413455 -0.054556958 -0.0049713128 4285229864
0.016422275 -0.059053682 -0.0014286516 4285097773
