# .PCD v0.7 - Point Cloud Data file format
VERSION 0.7
FIELDS x y z rgba
SIZE 4 4 4 4
TYPE F F F U
COUNT 1 1 1 1
WIDTH 975
HEIGHT 1
VIEWPOINT 0 0 0 1 0 0 0
POINTS 975
DATA ascii
-0.018065851 0.029050367 0.022401078 4289014829
-0.016164053 0.029198023 0.021945996 4289472299
-0.014262114 0.029345745 0.021490915 4289603113
-0.01236001 0.029493557 0.021035856 4288358968
-0.010457765 0.029641446 0.020580811 4288424249
-0.0085553788 0.029789412 0.020125786 4287900223
-0.020259488 0.011720695 0.039607607 4287575353
-0.019914042 0.018524699 0.031759113 4288230959
-0.019292857 0.023994707 0.025397787 4288231214
-0.018546972 0.028796699 0.019783294 4289407274
-0.016650584 0.028943889 0.019329468 4290323233
-0.014754035 0.029091164 0.018875657 4289080108
-0.012682371 0.028574372 0.019156555 4288359478
-0.010960482 0.029385954 0.017968083 4287900479
-0.020225089 0.01758045 0.029857626 4287772724
-0.019440871 0.022400707 0.024245357 4287837748
-0.018526863 0.026551146 0.019377036 4289799719
-0.016966786 0.028032055 0.017453847 4289800229
-0.019916672 0.022145718 0.021624995 4286724418
-0.019339997 0.027647384 0.015300686 4288358459
-0.021263871 -0.013408054 0.040323809 4286660414
-0.019416798 -0.014918093 0.038640715 4286987068
-0.018943552 -0.019341279 0.040320955 4287249208
-0.018047955 -0.014359411 0.034796923 4287052604
-0.017027255 -0.01006959 0.030001478 4286921535
-0.018471848 -0.023781855 0.041988604 4287183418
-0.017245885 -0.020167146 0.037910603 4286921789
-0.016046282 -0.016554397 0.033838972 4287117883
-0.018470835 -0.026157472 0.041490398 4287053624
-0.017082278 -0.023225505 0.038136892 4287053113
-0.015714772 -0.020295035 0.034788445 4287118393
-0.014368322 -0.017366108 0.031445108 4287314744
-0.01320992 -0.013745423 0.0273917 4287248955
-0.01878247 -0.0271446 0.039556906 4286857784
-0.017078232 -0.025596272 0.037641428 4286988088
-0.015545901 -0.023352709 0.035013609 4287118393
-0.014193449 -0.020414595 0.031675376 4287183928
-0.012695279 -0.018173534 0.029055918 4287248954
-0.011721179 -0.01384766 0.02430133 4287248188
-0.015700314 -0.025022727 0.033806019 4287183928
-0.014183242 -0.022773717 0.031186828 4287183928
-0.012515344 -0.021223564 0.029283525 4287248699
-0.011196364 -0.018279109 0.025960023 4287444793
-0.0098984689 -0.015336189 0.022641638 4287314234
-0.01585466 -0.026692446 0.03259863 4286922553
-0.014173366 -0.025137011 0.030695317 4287118649
-0.012336176 -0.024282146 0.029504942 4287118139
-0.010842163 -0.022028226 0.026896374 4287052604
-0.0095356032 -0.019075911 0.023582464 4287379514
-0.0084244646 -0.015425835 0.019565182 4286986814
-0.0069857612 -0.013175856 0.016970033 4286594879
-0.012323901 -0.026647199 0.0290114 4287118649
-0.010826759 -0.024386469 0.026406938 4287445813
-0.0091739036 -0.022828575 0.024513921 4287380024
-0.0077056438 -0.020569865 0.02191654 4287314489
-0.0064299665 -0.017611001 0.018616727 4287314488
-0.0051753893 -0.014653672 0.015322046 4287446324
-0.012643922 -0.027607668 0.027100334 4287250483
-0.010980323 -0.026044708 0.025207931 4287249973
-0.0093271844 -0.024482463 0.023318106 4287314233
-0.0076845102 -0.022920866 0.021430833 4287380024
-0.0062289052 -0.020656537 0.018841499 4287641144
-0.0051475652 -0.016986679 0.01484785 4287445558
-0.0094803981 -0.026136044 0.022122497 4287249974
-0.0074900053 -0.025981914 0.021645905 4287053368
-0.0062049739 -0.023004856 0.018356973 4287444793
-0.0049410574 -0.020029332 0.015073163 4287575608
-0.0038799159 -0.016350064 0.011092676 4287379514
-0.002845224 -0.012672734 0.0071185902 4287315509
-0.0078168027 -0.026927073 0.019748354 4287054134
-0.0063575767 -0.024649393 0.017167972 4287380024
-0.0049141385 -0.022372779 0.014591405 4287314233
-0.0036679804 -0.01938979 0.011318492 4287706423
-0.0026270784 -0.015701074 0.0073511116 4287510839
-0.0016126111 -0.012014296 0.0033901464 4287381809
-0.0066860802 -0.025583532 0.015279269 4287184439
-0.0048875809 -0.024720322 0.014106678 4287445049
-0.0034568086 -0.02243809 0.011538172 4287576120
-0.0018579178 -0.020866413 0.0096714962 4287641654
-0.0008292906 -0.017167624 0.0057153329 4287511094
0.00017290935 -0.013470758 0.0017655864 4287316274
-0.0050397888 -0.026359905 0.012921272 4287184438
-0.0032464005 -0.02549487 0.01175165 4287445558
-0.0018256456 -0.023206707 0.0091905054 4287379514
-0.00042070821 -0.020919722 0.0066332687 4287444793
0.00077936798 -0.017922532 0.0033847243 4287511094
0.0017666221 -0.014215823 -0.00055318326 4287381300
-0.005191952 -0.027999159 0.011736101 4287577648
-0.0033984818 -0.027131956 0.010568084 4287249464
-0.0017937273 -0.025551151 0.0087065827 4287313978
-0.00038566068 -0.023257326 0.0061534662 4287576118
0.0010065809 -0.020964619 0.0036042146 4287510583
0.0020000301 -0.017246488 -0.00032695755 4287380023
0.003161151 -0.01424339 -0.0035594758 4287250228
-0.002128806 -0.026467439 0.0068331715 4287511603
-0.00053694472 -0.024883162 0.0049781073 4287642164
0.00085577741 -0.022583876 0.0024336558 4287379769
0.0022326708 -0.020285759 -0.00010688789 4287249464
0.0035937242 -0.017988693 -0.0026435759 4287184439
0.0047423393 -0.01497772 -0.0058664624 4287446834
-0.0026465245 -0.026660737 0.0042715836 4287512878
-0.00087393448 -0.025790598 0.003111979 4287511603
0.00089344382 -0.024920743 0.0019537136 4287380024
0.0024645366 -0.023333464 0.00010701828 4287248954
0.0040251017 -0.02174693 -0.0017370321 4287315254
0.0049859919 -0.018009271 -0.0056438632 4287315764
0.0057213753 -0.013556447 -0.010232138 4287446834
0.00074253231 -0.026541587 0.00078198873 4287250228
0.0025047548 -0.025669809 -0.00037337653 4287249464
0.003874734 -0.023359012 -0.0029023401 4287314488
0.0050326809 -0.020329837 -0.0061143357 4287445558
0.005771827 -0.015863653 -0.010693618 4287445303
0.0066806525 -0.012118865 -0.014579685 4287249718
0.0025446154 -0.02801029 -0.00085668266 4287184693
0.0041110255 -0.026414532 -0.0026956238 4287314998
0.0052749626 -0.023376148 -0.0059024971 4287314744
0.00621913 -0.019617837 -0.0097888475 4287314233
0.0067342743 -0.014418971 -0.015036785 4287511603
0.0037672222 -0.027306329 -0.004547989 4286858039
0.0051249452 -0.024983253 -0.0070641655 4287184439
0.0062684156 -0.021937605 -0.010259495 4287314488
0.0067875125 -0.016723137 -0.015496894 4287381043
0.0047794208 -0.025863964 -0.0089076962 4286792760
0.0061191134 -0.023535606 -0.011414545 4287249208
0.0070412345 -0.019757073 -0.015279164 4287381043
-0.016135361 -0.058760893 0.012467014 4287116608
-0.015969578 -0.061915319 0.01262047 4287575863
-0.014925059 -0.057309184 0.0080553647 4287052860
-0.013912197 -0.052705396 0.0034979228 4286790973
-0.016123865 -0.063589945 0.011409378 4287509564
-0.014915954 -0.059714597 0.0075323973 4287118139
-0.01373443 -0.055841159 0.0036618281 4286987068
-0.016596984 -0.063771576 0.0088432785 4287051839
-0.015069325 -0.061377939 0.006329501 4287379513
-0.01355743 -0.058985408 0.0038195811 4286987068
-0.012061294 -0.056593996 0.0013135914 4286462788
-0.017228503 -0.063195571 0.0056076739 4287445048
-0.015384536 -0.062292654 0.0044514257 4287117629
-0.013710279 -0.060641881 0.0026216935 4286659903
-0.012046486 -0.058991816 0.00079461187 4286790463
-0.010393161 -0.057342459 -0.0010298789 4287313723
-0.015860993 -0.062452096 0.0019029062 4286855488
-0.01386309 -0.062298041 0.0014240276 4286594368
-0.012366038 -0.059893508 -0.0010723881 4286790208
-0.010545466 -0.058989871 -0.0022211336 4287510328
-0.0089023747 -0.057336781 -0.0040398575 4286725183
-0.012685131 -0.060790468 -0.0029359851 4286986559
-0.010528278 -0.061389092 -0.002741864 4287770938
-0.008882273 -0.059731428 -0.0045580156 4286855233
-0.0070720203 -0.058826175 -0.0057024769 4286724164
-0.01283719 -0.062437247 -0.0041268412 4287443774
-0.011019174 -0.061529446 -0.0052717607 4287182398
-0.0093782097 -0.059867855 -0.0070833936 4286790208
-0.007398665 -0.059714731 -0.0075575076 4286593858
-0.005596187 -0.058807794 -0.0086983861 4286593603
-0.0095299259 -0.061507788 -0.0082691992 4286594114
-0.0077248625 -0.060598586 -0.0094091529 4286594114
-0.0059249885 -0.059689675 -0.010547773 4287052094
-0.0043099634 -0.058025319 -0.012349688 4286986559
-0.010024559 -0.061630409 -0.010784612 4286528068
-0.0082247555 -0.060719427 -0.011921723 4286986559
-0.0062533617 -0.060566831 -0.012393818 4286986813
-0.0044612922 -0.059656229 -0.013528843 4286790463
-0.0032206774 -0.056472871 -0.016649701 4286724418
-0.0014469735 -0.055563416 -0.017780136 4287247168
-0.0064046979 -0.062199604 -0.013574363 4286790209
-0.0046125762 -0.061286818 -0.014707767 4286790463
-0.0031894259 -0.058854531 -0.017161448 4287184184
-0.0012285002 -0.058702376 -0.017630745 4288100144
0.00054533035 -0.057790633 -0.018759489 4287445814
-0.0067323633 -0.063069582 -0.015415155 4286659138
-0.004942853 -0.062154841 -0.016546316 4286594113
-0.0033402182 -0.060478251 -0.018335365 4287511604
-0.0013794489 -0.060326111 -0.018804628 4288493353
0.0007683821 -0.060935523 -0.018615834 4287642673
0.0023527071 -0.059259985 -0.020400226 4287118139
-0.0036724433 -0.06133743 -0.02016668 4287445049
-0.0017144829 -0.061185513 -0.020635277 4288099124
-0.0040042363 -0.062191915 -0.021994611 4287246658
0.0090559795 0.027613072 0.0081104096 4282675019
0.011366196 0.02642476 0.0091016199 4283141159
0.0147448 0.021897927 0.013695331 4283206439
0.0043211766 0.028427312 0.0049893558 4281692503
0.0064061396 0.027903447 0.0052610636 4283136823
0.0080844089 0.028721182 0.0040901154 4283531818
0.0097574331 0.029538546 0.0029205233 4283532584
0.012270544 0.027675152 0.0046299025 4283466793
0.01629762 0.021123834 0.011366939 4283402278
0.0022933446 0.026715664 0.0043079928 4282476373
0.0041747577 0.026862444 0.0038583167 4283596334
0.0058530904 0.027682247 0.0026889741 4283728678
0.0071145408 0.029847162 8.2802027e-05 4283730973
0.0087770335 0.030665917 -0.0010826848 4283727913
0.010856539 0.03013966 -0.00081115216 4283793704
0.014010329 0.026253415 0.0030450188 4283858473
0.018494748 0.018338326 0.01119292 4283925794
-0.0046343729 0.028768387 0.0001985617 4282082909
-0.002961576 0.029589599 -0.00096807256 4283268658
-0.00051407889 0.027707422 0.00074673072 4283530799
0.0017517954 0.026502157 0.0017383341 4283727658
0.003627792 0.026648501 0.0012899414 4284056099
0.0048950091 0.028820386 -0.0013127923 4283991074
0.0061463565 0.030991087 -0.0039116181 4283929363
0.0075900592 0.03248594 -0.0057897866 4283862809
0.0096559711 0.031956412 -0.0055166613 4283927833
0.012581557 0.02873016 -0.0023824554 4283928343
0.015966227 0.024157863 0.0021753255 4283927069
0.019825932 0.01824075 0.0081529338 4283990818
-0.0068307891 0.027750799 -0.0011969395 4282543693
-0.0055369139 0.029930925 -0.0038014222 4283077154
-0.0038746372 0.030753501 -0.0049639028 4283272228
-0.0014384873 0.028863834 -0.0032513402 4283469343
0.0010136738 0.026975533 -0.001542598 4283797784
0.003081698 0.026443643 -0.0012718756 4283925793
0.0045468584 0.027944369 -0.0031520166 4283990819
0.0055906512 0.030798653 -0.006461326 4283925283
0.0072374269 0.03162051 -0.0076197311 4283925793
0.0093003623 0.031088589 -0.0073475912 4283925794
0.012222152 0.027851062 -0.0042207204 4283991073
0.014954522 0.025292005 -0.0018134862 4284056098
0.017489495 0.023410812 -0.0001239758 4284056609
0.020040434 0.021530945 0.0015617851 4284056609
0.024399351 0.014246888 0.0089353453 4284055844
-0.010880414 0.02659392 -0.0021455362 4283200828
-0.0090211257 0.026738435 -0.0025903285 4283727914
-0.0075349361 0.028244682 -0.004472591 4283859748
-0.0060592443 0.029750148 -0.0063522309 4283924774
-0.0044021755 0.030574499 -0.0075118318 4283858728
-0.0023612007 0.030038157 -0.007236477 4283860769
7.9624355e-05 0.028142335 -0.0055299252 4283926049
0.0023365766 0.026927656 -0.0045427363 4283925283
0.0039966255 0.027752569 -0.005702801 4284056354
0.0052410252 0.029935898 -0.0082901558 4284056099
0.0070930943 0.030080592 -0.0087326635 4284056609
0.0093662366 0.028867478 -0.0077490453 4284056098
0.012076374 0.02629786 -0.0053431951 4284056353
0.014160346 0.025765518 -0.0050775595 4284056354
0.016031172 0.02591203 -0.005524287 4284056609
0.017902017 0.026058624 -0.0059709586 4283993114
0.020444246 0.024171624 -0.0042880438 4283993624
0.024814084 0.016864344 0.0030649137 4283860768
-0.010843225 0.024364457 -0.0025447998 4283858219
-0.0099000558 0.02792527 -0.0065791011 4283990563
-0.0086105615 0.030118078 -0.009172759 4284060178
-0.0071478523 0.031626895 -0.011046025 4283926303
-0.0051205568 0.031087196 -0.010769119 4283924774
-0.0028935075 0.029865617 -0.0097782118 4283859748
-6.4674765e-05 0.026598336 -0.0066459365 4283927323
0.0017924197 0.026743157 -0.0070898477 4283926048
0.0038519129 0.026206305 -0.0068203844 4284056354
0.0050968304 0.028396243 -0.0094029335 4284056353
0.0071564354 0.027859574 -0.0091333706 4284122144
0.0092214197 0.027323375 -0.0088649765 4284121888
0.011930622 0.024744909 -0.0064654946 4284056098
0.013583042 0.025571836 -0.0076217726 4284056354
0.015011907 0.027078953 -0.0094862431 4284057628
0.016209215 0.029265685 -0.012057032 4283925029
0.018508548 0.028050652 -0.011082641 4283924774
0.02149725 0.024796862 -0.0079878904 4283858983
0.026343733 0.016107693 0.00075643696 4283861023
-0.029867452 -0.023419913 0.049507163 4284639283
-0.010710243 0.014441743 0.005391011 4282149463
-0.01026376 0.020073898 -0.00079661608 4283857964
-0.0098596402 0.025702847 -0.0069740377 4284055844
-0.0089393444 0.029272893 -0.010994606 4284121379
-0.0074789822 0.0307859 -0.012864028 4284059413
-0.0054546557 0.030243749 -0.012588078 4284058904
-0.0032307729 0.029017525 -0.011599716 4284124694
-0.00060255453 0.026423395 -0.0091878166 4284058393
0.0012491159 0.026567785 -0.0096304379 4283990819
0.0031008609 0.026712263 -0.010073013 4284056099
0.0045431107 0.028224375 -0.011937718 4284056353
0.0065970942 0.027685067 -0.01166846 4284121888
0.0088665336 0.026462909 -0.010690601 4284122144
0.011146653 0.025241639 -0.0097151781 4284121888
0.012791205 0.026070138 -0.010867935 4284121888
0.013994325 0.028263804 -0.013435246 4284126223
0.015622979 0.029091237 -0.014584076 4283927578
0.017246323 0.02991838 -0.015731618 4283859493
0.019542478 0.028698802 -0.014759695 4283859238
0.022764036 0.024752572 -0.010968714 4283860768
0.027636942 0.016037036 -0.0022519715 4283927069
-0.029882055 -0.025799189 0.049010865 4282677314
-0.028568026 -0.022189129 0.044903167 4284639793
-0.0089632086 0.013014533 0.0037998557 4283462204
-0.0089029633 0.020038057 -0.0037990753 4283791408
-0.0085237473 0.02568263 -0.0099572819 4284121379
-0.0074323863 0.028575115 -0.013252067 4284055844
-0.0055970065 0.028717961 -0.013691 4284056353
-0.0031796955 0.026800482 -0.011993785 4284055844
-0.00074635819 0.024884302 -0.010300293 4284055844
0.00090595335 0.025715055 -0.011453665 4283990818
0.0021491721 0.027917905 -0.014026019 4283991074
0.0035811029 0.029433582 -0.015884973 4283994134
0.005831372 0.028205445 -0.014905899 4283993113
0.0080923289 0.026978195 -0.013929262 4284059158
0.010576487 0.025066551 -0.012247561 4284056609
0.011785425 0.027267121 -0.014811344 4284056609
0.01319629 0.02878163 -0.016664984 4283991329
0.014376048 0.030980099 -0.019221662 4283927833
0.016209383 0.031123839 -0.019659314 4283928088
0.018494383 0.029899048 -0.01868806 4283993624
0.021246988 0.027306929 -0.016311666 4283993114
0.024714263 0.022664875 -0.011830826 4283925283
0.028686328 0.016658437 -0.0059536994 4283990308
-0.029896948 -0.0281826 0.04851155 4282348874
-0.028579373 -0.024561364 0.04441119 4282547265
-0.027142134 -0.021634776 0.041039079 4284574768
-0.0073049776 0.0045399964 0.0097981971 4283396413
-0.007399343 0.012277476 0.0014959034 4283725108
-0.0071804747 0.018631216 -0.0053676311 4284055844
-0.0064440072 0.022912998 -0.010084531 4284056098
-0.0053571425 0.025813976 -0.013371603 4284056353
-0.0035164692 0.025957292 -0.013811755 4284122399
-0.0014793165 0.025411915 -0.013542049 4284056608
0.00016511604 0.026244236 -0.014691902 4283991584
0.0011991747 0.029141452 -0.017966084 4283992093
0.0026207827 0.030660691 -0.019819297 4283861788
0.004859902 0.02942729 -0.018840851 4283927834
0.0073193945 0.027507007 -0.017158218 4283929619
0.0093701817 0.02696324 -0.01689136 4283926049
0.010996327 0.027794661 -0.018036447 4283990308
0.012617182 0.028625775 -0.019180194 4284056099
0.014012437 0.030143537 -0.021026747 4283990563
0.015843011 0.030287068 -0.021463735 4283991074
0.017899223 0.029744115 -0.021197801 4283990819
0.020645561 0.027142778 -0.018826535 4284056099
0.023413153 0.024543177 -0.016460219 4284056099
0.025501223 0.024002992 -0.016201684 4284056354
0.028303303 0.021406315 -0.01384351 4284056354
0.033037875 0.013327461 -0.0058929753 4283992349
-0.029631276 -0.031960841 0.049452387 4281825359
-0.028304834 -0.02832802 0.045358084 4281891913
-0.027004685 -0.024697129 0.041270159 4282415429
-0.024988811 -0.024541799 0.040786885 4283134528
-0.0061915629 -0.0019016117 0.013628704 4283131979
-0.0058993734 0.0044774227 0.0067623369 4283855668
-0.0056548603 0.010852851 -9.254925e-05 4283791154
-0.005458042 0.017224666 -0.0069359541 4283791663
-0.0047362894 0.021518528 -0.011639404 4284055843
-0.0036592521 0.024427574 -0.014917499 4284121888
-0.0020147935 0.025261976 -0.016065795 4284122399
-0.00037557259 0.026096079 -0.017212765 4283991839
0.00045238063 0.029692281 -0.021186221 4283925793
0.0018663108 0.031215344 -0.023034353 4283858473
0.0038901381 0.030667033 -0.022762801 4283858474
0.0061287843 0.029429296 -0.021787476 4283859749
0.0085902363 0.027502667 -0.020110188 4283925539
0.010423295 0.027646111 -0.020547979 4283925028
0.012473822 0.027100299 -0.020282578 4284055844
0.013869379 0.028622471 -0.022125909 4284056099
0.01592261 0.028077014 -0.02186097 4284121889
0.017981147 0.027532097 -0.021597277 4284121889
0.020729212 0.024922092 -0.019232959 4284056098
0.022575611 0.025067139 -0.019673517 4284056354
0.023955217 0.026588514 -0.021512702 4284056608
0.025324192 0.0281091 -0.02334924 4283928089
0.028114688 0.025502805 -0.020994764 4283795233
0.033339933 0.016023446 -0.01167093 4283794978
-0.029647242 -0.034356948 0.048943862 4282087499
-0.028317239 -0.030712944 0.044856891 4281761353
-0.027013544 -0.027070869 0.040776297 4281892168
-0.025291529 -0.02552155 0.038856275 4282219078
-0.023127358 -0.026063073 0.039091073 4283592254
-0.0058011785 -0.0055960156 0.014595361 4283198024
-0.0047684535 -0.0019735917 0.010580653 4283660338
-0.0041328929 0.0030350238 0.0051539987 4283791408
-0.0039104521 0.0094285086 -0.0016807616 4283791919
-0.003735695 0.015818402 -0.0085040322 4283925794
-0.0036086589 0.022204675 -0.015315819 4284121888
-0.0025494061 0.025121126 -0.018582983 4284122399
-0.0013126992 0.027343057 -0.021139074 4283992094
-0.00029314682 0.030256646 -0.024396647 4283927069
0.00090916455 0.032476075 -0.02694438 4283794214
0.0027154237 0.032617137 -0.027375987 4283793958
0.005358804 0.029989531 -0.024993729 4283861279
0.0078115538 0.028055649 -0.023319297 4283926559
0.010280278 0.026123108 -0.02164861 4283990819
0.01254772 0.02488352 -0.02068324 4284056099
0.01394625 0.026410256 -0.022523958 4284056098
0.015779257 0.026553964 -0.022961535 4284121634
0.017837474 0.026006844 -0.022699399 4284121889
0.020128863 0.0247695 -0.021739472 4284121378
0.021969836 0.024914119 -0.022178736 4284056354
0.02287809 0.02782011 -0.025408899 4283927068
0.024000915 0.030034384 -0.027936772 4283858729
0.025823228 0.030177804 -0.028371384 4283859493
0.029092371 0.026183201 -0.024630871 4283925283
0.034831353 0.015296388 -0.013945822 4283926049
-0.029663522 -0.036757175 0.048432335 4282412368
-0.02832998 -0.033101995 0.044352695 4281695818
-0.02687737 -0.030148078 0.040996529 4281695819
-0.025297772 -0.027894858 0.038361959 4281630793
-0.023432549 -0.027040597 0.037162878 4281957450
-0.021572467 -0.026186604 0.03596504 4282219333
-0.0055918284 -0.0086066835 0.014843749 4283460418
-0.0043703839 -0.005669307 0.011543958 4283725108
-0.0035403781 -0.0013409629 0.0068341754 4283791154
-0.0027421303 0.0029850155 0.0021320656 4283857454
-0.002547048 0.0093961917 -0.0046812762 4283792428
-0.0023996867 0.015803728 -0.01148315 4283858728
-0.0021042675 0.021512222 -0.017568521 4283924008
-0.0014543831 0.025827035 -0.022234861 4284056098
-0.00083629787 0.030139461 -0.02689353 4283993878
0.00036120415 0.032365073 -0.029435191 4283993368
0.002162043 0.032505706 -0.029865507 4283927833
0.0047991723 0.029868839 -0.027488338 4283993624
0.0074575879 0.02723372 -0.025116192 4283991073
0.0099229068 0.025294386 -0.023449667 4283990564
0.011970155 0.024743889 -0.023186732 4283990308
0.013583336 0.025581088 -0.024323698 4283990053
0.015413575 0.025724586 -0.024760613 4283990308
0.017468829 0.025174998 -0.024499374 4284056099
0.019301727 0.025318895 -0.02493678 4284122144
0.020443683 0.027541103 -0.027464464 4284056099
0.021802662 0.029069576 -0.029292107 4283862043
0.02291536 0.031289678 -0.031812668 4283861788
0.024965212 0.030740175 -0.031549834 4283794978
0.027502224 0.028807359 -0.029899677 4283926304
0.031516679 0.022725768 -0.024091577 4283927324
0.036317624 0.014573645 -0.016215863 4283993624
-0.029540274 -0.039863516 0.048634619 4282412878
-0.028200526 -0.036196951 0.044561677 4281695563
-0.026596781 -0.033935394 0.041926108 4281761098
-0.025156524 -0.030973617 0.038579516 4281500233
-0.023586821 -0.028714541 0.0359523 4281566024
-0.021879744 -0.027157459 0.03404247 4281892168
-0.019871566 -0.027002562 0.033561163 4282937924
-0.0055628717 -0.010927055 0.01437878 4284115004
-0.0045203641 -0.0072819702 0.010378098 4283921459
-0.0033193417 -0.0043373816 0.0070898756 4283856179
-0.0021394603 -0.0013942905 0.0038067307 4283791919
-0.0013612509 0.0029433817 -0.00088071451 4283857708
-0.0011935607 0.0093722157 -0.0076726507 4283858474
-0.0012691654 0.016495053 -0.015156535 4283793194
-0.001001332 0.022218969 -0.021222046 4284056608
-0.00077594444 0.027939701 -0.02727739 4284056098
0.00022118911 0.030869141 -0.030516393 4284056353
0.0020219125 0.03100976 -0.030946687 4283990564
0.0046580993 0.028364036 -0.028575882 4283990564
0.0073155724 0.025720088 -0.026210088 4283990819
0.0093518309 0.025166489 -0.025946282 4283991074
0.010742974 0.026701303 -0.027778735 4283991073
0.012342967 0.027539665 -0.028910909 4283993878
0.014381956 0.026986513 -0.028647505 4283993624
0.016875822 0.025043219 -0.02699245 4284057374
0.018703293 0.025186691 -0.027428558 4284056353
0.019840458 0.027415052 -0.029950123 4284056353
0.020728901 0.030337023 -0.033162393 4284057883
0.022066901 0.031868383 -0.034981705 4283928599
0.024346545 0.030621702 -0.034025215 4283993623
0.027118228 0.02798775 -0.031685896 4283993878
0.030397875 0.023967806 -0.027967531 4284057373
0.033709347 0.019950453 -0.024256695 4284056098
0.037798725 0.013855275 -0.018481085 4284056098
-0.027644936 -0.041412298 0.046908081 4281891148
-0.026317324 -0.037735675 0.042846307 4281630794
-0.024868425 -0.034764517 0.039504178 4281108808
-0.02359077 -0.031091545 0.035454534 4281239368
-0.022033658 -0.028826762 0.032835267 4281565769
-0.020181146 -0.027968999 0.031642593 4281826889
-0.018175561 -0.027814243 0.031161955 4281957703
-0.0032838359 -0.0066416375 0.0066349637 4284313649
-0.0021005981 -0.0036895573 0.0033575799 4283855668
-0.00074844435 -0.0014392585 0.00078842789 4283857454
9.7379088e-06 0.0029100515 -0.0038842522 4283857454
0.00054075941 0.0079568513 -0.009251128 4283726129
0.00044061989 0.015099764 -0.016712643 4283791154
0.0002874434 0.022238635 -0.024161406 4283857454
0.00069121644 0.027275771 -0.029497601 4284121634
0.0024997927 0.027416991 -0.029929778 4284187424
0.0047257021 0.026160708 -0.028964577 4284122144
0.0071735941 0.02420672 -0.027303793 4284056863
0.0087816156 0.02504766 -0.028436344 4284056354
0.0099511147 0.027284693 -0.030961098 4283993113
0.011543248 0.028124576 -0.032089714 4283928088
0.013573926 0.027568623 -0.031826016 4283928854
0.016059101 0.025618047 -0.030173765 4283799313
0.018105721 0.025063533 -0.029913731 4283925284
0.019238072 0.027298134 -0.032429256 4284122144
0.020587031 0.028834606 -0.034247916 4284056098
0.021925328 0.030370383 -0.036063999 4284055843
0.024442304 0.028422771 -0.034418985 4284056099
0.027215689 0.02578021 -0.032086637 4284056099
0.030253455 0.022443328 -0.029068854 4284056099
0.03233441 0.021892194 -0.028816497 4283990308
0.034669101 0.020645909 -0.027876165 4284056354
0.037265509 0.018705051 -0.026249718 4284056864
0.041908138 0.011203479 -0.019123856 4284059668
-0.025894266 -0.042254817 0.044469446 4282478158
-0.024728861 -0.03786255 0.039707772 4281434698
-0.023445014 -0.034178201 0.035664819 4281370184
-0.022034813 -0.031201113 0.032338664 4281696329
-0.020490255 -0.028930712 0.029727424 4281630794
-0.018803451 -0.027366314 0.02782912 4282022984
-0.016645115 -0.02791683 0.028058911 4282807108
-0.014644597 -0.027762305 0.027579607 4284704308
-0.0022492893 -0.0052862838 0.0022033043 4283986993
-0.00070678443 -0.0037318915 0.00034049898 4283923498
0.00063266978 -0.0014759302 -0.0022206232 4283988268
0.0017611273 0.0014809407 -0.0054781176 4283791154
0.0020771436 0.0072436519 -0.011528921 4283725619
0.0019498058 0.014406428 -0.018967431 4283791663
0.0019725412 0.020863738 -0.025694858 4284122399
0.0029764585 0.023811299 -0.02892228 4284186913
0.0045844875 0.024654236 -0.030053336 4284121633
0.0066094436 0.024095256 -0.029790206 4284122144
0.0082122386 0.02493798 -0.030919867 4284058393
0.0091605298 0.027881581 -0.03413371 4283924774
0.010744784 0.028723041 -0.035258796 4283859749
0.01276717 0.028164258 -0.034994759 4283793958
0.015468007 0.025506662 -0.032652099 4283926303
0.017508995 0.024949528 -0.03239236 4283991073
0.019095916 0.025791585 -0.033517793 4284056609
0.020677514 0.026633328 -0.034641877 4284056098
0.022488773 0.026775835 -0.035073888 4284056098
0.025012976 0.024822239 -0.033435512 4284121889
0.027072446 0.024267036 -0.03317982 4284056098
0.029623112 0.022315759 -0.031547658 4284056098
0.031207193 0.023158189 -0.032671969 4284056354
0.032785911 0.024000295 -0.033794925 4284056099
0.034359258 0.024842065 -0.034916531 4283928853
0.036941554 0.022893678 -0.033291616 4283862044
0.041589674 0.015368525 -0.026185008 4283795488
-0.024590034 -0.040969152 0.039905213 4281694543
-0.023599673 -0.03585789 0.034450039 4281565768
-0.022188772 -0.03287204 0.031130256 4281761609
-0.020798896 -0.029887702 0.027815586 4281630539
-0.019272249 -0.027612057 0.025213616 4281892168
-0.017440457 -0.026751388 0.024029287 4282350148
-0.00066550449 -0.0060286187 -0.00011046976 4284509998
0.00067710131 -0.003765855 -0.0026674271 4283922989
0.0021988265 -0.0022085309 -0.0045218393 4283791919
0.0029195547 0.0021643452 -0.0091657545 4283857454
0.0034082308 0.0072386302 -0.014499327 4283792173
0.0036568716 0.013013802 -0.020520724 4283726894
0.0040686615 0.018082291 -0.025835771 4283791664
0.0048597828 0.021741562 -0.02975093 4284055843
0.0060461611 0.02399284 -0.032270014 4284121633
0.0072166398 0.026242977 -0.034785226 4284125714
0.0085874237 0.027789339 -0.036602955 4283992858
0.0099475943 0.029335 -0.038418125 4283925539
0.011961702 0.028773338 -0.038153708 4283991839
0.014429439 0.026808286 -0.036507208 4283993113
0.016686311 0.025546305 -0.035555422 4284057373
0.018724306 0.024986841 -0.035296537 4284056099
0.020535467 0.025129244 -0.035728596 4284121634
0.022581398 0.024570607 -0.035471451 4284121633
0.024870066 0.023311526 -0.034526952 4284121889
0.026929211 0.022754125 -0.034272809 4284121889
0.028993629 0.022197239 -0.034019854 4284056098
0.030081663 0.02444208 -0.036514506 4283991328
0.03115372 0.026685733 -0.03900522 4283925794
0.032460492 0.028228374 -0.04080677 4283858728
0.034770101 0.026971532 -0.039866824 4283858983
0.03811438 0.022917796 -0.036193054 4283925539
0.043559935 0.013272639 -0.027059229 4283926558
-0.023305345 -0.039667185 0.035359047 4281825869
-0.022342686 -0.034542676 0.029922048 4281500489
-0.020952102 -0.031549562 0.026613766 4281760078
-0.019582573 -0.028558012 0.023310633 4281760333
-0.017593097 -0.0284045 0.022833852 4281957448
-0.015766356 -0.027541909 0.021652399 4284508469
0.00091326609 -0.0067666136 -0.0024194904 4284118829
0.0022458322 -0.0044979863 -0.0049690511 4283857199
0.0035625398 -0.0022304729 -0.0075147338 4283791919
0.0046633296 0.00074192509 -0.010752335 4283792174
0.0055402294 0.0044186227 -0.014679939 4283792173
0.0055691451 0.010915894 -0.021379208 4283792174
0.0055503137 0.017409548 -0.028066985 4283925538
0.0056944191 0.023194313 -0.034050006 4284055843
0.0062227286 0.027565895 -0.038637631 4284121634
0.0073671974 0.029820614 -0.041141588 4284058648
0.0091516823 0.029960424 -0.041567653 4284059159
0.01137878 0.028691571 -0.040612243 4284124439
0.014064442 0.02601528 -0.038279112 4284124439
0.016091496 0.025452681 -0.038019322 4284056354
0.018123852 0.024890594 -0.037760727 4284055844
0.019697661 0.02573612 -0.038879659 4284056099
0.021969888 0.024471261 -0.037934601 4284121889
0.02401546 0.023910519 -0.037678931 4284055843
0.026306201 0.022647358 -0.03673818 4284055844
0.028122434 0.022790566 -0.037171148 4283990309
0.029203024 0.02504136 -0.039659038 4283991074
0.030019758 0.027993327 -0.042827457 4283928854
0.031316213 0.029539546 -0.044623256 4283860003
0.033361502 0.028979322 -0.04436703 4283858474
0.036691133 0.024911325 -0.040699609 4283924774
0.040827975 0.018741541 -0.034994125 4283990563
0.045534767 0.011173159 -0.027937505 4284057884
-0.023311045 -0.042065043 0.034846142 4282215254
-0.022344407 -0.036924999 0.029419707 4281824594
-0.020795774 -0.034634661 0.026822144 4281760334
-0.019420262 -0.031633895 0.023524078 4281695054
-0.017745685 -0.030057345 0.021638611 4281957194
-0.01608156 -0.028481457 0.019755678 4284574004
0.0020979233 -0.006082911 -0.0061147027 4284182578
0.0034151226 -0.0038088113 -0.00865559 4283921968
0.0049163178 -0.002244141 -0.010498384 4283725874
0.0060019419 0.00073593482 -0.013725713 4283660849
0.0068612136 0.0044222884 -0.017640818 4283791919
0.0066548884 0.011644837 -0.02501096 4283792429
0.0063955002 0.01886335 -0.03236834 4283792173
0.006296169 0.02537059 -0.039021961 4284054824
0.0072279908 0.028339161 -0.042212166 4284121634
0.0087939017 0.029185796 -0.043327987 4284187424
0.011017833 0.027912283 -0.042375058 4284056098
0.013699882 0.025226947 -0.040047634 4284056099
0.015723947 0.024661925 -0.039788783 4284056099
0.017295204 0.025509333 -0.040905535 4283991074
0.018397689 0.027767967 -0.043394133 4283925794
0.020421719 0.027203249 -0.043135036 4283731738
0.022688074 0.025933662 -0.042191781 4283861278
0.025444375 0.023254775 -0.039881617 4283795743
0.027494855 0.022692434 -0.039628606 4283990564
0.028570626 0.024949469 -0.042110454 4284056354
0.029382769 0.027909832 -0.045271203 4284058138
0.030423932 0.030164286 -0.047744617 4284059159
0.032460913 0.029601278 -0.04748809 4284058394
0.035781205 0.025519431 -0.043828286 4284124184
0.039391547 0.020736489 -0.039495699 4284057628
0.043038949 0.015956629 -0.035171892 4284056353
0.049622774 0.0034441277 -0.023387883 4284121633
-0.020640176 -0.037728224 0.027024316 4281300314
-0.019101482 -0.035432052 0.024434166 4281563219
-0.017578524 -0.03313696 0.021847812 4281826380
-0.015908811 -0.031556342 0.019966843 4284704818
0.0036617294 -0.0068082176 -0.0084097469 4284182068
0.0049688704 -0.0045282356 -0.010943225 4283921969
0.0064624548 -0.0029596984 -0.012780846 4283791664
0.007740505 -0.000681784 -0.015307219 4283857454
0.0081722215 0.0044343434 -0.020592511 4283857454
0.007936012 0.011676546 -0.027939007 4283857708
0.0076467358 0.018914677 -0.035272766 4283989544
0.0077355392 0.024730366 -0.041216187 4284121379
0.0090912879 0.026288776 -0.043020405 4284186913
0.010878202 0.026428869 -0.043446973 4284187679
0.0135593 0.023734704 -0.041125901 4284121634
0.015130647 0.024584219 -0.042241104 4284056863
0.01669666 0.025433453 -0.043355003 4283991584
0.017562835 0.028406231 -0.046522513 4283864339
0.019578584 0.027838627 -0.046263039 4283796763
0.022073234 0.025856519 -0.044637352 4283731483
0.024823271 0.023168396 -0.042332251 4283797274
0.026868111 0.022603437 -0.042079531 4283991329
0.027939092 0.024866626 -0.044555262 4284056099
0.028746644 0.02783539 -0.047708333 4284055844
0.03003308 0.029389596 -0.049495153 4283990308
0.032067098 0.02882413 -0.049239513 4284056098
0.035383355 0.024728846 -0.045588598 4284056098
0.038989455 0.019930277 -0.041266475 4284056098
0.042893324 0.014429141 -0.036275115 4284121378
0.049473241 0.0018769763 -0.024519715 4284121124
-0.019411813 -0.036379281 0.022530155 4281299804
-0.017891023 -0.034077857 0.019949282 4281760334
-0.016061399 -0.033208605 0.01877203 4284704563
0.0050210468 -0.0068164654 -0.011391051 4283921713
0.0065175667 -0.0052433051 -0.013226084 4283921968
0.0080035068 -0.0036708377 -0.015058558 4283791919
0.009271495 -0.0013870932 -0.017577482 4283857454
0.0098933876 0.0030310713 -0.022157993 4283857964
0.0096325986 0.010293309 -0.029482139 4283857454
0.0093187429 0.017551512 -0.036793519 4283923499
0.0098239183 0.021960814 -0.041345872 4283988779
0.01117995 0.023523759 -0.043146841 4284121378
0.012748729 0.024375152 -0.044259869 4284187424
0.01453818 0.024515655 -0.044686891 4284056609
0.015870344 0.026077 -0.046481878 4283992858
0.016960561 0.028347805 -0.048957694 4283858729
0.018736701 0.028487571 -0.049381308 4283858219
0.021222655 0.026498171 -0.04775843 4283859238
0.02420303 0.02309107 -0.044776276 4283926049
0.02624223 0.022523489 -0.044523843 4283990564
0.027308393 0.024792913 -0.046993539 4284056099
0.028605819 0.026352229 -0.048779711 4284121888
0.030142451 0.027202109 -0.049884308 4284187679
0.032683849 0.025217745 -0.048274226 4284187169
0.036261898 0.020401552 -0.043956984 4284121124
0.040392712 0.01417229 -0.038294353 4283989288
0.044310723 0.0086547583 -0.033319436 4283857708
0.051428962 -0.0053510927 -0.020244831 4283858218
-0.017884176 -0.036449943 0.019452 4281429089
-0.016051833 -0.035578322 0.018275717 4283655748
0.0067741908 -0.0082457103 -0.012985546 4284573748
0.0082657337 -0.0066684671 -0.014816033 4283988014
0.0097467005 -0.0050919093 -0.016643956 4283989034
0.010587528 -0.0013739914 -0.020529883 4283923243
0.010976832 0.0037696026 -0.025781862 4283856944
0.01046833 0.011764932 -0.033767372 4283857709
0.010772727 0.016902097 -0.038998909 4283858729
0.011260446 0.021323271 -0.043537162 4284055334
0.012385692 0.023603082 -0.046016641 4284121633
0.013495013 0.025881732 -0.048492245 4284056099
0.015045281 0.026734076 -0.049599051 4284059414
0.016359136 0.028298458 -0.051386312 4283927069
0.018129844 0.028437795 -0.051808637 4283925029
0.020136928 0.0278653 -0.051550336 4283925284
0.023105517 0.024446342 -0.048573576 4283991583
0.025375474 0.02316419 -0.047640905 4284056864
0.027411658 0.022594254 -0.047389261 4284121379
0.028959038 0.02344713 -0.048494883 4284121634
0.031499766 0.021456018 -0.046889592 4284186913
0.034561008 0.018044896 -0.043934517 4284187169
0.038413681 0.012504485 -0.038957328 4284121378
0.041793454 0.0083881281 -0.035341129 4283857708
0.045725584 0.0028542317 -0.030382697 4283790899
0.052592479 -0.010484565 -0.018017873 4283790899
0.0083228275 -0.0089579262 -0.015266249 4284249644
0.0095997304 -0.006660331 -0.017777503 4284054823
0.010651108 -0.0036476292 -0.020970155 4283989033
0.011256676 0.00079554692 -0.025526959 4283922734
0.01161547 0.0059521757 -0.030760076 4283856944
0.011719495 0.011821639 -0.036667664 4283857199
0.012221605 0.016257044 -0.041199509 4283792429
0.012246016 0.022120502 -0.047087923 4284055844
0.012904685 0.025835721 -0.050921664 4284056353
0.013536803 0.02954896 -0.054748997 4284057883
0.015065905 0.030401934 -0.055849031 4284058904
0.017056752 0.02982587 -0.055588581 4283992603
0.019525265 0.027822038 -0.053971417 4284058904
0.022487381 0.024391647 -0.051001318 4284058648
0.024993004 0.022390913 -0.049392797 4284121634
0.027758662 0.019678004 -0.047110952 4284186658
0.030298695 0.017680187 -0.045510486 4284120614
0.033353522 0.014257532 -0.042562157 4284054568
0.036939058 0.009411294 -0.038269773 4283922479
0.040561698 0.0045680664 -0.033986095 4283790643
0.043706551 0.001152847 -0.031058975 4283790133
0.046877854 -0.0022601746 -0.028138082 4283790389
0.0092460103 -0.0075098239 -0.019595159 4284707368
0.010295425 -0.0044885427 -0.022780789 4284120359
0.011323635 -0.0014688186 -0.025961272 4283857963
0.01190114 0.0029854067 -0.030501433 4283922734
0.013099026 0.0052838176 -0.032988563 4283857454
0.013400771 0.010451492 -0.038196411 4283792429
0.013442636 0.016333792 -0.044075869 4283858219
0.013216674 0.022930052 -0.050624996 4283989799
0.013626993 0.02737169 -0.055124857 4284056098
0.01469747 0.029660642 -0.057581171 4284122144
0.016685344 0.029082127 -0.057321593 4284122654
0.018914472 0.027787825 -0.056385897 4284122654
0.022347383 0.022913717 -0.052069008 4284121888
0.025334848 0.019474465 -0.049113024 4284121379
0.029080635 0.013890289 -0.044136956 4284121124
0.032129034 0.0104561 -0.041195378 4283989033
0.035453193 0.0063087679 -0.037585802 4283922478
0.038305301 0.0035942867 -0.035330866 4283790389
0.041178558 0.00088162348 -0.033080924 4283724344
0.043558545 -0.00039995834 -0.032180496 4283724343
0.047248408 -0.0052529015 -0.027924184 4283724343
0.010567892 -0.0074866898 -0.022541694 4284315434
0.011602104 -0.0044577383 -0.025717041 4284054313
0.012615107 -0.0014303513 -0.028887248 4283791919
0.013606902 0.0015955009 -0.032052297 4283857199
0.014357626 0.005339589 -0.035891768 4283791919
0.014636811 0.010520916 -0.041082658 4283857454
0.014428511 0.017138232 -0.047621235 4283858219
0.014400236 0.023032732 -0.053470664 4283924264
0.015251365 0.026048077 -0.05660174 4284121633
0.017246854 0.025468029 -0.056345657 4284121633
0.019954961 0.022732794 -0.054063447 4284121633
0.023638001 0.017125942 -0.049085654 4284121634
0.026881285 0.012958832 -0.045466937 4284055078
0.030400127 0.0080763958 -0.041181799 4283923243
0.033463281 0.0046324469 -0.038251936 4283856689
0.036552913 0.0011907183 -0.035328288 4283790899
0.039165612 -0.00081419572 -0.033754837 4283790389
0.041539829 -0.0021006949 -0.032856382 4283724343
0.043667559 -0.0026693381 -0.032631088 4283790389
0.047618147 -0.0082541741 -0.027716383 4283790134
0.01332745 -0.0058634244 -0.027285585 4284054058
0.014547538 -0.0035501681 -0.029768178 4283922988
0.015532078 -0.00051603839 -0.032924853 4283922734
0.016273096 0.0032383315 -0.036753714 4283857454
0.016312726 0.009155497 -0.042606264 4283857454
0.016309872 0.015069481 -0.048448633 4283792429
0.016725058 0.019537896 -0.052929915 4283924008
0.018971717 0.018236089 -0.052004986 4284055333
0.021464527 0.016214479 -0.050408326 4284121633
0.025164332 0.010591503 -0.0454477 4284055844
0.028183941 0.0071329884 -0.042515807 4283791408
0.031717114 0.0022363886 -0.038245566 4283725109
0.03454883 -0.00049738958 -0.035999045 4283659064
0.037152871 -0.0025096275 -0.034428526 4283658809
0.039018307 -0.0023620166 -0.03487283 4283725109
0.041391972 -0.003652934 -0.033977516 4283725364
0.043262567 -0.0035046972 -0.034422882 4283790644
0.047727585 -0.010545079 -0.028183261 4283921203
0.0011012293 -0.026891503 -0.0072991885 4283724853
0.013824027 -0.0095891692 -0.026374126 4284445994
0.014835794 -0.0065443181 -0.029530782 4284054059
0.016045764 -0.0042251796 -0.032005951 4283922989
0.017017733 -0.0011831857 -0.035152983 4283857454
0.017743733 0.0025810525 -0.038969971 4283857199
0.017760985 0.0085140988 -0.044804014 4283792174
0.018425925 0.012273747 -0.048606277 4283791919
0.02046055 0.01169242 -0.048362803 4283857964
0.023441911 0.0082197078 -0.045430113 4283924008
0.026687779 0.0040264949 -0.041831754 4283791408
0.029243443 0.0020035543 -0.040254872 4283725108
0.032544974 -0.0021850802 -0.036669564 4283659318
0.034894377 -0.0034825504 -0.035772033 4283658808
0.037254356 -0.004779119 -0.03487689 4283725109
0.038871016 -0.0039095692 -0.035990611 4283790899
0.041498058 -0.0059263594 -0.034430277 4283660083
0.043884344 -0.0072204582 -0.033541188 4283790898
0.048095852 -0.013561156 -0.027986208 4283986993
-0.0017345883 -0.025732841 -0.0107268 4284642854
0.00057149678 -0.02704056 -0.0098239873 4282481728
0.0023101903 -0.026161838 -0.010967063 4282285124
0.0042389967 -0.026011687 -0.011428306 4282743103
0.016119773 -0.0064943768 -0.03244599 4284119338
0.017316977 -0.0041696094 -0.034913059 4283922989
0.018498253 -0.0018459521 -0.037376292 4283857199
0.018754834 0.0033797547 -0.042527225 4283857454
0.019663805 0.0064258464 -0.04565236 4283727148
0.021714007 0.0058435462 -0.045414247 4283791919
0.02423979 0.0038114823 -0.04383532 4283791409
0.027257087 0.00033083931 -0.040919356 4283791154
0.029579509 -0.00097338483 -0.040018786 4283791154
0.032398723 -0.0037257113 -0.037782464 4283791153
0.034993336 -0.0057519041 -0.036219619 4283856433
0.036858566 -0.005604405 -0.036663935 4283725874
0.038472667 -0.0047328994 -0.037775353 4283791153
0.041096292 -0.0067565031 -0.03621912 4284118573
0.04373575 -0.008778695 -0.034666605 4284510509
-0.0015088543 -0.02879237 -0.010519871 4283986993
0.00042230263 -0.028642293 -0.010981876 4282088008
0.0019685514 -0.027030658 -0.012802904 4282088008
0.0033091418 -0.02468932 -0.015300198 4282546244
0.017615404 -0.0071645193 -0.034679335 4284315943
0.01880247 -0.0048338436 -0.037139028 4283923243
0.019292668 -0.00032035261 -0.041608725 4283857708
0.020210281 0.002735205 -0.0447294 4283792429
0.022035815 0.0028788969 -0.045164771 4283726638
0.025036037 -0.00061412528 -0.042253017 4283791153
0.027825175 -0.003377784 -0.040016249 4283791153
0.029914742 -0.0039588027 -0.039788887 4283856178
0.032495391 -0.0059927963 -0.038227662 4283921969
0.034846339 -0.0072988681 -0.037337042 4283856689
0.036959656 -0.0078777038 -0.037115037 4283856944
0.039078198 -0.0084559955 -0.036894247 4284118318
0.041709006 -0.010485519 -0.035344671 4284313903
-0.0012839027 -0.03186034 -0.010319123 4283854903
0.00046277791 -0.030976783 -0.011460951 4282480963
0.0018196739 -0.028627697 -0.013957357 4281891913
0.0029657856 -0.025547091 -0.017127153 4282022984
0.0046835057 -0.024665389 -0.018261828 4282480964
0.018657645 -0.006369438 -0.038248572 4284447014
0.019602494 -0.0033031292 -0.041369285 4283989798
0.020755546 -0.00096839666 -0.043815736 4283859493
0.022820979 -0.0015538447 -0.043584518 4283922989
0.025361175 -0.003597904 -0.042018812 4283922224
0.027679861 -0.0049112178 -0.041124023 4283922479
0.030009134 -0.0062236302 -0.040231641 4284053294
0.032348968 -0.0075350292 -0.039341718 4284118828
0.035190064 -0.010302987 -0.037123635 4284184108
-0.0010597333 -0.034936871 -0.010124496 4283592254
0.00050288811 -0.033315372 -0.011942988 4282284868
0.0018629096 -0.030959543 -0.014435194 4281565769
0.0028176121 -0.027135056 -0.018275011 4281631303
0.0045353919 -0.026251163 -0.019408057 4281436484
0.0058478713 -0.023898672 -0.021888619 4282155584
0.0077525452 -0.023750063 -0.022343844 4283658808
0.019684961 -0.0055620857 -0.041804083 4284120868
0.020841137 -0.0032204911 -0.04424639 4283990564
0.023140749 -0.0045399033 -0.043350499 4283989033
0.025920009 -0.0073219202 -0.041124582 4284053039
0.028246112 -0.0086390488 -0.040234797 4284118828
0.030582774 -0.0099552013 -0.039347488 4284249899
0.032687522 -0.01053926 -0.039126933 4284511019
0.03528782 -0.01258466 -0.03758011 4284706348
-0.0013960451 -0.035808694 -0.011964171 4283002949
0.00016418099 -0.034183089 -0.013778795 4282088518
0.0017138906 -0.032558169 -0.0155908 4281827654
0.0032530539 -0.030933913 -0.017400241 4281566533
0.0043873154 -0.027836625 -0.020554066 4281632324
0.0059000961 -0.026214231 -0.022356976 4282024514
0.0074023008 -0.02459247 -0.024157293 4282156348
0.0090990923 -0.023707729 -0.025283379 4284575278
0.019540664 -0.0070905201 -0.042908408 4284512039
0.02092633 -0.0054767169 -0.044680022 4284186658
0.023228055 -0.0068003722 -0.043787874 4284119849
0.025774667 -0.0088569634 -0.042233557 4284184364
0.028337177 -0.010912258 -0.040682919 4284250154
0.030675936 -0.012232583 -0.03979937 4284314668
0.00020396337 -0.036525454 -0.014263569 4281168223
0.0017565824 -0.034895945 -0.016072998 4281565769
0.0032986589 -0.033267107 -0.017879864 4281240134
0.0046332292 -0.030899953 -0.02035599 4281566023
0.006351199 -0.030011598 -0.021485677 4281958979
0.0076593496 -0.027646217 -0.023955349 4281959744
0.0091565698 -0.026020382 -0.025751125 4282352443
0.010643225 -0.024395291 -0.027544238 4283396668
0.02285203 -0.0075921081 -0.045555621 4284708134
0.0014159791 -0.035754483 -0.017901344 4281172049
0.0033439063 -0.035604443 -0.018362423 4281434699
0.0044848137 -0.032489199 -0.021504743 4281630539
0.006202843 -0.031598676 -0.022632809 4281826890
0.0075114705 -0.029226694 -0.025097668 4281696583
0.0092136785 -0.028337169 -0.02622178 4282023749
0.01070324 -0.026707452 -0.02801236 4282286144
0.012182236 -0.025078487 -0.029800294 4284444719
0.0047295652 -0.03556503 -0.021315796 4281498450
0.0062537305 -0.033928681 -0.023111617 4281761354
0.0075654723 -0.031549927 -0.02557232 4281826634
0.0090658776 -0.029915173 -0.02736227 4281957959
0.01076287 -0.029023711 -0.028483447 4282023749
0.012034968 -0.026647706 -0.030934343 4282154818
0.013928592 -0.026499491 -0.031386577 4283069758
0.0045808144 -0.037158068 -0.022467284 4281169754
0.0059062354 -0.034771878 -0.0249264 4281760844
0.0074174479 -0.033131998 -0.026715798 4281696073
0.0089181103 -0.031492863 -0.028502541 4281957959
0.0104082 -0.029854376 -0.030286694 4281957958
0.01209734 -0.028961267 -0.03140422 4281892679
0.013993468 -0.028812867 -0.031857066 4281893954
0.015459783 -0.0271759 -0.033635214 4284445229
0.0063543916 -0.038600948 -0.024078095 4281366360
0.0078738295 -0.03695612 -0.025866145 4281630794
0.0089744888 -0.033817466 -0.028978921 4281697348
0.010467485 -0.032174397 -0.030760508 4281567554
0.011949923 -0.030532088 -0.032539438 4281108808
0.013845902 -0.030383695 -0.032992236 4281696073
0.015741907 -0.030235153 -0.033444937 4282155329
0.017203197 -0.028594118 -0.035218533 4282548793
0.0079265013 -0.039293822 -0.026351258 4281365339
0.00923438 -0.036895622 -0.028796218 4281369163
0.010113284 -0.033000086 -0.032560147 4281567299
0.011802536 -0.032102611 -0.033674441 4281762119
0.013698366 -0.031954225 -0.034127198 4281826634
0.01602323 -0.033302899 -0.033260792 4281958214
0.017924398 -0.033153858 -0.033714652 4282155329
0.019166149 -0.030760128 -0.036143214 4283792174
0.019279661 -0.024627555 -0.041856132 4284705329
0.0096971914 -0.0407339 -0.027959112 4281300569
0.010584924 -0.036826801 -0.031716984 4281630794
0.011864174 -0.034424055 -0.034150016 4281761098
0.013550859 -0.03352445 -0.03526194 4281826634
0.016303765 -0.036379192 -0.033082761 4281826378
0.018860955 -0.03848153 -0.03156586 4282219333
0.02099484 -0.039081682 -0.031366043 4282480453
0.021133721 -0.0329297 -0.03707194 4283723323
0.011261504 -0.041419964 -0.030224845 4281561178
0.012134239 -0.037503008 -0.033970866 4281826633
0.013826262 -0.036600772 -0.035082478 4281957449
0.017225791 -0.041722897 -0.030941751 4281957703
0.020662434 -0.046841938 -0.02680983 4282022984
0.023697428 -0.050452825 -0.023996815 4282218569
0.024316372 -0.045785289 -0.028389271 4282805069
0.013655026 -0.045124073 -0.029861618 4281757019
0.0157908 -0.045728873 -0.029665783 4281825613
0.019215221 -0.050864253 -0.02554249 4282023239
0.02289333 -0.056751605 -0.020773776 4282087753
-0.037954737 0.024609994 0.058403969 4282406504
-0.035300072 0.021536935 0.061733782 4279978904
-0.032898281 0.019755833 0.06353806 4278337213
-0.040997151 0.027350226 0.052369095 4279062689
-0.039315972 0.028796321 0.050383747 4278799528
-0.033191953 0.018743545 0.061580263 4279061158
-0.030919608 0.017603748 0.062619157 4280633743
-0.040884871 0.024424385 0.052710131 4278800548
-0.039466288 0.027174776 0.049211323 4278668713
-0.030505475 0.013345599 0.064440854 4279059373
-0.040116984 0.018229011 0.05682829 4279128734
-0.039080832 0.022945512 0.05106324 4278801568
-0.036989 0.022445094 0.051350422 4278472874
-0.033916999 0.017384212 0.056919858 4278799783
-0.030376669 0.01037265 0.064741537 4279585439
-0.038827594 0.0093852654 0.063944586 4280243338
-0.037894633 0.014773637 0.057429224 4279128989
-0.036322001 0.016888909 0.05469311 4278407339
-0.033513848 0.013119027 0.058739543 4278931619
-0.030531909 0.0086981654 0.06353084 4279323044
-0.037935194 0.0024628974 0.068765268 4279719059
