# .PCD v0.7 - Point Cloud Data file format
VERSION 0.7
FIELDS x y z rgba
SIZE 4 4 4 4
TYPE F F F U
COUNT 1 1 1 1
WIDTH 982
HEIGHT 1
VIEWPOINT 0 0 0 1 0 0 0
POINTS 982
DATA ascii
0.0064140297 0.026179304 0.054246277 4289210923
0.0080524385 0.027594415 0.052372009 4290062114
0.010496445 0.025784543 0.054245993 4290193439
0.012956657 0.023975717 0.056116976 4290258718
0.015095774 0.02345705 0.056488425 4290127904
0.017069004 0.02358314 0.056111187 4290389534
0.019216284 0.023065099 0.056481153 4290193184
0.021015581 0.023835467 0.055356786 4289866018
0.022988915 0.023961706 0.05497963 4289931554
0.024598116 0.025375329 0.05311124 4290258208
0.026381325 0.026144845 0.05199001 4290454558
0.028159162 0.026914034 0.050869882 4290650653
0.030882318 0.024467142 0.053471372 4290650909
0.034591109 0.018806748 0.059786752 4290520093
0.039912403 0.0080069825 0.072037593 4290389534
0.0049498975 0.021865513 0.05642584 4288818479
0.0058160871 0.026523057 0.050808489 4290062369
0.0072863214 0.028589249 0.048190914 4290716444
0.0095559135 0.027419146 0.049314447 4290847514
0.012167875 0.024955973 0.051930174 4290913049
0.01463294 0.023140939 0.053795248 4290847513
0.016771883 0.022620125 0.054165095 4290258974
0.018916238 0.022099705 0.054533944 4289800994
0.020712962 0.022872087 0.053411737 4289931809
0.022145901 0.024936277 0.050801508 4289866019
0.02392653 0.025707727 0.049682446 4289996833
0.026070971 0.025187511 0.050051428 4289996578
0.028408078 0.024022134 0.051162452 4289539108
0.030945886 0.022212196 0.053013876 4290258718
0.034848418 0.015887026 0.060056038 4290324253
0.040562786 0.0037603416 0.073760949 4290520604
0.0037405416 0.024806868 0.049994901 4288949038
0.0050616749 0.027529664 0.046633653 4289931298
0.0065215975 0.02960176 0.044022992 4289800483
0.0087800398 0.028426576 0.045145318 4288753963
0.011380501 0.025953921 0.04775656 4290127903
0.013834234 0.024131605 0.049618788 4290585883
0.016133167 0.022959163 0.050733484 4289931809
0.018616559 0.021138841 0.052590117 4290128158
0.020234343 0.022561664 0.050726615 4290128158
0.021662362 0.024632046 0.048122369 4290127648
0.023255991 0.026053431 0.046263568 4290716188
0.025760971 0.024234703 0.048116229 4290847003
0.0286563 0.021121647 0.051448539 4290847259
0.031578507 0.018010361 0.054775745 4290913049
0.03587497 0.010369234 0.063280158 4290258718
0.042382821 -0.0043868758 0.079910196 4290258718
0.001361277 0.024395207 0.047688663 4288556848
0.0028429814 0.026475111 0.04507874 4289603368
0.004308667 0.028554006 0.042471968 4290912538
0.0060783923 0.029328736 0.041357957 4290585629
0.0078428276 0.03010314 0.040245041 4290389279
0.010429095 0.027620841 0.04285232 4290781978
0.012700696 0.026442181 0.043968908 4290782233
0.015153892 0.024613367 0.045826212 4290390044
0.017449781 0.023436362 0.046938241 4290390044
0.019227883 0.024211943 0.045822866 4290389533
0.020821784 0.025637615 0.043967351 4290520348
0.022586502 0.026412409 0.042854667 4290323999
0.024898591 0.025236692 0.043963708 4289342759
0.02796917 0.021462077 0.048029616 4290389278
0.031451259 0.0163901 0.053567842 4290847513
0.036707152 0.0054748431 0.065746106 4290585884
0.00032664463 0.026734158 0.042036742 4288818734
0.0019471757 0.028165434 0.040179044 4289800228
0.0033998601 0.030250024 0.037579738 4289996834
0.005316142 0.030372221 0.037213191 4290192928
0.0072325021 0.03049447 0.036846668 4290323998
0.0096446946 0.028656373 0.03870672 4290651164
0.01190513 0.027472625 0.039822094 4290651674
0.014176361 0.026289657 0.040935405 4290324508
0.016458396 0.0251074 0.042046733 4290062879
0.018047154 0.026537085 0.04019545 4290258718
0.019803898 0.027313489 0.03908591 4291109143
0.021555284 0.028089605 0.037977435 4290585629
0.023853518 0.02690864 0.039085791 4289146408
0.027096331 0.022467885 0.043882594 4289080873
0.031134568 0.015421906 0.051622488 4289800483
0.037537608 0.00055869296 0.068195827 4289866019
0.00020398945 0.025160443 0.040863313 4289145898
0.0016704649 0.027252419 0.038266271 4289473574
0.0031208992 0.029343434 0.035672344 4289408549
0.0053538531 0.028153382 0.036789499 4289669923
0.0071104281 0.028931618 0.035681404 4290193184
0.0093569569 0.027742593 0.036796004 4290389534
0.011110965 0.028520774 0.035688482 4290716954
0.013200566 0.027988039 0.036061063 4290324509
0.014949292 0.028765993 0.03495463 4290127903
0.016868509 0.028888687 0.034587756 4290454814
0.018609222 0.029666245 0.033482946 4290585374
0.020525798 0.029788889 0.033116668 4290847003
0.022810176 0.028602678 0.034224339 4290716444
0.026224868 0.023491425 0.039748728 4290650908
0.03081823 0.014458276 0.049680538 4290847259
0.038174383 -0.0037252642 0.069893926 4290847259
0.00023286045 0.022928189 0.040431492 4288820519
0.0017024577 0.025026882 0.037838832 4289539364
0.0031560324 0.027124576 0.03524933 4289997344
0.0052317157 0.026588533 0.035622723 4290520603
0.0073128454 0.026052888 0.035995111 4290651418
0.0092345029 0.026175503 0.035627596 4290390044
0.010988612 0.026955858 0.034521706 4290325019
0.012907684 0.027078424 0.034154773 4289867038
0.014826793 0.027201053 0.033787869 4290128158
0.0163946 0.028638102 0.03194724 4289866274
0.018130044 0.0294175 0.030845104 4289865763
0.019860122 0.030196615 0.029744035 4289734948
0.022319768 0.028348809 0.031585351 4289735204
0.025354786 0.024532668 0.035628058 4290062114
0.030502243 0.013499191 0.047741979 4290062114
0.038809787 -0.0080265924 0.071579076 4290062114
0.00041273981 0.02003083 0.04073637 4288820009
0.0018881634 0.02213637 0.038147628 4289605918
0.0035042129 0.023580438 0.036300778 4289997343
0.0055877157 0.023042694 0.036670998 4289866529
0.0075146072 0.023165567 0.036302418 4290128158
0.0092768185 0.023948548 0.035196595 4289605408
0.01103371 0.024731249 0.03409183 4289278499
0.012785278 0.025513671 0.032988131 4289670943
0.014704317 0.025636293 0.032621242 4289605408
0.016096901 0.027737068 0.030048667 4289736224
0.018007932 0.027859293 0.029683398 4289866274
0.019918988 0.027981577 0.029318171 4289997089
0.022197168 0.026786204 0.030420406 4289342758
0.025231089 0.022956911 0.034453318 4289473574
0.030753404 0.010569189 0.048004806 4289211944
0.040018678 -0.014320225 0.075447753 4289473574
0.00059198216 0.017124839 0.041034885 4288425523
0.0017655566 0.020563154 0.036974564 4288949293
0.0035383925 0.021348834 0.035868183 4289931554
0.005305931 0.022134194 0.034762889 4290128414
0.007230062 0.022256881 0.034394838 4290193949
0.0089896806 0.023041856 0.033291154 4289801504
0.010911241 0.023164503 0.032923684 4289343268
0.012832854 0.023287211 0.032556251 4289867038
0.014927138 0.022748265 0.032922953 4289343523
0.016500864 0.024194367 0.0310879 4289736224
0.018597893 0.023655722 0.031454183 4289866529
0.020338926 0.024439894 0.030354349 4289735713
0.022624742 0.023240689 0.031451747 4289932064
0.025665626 0.019398721 0.035473369 4290062368
0.031758942 0.0049878135 0.051185369 4290062368
0.0004686527 0.015540883 0.039853789 4288818479
0.0017966479 0.018325012 0.036537707 4289079853
0.0034159198 0.019777961 0.034696877 4289800484
0.0051835589 0.020565495 0.03359323 4289997599
0.0069458932 0.021352751 0.032490648 4289997599
0.0085385218 0.022804162 0.03065511 4289604898
0.010621712 0.02226219 0.031022167 4289539618
0.012710329 0.021720629 0.031388238 4289539618
0.014631901 0.021843392 0.031020856 4289735968
0.016378358 0.02262996 0.029921552 4289605154
0.018652976 0.021425543 0.031017652 4290128158
0.020757835 0.020885279 0.031380817 4290258973
0.02323452 0.019018944 0.033203878 4290128413
0.026470941 0.01450146 0.037943572 4290062624
0.032762431 -0.00061970204 0.054346517 4289669414
0.00034535676 0.013957115 0.038672835 4288752178
0.0015204735 0.017417273 0.034628838 4289341739
0.0032934882 0.018207286 0.03352572 4289538599
0.0049023628 0.019663943 0.0316903 4289277224
0.006823644 0.019786417 0.031322762 4289669924
0.008416526 0.021242181 0.029490491 4289408038
0.010499466 0.020698003 0.02985592 4289146408
0.012418229 0.020820512 0.02948902 4289538598
0.014509324 0.020276986 0.029852992 4289146663
0.016430851 0.0203998 0.029485656 4289801248
0.01870773 0.019191174 0.030577997 4290193950
0.020995392 0.017983256 0.031668365 4289997343
0.023293801 0.016776137 0.032756686 4290193693
0.026717354 0.011578251 0.038212724 4290258719
0.03282176 -0.0029278845 0.053849354 4289996324
-7.9147518e-05 0.0137129 0.03602533 4288229173
0.0013980009 0.015844628 0.033456184 4289014829
0.003015101 0.017306125 0.03162241 4289408295
0.0049389079 0.01742867 0.031254321 4289800483
0.006701421 0.01822027 0.030155009 4289931808
0.0084586218 0.019011594 0.029056763 4289343523
0.010377254 0.019134015 0.028689822 4289080618
0.012465369 0.018588044 0.029052647 4288949804
0.014386773 0.018710779 0.028685277 4289342759
0.016308218 0.018833587 0.028317956 4289931809
0.018229678 0.018956454 0.02795068 4289604898
0.020691717 0.01707603 0.029766491 4289997599
0.022987012 0.015864357 0.030852078 4289866018
0.026591977 0.0099813417 0.037022226 4290127138
0.032504272 -0.0039057322 0.051896811 4289799719
0.0064180344 0.017325494 0.028257782 4287965504
0.0085004121 0.016776826 0.028619917 4288098358
0.010421637 0.016899399 0.028252469 4288164149
0.012342922 0.017022049 0.027885066 4288491059
0.014436189 0.016474292 0.028245283 4288818478
0.016534869 0.015926944 0.028604517 4289538088
0.018461626 0.016050156 0.028236231 4289669668
0.020748423 0.014833456 0.029320097 4289802013
0.02286328 0.014287358 0.029676398 4289801759
0.026651997 0.0077150092 0.036556877 4289735458
0.032375202 -0.0055484436 0.050672188 4289603113
0.01188232 0.016801942 0.025264727 4287507778
0.013798181 0.016924309 0.024898412 4288556083
0.015714072 0.017046742 0.024532137 4288883504
0.017629992 0.017169256 0.024165919 4289735969
0.020265281 0.014603216 0.026697347 4289932828
0.022739563 0.012710569 0.028500875 4289409059
0.026711684 0.0054444969 0.036088414 4289146408
0.032809854 -0.0092058554 0.051616304 4289146408
-0.0092697963 0.012409156 0.01545199 4283856689
-0.0080988891 0.015966652 0.011483405 4283599649
-0.0065149963 0.017460503 0.0096823312 4283206948
-0.0046432242 0.017579366 0.0093239155 4283141159
-0.0024674423 0.016324278 0.010405084 4283204399
-0.00028084964 0.015069986 0.011484191 4282740299
0.001601927 0.015189787 0.011123855 4282149719
-0.010725882 0.0079892799 0.017548459 4283789114
-0.0099532865 0.013628742 0.011422846 4283989544
-0.0085049272 0.015817067 0.0089037977 4283860769
-0.0067797452 0.016625358 0.0078262072 4283531308
-0.0049107485 0.016744025 0.0074683093 4283470109
-0.0027381107 0.015484402 0.0085466877 4283598628
-0.00024570525 0.012847459 0.011058297 4283793194
0.0017968006 0.012278574 0.011414548 4283792939
0.0036849156 0.012398779 0.011053238 4283727403
0.0052480511 0.0138961 0.0092598721 4283332664
0.0066352785 0.01608118 0.0067530153 4283003204
0.0081743486 0.017577119 0.0049643721 4282874174
0.010214448 0.017008483 0.0053213937 4282807618
0.012606487 0.015064588 0.0071054939 4282542418
-0.011951212 0.011978732 0.01064121 4284053293
-0.010635365 0.014866069 0.0074069314 4283994134
-0.0091973431 0.017060241 0.0048948275 4283925539
-0.0074828379 0.01787 0.0038209232 4283792938
-0.0056246854 0.017987968 0.0034650927 4283793959
-0.0031599998 0.015340466 0.0059752818 4283926814
-0.00082804635 0.013385626 0.0077654365 4283926048
0.0013631135 0.012122976 0.0088370591 4283991074
0.0032457523 0.012242826 0.00847679 4283991073
0.0049661063 0.01305346 0.0074021481 4283926048
0.0063510612 0.015244914 0.0049007088 4283664673
0.0080554038 0.016054695 0.0038292585 4283534624
0.010095224 0.015483858 0.0041846652 4283404063
0.012832839 0.012153378 0.0073886365 4283404063
0.01559734 0.0088247061 0.010587534 4283468323
0.019816462 -1.956895e-05 0.019472215 4283595824
0.026460446 -0.017822802 0.03758458 4283595824
-0.014084086 0.01102371 0.0091418512 4283919928
-0.013035778 0.015309045 0.0044776117 4284120358
-0.011316046 0.016121129 0.0034042289 4283991073
-0.009888351 0.018321157 0.00089908298 4283862298
-0.0080384575 0.018438488 0.0005447492 4283862553
-0.0058909506 0.017168401 0.001621238 4283862809
-0.0032782927 0.013818393 0.0048402781 4283992858
-0.0011010803 0.012550408 0.0059111686 4283990818
0.00093014166 0.011976371 0.006266268 4283990564
0.002807308 0.012095856 0.0059070364 4283991074
0.0043601692 0.013601238 0.0041222237 4283992859
0.0057374686 0.015798729 0.0016272347 4283794469
0.0074338168 0.016610168 0.0005589705 4283793704
0.0096355565 0.015344203 0.0016255938 4283727914
0.012539763 0.01131024 0.0055332026 4283729188
0.015827447 0.0058943368 0.010855211 4283793448
0.02094109 -0.006437324 0.023266314 4283792938
-0.014878027 0.012979435 0.0044204844 4284119594
-0.013566531 0.015883721 0.0012002764 4284056353
-0.011714257 0.01600102 0.00084534939 4284056353
-0.010148317 0.017510971 -0.00093911216 4283991073
-0.0084471069 0.018324206 -0.002007171 4283991328
-0.0063054152 0.017049413 -0.00093295658 4283991583
-0.0035478137 0.012992319 0.0029922342 4283990818
-0.0015276857 0.01241534 0.0033476735 4283991074
0.00034124032 0.012534212 0.0029899478 4283991073
0.0018915907 0.014043681 0.0012088614 4283990819
0.0037552826 0.014162388 0.00085226726 4283992093
0.0051249377 0.016365865 -0.0016362355 4283863573
0.0068132952 0.017178964 -0.0027013128 4283861279
0.0088364519 0.016602689 -0.002346064 4283860513
0.011728786 0.012554912 0.0015538344 4283927324
0.015881445 0.0036497228 0.010407904 4283927068
0.022241451 -0.013579443 0.027745815 4283927068
-0.015805237 0.01565617 -0.0009990437 4284120358
-0.014233902 0.01717058 -0.0027813115 4284056863
-0.012392472 0.017287169 -0.0031341813 4284057884
-0.010407899 0.016705398 -0.0027738716 4283991584
-0.0084178485 0.016124062 -0.0024145441 4283991074
-0.006125506 0.014146905 -0.00063194241 4284056609
-0.003816966 0.0121709 0.0011475822 4284056353
-0.0016460121 0.010893734 0.0022130338 4284122144
-0.00024660677 0.013105411 -0.00027641933 4284056609
0.0012959279 0.014618684 -0.0020526447 4283990819
0.0031514578 0.014736857 -0.0024076882 4283990564
0.0048425123 0.015552199 -0.0034716972 4283926558
0.0065282397 0.016367331 -0.004534666 4283927324
0.0085484385 0.015788656 -0.0041804677 4283927578
0.01143695 0.011727577 -0.00028981827 4283925794
0.016285665 8.1509352e-06 0.011371506 4283990818
0.0235391 -0.020756323 0.032199472 4283925794
0.032579452 -0.047775012 0.059350312 4283925794
-0.016056232 0.014853623 -0.0028335536 4284121124
-0.014487348 0.016372208 -0.0046120426 4283993623
-0.012508519 0.015787797 -0.0042523718 4283927069
-0.010524217 0.015203815 -0.0038936874 4284061709
-0.0085344501 0.014620259 -0.0035359887 4284056864
-0.006390959 0.013336811 -0.0024687466 4284056099
-0.0042366609 0.012054171 -0.0014035571 4284056353
-0.0022251494 0.011472277 -0.0010498092 4284056609
-0.00083338469 0.013689928 -0.0035327845 4284056353
0.00086029992 0.014507473 -0.0045958175 4284056353
0.0027103461 0.014625277 -0.0049498272 4283925028
0.0047248155 0.014043877 -0.0045963316 4283924518
0.0064105988 0.01486118 -0.0056576575 4284056609
0.0084305182 0.014280312 -0.0053050639 4284121889
0.0114903 0.0095073394 -0.00071833376 4284121889
0.016863968 -0.0043448247 0.013030818 4284121889
0.033889048 -0.055070456 0.063710399 4284121889
-0.017751887 0.011828886 -0.0021758592 4283989288
-0.016710795 0.016165735 -0.0067989123 4283990819
-0.015152425 0.017687982 -0.0085720802 4283925794
-0.013464671 0.018506693 -0.0096328016 4283925029
-0.011211332 0.016513797 -0.0078528645 4283928599
-0.0087963939 0.01381937 -0.005366601 4283991073
-0.0065079704 0.011828877 -0.0035932511 4283990563
-0.0046556368 0.011946458 -0.0039479779 4284056354
-0.0026497692 0.011362001 -0.0035948344 4284056098
-0.0012629814 0.013585905 -0.0060719084 4284056354
0.0004253909 0.014405215 -0.0071322443 4283991329
0.0021084659 0.015224298 -0.0081914784 4283994644
0.0044429488 0.01323732 -0.0064265747 4283863318
0.0066267289 0.011952689 -0.0053699063 4283928853
0.0089908354 0.0099677704 -0.0036105341 4284056863
0.012060057 0.0051801354 0.00096280035 4284122144
0.017965715 -0.010817409 0.016788496 4284122144
0.035195932 -0.06240062 0.06804467 4284056098
-0.018527031 0.013852004 -0.0068501504 4284055843
-0.017094992 0.016084503 -0.0093314396 4283927834
-0.01554177 0.017610786 -0.011100363 4283859494
-0.013859313 0.018431267 -0.012158384 4283858218
-0.011611957 0.016431458 -0.010382294 4283858473
-0.0090579689 0.013023078 -0.0071937898 4283926559
-0.0069207512 0.011730544 -0.0061320616 4284057119
-0.0052244812 0.012552267 -0.0071924496 4284056099
-0.0032269545 0.011965087 -0.0068393848 4284056609
-0.0015359111 0.012786655 -0.0078986324 4284056863
0.00014984608 0.013607975 -0.008956803 4283992348
0.0018302836 0.014429051 -0.010013883 4283993369
0.0039974488 0.013138957 -0.0089574801 4283862043
0.0066755004 0.009739209 -0.0057921559 4283927324
0.0092110597 0.0070445575 -0.0033350172 4283991838
0.012628477 0.00083570927 0.0026310887 4284055843
0.018540815 -0.015211422 0.018417284 4284055843
0.027770611 -0.043900799 0.04680831 4283924519
-0.020477526 0.012241999 -0.0076125911 4283988778
-0.019168817 0.015189342 -0.010799296 4284056098
-0.017881423 0.018135389 -0.013981794 4283994388
-0.016204394 0.018957637 -0.01503724 4283994388
-0.014253236 0.018364841 -0.01467726 4283993624
-0.011869512 0.015650954 -0.012198457 4283993879
-0.0093191527 0.012231428 -0.0090175234 4284059414
-0.0073328093 0.011641175 -0.0086641237 4284056354
-0.005641859 0.01246471 -0.0097218473 4284056098
-0.0038030893 0.01258149 -0.010073932 4284056354
-0.0022758283 0.014111094 -0.011834088 4283992859
-0.00060075521 0.014933901 -0.012888554 4283859494
0.00090783834 0.016462501 -0.014644997 4283857964
0.0033888109 0.013755476 -0.012184216 4283924009
0.0060578436 0.010344271 -0.0090254834 4283926304
0.0090921931 0.0055238567 -0.0044688336 4283924518
0.013195556 -0.0035259314 0.0042865463 4283924518
0.019987497 -0.023148376 0.023535533 4283924518
0.029234309 -0.051925804 0.051855177 4283924518
-0.021236517 0.01429927 -0.012264652 4284120614
-0.019809186 0.016544383 -0.014735175 4284056353
-0.018129535 0.017368861 -0.015789542 4283990564
-0.016318291 0.017483339 -0.01613678 4283925029
-0.014227897 0.01617879 -0.015072922 4283925028
-0.011984475 0.014165679 -0.01330613 4283925028
-0.0095799603 0.011444451 -0.010837853 4283990308
-0.0077441595 0.011560846 -0.011189519 4284056098
-0.0060585141 0.012386205 -0.012244578 4284056098
-0.0045310967 0.013920011 -0.014001479 4284056354
-0.0027031004 0.014036195 -0.014351433 4283992858
-0.0011916645 0.015569206 -0.016105184 4283928088
0.00047010183 0.016393427 -0.017155379 4283860514
0.0024538897 0.015801379 -0.016802736 4283925539
0.0052748881 0.011670496 -0.012949163 4283991838
0.0086352639 0.0054188184 -0.0070021772 4283992349
0.013761289 -0.0079047792 0.0059291692 4283991583
0.03069495 -0.059989836 0.056872956 4283992348
-0.021865159 0.015666232 -0.016194314 4284055588
-0.020316862 0.017204957 -0.017952465 4283925028
-0.018511221 0.01731897 -0.018298715 4283925793
-0.016295463 0.015297351 -0.016531713 4283925028
-0.014202848 0.013988608 -0.015471669 4284056099
-0.012099396 0.012680655 -0.014413624 4284121888
-0.0099850968 0.01137344 -0.013357543 4284122144
-0.0081547722 0.01148947 -0.013708173 4284122144
-0.0066245385 0.013027739 -0.015462415 4284121889
-0.0049521811 0.013854502 -0.01651321 4284122144
-0.0034405775 0.015391741 -0.018263698 4284122144
-0.0017815046 0.016217845 -0.019311806 4284057373
-0.00012774393 0.01704376 -0.02035886 4283993623
0.0021747127 0.015028566 -0.018607754 4283993624
0.0048256926 0.011594463 -0.015462195 4284124439
0.0086856745 0.0031931363 -0.0074340724 4284057119
0.015011895 -0.015139561 0.010349784 4284057119
0.024265615 -0.044815507 0.03926231 4284124439
0.032152534 -0.068092883 0.061861627 4284124439
-0.023034677 0.0097897835 -0.01271715 4283788858
-0.022107072 0.014907114 -0.017997809 4284057629
-0.020692371 0.017164471 -0.020456014 4283796509
-0.018758379 0.016563818 -0.020097919 4283795999
-0.016545936 0.014535498 -0.01833532 4283796764
-0.01431727 0.012508243 -0.016575722 4284057374
-0.012356132 0.011909634 -0.016222659 4284056353
-0.010244969 0.010597859 -0.015169309 4284122144
-0.0084174499 0.010713696 -0.015519412 4284122144
-0.0068896748 0.012256138 -0.017269876 4284121888
-0.0055251457 0.014511013 -0.019717867 4284122144
-0.0037108064 0.014626298 -0.020065229 4284056608
-0.0020543709 0.015454451 -0.021111213 4284056354
-8.1941485e-05 0.014857175 -0.020759765 4283990309
0.0020592362 0.013548011 -0.019711699 4283990309
0.0050412863 0.0086785182 -0.015180012 4284056098
0.0095792674 -0.0025968179 -0.0043860627 4284056353
0.016945357 -0.025256533 0.017528968 4284056098
0.02587584 -0.053598773 0.04497584 4283990309
0.032193013 -0.070542693 0.061260723 4284056098
-0.023776963 0.011888009 -0.017341916 4284056354
-0.022605151 0.015586207 -0.02120325 4283990563
-0.020936184 0.016416324 -0.022250665 4283859748
-0.019138813 0.016529771 -0.022595361 4283793703
-0.016932338 0.014494488 -0.020836573 4283928854
-0.014848679 0.013176462 -0.019781478 4283925793
-0.012612484 0.011143245 -0.018028243 4283990819
-0.01064885 0.010542694 -0.017677261 4284056609
-0.0088268183 0.010658175 -0.018026326 4284056609
-0.0074539222 0.012919988 -0.020471014 4284056353
-0.006097056 0.015180921 -0.022912607 4283991584
-0.0044460036 0.016010752 -0.023955941 4283928088
-0.0023268685 0.014695635 -0.022907138 4283861279
-3.6451966e-05 0.01266654 -0.021163767 4283926814
0.0024332777 0.0099239871 -0.01872744 4284056098
0.0054220632 0.0050397627 -0.014208703 4284122144
0.010807905 -0.0098411776 3.2579526e-05 4284122144
0.027308768 -0.061711486 0.049963057 4284056098
0.032233186 -0.072996587 0.060656786 4284122144
-0.025457837 0.0088599883 -0.01669028 4283787584
-0.024517514 0.014008392 -0.021950241 4284056863
-0.023102172 0.016278628 -0.024398681 4283991074
-0.021441199 0.017110387 -0.025442926 4283858474
-0.019651994 0.017223293 -0.025786076 4283793194
-0.017590351 0.01589941 -0.024730168 4283859493
-0.015379027 0.013857994 -0.022977237 4283927323
-0.013293039 0.012535844 -0.021925848 4283991073
-0.011340428 0.011932405 -0.02157443 4284056099
-0.0095292442 0.012047188 -0.021921419 4284056353
-0.008017119 0.013597248 -0.023662228 4284056608
-0.0068201795 0.016581623 -0.026793797 4283993368
-0.0050248653 0.016695691 -0.027137525 4283927834
-0.0027566031 0.014658548 -0.025394991 4283862808
8.7283552e-06 0.010471795 -0.021570839 4283796508
0.0026433282 0.0070039369 -0.018447142 4283928344
0.0061332025 -4.4994056e-05 -0.011859218 4284056099
0.011697114 -0.015687335 0.0030386811 4284056099
0.020286908 -0.043498028 0.029692205 4284056863
0.028043728 -0.066998929 0.052151911 4284056863
0.031920217 -0.07402274 0.058666237 4284056353
-0.026552059 0.013152448 -0.023397472 4283854904
-0.025131084 0.015429439 -0.025842104 4284057118
-0.023726076 0.017705554 -0.028283644 4283862299
-0.021945156 0.017817834 -0.028625285 4283861788
-0.02016411 0.017930204 -0.028966881 4283927578
-0.018110976 0.016601434 -0.027912673 4283927833
-0.01576966 0.013832467 -0.025465714 4283992348
-0.013689481 0.012505557 -0.024416497 4283990819
-0.011886563 0.012619685 -0.024762001 4284056098
-0.010083549 0.012733925 -0.025107447 4284056353
-0.0087286755 0.015007639 -0.027538789 4283992859
-0.0072377212 0.016560795 -0.029272154 4283858983
-0.0054478943 0.016674491 -0.029614845 4283924518
-0.0030281954 0.013911221 -0.027182424 4283858983
-0.00042681023 0.010430243 -0.024060711 4283925538
0.0023642741 0.0062321909 -0.020251375 4283990308
0.006346155 -0.0029950626 -0.011602483 4283990563
0.012752507 -0.022278029 0.0067172069 4283990563
0.021525169 -0.05089109 0.033994891 4283990308
0.028256333 -0.070153102 0.052252628 4283990308
0.031607613 -0.075044215 0.056679167 4284121378
0.034459695 -0.07777904 0.059029557 4284251428
-0.027742356 0.0072347969 -0.01994681 4283656003
-0.027153909 0.014585419 -0.02728311 4284121634
-0.025743268 0.016868258 -0.029720787 4284121888
-0.024093047 0.017703539 -0.030759756 4283991329
-0.022317603 0.017815443 -0.03110037 4283991839
-0.020408906 0.01720448 -0.030744163 4283992349
-0.018358916 0.015871134 -0.029692695 4284056353
-0.016021065 0.013093254 -0.027251713 4284056098
-0.014226411 0.013206767 -0.02759571 4284056098
-0.012431655 0.013320366 -0.02793966 4284056098
-0.010783367 0.014156204 -0.028977741 4283990818
-0.0091403574 0.014991792 -0.030014742 4283995918
-0.0075026453 0.015827214 -0.031050678 4283860769
-0.0060248263 0.01738395 -0.032778151 4283858474
-0.0037712455 0.015332839 -0.031042771 4283858728
-0.0011815764 0.011840284 -0.02792717 4283991329
0.0020855851 0.0054650791 -0.02205215 4283992093
0.0070544556 -0.0081163868 -0.0092802579 4283992093
0.014645625 -0.032502819 0.013823578 4283991839
0.023272842 -0.060480576 0.040340513 4283991329
0.028468275 -0.073315725 0.052347079 4283992093
0.031471446 -0.076781273 0.055384144 4284121124
0.034143947 -0.078804746 0.057040013 4284185638
-0.028453216 0.0093904361 -0.024535317 4283855413
-0.027632102 0.015310241 -0.030458296 4284121634
-0.026104204 0.016873458 -0.032192908 4284056353
-0.024331696 0.016985064 -0.032533046 4283990564
-0.022428758 0.016371397 -0.032177445 4283990818
-0.020387374 0.015033057 -0.031127727 4284056098
-0.018470809 0.014420494 -0.030774632 4284121889
-0.016410425 0.013083505 -0.029728366 4284056098
-0.014480241 0.012471993 -0.029377736 4284122144
-0.012688287 0.012585402 -0.029721159 4284121889
-0.011042628 0.013423229 -0.030757084 4284056609
-0.0095513314 0.01498501 -0.032484014 4283991584
-0.007918939 0.015822185 -0.03351726 4283862299
-0.0062918365 0.016659135 -0.034549404 4283928088
-0.0040415823 0.014601326 -0.032818418 4283993368
-0.0016153641 0.011821153 -0.030400405 4283992348
0.0022947043 0.0025327466 -0.021781012 4283992093
0.0082565695 -0.015428584 -0.0049071754 4283992093
0.016870385 -0.044225615 0.022268085 4283992348
0.02416411 -0.066503793 0.043210782 4283992348
0.028159926 -0.074318916 0.050372966 4284121888
0.031159405 -0.07779552 0.053402394 4284186404
0.033828571 -0.079825759 0.055053979 4283920948
-0.028923534 0.01011169 -0.027715124 4283857199
-0.027987182 0.015320441 -0.032928001 4283927068
-0.026464432 0.016887605 -0.03465829 4283797019
-0.024569951 0.016271176 -0.034302846 4283731228
-0.022409745 0.014200112 -0.032560304 4283794469
-0.020233341 0.012130199 -0.030820843 4283924518
-0.018447168 0.012242941 -0.031163389 4284122144
-0.016660906 0.012355777 -0.031505886 4284121633
-0.01487454 0.01246872 -0.031848326 4284187424
-0.013231616 0.013308432 -0.032882154 4284121633
-0.01159396 0.014147909 -0.033914905 4284056098
-0.010110494 0.015713463 -0.035636991 4284056354
-0.00833451 0.015826156 -0.035977129 4283991329
-0.0065584704 0.015938936 -0.036317211 4283925538
-0.0044684783 0.014600219 -0.035279457 4283990564
-0.0017291792 0.010359667 -0.031490169 4284122144
0.0026654974 -0.0011335462 -0.020828288 4284056353
0.010115985 -0.025676686 0.0021895431 4284122144
0.018587369 -0.053833816 0.028606774 4283990819
0.024883008 -0.071827918 0.045375459 4283990819
0.028198028 -0.076767012 0.049773946 4284186914
0.031023461 -0.079529747 0.052109465 4284251429
0.033513553 -0.080842093 0.053071424 4283853628
-0.029512033 0.011576721 -0.031579457 4283923753
-0.028219618 0.014609387 -0.03469703 4283928853
-0.026574738 0.01545069 -0.035730116 4283860514
-0.024807833 0.015561897 -0.036069214 4283795999
-0.022391014 0.012024721 -0.032946229 4283797783
-0.020477816 0.011407461 -0.032595914 4284056354
-0.01855915 0.010790654 -0.032246567 4284122144
-0.017049 0.01236183 -0.033970762 4284121633
-0.01512745 0.011745397 -0.033621822 4284121888
-0.013630517 0.013315937 -0.035343327 4284187679
-0.012290277 0.015614631 -0.03775207 4284122144
-0.010668598 0.016455349 -0.03878003 4283925793
-0.0087493844 0.015839173 -0.038430329 4283991584
-0.0063624568 0.013038909 -0.036018245 4283991073
-0.0042675622 0.011696139 -0.034984753 4284121889
-0.0012051165 0.0059871413 -0.02983271 4284121888
0.0038459972 -0.008450903 -0.016453957 4284121888
0.01197134 -0.035976846 0.0092474464 4284121888
0.019965606 -0.062034968 0.033539437 4284121889
0.024749277 -0.073537782 0.044100612 4284121888
0.027890073 -0.077765197 0.047803573 4284186914
0.030536436 -0.079810038 0.049449466 4284316964
0.033198908 -0.081853747 0.051092371 4283853884
-0.031286314 0.0092848018 -0.031624094 4283856178
-0.030099154 0.013059435 -0.035430606 4283992094
-0.028695174 0.015367752 -0.037847292 4283858983
-0.027058281 0.01621069 -0.0388772 4283858219
-0.025172435 0.015589332 -0.038523458 4283924774
-0.022891738 0.012772752 -0.036098346 4283925284
-0.02098687 0.012152752 -0.03574805 4284056864
-0.019076534 0.011533218 -0.035398781 4284121633
-0.017436385 0.012376865 -0.036428943 4284121888
-0.015520483 0.011757897 -0.03608058 4284121633
-0.014028713 0.013332477 -0.037797835 4284056099
-0.01283934 0.016368207 -0.040888347 4284059159
-0.011077102 0.016479887 -0.041225955 4283795998
-0.0088610575 0.0144001 -0.039503478 4283796253
-0.0063210167 0.010860752 -0.036411736 4283795743
-0.0043805093 0.01024396 -0.03606762 4284056353
-0.00068239123 0.0015974455 -0.028188054 4284056353
0.0050238185 -0.015802909 -0.012105402 4284056353
0.013822637 -0.046328995 0.016266508 4283925283
0.020838806 -0.068086654 0.036392361 4283925283
0.024785582 -0.07597667 0.043509074 4284056353
0.027582495 -0.078758702 0.04583668 4284056098
0.030225504 -0.080810294 0.047478229 4284184873
0.033062696 -0.083589479 0.04979834 4283723323
-0.033519998 0.0099288635 -0.034439649 4283656258
-0.032326907 0.013714651 -0.03823914 4283988524
-0.030803785 0.015294598 -0.039959744 4283993114
-0.029169656 0.016139418 -0.040987559 4283861279
-0.027540788 0.016984016 -0.042014286 4283925539
-0.025663257 0.01635994 -0.041660622 4283925539
-0.023261771 0.01280006 -0.038551308 4283926814
-0.021362558 0.012177551 -0.038201649 4284057883
-0.019592866 0.012289191 -0.038541082 4284121378
-0.017960727 0.01313448 -0.039568059 4284121634
-0.015912823 0.011779433 -0.038532678 4284121888
-0.014426198 0.013357971 -0.0402456 4283990818
-0.012950215 0.014935989 -0.041956447 4283992348
-0.011484884 0.016513377 -0.043665133 4283858728
-0.0092748404 0.014426704 -0.041946486 4283926813
-0.0067411363 0.010876091 -0.038861826 4283863318
-0.0038676709 0.0058626011 -0.034414217 4283925539
0.00031637028 -0.0050060041 -0.024505679 4284056354
0.0070079602 -0.026849601 -0.0043676854 4284056354
0.015340917 -0.055269483 0.021881856 4283928598
0.021208478 -0.071969077 0.037180081 4283925539
0.02431204 -0.076225072 0.040870205 4284056354
0.026757672 -0.077553526 0.041830465 4284055843
0.029739721 -0.081074625 0.044830061 4283790389
-0.034083672 0.011435324 -0.038278274 4283854648
-0.032668486 0.013757125 -0.040687345 4284120613
-0.031269237 0.016078005 -0.043093286 4284057629
-0.029521711 0.016187748 -0.043428853 4283992858
-0.027898133 0.017034143 -0.044452928 4284058649
-0.0258995 0.015671082 -0.043411769 4284058394
-0.023631103 0.012836404 -0.040997617 4284056863
-0.021737546 0.012211293 -0.040648505 4284056353
-0.019973338 0.012322575 -0.040986896 4284056098
-0.018346518 0.013169739 -0.042011246 4284056098
-0.016444609 0.012545466 -0.041663505 4284056609
-0.01468011 0.012657065 -0.042001724 4284125969
-0.013206605 0.014239246 -0.043708786 4283990308
-0.011595525 0.015085772 -0.044729762 4283858473
-0.0095370226 0.013727449 -0.043699436 4283924264
-0.0071605518 0.010900453 -0.041305266 4283924519
-0.0039812289 0.0044022389 -0.035503186 4283991329
0.0011538342 -0.01090527 -0.021527752 4283991329
0.0088260844 -0.037218492 0.0026466167 4283925283
0.016527198 -0.062785223 0.026103241 4283925283
0.021076182 -0.073662728 0.035917297 4283991329
0.023669519 -0.075730756 0.037558213 4284056099
0.026278986 -0.077797592 0.039196141 4283857964
-0.034079947 0.0092623457 -0.03865876 4283987504
-0.032777585 0.01233007 -0.041751921 4284120869
-0.031259395 0.013918329 -0.043464996 4284121888
-0.029630564 0.014767172 -0.044488542 4284056353
-0.02775909 0.014138188 -0.04413709 4284055844
-0.025882147 0.013509706 -0.043786652 4284056099
-0.023870431 0.012143264 -0.042751297 4284055843
-0.02224379 0.012992311 -0.043774083 4284056099
-0.020487748 0.01310306 -0.044110924 4284121888
-0.018868923 0.013951823 -0.045132048 4284121633
-0.016975358 0.013324879 -0.044784419 4284121379
-0.015361719 0.014173523 -0.045804404 4284125714
-0.013898734 0.015759362 -0.047506146 4284058903
-0.012446389 0.017344585 -0.049205728 4284058139
-0.010251015 0.015243929 -0.04749424 4284057884
-0.0075792558 0.010933774 -0.043741956 4284124693
-0.0037825555 0.0014686994 -0.035230391 4284057883
0.0019892901 -0.016830422 -0.01856913 4284057883
0.010478694 -0.046902973 0.008942375 4284124693
0.017054208 -0.067390665 0.027581951 4284124693
0.020777078 -0.074620008 0.033976063 4284057883
0.023028051 -0.075222999 0.03425622 4284055588
0.025973191 -0.078768343 0.037246227 4283790388
-0.032308064 0.0071961097 -0.039382048 4284056098
-0.030894659 0.0095308535 -0.041780792 4284056354
-0.029255047 0.010382459 -0.04280474 4284122144
-0.027620673 0.011233844 -0.043827593 4284056353
-0.025738657 0.010603495 -0.0434798 4284122144
-0.024109393 0.011454746 -0.044501536 4284122144
-0.022485383 0.012305789 -0.045522168 4284121889
-0.020866625 0.013156597 -0.046541713 4284187424
-0.01911597 0.013267096 -0.046877451 4284121378
-0.017365217 0.0133777 -0.04721313 4284187424
-0.015756905 0.014228201 -0.048230484 4284056353
-0.014444262 0.016557571 -0.050609075 4284058138
-0.012703992 0.016667824 -0.05094251 4284123929
-0.010662515 0.015299723 -0.04991556 4284056863
-0.0078440048 0.010237031 -0.045492291 4284122399
-0.0038963966 4.5485795e-06 -0.036322191 4284122144
0.0029813647 -0.02352016 -0.01495111 4284122399
0.01148244 -0.053680886 0.0124902 4284056863
0.017251937 -0.070536435 0.027692689 4284056608
0.020311696 -0.074834406 0.031361237 4284122144
0.022726318 -0.076177955 0.032317393 4284186148
0.025667761 -0.079734325 0.035299778 4283787584
-0.033170402 -0.0010461323 -0.03394293 4283524933
-0.031840146 0.0020406321 -0.037028238 4283923753
-0.030294746 0.0036392361 -0.038739927 4283859239
-0.028639019 0.0044940151 -0.039765313 4283924263
-0.026988521 0.0053485967 -0.040789679 4283925284
-0.025343262 0.0062029213 -0.041812904 4283925028
-0.023703232 0.0070570111 -0.042835042 4283858728
-0.022331715 0.0093961135 -0.045220397 4283989798
-0.020573243 0.0095069855 -0.04555773 4283989033
-0.019088656 0.011102486 -0.0472572 4284120103
-0.017475024 0.011955332 -0.048273958 4284186659
-0.016009033 0.013549905 -0.049969748 4284186913
-0.014408626 0.014402116 -0.050983824 4284121379
-0.012665797 0.014512515 -0.051317759 4284055844
-0.010622106 0.013140218 -0.050294548 4283989543
-0.0078022294 0.0080624223 -0.045883149 4284055844
-0.0032313988 -0.0051647052 -0.034026213 4284056098
0.0041295178 -0.030981008 -0.010678691 4284055844
0.012483831 -0.060488928 0.016015481 4284055588
0.017285222 -0.072950095 0.027121214 4284055589
0.020179996 -0.076520532 0.030104054 4284121889
0.022763288 -0.078608662 0.031731926 4284185129
-0.03294345 -0.0047407337 -0.032977305 4283591234
-0.031489246 -0.0023905598 -0.035374053 4283923753
-0.030050986 -4.1298568e-05 -0.037767671 4283859238
-0.028266437 7.0679933e-05 -0.038110405 4283924518
-0.0267286 0.0016733333 -0.039817192 4283925029
-0.024823055 0.0010400936 -0.039477251 4283925283
-0.02329836 0.0026421249 -0.041181356 4283859493
-0.021521375 0.0027540438 -0.041522324 4283924264
-0.020146698 0.005099941 -0.043903254 4283924263
-0.01865118 0.0067004412 -0.045601517 4283989289
-0.017026789 0.0075561665 -0.046618737 4284121889
-0.015407674 0.0084116086 -0.047634833 4284122399
-0.013648961 0.0085229129 -0.047971889 4284122399
-0.01189018 0.0086343139 -0.048308887 4284055843
-0.010131322 0.0087458417 -0.048645802 4283989543
-0.0074549429 0.0043968782 -0.044924207 4283989798
-0.0024124831 -0.011098713 -0.031070383 4283989798
0.0055915527 -0.039962608 -0.0050811972 4283990054
0.013000015 -0.065098464 0.017493676 4283989543
0.016990917 -0.073882207 0.025198 4283989798
0.019715689 -0.076721177 0.027499413 4284055334
0.022461953 -0.079558626 0.029796822 4283987248
-0.032942533 -0.0069518201 -0.033386245 4283657534
-0.031485289 -0.0045949891 -0.035778634 4283791919
-0.029808171 -0.0037346743 -0.036804922 4283792938
-0.028136291 -0.0028745867 -0.037830129 4283858218
-0.026346378 -0.0027621873 -0.038173836 4283924008
-0.024556354 -0.0026496761 -0.038517483 4283924263
-0.022766188 -0.0025370345 -0.038861062 4283924263
-0.021107219 -0.0016773455 -0.039883479 4283924264
-0.019587487 -7.1048737e-05 -0.041583203 4283924009
-0.01807835 0.0015346445 -0.04328078 4283989289
-0.016440518 0.0023933239 -0.044298887 4283989544
-0.014807962 0.0032518208 -0.045315944 4284055334
-0.012891285 0.0026177913 -0.044979207 4284055844
-0.011263929 0.0034761839 -0.045995101 4283990564
-0.0093417354 0.0028427243 -0.045659252 4283925029
-0.0066504218 -0.001518257 -0.041950494 4283924519
-0.0011292994 -0.019294877 -0.026111014 4283924519
0.0064178072 -0.04600637 -0.0022110255 4283924773
0.013193313 -0.068234876 0.017612621 4283924773
0.01669699 -0.074809685 0.023278298 4283924774
0.019584388 -0.078402296 0.026245957 4283924008
0.02199216 -0.07975933 0.027193518 4283721794
-0.0329419 -0.0091669783 -0.033798225 4283657789
-0.031481616 -0.0068034753 -0.036186244 4283856944
-0.029684044 -0.0066908225 -0.036531594 4283858729
-0.027886361 -0.0065780468 -0.03687688 4283858219
-0.026088536 -0.0064651631 -0.03722211 4283924264
-0.024290591 -0.0063521564 -0.03756728 4283923754
-0.022620991 -0.0054897517 -0.03859017 4283924009
-0.020956613 -0.0046275705 -0.039611973 4283924008
-0.01956512 -0.0022676438 -0.041986212 4283924009
-0.01778014 -0.0021550283 -0.042328566 4283923753
-0.016134232 -0.0012936965 -0.043346591 4283989544
-0.014209904 -0.001929462 -0.043013088 4283989544
-0.012424652 -0.0018165112 -0.043355256 4283989543
-0.010639329 -0.0017034486 -0.043697357 4283989544
-0.009003818 -0.00084232539 -0.044713043 4283923754
-0.0058479048 -0.0074592158 -0.038996056 4283923754
-0.00062538683 -0.023791898 -0.024543876 4283924009
0.0067682602 -0.049833622 -0.0013765194 4283923754
0.012904122 -0.069137901 0.015710477 4283923754
0.016076852 -0.074238315 0.020019893 4283924008
0.019121172 -0.078589246 0.023651594 4284054314
0.02152307 -0.079950958 0.024596917 4283656259
-0.032829352 -0.012138747 -0.033533979 4283789113
-0.031478211 -0.0090160891 -0.036596864 4284053294
-0.029442981 -0.010407582 -0.035586298 4283792938
-0.027637385 -0.010294318 -0.035933107 4284054569
-0.025831662 -0.010180965 -0.03627988 4284054824
-0.024277009 -0.0085641891 -0.037979901 4284054823
-0.022604689 -0.0076994225 -0.039001718 4284054569
-0.020937607 -0.0068349168 -0.040022396 4283989288
-0.019275784 -0.0059706308 -0.041041978 4283858219
-0.017482892 -0.005857531 -0.041385867 4283858219
-0.015828915 -0.004993517 -0.042403772 4283858218
-0.014180202 -0.0041297302 -0.04342059 4283858219
-0.012392409 -0.0040166229 -0.04376325 4283989289
-0.010604542 -0.0039034076 -0.044105835 4283989034
-0.0086668804 -0.0045401827 -0.043776311 4283989289
-0.0055045784 -0.011176184 -0.038075469 4283857453
-0.00012280419 -0.028306026 -0.022989497 4283857453
0.0069599748 -0.052924056 -0.0012219762 4283857453
0.012936186 -0.07153514 0.01515178 4283857453
0.016110249 -0.076650634 0.019449351 4283989034
0.018990269 -0.080265358 0.022401879 4283987249
-0.032717422 -0.015118893 -0.033276066 4283920183
-0.031360395 -0.011987228 -0.036333479 4284053293
-0.029437661 -0.012628432 -0.036003754 4283989544
-0.027509436 -0.013269227 -0.035674959 4284054823
-0.025821254 -0.012401529 -0.036698338 4284120359
-0.024138302 -0.01153408 -0.03772058 4284119848
-0.022588685 -0.0099132098 -0.039416261 4284119849
-0.020918891 -0.0090463273 -0.040435851 4283989033
-0.019387834 -0.0074264221 -0.042127818 4283858219
-0.017595083 -0.0073133446 -0.042471685 4283857963
-0.015941069 -0.0064471699 -0.043487951 4283858219
-0.014150809 -0.0063340217 -0.04383117 4283858218
-0.012360476 -0.0062207654 -0.044174321 4283858218
-0.010423195 -0.0068598539 -0.043846473 4283923243
-0.0086300299 -0.006746199 -0.044190004 4283923243
-0.0054667033 -0.013401631 -0.03850425 4283922989
-0.00024119392 -0.029829424 -0.024125494 4283922989
0.0071510337 -0.056022856 -0.0010737469 4283922989
0.012967955 -0.073936433 0.014590133 4283922989
0.016143344 -0.079066962 0.018875813 4283922988
0.018859399 -0.081941143 0.021152401 4283988269
-0.031243183 -0.014966831 -0.036076337 4284509998
-0.029432625 -0.014853396 -0.036424208 4284510763
-0.027502038 -0.015496187 -0.036097586 4284642598
-0.025933728 -0.013870005 -0.03779377 4284381734
-0.024250738 -0.01300041 -0.038814377 4284316454
-0.022445038 -0.012886852 -0.039160989 4284185638
-0.020639241 -0.01277319 -0.039507546 4283988778
-0.018966615 -0.011903908 -0.040525898 4284054058
-0.01743526 -0.010279499 -0.042214572 4284054568
-0.015775859 -0.0094108433 -0.043230236 4284054568
-0.01412173 -0.0085423924 -0.044244789 4283858474
-0.012184825 -0.0091837943 -0.043918617 4283858219
-0.01038919 -0.0090700909 -0.0442627 4283988778
-0.0084441043 -0.0097107552 -0.043937929 4283923243
-0.0054291412 -0.015631132 -0.038936056 4283857454
0.00010467321 -0.0336149 -0.023257948 4283857454
0.0073414594 -0.059130091 -0.00093173189 4283857198
0.012999404 -0.076341718 0.014025426 4283857454
0.015850559 -0.079980105 0.01696681 4283922224
0.01839762 -0.082109675 0.018571692 4283920439
-0.017411888 -0.012496632 -0.042633444 4284380968
-0.015888274 -0.01086827 -0.044317238 4284250918
-0.014092945 -0.010754839 -0.044661455 4284054313
-0.01215367 -0.011398256 -0.044337392 4284054823
-0.010355495 -0.0112844 -0.044681966 4284054824
-0.0084080286 -0.011927135 -0.044359274 4284054314
-0.0053918846 -0.017864719 -0.039370917 4283988269
-0.0001687333 -0.034387928 -0.025064519 4283988269
0.006902203 -0.059221078 -0.0034585814 4283988269
0.012550734 -0.076483116 0.011462318 4283988269
0.015720759 -0.081644356 0.01572589 4283856944
0.017936554 -0.082269222 0.015997747 4283854903
-0.010175731 -0.014261808 -0.044438161 4284315943
-0.0082232207 -0.014906358 -0.044118144 4284315943
-0.0052032024 -0.020861048 -0.039143711 4284251174
-0.00028737262 -0.035914775 -0.026203087 4284251173
0.0064636618 -0.059303094 -0.0059786583 4284251174
0.015103646 -0.081034318 0.012496242 4284708898
0.017476205 -0.082419738 0.013430549 4284247858
0.017346464 -0.084081188 0.012191756 4284574003
-0.028711244 -0.032905798 -0.035019621 4284704309
0.0093243532 -0.067070439 -0.01516499 4284049214
-0.0024344474 0.013354804 0.033754289 4282338164
-0.001104746 0.016165053 0.030457763 4280496043
0.00050984696 0.017630624 0.028627774 4282921859
0.0024254322 0.017752558 0.028261194 4283183488
-0.0034424365 0.015825726 0.02819684 4279783318
-0.0022785477 0.019317776 0.024179837 4279061413
-0.00052954257 0.02011263 0.023086255 4279255978
0.0013698414 0.020233521 0.022722768 4279845793
0.0037443414 0.018333852 0.024544885 4281221518
0.0059739836 0.017108688 0.025635919 4282789514
-0.0054788925 0.014143046 0.027399478 4281684089
-0.0047431961 0.019675994 0.021201232 4278734504
0.0053698011 0.017576367 0.022294428 4279258528
0.0074382238 0.017022433 0.022655888 4278931363
0.0093458444 0.017144112 0.022291023 4279194014
0.011084594 0.017940912 0.021201391 4279194013
0.012817997 0.018737478 0.020112786 4279323553
0.01454607 0.019533729 0.0190253 4280305049
0.016799744 0.018306127 0.020108782 4280436118
0.019243846 0.016404983 0.021912985 4279648679
0.022068795 0.01315655 0.025158705 4279772354
0.026215922 0.0051918365 0.033451632 4283110813
0.033431213 -0.013550062 0.053272054 4283110813
-0.0064675249 0.016654903 0.021868596 4278931364
-0.0035692491 0.020966748 0.016780663 4279323809
-0.0018388852 0.021764731 0.015693948 4279324573
0.00019682944 0.021206295 0.01605982 4279192483
0.004605975 0.018735165 0.018238105 4278668458
0.0066633895 0.018178338 0.018599998 4278472874
0.0087262318 0.017621931 0.018960906 4278407083
0.01028825 0.019097606 0.017151263 4278669224
0.013554275 0.021370282 0.014260409 4278403003
0.015970889 0.019460728 0.016064858 4278336703
0.018762637 0.016199211 0.019308548 4278664633
0.021581259 0.012939485 0.022547159 4279781534
0.0260906 0.0035957657 0.032261752 4279913368
-0.00745406 0.019193212 0.016357504 4278996388
-0.0021105558 0.020912973 0.013826789 4278405808
0.0041645877 0.018551854 0.015641203 4278603433
0.006216377 0.017992431 0.01600254 4278800039
0.0082735755 0.017433474 0.016362851 4278341039
0.01120539 0.02107154 0.012033196 4278733995
0.012912128 0.021870768 0.010953104 4279062943
0.021640461 0.010695733 0.022099268 4278734758
0.026704086 -0.00071363896 0.033946 4278603688
-0.0088894479 0.014806412 0.018474363 4280900219
-0.0078615844 0.019025402 0.0137644 4278867103
-0.006131269 0.019827582 0.012680829 4278473639
0.001525566 0.019622112 0.011967372 4278538153
0.0035635792 0.019059589 0.012329565 4278603689
0.005607035 0.018497486 0.012690775 4278800038
0.0074901916 0.018617576 0.012330567 4278603434
0.012618575 0.021022143 0.0090935118 4278407339
0.015199695 0.018417662 0.011608638 4278341803
0.01816063 0.014452809 0.015555454 4278472109
0.022063022 0.0070863143 0.023083044 4278341038
0.028238852 -0.008443214 0.039201617 4278341038
-0.0081243329 0.018181281 0.011900859 4280769658
-0.006396614 0.018985411 0.01081948 4281556333
-0.0045247301 0.019104311 0.010461066 4281294449
-0.0023485161 0.017853616 0.011545489 4280375939
-0.00016148761 0.016603729 0.012627857 4278801568
0.0017213933 0.016723556 0.012267515 4278604453
0.0036043338 0.016843468 0.01190722 4278735524
0.005161617 0.018331723 0.010108331 4278604454
0.0068737417 0.019135449 0.0090303067 4278865573
0.01786017 0.013586486 0.013684072 4278405809
0.022666238 0.0027810559 0.024772922 4278537898
0.0034847744 0.015309682 0.010763569 4280705654
0.0048795976 0.017488658 0.0082502216 4279983239
0.0065891221 0.018294346 0.0071744006 4279392148
0.0082933269 0.019099776 0.0060996572 4279785613
0.010162946 0.019219147 0.0057421485 4280179844
0.012206033 0.018652963 0.0061003268 4279522963
0.014782894 0.016030788 0.0086029489 4278931873
0.018096518 0.010668866 0.013959995 4278669988
0.023449596 -0.0022265874 0.027164018 4278473638
0.015014663 0.013121858 0.0088865329 4280967029
0.018689469 0.0063677803 0.015655519 4279130264
0.024775229 -0.0093178302 0.031676419 4279130264
0.043915942 -0.082097456 0.038083002 4282404718
-0.031012237 -0.018713657 -0.035151675 4285295399
-0.029427901 -0.017082416 -0.036847763 4285230118
-0.027614668 -0.016968708 -0.03719607 4285230119
-0.025923721 -0.01609657 -0.038216643 4285229864
-0.024112932 -0.015982822 -0.038564332 4285164584
-0.022302009 -0.015868962 -0.038911957 4285231138
-0.020621449 -0.014997095 -0.039930321 4285165349
-0.018946141 -0.014125511 -0.040947571 4285099813
-0.030896455 -0.021712277 -0.034908727 4285295654
-0.029189661 -0.020837162 -0.035930902 4285230374
-0.027488112 -0.019962311 -0.036951948 4285099049
-0.025791787 -0.019087691 -0.037971914 4285229863
-0.023975775 -0.018973634 -0.038320623 4285361699
-0.022159629 -0.018859435 -0.038669251 4285295654
-0.020473674 -0.017985143 -0.03968697 4285229863
-0.018792972 -0.017111037 -0.040703587 4285230119
-0.017253175 -0.015477452 -0.042387269 4285164583
-0.015309021 -0.016122967 -0.042065986 4285033768
-0.013782442 -0.014490038 -0.043746918 4284968744
0.01194302 -0.075857386 0.0082424711 4284904229
-0.031009398 -0.023192901 -0.036013328 4285164329
-0.029185854 -0.023078699 -0.036363732 4285164583
-0.027481601 -0.022201497 -0.037383709 4285033004
-0.025660478 -0.022087228 -0.037733473 4285032749
-0.023963995 -0.021210324 -0.038751736 4285098029
-0.022017866 -0.021858338 -0.038432829 4285164328
-0.020586774 -0.019457195 -0.040784985 4285361444
-0.018906042 -0.018580928 -0.041799955 4285361443
-0.017230585 -0.017704859 -0.042813882 4285361188
-0.01514589 -0.019114126 -0.041828692 4285295908
-0.013472922 -0.018238023 -0.042841926 4285426979
-0.011805229 -0.017362107 -0.043854102 4285361189
-0.010142814 -0.016486436 -0.044865131 4285230373
-0.008336816 -0.016371988 -0.045211129 4285230373
