# .PCD v0.7 - Point Cloud Data file format
VERSION 0.7
FIELDS x y z rgba
SIZE 4 4 4 4
TYPE F F F U
COUNT 1 1 1 1
WIDTH 978
HEIGHT 1
VIEWPOINT 0 0 0 1 0 0 0
POINTS 978
DATA ascii
0.049577799 0.021291893 0.02268347 4283925284
0.051293775 0.022111174 0.021565447 4283990818
0.052537385 0.02428538 0.019038735 4284056864
0.05352873 0.027135888 0.015811142 4283995664
0.054976217 0.028630443 0.013995783 4283859748
0.057378832 0.027416196 0.014995668 4283858474
0.06125699 0.022141777 0.020209422 4283858218
0.065918289 0.014840651 0.027520476 4283924519
-0.00068388134 0.022360846 0.025348088 4283526209
0.00074703246 0.02455312 0.022785174 4283989288
0.0018292032 0.028113544 0.018790776 4283860768
0.0032229014 0.030303305 0.016235895 4283857964
0.0052877031 0.029755002 0.016549859 4283792938
0.0077067949 0.027839147 0.018294206 4283795233
0.0099649094 0.02660832 0.019320032 4283794724
0.011694439 0.027429322 0.01819971 4283991329
0.013418674 0.028250061 0.017080529 4284056609
0.015137631 0.029070456 0.015962575 4283990563
0.016851295 0.029890547 0.014845807 4283925793
0.018940594 0.029344568 0.015154926 4283860768
0.020842131 0.029481741 0.014751177 4283861023
0.023527008 0.026888987 0.017192384 4283925538
0.025240788 0.027709378 0.016075823 4283990819
0.027351577 0.027165256 0.016380616 4283990053
0.029263873 0.027303511 0.015974823 4284056353
0.031795748 0.025396638 0.017695962 4284056609
0.033925243 0.02485409 0.017996958 4284056098
0.0358482 0.02499334 0.017589079 4284056608
0.037556585 0.025813797 0.016474016 4284056609
0.038825125 0.027995864 0.013946755 4283991584
0.04029749 0.029496044 0.012129113 4283797018
0.042649381 0.028273309 0.01313599 4283862298
0.045687664 0.025010297 0.016255638 4283796764
0.0485247 0.022429466 0.018665278 4283926049
0.050230086 0.023250144 0.017551197 4283990818
0.051463496 0.025430115 0.01503174 4283990564
0.052444831 0.02828856 0.011813045 4283992348
0.054120541 0.029107315 0.010705428 4283928599
0.056273371 0.028567357 0.011002185 4283927324
0.059651271 0.024632782 0.014803026 4283927068
0.063554384 0.019343048 0.019998008 4283992349
0.06849739 0.011341963 0.027983611 4283992093
-0.0022690669 0.02698233 0.017709492 4283726129
-0.00053463131 0.02780539 0.016589463 4283924518
0.00086212903 0.030001743 0.014038922 4283864593
0.0025807321 0.030823806 0.012922369 4283795233
0.004637219 0.030272776 0.013236355 4283928089
0.0070476271 0.028349752 0.0149775 4283862043
0.0092972293 0.027114017 0.016001698 4283992604
0.011018839 0.027936598 0.014884742 4284056099
0.012735166 0.028758876 0.013768969 4284056353
0.015001003 0.027524544 0.014789902 4284122144
0.016902372 0.027661545 0.014386063 4284056609
0.019184362 0.026428487 0.015403725 4284056353
0.02109115 0.026566027 0.014998851 4284056354
0.0231936 0.026018988 0.015303606 4283990819
0.02450818 0.028210334 0.012771234 4283925538
0.026610658 0.027663453 0.013076102 4283927833
0.028922159 0.026432907 0.0140878 4283992604
0.031657014 0.023835424 0.01651188 4283925538
0.033577222 0.023974407 0.016104527 4283991073
0.035285719 0.024797002 0.01499103 4284056609
0.036560141 0.026985863 0.012467582 4283991329
0.037818477 0.02917368 0.0099475663 4283927323
0.03950014 0.029994523 0.0088399872 4283858473
0.041843534 0.028766861 0.0098452922 4283858729
0.044872731 0.025492407 0.012958428 4283858983
0.047700875 0.022902302 0.015363207 4283925283
0.049628742 0.023042455 0.014954712 4284056099
0.050857306 0.025228521 0.012441404 4284056098
0.051833987 0.028095296 0.0092304759 4284056098
0.053742871 0.028234288 0.0088261757 4284056354
0.055892743 0.027691985 0.0091218855 4284056354
0.059022937 0.024425399 0.012214037 4283990818
0.06267263 0.019798834 0.016698247 4284056353
0.066857837 0.013813507 0.022571085 4284056098
-0.00099679083 0.027642567 0.013990674 4283858474
0.00056112185 0.029156025 0.012160426 4283928854
0.0022771582 0.029980052 0.0110461 4283797529
0.0041593052 0.0301152 0.010645978 4283862299
0.0065636896 0.028185286 0.012383278 4283928853
0.0088074766 0.02694476 0.013405366 4283991584
0.010703232 0.027081115 0.01300253 4284055844
0.012599047 0.02721755 0.012599742 4284056609
0.014679663 0.026666462 0.012907196 4284056098
0.01676568 0.026115829 0.013213556 4284056353
0.018857084 0.025565676 0.013518842 4284122144
0.020761102 0.025703017 0.013114557 4284056608
0.022469712 0.026527276 0.012002409 4283991073
0.023776744 0.028724562 0.0094767101 4283995154
0.025870923 0.028174872 0.0097816885 4283928089
0.028377373 0.026253173 0.011497986 4283928343
0.030899873 0.024332672 0.013210984 4283864339
0.033020776 0.023785193 0.01351043 4283991074
0.034512546 0.025295218 0.011695277 4284056609
0.03599358 0.026804579 0.0098824091 4284055844
0.037247069 0.0289985 0.007368546 4283994898
0.038703959 0.03050627 0.0055609252 4283927323
0.040816665 0.029958585 0.0058624167 4283926813
0.04360925 0.027357198 0.0082679261 4283993113
0.046650685 0.024072919 0.011370089 4284123929
0.048797976 0.023527946 0.01166448 4284055844
0.05048475 0.024351757 0.010557774 4284055843
0.052401662 0.024491284 0.010151733 4284055843
0.054556713 0.023947109 0.010444669 4283990308
0.056957889 0.022719879 0.011434782 4284056098
0.059613243 0.020810116 0.013120472 4284056098
0.063023239 0.016852137 0.016894301 4284122399
0.066714115 0.012213573 0.021358052 4284122653
0.072958171 0.00075015053 0.032774195 4284123163
-0.0014581457 0.027488615 0.011398684 4283464499
0.00026055798 0.028314888 0.0102854 4283858983
0.0021425188 0.028449928 0.0098852422 4283793704
0.0040245689 0.028585047 0.0094851218 4283925029
0.006428279 0.026648594 0.011217486 4283925538
0.0083185174 0.026784455 0.010815749 4283990818
0.010208827 0.026920404 0.01041406 4284056099
0.012281075 0.026366467 0.010721533 4284056099
0.014543291 0.025123158 0.011736492 4284056353
0.016629014 0.024570342 0.012041224 4284122144
0.018530227 0.024707401 0.01163747 4284056353
0.020238899 0.025533741 0.010526933 4284056099
0.021746993 0.027048834 0.0087112766 4283927323
0.023244424 0.028563188 0.0068979859 4283858983
0.025332954 0.028010977 0.0072024371 4283792174
0.027630117 0.026770754 0.0082104169 4283793703
0.030143905 0.024843192 0.0099201519 4283925029
0.032047875 0.024981 0.0095162466 4283925793
0.033951823 0.025118893 0.0091124121 4284056099
0.03521385 0.027319837 0.006601749 4283990308
0.036676425 0.028832268 0.0047962461 4283991074
0.037908956 0.031031234 0.0022919625 4283991584
0.040679321 0.028419571 0.004695328 4283992094
0.043471031 0.025809502 0.0070942808 4283990818
0.046511397 0.022514362 0.010188231 4284056353
0.048888408 0.021280736 0.011179915 4284055844
0.051043339 0.020734295 0.011471031 4283990053
0.053438898 0.019502167 0.012458896 4284121634
0.055845041 0.018270936 0.013444547 4284121124
0.058502495 0.016354792 0.015124682 4284056098
0.060932484 0.015125457 0.0161054 4284056099
0.063619114 0.013211615 0.017779494 4284056353
0.067067817 0.0092435963 0.021535071 4283990053
-3.9599836e-05 0.027478365 0.0084137898 4282872644
0.0020079203 0.026920026 0.0087245442 4283990819
0.0038898773 0.027055124 0.008324435 4284056354
0.0061192475 0.025804851 0.0093426928 4283991584
0.0076540299 0.027325569 0.0075243451 4283926048
0.009178184 0.028845638 0.005708266 4283796254
0.011600159 0.026904209 0.0074319057 4283796254
0.013853863 0.025656011 0.0084452499 4283796254
0.016118314 0.02440862 0.0094564185 4284056354
0.017634653 0.025928462 0.0076422598 4284056609
0.019525103 0.026064811 0.0072408449 4283990819
0.020830419 0.028274802 0.0047256276 4283995664
0.02251515 0.029101769 0.0036219358 4283796254
0.024394965 0.0292376 0.0032229759 4283793449
0.026680946 0.02799225 0.0042299479 4283859238
0.029183362 0.026057383 0.0059370287 4283992859
0.031284973 0.025504159 0.0062372442 4284056099
0.033391897 0.024951449 0.0065363571 4284056099
0.034862816 0.026468731 0.0047324076 4284056098
0.036755916 0.026606007 0.0043310057 4283990308
0.038429849 0.027432796 0.0032301564 4283990053
0.040985577 0.025502244 0.0049263593 4283990818
0.043781757 0.022883873 0.0073176157 4284056353
0.046599269 0.020267133 0.0097044148 4284056609
0.049208269 0.018340737 0.011389475 4284057374
0.051600751 0.017104004 0.012374569 4283991583
0.05423899 0.015179899 0.014053557 4283924519
0.056655355 0.013945069 0.015033726 4283924773
0.059322804 0.012023252 0.016706651 4283990308
0.061763011 0.010790329 0.017681899 4283990308
0.06421379 0.0095583014 0.018654926 4283924263
0.067420706 0.0062651709 0.021705693 4283924009
0.0018733777 0.025390362 0.0075640194 4283858983
0.0035844147 0.026220573 0.006455794 4284056609
0.0056371652 0.025660587 0.0067638531 4283926304
0.006990727 0.02788 0.0042429641 4283860513
0.0088647939 0.028014747 0.0038447008 4283794469
0.010920417 0.027455272 0.0041523054 4283860769
0.013165623 0.026202084 0.0051641129 4283798549
0.015421562 0.0249498 0.0061736573 4283925283
0.017119683 0.025779603 0.0050686635 4284056354
0.018620297 0.027302699 0.0032612775 4284056099
0.020305116 0.028131718 0.0021592453 4283991583
0.021787072 0.029653585 0.00035599433 4283928853
0.023858972 0.029095849 0.0006605899 4283927833
0.026139108 0.027845813 0.001665391 4283993113
0.028841065 0.025211407 0.004069427 4284057628
0.031147936 0.023963422 0.0050687231 4284056099
0.033676382 0.022024129 0.0067653451 4284056099
0.035366528 0.022854105 0.0056626294 4284121888
0.037700061 0.021608304 0.0066564698 4284121888
0.039606385 0.021746628 0.0062523335 4283990054
0.042399064 0.019119341 0.0086374823 4283925283
0.044988807 0.017184872 0.010321481 4283925538
0.047821477 0.014560621 0.012698328 4283859748
0.050216217 0.013319716 0.013679473 4283727403
0.052621581 0.012079626 0.014658481 4283793194
0.054802567 0.011530891 0.014940796 4283858474
0.057226449 0.010292362 0.015915969 4283858474
0.05966093 0.0090546459 0.016889 4283857963
0.061863005 0.008507695 0.017167049 4283923754
0.064315967 0.0072714984 0.018136306 4283858218
0.067772821 0.0032782443 0.021869948 4283857709
0.0010671094 0.026650803 0.0035756119 4282675783
0.0029381663 0.026785072 0.0031777844 4283792684
0.0049825944 0.026222369 0.0034858771 4283797528
0.0066805258 0.027053894 0.0023822822 4283796509
0.0081945546 0.028581852 0.00057509448 4283792939
0.010060564 0.028716097 0.00017860532 4283858219
0.012294583 0.027457776 0.0011893958 4283925284
0.014725987 0.025504256 0.0029009655 4283991838
0.016605504 0.025639718 0.0025017969 4284056099
0.018101063 0.027166726 0.00069891196 4284056099
0.019585956 0.028693045 -0.0011016512 4284056098
0.021454852 0.028827993 -0.0014983686 4283990308
0.023723803 0.027572742 -0.00049463846 4283990564
0.026206156 0.025623353 0.0012065507 4283925028
0.028909899 0.022980493 0.0036034081 4284056099
0.031426996 0.021033786 0.0052973572 4284121633
0.033960111 0.019088317 0.0069879685 4284121379
0.036082469 0.018532503 0.0072805081 4284055333
0.038642265 0.01658915 0.0089656003 4284056099
0.040780589 0.016034652 0.0092548821 4284056609
0.043588437 0.013399806 0.011630112 4283858728
0.045969449 0.012153435 0.012610668 4283858729
0.048361104 0.010907885 0.013589088 4283858219
0.050992794 0.0089702196 0.015259231 4283726639
0.052944146 0.0091122575 0.014845898 4283727403
0.055130184 0.0085617453 0.01512547 4283727404
0.057084031 0.0087041371 0.014711747 4283792429
0.059758138 0.006769862 0.016373219 4283792683
0.062205393 0.005528871 0.017340256 4283792428
0.064663202 0.0042887777 0.018305087 4283857964
0.068620406 -0.0011004321 0.023407793 4283792683
0.0021226816 0.028062331 -0.00079498906 4283727658
0.003983032 0.028195912 -0.0011904798 4283793959
0.0058434494 0.028329572 -0.0015859269 4283797784
0.007882379 0.027764464 -0.0012782374 4283928089
0.0097456127 0.027898498 -0.0016741464 4283927323
0.011792682 0.027334144 -0.0013680551 4284058393
0.014031611 0.026071943 -0.00036161579 4284057373
0.016281262 0.024810633 0.00064255763 4284056099
0.017966233 0.02564388 -0.00045620464 4284056099
0.019840356 0.025779124 -0.00085409451 4284056353
0.021911655 0.025216946 -0.00055281539 4284122144
0.024387963 0.023260556 0.0011445172 4284121888
0.027082831 0.020608302 0.0035364944 4284122144
0.029593889 0.018654637 0.005226545 4284122908
0.03191315 0.017398924 0.0062164683 4284121889
0.034453593 0.015447561 0.0079004224 4284055844
0.036796875 0.014193766 0.0088853929 4284055333
0.039366677 0.012244668 0.010563303 4284055588
0.041515395 0.011688773 0.010848695 4284055334
0.044554267 0.0083502643 0.013909118 4283990054
0.046724267 0.0077960975 0.014190139 4283924008
0.048899546 0.0072424076 0.014470115 4283858728
0.050850876 0.0073843785 0.014056738 4283793193
0.05326594 0.0061364025 0.015026962 4283793193
0.055457026 0.0055841319 0.015303802 4283727403
0.057653364 0.0050323196 0.015579591 4283727403
0.059854943 0.0044809803 0.015854334 4283792683
0.062546968 0.0025416501 0.017507045 4283792429
0.065254912 0.00060356408 0.019156439 4283791663
0.069218457 -0.0048023798 0.024244273 4283857709
0.0016492195 0.027953999 -0.003348114 4282281299
0.0035041198 0.02808716 -0.0037424667 4283530034
0.0055346787 0.027519157 -0.0034347149 4283859239
0.0072141327 0.028353769 -0.0045310063 4284056353
0.0096120015 0.026384652 -0.0028225491 4284122654
0.011658773 0.025818104 -0.0025180923 4284056353
0.014083475 0.023851085 -0.00081520341 4284056353
0.016524263 0.021885313 0.00088433642 4283990308
0.018597886 0.021320969 0.0011832993 4283924008
0.020676881 0.020757094 0.001481181 4283924773
0.022564286 0.02089338 0.0010805372 4283990818
0.025250241 0.018231753 0.0034675784 4283924519
0.027755288 0.016271062 0.0051538255 4283858729
0.030071378 0.015010763 0.006140938 4283924264
0.032398149 0.013751309 0.0071258377 4283990308
0.034735613 0.01249269 0.0081085991 4283990054
0.03708373 0.01123498 0.0090891253 4283924518
0.039442524 0.0099780783 0.010067495 4284055334
0.041811954 0.0087220855 0.011043636 4283989033
0.04441306 0.0067689829 0.012710001 4283924009
0.046806447 0.0055149086 0.013681203 4283924009
0.048757736 0.0056567974 0.013267774 4283924264
0.050708953 0.0057987757 0.012854435 4283924264
0.053123523 0.0045464747 0.01382141 4283924008
0.055548694 0.0032950677 0.01478616 4283924009
0.057747401 0.0027413033 0.01505978 4283792683
0.059951365 0.0021879636 0.015332393 4283857963
0.062645361 0.00024237111 0.016979599 4283857198
0.065355279 -0.0017020181 0.018623536 4283922478
0.069567584 -0.0078211427 0.024384422 4283988778
0.0031987317 0.027283717 -0.0055867117 4282741829
0.0052263029 0.026713373 -0.0052800681 4284055844
0.0074373558 0.025440253 -0.0042746821 4284186914
0.0098398924 0.023464981 -0.0025722906 4284121633
0.012075108 0.022193812 -0.0015719458 4284122143
0.014321059 0.02092351 -0.00057381392 4284056354
0.017143998 0.017546728 0.0025147032 4283990818
0.019228026 0.016980924 0.0028098077 4283991328
0.021317415 0.016415633 0.0031037927 4283925283
0.023215402 0.016552687 0.0027009007 4283858983
0.025911173 0.013883136 0.0050791092 4283792683
0.028426206 0.011916738 0.0067581274 4283858983
0.030752506 0.010652822 0.0077397432 4283924263
0.03288202 0.01009088 0.0080255661 4283924009
0.035227004 0.0088285021 0.0090033598 4283924009
0.037582643 0.007567022 0.0099789202 4283858474
0.039948944 0.0063064098 0.010952286 4283924008
0.042107761 0.0057469234 0.011232233 4283924009
0.044271857 0.0051879622 0.011511089 4283923754
0.046664745 0.0039295517 0.012479033 4284055079
0.048842095 0.0033717267 0.012755221 4283989543
0.051024728 0.0028143339 0.013030397 4283989544
0.053444136 0.0015581287 0.013992941 4283989543
0.05563996 0.001001928 0.014265431 4283989544
0.057604179 0.0011451356 0.013849556 4284054823
0.059568301 0.0012884289 0.013433777 4284054058
0.062016733 3.4663826e-05 0.01439051 4284119084
0.065210365 -0.0033133291 0.017401924 4284446503
0.0061447173 0.020973071 -0.0022308603 4282740554
0.0081934445 0.020402163 -0.0019303439 4284055588
0.010608658 0.018421311 -0.00023572519 4283990308
0.012856741 0.017146759 0.00075850729 4283924263
0.014929686 0.016577847 0.0010540802 4283857708
0.017385136 0.014600188 0.0027403813 4283792683
0.019474186 0.01403261 0.0030326713 4283792938
0.021762537 0.01276128 0.0040186848 4283858729
0.023865001 0.012194872 0.0043082777 4283858729
0.026371324 0.01022128 0.005984012 4283858474
0.028287927 0.010359846 0.0055773053 4283924008
0.030613728 0.0090915859 0.0065556522 4283924009
0.0329502 0.0078242272 0.0075317677 4283857963
0.035717234 0.0051515661 0.0098883826 4283792683
0.038080409 0.0038862862 0.01085902 4283858474
0.040454224 0.0026219077 0.011827422 4283858474
0.042184822 0.003465835 0.010724755 4283793193
0.044130661 0.00360718 0.010312364 4283858729
0.046523049 0.0023444295 0.011277042 4284185894
0.04937803 -0.00032127276 0.013615469 4284186149
0.051797025 -0.0015819408 0.01457471 4284186149
0.054226622 -0.0028417073 0.015531734 4284317219
0.055964846 -0.0019966736 0.014427876 4284578338
0.0067108721 0.016622517 -0.00059537776 4282480453
0.0089476518 0.015342623 0.00039771292 4283727148
0.011375543 0.013356216 0.0020845812 4283990309
0.013453476 0.01278542 0.0023773368 4283924773
0.015536804 0.012215093 0.0026690122 4283858473
0.017437156 0.01235202 0.0022653919 4283924264
0.019528579 0.011782479 0.0025555007 4283924264
0.022012804 0.0098005831 0.0042307544 4283924009
0.024316693 0.0085261911 0.0052101202 4283924008
0.026631298 0.0072526187 0.0061873216 4283858729
0.028351407 0.0080973804 0.0050881207 4283924009
0.030883767 0.0061193816 0.006753413 4283923754
0.033225097 0.004848022 0.0077251662 4283857963
0.03578683 0.0028723441 0.0093843713 4283857708
0.038152173 0.0016029142 0.010351175 4283727403
0.040528163 0.00033439323 0.011315752 4283727404
0.042479277 0.00047603995 0.010902181 4283793704
0.044430345 0.00061776862 0.010488683 4283924263
0.046381358 0.00075960532 0.010075286 4284251684
0.049009666 -0.0012107305 0.011720859 4284447268
0.051882394 -0.0038836673 0.014048854 4284708134
0.0074503385 0.011544921 0.0017225165 4282873154
0.0096999817 0.010261633 0.0027095024 4283727404
0.012140546 0.0082696453 0.004388595 4283858728
0.01404871 0.008406952 0.0039831698 4283923754
0.015956923 0.0085443556 0.0035778042 4283924009
0.017677009 0.0093908012 0.0024799295 4283923753
0.019582625 0.0095282085 0.002075268 4283924263
0.021875303 0.0082485899 0.0030535571 4283924008
0.024571078 0.0055530556 0.0054114331 4283989288
0.026492791 0.0056919046 0.0050035715 4283989543
0.028616045 0.0051228777 0.0052855313 4283924009
0.031153064 0.0031387098 0.0069448221 4283857708
0.033706099 0.0011558384 0.0086007342 4283922989
0.036275171 -0.00082581863 0.010253372 4284053804
0.038435791 -0.0013917573 0.010527704 4284118573
0.040601723 -0.0019572265 0.01080098 4284315433
0.0074894503 0.0092942417 0.0012490265 4283134783
0.010095865 0.0065829828 0.0036186185 4283661358
0.012363777 0.0052967779 0.0045984127 4283727403
0.014459796 0.0047229454 0.0048839319 4283924008
0.016190607 0.0055722222 0.0037853885 4283859239
0.017916106 0.0064211935 0.0026880335 4283924773
0.020208254 0.0051371381 0.0036629904 4283925029
0.022317804 0.0045646243 0.0039459858 4283990309
0.024628703 0.0032821 0.0049171019 4284054569
0.026950326 0.0020004064 0.005886063 4284054568
0.029483965 9.4659626e-06 0.0075408835 4284119849
0.032033652 -0.0019802526 0.0091924276 4284053294
0.034599353 -0.0039686672 0.010840604 4284053549
0.037181087 -0.0059558712 0.012485495 4284316454
0.010313518 0.0036056638 0.0038264561 4283726894
0.012406506 0.0030293614 0.004110856 4283727658
0.014687344 0.0017398223 0.0050846413 4283792938
0.016423564 0.0025916286 0.0039866231 4283859238
0.018530056 0.002016589 0.0042683836 4283793958
0.02083239 0.00072894245 0.0052377991 4283925794
0.022759173 0.00086795539 0.0048287045 4284055589
0.025077596 -0.00041838735 0.0057948902 4284119848
0.027605187 -0.0024163313 0.0074458569 4284250154
0.030551128 -0.0058376901 0.010466443 4284118318
0.033116147 -0.0078327581 0.012109669 4284447013
0.01035355 0.0013361797 0.0033380017 4283857964
0.012628481 4.1797757e-05 0.004309589 4283988778
0.014914144 -0.0012516715 0.0052789282 4283988779
0.017025635 -0.0018286631 0.0055578966 4284053804
0.019142501 -0.0024051219 0.0058357622 4284315434
0.021645281 -0.0044116266 0.0074866973 4284248624
0.010569952 -0.0016558096 0.0035347696 4283593019
0.012849711 -0.0029541254 0.0045019072 4284183853
0.015140224 -0.0042515993 0.0054668859 4284118064
0.017626196 -0.0062659867 0.0071161725 4284315943
0.040465552 -0.015945673 0.0050853081 4284574259
0.043077692 -0.017969102 0.0066936929 4284248623
0.045268029 -0.018547595 0.0069502126 4282614328
0.047463655 -0.019125611 0.0072056949 4282158134
0.051234189 -0.024753153 0.012172118 4282026553
0.038359974 -0.01768139 0.0042933188 4283919419
0.040536717 -0.01826328 0.0045509189 4282810169
0.043150801 -0.020292968 0.0061538033 4282419253
0.045343481 -0.020873442 0.006408155 4281765688
0.047762834 -0.022177249 0.0073335525 4281569594
0.051312976 -0.027098104 0.011614213 4281569339
0.030164905 -0.019115761 0.0040759426 4282939454
0.032125559 -0.018973872 0.0036599934 4282350913
0.033881061 -0.018104762 0.0025703274 4281958724
0.036046833 -0.018689767 0.0028283615 4281828164
0.038638908 -0.020727776 0.0044307299 4281697348
0.041033812 -0.022037938 0.0053576436 4281436738
0.043007713 -0.021894544 0.0049393158 4281371713
0.045200065 -0.02247718 0.0051920656 4281307454
0.047618896 -0.023785315 0.0061142128 4281371968
0.051391397 -0.029447138 0.011053286 4281763904
0.057245169 -0.041635841 0.022006923 4281762628
0.025714062 -0.019529492 0.0023529436 4283135294
0.027669229 -0.019388214 0.001937991 4282481729
0.029824009 -0.019976512 0.0021964051 4281827908
0.031984132 -0.020564303 0.0024537761 4281566278
0.034354553 -0.02188091 0.0033823121 4281435463
0.036735632 -0.023196593 0.0043086316 4281566534
0.038917076 -0.023782514 0.0045617316 4281436229
0.040890876 -0.023639217 0.0041433517 4281436228
0.043295916 -0.024952881 0.0050648879 4281371714
0.045493282 -0.025537297 0.0053148884 4281306433
0.048137903 -0.02757749 0.0069014262 4281240899
0.051916711 -0.033256024 0.01182566 4281698113
0.023235628 -0.019791529 0.00021843147 4283135803
0.025573459 -0.021115258 0.0011501629 4282286145
0.027921975 -0.022438049 0.0020796619 4281959233
0.030081768 -0.02302812 0.0023353454 4281435973
0.032449 -0.024349391 0.0032610893 4281501254
0.03462214 -0.02493827 0.0035141055 4281501254
0.036800604 -0.025526643 0.0037660934 4281501253
0.038774293 -0.025383487 0.0033476371 4281566534
0.041173503 -0.026701972 0.004266968 4281501508
0.043367911 -0.027288854 0.0045158286 4281305924
0.046003848 -0.029336229 0.0060990807 4281306943
0.049097322 -0.032842919 0.0090132616 4281241663
0.05355816 -0.0407281 0.015921276 4281305669
0.02328679 -0.022107244 -0.00030916277 4283531563
0.025820646 -0.024169497 0.001289878 4281959489
0.027977429 -0.024762049 0.0015444215 4281828673
0.030139569 -0.025354154 0.0017979536 4281632069
0.03250894 -0.026679516 0.0027198456 4281435973
0.034684412 -0.027270392 0.0029706825 4281435719
0.036657982 -0.027127318 0.0025521908 4281631559
0.038631532 -0.026984148 0.0021337755 4281631560
0.041242789 -0.029040009 0.0037170239 4281632069
0.043870039 -0.031094588 0.0052969735 4281305158
0.047167014 -0.035345823 0.0088717658 4281240644
0.051157758 -0.041791983 0.014436349 4281305924
0.055866282 -0.050431319 0.021985577 4281239623
0.023337603 -0.024427012 -0.00083978102 4283334194
0.025679719 -0.025758997 8.4262341e-05 4281893698
0.028032534 -0.027090132 0.0010061543 4281827908
0.030196998 -0.027684152 0.0012574866 4281697348
0.032568511 -0.029013671 0.0021755565 4281632069
0.034746319 -0.029606521 0.0024242196 4281566278
0.037136514 -0.030934483 0.0033385549 4281500743
0.039747082 -0.032996945 0.0049168225 4281696839
0.042798407 -0.036528543 0.0078228433 4281827399
0.045876399 -0.040058061 0.010723319 4281566024
0.049851954 -0.046524823 0.016275879 4281434953
0.054095916 -0.053722568 0.0224822 4281500234
0.023578878 -0.027489692 -0.00070506893 4282940473
0.025925819 -0.028825663 0.00021462329 4281304903
0.02808727 -0.029422194 0.00046480447 4281436229
0.030055232 -0.029279888 4.7219917e-05 4281435973
0.032224707 -0.029875591 0.00029588304 4281631560
0.035012059 -0.032684669 0.0025403183 4281630793
0.038441304 -0.037705339 0.0067753885 4281761609
0.042117447 -0.043460771 0.011667121 4281892679
0.045624085 -0.048475631 0.015886016 4281761864
0.049382929 -0.054224767 0.020760367 4282479689
0.021102447 -0.027737394 -0.0028288327 4284705584
0.023438148 -0.029078573 -0.0019102599 4282745143
0.025784556 -0.030418895 -0.00099382736 4281174089
0.027945671 -0.031017587 -0.00074524991 4281304648
0.029913489 -0.030875295 -0.0011628028 4281304138
0.032485254 -0.032953784 0.00041327812 4281433933
0.035685018 -0.037251398 0.0039779861 4281170518
0.040156737 -0.045986071 0.011516277 4281103454
0.044692531 -0.054716006 0.01904113 4281234014
-0.010708645 -0.019480661 -0.0085844556 4284050234
0.021337826 -0.030808493 -0.0026991237 4284247094
0.02329744 -0.030667141 -0.0031152125 4282153289
-0.021198556 -0.017211743 -0.011776854 4283527229
-0.019031152 -0.018575847 -0.010830992 4282546243
-0.017132014 -0.018440992 -0.01123591 4282023749
-0.014806099 -0.020552613 -0.0096196001 4281893699
-0.012753814 -0.021165617 -0.0093529699 4282089539
-0.010696046 -0.021778122 -0.009087421 4282940984
-0.0086328164 -0.022390172 -0.0088229086 4284509233
-0.027263343 -0.01764524 -0.013081626 4284706348
-0.025246941 -0.018263668 -0.012809518 4283791664
-0.023225032 -0.018881537 -0.012538529 4282481984
-0.021331646 -0.01874733 -0.012942401 4282023749
-0.019164763 -0.020115785 -0.011999805 4281696584
-0.016847678 -0.022234611 -0.010386756 4281500999
-0.014798515 -0.022850111 -0.010121241 4281500998
-0.012599185 -0.024215966 -0.0091852527 4281566789
-0.010831147 -0.02332899 -0.010264389 4282941239
-0.0086182281 -0.024693668 -0.0093311276 4284640303
-0.033528753 -0.016556643 -0.015737174 4283463733
-0.031290822 -0.018688224 -0.014112907 4282352443
-0.029159881 -0.020064116 -0.013166389 4281895228
-0.027269796 -0.019930497 -0.01356984 4281567808
-0.025379539 -0.019796744 -0.013973239 4281436484
-0.023357943 -0.020416811 -0.013703882 4281175109
-0.021330878 -0.021036386 -0.013435609 4281240134
-0.019161806 -0.022409037 -0.012496811 4281436229
-0.016981937 -0.023780771 -0.011560267 4281435973
-0.014791265 -0.02515164 -0.010625951 4281632324
-0.012589782 -0.026521675 -0.0096938089 4281632324
-0.010671847 -0.026385196 -0.010102503 4283399729
-0.037411876 -0.018342994 -0.016091034 4283463223
-0.035535954 -0.018210799 -0.016491793 4282680884
-0.033659846 -0.018078506 -0.016892523 4281568064
-0.031663246 -0.018702924 -0.016619861 4281436484
-0.029415153 -0.020840153 -0.015002741 4281502019
-0.027402207 -0.021463253 -0.014733362 4281305668
-0.025255434 -0.022842079 -0.013793471 4281044293
-0.02335982 -0.02270788 -0.014197948 4281240133
-0.021196745 -0.024085388 -0.013261335 4280979269
-0.019159183 -0.024706282 -0.012996921 4281175364
-0.016977169 -0.02608218 -0.012064209 4281370949
-0.014784336 -0.027457245 -0.01113368 4281566788
-0.0125807 -0.028831385 -0.010205403 4281762373
-0.010660246 -0.028694756 -0.010614663 4283333428
0.0016798005 -0.031641424 -0.0097475052 4284704309
-0.040973268 -0.022408292 -0.014420909 4283856688
-0.039308809 -0.020756297 -0.016171409 4282613819
-0.037206233 -0.022143185 -0.015225952 4281894464
-0.035207629 -0.022769839 -0.01495557 4281436483
-0.033321001 -0.022636831 -0.015358572 4281240133
-0.031314038 -0.023262739 -0.015089777 4281174854
-0.029301584 -0.023888089 -0.014822102 4281174598
-0.027283624 -0.024512962 -0.014555538 4281174598
-0.025260173 -0.025137343 -0.014290052 4281240134
-0.023231223 -0.025761269 -0.014025616 4281174088
-0.021196812 -0.026384667 -0.013762314 4281109319
-0.019156896 -0.027007535 -0.013500081 4281044549
-0.017111517 -0.027629912 -0.013238925 4281305668
-0.014919199 -0.029009342 -0.012311667 4281500743
-0.012860216 -0.029630519 -0.012053235 4281631304
-0.010502174 -0.031765476 -0.010463815 4283134783
-0.042051725 -0.030928984 -0.0091168489 4282285633
-0.040891036 -0.025460191 -0.014234949 4281958724
-0.039439589 -0.022279657 -0.017328018 4281762883
-0.037225574 -0.024432644 -0.015714064 4281435973
-0.035339244 -0.024299756 -0.016117087 4281435973
-0.03333544 -0.024928167 -0.015849397 4281370948
-0.031326123 -0.025556013 -0.015582826 4280913988
-0.029311322 -0.026183397 -0.015317371 4281174854
-0.02729103 -0.026810266 -0.015052993 4281109064
-0.025137283 -0.028197289 -0.014121313 4281108809
-0.023103334 -0.028822973 -0.013859674 4281109064
-0.020930633 -0.030208394 -0.012931911 4281108809
-0.019018993 -0.03007286 -0.013339659 4280913224
-0.017107219 -0.029937208 -0.013747353 4281043019
-0.015195303 -0.029801443 -0.014154986 4281303884
-0.01299537 -0.031184509 -0.01323263 4281237074
-0.041769132 -0.035533577 -0.0076039028 4282348618
-0.040809505 -0.028520405 -0.014055379 4281958214
-0.039242998 -0.026094958 -0.016472317 4281631814
-0.037245214 -0.026726149 -0.016205195 4281435973
-0.035241917 -0.027356818 -0.015939211 4281436228
-0.033233099 -0.027986974 -0.015674319 4281305668
-0.031218797 -0.028616667 -0.015410541 4281109573
-0.029198982 -0.029245898 -0.015147798 4281044548
-0.027298748 -0.029111639 -0.015553473 4281109064
-0.025398366 -0.02897726 -0.015959099 4281043019
-0.02323699 -0.030367896 -0.015032373 4280912203
-0.020931706 -0.032520086 -0.013442252 4280976719
-0.018881775 -0.033146575 -0.013185544 4280911694
-0.017241657 -0.031486519 -0.014923278 4280388434
-0.041902341 -0.037088729 -0.0087847244 4282217038
-0.040941179 -0.030056134 -0.015221423 4281565259
-0.039374247 -0.02762422 -0.017633423 4281631559
-0.037265182 -0.029023677 -0.01669945 4281503293
-0.035259522 -0.029656336 -0.016435662 4281437503
-0.033131458 -0.031054214 -0.015505578 4281371968
-0.031112127 -0.031685717 -0.015244566 4281435973
-0.029087305 -0.0323167 -0.014984617 4281305669
-0.027306803 -0.03141699 -0.016057063 4280976718
-0.025531463 -0.030517533 -0.017128317 4280778838
-0.040860638 -0.033128768 -0.015051229 4281955409
-0.039179221 -0.031458437 -0.016792025 4281500998
-0.036951274 -0.033629879 -0.015196176 4281632323
-0.03482122 -0.035032004 -0.014270012 4281503038
-0.032680333 -0.036433309 -0.013346053 4281437759
-0.030528627 -0.037833676 -0.012424345 4281436738
-0.028610192 -0.037698284 -0.012834025 4281172048
-0.027065746 -0.035260901 -0.015235701 4280451419
-0.040039591 -0.041605003 -0.010222909 4282738258
-0.03822542 -0.040699258 -0.011299762 4282216783
-0.035749093 -0.044416055 -0.0083840862 4281956938
-0.033587582 -0.045820326 -0.0074679772 4281957194
-0.031298697 -0.047993645 -0.0058900677 4282282064
-0.0042163618 0.02071467 0.027605196 4282602089
-0.0085737295 0.02932559 0.01604596 4278860985
-0.0062202103 0.027397968 0.017798802 4279716509
-0.0040087365 0.026158977 0.0188307 4280768128
-0.0093188882 0.030550784 0.012013555 4282398344
-0.0068213977 0.027926115 0.014480162 4278468539
-0.00461841 0.02668217 0.015510466 4279587479
-0.0028866641 0.027507091 0.014392614 4281622888
-0.0074213818 0.02846753 0.011171579 4281156239
-0.005384706 0.02791029 0.011486109 4278997154
-0.0035030581 0.028045071 0.011085834 4279522709
-0.0078651905 0.028328096 0.0085862353 4282727039
-0.0058341697 0.027768308 0.0089002084 4279978649
-0.0037976727 0.027208986 0.0092130769 4278931874
-0.0017557032 0.026650097 0.0095248949 4279591303
-0.0065976977 0.029027341 0.004899215 4280764048
-0.0047322847 0.029160907 0.0045023542 4278866594
-0.0023784041 0.027207527 0.0062349476 4278933404
-0.00735965 0.03030399 0.00091157947 4281284503
-0.0056649446 0.031134794 -0.00019171275 4278403259
-0.0031625144 0.028476071 0.0022469237 4278534584
-0.00080385804 0.026516611 0.0039734766 4279717528
-0.056000166 0.028198062 0.0071457364 4282733159
-0.053709693 0.024802048 0.010362314 4282274669
-0.0078058913 0.030197429 -0.0016473979 4281153434
-0.0062761791 0.031730197 -0.00345496 4278534074
-0.0015977547 0.027795451 -3.8594007e-06 4279522199
0.000430163 0.02722922 0.00030591059 4280574328
-0.054831147 0.031074453 0.0012950152 4279125928
-0.052729718 0.029081652 0.0030646175 4279519904
-0.050612047 0.027090056 0.0048307963 4279580339
-0.0084082112 0.030802403 -0.0049056318 4279914134
-0.0068862326 0.032338906 -0.0067081926 4279062433
-0.0044015646 0.029661598 -0.0042793183 4278996899
-0.0020603128 0.027687943 -0.0025592707 4278407084
-3.8024038e-05 0.027119078 -0.002249971 4279128989
-0.063686311 0.025397046 0.0057223458 4278603689
-0.062406518 0.030497687 0.00028422568 4278603434
-0.055498622 0.033847362 -0.0041430108 4279191464
-0.053506464 0.032556191 -0.0030929893 4278601904
-0.051503375 0.031265806 -0.0020452142 4280106659
-0.0086959675 0.030011129 -0.0067450944 4278273464
-0.0071763955 0.031551749 -0.0085437903 4278668458
-0.00050541759 0.02701791 -0.004799122 4278800549
0.0013466142 0.027150765 -0.0051929438 4279787398
-0.065649003 0.023773897 0.0049800202 4278932128
-0.064349622 0.028890872 -0.00045058131 4278472874
-0.061371215 0.034844007 -0.0069761504 4278997153
-0.059575796 0.034970336 -0.0073598628 4278866083
-0.057780132 0.035096757 -0.0077435696 4278930089
-0.054095611 0.034638382 -0.0077946531 4278732719
-0.052106306 0.033342667 -0.0067473436 4279388068
-0.049812824 0.029914543 -0.003556692 4281020068
-0.0074661225 0.030769177 -0.010375915 4278340018
-0.0026539862 0.02608693 -0.0062477635 4278537898
-0.00030328706 0.024101011 -0.0045397691 4278538664
0.0018936694 0.022822328 -0.0035350248 4278866593
0.0037563667 0.022956029 -0.0039310511 4279392913
-0.065850556 0.022994868 0.0031269677 4278801569
-0.064628899 0.02884157 -0.0030097188 4278735014
-0.054406054 0.034601584 -0.010335547 4278471600
-0.052517474 0.034014568 -0.010004591 4278602668
-0.050330587 0.031288236 -0.0075340378 4278602414
-0.010488302 0.025474217 -0.0072170729 4282401149
-0.0091139078 0.027733259 -0.0097125638 4278603178
-0.0071195513 0.027155653 -0.0094026728 4278866084
-0.004796464 0.025161091 -0.0076940199 4278669734
-0.0021286123 0.021750767 -0.0045900615 4278932128
0.00023208559 0.01975907 -0.0028892765 4278669989
0.0024392381 0.018476784 -0.0018900875 4278670243
0.004484836 0.017903294 -0.0015907511 4279327633
-0.064679086 0.026650311 -0.0034126416 4278735524
-0.056503668 0.034447834 -0.012487695 4278668203
-0.054807737 0.035289519 -0.013582801 4278471598
-0.053022161 0.035415322 -0.013964281 4278602923
-0.051041551 0.034110334 -0.01292189 4279650974
-0.04864981 0.02994528 -0.0090363901 4281283738
-0.010312453 0.022553932 -0.0069533903 4281877633
-0.0086200312 0.023397289 -0.0080462443 4278734759
-0.0064565167 0.022107191 -0.0070414413 4278473638
-0.0039593019 0.019396186 -0.004642304 4278473639
0.00076596439 0.015400048 -0.0012518223 4278603944
0.0028138608 0.01482442 -0.00095469318 4278473639
0.00486717 0.01424931 -0.00065869559 4278932894
-0.064425968 0.02157864 -0.00095939729 4279850128
-0.063620642 0.031052638 -0.010635421 4278669223
-0.062153287 0.034053393 -0.013873408 4278669734
-0.060455352 0.034897123 -0.01496746 4278931619
-0.058502823 0.033585563 -0.013922736 4278406828
-0.05671782 0.033711135 -0.014304242 4278668969
-0.055024453 0.03455475 -0.01539715 4278799784
-0.053241633 0.034680299 -0.015778089 4278733738
-0.051264174 0.033370771 -0.014738482 4278930599
-0.049076058 0.030627253 -0.012281706 4278666418
-0.011840343 0.018779013 -0.005602546 4282205053
-0.0099840425 0.018911563 -0.0059977509 4279259549
-0.0078157969 0.017617375 -0.0049974183 4278866593
-0.0054781511 0.015610792 -0.003302088 4278670243
-0.0032856315 0.014318522 -0.0023067771 4278539173
-0.00091838837 0.01231423 -0.00061760284 4278736034
0.0011317767 0.011736542 -0.00032277312 4278343079
0.0031873696 0.011159331 -2.9030256e-05 4278801824
0.0052483864 0.010582596 0.00026362482 4279261334
-0.063353665 0.025988568 -0.008179958 4278866594
-0.062115446 0.031161536 -0.013550391 4278472874
-0.060495771 0.032728437 -0.015355428 4278472108
-0.058713771 0.032853678 -0.015736382 4278406319
-0.055424124 0.035264835 -0.018627618 4278271934
-0.053555012 0.034669802 -0.018297624 4278272699
-0.051583342 0.033355504 -0.01726019 4278404533
-0.049501091 0.031322449 -0.015516925 4278995368
-0.015539028 0.016290218 -0.0052577397 4282336378
-0.013680436 0.016422722 -0.0056535974 4280372879
-0.01182171 0.016555335 -0.0060494086 4279324573
-0.0098098032 0.015972272 -0.0057484992 4278931364
-0.0077924281 0.015389688 -0.0054486915 4278604454
-0.0054527931 0.01337675 -0.0037588626 4278801569
-0.0034191757 0.0127955 -0.0034623742 4278605219
-0.0010526106 0.010784678 -0.0017781276 4278539683
0.00083082914 0.010919616 -0.002178763 4278736288
0.0028834417 0.01034002 -0.0018860819 4278801824
0.0052850023 0.008331988 -0.0002090605 4279326869
-0.062932074 0.019456543 -0.0043188268 4279325849
-0.061997414 0.027538158 -0.012523359 4278603944
-0.060536496 0.030555652 -0.015746523 4278341293
-0.058838092 0.031403683 -0.016837327 4278668458
-0.055639565 0.034543544 -0.020431772 4278864044
-0.049725935 0.030587461 -0.017329341 4278536369
-0.047732942 0.029270412 -0.016299712 4280173723
-0.045414589 0.025790155 -0.013156534 4282984844
-0.023639828 0.017128929 -0.0076155751 4280700299
-0.021792635 0.017260231 -0.0080093089 4280307343
-0.019666232 0.015953854 -0.0070072631 4279390364
-0.017813385 0.016085744 -0.0074020592 4279128478
-0.015670665 0.014780656 -0.0064033149 4278801058
-0.013517149 0.01347648 -0.0054068398 4278997918
-0.011502996 0.012891259 -0.0051081479 4278538918
-0.0094833821 0.012306564 -0.0048105884 4278473383
-0.0076138377 0.012440108 -0.0052085789 4278473383
-0.0054277703 0.011138618 -0.0042187506 4278867104
-0.0035526603 0.011272743 -0.0046177786 4278605219
-0.0013503432 0.0099725761 -0.0036312044 4278801824
0.0006965287 0.0093902946 -0.0033390829 4278867104
0.0030866116 0.0073749125 -0.0016648071 4278998429
0.0056643933 0.004644122 0.00069720205 4279392403
-0.062278993 0.010718249 0.0016473886 4281422458
-0.061880395 0.023902018 -0.011506034 4278932128
-0.060744144 0.02982882 -0.017557099 4278734248
-0.057623535 0.033702452 -0.021854326 4278996389
-0.055945873 0.034551278 -0.022938941 4278997409
-0.054179311 0.034675553 -0.023316501 4279323809
-0.052122593 0.032627642 -0.021578074 4278273973
-0.050248273 0.032028712 -0.02125253 4278536879
-0.048164435 0.029982863 -0.019519774 4278799273
-0.045855097 0.026491145 -0.016383134 4279454368
-0.043304265 0.02155469 -0.011846028 4281084583
-0.029436447 0.015957266 -0.0082720444 4281681284
-0.027463891 0.015366226 -0.0079668052 4280437903
-0.025485821 0.014775649 -0.0076626837 4280111249
-0.023636229 0.014907017 -0.0080570132 4279457174
-0.021649808 0.014317229 -0.0077545177 4279326104
-0.019657895 0.013727866 -0.0074530914 4278932638
-0.017660506 0.013139032 -0.0071527995 4278801824
-0.015657611 0.012550689 -0.0068536019 4278736289
-0.013501897 0.011242278 -0.0058609471 4278735523
-0.01148539 0.010655086 -0.005564508 4278538918
-0.0093107447 0.0093482658 -0.0045757787 4278407848
-0.0075913146 0.010202087 -0.0056677051 4278473383
-0.0055610947 0.0096161589 -0.0053739641 4278736034
-0.0038467906 0.010469809 -0.0064646509 4278736034
-0.0013209246 0.0077263787 -0.004098583 4278736034
0.00072830543 0.0071421042 -0.0038086604 4278801824
0.0031203814 0.0051203296 -0.0021398338 4279260568
0.0056999363 0.0023810267 0.00021503493 4280243849
-0.061522983 0.018070977 -0.008377118 4280636294
-0.060868211 0.02837937 -0.018657688 4278669479
-0.050471656 0.031309381 -0.023053087 4278733994
-0.048492938 0.029982634 -0.022027211 4278406828
-0.046189956 0.026479661 -0.018897668 4278799784
-0.043752998 0.022253152 -0.015072399 4279452838
-0.033735126 0.01709646 -0.011416675 4281748094
-0.031532981 0.015053079 -0.0097137084 4280766343
-0.029566243 0.014459349 -0.0094090095 4279391129
-0.027593985 0.013866097 -0.0091054216 4279128988
-0.025747336 0.013997126 -0.0094992239 4279064219
-0.023766734 0.013404638 -0.0091972761 4278867868
-0.021780625 0.012812637 -0.0088964328 4278867613
-0.019649871 0.011497844 -0.0079020616 4278802078
-0.017791919 0.011630043 -0.0082979891 4278867359
-0.015644863 0.010316633 -0.0073069981 4278736288
-0.013486981 0.0090040453 -0.0063181957 4278736289
-0.011318289 0.0076923668 -0.0053316662 4278801058
-0.0089863092 0.0056592375 -0.0036555789 4278473383
-0.0072588027 0.0065157712 -0.0047475575 4278670754
-0.0052208826 0.0059282184 -0.0044571562 4278736034
-0.0033379979 0.0060628727 -0.0048578605 4278931873
-0.0011286773 0.0047545806 -0.0038796011 4278997663
0.0012572668 0.0027257875 -0.0022146208 4279194268
0.003659334 0.00069826096 -0.00055298861 4279653269
0.0062486753 -0.0020489246 0.0017930046 4282208368
-0.060846537 0.0092959814 -0.0024458934 4281291644
-0.060660362 0.024012692 -0.016938517 4279391639
-0.059638657 0.030701071 -0.023660775 4278538919
-0.056374148 0.033135936 -0.026526712 4278734504
-0.054425873 0.031802464 -0.025497911 4278537898
-0.052563019 0.031198293 -0.025173459 4278800549
-0.050496705 0.029138086 -0.023447152 4278866339
-0.048515789 0.027807187 -0.022425186 4278669478
-0.046106927 0.023565665 -0.018604118 4278997408
-0.043879725 0.020781819 -0.016189395 4278800803
-0.041630968 0.017999582 -0.013779202 4278867359
-0.039697498 0.017400872 -0.013469459 4279391129
-0.037528627 0.015348379 -0.011764682 4279325593
-0.03569635 0.015477922 -0.012155783 4279325339
-0.033743612 0.014880836 -0.011849946 4278932383
-0.031662427 0.013557639 -0.010848832 4279391128
-0.029570378 0.012235343 -0.0098500103 4279063709
-0.027595744 0.011640064 -0.0095486399 4278671009
-0.025746547 0.011771254 -0.0099430047 4278474148
-0.023763567 0.011176754 -0.0096432716 4278736288
-0.021911375 0.011308331 -0.010038136 4278801823
-0.019781135 0.0099891648 -0.0090470575 4278539683
-0.017640047 0.0086709037 -0.0080582537 4278736288
-0.015632428 0.0080784932 -0.0077634309 4278474404
-0.013472386 0.0067617744 -0.0067785215 4278736543
-0.011451155 0.0061705559 -0.0064864988 4278801568
-0.0089675672 0.0034064353 -0.0041252542 4278669988
-0.0070823543 0.0035410225 -0.0045266347 4278997408
-0.0045664795 0.00077941269 -0.002172105 4279259549
-0.00267037 0.00091498345 -0.002575648 4279456409
-0.00028521568 -0.0011204444 -0.00091565028 4280176784
0.0017847568 -0.0017075688 -0.00063352473 4280700298
0.0045334473 -0.0051874816 0.0023942627 4282139518
-0.060288392 0.018165879 -0.013825858 4280177803
-0.059590869 0.027800201 -0.023347482 4278539173
-0.058169462 0.030849284 -0.026535239 4278473128
-0.056406081 0.030973131 -0.026912279 4278931618
-0.054362193 0.028904732 -0.025186431 4279062688
-0.052302115 0.026837498 -0.023463946 4278473128
-0.050127044 0.024041101 -0.021045029 4278538663
-0.048234694 0.023436975 -0.020728473 4278473129
-0.046024553 0.02064319 -0.018316939 4278342314
-0.043899633 0.018580895 -0.016608095 4278604708
-0.041758485 0.016519785 -0.014902608 4278605218
-0.039713219 0.015189357 -0.013897497 4278605473
-0.037657082 0.013859842 -0.012894669 4278867359
-0.03559009 0.012531165 -0.011894101 4278736543
-0.033632323 0.011932191 -0.011591016 4278867359
-0.031546287 0.010605045 -0.010594374 4278932894
-0.029574811 0.010007266 -0.010294111 4278670754
-0.027597815 0.0094099753 -0.0099949539 4278539683
-0.02574607 0.0095412992 -0.010389896 4278605474
-0.023894154 0.0096727349 -0.010784797 4278605219
-0.022178173 0.010532044 -0.011871509 4278801824
-0.020051084 0.0092083141 -0.010883151 4278736034
-0.017771743 0.0071581118 -0.0092063434 4278736288
-0.01533214 0.0043819174 -0.0068427213 4278605474
-0.013017818 0.0023343563 -0.0051731793 4278867613
-0.010986216 0.0017417148 -0.0048850589 4279194779
-0.0087970383 0.00042293593 -0.0039095888 4279390874
-0.0065970533 -0.00089500844 -0.0029362924 4279390873
-0.0039139315 -0.004390806 9.6690841e-05 4280438670
-0.0016843602 -0.0057063922 0.0010638013 4281682303
0.00055600703 -0.0070211589 0.0020287279 4282205308
-0.059505604 0.0086247995 -0.0072246804 4281291898
-0.059117481 0.021223318 -0.019535368 4279325849
-0.057852618 0.025749 -0.024121504 4278604708
-0.05607602 0.025873719 -0.024501417 4278473383
-0.054019466 0.023799721 -0.022783354 4278538918
-0.051850803 0.020994131 -0.02036991 4278539429
-0.049660593 0.018190138 -0.017961005 4278604708
-0.047651336 0.016852535 -0.016951906 4278539429
-0.045527264 0.014783565 -0.015247978 4278539683
-0.043600135 0.014179848 -0.014940445 4278670753
-0.04144901 0.012112945 -0.013242173 4278736544
-0.039617345 0.012242194 -0.013633338 4278670753
-0.037670948 0.011640094 -0.013329726 4278670753
-0.035718992 0.01103849 -0.01302721 4278867104
-0.033641629 0.009706255 -0.012032137 4278932639
-0.031553403 0.0083749145 -0.011039361 4278670499
-0.029579565 0.0077751204 -0.010741312 4278736034
-0.027728096 0.0079063065 -0.01113629 4278408614
-0.025876462 0.0080376081 -0.011531219 4278670754
-0.023891434 0.0074388422 -0.011235297 4278670754
-0.022036813 0.0075705349 -0.011630729 4278736034
-0.019766316 0.0055131204 -0.0099571869 4278801058
-0.017479651 0.0034569055 -0.008286979 4279717783
-0.015032917 0.00067259371 -0.0059316233 4279848854
-0.012564689 -0.0021100938 -0.0035807742 4280176273
-0.010224231 -0.0041621365 -0.00192184 4281747583
-0.058891624 0.00050809234 -0.0020594476 4281356923
-0.058561549 0.013880715 -0.015046712 4281028993
-0.057362095 0.019156363 -0.020326406 4279260314
-0.055476561 0.018547043 -0.020012075 4278539173
-0.053585462 0.017938156 -0.019698825 4278604708
-0.05140166 0.015125021 -0.017295426 4278670243
-0.049393095 0.013782907 -0.016289597 4278539683
-0.04737363 0.012441684 -0.01528607 4278801824
-0.045446992 0.011835616 -0.014980163 4278736289
-0.043514825 0.011230081 -0.014675411 4278670753
-0.041577123 0.010625008 -0.014371783 4278605218
-0.039745577 0.010754216 -0.014762952 4278605474
-0.037799463 0.010149911 -0.014460981 4278801824
-0.035613731 0.0080792159 -0.012774974 4278736289
-0.033531517 0.0067430325 -0.011784373 4278605219
-0.031316079 0.0046746172 -0.010104568 4278866593
-0.02933453 0.0040731803 -0.0098098749 4278343079
-0.027475178 0.0042048991 -0.010206553 4278669988
-0.025485292 0.0036042593 -0.0099134799 4278801058
-0.023356847 0.0022717565 -0.0089323437 4278735523
-0.02121757 0.00094018131 -0.0079534771 4279456410
-0.019067459 -0.00039058551 -0.006976807 4280045458
-0.01690653 -0.0017204359 -0.0060024075 4280306834
-0.058178261 0.007979434 -0.011979703 4281029249
-0.057049185 0.014008932 -0.017948501 4279456663
-0.055240817 0.014135804 -0.018335264 4278997918
-0.053339362 0.01352549 -0.018025992 4278670753
-0.05133681 0.012178518 -0.017022341 4278408613
-0.049421564 0.011569351 -0.016715879 4278801824
-0.047399923 0.010223888 -0.015716176 4278605219
-0.045367397 0.0088793188 -0.014718783 4278932639
-0.043430194 0.0082719475 -0.014416818 4278867104
-0.041705169 0.0091373436 -0.015501198 4278801823
-0.039873734 0.0092665032 -0.015892375 4278670753
-0.037813731 0.007924214 -0.014900578 4278605218
-0.035742864 0.0065827519 -0.013910979 4278736289
-0.03354162 0.0045067929 -0.012233336 4278736289
-0.031446375 0.0031672418 -0.011248798 4279128988
-0.029090561 0.00035851821 -0.0088881021 4279326104
-0.027095824 -0.00024406612 -0.0085978545 4279587733
-0.024835169 -0.0023154877 -0.0069325506 4281944953
-0.022558376 -0.0043856241 -0.0052706599 4283122798
-0.058051199 0.0042724051 -0.011020536 4280898688
-0.057000101 0.011059556 -0.01767342 4279129753
-0.055276535 0.011926413 -0.018756339 4278736799
-0.053372703 0.011314027 -0.018449251 4278801824
-0.051463313 0.010702174 -0.018143317 4278801569
-0.049548365 0.010090783 -0.017838512 4278736034
-0.047627881 0.009479858 -0.017534832 4279128733
-0.045701839 0.0088693798 -0.017232217 4278932128
-0.043664247 0.0075209215 -0.016239228 4278998429
-0.041724473 0.0069116279 -0.015939459 4278736289
-0.039779149 0.0063028038 -0.015640808 4278539683
-0.037828304 0.0056944191 -0.015343225 4278801824
-0.035638601 0.0036110654 -0.013668266 4279195289
-0.033552028 0.0022664741 -0.012685337 4278998939
-0.031332612 0.00018540397 -0.011016579 4280309639
-0.029096998 -0.0018944591 -0.0093511473 4282144618
-0.058094203 0.0020370148 -0.011459993 4281291134
-0.057038881 0.0088437796 -0.018098671 4278998683
-0.055402406 0.010454718 -0.019873846 4278605473
