# .PCD v0.7 - Point Cloud Data file format
VERSION 0.7
FIELDS x y z rgba
SIZE 4 4 4 4
TYPE F F F U
COUNT 1 1 1 1
WIDTH 961
HEIGHT 1
VIEWPOINT 0 0 0 1 0 0 0
POINTS 961
DATA ascii
-0.048683897 0.004357338 0.0046574865 4284055589
-0.046917707 0.0051944703 0.0035195071 4284055333
-0.044919938 0.0046242326 0.0038221609 4283924263
-0.042795599 0.0033510625 0.0048428122 4283989798
-0.040907741 0.0034851357 0.0044240002 4283989543
-0.039019689 0.0036193095 0.0040052086 4283989544
-0.037131414 0.0037535839 0.003586432 4283989543
-0.034979634 0.002482757 0.0046012141 4284055334
-0.032951333 0.0019151829 0.0048974715 4283989544
-0.030917503 0.0013480633 0.0051926188 4283989544
-0.029157482 0.0021855831 0.004056545 4283989544
-0.027544931 0.0037246346 0.002207322 4283989543
-0.025942877 0.0052630752 0.00036045536 4283989288
-0.023908347 0.0046963692 0.00065572746 4284120614
-0.021868363 0.0041301809 0.00094980001 4284055079
-0.019822888 0.0035644881 0.0012427438 4284120614
-0.017771922 0.0029992759 0.0015345346 4284186403
-0.015557196 0.0017338023 0.0025360938 4284186914
-0.013653625 0.0018702671 0.0021147504 4284252194
-0.012077216 0.0034075193 0.00027404912 4284120358
-0.01017873 0.0035438091 -0.00014602765 4283727658
-0.0081111565 0.0029802248 0.00014249049 4283727403
-0.0058665052 0.0017174184 0.001137739 4283857963
-0.0039597079 0.0018545948 0.00071604364 4284120615
-0.0016988702 0.00059315562 0.0017078668 4284186404
-0.00032548606 0.0028284341 -0.00083332695 4283856688
0.001396589 0.0036647134 -0.0019598175 4282808129
-0.061982028 0.0018695891 0.0064506773 4284119339
-0.060101964 0.0020022541 0.0060329493 4284119593
-0.058321148 0.0028420985 0.004892977 4284120103
-0.056545436 0.0036816522 0.0037541837 4284185894
-0.054460213 0.0024008378 0.0047797915 4284186149
-0.052471645 0.0018273741 0.0050825588 4284186149
-0.050477505 0.0012543425 0.0053841956 4284186149
-0.048703492 0.0020941459 0.0042459834 4284251684
-0.046703562 0.0015216954 0.0045464616 4284186149
-0.044934407 0.0023613125 0.0034094471 4284186149
-0.042807892 0.0010838583 0.0044262931 4284185893
-0.040917486 0.001218088 0.0040068906 4284185638
-0.038900726 0.00064720213 0.0043038428 4284185639
-0.037136048 0.0014868081 0.0031681228 4284186149
-0.034982093 0.00021171197 0.0041791108 4284251684
-0.032951422 -0.00035794824 0.0044732187 4284186403
-0.030915231 -0.00092709064 0.0047661327 4284250664
-0.029013 -0.00079149753 0.0043445025 4284250154
-0.027394861 0.00075234845 0.0024972651 4284052528
-0.02564241 0.0015916117 0.0013646577 4284184109
-0.023600198 0.0010232814 0.0016565211 4284446249
-0.021552511 0.00045538694 0.0019472726 4284446504
-0.019499347 -0.00011198223 0.0022368431 4284512038
-0.017285258 -0.0013819523 0.0032351278 4284642343
-0.015060358 -0.0026510954 0.0042311326 4284577319
-0.013307031 -0.0018111467 0.0030987225 4284379183
-0.011885803 0.00043354556 0.00055142306 4284575788
-0.0099821053 0.00057017431 0.00013017468 4284575533
-0.007909514 4.7795475e-06 0.00041587465 4284576298
-0.0054885745 -0.001964055 0.0021131225 4284575533
-0.0035738945 -0.001826331 0.0016896687 4284574768
-0.0013055615 -0.0030916333 0.0026765354 4284573748
-0.062019639 -0.00039645657 0.0060419831 4284315943
-0.060137019 -0.00026366487 0.0056236535 4284382244
-0.05825413 -0.00013077632 0.0052053202 4284513314
-0.056574993 0.001420401 0.0033468734 4284513313
-0.054592274 0.00084420294 0.0036492031 4284513568
-0.052496657 -0.00044026598 0.0046692826 4284578849
-0.05061011 -0.00030679256 0.004250383 4284644129
-0.04872337 -0.00017323717 0.003831489 4284709918
-0.046951696 0.00066862628 0.0026954673 4284709664
-0.042941108 -0.00047967583 0.0032908488 4284642598
0.030190878 -0.017677207 -0.006683928 4284246328
0.031911105 -0.016821984 -0.0077957148 4284050233
0.033402521 -0.015253503 -0.0095896218 4283529014
0.035335444 -0.015112344 -0.010015523 4283856433
0.037725873 -0.016397361 -0.0090769446 4283988269
0.039664023 -0.016255599 -0.009503833 4283922224
0.041836217 -0.016826455 -0.0092496192 4283791153
0.043540135 -0.015971761 -0.01035731 4283465009
0.046196379 -0.017966691 -0.0087444363 4283463988
0.050563239 -0.024945367 -0.0023801979 4283464244
-0.033095933 -0.017969038 0.00026886351 4284705839
-0.031043574 -0.018554788 0.00054487213 4284575789
0.020140689 -0.019268196 -0.006391638 4281957703
0.021664454 -0.01769365 -0.0081899045 4282024514
0.023597391 -0.017553177 -0.0086163161 4282024514
0.025317738 -0.016696099 -0.0097267376 4281893443
0.027463231 -0.017271858 -0.0094688581 4281501508
0.029614035 -0.017847139 -0.0092120813 4281436484
0.031549565 -0.017705996 -0.0096387165 4281895229
0.033485066 -0.017564762 -0.010065262 4281438013
0.035646446 -0.018138964 -0.0098105045 4281438013
0.037813094 -0.018712629 -0.0095568756 4281568318
0.039753776 -0.018570673 -0.0099843061 4281568318
0.041694399 -0.018428613 -0.010411643 4281568318
0.043871522 -0.019001175 -0.010160073 4281437249
0.047489353 -0.02386051 -0.0058400976 4281436484
-0.04664439 -0.020503167 0.0020961408 4284314159
-0.044961758 -0.018916588 0.00026327185 4284445994
-0.042932145 -0.019506771 0.00054221973 4284119594
-0.041140616 -0.018646095 -0.00058508478 4283661103
-0.039354205 -0.017785635 -0.0017112251 4283465518
-0.037445799 -0.017650288 -0.002134731 4283334448
-0.035147853 -0.019688737 -0.00045583956 4282876723
-0.033098653 -0.020277027 -0.00018086657 4282745654
-0.031179033 -0.020140585 -0.00060663745 4281502274
-0.029397018 -0.01927999 -0.0017313901 4281502019
-0.027760595 -0.017695803 -0.0035533365 4281305413
-0.025848463 -0.017559569 -0.0039772093 4281305413
-0.023790419 -0.018146727 -0.0037038121 4281370948
-0.021726906 -0.018733371 -0.0034315493 4281435973
-0.01965791 -0.019319531 -0.0031604208 4281436228
-0.01773721 -0.019182283 -0.0035858918 4281438269
-0.015503526 -0.020490404 -0.002621511 4283465519
0.017860731 -0.020288963 -0.0078094294 4283727149
0.019796183 -0.020148527 -0.0082365638 4281305414
0.021524595 -0.019288901 -0.0093472926 4281305669
0.023457391 -0.019148421 -0.0097736651 4281240133
0.025390182 -0.019007836 -0.010199952 4281110083
0.027753074 -0.020304132 -0.0092622591 4281045059
0.029908881 -0.020881217 -0.0090082111 4280980288
0.031849608 -0.020739708 -0.0094359899 4281110849
0.033790302 -0.020598073 -0.0098636756 4281502528
0.035505235 -0.019738641 -0.010970837 4281437504
0.037671555 -0.020314489 -0.010718756 4281567809
0.0396121 -0.02017254 -0.011146159 4281306178
0.041786302 -0.020747598 -0.01089565 4281502019
0.043965761 -0.02132215 -0.01064621 4281501253
0.048062839 -0.027630161 -0.0049846899 4281436229
-0.046210468 -0.025725912 0.0044600908 4282412368
-0.044746861 -0.022678483 0.0012231432 4281502784
-0.042709574 -0.023270372 0.0014987737 4281372224
-0.040909998 -0.022406925 0.00037125126 4281044548
-0.039115541 -0.021543805 -0.0007550288 4281241154
-0.037199266 -0.021407936 -0.0011803061 4281111358
-0.035153218 -0.021998767 -0.00090637244 4281176128
-0.033233926 -0.021862488 -0.0013321806 4281306433
-0.03144934 -0.020999651 -0.0024559516 4281502529
-0.029532358 -0.020863321 -0.0028810892 4281436483
-0.027615197 -0.020726878 -0.0033061877 4281370693
-0.025697865 -0.020590324 -0.0037312414 4281240388
-0.023634814 -0.021179322 -0.0034606084 4281305668
-0.021714531 -0.021042343 -0.0038861614 4281371459
-0.019643188 -0.021630581 -0.0036171637 4281437248
-0.017719947 -0.02149317 -0.0040432122 4281503293
-0.015640348 -0.022080567 -0.0037759189 4283465774
0.017922524 -0.022607777 -0.0082849385 4283661359
0.019656295 -0.021745656 -0.0093953507 4281435973
0.021384763 -0.020883825 -0.010504442 4281305413
0.023317417 -0.020743359 -0.010930789 4281044293
0.025250072 -0.020602766 -0.011357036 4280848708
0.027827293 -0.022624169 -0.0097421864 4280979269
0.029985432 -0.023203265 -0.009490286 4281045059
0.031928685 -0.023061562 -0.0099186217 4281110083
0.033871904 -0.022919741 -0.010346855 4281371713
0.0360406 -0.023497727 -0.010097024 4281371713
0.038214587 -0.024075191 -0.0098482585 4281371713
0.040393859 -0.024652217 -0.0096005416 4281371459
0.042344872 -0.024509374 -0.010030151 4281436229
0.04429581 -0.024366412 -0.010459655 4281435973
0.04839633 -0.030693818 -0.0048136208 4281174598
-0.046118669 -0.028779935 0.0047048703 4282412113
-0.044765227 -0.024993416 0.00077258982 4281371203
-0.042725593 -0.025587317 0.0010459889 4281175108
-0.040923275 -0.024721574 -8.048676e-05 4281110593
-0.039126106 -0.023856055 -0.0012057908 4281175108
-0.037334047 -0.022990834 -0.0023298375 4281240643
-0.035417706 -0.022854891 -0.0027550813 4281305668
-0.033369131 -0.023447666 -0.0024832953 4281240643
-0.031449772 -0.023311298 -0.0029090587 4281240133
-0.029392838 -0.023903307 -0.0026389174 4281305414
-0.027610555 -0.02303822 -0.0037604515 4281240134
-0.025547966 -0.023629609 -0.0034914091 4281044549
-0.023625299 -0.023492593 -0.0039175898 4281174853
-0.021406382 -0.024810825 -0.0029568076 4281175363
-0.019478098 -0.024673197 -0.0033840761 4281437504
-0.017549656 -0.024535436 -0.0038112868 4281568828
-0.015621088 -0.024397541 -0.0042384351 4284445993
0.016043454 -0.025071342 -0.0083351331 4284706603
0.01778261 -0.024206799 -0.0094451355 4282616369
0.019924454 -0.024789836 -0.0091917114 4281438013
0.021864966 -0.024648916 -0.0096198739 4281110083
0.023596145 -0.023784596 -0.010727848 4281174854
0.025533987 -0.023643631 -0.011155241 4280979269
0.027901147 -0.024948318 -0.010225096 4281109574
0.030061614 -0.025529418 -0.0099753393 4281109318
0.031567402 -0.023942534 -0.011759327 4281109318
0.03350782 -0.023800913 -0.012186937 4281109574
0.035898842 -0.025103394 -0.011261697 4281240389
0.038300496 -0.026405025 -0.010338666 4281240388
0.040482085 -0.02698401 -0.010093132 4281305413
0.042435624 -0.026840951 -0.010523276 4281305413
0.044389095 -0.026697788 -0.010953331 4281370694
0.048729036 -0.033765931 -0.0046487544 4281238859
-0.04614082 -0.031110067 0.0042438842 4282411859
-0.04478389 -0.027312409 0.00031899661 4281240134
-0.042860493 -0.027176406 -0.00010814704 4281370438
-0.04093688 -0.027040284 -0.0005352553 4281175364
-0.03901308 -0.026904058 -0.0009623412 4281240644
-0.03708908 -0.02676769 -0.001389375 4281305924
-0.035164885 -0.026631225 -0.0018163882 4281305924
-0.033240512 -0.026494633 -0.0022433605 4281044548
-0.03145051 -0.025627095 -0.0033651069 4281305159
-0.029528461 -0.025490474 -0.0037914161 4281174343
-0.027746096 -0.024623211 -0.004911338 4281174343
-0.025541298 -0.025947098 -0.0039508324 4281109318
-0.023616098 -0.025809933 -0.0043776007 4281044038
-0.021395035 -0.027132403 -0.0034205895 4281174854
-0.019464217 -0.026994605 -0.0038484298 4281305414
-0.017380074 -0.027586181 -0.0035855304 4281502529
-0.015602157 -0.026718635 -0.0047039408 4284707879
0.015903518 -0.026672248 -0.0094967447 4284707114
0.017843869 -0.026531551 -0.0099250358 4282421039
0.020191852 -0.027842473 -0.0089942813 4281307709
0.022137549 -0.02770118 -0.0094235931 4281240643
0.02366497 -0.026108805 -0.011209418 4281174854
0.025817145 -0.026692923 -0.010959642 4281174344
0.027974632 -0.027276549 -0.010710962 4281109063
0.029920295 -0.02713478 -0.011139899 4281239368
0.031646129 -0.026268188 -0.012244707 4281174089
0.033811536 -0.026850883 -0.0119975 4281370183
0.036657639 -0.029606018 -0.0097269695 4281370694
0.039069425 -0.030911271 -0.0088094342 4281305413
0.041491799 -0.032215592 -0.0078941975 4281435973
0.043458521 -0.032071564 -0.0083272438 4281370694
0.045660973 -0.032650959 -0.0080877561 4281435463
0.049299438 -0.037569929 -0.0038181599 4281305669
-0.046050206 -0.034178834 0.0044778492 4282412368
-0.044687152 -0.030369859 0.00055976771 4281305158
-0.042758547 -0.030233514 0.00013145246 4281370694
-0.04095079 -0.029363085 -0.00099300966 4281175364
-0.039148159 -0.028492909 -0.0021162517 4281305924
-0.037097916 -0.029090185 -0.0018482972 4281174853
-0.035171203 -0.028953571 -0.0022758935 4281240389
-0.033244289 -0.028816838 -0.0027034525 4280979268
-0.031451561 -0.027946945 -0.0038241856 4281174854
-0.029526971 -0.027810153 -0.0042510629 4281109318
-0.027741894 -0.026940595 -0.0053699352 4281174598
-0.025534965 -0.028268684 -0.0044132452 4281174343
-0.023607224 -0.028131347 -0.0048405863 4281044039
-0.021384023 -0.029458057 -0.003887346 4281174854
-0.019751333 -0.027856309 -0.0056951027 4280978759
-0.017670169 -0.028450314 -0.0054331999 4281240133
-0.015739225 -0.028312307 -0.0058609154 4284641323
0.018105723 -0.029588666 -0.0097294338 4281828674
0.020458519 -0.030903641 -0.0088029671 4280977229
0.022203112 -0.030034047 -0.0099107493 4280781134
0.023733437 -0.028437112 -0.01169396 4280781388
0.026099548 -0.029750716 -0.010770204 4280846669
0.028047752 -0.029608864 -0.011199782 4280780879
0.030429836 -0.030921135 -0.010279341 4281041233
0.032822538 -0.032232437 -0.0093611721 4281302608
0.036114987 -0.036449749 -0.0057500917 4281368144
0.039439358 -0.040664572 -0.0021459926 4281238349
0.042112857 -0.042697977 -0.00056663156 4281369164
0.044341747 -0.043277856 -0.00033477694 4281696328
0.046808831 -0.044583131 0.00056744739 4281761608
-0.044244446 -0.035645504 0.0028816443 4281501508
-0.042420879 -0.034771908 0.0017552059 4281435973
-0.040481552 -0.034634728 0.0013245661 4281435719
-0.038665555 -0.03376146 0.00019997545 4281305413
-0.036602333 -0.034360025 0.00046338513 4281370693
-0.034791276 -0.033486892 -0.0006599538 4281435463
-0.032985367 -0.032614019 -0.0017820708 4281370183
-0.031318776 -0.031006131 -0.0035946276 4280912714
-0.029388994 -0.030868988 -0.0040226802 4280977484
-0.027877517 -0.028527182 -0.0065219942 4280845903
-0.025955401 -0.028390374 -0.0069481786 4280649299
-0.024177954 -0.027518939 -0.0080636274 4280779859
-0.021963231 -0.028850678 -0.007111745 4280714833
-0.019887865 -0.029447425 -0.0068503004 4280846414
-0.017807037 -0.03004365 -0.0065899733 4281238093
-0.015876226 -0.029905658 -0.0070176702 4284114493
-0.039048709 -0.045835081 0.0091702957 4281827399
-0.037321419 -0.044218976 0.0073472019 4281502019
-0.03547857 -0.043341536 0.0062183477 4281762628
-0.033898167 -0.040988747 0.0037082992 4281891914
-0.032596201 -0.037161652 -0.0001794789 4281563984
-0.031186678 -0.034073826 -0.0033711921 4280515168
0.0096280612 0.030167632 0.016923146 4278532799
0.015231214 0.024499156 0.022649797 4279452838
0.020113565 0.021478407 0.025440758 4280240788
0.020401981 0.026898764 0.019187117 4283185273
0.057954058 0.026936155 0.014003986 4282006153
0.05988602 0.027077686 0.013578633 4279518374
0.0052548796 0.022867035 0.022890942 4279063709
0.0058660023 0.027650725 0.01735094 4278668969
0.0064398199 0.032431796 0.011819242 4278994093
0.0081366673 0.033231623 0.010672363 4279255979
0.013104346 0.029528633 0.014208177 4278602413
0.015612252 0.027679024 0.015970802 4279061669
0.017524004 0.027817607 0.015548797 4280041123
0.018608805 0.030604791 0.012220962 4282398089
0.056782555 0.02797021 0.0099826064 4282793593
0.058183514 0.02942745 0.0081302654 4280044693
0.061676044 0.025619667 0.011993235 4279323553
0.0030788966 0.028596692 0.013707956 4278538409
0.0055413395 0.033529539 0.0077705774 4278996388
0.0076140054 0.033000179 0.0080832746 4279324063
0.0096920654 0.032471292 0.008394843 4279321259
0.011974037 0.031277951 0.0094318986 4278533563
0.014065526 0.030750129 0.0097406469 4279126183
0.015958499 0.030887349 0.0093227867 4279059629
0.055869862 0.028361527 0.0066878982 4281415574
0.057523057 0.029162193 0.0055536591 4278600373
0.060483798 0.026661269 0.0079832226 4278338744
0.0020171776 0.030366572 0.0089282971 4278670243
0.011044055 0.032382376 0.00539691 4279321003
0.01312457 0.031851597 0.0057063866 4279060904
0.016682636 0.032791086 0.0041522123 4283183489
0.055215415 0.028103424 0.0041150749 4281679244
0.056863382 0.028905934 0.0029836576 4279387558
0.059293091 0.027720755 0.003986191 4278994604
0.063323796 0.022562804 0.0092484243 4278995879
-0.0001851283 0.029341662 0.0074861236 4279197839
0.0013270229 0.030818149 0.0056175441 4278539173
0.0028285757 0.032293916 0.0037514176 4278472874
0.0045096576 0.03309907 0.0026128758 4278800294
0.006378267 0.033234216 0.0022001565 4278537134
0.0084424093 0.032699902 0.0025114864 4278405808
0.010511927 0.032166064 0.0028216932 4278602668
0.012586821 0.031632684 0.00313076 4278405299
0.016752701 0.030567287 0.0037455764 4282266253
0.055075463 0.026524266 0.0029697753 4280829074
0.056204449 0.028658761 0.00042018667 4279454879
0.05836615 0.02813343 0.00071148574 4278668713
0.062122304 0.023621757 0.0052539576 4278800294
-0.00068442896 0.029130215 0.0049055219 4279591559
0.0010072887 0.029938163 0.0037661456 4278866848
0.0023191907 0.032090448 0.0011796486 4278472618
0.0075261295 0.033838719 -0.0015015639 4278536369
0.009782657 0.032630309 -0.0004687272 4278601904
0.012250505 0.030751444 0.0012829863 4278799020
0.01473441 0.028873777 0.0030312538 4279191974
0.017234335 0.026997389 0.0047759973 4279188658
0.055192173 0.024278065 0.0025335141 4280108188
-0.00081941113 0.027577968 0.0037790276 4280902003
0.00050356239 0.029737538 0.0011949483 4278932639
0.0019976832 0.03122155 -0.00066302717 4278472363
0.011714168 0.030548392 -0.0012810584 4278929834
0.014192043 0.028663741 0.0004635565 4278995369
0.054795511 0.02336661 0.00067968294 4279844774
0.055407193 0.026852949 -0.0032735765 4279453604
0.056777511 0.028330175 -0.0051025813 4278866084
0.00018487126 0.028869038 -0.00064812787 4279261845
0.0014897101 0.03103398 -0.0032232665 4278602923
0.0031577386 0.031844746 -0.004354015 4278406319
0.0046282336 0.033331588 -0.0062033711 4278538153
0.0085252114 0.032923356 -0.0063017132 4278273974
0.011178613 0.030354446 -0.0038385689 4278601648
0.013853401 0.027787169 -0.0013800822 4279126183
0.016343974 0.02589689 0.00035689771 4281087134
0.055330575 0.030123645 -0.0097585889 4278996643
0.058262803 0.027577 -0.0073554534 4278734759
0.063351899 0.01966479 0.00066973455 4278471854
-0.00050147623 0.0293635 -0.0039277822 4279590538
0.0024559386 0.032346837 -0.0076236986 4278471599
0.0044948496 0.031801805 -0.0073134638 4278931619
0.0063444339 0.03193561 -0.0077219512 4278669734
0.0083914362 0.03139133 -0.0074133771 4278339764
0.010643877 0.030169517 -0.0063894661 4278339508
0.013109725 0.02827079 -0.0046520177 4278995369
0.015591608 0.026373344 -0.0029180944 4280235434
-0.00081894174 0.028508725 -0.0057609091 4280050559
0.010109916 0.029993705 -0.008933818 4278668458
0.012367234 0.028767942 -0.0079142097 4278602669
0.015045622 0.026183451 -0.0054696193 4279845538
0.049935862 0.025254834 -0.0093650008 4280110228
0.05079288 0.028097214 -0.012588801 4278734758
0.052145574 0.029586282 -0.014404004 4278603688
0.053748682 0.030398967 -0.015515532 4278604199
0.056665823 0.027833752 -0.013122169 4278800548
0.060137287 0.02391956 -0.0093331737 4278669733
0.067409858 0.010556091 0.0042425189 4278735268
-0.0011359975 0.027658639 -0.0075907065 4279064219
0.00015693158 0.029842384 -0.0101484 4278539174
0.0016228855 0.031341944 -0.011986974 4278668969
0.0034615435 0.031474851 -0.012393126 4279127713
0.0056889132 0.030242275 -0.011370385 4278799783
0.0079269744 0.029010586 -0.010349995 4279062179
0.0097764321 0.029144537 -0.010758338 4278472874
0.012030587 0.027914148 -0.0097413249 4278734248
0.014500424 0.026002666 -0.0080146091 4279781534
0.04929179 0.025056126 -0.011896228 4278997408
0.05091127 0.025872037 -0.013009764 4278866593
0.052783657 0.02600953 -0.013421755 4278670243
0.05465591 0.026147094 -0.013833659 4278735524
0.057055444 0.024929285 -0.012847209 4278604454
0.059731849 0.023034843 -0.011164545 4278735269
0.065921582 0.012336381 -0.00041200034 4278800804
0.00095488876 0.024889959 -0.0076819463 4278867104
0.0026232675 0.025709471 -0.0088062342 4278669989
0.0042863563 0.026528735 -0.009929332 4278538663
0.0063324422 0.02597766 -0.0096255243 4278669733
0.0083838962 0.02542711 -0.0093228789 4278669734
0.010241248 0.025561623 -0.0097329691 4278538663
0.012300767 0.02501183 -0.0094319722 4278669223
0.01457046 0.023778269 -0.0084216101 4278866084
0.017058304 0.021861609 -0.0067037353 4278931618
0.019141875 0.021313827 -0.0064078467 4279455899
0.021443609 0.020082857 -0.005404355 4279455899
0.023755992 0.018852789 -0.0044031991 4279455898
0.025642734 0.018990066 -0.0048193047 4279586969
0.027308632 0.019810449 -0.0059422571 4279783318
0.029192649 0.019947696 -0.0063576354 4279521434
0.031076629 0.020085026 -0.0067729382 4279193759
0.033189386 0.019539993 -0.0064830184 4279062944
0.035307422 0.01899543 -0.0061941994 4279062688
0.037430752 0.018451296 -0.0059064366 4279455899
0.039085664 0.019271467 -0.0070266062 4279456409
0.040735178 0.020091284 -0.0081454748 4279325339
0.042137112 0.021592271 -0.0099652922 4279260569
0.043773115 0.022411276 -0.011081055 4279063964
0.046146188 0.021186691 -0.010092481 4279062944
0.047779325 0.022005659 -0.011207481 4279128478
0.049912691 0.02146291 -0.010921519 4278539174
0.051540267 0.022281636 -0.012035171 4278604709
0.053678725 0.021739434 -0.011750198 4278538919
0.055822387 0.021197695 -0.01146631 4278342314
0.057971247 0.020656426 -0.011183505 4278407594
0.060391482 0.019435864 -0.010204813 4278472874
0.066317111 0.0093822889 -0.00017593987 4278472874
0.0019368976 0.019227963 -0.0045183618 4279262098
0.0038099736 0.019363251 -0.0049321996 4278408104
0.0056831017 0.019498628 -0.0053459816 4278473384
0.009429507 0.019769672 -0.0061733723 4278342059
0.011302769 0.019905336 -0.0065869754 4278341804
0.013176046 0.020041086 -0.0070005227 4278407594
0.015049351 0.020176932 -0.007414002 4278473129
0.017129945 0.019626655 -0.0071191695 4278735524
0.018795984 0.020448897 -0.0082407659 4278866593
0.021094553 0.019213323 -0.0072398586 4278801314
0.022973197 0.01934991 -0.0076542525 4278932384
0.025287736 0.018115722 -0.0066567771 4278932128
0.027171675 0.018252876 -0.0070722001 4278997664
0.02927888 0.017705072 -0.0067828288 4278866849
0.030713499 0.019212309 -0.0086069508 4278801314
0.033051912 0.017980218 -0.0076144692 4278670244
0.034938354 0.01811792 -0.0080301715 4278932128
0.037058696 0.017571434 -0.0077434294 4278669988
0.038474411 0.019077662 -0.0095631089 4278932128
0.040597282 0.018531535 -0.0092767878 4278670499
0.042483438 0.018669579 -0.0096921586 4278539429
0.044369508 0.018807702 -0.010107443 4278670754
0.046502788 0.018262602 -0.0098232189 4278736289
0.048391324 0.01840109 -0.010238909 4278670754
0.050532404 0.017856702 -0.009956222 4278604964
0.05242338 0.017995533 -0.010372325 4278473638
0.054572213 0.017451931 -0.01009126 4278539174
0.056465607 0.017591111 -0.010507766 4278408104
0.058622167 0.017048251 -0.010228266 4278342314
0.061049908 0.015823897 -0.0092544816 4278407849
0.066711858 0.006419573 5.3945929e-05 4278407594
0.0023593977 0.015609641 -0.0035078991 4279196054
0.0044287816 0.015055709 -0.003212722 4278735779
0.006121397 0.015881427 -0.0043390216 4278473638
0.0080024749 0.016017463 -0.0047545005 4278604708
0.00988359 0.016153608 -0.0051699067 4278539173
0.012162905 0.014911819 -0.0041684341 4278538919
0.013847671 0.015737344 -0.0052927257 4278539174
0.015527118 0.016562566 -0.0064157741 4278735779
0.017408326 0.016699079 -0.0068309279 4278539173
0.019079782 0.017523896 -0.0079520876 4278735778
0.021383177 0.016284335 -0.0069555743 4278604708
0.023051955 0.017109159 -0.008075987 4278342568
0.025368668 0.015870735 -0.0070822844 4278604709
0.027255164 0.01600809 -0.0074982643 4278539174
0.029364733 0.015458275 -0.0072110528 4278408104
0.031028062 0.016283061 -0.008329994 4278473638
0.033142883 0.015733827 -0.008043794 4278473638
0.034800779 0.01655839 -0.0091614118 4278670244
0.036920819 0.016009722 -0.008876225 4278539174
0.039046146 0.015461475 -0.0085920943 4278473639
0.04093761 0.015599828 -0.0090086916 4278473639
0.043070775 0.015052378 -0.0087261982 4278342568
0.044720296 0.015876804 -0.0098416135 4278342568
0.046611495 0.016015407 -0.010257949 4278473638
0.048502594 0.016154099 -0.010674192 4278539429
0.050646029 0.015607767 -0.010393688 4278539429
0.052539568 0.015746813 -0.010810334 4278604964
0.054948546 0.014516503 -0.0098359268 4278539429
0.057107627 0.013971537 -0.0095586255 4278408359
0.059271891 0.01342709 -0.0092824344 4278473894
0.061707124 0.012198966 -0.008313613 4278539173
0.067911118 0.0013964847 0.0023570359 4278539173
0.0027807802 0.011978388 -0.0025068969 4278999194
0.0046696514 0.012114804 -0.0029242318 4278866594
0.006367676 0.012943093 -0.0040500928 4278604708
0.0082539767 0.013079498 -0.004466732 4278604708
0.0099440925 0.013907399 -0.0055907136 4278342568
0.012026686 0.013352599 -0.0052998159 4278539173
0.01411465 0.012798283 -0.0050100358 4278473638
0.016003737 0.012935281 -0.0054269945 4278408103
0.017892839 0.01307236 -0.0058438974 4278342568
0.019781945 0.013209529 -0.0062607303 4278539429
0.021671049 0.013346799 -0.0066774907 4278539173
0.023345245 0.014174208 -0.0077974563 4278473638
0.025449224 0.013621625 -0.007510785 4278408104
0.027558528 0.013069466 -0.00722518 4278473639
0.029673124 0.012517843 -0.0069407094 4278473639
0.031567447 0.012655966 -0.0073582623 4278408104
0.033689965 0.012105096 -0.0070754038 4278408104
0.035355948 0.012932476 -0.0081931371 4278604454
0.037016537 0.013759539 -0.0093096197 4278342314
0.039144211 0.013209336 -0.0090276804 4278539174
0.041277148 0.012659609 -0.0087468307 4278801314
0.043656934 0.011422213 -0.0077696303 4278539173
0.045070283 0.012937378 -0.0095820324 4278408103
0.046966709 0.013076399 -0.0099994941 4278539173
0.048613459 0.013903011 -0.011112512 4278408103
0.050759256 0.013354685 -0.01083415 4278539173
0.052655354 0.013493948 -0.011251338 4278408359
0.0553241 0.011572473 -0.0095867552 4278408359
0.057488199 0.011025753 -0.0093122236 4278473894
0.059657492 0.010479528 -0.0090387501 4278670499
0.062097576 0.0092473663 -0.008074211 4278670754
0.068303637 -0.0015899315 0.0025696903 4278605218
0.0028303452 0.0097228847 -0.0029315855 4279064728
0.0050978139 0.0084710978 -0.0019343514 4278539683
0.0066132285 0.0099961422 -0.0037673507 4278539173
0.008311376 0.010826755 -0.0048915837 4278670499
0.010004237 0.011657048 -0.006014524 4278277034
0.012089193 0.011100221 -0.0057257982 4278735779
0.014179528 0.010543842 -0.0054381387 4278604709
0.016071167 0.010681007 -0.0058556739 4278670244
0.018169522 0.01012544 -0.0055696927 4278473638
0.02027322 0.0095703639 -0.0052848086 4278473638
0.022170216 0.0097082146 -0.0057033021 4278539173
0.023637787 0.011230651 -0.0075250948 4278473638
0.025312031 0.012060393 -0.0086434036 4278604709
0.027421027 0.011506043 -0.0083593586 4278604454
0.029535318 0.010952204 -0.0080764638 4278604454
0.031654902 0.010398861 -0.0077946521 4278538919
0.033551734 0.010537263 -0.0082126874 4278604454
0.035217799 0.01136684 -0.0093287947 4278735524
0.037111852 0.01150525 -0.0097460654 4278407849
0.039477937 0.01026234 -0.0087692989 4278670244
0.041377183 0.010401309 -0.0091875773 4278408103
0.043517753 0.0098500066 -0.0089099314 4278473894
0.045175433 0.010679491 -0.010023875 4278342824
0.047074419 0.010818731 -0.010441877 4278408359
0.048723917 0.011647757 -0.011553839 4278670243
0.051124144 0.010407869 -0.010584131 4278670244
0.052770738 0.01123691 -0.011695361 4278670243
0.055184066 0.0099981762 -0.010728391 4278604708
0.05734786 0.0094492771 -0.010455407 4278670754
0.05977957 0.0082121156 -0.0094923899 4278736289
0.0624872 0.0062872507 -0.007841045 4278670753
0.068963408 -0.0052733049 0.0034661219 4278670753
0.0030647181 0.0067666955 -0.0026527662 4278867359
0.0051491857 0.0062072538 -0.0023658667 4278539429
0.0070485398 0.0063444898 -0.0027854703 4278670499
0.0087547749 0.0071778372 -0.0039098021 4278735779
0.010455716 0.0080108866 -0.0050329007 4278997664
0.012349863 0.0081480481 -0.0054511288 4278866593
0.014445208 0.0075898804 -0.0051662652 4278866593
0.016138222 0.0084226541 -0.0062873932 4278801058
0.018238939 0.0078650601 -0.0060035717 4278932128
0.020135816 0.0080028139 -0.006422109 4278670244
0.022244539 0.0074460022 -0.0061399071 4278866593
0.023929559 0.0082785897 -0.007258974 4279128734
0.025609231 0.0091108754 -0.0083767921 4278997664
0.02772324 0.0085547492 -0.0080955336 4278997664
0.029842556 0.0079991035 -0.0078153741 4278866594
0.031967178 0.0074438937 -0.0075362744 4278801059
0.033641368 0.0082762092 -0.008652634 4279259548
0.035310175 0.0091082044 -0.0097676842 4278735269
0.037673168 0.0078605823 -0.008793531 4278473384
0.0398109 0.0073067583 -0.0085170716 4278473639
0.041953888 0.0067534186 -0.0082416944 4278408104
0.043860946 0.0068930648 -0.008661611 4278801313
0.045524057 0.0077251159 -0.0097750518 4278604964
0.047674786 0.007172633 -0.0095011629 4278604964
0.049332377 0.0080044754 -0.01061324 4278539429
0.051488228 0.0074525476 -0.010340344 4278539174
0.05339478 0.0075926296 -0.010759795 4278735779
0.055558398 0.0070414729 -0.010488456 4278735779
0.057727221 0.0064907856 -0.010218199 4278604708
0.05963872 0.0066315196 -0.010638524 4278801569
0.062876046 0.0033185221 -0.0076140473 4278670754
0.069621965 -0.0089695938 0.0043531246 4278801824
0.0031133816 0.0045007393 -0.0030851196 4278801568
0.0052002221 0.0039392374 -0.0028003436 4278801569
0.0072924346 0.0033782534 -0.0025167298 4278736289
0.0090040751 0.0042141639 -0.0036406275 4278867104
0.011101715 0.0036537685 -0.0033580605 4279193759
0.013006411 0.0037916936 -0.0037786197 4279128478
0.014911138 0.003929697 -0.0041991267 4278997153
0.016408566 0.0054627173 -0.0060212752 4278735523
0.018307988 0.0056005493 -0.0064404504 4278866593
0.020207416 0.0057384856 -0.0068595521 4278997663
0.022530157 0.0044827573 -0.0058804015 4278932128
0.024649229 0.003924612 -0.0056020478 4279063454
0.026773619 0.0033669695 -0.0053247828 4278866593
0.028683668 0.0035060681 -0.0057459334 4279259548
0.030593686 0.0036452599 -0.006167003 4280045969
0.032053687 0.0051763132 -0.0079802545 4280308109
0.03373063 0.0060110055 -0.0090955161 4280635783
0.035402171 0.0068454221 -0.010209579 4280636548
0.038000319 0.0048982985 -0.0085448036 4280178059
0.040143069 0.0043426752 -0.0082710749 4280636548
0.042291082 0.0037875362 -0.0079984302 4280309894
0.043962367 0.0046222918 -0.0091120908 4280572544
0.046115547 0.0040677227 -0.0088404389 4281358709
0.048027642 0.0042079575 -0.0092613017 4281489523
0.049939636 0.0043482706 -0.0096820733 4281489523
0.052103199 0.0037947074 -0.0094124498 4282013549
0.054271959 0.0032416694 -0.0091439364 4281490288
0.056188945 0.0033826455 -0.0095655853 4282210409
0.0039008521 -0.00057333335 -0.00070697442 4282861424
0.0058132522 -0.00043525919 -0.0011295434 4282860404
0.0079158321 -0.00099774823 -0.00084983185 4282926193
0.0098309964 -0.00085927919 -0.0012728646 4283253868
-0.01616846 -0.03076281 -0.0088595208 4281948778
0.0042089336 -0.033782337 -0.0090503953 4282143854
0.0061539412 -0.033642057 -0.0094802696 4281816434
0.0080990121 -0.033501629 -0.0099100638 4281357179
0.010044124 -0.033361103 -0.010339785 4281357434
0.012181863 -0.033953678 -0.010092376 4281030270
0.014324967 -0.034545776 -0.0098460149 4280309128
0.01647342 -0.035137329 -0.0096007828 4279719313
0.018226083 -0.034263063 -0.010707216 4279063709
0.019973421 -0.033389021 -0.011812424 4278473639
0.021921353 -0.033247549 -0.012242207 4278866848
0.023869285 -0.033105951 -0.012671905 4278539684
0.025817206 -0.032964248 -0.01310152 4278998174
0.02797902 -0.03355414 -0.012858653 4278670754
0.031228926 -0.037800942 -0.0092580421 4278932894
0.036264569 -0.047895711 -0.00029492006 4279326103
-0.030787677 -0.038629238 -0.0017771311 4280440710
-0.029660933 -0.03405438 -0.0063357633 4279260058
-0.028148606 -0.03169946 -0.0088254921 4278735269
-0.026368544 -0.030823622 -0.0099383499 4278866849
-0.024304755 -0.031425852 -0.009677764 4278670753
-0.022235513 -0.032027546 -0.009418346 4278801823
-0.019861281 -0.0341057 -0.0077902805 4278539939
-0.017928205 -0.033967707 -0.0082185864 4278539683
-0.015995003 -0.033829574 -0.0086468365 4278670754
-0.014061689 -0.033691335 -0.0090750288 4278604964
-0.012128256 -0.033552963 -0.0095031597 4278473639
-0.010194711 -0.033414472 -0.0099312235 4278801059
-0.0082610548 -0.033275846 -0.010359226 4278604454
-0.0061588846 -0.033874292 -0.010106353 4278867104
-0.0040513128 -0.034472208 -0.0098546501 4278997663
-0.0017645843 -0.035806347 -0.0089244563 4278670499
0.00035647303 -0.036403034 -0.0086755324 4278801569
0.002303876 -0.036262836 -0.0091061369 4278474149
0.0042513385 -0.036122505 -0.0095366556 4278867359
0.0063832775 -0.036718082 -0.0092898272 4278801824
0.0083335191 -0.036577296 -0.0097207706 4278801314
0.010094091 -0.035700742 -0.010827729 4278735779
0.012041762 -0.035559911 -0.01125793 4278670244
0.014184527 -0.036154207 -0.011013122 4278473638
0.016134925 -0.036012936 -0.011443743 4278604708
0.017684586 -0.034401778 -0.013221683 4278604454
0.019832736 -0.034995291 -0.012977844 4278473639
0.021780511 -0.034853835 -0.013407608 4278604964
0.024145044 -0.036180828 -0.012493374 4278408613
0.025887115 -0.035304662 -0.01359546 4278867359
0.02805124 -0.035896514 -0.013354773 4278539429
0.031518862 -0.040889997 -0.0090941144 4278998174
0.036995038 -0.052482177 0.0011847578 4279260313
-0.030657344 -0.041718308 -0.0015692376 4280243083
-0.029524289 -0.037129935 -0.006119472 4278866593
-0.027867287 -0.035509471 -0.0079199616 4278538408
-0.025937594 -0.035372201 -0.0083478838 4278473639
-0.024007738 -0.035234798 -0.008775752 4278605218
-0.022077754 -0.035097267 -0.0092035588 4278605218
-0.019848458 -0.036441032 -0.0082646962 4278539683
-0.017760634 -0.037043352 -0.0080108708 4278474148
-0.015822254 -0.036904875 -0.0084402803 4278605218
-0.01372619 -0.037506398 -0.0081881126 4278670243
-0.011784911 -0.037367482 -0.0086179962 4278670243
-0.0098435208 -0.037228424 -0.0090477979 4278604709
-0.00823313 -0.035610188 -0.010837058 4278539174
-0.006128639 -0.0362106 -0.010586379 4278801314
-0.0040187351 -0.036810528 -0.010336829 4278866849
-0.0017298758 -0.038148928 -0.0094104027 4278736034
0.00021730363 -0.038008858 -0.0098410407 4278539684
0.0023434348 -0.038607288 -0.009594758 4278670243
0.0044749528 -0.039205182 -0.0093496246 4278801313
0.0066118576 -0.039802555 -0.0091055809 4278473639
0.0085672885 -0.039661396 -0.0095376698 4278604709
0.010333236 -0.03878231 -0.010644141 4278539174
0.012478281 -0.039378714 -0.010401613 4278604709
0.014433831 -0.03923719 -0.01083346 4278735779
0.016389407 -0.03909554 -0.011265221 4278408104
0.018144824 -0.038216714 -0.01236899 4278735524
0.020097774 -0.038075004 -0.012799984 4278604454
0.022050735 -0.03793316 -0.013230881 4278539173
0.023795515 -0.037054744 -0.014332024 4278670243
0.025956646 -0.037649121 -0.014092403 4278670243
0.02790959 -0.037506912 -0.01452302 4278408359
0.031591892 -0.043251712 -0.0096048815 4278801569
0.036629803 -0.053407419 -0.00068805739 4279325594
-0.030527711 -0.044815835 -0.0013675578 4282340459
-0.029388338 -0.040213931 -0.005909388 4278801058
-0.027587034 -0.039332408 -0.0070237471 4278473639
-0.0257909 -0.038451154 -0.0081368973 4278408104
-0.023855865 -0.038313385 -0.0085659167 4278538919
-0.02206742 -0.037432391 -0.0096772248 4278735779
-0.019835994 -0.03878038 -0.0087421192 4278539173
-0.017897882 -0.038642053 -0.0091715595 4278604708
-0.01565022 -0.039988603 -0.0082399203 4278473638
-0.013706543 -0.039849658 -0.0086704353 4278604708
-0.011922777 -0.038968455 -0.0097802198 4278407849
-0.0099815279 -0.038829435 -0.010210012 4278473639
-0.0060987324 -0.038550999 -0.011069383 4278473384
-0.0039865039 -0.039152961 -0.01082199 4278604454
-0.0016955025 -0.040495608 -0.0098992614 4278670244
0.00025419891 -0.040355358 -0.010330464 4278342568
0.0022039637 -0.040215004 -0.010761595 4278670243
0.0045164824 -0.041555692 -0.009843397 4278473639
0.0066557117 -0.042155076 -0.0096015064 4278473639
0.0088003315 -0.042753998 -0.0093606738 4278670244
0.010571636 -0.041872304 -0.010466735 4278408104
0.012529667 -0.041730728 -0.010899226 4278342569
0.014293067 -0.040849391 -0.012003309 4278473384
0.016445823 -0.041447174 -0.011763933 4278538919
0.018203944 -0.040565979 -0.012866671 4278801059
0.020159405 -0.040424075 -0.013298209 4278604454
0.021909557 -0.039543223 -0.014399005 4278539173
0.024070349 -0.040139932 -0.014161046 4278670243
0.026236463 -0.040736128 -0.013924151 4278670243
0.028407909 -0.041331846 -0.013688299 4278670499
0.031880517 -0.046355519 -0.0094516454 4278605219
0.036920898 -0.056541596 -0.000558272 4279652759
-0.030531988 -0.04717565 -0.001855636 4282078064
-0.029388979 -0.042560387 -0.0063885218 4278735778
-0.027584977 -0.04167651 -0.0075018695 4278670244
-0.025644921 -0.041538533 -0.0079321163 4278473639
-0.023848563 -0.040654976 -0.0090435864 4278277034
-0.021764338 -0.041262183 -0.0087924404 4278277034
-0.019674651 -0.041868899 -0.0085424101 4278408104
-0.017579503 -0.042475123 -0.0082935141 4278539174
-0.015633427 -0.042336125 -0.0087246513 4278408103
-0.013687216 -0.042196993 -0.009155727 4278604709
-0.012060612 -0.040569138 -0.010942238 4278473639
-0.0097944811 -0.041918378 -0.010017694 4278473384
-0.0078479499 -0.041778859 -0.010448559 4278538919
-0.0039546043 -0.041499455 -0.011310103 4278604454
-0.001661472 -0.042846326 -0.01039113 4278473384
0.00046655908 -0.043449085 -0.010148696 4278539174
0.0022430122 -0.042565394 -0.011254597 4278670244
0.0041953623 -0.042424727 -0.011686209 4278735524
0.0063315816 -0.043026526 -0.011445294 4278735524
0.008473184 -0.043627795 -0.011205471 4278604709
0.010241874 -0.042744163 -0.012309286 4278539174
0.012388896 -0.043344799 -0.012070476 4278539174
0.014346804 -0.043203112 -0.012502848 4278735524
0.016896162 -0.045286212 -0.010926585 4278801059
0.019061912 -0.045885112 -0.010691627 4278604454
0.020828079 -0.045001041 -0.011794413 4278604454
0.022588927 -0.044117201 -0.012895915 4278735524
0.024552241 -0.043974478 -0.013328998 4278539173
0.026726004 -0.044572297 -0.013095434 4278932384
0.028691959 -0.044429149 -0.013528931 4278539173
0.032168403 -0.04946785 -0.0093045197 4278670244
0.036992788 -0.058944169 -0.0010994263 4279717784
-0.030802697 -0.048042674 -0.0037108753 4282078574
-0.029661365 -0.043414485 -0.0082335463 4278736289
-0.027583249 -0.04402471 -0.007982959 4278670244
-0.025781684 -0.043138724 -0.0090940548 4278670244
-0.023554228 -0.044495936 -0.0081648445 4278604709
-0.021608695 -0.044357341 -0.00859614 4278473639
-0.019514017 -0.044965956 -0.0083488328 4278669989
-0.017565541 -0.044826929 -0.0087806033 4278735524
-0.015771292 -0.043940824 -0.0098896725 4278539173
-0.01382523 -0.043801729 -0.010320733 4278408359
-0.012198381 -0.042169478 -0.012104022 4278408103
-0.010095119 -0.042776834 -0.011858209 4278996899
-0.0079864115 -0.043383662 -0.011613498 4278865828
-0.0060399398 -0.043244045 -0.01204428 4278800038
-0.0040933639 -0.043104295 -0.012474987 4278997408
-0.0016277879 -0.045201126 -0.010885972 4278997408
0.00050256774 -0.04580592 -0.010645683 4278931618
0.0022817217 -0.044919837 -0.011750544 4279194014
0.0040556118 -0.044034038 -0.012854162 4279325083
0.0061914921 -0.044638049 -0.012614819 4279390618
0.0085190535 -0.045986164 -0.011706258 4279325084
0.010290436 -0.045100112 -0.012809072 4278997408
0.012439787 -0.045702819 -0.012572378 4279128478
0.014594484 -0.04630496 -0.012336805 4279194524
0.017345382 -0.049138103 -0.010098565 4279521689
0.019718379 -0.050482277 -0.0091996156 4279586459
0.021697514 -0.050338652 -0.0096363761 4279455644
0.023471715 -0.049451675 -0.010739204 4279325083
0.026070997 -0.05153719 -0.0091784857 4279194524
0.028265722 -0.052135658 -0.0089511685 4279130008
0.030465765 -0.052733619 -0.0087249316 4278933148
0.03353348 -0.056300979 -0.0058445558 4278998173
-0.030807264 -0.050406281 -0.0042017158 4282209389
-0.02952677 -0.046515141 -0.0080355713 4278997918
-0.027305461 -0.047877464 -0.0071084257 4279194013
-0.025355034 -0.047738779 -0.0075409971 4279128733
-0.023117468 -0.049099658 -0.0066173151 4278932383
-0.021015257 -0.049710024 -0.006373398 4279259548
-0.019056424 -0.0495704 -0.0068075731 4278931618
-0.016945966 -0.050179917 -0.0065653548 4279521434
-0.01544667 -0.047792535 -0.0090272389 4279914644
-0.013649583 -0.046904001 -0.010135188 4279979924
-0.01201719 -0.04526696 -0.011916487 4280438160
-0.0097467825 -0.046624679 -0.010999403 4280241554
-0.0077952296 -0.046484832 -0.011431406 4279913878
-0.0058435798 -0.04634488 -0.011863361 4279848343
-0.0037217215 -0.046952713 -0.01162302 4280569229
-0.0012488738 -0.04905555 -0.01004051 4280633743
0.00088912621 -0.04966199 -0.0098035634 4280896138
0.0026763119 -0.048773158 -0.01090857 4281222538
0.0042774454 -0.047137376 -0.012682211 4281616004
0.0062348768 -0.04699624 -0.013114862 4281615239
0.0085645616 -0.04834858 -0.012210049 4281615749
0.010904938 -0.049699988 -0.011307556 4282531708
0.013064582 -0.050304089 -0.011074811 4282728059
0.015811861 -0.053146344 -0.0088424012 4282794103
0.018777227 -0.056732941 -0.0059483014 4282926194
0.021370426 -0.058825832 -0.004391429 4281814649
0.023171291 -0.057934862 -0.0054985918 4281355139
0.025171582 -0.057789598 -0.0059399456 4281355649
0.027586685 -0.059134651 -0.0050532492 4282077554
0.030012451 -0.0604789 -0.0041687833 4282340203
0.032236114 -0.061077308 -0.0039493889 4282472039
0.034895889 -0.063164577 -0.0024066232 4282406504
-0.030679479 -0.053526726 -0.0040167067 4282274669
-0.029122211 -0.051129539 -0.0064871833 4279651739
-0.026890777 -0.052495498 -0.0055655502 4280569739
-0.024648547 -0.053860549 -0.0046462789 4281290879
-0.022395514 -0.05522475 -0.0037292689 4281291389
-0.020423666 -0.055084322 -0.0041664243 4281487483
-0.018303037 -0.055695418 -0.0039281994 4282468979
-0.016328245 -0.055554535 -0.0043658204 4282533493
-0.0032673404 -0.066896111 -0.025418682 4282993768
0.050545733 0.00067907199 -0.0087602502 4284901424
0.052465502 0.00082008168 -0.0091826459 4284901678
0.054893434 -0.00043072924 -0.0082287425 4284967213
0.056818303 -0.00028915331 -0.0086521143 4284901679
0.058743041 -0.00014747307 -0.0090753725 4284967469
0.060667649 -5.7183206e-06 -0.0094985338 4284967469
0.064445689 -0.0047299899 -0.0051214537 4284967469
-0.040927529 -0.0010531023 0.0035867617 4284905759
-0.037140988 -0.00078409165 0.0027468093 4284905503
-0.035116136 -0.0013564341 0.0030404367 4284905759
-0.03281787 -0.0033419877 0.0047588963 4284905249
-0.030640051 -0.0046196207 0.0057614148 4285033768
0.035814971 0.0016075261 -0.010410543 4285230118
0.038419709 -0.00035223365 -0.008757052 4285295654
0.040569834 -0.00091167167 -0.0084882071 4285229864
0.04272522 -0.0014706217 -0.00822045 4285229608
0.044164054 6.8280846e-05 -0.010021995 4285229863
0.046565209 -0.0011892058 -0.0090658078 4285361188
0.04848507 -0.0010483675 -0.0094883526 4285427234
0.05090205 -0.0023045428 -0.0085354606 4285427489
0.053078301 -0.0028614514 -0.0082719112 4285427488
0.055005841 -0.0027197488 -0.0086959219 4285361443
0.056933261 -0.0025779493 -0.0091198245 4285427234
0.058860555 -0.0024360716 -0.0095436322 4285427233
0.061311569 -0.0036891885 -0.0085978871 4285427234
0.064831518 -0.0077309273 -0.0049178414 4285295909
-0.06215138 -0.0019548126 0.004910022 4285033768
-0.060268857 -0.001822073 0.0044916756 4285034533
-0.058286905 -0.0024007522 0.0047924314 4285165859
-0.05660484 -0.00084501505 0.0029365234 4285100069
-0.054619737 -0.001423277 0.0032366496 4285230884
-0.052736223 -0.00129015 0.0028183199 4285165349
-0.050742656 -0.0018676855 0.0031167399 4285231139
-0.048743546 -0.0024446994 0.0034139473 4285100068
-0.046738893 -0.0030212477 0.0037099812 4285165604
-0.044846468 -0.0028871521 0.0032899249 4285296164
-0.043194726 -0.0013330095 0.0014412329 4285361699
-0.041307196 -0.0011990778 0.0010224078 4285296164
-0.039293692 -0.0017746352 0.001316743 4285230883
-0.037274659 -0.0023497269 0.0016099177 4285165603
-0.034987926 -0.0043427944 0.0033259206 4285231393
-0.032818764 -0.0056255497 0.0043269768 4285230883
-0.030365929 -0.0083251484 0.0067473222 4285755418
0.034904417 -0.0036185794 -0.0076792659 4285294633
0.03659486 -0.0027762167 -0.0087924944 4285361443
0.039209563 -0.0047417916 -0.007146108 4285426978
0.041134965 -0.004600931 -0.0075701596 4285426978
0.043060292 -0.0044599734 -0.0079941163 4285492769
0.044264305 -0.0022149049 -0.010481452 4285492769
0.046667617 -0.0034766011 -0.009529016 4285493024
0.048835777 -0.0040365122 -0.0092654163 4285493023
0.051257566 -0.0052966364 -0.0083168838 4285493023
0.053438835 -0.0058553554 -0.0080560707 4285492768
0.055371586 -0.0057132356 -0.0084812008 4285427233
0.057560623 -0.0062711835 -0.0082219504 4285492769
0.059236728 -0.0054287426 -0.0093311742 4285426978
0.061954316 -0.0073856525 -0.0077065881 4285361444
0.066274181 -0.013538707 -0.0019901842 4285361444
-0.06200207 -0.0056550875 0.0059342012 4285360934
-0.060015343 -0.0062357001 0.0062321201 4285361953
-0.058319986 -0.0046748295 0.0043764748 4285427233
-0.056533352 -0.003828086 0.0032400712 4285427489
-0.054647505 -0.0036949292 0.0028211288 4285493024
-0.052547529 -0.004987888 0.0038335677 4285427233
-0.050655887 -0.0048541576 0.0034134611 4285427489
-0.048651762 -0.0054330416 0.003707882 4285427488
-0.046986878 -0.0038738176 0.0018593874 4285427744
-0.044979632 -0.004452318 0.0021532476 4285427743
-0.0433276 -0.0028938204 0.00030774437 4285493279
-0.041317284 -0.003471937 0.00060104206 4285493279
-0.03930141 -0.0040495433 0.0008931905 4285427488
-0.037151769 -0.0053383335 0.0018951781 4285427489
-0.034991302 -0.0066262111 0.0028947871 4285427488
-0.032819986 -0.0079132393 0.0038920548 4285492769
-0.030365348 -0.010621499 0.0063054077 4286278424
0.035218265 -0.0066136308 -0.0074513704 4285425959
0.037143663 -0.0064729713 -0.007875571 4285426724
0.039533429 -0.0077404231 -0.0069237202 4285492513
0.041464034 -0.0075991601 -0.0073489062 4285558559
0.043157026 -0.0067540891 -0.0084608048 4285493024
0.044844609 -0.0059092902 -0.0095714219 4285493024
0.047012527 -0.0064714663 -0.0093095228 4285493024
0.048940144 -0.0063300095 -0.0097337384 4285493024
0.051115874 -0.0068913922 -0.0094734002 4285493023
0.053547699 -0.0081550442 -0.008530274 4285492768
0.055229459 -0.0073101707 -0.0096392296 4285492769
0.057674401 -0.008572679 -0.0086987782 4285427233
0.059612118 -0.008429978 -0.0091248378 4285426978
0.062595859 -0.011095006 -0.0068246964 4285361444
0.067186043 -0.017969076 -0.00044339709 4285361444
-0.061947271 -0.0086520649 0.0062319152 4285360679
-0.060051657 -0.0085185133 0.0058105774 4285427234
-0.058452129 -0.0062371641 0.003241634 4285492768
-0.056563973 -0.0061039701 0.0028220862 4285493023
-0.054675579 -0.0059706867 0.0024025347 4285492768
-0.052466646 -0.0079832599 0.004125312 4285492769
-0.050569788 -0.0078491904 0.0037040189 4285493023
-0.048560627 -0.0084299743 0.0039956402 4285493023
-0.046775423 -0.0075807609 0.0028614774 4285493023
-0.044877902 -0.0074463859 0.0024402309 4285558814
-0.043100223 -0.0065974928 0.0013078284 4285558814
-0.041204937 -0.0064630881 0.00088722073 4285493279
-0.039184041 -0.0070426129 0.0011766236 4285493279
-0.03715764 -0.0076216348 0.0014648214 4285493024
-0.034864277 -0.0096273907 0.0031694081 4285426979
-0.032688104 -0.010918509 0.0041623488 4285426214
-0.030365057 -0.012922015 0.0058605317 4286277913
0.037232585 -0.0087696053 -0.0083419941 4285492513
0.039392486 -0.0093349554 -0.0080802701 4285558814
0.041088283 -0.0084875785 -0.0091912132 4285558814
0.043016024 -0.0083464049 -0.0096156783 4285558813
0.044703677 -0.007499408 -0.010724666 4285493023
0.047356643 -0.0094748251 -0.0090962555 4285493024
0.049044117 -0.0086276382 -0.010205047 4285493024
0.051470205 -0.0098961629 -0.0092639998 4285493023
0.053656191 -0.010458898 -0.0090074167 4285493023
0.055594031 -0.010316361 -0.0094336346 4285492769
0.057787769 -0.010878291 -0.0091786552 4285427233
0.059986703 -0.011439715 -0.0089247376 4285361443
0.062974885 -0.014113192 -0.0066320635 4285361443
-0.060088247 -0.010805387 0.005385993 4285493279
-0.058387004 -0.0092354007 0.0035354923 4285427233
-0.056493625 -0.0091018714 0.0031147525 4285558303
-0.054600015 -0.0089682527 0.0026940182 4285558559
-0.052386433 -0.010987122 0.004410794 4285558303
-0.050375149 -0.011570055 0.0047002155 4285558559
-0.048470184 -0.011435378 0.0042771567 4285558558
-0.046794139 -0.0098666959 0.0024326779 4285493024
-0.044894062 -0.0097321831 0.0020108335 4285493023
-0.042993769 -0.0095975511 0.0015890207 4285493023
-0.041093275 -0.0094628297 0.0011672154 4285493023
