# .PCD v0.7 - Point Cloud Data file format
VERSION 0.7
FIELDS x y z rgba
SIZE 4 4 4 4
TYPE F F F U
COUNT 1 1 1 1
WIDTH 978
HEIGHT 1
VIEWPOINT 0 0 0 1 0 0 0
POINTS 978
DATA ascii
0.017289113 0.013823446 -0.016603353 4287968053
0.018568834 0.016037066 -0.019092251 4288164914
0.019632999 0.018946659 -0.022281667 4287772469
0.021079974 0.020461541 -0.024060192 4288230449
0.022311401 0.022672299 -0.026539158 4288099124
0.024149194 0.022793014 -0.026908319 4288295729
0.02577677 0.023610018 -0.02797902 4288751158
0.027824646 0.023034748 -0.027646378 4288096063
-0.019875042 -0.02216455 0.023160042 4287381043
-0.017886188 -0.022036795 0.022758422 4287577393
-0.015897196 -0.02190892 0.022356855 4287969328
-0.014188759 -0.020375069 0.020527204 4287772723
-0.012490906 -0.018841747 0.018699726 4287641653
-0.010949343 -0.016606476 0.016161511 4287771958
-0.0091269538 -0.015776899 0.015051438 4287771958
-0.0076119304 -0.013543118 0.012518737 4287902518
-0.006112881 -0.011310231 0.0099892803 4287837238
-0.0049426332 -0.0076744966 0.0060414709 4288033589
0.018250609 0.015197761 -0.020897131 4287051328
0.019511962 0.017416902 -0.023377389 4287902518
0.020959169 0.018936198 -0.025152724 4288034098
0.022191003 0.021153599 -0.027626906 4287969073
0.023614032 0.022671513 -0.029397234 4288099633
0.024816323 0.024887169 -0.031865336 4288424249
-0.016299307 -0.022142421 0.019752422 4287642928
-0.01431565 -0.022014808 0.019351991 4288034353
-0.012331858 -0.02188709 0.018951608 4287837748
-0.010639027 -0.020349611 0.017128436 4287837495
-0.0089567602 -0.01881275 0.015307521 4287771958
-0.0072851181 -0.017276432 0.013488781 4287837238
-0.0056240633 -0.015740734 0.011672299 4287902518
-0.004286129 -0.012797367 0.0084395148 4287837748
-0.0028106011 -0.010559205 0.0059198104 4287576373
-0.0016742609 -0.0069144554 0.0019870773 4287314234
0.020838376 0.017411146 -0.026245045 4287902774
0.021866152 0.020336151 -0.029413972 4287968819
0.022665303 0.023960708 -0.033277605 4288033588
0.023647467 0.026882913 -0.036437225 4287638083
-0.014722511 -0.022239532 0.016755132 4288492843
-0.012601513 -0.022819359 0.017066194 4287707189
-0.010765776 -0.021984708 0.015956605 4287968309
-0.0089352652 -0.021150302 0.014848137 4287902518
-0.0072607175 -0.019609433 0.013032096 4287968309
-0.0055967867 -0.018069137 0.011218209 4287837494
-0.0037873723 -0.017235752 0.010114249 4287772469
-0.0023007505 -0.014990289 0.0075971521 4287968564
-0.00099153817 -0.012039769 0.004376784 4288099379
0.00013222173 -0.0083847381 0.00045476668 4287837238
-0.011037678 -0.022910308 0.014076741 4287840043
-0.0092098042 -0.022073876 0.012970423 4288100398
-0.0073871687 -0.021237668 0.011865249 4288033843
-0.0055698007 -0.020401668 0.010761155 4287707189
-0.0039135776 -0.018857401 0.0089521855 4287968819
-0.0022679865 -0.017313685 0.0071453825 4288033843
-0.00079427287 -0.015062373 0.004635876 4287902773
0.00049950182 -0.012103964 0.0014251657 4288033843
0.0017719343 -0.0091468208 -0.0017811544 4287771958
0.0033615865 -0.0076063238 -0.0035763141 4287116609
-0.0096316487 -0.022281419 0.010389945 4288168483
-0.0076639652 -0.022154476 0.0099930037 4287707699
-0.0056961738 -0.022027407 0.0095961206 4287969585
-0.0038840063 -0.021189477 0.0084948204 4287903538
-0.0022355206 -0.019641202 0.0066907201 4288099634
-0.00059766695 -0.0180935 0.0048887841 4288099379
0.00086579472 -0.015836161 0.002386272 4288099634
0.0024796911 -0.01428977 0.0005893372 4287903283
0.003913831 -0.012034114 -0.0019071046 4287706679
0.0051601529 -0.0090696551 -0.0051015392 4287379514
-0.0040102974 -0.022812735 0.0073315874 4287904559
-0.0023616105 -0.021260079 0.0055306628 4287969585
-0.00072354078 -0.019707937 0.0037319381 4288230704
0.0010674857 -0.018868867 0.0026367493 4287838259
0.0026869588 -0.017317753 0.00084197521 4288099634
0.0042957701 -0.015767198 -0.00095062703 4288099379
0.0055506788 -0.012793381 -0.0041403119 4287903540
0.0067842156 -0.0098208375 -0.0073256101 4287706679
0.0079963729 -0.0068496428 -0.010506494 4287116608
-0.0024876483 -0.022878613 0.0043708477 4287904304
-0.00084937736 -0.021322083 0.0025753025 4287969329
0.00094168261 -0.020480823 0.0014817175 4287838513
0.0027274601 -0.019639771 0.00038928352 4287838259
0.0043391548 -0.018084634 -0.0014006607 4287838004
0.0059402138 -0.0165301 -0.0031883353 4287903284
0.0073564649 -0.014262166 -0.0056713568 4287837748
0.0089335069 -0.012708973 -0.0074540228 4287771958
0.010140896 -0.0097291283 -0.010627426 4287510074
-0.0012963153 -0.02150188 2.1575019e-05 4288299809
0.00065267086 -0.02137563 -0.00037121773 4287969838
0.0022698715 -0.019815836 -0.0021591159 4287838004
0.0040450357 -0.018973183 -0.0032477202 4287772469
0.005814895 -0.018130768 -0.0043351753 4287707189
0.0075794458 -0.017288569 -0.0054214699 4287903284
0.0091620497 -0.015730571 -0.0072020655 4287968309
0.010733977 -0.014173213 -0.0089803943 4287968054
0.011931241 -0.011185113 -0.012145197 4287837238
0.012737766 -0.0067673735 -0.016693208 4287380279
3.7889928e-05 -0.020827521 -0.0036138529 4287513134
0.0018130243 -0.019982781 -0.0047009187 4287577139
0.0035828575 -0.019138303 -0.0057868445 4287707189
0.0056896135 -0.019731108 -0.0054817898 4287772979
0.0074542016 -0.018886711 -0.0065664733 4287838004
0.0092134736 -0.018042553 -0.0076500075 4287903284
0.010788284 -0.016480546 -0.0094257146 4288033843
0.012170583 -0.01420131 -0.011891954 4288033333
0.012798881 -0.0090522952 -0.017123727 4287577138
0.0055643581 -0.02133115 -0.0066281939 4287708719
0.0071553662 -0.019763988 -0.0084040621 4287838258
0.0090882853 -0.019638214 -0.0087932041 4287772979
0.010663293 -0.018071819 -0.010565723 4287772469
0.012227636 -0.016506027 -0.012335956 4287641144
0.012859676 -0.011341345 -0.017557209 4287969073
0.0068569034 -0.020636503 -0.010238313 4287511348
0.0087870024 -0.020510908 -0.010626876 4287772979
0.010717131 -0.020385195 -0.01101537 4287903540
0.01228435 -0.018814843 -0.012782968 4287837494
0.013104303 -0.014356654 -0.017304549 4287445814
0.010413408 -0.021253396 -0.012845059 4287576883
0.012159452 -0.020403262 -0.013920904 4287772469
0.013164271 -0.016656157 -0.017745513 4287445814
0.011672333 -0.020537999 -0.016431529 4287119924
0.013223916 -0.018959749 -0.018189415 4287512624
-0.017369598 -0.055914324 0.0052945577 4287509818
-0.015641484 -0.054300431 0.0035189167 4286921279
-0.017362397 -0.058311295 0.0047950856 4288099633
-0.01590566 -0.055203002 0.0016540773 4287707443
-0.014050826 -0.054330181 0.00056782365 4287445305
-0.012486145 -0.051968407 -0.0018831342 4287117118
-0.017355513 -0.060712319 0.0042926334 4288164403
-0.015895564 -0.057595041 0.0011574328 4287707443
-0.01403803 -0.056719866 7.2240829e-05 4287314488
-0.012185737 -0.055844899 -0.0010118037 4287641144
-0.010483656 -0.054223489 -0.0027755089 4287181634
-0.017483007 -0.062367942 0.003105877 4288687664
-0.016022537 -0.05924188 -2.2981316e-05 4287444793
-0.014164995 -0.058364529 -0.0011065751 4287575864
-0.012312688 -0.05748738 -0.0021890113 4287706423
-0.010465611 -0.056610387 -0.0032703467 4287771959
-0.0089187175 -0.054236408 -0.0057078004 4287379769
-0.0070875026 -0.053360205 -0.0067857541 4286920769
-0.017744403 -0.063271582 0.0012395624 4288688173
-0.01614948 -0.060888421 -0.0012031756 4287575608
-0.014291916 -0.060008872 -0.0022851722 4287248954
-0.012297634 -0.059880693 -0.0026878314 4287379769
-0.010447875 -0.059001412 -0.003768065 4287641399
-0.0086033754 -0.058122288 -0.0048471922 4287248953
-0.0070640445 -0.055742081 -0.0072781779 4287183419
-0.0052353926 -0.054863732 -0.0083539113 4286986813
-0.014697012 -0.060145754 -0.0048178183 4287052093
-0.012424681 -0.061524745 -0.003866178 4287576118
-0.010430444 -0.061396468 -0.0042687589 4287379769
-0.0084361248 -0.061268058 -0.0046712654 4287183418
-0.006741304 -0.059633758 -0.006423668 4287444793
-0.0050570816 -0.058000047 -0.0081737945 4287510329
-0.00338348 -0.056366842 -0.0099217109 4287445049
-0.0018783025 -0.053981896 -0.012340698 4287445049
-0.012693293 -0.062412914 -0.005719305 4287117119
-0.010557618 -0.063040242 -0.0054468708 4287248698
-0.0087103993 -0.062156614 -0.0065232674 4287575865
-0.0070180632 -0.060518097 -0.0082719447 4287445048
-0.005184032 -0.059635039 -0.0093454951 4287444793
-0.0035102479 -0.057997461 -0.011090234 4287445303
-0.0016894192 -0.057115 -0.01216092 4287314233
-0.00019451231 -0.054724019 -0.014572911 4286855999
-0.0088375062 -0.063797861 -0.007699539 4287248955
-0.0068460777 -0.063669533 -0.0081013748 4287313979
-0.0050066896 -0.062783912 -0.0091744447 4287379514
-0.0033273622 -0.061141636 -0.010917035 4287379769
-0.0013437122 -0.061013412 -0.011317023 4287445305
0.00031971559 -0.059371855 -0.013056253 4287444793
0.0022981577 -0.059243675 -0.013454982 4287641143
0.0041111633 -0.058359157 -0.0145222 4287640123
-0.0071226098 -0.064550981 -0.0099476734 4287182654
-0.0052858703 -0.063663393 -0.011018549 4287182908
-0.0034544095 -0.062776029 -0.012088274 4287183163
-0.0016282164 -0.06188887 -0.013156832 4287445048
0.00035267696 -0.06176069 -0.013556165 4287314488
0.0024962798 -0.062391002 -0.013287895 4287314233
0.0048106164 -0.06377922 -0.012353596 4288033588
0.006967701 -0.064408422 -0.012087786 4287379259
-0.0057164766 -0.063776687 -0.013527402 4286985793
-0.003735885 -0.06364879 -0.013926865 4287051328
-0.0019123629 -0.062759563 -0.014993322 4287313468
6.5695494e-05 -0.062631577 -0.015392081 4287641144
0.0022063032 -0.06326431 -0.015124765 4287837238
0.0046826117 -0.065417767 -0.013527651 4287706423
0.0068393648 -0.066049173 -0.013263384 4286856253
-0.0043255761 -0.062989756 -0.017094115 4287442753
-0.0025100484 -0.062098894 -0.018157296 4287574078
-0.00054017082 -0.06197146 -0.018554423 4288295219
0.0019166917 -0.064132884 -0.016958317 4288098614
0.0043896548 -0.06629318 -0.015365322 4287641399
-0.00098552927 -0.062063139 -0.02104377 4287443518
0.0014653206 -0.064231575 -0.019451255 4288163129
-0.029503137 0.023823481 0.06447193 4284057118
-0.027016371 0.021400988 0.067134894 4283794213
-0.034086436 0.024468273 0.061023064 4283920949
-0.032675877 0.027799284 0.056791089 4283989289
-0.031173334 0.03048829 0.053330071 4283860258
-0.028964594 0.029334931 0.054463618 4283858474
-0.025877565 0.023702353 0.060946442 4283859749
-0.038516544 0.024491027 0.05834461 4283787583
-0.036866218 0.026547976 0.055648036 4284119593
-0.035231724 0.028603986 0.052954651 4284057884
-0.033613078 0.030659018 0.0502645 4283795998
-0.031773515 0.031427931 0.04910557 4283859238
-0.029696964 0.030911796 0.04947459 4283859749
-0.026996151 0.027184943 0.053657077 4283860258
-0.023883745 0.021534111 0.060120143 4283992603
-0.020852014 0.016528364 0.065811627 4283991329
-0.041777954 0.029822053 0.049150519 4283854903
-0.039718859 0.029302267 0.049521193 4283988778
-0.037433796 0.027492268 0.051418833 4284056099
-0.035583861 0.028263897 0.050259322 4284056354
-0.033739068 0.029035287 0.049100846 4283994134
-0.0321358 0.031095924 0.046418719 4283993368
-0.030185744 0.031221764 0.046025358 4283927323
-0.027864784 0.029414376 0.047915898 4283992859
-0.025022551 0.02503098 0.05284632 4283990563
-0.022658341 0.023226451 0.054728262 4284056099
-0.020541042 0.022710904 0.055087559 4284056099
-0.018418211 0.022195768 0.055445775 4283990563
-0.015194133 0.016532432 0.061871804 4283925539
-0.045607008 0.026655737 0.050307177 4283853119
-0.044364415 0.031317838 0.044563949 4283992348
-0.042426497 0.031442538 0.044172764 4283860003
-0.040273681 0.030271912 0.045307472 4283862298
-0.037889928 0.027806977 0.047964878 4283927069
-0.035822563 0.027285557 0.048332296 4283925284
-0.034095682 0.028706064 0.046414629 4284056099
-0.032261267 0.029478956 0.045259915 4283990308
-0.030311272 0.02960474 0.044866525 4284056099
-0.028114296 0.028437285 0.045992553 4284056354
-0.025654241 0.025977595 0.048634805 4284056099
-0.023558825 0.025458319 0.048996806 4283925283
-0.021983586 0.027523993 0.046325378 4283925539
-0.020021923 0.027650805 0.045929834 4283798549
-0.01764971 0.025840333 0.047805332 4283730464
-0.01414546 0.018865924 0.055729464 4283600159
-0.046029776 0.026984027 0.04685498 4284054569
-0.044590481 0.030360579 0.042649359 4283858983
-0.042759784 0.031135112 0.041496783 4283792174
-0.040612742 0.029959643 0.042629354 4283861024
-0.038235098 0.02748541 0.045281447 4283925029
-0.036173329 0.026961364 0.045648329 4283925284
-0.034221172 0.02708712 0.045254372 4284055844
-0.032622367 0.029160658 0.04258278 4284056353
-0.03067781 0.02928604 0.042190447 4284056353
-0.02860982 0.028762577 0.042556286 4284056353
-0.026284479 0.026942162 0.044436142 4284056099
-0.024328597 0.027068449 0.044041656 4283925793
-0.022766322 0.029139867 0.041377679 4283730208
-0.020952053 0.029913995 0.040228821 4283727659
-0.01886975 0.029391745 0.040591978 4283727659
-0.016085416 0.025630737 0.044728443 4283859239
-0.012700852 0.019281182 0.051875822 4283859749
-0.049769476 0.02315877 0.048770793 4283986229
-0.04829511 0.026548451 0.044566095 4284121123
-0.046649352 0.028631147 0.041889615 4283993113
-0.044917762 0.030060446 0.039977171 4283860258
-0.042883702 0.029532149 0.040347897 4283859239
-0.040737085 0.028352169 0.041477256 4283860514
-0.038469844 0.026520949 0.04336372 4283927578
-0.036411002 0.025994448 0.043729521 4283925794
-0.034691602 0.027423242 0.041819744 4284122144
-0.033100404 0.029502818 0.039154567 4284122144
-0.031163953 0.029627625 0.038763829 4284055844
-0.02910424 0.029101405 0.039129615 4283990308
-0.026913248 0.027924689 0.040250324 4283991073
-0.025096565 0.028700978 0.039102532 4283991583
-0.023547247 0.030778138 0.036446013 4283863828
-0.0217463 0.031553574 0.035301432 4283798039
-0.019677632 0.031028192 0.035665691 4283797273
-0.016907807 0.027252942 0.039795287 4283863064
-0.014247485 0.024129726 0.043165676 4283926303
-0.011560209 0.02100832 0.046530671 4284056354
-0.0094346479 0.020486902 0.046883591 4284055843
-0.0073035844 0.019965902 0.047235444 4284120869
-0.049987979 0.022191502 0.046846949 4284052783
-0.048611626 0.026247079 0.041890375 4284055589
-0.046871975 0.027681151 0.039979517 4284056354
-0.045244247 0.029769348 0.037311502 4283927324
-0.043319926 0.029892968 0.036922924 4283927324
-0.041395351 0.030016676 0.036534339 4283993879
-0.039032616 0.027523693 0.039176337 4283990818
-0.036872566 0.026340215 0.040299781 4284055844
-0.035160936 0.027772829 0.038394824 4284056099
-0.033577323 0.02985853 0.035735972 4284057628
-0.031769179 0.030636257 0.034591362 4283994389
-0.029720441 0.030107062 0.034957699 4283993369
-0.02741503 0.028271973 0.036831796 4283926049
-0.02560629 0.029049918 0.035687201 4283925283
-0.023802742 0.029827621 0.034543648 4283925283
-0.022137947 0.031257641 0.032648452 4283860513
-0.019938633 0.03007723 0.033764362 4283860768
-0.017450508 0.027592991 0.036381558 4283925538
-0.014940802 0.025110215 0.038994446 4283990819
-0.012842447 0.024584731 0.039351143 4284056863
-0.01117957 0.026014939 0.037456572 4284056609
-0.0098266266 0.028747737 0.03406506 4283928598
-0.0069714412 0.024965027 0.038167901 4283860259
-0.002688624 0.015323237 0.049000479 4283859748
-0.049739756 0.017941684 0.048722908 4284054313
-0.048351735 0.022011187 0.043773681 4283990053
-0.046896957 0.025421603 0.039589129 4283989799
-0.045266107 0.027516561 0.036925316 4284121633
-0.043547101 0.028953787 0.035021916 4284122144
-0.041518658 0.028420676 0.035390422 4284056099
-0.039375313 0.027231583 0.036513895 4284056099
-0.037109025 0.025386995 0.038390756 4284056354
-0.035514489 0.027479911 0.03573449 4283990818
-0.033935785 0.029571829 0.033081509 4283995154
-0.032372959 0.031662829 0.030431734 4283927068
-0.030089758 0.029819567 0.032305352 4283996684
-0.027915694 0.028632822 0.033422895 4283996173
-0.025986835 0.028757226 0.033033758 4283925283
-0.024057806 0.028881693 0.032644629 4284056099
-0.022262014 0.029661087 0.031504326 4284056098
-0.020063117 0.028476197 0.03261704 4284056098
-0.017853327 0.027292028 0.033727653 4284056353
-0.015491221 0.025454341 0.035585634 4283991073
-0.013545286 0.025580231 0.035193339 4283991074
-0.012186512 0.028322101 0.031807132 4283926303
-0.010699544 0.030408895 0.029173171 4283860769
-0.0086198002 0.02988016 0.029532114 4283794723
-0.0054505244 0.024777563 0.03511811 4283860003
-0.0011354312 0.015104804 0.045919776 4283927578
-0.049120456 0.011035662 0.053617083 4283789113
-0.047710083 0.015119772 0.048673041 4283988779
-0.04623311 0.01854264 0.044492051 4283990563
-0.044883758 0.022622962 0.039560422 4284121378
-0.043358691 0.025383377 0.036146343 4284186914
-0.04174833 0.027483659 0.033491634 4284121634
-0.03971722 0.026948515 0.033857979 4284122399
-0.037568711 0.025755344 0.03497716 4284056099
-0.035981767 0.027854301 0.032327309 4284058903
-0.03441067 0.029952347 0.02968066 4283858729
-0.032855429 0.032049432 0.027037257 4283858473
-0.030580856 0.030198943 0.028907711 4283858473
-0.028290033 0.028349562 0.030774927 4283925793
-0.026238747 0.02781615 0.031137524 4283991584
-0.024181895 0.027283169 0.031499051 4284055844
-0.022386 0.028064732 0.030360321 4284056353
-0.020323463 0.027532242 0.030720791 4284122399
-0.018532611 0.028313614 0.029583177 4284056353
-0.01646439 0.027781622 0.029942596 4283990564
-0.014390666 0.027250055 0.030300958 4283991329
-0.012604736 0.02803131 0.029164484 4283930383
-0.011122696 0.030124387 0.02653637 4283795489
-0.0093525946 0.030904751 0.025403185 4283793958
-0.0068142712 0.028406411 0.027997488 4283859749
-0.0036249124 0.023287483 0.03356646 4283926558
-7.244572e-05 0.016860753 0.040615186 4283991839
-0.048782542 0.0060799867 0.056217574 4283723068
-0.047166653 0.0088548064 0.052791469 4283989034
-0.045473643 0.010966819 0.05012472 4283989544
-0.044099256 0.015061922 0.04519774 4283990053
-0.042653114 0.018493872 0.041031182 4284187678
-0.0413398 0.022585187 0.036116622 4284120868
-0.03973145 0.024692006 0.033467151 4284121634
-0.037915632 0.025476506 0.032325618 4284056099
-0.036447935 0.028242249 0.028929761 4284125714
-0.034767419 0.029686017 0.02704077 4284059159
-0.033097424 0.031129219 0.025153903 4284058394
-0.030948497 0.029931813 0.026269941 4284058648
-0.028663628 0.028075419 0.028133405 4284124184
-0.026617937 0.027539393 0.028495474 4284056354
-0.024566703 0.027003756 0.028856521 4284056099
-0.022776097 0.027787184 0.027720405 4284056099
-0.02099067 0.028570319 0.026585439 4284056099
-0.01921045 0.029353172 0.025451561 4283925028
-0.017153211 0.028818227 0.025811547 4283990818
-0.015090466 0.028283706 0.026170472 4283991328
-0.013315171 0.029066449 0.025037741 4283991583
-0.011694249 0.030507166 0.023161357 4283994898
-0.0097802617 0.030631121 0.022775592 4283993113
-0.007248085 0.028123528 0.025364613 4283994133
-0.0045371577 0.024959669 0.028692478 4283992349
-0.0017993189 0.021797627 0.032014973 4284056354
0.00015262887 0.021924328 0.031621769 4284056354
0.0014436916 0.02467995 0.028262487 4283990308
0.0038888529 0.022834983 0.030094491 4283859748
-0.048538961 0.0017664135 0.058047764 4283789368
-0.046911776 0.0045507252 0.054625832 4283857708
-0.045207635 0.0066699982 0.051961645 4283858219
-0.043620072 0.0094518885 0.048547804 4283924009
-0.042157106 0.012895904 0.04438594 4283989799
-0.040826768 0.017001495 0.039477654 4283990309
-0.039419524 0.020442054 0.035327129 4283989798
-0.038038835 0.023880973 0.031182023 4284121378
-0.036570527 0.026655536 0.027792504 4284056353
-0.03512343 0.029428808 0.024407333 4283992349
-0.033339009 0.030213634 0.023273861 4284058138
-0.031315371 0.029673804 0.023638619 4284058393
-0.029036462 0.027810318 0.025498429 4284056609
-0.026996382 0.027271677 0.025859965 4284056099
-0.024950773 0.026733464 0.026220446 4284056354
-0.023298316 0.028180193 0.024340624 4284057629
-0.021520853 0.02896497 0.023208851 4283994134
-0.019748598 0.029749531 0.02207814 4283928854
-0.017417759 0.027889796 0.023927765 4283995919
-0.015214324 0.026692027 0.025029877 4283925284
-0.013585247 0.028137591 0.023155024 4283991073
-0.011966754 0.02958254 0.021282358 4283990564
-0.0099038668 0.029046001 0.021639762 4283990309
-0.0075268224 0.027189646 0.023480283 4283990564
-0.0049765594 0.024674423 0.026059186 4284056099
-0.0027241483 0.023480214 0.027151784 4284056099
-0.0019224137 0.028223274 0.021577934 4284056864
-0.0011581145 0.032963935 0.016011724 4283929619
0.0045188516 0.025961153 0.023373423 4283794978
-0.048666969 0.00010056049 0.056853607 4283854904
-0.046943933 0.0022275336 0.05419039 4283923754
-0.045138769 0.003687568 0.052282304 4283858474
-0.043444641 0.0058128312 0.049625024 4283989544
-0.041869596 0.0086027607 0.046220221 4283989799
-0.040421657 0.012056842 0.04206951 4284055334
-0.038891643 0.014844015 0.0386739 4284056099
-0.037605412 0.0189601 0.033784322 4284056864
-0.036237113 0.022409275 0.029649852 4283924774
-0.034895346 0.025856817 0.025520785 4284055844
-0.033102818 0.026644323 0.024387268 4283990818
-0.031437449 0.028096018 0.022507811 4284056098
-0.029408544 0.027554341 0.022869898 4284055844
-0.027501442 0.027677165 0.02248502 4284056353
-0.025594167 0.027800061 0.022100149 4284056609
-0.023952186 0.029250493 0.020225668 4283926813
-0.022185348 0.030036755 0.019097632 4283927579
-0.02014754 0.029495994 0.01945818 4283860003
-0.017681897 0.026966013 0.022047309 4283928853
-0.015625022 0.026426636 0.022404121 4283925284
-0.013854921 0.027213387 0.021275638 4284056353
-0.012090046 0.027999882 0.020148264 4284056353
-0.010027424 0.027461084 0.02050407 4284121888
-0.0078051649 0.02626038 0.021599328 4284122144
-0.0055720545 0.025060415 0.0226925 4284056353
-0.0036471933 0.025185235 0.022304667 4284056099
-0.002857741 0.029942932 0.016744649 4283927323
-0.0021057241 0.034698233 0.011192275 4283792939
0.0025207959 0.031637054 0.014118314 4283727659
0.0068430677 0.022504915 0.024049686 4283793449
-0.048610069 -0.0029021166 0.05716227 4283854904
-0.046976343 -9.9860132e-05 0.053751916 4284054059
-0.045168236 0.0013647117 0.051846437 4283989799
-0.043471009 0.0034967251 0.049193352 4283989798
-0.041789584 0.0056277588 0.046543561 4283989544
-0.040018186 0.0070902258 0.044645615 4284055334
-0.038365707 0.0092195347 0.042001769 4284055589
-0.036951356 0.012682617 0.037865981 4283990053
-0.035563543 0.01614403 0.033735648 4283925029
-0.034318782 0.020270783 0.028864255 4283924519
-0.032748416 0.022395141 0.026237158 4283989288
-0.031193919 0.02451851 0.023613358 4284122144
-0.029530808 0.025974499 0.021737618 4284122144
-0.027878202 0.027429845 0.019864107 4284056354
-0.026236147 0.028884627 0.017992726 4284124184
-0.024604619 0.030338757 0.016123569 4283924773
-0.022577934 0.029794965 0.016484657 4283858473
-0.020683661 0.029917192 0.016102536 4283858729
-0.018226847 0.027377771 0.018686915 4283925284
-0.016034994 0.026170325 0.019784862 4283926559
-0.014124211 0.02629384 0.019399574 4284056354
-0.012510575 0.027747286 0.017534299 4284056099
-0.010453571 0.027205892 0.017889595 4284056609
-0.0085451007 0.027329486 0.01750494 4284056353
-0.006323155 0.026124353 0.018597091 4284056099
-0.0045684651 0.026912665 0.017473595 4284055844
-0.0033051744 0.029692858 0.014139317 4283993624
-0.0022279546 0.0331356 0.010072652 4283862808
-0.00050787628 0.033921935 0.0089562498 4283796764
0.0018872619 0.032053858 0.01078371 4283731484
0.0051623732 0.026870171 0.016283648 4283732758
0.0084804408 0.021689359 0.021774998 4283796764
0.0114852 0.017837442 0.02578962 4283858728
-0.048830457 -0.0039012246 0.05521547 4284181303
-0.047008991 -0.0024315156 0.053310446 4284446503
-0.045197949 -0.00096236542 0.051407531 4284120868
-0.043297097 -0.00016408414 0.050254941 4283989798
-0.041504286 0.0013039969 0.048355862 4284054823
-0.039721936 0.0027715191 0.046458893 4284054824
-0.038058348 0.0049081519 0.043817602 4284054823
-0.036521532 0.0077133402 0.040433623 4284054824
-0.034892283 0.0098479129 0.037799373 4283989544
-0.033278883 0.011981539 0.035168365 4283989799
-0.032038316 0.016121283 0.030307582 4283925029
-0.030586347 0.018921345 0.026940906 4283925538
-0.02915559 0.021720123 0.023578575 4284056608
-0.027873121 0.025186103 0.019477857 4284056353
-0.026617244 0.028650448 0.015382564 4284057629
-0.025123224 0.030776823 0.012775976 4284059159
-0.023239903 0.030898245 0.012395989 4283927324
-0.021218687 0.03035189 0.012756629 4283993368
-0.018911108 0.028470721 0.0145962 4283993623
-0.016587317 0.026590627 0.016432596 4284056609
-0.014538877 0.026046289 0.016787862 4284055844
-0.012930345 0.027503757 0.01492689 4284122144
-0.011483554 0.029627603 0.01233021 4284056608
-0.0094374344 0.029083349 0.012686111 4284056863
-0.0073858388 0.028539518 0.013040965 4284056863
-0.0053287782 0.027996076 0.013394814 4284056608
-0.0035900138 0.028785663 0.01227615 4283990054
-0.0021856055 0.030907098 0.0096883327 4283926049
-0.000128299 0.030363943 0.010042258 4283861023
0.0017645359 0.03048696 0.0096610747 4283861533
0.0043477938 0.02794777 0.012214115 4283924264
0.0071278326 0.024744686 0.015495883 4283857454
0.0099347308 0.021543421 0.018772302 4283396923
-0.043324307 -0.0024930425 0.049814031 4284709153
-0.041425794 -0.0016926862 0.048663549 4284055334
-0.039743289 0.0004516542 0.046023205 4284055079
-0.037968472 0.0019230768 0.044131078 4284120104
-0.036314934 0.0040656999 0.041496687 4283989034
-0.034563765 0.0055357553 0.039609432 4283988779
-0.032939233 0.007676661 0.036981009 4283989289
-0.031330556 0.0098166317 0.034355856 4283923753
-0.02985923 0.012626678 0.03099178 4283989799
-0.028533325 0.016106375 0.026890332 4283858218
-0.027487732 0.020925935 0.021312011 4283989798
-0.026608989 0.026413713 0.015000684 4283990308
-0.025376298 0.029887633 0.010918217 4284056863
-0.023630641 0.030679042 0.0097992513 4284056864
-0.021615051 0.030130124 0.01015933 4284056864
-0.01931344 0.028241871 0.011995252 4284056354
-0.016709745 0.025015362 0.015303729 4284056099
-0.014807194 0.025138279 0.014920054 4284056354
-0.013201095 0.026600022 0.013062758 4283991073
-0.011907514 0.029399451 0.0097351652 4283993369
-0.010020673 0.02952159 0.0093548298 4283926814
-0.0079773962 0.028974986 0.0097097121 4283928344
-0.0057696402 0.027760176 0.010798205 4283926049
-0.0038744584 0.027883088 0.010416359 4284056354
-0.0021435618 0.028674388 0.0093009919 4283991073
-8.3841383e-05 0.028129164 0.0096527934 4284056354
0.0018115714 0.028252332 0.0092710778 4283990308
0.0042243153 0.026372204 0.011085285 4283791918
0.0068282858 0.023825604 0.013627708 4282872898
-0.04155311 -0.0033490323 0.047476225 4284447014
-0.039764896 -0.0018724725 0.045584522 4284120104
-0.038095109 0.00027769059 0.042951643 4284120104
-0.036441162 0.0024269074 0.040322006 4283988779
-0.034689724 0.0039013475 0.038437918 4283988524
-0.032832816 0.0047015436 0.037297696 4283923499
-0.030981056 0.005501546 0.036158532 4283858219
-0.029377103 0.0076478086 0.033539258 4283858729
-0.028037056 0.0111394 0.029443046 4283858219
-0.026850283 0.015302353 0.024612674 4283858219
-0.025954194 0.02080882 0.01831085 4283925029
-0.024704665 0.024294868 0.014233036 4284056608
-0.02334702 0.027106775 0.010898665 4284121888
-0.021598458 0.027900662 0.0097807236 4284122144
-0.019574948 0.027350044 0.010137655 4284122399
-0.017117649 0.024784178 0.012702376 4284055844
-0.015365981 0.025578456 0.011584023 4284056864
-0.013767671 0.02704403 0.0097315665 4283990819
-0.012481548 0.029851822 0.0064119119 4283926304
-0.010449369 0.029302197 0.0067673363 4283858983
-0.0084117204 0.028752999 0.0071217138 4283928854
-0.0060509183 0.026862474 0.0089412108 4283925539
-0.0039969981 0.026314486 0.00929242 4283991583
-0.002266027 0.027107978 0.0081786476 4284056098
-0.00037345663 0.027230863 0.0077974368 4284056099
0.0016887486 0.02668366 0.0081471615 4283924264
0.0035841316 0.0268069 0.0077655073 4282021964
-0.036346368 -0.00056406856 0.040629916 4283988779
-0.034476236 0.00023910031 0.039488509 4283792684
-0.032727025 0.0017178319 0.037608124 4283792684
-0.030869834 0.0025202967 0.036469504 4283923499
-0.029260099 0.004673548 0.033853859 4283924009
-0.027666263 0.0068258569 0.031241482 4283923753
-0.026341327 0.010327555 0.027156467 4283923754
-0.025042996 0.013827622 0.023076883 4283923499
-0.023903139 0.01800086 0.018265853 4283924009
-0.02252616 0.020822838 0.014933994 4283858473
-0.021033242 0.022969052 0.01234228 4284055844
-0.019556232 0.025114274 0.0097538754 4284056098
-0.017809983 0.025910303 0.008638164 4284122144
-0.016068961 0.026706116 0.0075235199 4284056863
-0.014481116 0.028175402 0.0056764036 4283993114
-0.012753241 0.028970478 0.0045645684 4283858474
-0.010724004 0.028418429 0.0049189422 4283858473
-0.0086893067 0.02786682 0.0052722823 4283860259
-0.0064904764 0.026642511 0.0063560791 4283863063
-0.0044421814 0.026091943 0.0067067929 4283990309
-0.0025524721 0.026214538 0.0063260812 4283990564
-0.00082939118 0.027009794 0.0052155722 4283595314
0.0012271702 0.026459998 0.0055647939 4281560924
-0.034376629 -0.002758 0.039790705 4284055079
-0.032621831 -0.0012745038 0.037912361 4283857964
-0.030877523 0.00020835549 0.036036246 4283858218
-0.029385701 0.0030461028 0.032687373 4283989289
-0.02779144 0.0052050278 0.030079758 4283989033
-0.025960363 0.0060082003 0.028948164 4284054824
-0.024392523 0.0081655458 0.026346045 4284054824
-0.022840567 0.010321982 0.023747137 4283923754
-0.021438904 0.013154343 0.020416772 4283924263
-0.020058505 0.015985407 0.017090751 4283924773
-0.019118592 0.020844728 0.011568107 4283990308
-0.017931212 0.024349039 0.007519301 4284056098
-0.016480308 0.026499374 0.0049410872 4284056354
-0.014897585 0.027972715 0.0030982308 4284059159
-0.013175 0.02876967 0.0019890219 4283927578
-0.011151388 0.028214993 0.0023429394 4283928089
-0.0091223232 0.027660785 0.0026957691 4283864084
-0.0069293007 0.026431711 0.003777435 4283860513
-0.00472546 0.025203383 0.0048570279 4283858983
-0.0030023977 0.026000777 0.003748022 4283398964
-0.031003624 -0.0014276467 0.034863584 4284316709
-0.029390402 0.00073897094 0.032256909 4284120103
-0.027669556 0.0022248589 0.030388867 4284120359
-0.025959238 0.0037101805 0.028522955 4284120104
-0.024259441 0.0051948801 0.026659278 4284054058
-0.022701718 0.0073582754 0.024064058 4283989033
-0.021025702 0.0088416003 0.022205299 4284055079
-0.019360222 0.010324337 0.020348741 4283923753
-0.01840315 0.01520022 0.014833929 4283923244
-0.017483428 0.020073779 0.0093267243 4283858729
-0.016166311 0.02290976 0.006020166 4283924008
-0.014870502 0.025744492 0.0027179234 4284056098
-0.013295449 0.027221853 0.00087986141 4283990818
-0.011731006 0.028698565 -0.00095595792 4283991074
-0.0098658837 0.028819287 -0.0013319198 4283859238
-0.0078423508 0.02826258 -0.00097955391 4283727148
-0.0053303726 0.025674224 0.0015550628 4282742848
-0.029395364 -0.001572378 0.031823479 4284316708
-0.027548283 -0.00076388568 0.030691737 4284185894
-0.02583237 0.00072612986 0.028827963 4283988779
-0.024255663 0.0028972402 0.026233686 4283989033
-0.022563487 0.0043858998 0.024374833 4284054313
-0.020881876 0.0058740117 0.022518126 4283988524
-0.018937379 0.0059992373 0.022125697 4283988524
-0.017829098 0.010210298 0.01735037 4283923244
-0.016610742 0.013738602 0.013311502 4283923754
-0.015563782 0.017945889 0.0085486788 4283858728
-0.014254 0.020790316 0.0052500907 4284056864
-0.012965523 0.023633465 0.0019558705 4283990054
-0.011698376 0.026475316 -0.0013339892 4283990564
-0.010141615 0.027955996 -0.0031649703 4283596078
-0.0082791857 0.028076606 -0.0035403464 4282154054
-0.027304478 -0.0044454858 0.031720608 4284512293
-0.02570612 -0.002266489 0.029126739 4283988268
-0.024252169 0.0005954206 0.025805095 4284054059
-0.02268827 0.0027723238 0.02321835 4283988268
-0.021006413 0.0042648204 0.021364814 4283988779
-0.019062035 0.0043900087 0.020972384 4283922734
-0.017395925 0.0058816299 0.0191222 4283922989
-0.016024217 0.0087386742 0.015817462 4283922988
-0.014673777 0.011594452 0.012517096 4283923754
-0.013491914 0.015131578 0.0084938128 4283923499
-0.01233672 0.018667065 0.0044759773 4283793194
-0.011360813 0.022883225 -0.00026260875 4283791409
-0.024120599 -0.0023966879 0.026102999 4284574768
-0.022550948 -0.00021279231 0.023519894 4283987249
-0.020997189 0.0019701272 0.020940108 4283922734
-0.019050241 0.0020954572 0.020547142 4283791408
-0.017381232 0.003591679 0.018699547 4283922479
-0.015581075 0.0044020563 0.017580954 4283857199
-0.014074948 0.0065823048 0.015011003 4283857454
-0.012584761 0.008761581 0.012444379 4283857708
-0.011410054 0.012309328 0.0084306952 4283922989
-0.010414474 0.016540013 0.0036978237 4283790899
-0.0097611807 0.022137355 -0.0024766056 4281626459
-0.020587705 -0.0023925304 0.022692749 4284051764
-0.019038737 -0.00020325184 0.020118838 4283856689
-0.01736683 0.001297541 0.018273884 4283857454
-0.015563916 0.0021102801 0.017156353 4283857199
-0.01391048 0.0036100149 0.015315296 4283857198
-0.012120701 0.0044220909 0.014200551 4283857453
-0.010635346 0.0066077709 0.011639765 4283792174
-0.0096227713 0.010852721 0.0069132317 4283922479
-0.0087971911 0.015782282 0.001470698 4281624928
-0.017075289 -0.0023804158 0.019293537 4284117553
-0.015405674 -0.00087533891 0.017452387 4283987758
-0.013890702 0.0013186559 0.014890341 4283857198
-0.01195145 0.0014437884 0.014499148 4283661103
-0.010609768 0.0043255538 0.011220088 4283792173
-0.00944148 0.0078949854 0.0072239693 4283726128
-0.015248064 -0.0038695112 0.017742207 4284378929
-0.01358344 -0.0023602918 0.015905349 4283988013
-0.011929404 -0.00085160509 0.014070656 4283857709
-0.01058447 0.0020391569 0.010797413 4283858729
-0.0092608482 0.0049286485 0.0075285416 4283661103
-0.036500797 -0.021604884 0.036580227 4282024258
-0.034605987 -0.020780716 0.035448134 4283985208
-0.032830581 -0.019261036 0.03359136 4284705329
-0.01161487 -0.0045386665 0.01507788 4284507704
-0.010708544 0.00044215471 0.0096529536 4284054059
-0.0095361024 0.0040338561 0.0056721885 4283857454
-0.037891574 -0.028282862 0.040876724 4282084439
-0.036410518 -0.024661887 0.036840588 4281762374
-0.034621716 -0.023137081 0.034984253 4281958979
-0.033071615 -0.020216797 0.031681605 4283071799
-0.01038586 -0.0032418966 0.010660358 4284509744
-0.0090530664 -0.00033423305 0.0074025746 4283921458
-0.0077415816 0.0025721528 0.004149165 4282939454
-0.038231589 -0.028556887 0.038226999 4281953879
-0.036538012 -0.026326377 0.035647318 4281369164
-0.034637727 -0.025497567 0.03451734 4281631558
-0.033084393 -0.022568304 0.03122049 4281370693
-0.031435639 -0.020340364 0.028650092 4281960254
-0.029444903 -0.020212997 0.028247716 4282613054
-0.027210049 -0.021484975 0.029287452 4282942769
-0.038042195 -0.032336492 0.039197221 4282282064
-0.036665417 -0.027990539 0.034454256 4281500489
-0.034765087 -0.02715959 0.033325851 4281434953
-0.032983661 -0.02562638 0.031477459 4281305924
-0.031212732 -0.024093796 0.029631304 4281045058
-0.029452316 -0.022561792 0.027787345 4281697603
-0.027580619 -0.02173223 0.026664963 4282482494
-0.02558963 -0.021604691 0.02626265 4283788094
-0.038170435 -0.034013618 0.037994832 4282216784
-0.036792755 -0.029654447 0.033261374 4281435464
-0.034892365 -0.028821323 0.032134548 4281500234
-0.03288354 -0.028693069 0.031728312 4281435718
-0.031223319 -0.026451249 0.029165277 4281370949
-0.029459998 -0.024914686 0.027323941 4281175619
-0.02782882 -0.022674527 0.024766905 4281634363
-0.025840633 -0.022547197 0.024365133 4282156093
-0.037560798 -0.040642101 0.041829295 4282476628
-0.036487728 -0.034146879 0.034944616 4281696074
-0.034798101 -0.031896811 0.032380313 4281696584
-0.032897465 -0.031061415 0.031255096 4281566024
-0.031234175 -0.028812829 0.028696263 4281435718
-0.02946797 -0.027271722 0.026857564 4281306434
-0.027955174 -0.024318438 0.023588488 4281110339
-0.026091225 -0.023484986 0.022470986 4281436738
-0.024232462 -0.022651758 0.02135461 4281698878
-0.022378892 -0.021818724 0.020239314 4282221884
-0.036183976 -0.038656715 0.036615357 4282672978
-0.034704424 -0.034980912 0.032619953 4281891913
-0.032911651 -0.033433903 0.030778902 4281631303
-0.031477161 -0.029760752 0.026792767 4281566534
-0.029594794 -0.028924156 0.025672989 4281435718
-0.027960181 -0.026670631 0.023124931 4281436738
-0.02609352 -0.02583484 0.022008481 4281371203
-0.024485298 -0.023582797 0.019465918 4281698368
-0.022892952 -0.021331724 0.016926678 4281959744
-0.021052547 -0.020497303 0.015815759 4282415938
-0.018948033 -0.021078508 0.016129909 4283789624
-0.03258685 -0.03794438 0.032443918 4281890639
-0.031256706 -0.033548448 0.027749373 4281563728
-0.029603153 -0.031287242 0.025202246 4281566024
-0.027965449 -0.029026996 0.022658454 4281501254
-0.026219875 -0.027478214 0.020830462 4281500999
-0.024484806 -0.025930058 0.019004704 4281502273
-0.022760265 -0.024382416 0.017181115 4281763393
-0.021046281 -0.0228354 0.015359769 4281894464
-0.019073874 -0.022708755 0.014961427 4282286908
-0.030574843 -0.040202368 0.03154704 4282477138
-0.02925697 -0.035793934 0.026864743 4281630794
-0.027971014 -0.031387422 0.022188982 4281500489
-0.026222542 -0.029834103 0.020363608 4281500743
-0.024737172 -0.026856061 0.0171196 4281305669
-0.022757173 -0.026729185 0.016719537 4281633088
-0.02117195 -0.024465319 0.01419148 4281763393
-0.019199669 -0.024338719 0.013793135 4282352699
-0.027856089 -0.034467187 0.022426451 4281494623
-0.026348934 -0.031479102 0.019184401 4281564495
-0.024610773 -0.02992199 0.017364467 4281434444
-0.022625566 -0.029794808 0.016963327 4281305923
-0.021034606 -0.027523946 0.014438914 4281568064
-0.01919125 -0.026682708 0.013332278 4282613053
-0.024736904 -0.031562287 0.016188653 4281040213
-0.022880442 -0.030718263 0.015080804 4281044038
-0.021160483 -0.029157687 0.013267875 4281697603
-0.019317091 -0.028314274 0.012162825 4283004734
-0.021155193 -0.031510059 0.012801621 4281105493
-0.019309111 -0.030664299 0.011697628 4283202613
-0.017468207 -0.029818755 0.010594767 4284640048
-0.019568644 -0.031576496 0.0098245423 4283069503
-0.017594084 -0.031449746 0.0094257444 4284640049
0.002872318 -0.022480104 -0.010602167 4283986993
0.0048021786 -0.022354778 -0.010990879 4282940218
0.0065588281 -0.021504309 -0.012069111 4282742593
0.0027478188 -0.024072584 -0.011743193 4283530033
0.0045071244 -0.02321988 -0.012820443 4282286654
0.006088037 -0.021640223 -0.0145846 4282023749
0.0078340396 -0.020788085 -0.015659032 4282612288
0.0029584914 -0.027124342 -0.011508891 4283334194
0.0043826923 -0.024809871 -0.013959652 4282090049
0.0057908744 -0.022496331 -0.0164071 4281763394
0.0071830526 -0.020183768 -0.0188512 4281829694
0.0090940148 -0.020059306 -0.019235838 4282808128
0.011366889 -0.021392521 -0.018250722 4284049979
0.0028337166 -0.028720614 -0.012652643 4283072308
0.0045984313 -0.027863178 -0.013727764 4281828928
0.0058395937 -0.02481107 -0.016856398 4281568063
0.0072348081 -0.022491682 -0.019296309 4281567044
0.0089702085 -0.021635775 -0.020365251 4281304904
0.010881044 -0.021511223 -0.020749791 4281631813
0.012608455 -0.020655598 -0.021816947 4282417214
0.014330518 -0.019800182 -0.022882994 4283853884
0.0043038018 -0.028722923 -0.015553573 4281764158
0.0057154186 -0.02639604 -0.017991979 4281436993
0.0074614957 -0.025537331 -0.019061591 4281436228
0.0090243518 -0.023945417 -0.02081223 4281305414
0.010937721 -0.023820695 -0.021197272 4281304649
0.012484554 -0.022229586 -0.02294451 4281566278
0.014206644 -0.021371964 -0.024008941 4281959488
0.015923399 -0.020514611 -0.025072169 4284707623
0.0024172068 -0.03117587 -0.015622282 4282088519
0.0040095598 -0.029577974 -0.017375944 4281174853
0.0057636648 -0.028716739 -0.01844562 4281371459
0.0076875314 -0.02859157 -0.01883295 4281371203
0.0090781674 -0.026259173 -0.02126215 4281304904
0.010813642 -0.025398765 -0.022327794 4281369928
0.012543783 -0.024538595 -0.023392288 4281108554
0.014268586 -0.023678634 -0.024455599 4281108553
0.015799578 -0.022083882 -0.026196282 4281697859
0.017319877 -0.020489763 -0.027934685 4282285888
0.018829457 -0.018896159 -0.029670876 4284575788
0.0035461485 -0.029689889 -0.019875605 4280844374
0.0056393743 -0.030303288 -0.019582333 4281109574
0.0075630844 -0.030178141 -0.01996964 4281240644
0.009309262 -0.029314976 -0.021035925 4281435719
0.011050098 -0.028451983 -0.022101078 4281304903
0.01278561 -0.027589265 -0.023165029 4281304649
0.01433019 -0.025989395 -0.024905255 4281108809
0.015675779 -0.023652855 -0.02732018 4281370948
0.017387236 -0.022791337 -0.028379019 4281567554
0.01889969 -0.021193165 -0.030112568 4282419254
0.020794056 -0.021068957 -0.030493256 4283595824
0.0076134056 -0.032504681 -0.020428101 4280843608
0.0093622729 -0.03163914 -0.021493306 4281238604
0.011105817 -0.030773822 -0.022557352 4281239113
0.012478512 -0.028429199 -0.024973074 4281239623
0.014206044 -0.027564663 -0.026033701 4281239879
0.015552003 -0.02522153 -0.028443858 4281110084
0.017263481 -0.024357822 -0.029501095 4281110084
0.018776141 -0.022755217 -0.031231433 4280979778
0.020474227 -0.021892127 -0.032285787 4281502019
0.022166945 -0.02102929 -0.033338986 4282222394
0.024055768 -0.020905178 -0.033718362 4283397178
0.009237729 -0.033225108 -0.022629527 4280845649
0.010981299 -0.032357614 -0.023691975 4280976718
0.012536943 -0.030748319 -0.025428094 4281174089
0.014081914 -0.029139642 -0.027161935 4281174854
0.015616179 -0.027531501 -0.028893581 4281109318
0.017139753 -0.025923971 -0.030622933 4281174598
0.018845901 -0.025058296 -0.031677388 4281174089
0.020350723 -0.023451712 -0.033402838 4281173068
0.022440728 -0.024068471 -0.033111241 4281566789
0.024737379 -0.02542552 -0.032149516 4281893444
0.026636725 -0.025300603 -0.032530922 4282744379
0.012595056 -0.033071544 -0.025886059 4280779093
0.014327973 -0.032202285 -0.026944548 4281043019
0.015867796 -0.03058945 -0.028674042 4281240644
0.017587347 -0.029720802 -0.029729664 4281240644
0.018915324 -0.027365405 -0.032126315 4281239623
0.020618809 -0.026497576 -0.033178523 4281174088
0.023110753 -0.028602425 -0.031549528 4281173579
0.026222141 -0.03293499 -0.027915154 4281761098
0.028346542 -0.033551436 -0.027631888 4282544969
0.030269779 -0.033424813 -0.028017992 4282676294
0.030938026 -0.028843563 -0.032411207 4282874429
0.014573373 -0.035273496 -0.026733231 4280974679
0.016493905 -0.035147924 -0.027119443 4281238603
0.017843653 -0.032784667 -0.029515726 4281305924
0.019370293 -0.031168032 -0.031239148 4281305158
0.021081816 -0.030297425 -0.03229139 4281174344
0.0237794 -0.033153746 -0.030000251 4281369419
0.026900284 -0.037498843 -0.026377462 4281369928
0.030256853 -0.042586621 -0.02209371 4281826124
0.033031918 -0.045437451 -0.01981784 4282675274
0.034156471 -0.042329755 -0.022876494 4282676294
0.017680869 -0.041968424 -0.023570247 4280908378
0.018859625 -0.03884929 -0.026634 4281500233
0.019631464 -0.034235682 -0.031029211 4281498704
0.020957496 -0.03186712 -0.03341569 4281434443
0.023456125 -0.033984717 -0.031797662 4281434699
0.027376255 -0.041332614 -0.025518533 4281631049
0.031756766 -0.050171252 -0.017918441 4282020944
0.02124007 -0.042562436 -0.026160832 4281889109
0.022004765 -0.037935998 -0.030544817 4281564239
0.024518751 -0.040059123 -0.028934766 4281434443
0.02865364 -0.048177619 -0.022009842 4281630794
0.026568107 -0.049919408 -0.02277204 4282347343
0.030529888 -0.057308432 -0.016533546 4281695054
0.013429292 0.023124777 0.016532483 4278470324
0.013122588 0.031226713 0.0073749367 4281415064
0.0094537549 0.021280475 0.016165858 4280442748
0.010837488 0.023407698 0.013587374 4279324573
0.011106323 0.029536473 0.0066334177 4281546388
0.0058294199 0.025590518 0.0088435635 4279852169
0.0073750466 0.0270536 0.0070023257 4278996388
0.0087297298 0.029185506 0.0044346079 4279322788
0.0032891631 0.025910655 0.0059129968 4279128989
0.0044828206 0.028721975 0.0026189834 4278931108
0.0053002201 0.032875724 -0.0021260343 4282136713
0.00042789802 0.027594713 0.0015334822 4278537898
0.0023069978 0.027716869 0.0011550896 4278668969
0.0031386912 0.031884685 -0.0035831323 4281811334
-0.0036152601 0.026473254 0.00044931844 4279326104
-0.00020091236 0.028070586 -0.001758825 4278336193
0.0021852106 0.0261622 4.1218475e-05 4278336703
-0.0062558427 0.027517745 -0.003189519 4278932893
-0.0043905638 0.027638717 -0.0035653412 4278603944
-0.0026913919 0.028438987 -0.0046661962 4278537389
-0.00049091876 0.027201874 -0.0035923067 4279257253
0.0020634495 0.024607772 -0.0010724813 4279388069
0.0039423928 0.024729973 -0.0014508031 4279124399
-0.010416966 0.027097439 -0.004994709 4279918978
-0.0090312362 0.029263705 -0.0075448761 4278933659
-0.0071795434 0.029383693 -0.0079180347 4278538664
-0.0034759194 0.029623937 -0.0086642159 4278537134
-0.0011179224 0.027700411 -0.0068683829 4278930343
0.0019417256 0.023053613 -0.0021859994 4278863788
0.0045167804 0.020452105 0.00032321922 4279647403
-0.0088350624 0.026363719 -0.007195347 4278736034
-0.0074595548 0.028536014 -0.0097385272 4278735268
-0.0061000511 0.030707404 -0.012278465 4278602923
-0.0042590238 0.030826857 -0.012649358 4278274229
0.0045681596 0.018206164 -7.6182187e-05 4280235944
-0.0080090053 0.020709474 -0.0039641801 4278801313
-0.0070979483 0.024948161 -0.0086700981 4278800804
-0.0060559697 0.028498782 -0.012648582 4278800548
-0.0045437068 0.02999012 -0.014460635 4278603944
-0.0018636659 0.026680965 -0.011232011 4278603178
0.0013563186 0.021317039 -0.0058509903 4278405808
0.0044455193 0.016641397 -0.0011972729 4280959634
-0.0082998872 0.011462789 0.0032333005 4281361003
-0.0070275292 0.014340345 -3.1577423e-05 4279326613
-0.0059366561 0.017905045 -0.004011889 4278669988
-0.0051981211 0.022844661 -0.0094253263 4278473384
-0.0038350299 0.025029544 -0.01195615 4278735779
-0.0014789328 0.023086004 -0.010174575 4278865829
0.0014058948 0.019080337 -0.0062431432 4278276014
0.0043229125 0.015076902 -0.0023181718 4280631193
-0.0081131458 0.0085078366 0.0035447273 4281229933
-0.0065202862 0.010012906 0.0017227028 4279326613
-0.0052579753 0.012898717 -0.0015336005 4278538663
-0.0041796602 0.016473699 -0.0055032168 4278538919
-0.0029627495 0.019356754 -0.0087502282 4278342314
-0.00092719123 0.01878785 -0.0084098354 4278407594
0.0014551468 0.016839456 -0.0066382969 4279062944
0.0040269829 0.014202423 -0.0041544214 4280893334
0.050294932 0.0088244602 -0.0044463314 4279713194
-0.008235909 0.0069307238 0.0024145804 4281097843
-0.0063285939 0.0070541315 0.0020300802 4279325848
-0.0047407821 0.0085633509 0.00021236017 4278866084
-0.0034885332 0.011457395 -0.003035374 4278800549
-0.0019273385 0.012965091 -0.0048475778 4278735523
-0.00037680566 0.014472235 -0.0066576097 4278669988
0.0015040934 0.01459441 -0.0070364336 4278997409
0.0033850409 0.014716674 -0.007415209 4279062688
0.0052660443 0.014839049 -0.0077939127 4283121778
0.042444054 0.024312375 -0.022750998 4279258018
0.043827903 0.02581092 -0.024525739 4278471854
0.047100827 0.02180665 -0.02069008 4278272444
0.052327119 0.012303773 -0.011256859 4278469048
-0.0061375536 0.004086718 0.0023313407 4279718804
-0.0045441575 0.0056007467 0.00051569194 4279062944
-0.0031236745 0.0078090243 -0.0020122128 4278735269
-0.0013892576 0.0086269639 -0.0031089243 4278735268
0.00017222762 0.010139164 -0.0049178926 4278473384
0.0015527196 0.012345206 -0.0074375551 4278801059
0.003090214 0.013856042 -0.0092415409 4278997664
0.0047927238 0.014672253 -0.0103315 4279849109
0.0068466552 0.014100503 -0.0099977786 4281028228
0.036801629 0.02806022 -0.028717732 4279911329
0.038633756 0.028181313 -0.029085202 4279061669
0.040001888 0.029683163 -0.030853596 4278273973
0.041124556 0.031874586 -0.033319764 4278273974
0.04341761 0.030615035 -0.032285385 4278864044
-0.0059471652 0.0011107661 0.0026264042 4279849874
-0.0043481812 0.0026294999 0.00081290491 4278997918
-0.0027598292 0.0041476823 -0.00099842809 4278539429
-0.0011821091 0.0056652389 -0.0028074933 4278997409
0.00021746755 0.0078790002 -0.005326231 4278866084
0.0014308803 0.010788437 -0.0085529601 4278931874
0.0027957559 0.013000105 -0.011064514 4278801059
0.0046711639 0.0131221 -0.011442106 4278735269
0.0065466054 0.013244193 -0.01181963 4279063199
0.0084220767 0.013366386 -0.012197094 4279849109
0.010481134 0.012792964 -0.011865882 4280502164
0.032353163 0.028383333 -0.03117048 4283181703
0.033729829 0.029889934 -0.032937579 4280960909
0.035548542 0.030010058 -0.033302419 4278668459
0.039831847 0.033832885 -0.037888352 4279519394
0.042111047 0.03256803 -0.036854416 4278931874
