# .PCD v0.7 - Point Cloud Data file format
VERSION 0.7
FIELDS x y z rgba
SIZE 4 4 4 4
TYPE F F F U
COUNT 1 1 1 1
WIDTH 967
HEIGHT 1
VIEWPOINT 0 0 0 1 0 0 0
POINTS 967
DATA ascii
-0.0056942962 -0.028480303 -0.0062953513 4286530363
-0.0041849911 -0.026870806 -0.0081369374 4286399038
0.027770722 -0.065555081 0.0070672352 4286332484
0.030989181 -0.069075346 0.0098684411 4286071363
0.02760558 -0.067244068 0.005859809 4286398274
0.024483772 -0.066130191 0.002520429 4286332738
0.027440468 -0.068932712 0.0046526399 4286528324
0.010635875 -0.060743768 -0.0084337713 4286332738
0.013275286 -0.062831417 -0.0069554197 4287510328
0.015706286 -0.064168289 -0.0061381282 4286397508
0.0082855094 -0.061797936 -0.0097727971 4286136644
0.01047593 -0.062389199 -0.0096103521 4286333249
0.012671672 -0.062979892 -0.0094491327 4287248698
0.0150968 -0.064321622 -0.008633581 4286724419
0.0027085915 -0.058477867 -0.014559598 4287052094
0.005727943 -0.062092099 -0.011766405 4286594623
0.0079100393 -0.062686399 -0.011603554 4286267203
0.01009745 -0.063280106 -0.011441984 4286267204
0.0003904216 -0.059506524 -0.015889645 4287379258
0.0027613342 -0.060862053 -0.015067545 4286856509
0.0053559542 -0.06297344 -0.01359293 4287183419
0.0077507459 -0.064326793 -0.012776577 4286594369
-0.0036664866 -0.061447833 -0.01607275 4287183673
-0.0013068356 -0.062808886 -0.015251269 4288230959
0.00064828992 -0.06265007 -0.015741955 4287641653
0.0028137006 -0.063250363 -0.015578375 4286333249
0.0051972829 -0.064609081 -0.014762611 4286136388
-0.0038234182 -0.063072115 -0.017234506 4287773234
-0.0012596138 -0.065199509 -0.015762219 4288493098
0.00069798902 -0.065040469 -0.016253518 4289212964
0.0026556514 -0.064881295 -0.016744738 4286071108
-0.0043840483 -0.063167512 -0.019701989 4287249463
-0.0020308457 -0.064537838 -0.018885402 4288297004
0.00012582168 -0.065143317 -0.018723035 4286855743
-0.0078023225 0.030987183 0.01040335 4282083928
-0.012756586 0.026298666 0.013594227 4283722048
-0.011884406 0.029790634 0.0094975978 4283858219
-0.010225318 0.030609623 0.0083056651 4283335978
-0.0085714385 0.031428263 0.0071150959 4283138098
-0.015173972 0.025917666 0.011492306 4283721793
-0.014095169 0.028750887 0.0081258267 4283989034
-0.012836989 0.030912274 0.00548831 4283927069
-0.01078216 0.030392714 0.005746441 4283467558
-0.0087219439 0.02987366 0.0060032737 4283079194
-0.0068647489 0.030024642 0.0055372436 4283068738
-0.017194957 0.024200747 0.010842206 4284054058
-0.016104914 0.027043572 0.0074793808 4284056098
-0.014838342 0.029212141 0.0048446041 4283860004
-0.013587568 0.031379551 0.0022138059 4283793449
-0.011541001 0.030857092 0.0024723522 4283793194
-0.0092834868 0.029663181 0.003450308 4283793448
-0.007015314 0.028470242 0.0044255909 4283860004
-0.0053689815 0.029292792 0.0032402854 4283793194
-0.0041548759 0.031457625 0.00061899051 4283201084
-0.020352203 0.026536938 0.0058538802 4284120614
-0.018306393 0.026011875 0.0061107203 4284055844
-0.017034095 0.028187446 0.0034793019 4283925539
-0.015580188 0.029686978 0.001573015 4283928089
-0.014136788 0.031185783 -0.00033061951 4283796764
-0.012095813 0.030660609 -7.2281808e-05 4283861533
-0.0098441429 0.029461844 0.00090380199 4283862044
-0.0073738024 0.027590033 0.0025957003 4283992094
-0.0055193827 0.027740834 0.0021304004 4283925029
-0.0043047294 0.029912295 -0.00048612431 4283793449
-0.0031059049 0.032082558 -0.0030986089 4283333428
-0.025128279 0.028075958 0.0020612106 4283793704
-0.023661312 0.02958063 0.00015460886 4283599648
-0.021447878 0.028373802 0.001136668 4283795744
-0.019223742 0.027167974 0.0021160655 4283924518
-0.017766971 0.028672026 0.00021225587 4283991073
-0.016517874 0.030852372 -0.0024083797 4284056609
-0.014884904 0.031677864 -0.0035873251 4283991839
-0.012649741 0.030473264 -0.0026104525 4283992604
-0.0099936575 0.02791681 -0.00020119734 4284056863
-0.0077318251 0.026714494 0.00076914765 4284056099
-0.0058801509 0.026865052 0.00030452386 4284056353
-0.0050937384 0.030394426 -0.0037375866 4283990563
-0.0041180179 0.033246145 -0.0070580877 4283598374
-0.0025083721 0.034070365 -0.0082307952 4283401003
-1.9919127e-05 0.03219384 -0.0065480499 4283269933
0.0022607967 0.030993609 -0.005582111 4281951838
-0.028021757 0.029789764 -0.0021876581 4283859493
-0.02674624 0.031978399 -0.0048103444 4283861279
-0.024741028 0.031445436 -0.0045467447 4283795999
-0.022352353 0.029553199 -0.0028446298 4283864594
-0.02013934 0.02834204 -0.0018657427 4283925539
-0.018498529 0.029170185 -0.0030451566 4284056354
-0.017059863 0.030677229 -0.0049410984 4284055843
-0.015232477 0.03082546 -0.0053998902 4284055843
-0.01279825 0.02893737 -0.003708953 4284055843
-0.010348026 0.02705062 -0.0020219199 4284056099
-0.0082969293 0.02652205 -0.0017693397 4284056354
-0.0064506643 0.026672153 -0.0022326224 4284056609
-0.0058814064 0.030890061 -0.0069793221 4283926304
-0.0051283874 0.034427747 -0.011004759 4283534368
-0.0033110715 0.034575745 -0.011460586 4283533859
-0.0006105192 0.03201462 -0.0090686679 4283209244
0.0023347102 0.028778212 -0.0059707733 4283137844
0.0034977086 0.030959075 -0.0085642003 4282083673
-0.029638756 0.026747569 -0.0013803728 4284056608
-0.029073041 0.03167475 -0.0068828352 4283858983
-0.027259711 0.031821325 -0.0073384792 4283792939
-0.025632415 0.032650337 -0.0085131191 4283793193
-0.022877477 0.029386371 -0.0053764824 4283859494
-0.02105318 0.029534083 -0.0058347033 4283926559
-0.018840555 0.028318515 -0.0048589045 4284056354
-0.017404225 0.029829783 -0.0067510447 4284121633
-0.015180808 0.02861526 -0.0057778303 4284187423
-0.013148751 0.028082745 -0.0055222604 4284187424
-0.010701917 0.026189113 -0.0038393009 4284056353
-0.0088611282 0.026338669 -0.0043012844 4284056099
-0.0074402392 0.027849121 -0.0061892234 4283991839
-0.0068803951 0.032079436 -0.010923743 4283926558
-0.0057064332 0.034267433 -0.013515268 4283793449
-0.0038945191 0.034414988 -0.013969745 4283793704
-0.00097965822 0.031165024 -0.010872498 4283794468
0.0019617379 0.027917314 -0.0077818362 4283859494
0.0038002692 0.028067309 -0.0082427878 4283858984
0.0054102987 0.028896246 -0.0094120214 4283267638
0.0079397671 0.027010212 -0.0077491412 4281691484
-0.033103373 0.023547929 -0.00011486188 4283988013
-0.031968165 0.026437622 -0.0034567434 4284055588
-0.030675996 0.028640565 -0.0060739527 4283927833
-0.029399555 0.030842338 -0.0086871339 4283861278
-0.027588982 0.030988658 -0.0091421148 4283859493
-0.025778275 0.031135065 -0.0095970714 4283859749
-0.023401674 0.029228611 -0.0079017896 4283926303
-0.021200307 0.028007668 -0.0069265673 4284057628
-0.018988229 0.026787629 -0.0059539294 4284056354
-0.017355036 0.027619595 -0.0071281241 4284056098
-0.01532869 0.027084319 -0.0068728346 4284056353
-0.013498772 0.027232805 -0.0073322253 4284056353
-0.011259824 0.026015338 -0.0063661207 4284056098
-0.0096315555 0.026847253 -0.0075388169 4284056099
-0.0082182735 0.028361423 -0.0094215386 4283991329
-0.0074527785 0.031921998 -0.0134338 4283995663
-0.0060685165 0.033434018 -0.015309157 4283861023
-0.0038239174 0.032217409 -0.014344095 4283795234
-0.001127962 0.029638341 -0.011964198 4283861534
0.0022582896 0.025016468 -0.0074652387 4283927834
0.0045533329 0.023804288 -0.006512668 4283925793
0.0068590119 0.02259301 -0.0055626603 4283859238
0.0096372198 0.020020969 -0.0032030689 4283332408
-0.035936344 0.025303062 -0.0043517789 4283922478
-0.03428575 0.026137825 -0.0055293078 4284056099
-0.03264026 0.02697227 -0.0067054844 4284056354
-0.030999918 0.02780639 -0.0078803003 4283990563
-0.029364724 0.028640166 -0.0090537677 4284059413
-0.02755161 0.028786663 -0.009509407 4283927323
-0.025924083 0.029620046 -0.010680856 4283993113
-0.023924973 0.029079948 -0.010420596 4283994134
-0.02153841 0.027167806 -0.0087327333 4284056609
-0.019329518 0.0259431 -0.0077625858 4284055844
-0.017502554 0.026091155 -0.0082213795 4284056099
-0.01587446 0.026925003 -0.0093926573 4284056863
-0.014049947 0.027073031 -0.0098507078 4283993114
-0.012021072 0.026535876 -0.0095975287 4283992604
-0.010193739 0.02668432 -0.010056147 4283925028
-0.0087854378 0.028202504 -0.0119344 4284056609
-0.0073876679 0.029719882 -0.013809899 4283991074
-0.0060004294 0.031236524 -0.015682738 4283992603
-0.0039712191 0.030699853 -0.015429306 4283992348
-0.0012762323 0.028111897 -0.013055727 4283992093
0.0021084063 0.023474518 -0.0085678259 4284056354
0.005530145 0.018840268 -0.0040892223 4284056099
0.0085328054 0.015575755 -0.001030175 4283858219
0.011561994 0.012313448 0.0020223372 4283792428
0.014617674 0.0090534426 0.005068237 4283595824
0.018171925 0.0044303909 0.0095138997 4282214744
-0.040418629 0.018501069 0.00097348727 4283328583
-0.040056702 0.024865227 -0.0059655411 4283988779
-0.038907293 0.02777336 -0.0092981858 4283860768
-0.037100334 0.027918911 -0.0097526135 4283859494
-0.034948651 0.026684467 -0.0087718973 4283863829
-0.033136073 0.026830632 -0.0092276176 4283924774
-0.031323347 0.026976898 -0.0096833091 4284056609
-0.029330257 0.026433881 -0.0094234273 4284055844
-0.02769747 0.027269721 -0.010594608 4284056099
-0.025884319 0.027416285 -0.011050208 4284056099
-0.024259213 0.028251717 -0.012219373 4284056099
-0.021685231 0.025644122 -0.009822662 4284055844
-0.019670334 0.025103299 -0.0095679378 4284056608
-0.018238325 0.026627302 -0.011449166 4283925283
-0.017015554 0.028838465 -0.014038626 4283928854
-0.015002988 0.028297681 -0.013783071 4283861533
-0.012781002 0.027070012 -0.012819288 4283796763
-0.010548342 0.025843302 -0.011858111 4283794723
-0.0087236874 0.025991606 -0.012316002 4283991073
-0.0073229373 0.027513597 -0.014188987 4284122144
-0.0057180896 0.028348248 -0.01535235 4283990564
-0.0034666322 0.027123434 -0.014395615 4283990563
-0.00054472312 0.02384105 -0.011324726 4284056354
0.0032940507 0.01781711 -0.0054407399 4284056098
0.0069553033 0.012482882 -0.00027288869 4283990308
0.010203198 0.0085232705 0.003477199 4283990564
0.012560789 0.0073075406 0.0044077132 4283725619
0.015162155 0.0054077283 0.0060378499 4283594549
0.018251076 0.002139546 0.0090672951 4282083164
-0.041857798 0.022505131 -0.0058780247 4283923753
-0.040858719 0.02611592 -0.0099256271 4283924773
-0.039719131 0.029032012 -0.013249269 4283793193
-0.038092289 0.029869109 -0.014417661 4283925794
-0.03595436 0.028629187 -0.013436822 4283926814
-0.033805687 0.027390148 -0.012458595 4283925283
-0.031646308 0.026152115 -0.011483032 4284056608
-0.029656176 0.025606595 -0.011224017 4284055843
-0.028025929 0.026444437 -0.012392987 4284056098
-0.026215535 0.026590761 -0.01284791 4284121888
-0.024405021 0.026737159 -0.013302814 4284056353
-0.022022586 0.024811413 -0.011623729 4284055844
-0.0202039 0.024958659 -0.012080546 4284056864
-0.018776868 0.026486635 -0.013957262 4283925794
-0.017558869 0.028703967 -0.016540639 4283860513
-0.015551925 0.028160565 -0.01628536 4283859238
-0.013335757 0.026927978 -0.015323353 4283929108
-0.010902457 0.025006928 -0.013656691 4283927324
-0.0088714436 0.024465751 -0.013407253 4284056609
-0.0070468411 0.02461412 -0.013865076 4283990308
-0.0050077327 0.024073739 -0.01361749 4284122144
-0.0025291517 0.022156741 -0.011961912 4284121888
0.00062454492 0.018175941 -0.0081982026 4284121888
0.0044771433 0.012133386 -0.0023324694 4284056098
0.0083774664 0.0060947761 0.0035214163 4283659828
0.011187166 0.0034988411 0.0058533829 4283593784
0.013327144 0.0029672459 0.0060760994 4283659063
0.015705373 0.0017489418 0.0069981851 4283461439
-0.045798022 0.02138574 -0.0067703845 4283921458
-0.044615928 0.024313748 -0.010098389 4283924008
-0.043293517 0.026544867 -0.012704019 4283927834
-0.041822884 0.028079664 -0.014589233 4283860514
-0.040529225 0.030308628 -0.017187512 4283858474
-0.038743634 0.030452386 -0.01763662 4283858728
-0.036614168 0.029207312 -0.016656907 4283926559
-0.033950474 0.025880473 -0.013538714 4283992604
-0.031968761 0.025331995 -0.01327936 4284056098
-0.029801812 0.024090193 -0.012308885 4284056098
-0.028536323 0.026317414 -0.014899684 4284056353
-0.026546266 0.025769867 -0.014642236 4284056353
-0.024926227 0.026609201 -0.015806837 4284055843
-0.022549856 0.024676338 -0.014131172 4283990308
-0.02112262 0.02620865 -0.016004793 4284056609
-0.019705866 0.027740162 -0.017875671 4283928853
-0.018299606 0.029270951 -0.019743893 4283859493
-0.016300928 0.028724663 -0.019488191 4283858474
-0.013889637 0.026795089 -0.017820952 4283859238
-0.011049852 0.023483571 -0.014746193 4283925794
-0.0090191588 0.022940163 -0.014498318 4284056608
-0.0065599792 0.021014769 -0.01284288 4284056353
-0.0040848441 0.019090757 -0.011191377 4284187423
-0.0007263571 0.014404919 -0.006731526 4284121888
0.0028887764 0.0090315863 -0.0015784558 4284055843
0.0063241497 0.0043522008 0.0028622579 4283923753
0.0095718633 0.00036606938 0.0065927096 4283659063
0.012169011 -0.001547467 0.0082139261 4283658809
0.014091782 -0.0013904385 0.0077319741 4283658809
0.016480073 -0.0026123598 0.0086483136 4283329348
0.052497294 -0.028709363 0.030683523 4284638773
0.058310874 -0.038152125 0.039831772 4284378929
-0.048525017 0.023210581 -0.010988357 4283988269
-0.04703347 0.024751211 -0.012875819 4283989543
-0.045393888 0.025593322 -0.014044439 4283924518
-0.043759402 0.026435101 -0.015211721 4283924774
-0.042293739 0.027973859 -0.017092435 4283863573
-0.041004833 0.030208997 -0.019684628 4283928343
-0.039224643 0.030352281 -0.020132406 4283993368
-0.036929365 0.02840565 -0.018441739 4283993623
-0.034443777 0.025763985 -0.016042957 4283991073
-0.032290738 0.024516545 -0.01507235 4284056353
-0.030486125 0.024662161 -0.015525999 4284122144
-0.029228058 0.026895339 -0.018110052 4284056354
-0.027615998 0.027736105 -0.0192711 4283990308
-0.025634062 0.027185779 -0.019013191 4284056353
-0.023456547 0.02594078 -0.018048393 4284121888
-0.021846768 0.026781678 -0.019208711 4283990819
-0.020242184 0.027622201 -0.020367613 4284060689
-0.018642787 0.028462401 -0.021525141 4283993624
-0.016647086 0.027913645 -0.021270351 4283993369
-0.014442593 0.026671292 -0.020311983 4283993368
-0.011609286 0.023348261 -0.017243791 4284124184
-0.0089581273 0.020721141 -0.014885669 4284121633
-0.0056516826 0.016015492 -0.01042437 4284121888
-0.0025220998 0.012006208 -0.0066744536 4284121633
0.0010726079 0.006613519 -0.0015294421 4284121633
0.0042711422 0.0026100315 0.0022033099 4283990054
0.0070576333 -5.5879354e-06 0.0045278426 4283857708
0.0098653398 -0.0026193596 0.0068471394 4283790899
0.012012556 -0.003154818 0.0070646442 4283658809
0.014624864 -0.0050736554 0.0086772665 4283723834
0.017020529 -0.0062993243 0.009588439 4283592253
0.048707768 -0.026444938 0.025838608 4283722559
0.052596629 -0.031100821 0.030155642 4282741318
0.058409683 -0.040574338 0.039281115 4282283083
-0.051373277 0.02576069 -0.0159135 4283858729
-0.049433429 0.025203606 -0.015647514 4283859238
-0.047954772 0.026747553 -0.017528484 4283990819
-0.046328295 0.027590768 -0.018692195 4283990819
-0.044706937 0.028433653 -0.019854568 4284056353
-0.042763684 0.027877193 -0.01958918 4284057119
-0.040981125 0.028020557 -0.020037638 4283991074
-0.039029617 0.027464934 -0.019774199 4284056609
-0.037072647 0.026909782 -0.019512033 4284056098
-0.03458802 0.024259234 -0.017119573 4284056099
-0.032788958 0.024404276 -0.017571922 4283991074
-0.031527843 0.026644127 -0.020151868 4283925794
-0.030464496 0.029580873 -0.023436371 4283797528
-0.028683547 0.029724728 -0.023883961 4283795489
-0.02652787 0.028473495 -0.022917081 4283796508
-0.024171527 0.026525795 -0.021246234 4283924518
-0.022762183 0.028065355 -0.023108803 4284056353
-0.020972833 0.028210256 -0.023558227 4284056099
-0.019381296 0.029052038 -0.024712207 4284056099
-0.016992774 0.027107321 -0.023049157 4284122399
-0.0143851 0.024467686 -0.02068682 4284122144
-0.010932818 0.01904545 -0.015519466 4284056098
-0.0078550763 0.015018571 -0.011766516 4284056099
-0.0041120984 0.0089073256 -0.005917754 4284055843
-0.0009627305 0.0048864596 -0.0021826308 4284122654
0.0022184551 0.00086827949 0.0015445743 4284056609
0.004993327 -0.0017571822 0.003865391 4283922988
0.0073459856 -0.0029911995 0.0047838166 4283856688
0.0099336244 -0.0049188063 0.0063975118 4283790388
0.012537193 -0.0068450347 0.0080073439 4283724343
0.015156671 -0.0087698884 0.0096132513 4283789879
0.01779204 -0.010693271 0.011215217 4283788858
0.020913247 -0.014002729 0.014203845 4283459144
0.046260037 -0.027608778 0.024448169 4283460163
0.049597956 -0.030899305 0.027383393 4282610248
0.052962273 -0.034187537 0.030312097 4282347854
0.058238678 -0.042309817 0.038040869 4282216274
-0.055088732 0.023979258 -0.016083818 4283857198
-0.053891961 0.02693435 -0.019396205 4283927834
-0.052265976 0.027779464 -0.020558434 4283794978
-0.050186921 0.026516458 -0.019576378 4283796254
-0.048407834 0.026659155 -0.020024251 4283927833
-0.046470542 0.026099816 -0.01975915 4283991074
-0.044688445 0.026242934 -0.020207651 4284056099
-0.042906146 0.026386157 -0.020656129 4284056098
-0.041123707 0.026529469 -0.021104587 4284056098
-0.039341073 0.0266729 -0.021553017 4284056098
-0.037387092 0.026115332 -0.021291798 4284056098
-0.035253782 0.024857385 -0.020322882 4284056098
-0.033462774 0.025001744 -0.020773228 4283991583
-0.032567393 0.028648494 -0.02476172 4283926304
-0.031516533 0.03159298 -0.028036561 4283664928
-0.029564489 0.031035712 -0.027774518 4283860769
-0.026858639 0.027679706 -0.024691191 4283864084
-0.024505693 0.025725126 -0.023024414 4283991329
-0.023098703 0.027268911 -0.024883181 4284056609
-0.021507144 0.028112736 -0.02603556 4284056098
-0.019327734 0.026859349 -0.025077604 4284122144
-0.016737014 0.024209481 -0.022717688 4284121888
-0.013516087 0.019465793 -0.018258022 4284121889
-0.0098467804 0.013328601 -0.012405653 4284056098
-0.0061297491 0.0071953796 -0.0065651899 4284056609
-0.0029977411 0.0031598248 -0.0028356127 4283925029
-0.00026102737 0.00052225962 -0.00051192939 4283859239
0.0020644926 -0.00071852282 0.0004098285 4283858729
0.0046195239 -0.0026556216 0.0020266809 4283858473
0.0071904846 -0.0045913234 0.0036396161 4283857453
0.010225669 -0.0079192109 0.0066413023 4283791408
0.013287369 -0.01124483 0.0096364208 4283790643
0.015916672 -0.013175454 0.01123496 4283854904
0.018561859 -0.015104625 0.012829559 4283984698
0.046616666 -0.030682843 0.024616947 4282609739
0.04969478 -0.033290397 0.026856562 4282282319
0.053060547 -0.036589514 0.029776784 4282085458
0.058605995 -0.045431178 0.038170986 4282085714
-0.057584647 0.025164044 -0.019565325 4283923753
-0.056098234 0.026716974 -0.021442015 4283924519
-0.054622162 0.028269118 -0.023315992 4283858728
-0.052856769 0.028410522 -0.023760565 4283858473
-0.050786186 0.02714245 -0.022779725 4283859493
-0.048704844 0.025875283 -0.021801488 4283925283
-0.046770517 0.025313469 -0.021537311 4283925538
-0.045151588 0.026160484 -0.022695843 4284056353
-0.043211628 0.025599303 -0.022432949 4284056098
-0.041266207 0.025038641 -0.022171369 4284122144
-0.039652076 0.025885535 -0.0233285 4284187423
-0.037701052 0.025325503 -0.023068195 4284121633
-0.035744574 0.024766013 -0.022809189 4284056099
-0.034135263 0.025612783 -0.023964904 4283992348
-0.033246879 0.029269921 -0.027943479 4283926559
-0.032021623 0.031520136 -0.030504607 4283858219
-0.030075181 0.030960156 -0.030242762 4283858728
-0.027188931 0.026890611 -0.026461955 4283858983
-0.02483939 0.024929145 -0.024799246 4283925283
-0.023050368 0.025073892 -0.025248684 4284056608
-0.021261252 0.025218742 -0.025698077 4284056098
-0.018879645 0.023260202 -0.024043255 4284121634
-0.015681598 0.018499173 -0.019589385 4284055588
-0.012243658 0.013040569 -0.014444744 4283922478
-0.0083524473 0.0061843954 -0.007911806 4283922988
-0.0050323978 0.0014336072 -0.0034883814 4283791153
-0.0023073144 -0.0012137853 -0.0011684075 4283659574
1.2297183e-05 -0.0024595596 -0.00024852715 4283725364
0.0023425706 -0.0037044249 0.00066878647 4283791664
0.0049021281 -0.0056477375 0.002279602 4283791919
0.0076988898 -0.0082888491 0.0045818537 4283922479
0.010740818 -0.011627156 0.0075736716 4283921459
0.013809267 -0.014963243 0.010558955 4283920949
0.04087089 -0.028527867 0.020299865 4282871369
0.043652739 -0.030451376 0.021856194 4282478923
0.046450406 -0.032373477 0.023408638 4282020688
0.049791194 -0.035685677 0.026326815 4282085713
0.053690962 -0.040386658 0.030606752 4282020179
0.059241414 -0.04925647 0.038978495 4281954388
-0.059500959 0.023536403 -0.020181496 4284054823
-0.058150861 0.025801877 -0.022770142 4284057119
-0.056672055 0.02735851 -0.024641627 4283928089
-0.055350598 0.029621858 -0.027222933 4283860513
-0.053595889 0.029762361 -0.02766485 4283924773
-0.0515364 0.028488981 -0.02668451 4283925794
-0.049001362 0.025096141 -0.023575431 4283993368
-0.047070008 0.024531821 -0.023312118 4284056609
-0.045133185 0.023968056 -0.02305017 4284056099
-0.043679494 0.02552332 -0.024914932 4284056099
-0.041905183 0.025665931 -0.025361378 4284056098
-0.040298875 0.026514363 -0.026514925 4284056353
-0.038526904 0.026656955 -0.026960656 4284055843
-0.036407892 0.025389021 -0.025994726 4284056099
-0.034630325 0.025532247 -0.026441731 4283992093
-0.03338882 0.027790243 -0.029002123 4283929363
-0.032163057 0.030047059 -0.031558491 4283860004
-0.030216936 0.029484833 -0.03129822 4283925284
-0.027705427 0.026810486 -0.028931873 4283926559
-0.025172617 0.024137907 -0.026570767 4283993369
-0.022810478 0.022170957 -0.024916073 4284056353
-0.02043236 0.020205393 -0.023265319 4284122144
-0.01724926 0.015427724 -0.018819274 4284121634
-0.01422891 0.011356324 -0.015081625 4284056099
-0.010974161 0.0065846182 -0.010653378 4283923498
-0.0076822788 0.0018160678 -0.0062344223 4283791154
-0.0047689341 -0.0015443601 -0.0032189619 4283724854
-0.0022500381 -0.0034978576 -0.0016031507 4283659063
-0.00014146045 -0.0040457807 -0.0013829023 4283725109
0.0026198141 -0.006698817 0.00092159398 4283660083
0.0054023229 -0.0093500055 0.0032208525 4283725618
0.0082060546 -0.011999372 0.0055148639 4283921203
0.011254722 -0.015348118 0.0084967986 4283920949
0.014103526 -0.017993595 0.010779666 4284511784
0.038193822 -0.028972242 0.018231606 4282544203
0.041472699 -0.032300819 0.021156861 4282217803
0.044003554 -0.033531878 0.022021903 4282086223
0.04732731 -0.036856543 0.0249361 4282151248
0.051204346 -0.041574907 0.029210249 4282085713
0.055916607 -0.048383337 0.035522915 4282020179
-0.059782092 0.013383415 -0.012235069 4283656514
-0.059225257 0.019920159 -0.019106181 4284121379
-0.05829123 0.024323018 -0.023828667 4284056099
-0.057100397 0.027303753 -0.027120098 4284056864
-0.055636916 0.02886359 -0.02898442 4283861788
-0.053735506 0.028294429 -0.028715465 4283927324
-0.051524479 0.026307322 -0.027028717 4284058138
-0.048987959 0.022903595 -0.023928214 4284057629
-0.047054272 0.022337269 -0.023667196 4284055844
-0.045755167 0.024605811 -0.026237674 4284056354
-0.04447173 0.026873134 -0.028804101 4284055844
-0.043038707 0.028431185 -0.030660342 4284056353
-0.040944342 0.02715666 -0.029691644 4284056609
-0.039009836 0.026590869 -0.029430494 4284122144
-0.037243117 0.026733104 -0.029874854 4284056353
-0.035476249 0.026875444 -0.030319186 4283990818
-0.033887763 0.027724972 -0.031466365 4283993624
-0.032485601 0.029281095 -0.033314425 4283927578
-0.030542459 0.028716456 -0.033055101 4283927578
-0.028407458 0.027445864 -0.032096136 4283992858
-0.025316257 0.022645097 -0.027638674 4283991584
-0.022379629 0.018553384 -0.023890009 4284056098
-0.019022375 0.01305281 -0.018751517 4284056098
-0.015622672 0.0075557008 -0.013623586 4284121633
-0.01277959 0.0041783117 -0.010598953 4283857453
-0.0099099539 0.00080317259 -0.0075809145 4283790643
-0.007013768 -0.0025697015 -0.0045694588 4283724343
-0.0045062937 -0.0045308657 -0.0029557254 4283724089
-0.0019828603 -0.0064906292 -0.0013459176 4283724599
0.00055649877 -0.0084489472 0.00025992468 4283855924
0.0035429485 -0.011814062 0.0032490417 4283921204
0.0061194934 -0.013769183 0.0048457664 4283920949
0.033037692 -0.028167415 0.015295623 4283590723
0.036028408 -0.030809034 0.017537152 4282543949
0.038534977 -0.032046679 0.01840484 4281955409
0.041562654 -0.034685057 0.020637279 4281824339
0.04435353 -0.036620963 0.022181546 4281889618
0.0482025 -0.041357059 0.026451154 4282085458
0.053141344 -0.048890766 0.033438258 4282085203
0.057872463 -0.055719566 0.039729863 4282281808
-0.058396097 0.013440937 -0.015194984 4283659063
-0.057866324 0.019995313 -0.022044528 4283857964
-0.056952078 0.024409797 -0.026752189 4284055334
-0.055776145 0.027398167 -0.030033285 4284056353
-0.053875078 0.026826737 -0.029765919 4284056353
-0.051816639 0.025544418 -0.028791912 4284121888
-0.049129408 0.021418143 -0.024991319 4284056098
-0.047353212 0.021560561 -0.025438495 4284056353
-0.046056222 0.023835476 -0.028003562 4284056353
-0.045099791 0.027530367 -0.031975195 4283995154
-0.043509293 0.02838177 -0.033121597 4283927069
-0.041420761 0.027102407 -0.032154765 4283861279
-0.039151128 0.025114018 -0.030487232 4283929364
-0.037384514 0.025256217 -0.03093159 4283925538
-0.035617758 0.025398523 -0.031375911 4283990819
-0.034207489 0.026959579 -0.033222824 4283990818
-0.0326267 0.027810752 -0.034366377 4283990818
-0.030500297 0.026534954 -0.033408608 4284122399
-0.027990717 0.023842856 -0.03105489 4284121889
-0.024515402 0.017610285 -0.025213178 4284121889
-0.021183882 0.012089912 -0.020081351 4284121634
-0.017809916 0.0065730698 -0.01496011 4284121378
-0.014590356 0.0017676018 -0.010546143 4283923754
-0.01193206 -0.00091201067 -0.008229374 4283923244
-0.0096567385 -0.0021750554 -0.0073084906 4283790899
-0.0071660019 -0.0041442178 -0.0056955889 4283724598
-0.0042444691 -0.0075259246 -0.0026986077 4283659063
-0.001506459 -0.010198634 -0.00040152669 4283659063
0.0010400862 -0.012163009 0.0011976399 4283921204
0.0038179159 -0.014832269 0.0034848936 4283920693
0.0063989647 -0.016793568 0.0050755292 4283987248
0.032874744 -0.029830609 0.014106737 4283265599
0.036114216 -0.033184562 0.017025353 4282479178
0.038875297 -0.035129715 0.018572016 4281955664
0.042162322 -0.03847954 0.02147889 4281889874
0.045991167 -0.043232735 0.025742019 4281824083
0.050638095 -0.050090674 0.032038227 4281954643
-0.05729292 0.0055016726 -0.0098863635 4283790644
-0.05687869 0.012792259 -0.017436691 4283792174
-0.056085888 0.017935947 -0.022848601 4283924008
-0.055183474 0.022362702 -0.027543427 4284121634
-0.053567518 0.023217756 -0.028695039 4284121888
-0.051805008 0.023358863 -0.02913893 4284122143
-0.049733717 0.022073258 -0.02817139 4284122399
-0.04765166 0.02078858 -0.027206494 4284122654
-0.046675969 0.024495859 -0.031174894 4284056609
-0.04556429 0.027488312 -0.034432858 4283926814
-0.044143867 0.029054077 -0.036279425 4283859748
-0.04189628 0.02705721 -0.034611341 4283861789
-0.039462496 0.024349598 -0.032245494 4283995663
-0.037525859 0.023779612 -0.031988133 4283925539
-0.035934675 0.024633596 -0.033132825 4283990818
-0.034348648 0.025487319 -0.034276187 4284056098
-0.032225545 0.024206754 -0.033320945 4284121889
-0.029541593 0.020793915 -0.030273154 4284121633
-0.026645038 0.016672455 -0.026534256 4284121633
-0.023150597 0.010421671 -0.020712074 4284121888
-0.019991051 0.0055957362 -0.016294591 4284055588
-0.016794372 0.00077293813 -0.011886412 4283989034
-0.014150385 -0.0019167252 -0.0095726755 4283857709
-0.011485126 -0.0046045557 -0.0072641997 4283857454
-0.0094043426 -0.0051617734 -0.0070422189 4283856689
-0.0067045204 -0.007846605 -0.004742275 4283724853
-0.0039834417 -0.010529581 -0.0024475679 4283659318
-0.001031287 -0.013919655 0.00053362548 4283659063
0.0017349124 -0.01659875 0.0028171726 4283790134
0.0043071918 -0.018567462 0.0044050142 4284247604
0.032958716 -0.032199394 0.013600538 4283003713
0.035950065 -0.034858514 0.015828824 4282217804
0.03896255 -0.037515763 0.018051932 4282152014
0.04301554 -0.042992231 0.022991722 4282020178
0.048140772 -0.051285263 0.030640239 4282020434
0.053589605 -0.060277816 0.038952149 4282150483
-0.056469921 -0.0010432862 -0.0060223145 4283790388
-0.055753428 0.0048374347 -0.012146541 4283856688
-0.054935504 0.0099984519 -0.017553361 4283856944
-0.05415434 0.015156567 -0.022950813 4283857454
-0.053261179 0.019595813 -0.027633518 4283988268
-0.052096624 0.022600919 -0.030898601 4284186659
-0.050490763 0.023457509 -0.032045927 4284121888
-0.048576552 0.022882953 -0.031784978 4284056609
-0.047134992 0.024454532 -0.03363372 4284059159
-0.045865875 0.026740409 -0.036181934 4283859238
-0.044447768 0.02831029 -0.038024634 4283793193
-0.042370897 0.027021155 -0.037061457 4283858983
-0.039943371 0.024304245 -0.034700595 4283925283
-0.037494559 0.021589119 -0.03234503 4283992348
-0.035725396 0.021731582 -0.032789994 4284056353
-0.033956099 0.021874141 -0.033234917 4284122143
-0.031284023 0.018449269 -0.030192394 4284121888
-0.02821904 0.013600007 -0.025762841 4284186914
-0.025116902 0.0087538771 -0.021342598 4284055843
-0.021977607 0.0039108321 -0.016931558 4283857708
-0.019183379 0.00049621239 -0.013919452 4283856943
-0.016362593 -0.0029161498 -0.01091394 4283856944
-0.013711654 -0.0056140386 -0.0086084986 4283856433
-0.011238497 -0.0075980462 -0.0070011774 4283922988
-0.0089510605 -0.0088689066 -0.0060898988 4284054314
-0.0064486228 -0.010850314 -0.0044897608 4283921713
-0.0037232488 -0.013541739 -0.0022026934 4283790134
-0.00076699629 -0.01694246 0.00076930225 4283853883
0.033042267 -0.034572307 0.013091391 4282806854
0.035785936 -0.036532152 0.014632529 4282152269
0.039553359 -0.041321341 0.018888032 4282086478
0.04412166 -0.04822978 0.025171017 4281954898
0.049514659 -0.057255533 0.033475563 4281691993
-0.056063842 -0.005461555 -0.0042998176 4283657024
-0.054913249 -0.0017190576 -0.0082964487 4283856434
-0.053645533 0.0013027675 -0.011581209 4283856944
-0.052544687 0.0050414689 -0.015565171 4283857454
-0.052064452 0.011651248 -0.022357989 4283856944
-0.051480334 0.017539281 -0.028435607 4283922988
-0.050630551 0.021988336 -0.033097412 4284121123
-0.049029704 0.02284677 -0.034241803 4284121634
-0.047911469 0.025857186 -0.037488498 4284057883
-0.046652403 0.028148798 -0.040029302 4283994134
-0.045244571 0.029722208 -0.041866168 4283927833
-0.043011691 0.027710965 -0.04020422 4283993624
-0.04042333 0.02426797 -0.037149131 4284059924
-0.037808385 0.020827204 -0.034100667 4283991584
-0.035691928 0.01953714 -0.033150513 4284056098
-0.033209424 0.016816139 -0.030809823 4284121634
-0.030164685 0.011949766 -0.026386712 4284121889
-0.026899833 0.0063710548 -0.021277679 4284056098
-0.024149355 0.002941709 -0.018262915 4283857454
-0.021372296 -0.00048541278 -0.015254708 4283791153
-0.018759582 -0.0031953529 -0.012946418 4283791408
-0.016125597 -0.0059035048 -0.010643346 4283790898
-0.013666525 -0.0078953989 -0.0090374434 4283920949
-0.01099265 -0.010600101 -0.0067442227 4283987503
-0.0082975328 -0.013302986 -0.0044562668 4284053294
-0.0055811554 -0.016004022 -0.0021735597 4283987758
-0.0032570846 -0.017276045 -0.0012746342 4284115769
0.030151932 -0.034271155 0.010359734 4284180539
0.032878947 -0.036238987 0.011900021 4282675528
0.035870936 -0.038915578 0.014115093 4282085714
0.039639346 -0.043720026 0.018358914 4281625694
-0.055935014 -0.0084546097 -0.003999697 4283657023
-0.05449729 -0.0061428994 -0.0065811835 4283856179
-0.052932072 -0.0045532659 -0.0084549896 4283791154
-0.051668715 -0.0015229844 -0.011732083 4283791409
-0.050871443 0.0036671869 -0.017110739 4283856434
-0.050564039 0.011015262 -0.024584942 4283922734
-0.049848285 0.016199101 -0.029942919 4284121633
-0.049013037 0.020660188 -0.034591228 4284186914
-0.047891427 0.023679603 -0.037832268 4284121889
-0.046952378 0.027416846 -0.041766919 4284122908
-0.045382652 0.028275231 -0.042901643 4284057374
-0.043150526 0.026257319 -0.041244432 4284056863
-0.040393811 0.022084475 -0.03750027 4284122654
-0.03760523 0.01791428 -0.033764053 4284056353
-0.034959596 0.014465105 -0.030731417 4284121633
-0.032109898 0.010299988 -0.027010377 4284121634
-0.029228356 0.0061375834 -0.023297319 4283923498
-0.02649771 0.0026955605 -0.020285835 4283856688
-0.023925867 -2.6714057e-05 -0.017973928 4283789878
-0.021144722 -0.0034644566 -0.014974982 4283789623
-0.018527687 -0.0061828755 -0.012674282 4283790134
-0.01608273 -0.0081825592 -0.01106986 4283855413
-0.013621777 -0.010180902 -0.0094693452 4283789879
-0.011144869 -0.012177829 -0.0078727435 4283920694
-0.0080482066 -0.016321991 -0.004213105 4283920183
-0.0051236153 -0.019747462 -0.0012497026 4284507958
0.029989418 -0.035930883 0.0091732945 4283657024
0.032715641 -0.037905369 0.01070888 4282281808
-0.055806961 -0.011456173 -0.003705753 4283788094
-0.054223169 -0.0098608099 -0.0055810772 4283856433
-0.052649748 -0.0082661398 -0.007453762 4283659828
-0.051232193 -0.0059493408 -0.010025099 4283725363
-0.050274823 -0.0014655925 -0.014694638 4283856179
-0.049499784 0.0037381425 -0.020056181 4283790388
-0.048915002 0.0096613392 -0.026107792 4283856689
-0.04821622 0.014859207 -0.031450026 4283989034
-0.047712993 0.020776011 -0.037480921 4284054823
-0.04676773 0.024524687 -0.041408986 4284056098
-0.045192625 0.025385717 -0.042543493 4284121888
-0.042955969 0.023361567 -0.040892348 4284121889
-0.040026028 0.018454831 -0.036463551 4284121888
-0.037058931 0.013551231 -0.032044075 4284121633
-0.034054685 0.0086506642 -0.027633835 4284055589
-0.031190541 0.0044735968 -0.02392629 4283858218
-0.028654311 0.0017394423 -0.021612143 4283856688
-0.026279334 -0.00027293339 -0.019995376 4283790898
-0.023888368 -0.002283942 -0.018382503 4283789878
-0.02110577 -0.00573254 -0.015392103 4283854904
-0.018487066 -0.008459609 -0.013098368 4283855158
-0.016233351 -0.0097466744 -0.012188738 4283920694
-0.013968937 -0.011032816 -0.011281675 4283920694
-0.010900225 -0.01519252 -0.0076249102 4283919928
-0.0077996776 -0.019349571 -0.003976007 4284573749
0.02982693 -0.037590314 0.0079870746 4283067718
-0.055954468 -0.013014834 -0.0048215408 4284049979
-0.054230336 -0.012140606 -0.0059925634 4283987759
-0.052653965 -0.010541361 -0.0078627504 4283921969
-0.051233266 -0.0082177706 -0.010430006 4283725108
-0.049976189 -0.005170431 -0.013692426 4283790644
-0.048890661 -0.0013999715 -0.017647954 4283856434
-0.04783136 0.0023684651 -0.021596808 4283856689
-0.047265965 0.0083077103 -0.027630422 4283922734
-0.046584163 0.013519622 -0.032956902 4283858983
-0.045939159 0.018728644 -0.03827399 4284056098
-0.044511918 0.020316705 -0.040105991 4284121378
-0.042429265 0.019010399 -0.039157405 4284121633
-0.03932124 0.013365839 -0.034048516 4284187679
-0.035999034 0.0070018061 -0.028257087 4284122908
-0.03297789 0.0020872913 -0.023862584 4284056608
-0.030627731 6.6064298e-05 -0.02224461 4283923244
-0.028261591 -0.0019537173 -0.020630617 4283791408
-0.026061755 -0.0032500066 -0.019710995 4283724598
-0.023666274 -0.0052672625 -0.018104184 4283790389
-0.021254804 -0.0072830655 -0.016501341 4283921203
-0.018637083 -0.010018978 -0.014213895 4283986994
-0.016383927 -0.011310499 -0.013307413 4283986739
-0.013924524 -0.013322141 -0.011716327 4284640049
-0.051234689 -0.010490347 -0.010837892 4284053293
-0.049974252 -0.0074339919 -0.014094644 4283855924
-0.048584376 -0.0051061027 -0.016649164 4283921714
-0.047363151 -0.0020527281 -0.01989584 4283856434
-0.046318609 0.0017255619 -0.023832764 4283856688
-0.045616943 0.0069543868 -0.029152818 4283725874
-0.044791128 0.01145428 -0.033769269 4283595059
-0.04334246 0.013048436 -0.035603471 4283793193
-0.041239183 0.011739351 -0.034663312 4283856944
-0.038280729 0.006804239 -0.030264637 4283791153
-0.035285112 0.0018721484 -0.025875205 4283791919
-0.032774884 -0.00088186562 -0.023567757 4283792174
-0.030420218 -0.0029092692 -0.021955876 4283792684
-0.028229002 -0.0042107701 -0.021037454 4283725619
-0.026027095 -0.0055112615 -0.020121688 4283790389
-0.023814488 -0.0068108253 -0.019208496 4283725364
-0.021403786 -0.0088332854 -0.017610373 4283986739
-0.018977098 -0.010854375 -0.016016139 4283986994
-0.01634175 -0.013597552 -0.013739597 4284247603
-0.051381368 -0.012037519 -0.011945371 4284379438
-0.049972672 -0.0097016804 -0.014499826 4283921459
-0.048429441 -0.008096125 -0.016354918 4283921713
-0.047049414 -0.0057623647 -0.018901996 4283921713
-0.045840535 -0.0027011149 -0.02213903 4283856689
-0.044494506 -0.00036992505 -0.024677357 4283725874
-0.043646421 0.004144907 -0.029289685 4283594548
-0.04217631 0.0057451129 -0.031125985 4283594804
-0.040218484 0.0051611401 -0.030885648 4283726129
-0.037580494 0.0016672313 -0.027883971 4283790899
-0.034915898 -0.0018244423 -0.02488891 4283725109
-0.032572705 -0.0038595125 -0.023279086 4283725619
-0.030213494 -0.0058931932 -0.021673217 4283792174
-0.027838308 -0.0079254247 -0.020071315 4283791408
-0.025992814 -0.0077766515 -0.020535342 4283660849
-0.023778122 -0.0090804361 -0.019625943 4283725874
-0.02155273 -0.010383207 -0.018719194 4283987249
-0.018936984 -0.013136853 -0.016444353 4284379183
-0.048425268 -0.010363359 -0.016760567 4284445228
-0.04688948 -0.0087539367 -0.018610455 4284118573
-0.045364086 -0.0071452074 -0.020457705 4283856179
-0.044006977 -0.0048066042 -0.022993952 4283790899
-0.042826097 -0.0017386489 -0.026217269 4283660338
-0.041503016 0.00059748441 -0.028744835 4283595313
-0.03936648 -0.00071773678 -0.027819611 4283594548
-0.037219223 -0.0020319559 -0.026897058 4283659573
-0.034890134 -0.0040748566 -0.025288673 4283725109
-0.032545056 -0.006116312 -0.023684274 4283790389
-0.03018396 -0.00815643 -0.022083789 4283724854
-0.027985934 -0.0094661452 -0.021173688 4283660083
-0.025958885 -0.010046165 -0.020951893 4283725619
-0.023557786 -0.012082685 -0.019361261 4284053039
-0.00014403835 -0.027285989 -0.0084197354 4283721283
0.0026274808 -0.030034725 -0.006189758 4284248369
-0.047035147 -0.010287423 -0.019708047 4284706604
-0.045509461 -0.0086743273 -0.021552129 4283921713
-0.044151846 -0.0063291192 -0.024083614 4283855924
-0.042809922 -0.0039850175 -0.026611114 4283790899
-0.041320708 -0.0023745783 -0.028445736 4283725619
-0.039345067 -0.0029615536 -0.028213182 4283725363
-0.037195709 -0.0042800009 -0.027294429 4283724853
-0.034864735 -0.0063293464 -0.025691442 4283790899
-0.032344226 -0.0091088824 -0.023406224 4283856178
-0.030154813 -0.010423798 -0.022497315 4283790899
-0.027775865 -0.012468945 -0.020906143 4283790898
-0.025925349 -0.0123198 -0.021371452 4284379694
-0.023522373 -0.014362741 -0.019786201 4284705583
-0.0022166707 -0.029042158 -0.0090830009 4283460163
0.00012208894 -0.030343529 -0.008210456 4282480199
0.0026846789 -0.032372255 -0.0066643227 4284117044
-0.043981697 -0.0093215145 -0.023795951 4284445994
-0.042633984 -0.0069704019 -0.026320025 4283988013
-0.041301955 -0.0046204999 -0.028840043 4283791664
-0.039158601 -0.0059439428 -0.027923146 4283857199
-0.036836471 -0.0080006905 -0.02632292 4283790899
-0.03466903 -0.0093219765 -0.025411913 4283987248
-0.032490861 -0.010642339 -0.02450349 4283987503
-0.030126039 -0.012695286 -0.022913801 4284379439
-0.027745213 -0.014746871 -0.021328013 4284640558
-0.0042889081 -0.030797843 -0.0097460374 4282349383
-0.0017483681 -0.032835234 -0.0081994142 4282022473
0.00038738921 -0.03340954 -0.0080073029 4281762119
0.0025284886 -0.033983309 -0.0078164432 4284051509
0.0051062219 -0.036017302 -0.0062788883 4284704818
-0.042938571 -0.0077531226 -0.028094044 4284249644
-0.041446146 -0.0061336979 -0.029922977 4283857454
-0.039303321 -0.0074615739 -0.029009214 4283856944
-0.036981959 -0.009524975 -0.027413707 4283921968
-0.034644585 -0.011586931 -0.025822179 4283987503
-0.032291215 -0.013647523 -0.024234546 4284444973
-0.011770248 -0.026991051 -0.014862293 4284573238
-0.0090761185 -0.029772978 -0.012632947 4283657788
-0.0063607469 -0.032553073 -0.01040885 4282479688
-0.0038289949 -0.034597855 -0.0088650025 4282152778
-0.0014888123 -0.035907988 -0.0079994956 4282022473
0.00065186992 -0.036484081 -0.0078102527 4281957958
0.0025851168 -0.036326837 -0.008295306 4284181559
-0.041590262 -0.0076466016 -0.031005703 4284054059
-0.039777968 -0.0075012185 -0.031461921 4284315433
-0.037295017 -0.010310333 -0.029187052 4284315179
-0.034620505 -0.013856035 -0.026235349 4284706603
-0.014206488 -0.02725311 -0.016869688 4284377909
-0.011725996 -0.029309008 -0.015318159 4282546244
-0.0090302154 -0.032099571 -0.013095764 4282087498
-0.0063132085 -0.034888227 -0.010878632 4281956684
-0.003779605 -0.036939453 -0.0093401661 4281955918
-0.00164463 -0.037518356 -0.0091512324 4282087244
0.00028577074 -0.037361462 -0.0096356599 4282022218
0.0024287812 -0.037939463 -0.0094485534 4284114749
-0.016057272 -0.0297218 -0.016847631 4284443954
-0.013970647 -0.030307416 -0.016648637 4283004734
-0.011485651 -0.032369521 -0.015103132 4282088008
-0.008984711 -0.03443021 -0.013561545 4282022219
-0.0062660538 -0.03722756 -0.011351334 4282021709
-0.0039350204 -0.038547311 -0.010490148 4281955408
-0.0020074807 -0.038390797 -0.01097397 4281890638
-0.00028958172 -0.037496705 -0.012128247 4281956428
-0.018478379 -0.029970828 -0.018850025 4283985974
-0.016018156 -0.03204171 -0.01730342 4281958214
-0.013735596 -0.033370297 -0.016433645 4281566023
-0.0112461 -0.035438601 -0.014894174 4281760844
-0.0089395903 -0.036764961 -0.014030276 4281957193
-0.0064208508 -0.038830657 -0.012497964 4282022219
-0.0042946041 -0.039414767 -0.012310199 4281825613
-0.0021630041 -0.039998334 -0.012123688 4281561433
-0.023500677 -0.027385522 -0.02307174 4284507959
-0.020702146 -0.030953471 -0.020175174 4283528503
-0.018253375 -0.033031944 -0.018630674 4282677058
-0.015979413 -0.034365747 -0.017762108 4281892424
-0.013694793 -0.035698514 -0.016896164 4281435208
-0.011399504 -0.037030343 -0.016032774 4281566024
-0.0088948607 -0.039103825 -0.014501947 4281892169
-0.0067769811 -0.039690945 -0.014313816 4281891148
-0.0048577338 -0.039535228 -0.014795645 4281628753
-0.02328505 -0.030438382 -0.022843234 4283331898
-0.020482454 -0.034016889 -0.019955885 4282611778
-0.018029157 -0.036101628 -0.018417384 4282087498
-0.015750498 -0.03743938 -0.017553302 4281760843
-0.013654374 -0.038030822 -0.017361613 4281760844
-0.011552863 -0.038621757 -0.017171143 4281369928
-0.0092475042 -0.039956976 -0.016313493 4281565003
-0.0069314912 -0.041291226 -0.015458434 4281694544
-0.005012393 -0.041135523 -0.015940234 4281168224
-0.027541135 -0.030807588 -0.024363639 4284115258
-0.025311027 -0.032154154 -0.023490932 4282678588
-0.023070246 -0.033499721 -0.022620872 4281957193
-0.020633694 -0.0355925 -0.021083141 4281760078
-0.018181186 -0.037683878 -0.019549342 4281628499
-0.015903093 -0.039026055 -0.018688375 4281628753
-0.013614327 -0.040367294 -0.01782997 4281629519
-0.011706185 -0.040212881 -0.018309312 4281629009
-0.026982684 -0.035371494 -0.022797162 4282547518
-0.025101732 -0.035220016 -0.023270216 4281958469
-0.023220655 -0.035068404 -0.023743216 4281826124
-0.02060004 -0.037918177 -0.021541538 4281694034
-0.018333171 -0.039265823 -0.020681087 4281693523
-0.016055658 -0.040612441 -0.019823246 4281629263
-0.014153041 -0.040458586 -0.020301286 4281563473
-0.012054909 -0.041054141 -0.020113293 4281366614
-0.030208278 -0.040256966 -0.02029153 4283854394
-0.028839398 -0.037844632 -0.022776492 4282611779
-0.027486224 -0.035433408 -0.025257457 4281958979
-0.025610697 -0.035282355 -0.02572915 4281763394
-0.023371037 -0.036636773 -0.024865335 4282021709
-0.020382117 -0.041000579 -0.021335769 4281890384
-0.018110543 -0.042352173 -0.020479798 4281824849
-0.016208172 -0.042198475 -0.020957876 4281628243
-0.028467897 -0.04168174 -0.021895643 4282348363
-0.027635854 -0.036997024 -0.026376273 4281762883
-0.025581319 -0.037601221 -0.026181132 4281829184
-0.022976 -0.040469881 -0.023988761 4282154309
-0.020165004 -0.044091459 -0.021136142 4281824594
-0.018075801 -0.044692498 -0.020949446 4281693268
-0.024657603 -0.043711271 -0.023309819 4282088774
-0.022037439 -0.046587471 -0.021127705 4281892168
-0.019580241 -0.048704851 -0.019614741 4281889873
-0.020919979 -0.053490628 -0.017622296 4282673488
0.065942347 0.013221309 0.047463469 4281158024
0.062039535 0.019864909 0.036919162 4279978138
0.068662494 0.0097751394 0.047904104 4279193759
0.058187049 0.02190173 0.031924285 4281550723
0.061876159 0.018204156 0.035732225 4279258783
0.068205677 0.0087219551 0.045975849 4278997664
0.059162416 0.017671697 0.03360974 4281354628
0.063147724 0.013316244 0.038120575 4279193503
0.069776796 0.0031565912 0.049051523 4278801058
0.061272509 0.010832496 0.038139023 4281421949
0.064990655 0.007110931 0.041920111 4280177293
0.07134524 -0.0024351776 0.052108288 4279784338
0.0045553409 0.030786168 0.020544579 4280044183
0.063095197 0.0046080761 0.041930623 4281879928
0.066257358 0.0021745972 0.044273876 4280308108
0.072332636 -0.006753996 0.05372382 4280242573
-0.0013218857 0.03481245 0.013806688 4280897413
-0.00010307506 0.036938209 0.011154799 4278338999
0.0024204031 0.035117354 0.012868125 4278666418
0.0049598329 0.033297867 0.014577499 4280894863
0.0077405944 0.030822638 0.017008455 4282464133
0.06119401 0.0021005496 0.041939437 4281749368
0.063780032 0.00096217543 0.042856455 4280767364
0.066949174 -0.0014794543 0.045191385 4280505734
-0.0022859909 0.023692247 0.023816066 4282406249
-0.0031329468 0.032433078 0.013882937 4278538154
0.0062356852 0.033196509 0.011533394 4279192229
0.0085651912 0.032031134 0.012510194 4279324063
0.010905309 0.030866748 0.013484342 4280490433
0.055336989 0.0040084533 0.037472948 4282337908
0.058452599 0.0015533753 0.039814606 4281094528
0.061308436 -0.00024508312 0.041441008 4280177803
0.063613117 -0.00073308125 0.041644908 4280309129
0.06678129 -0.0031835623 0.043973543 4280505734
-0.0059998557 0.027244288 0.017336266 4281227129
-0.0049494542 0.030049168 0.013957513 4279326104
-0.0029120035 0.035653953 0.0072161071 4278800294
-0.0014909804 0.037129484 0.0053020995 4279128479
0.00079812482 0.035956189 0.006285578 4279192739
0.0030978695 0.034783877 0.0072664022 4278929835
0.0054082684 0.033612467 0.0082446542 4278470834
0.0075016879 0.033103373 0.0084985644 4278865573
0.0096004345 0.0325948 0.0087512024 4279258018
0.011937404 0.031425823 0.0097229145 4279580594
0.052351166 0.0041391812 0.034643933 4281945209
0.055172067 0.0023310892 0.036274113 4280701318
0.058286712 -0.00013284758 0.038609467 4280374153
0.060861204 -0.0012809299 0.03952276 4279981454
0.063446179 -0.0024281293 0.040433526 4280243593
0.066899307 -0.0055440441 0.043462999 4280309129
-0.0061458349 0.031803966 0.0092105083 4278932893
-0.0018580779 0.036245421 0.0034720227 4278471343
0.0048068985 0.033378214 0.0056862999 4278602668
0.0066673271 0.033530019 0.0052198749 4278603179
0.0085277744 0.03368191 0.0047535114 4278668714
0.010388244 0.033833876 0.0042871945 4279651228
0.013190087 0.031334244 0.0066933911 4280044439
0.015775152 0.029499114 0.0083768945 4278992563
0.047128327 0.0047816336 0.031607695 4282600304
0.049382627 0.0042847544 0.03182067 4280766599
0.052459411 0.0018088073 0.034158796 4280570249
0.05528222 -5.7034194e-06 0.035783604 4280308108
0.05867628 -0.003137704 0.038819492 4280112013
0.061255552 -0.0042898059 0.039728373 4280177804
0.064128309 -0.0060999244 0.041340813 4280374408
0.06758821 -0.0092262588 0.044360414 4280636803
-0.006714154 0.031579264 0.0066490509 4281229679
-0.0052793249 0.033064499 0.0047380514 4278933148
-0.0020081438 0.034699384 0.002366446 4278931363
-0.00016118959 0.03484986 0.0019032266 4278865319
0.0019076876 0.034334198 0.0021598898 4278930854
0.0039819181 0.03381902 0.0024153162 4278733994
0.0058343001 0.03397017 0.0019509122 4278668203
0.011391567 0.034424089 0.00055801123 4278403513
0.014432877 0.031250954 0.0036731325 4279715488
0.017019831 0.029409496 0.0053512491 4281419399
0.019622689 0.02756938 0.0070254914 4283246218
0.04471644 0.0036197565 0.030207558 4282141813
0.047232129 0.0024576411 0.031128781 4280766598
0.050027885 0.00063419715 0.032755286 4280570248
0.052839451 -0.0011878908 0.034377947 4280439179
0.055941671 -0.0036704689 0.036703274 4280373643
0.058509927 -0.0048278943 0.037611544 4280308618
0.061649006 -0.0073072799 0.039927781 4280374154
0.064526327 -0.0091236271 0.04153423 4280702083
0.068561248 -0.013582569 0.045952477 4281750898
-0.0042186789 0.033672277 0.0010040253 4278998429
-0.0021581762 0.033153571 0.0012610257 4278866593
-0.0005303137 0.033972662 7.8897923e-05 4278538153
0.0013139509 0.034122989 -0.00038359128 4278668714
0.0031582452 0.034273393 -0.00084603205 4278471853
