# .PCD v0.7 - Point Cloud Data file format
VERSION 0.7
FIELDS x y z rgba
SIZE 4 4 4 4
TYPE F F F U
COUNT 1 1 1 1
WIDTH 989
HEIGHT 1
VIEWPOINT 0 0 0 1 0 0 0
POINTS 989
DATA ascii
-0.0067357533 0.030921031 -0.013593448 4290258718
-0.0049474575 0.031055942 -0.014006983 4289735203
-0.002775263 0.02980713 -0.013003657 4289800484
0.00038054213 0.025100525 -0.0084637394 4289538598
0.0045598522 0.016939282 -0.00039650919 4289866020
0.0098025985 0.0053263158 0.011188885 4289996835
0.012705144 0.0020137392 0.01428199 4289473318
0.01317165 0.0069943331 0.0089049581 4286987323
-0.03560967 0.02799172 -0.0087639848 4287444029
-0.034705162 0.032310024 -0.013481128 4289473574
-0.033235766 0.033836726 -0.015324189 4289604134
-0.031776823 0.035362761 -0.017164811 4290454814
-0.030482844 0.03758499 -0.019718312 4290454814
-0.028733253 0.037715938 -0.020123683 4290389278
-0.026663944 0.03645394 -0.019100636 4290454814
-0.024096511 0.033103824 -0.015939252 4290847003
-0.021832548 0.031148041 -0.014209914 4290520093
-0.019720286 0.02988953 -0.01319662 4290193184
-0.017938122 0.030023344 -0.013609217 4290127648
-0.016848184 0.032939397 -0.016866265 4290062369
-0.015076429 0.033072606 -0.017276319 4290520348
-0.013126146 0.032510754 -0.016976403 4290782234
-0.010446161 0.029169682 -0.013840629 4290847513
-0.0084744096 0.028609669 -0.01354559 4290716699
-0.0066836476 0.028744666 -0.013959771 4289931554
-0.0048927963 0.028879751 -0.014373915 4290389789
-0.0025267303 0.026932534 -0.012667543 4290127905
0.001216013 0.020129129 -0.0060214587 4289931554
0.006391298 0.0084737614 0.0055514346 4289931299
0.011457443 -0.0024811961 0.016398555 4289865763
0.013168652 -0.001643043 0.015252059 4289407529
-0.036316574 0.029312549 -0.012701813 4287967289
-0.035129011 0.032243803 -0.015975559 4289146919
-0.033664636 0.03377451 -0.017814236 4289538853
-0.03221073 0.035304472 -0.019650387 4289669669
-0.031075835 0.038232047 -0.022911727 4289604644
-0.029177412 0.037663449 -0.022602025 4289473573
-0.027113914 0.036396556 -0.021580905 4290127904
-0.024715133 0.033733517 -0.019138254 4290389533
-0.022459872 0.031770527 -0.017411904 4290127903
-0.020356081 0.030506914 -0.016399922 4290127903
-0.01875224 0.031338077 -0.01752083 4290389534
-0.017326482 0.03286662 -0.019349944 4289997088
-0.015560143 0.032999411 -0.019758755 4290847259
-0.0136155 0.032434955 -0.019459244 4290454814
-0.011122808 0.02977957 -0.01703788 4290847259
-0.0087922737 0.027822822 -0.015328439 4291043354
-0.0066318996 0.026564131 -0.014329126 4290258718
-0.0042719357 0.024609774 -0.012626364 4290062369
-0.0015129037 0.021264074 -0.0095168203 4290062624
0.003020402 0.011655267 -7.1988441e-05 4290128414
0.0084156208 -0.00073155388 0.012171617 4289997599
0.012909215 -0.0096323825 0.020876292 4289735968
0.01342883 -0.0046172179 0.015509948 4286987068
-0.035730809 0.024332117 -0.010194425 4287836474
-0.03467539 0.027975054 -0.014178932 4288098868
-0.033348851 0.030212652 -0.016730336 4289080874
-0.032189518 0.03315068 -0.019990865 4289604389
-0.030897208 0.035385899 -0.022534199 4289604133
-0.029150501 0.035516579 -0.022938944 4289866019
-0.02708485 0.034245446 -0.021921631 4289931554
-0.024846353 0.032274485 -0.020196365 4290062624
-0.022921234 0.031705908 -0.019894332 4289866274
-0.02099064 0.031137845 -0.019593488 4289997088
-0.019224644 0.0312704 -0.020002373 4290193183
-0.017976612 0.033502907 -0.022535002 4290585884
-0.016393714 0.03433479 -0.02364926 4289800483
-0.014460027 0.033767302 -0.023348875 4288950058
-0.011798214 0.030402947 -0.020225355 4289408038
-0.0091097094 0.027040686 -0.017107951 4290258463
-0.0067665018 0.025078392 -0.015406323 4289669669
-0.0040299371 0.021719942 -0.01229989 4290127393
7.2512776e-05 0.013473794 -0.0042742258 4289865763
0.0050147921 0.0024392381 0.006548692 4289865763
0.010042295 -0.0085888021 0.017352041 4289800229
0.013560604 -0.014026769 0.022521541 4289864998
-0.034223288 0.023688968 -0.012394968 4287902008
-0.032885611 0.025933888 -0.014944002 4288360498
-0.031866193 0.029585224 -0.018911835 4288753963
-0.030873187 0.033234656 -0.022873497 4289277478
-0.029123917 0.033365503 -0.023278847 4289604389
-0.02705612 0.032090172 -0.022265384 4289473318
-0.025139391 0.031518668 -0.021963131 4289408294
-0.023546241 0.032353144 -0.023078393 4290062369
-0.021623947 0.03178224 -0.022777297 4289931554
-0.020205706 0.033318847 -0.024598187 4290127648
-0.018797986 0.034854788 -0.026416622 4290716444
-0.017575957 0.037091926 -0.028938212 4289996579
-0.015302911 0.035117533 -0.027225547 4289734949
-0.013013791 0.033144407 -0.025516484 4290258463
-0.0099760816 0.028367184 -0.020995608 4290258208
-0.0069010593 0.023592908 -0.016483339 4290519839
-0.0028464198 0.015316777 -0.0084664291 4290192929
0.0016543716 0.0056441016 0.00093979063 4289734693
0.0066172741 -0.0054239258 0.011731628 4289865253
0.010879651 -0.013684072 0.019700732 4289930789
0.014011338 -0.017738424 0.023454072 4286267713
-0.033918381 0.020091815 -0.011334442 4287902009
-0.032572284 0.02234393 -0.013880577 4288164404
-0.031543992 0.026006836 -0.017842272 4288949804
-0.030388445 0.028962081 -0.021088703 4289539109
-0.028785005 0.029799255 -0.022204982 4290323998
-0.027027734 0.029930748 -0.022612154 4289931553
-0.025431968 0.030767487 -0.023726469 4290062113
-0.024005719 0.032308862 -0.025546085 4289996578
-0.022422992 0.033144854 -0.026657287 4289734948
-0.021015108 0.034685031 -0.028472513 4289996578
-0.019617736 0.036224514 -0.030285234 4290127393
-0.018405862 0.038467474 -0.032799602 4290323488
-0.016321778 0.037189599 -0.031792738 4290389279
-0.013686124 0.033801347 -0.028679634 4290389279
-0.010109097 0.026897417 -0.022061264 4290389023
-0.0061075985 0.018590948 -0.014051915 4290323488
-0.0014774203 0.0081799328 -0.0039541591 4290061604
0.0032326616 -0.0022250004 0.0061252392 4289603368
0.0076354668 -0.011218283 0.01478661 4289799719
0.011126321 -0.016693458 0.019936066 4288360754
-0.034196667 0.019315867 -0.013120502 4287836474
-0.033000909 0.022282692 -0.016369889 4288491314
-0.031524576 0.02383172 -0.018198172 4289473063
-0.030058734 0.025380088 -0.020024011 4289604134
-0.028447226 0.026219996 -0.021140484 4289800228
-0.026999667 0.027767137 -0.0229619 4289996323
-0.025401182 0.028606277 -0.024075273 4289015083
-0.024136096 0.030859372 -0.026597273 4288688174
-0.022553287 0.031697527 -0.027706869 4289211433
-0.021314554 0.033948831 -0.030222626 4289473319
-0.019919574 0.035492532 -0.03203157 4290192674
-0.0185351 0.037035495 -0.033837963 4289800484
-0.016451523 0.035753183 -0.032834284 4289996578
-0.013816979 0.032353893 -0.029729154 4289996579
-0.0096938573 0.023310665 -0.021024771 4290127138
-0.004945308 0.012156084 -0.010236154 4290127138
0.00045261532 -0.0011080131 0.0026311097 4289865508
0.0046166778 -0.0094282925 0.010583278 4289668648
0.0080711581 -0.014923878 0.015727945 4287837494
-0.034474492 0.018544581 -0.014903191 4288097594
-0.033132739 0.020809447 -0.017438496 4288884014
-0.031656116 0.022362839 -0.019263586 4288949549
-0.029883415 0.022495262 -0.019674504 4289472553
-0.028422445 0.024047712 -0.021495873 4289472553
-0.026654758 0.024179937 -0.021905495 4289930279
-0.025209464 0.025731359 -0.023723049 4289341484
-0.023774669 0.027282117 -0.02553815 4288884014
-0.022516951 0.029541289 -0.028053459 4288753454
-0.021105841 0.031090463 -0.029862937 4289145898
-0.019705243 0.032638893 -0.031669866 4289080874
-0.018140621 0.033478089 -0.032773372 4289408038
-0.016226791 0.032900281 -0.032475021 4289538598
-0.013048407 0.027365874 -0.027280014 4289800229
-0.0085496195 0.016879104 -0.017201327 4289800229
-0.0032301731 0.0035674125 -0.0043472191 4289800229
0.0014389977 -0.0069063231 0.0056921984 4289472553
0.0054259971 -0.014544547 0.012924362 4288818479
0.0085056946 -0.018642455 0.016659949 4286529088
-0.03475187 0.017778005 -0.016682547 4288556594
-0.03356006 0.020761933 -0.01991787 4289472554
-0.031938061 0.02160679 -0.021033725 4289472554
-0.030321203 0.022451332 -0.022148253 4289341483
-0.028553776 0.022583419 -0.022557905 4289603113
-0.026944607 0.023427555 -0.023670524 4289733928
-0.025179558 0.023559647 -0.024079487 4289537834
-0.023578092 0.024403393 -0.025190182 4288818223
-0.021981806 0.025246847 -0.0262996 4288949294
-0.020559788 0.026801201 -0.028108332 4288884014
-0.019148275 0.028354814 -0.02991451 4288949548
-0.017572939 0.02919702 -0.031018918 4289473829
-0.015294738 0.027196655 -0.029327169 4289735203
-0.011563089 0.019514741 -0.022054385 4289996834
-0.0068611242 0.0082865246 -0.011307661 4289800483
-0.0018889792 -0.003645137 0.0001162705 4288949804
0.0022353828 -0.012021035 0.0080380887 4288099379
0.0056624003 -0.017553821 0.013162728 4285875268
-0.033691369 0.019293617 -0.020982929 4288489529
-0.032069296 0.020140646 -0.02209717 4289144113
-0.030452363 0.020987334 -0.02321011 4289930534
-0.028840594 0.021833735 -0.024321776 4289996069
-0.027233995 0.022679836 -0.025432182 4289276203
-0.025471717 0.022811711 -0.02584051 4289210414
-0.02387283 0.023657426 -0.026948981 4288817969
-0.022279136 0.024502894 -0.028056225 4288752433
-0.020521805 0.024634672 -0.028463202 4289276204
-0.018935852 0.025479706 -0.029568462 4289472553
-0.0170068 0.024898546 -0.029277015 4289538598
-0.014541857 0.022179598 -0.026895404 4289538598
-0.010440245 0.013049308 -0.018250221 4289341993
-0.0059051253 0.0024996214 -0.0082292538 4289407529
-0.0012901351 -0.0080439523 0.0017733122 4289276459
0.002279982 -0.014309645 0.0075896238 4287902773
-0.03265059 0.020825587 -0.025265425 4288554043
-0.03119424 0.022390643 -0.027075995 4288686388
-0.029126965 0.021088731 -0.026082264 4289080109
-0.027522936 0.0219368 -0.027190451 4289210924
-0.025763437 0.022068437 -0.027598158 4288883248
-0.024003796 0.022200182 -0.028005822 4288359988
-0.02241002 0.023047825 -0.029111456 4288752433
-0.020484157 0.022463974 -0.028821029 4289145389
-0.018724166 0.022596035 -0.029228559 4289603369
-0.016616151 0.021297893 -0.028243806 4289538343
-0.013790913 0.017140802 -0.024479408 4289407528
-0.010037266 0.0094123669 -0.01724782 4289342248
-0.0056792125 -0.00045520067 -0.007946888 4289341739
-0.0014312305 -0.0096026659 0.00064317184 4289406763
0.0019497089 -0.015174069 0.005752075 4287510328
0.03532391 -0.047606848 0.033384882 4286071618
-0.025894225 0.020611487 -0.028654825 4287900988
-0.02413471 0.020743206 -0.029062476 4288162873
-0.022872441 0.023028916 -0.03155924 4289013554
-0.020783767 0.021724725 -0.030573459 4289408039
-0.018855445 0.021138966 -0.030285174 4289473319
-0.016574182 0.019119037 -0.028609082 4289538599
-0.014100447 0.016383223 -0.026242673 4289342249
-0.010351777 0.0086303987 -0.019028051 4289342249
-0.0061810315 -0.00055146962 -0.010441511 4289080108
-0.0019410737 -0.0097280219 -0.0018709097 4288752688
0.0014328249 -0.015317433 0.003226494 4286725439
-0.024428524 0.020006882 -0.030814379 4287769663
-0.022837251 0.020858621 -0.031916138 4288228154
-0.020746417 0.019550171 -0.030934099 4289015083
-0.018986672 0.019682173 -0.031341601 4289408038
-0.016706131 0.017655618 -0.029670276 4290062623
-0.014057092 0.014191624 -0.02661792 4289408295
-0.010486953 0.0071339197 -0.020113146 4289408295
-0.006137386 -0.0027955286 -0.010856248 4289341739
-0.0018974841 -0.012000509 -0.0023069847 4289145644
0.0012904853 -0.016888805 0.0020872033 4286201923
-0.019629993 0.020391544 -0.034473725 4287507779
-0.017184772 0.017635975 -0.032113943 4288949293
-0.014542155 0.014160559 -0.029068317 4288687919
-0.010622084 0.0056377165 -0.021198047 4288687919
-0.0059127398 -0.0057649091 -0.010584455 4289080109
-0.0014862418 -0.015719078 -0.0013682735 4288295219
0.0017081648 -0.020622157 0.003012883 4286529089
-0.018182069 0.019797312 -0.036620289 4287638593
-0.015026398 0.014138617 -0.031512178 4288228154
-0.010757178 0.0041418038 -0.022282748 4288293433
-0.005507715 -0.0094661526 -0.0096309371 4288424758
-0.0010761581 -0.019450538 -0.00043891277 4288098104
0.0019382387 -0.023645476 0.0032425993 4286986049
0.0095134825 -0.07011956 -0.013311421 4287834943
0.0072265342 -0.071104042 -0.014675787 4288030784
0.0097522661 -0.073274873 -0.013183346 4287901753
0.0068910308 -0.071936496 -0.01648782 4287444793
0.0092210285 -0.073339224 -0.015645532 4287378749
0.038765348 0.014835689 0.069028057 4283988014
0.041237339 0.013715908 0.070041977 4283533094
0.034589171 0.018761691 0.061628871 4284056098
0.035450485 0.022107424 0.05747702 4283859494
0.037427682 0.022257736 0.057020664 4283727148
0.041485429 0.016661726 0.063199587 4283861789
0.046994135 0.0072397292 0.073787265 4283862809
0.031566307 0.019523846 0.057938136 4284120613
0.032877188 0.021598188 0.055268615 4283994389
0.03417208 0.023671323 0.052602869 4283795998
0.03636419 0.023179736 0.052885856 4283793959
0.039254531 0.020766502 0.055374622 4283859749
0.043334335 0.015152458 0.061533637 4283926304
0.047462065 0.0095421262 0.067681648 4283992094
0.051159769 0.005215697 0.072351016 4284055844
0.053686574 0.0040915646 0.073345974 4284121123
0.055246789 0.0055270717 0.071408197 4284054058
0.058031071 0.0037643835 0.073132761 4283855413
0.027886162 0.016291291 0.059136495 4283721538
0.028566532 0.02030555 0.05425543 4284054824
0.030315511 0.021098798 0.053064335 4283990054
0.032059159 0.021891696 0.051874507 4283925028
0.033346586 0.023970909 0.049215402 4283927578
0.035530433 0.023476496 0.049498651 4283927578
0.03818113 0.021696709 0.05124883 4283993113
0.042014956 0.016704652 0.056662492 4283991838
0.044710867 0.014928464 0.058402285 4283990308
0.047422733 0.013153508 0.060138486 4284056353
0.048701957 0.015232444 0.057481527 4284056608
0.049965147 0.017310187 0.054828368 4283927323
0.052199285 0.016820017 0.055100314 4283796253
0.056932867 0.0099154152 0.062668487 4283338784
0.025804456 0.020460442 0.051316928 4283989799
0.027330963 0.021901594 0.049393091 4283926303
0.02950656 0.021404188 0.049676467 4283928599
0.031910077 0.020261487 0.050692972 4283860258
0.033648517 0.021056255 0.049506053 4283925028
0.035837419 0.020560035 0.049786486 4283925028
0.038262192 0.019419177 0.050798178 4284056354
0.041397288 0.016344409 0.054002944 4283990818
0.043615419 0.015850559 0.054276828 4284056353
0.045838822 0.015357215 0.054549489 4284056099
0.046620153 0.018730186 0.05044112 4284057629
0.047374785 0.022101192 0.046338964 4283793959
0.049335465 0.02225069 0.045886751 4283726384
0.053539008 0.016606931 0.051987827 4283791919
0.059049807 0.0077493824 0.061715513 4283793448
0.065653265 -0.0036755577 0.074333645 4283793703
0.023694895 0.018683854 0.050589886 4284054824
0.024583902 0.022075424 0.04646441 4283926558
0.026097436 0.023519944 0.044546913 4283861279
0.02847914 0.022371173 0.045565069 4283667479
0.031093881 0.020575298 0.047313515 4283799824
0.033274528 0.020076204 0.047594171 4283924774
0.035915893 0.018282479 0.049336564 4283991328
0.038112491 0.017784726 0.049613632 4284056353
0.040547423 0.016640276 0.050619777 4284121888
0.04205019 0.01808445 0.048705053 4284056098
0.044018969 0.018234404 0.048250847 4284056099
0.045023616 0.02097051 0.044883192 4283993623
0.046494268 0.022412395 0.042976066 4283928089
0.048446879 0.022561304 0.042525735 4283861278
0.051893491 0.018834794 0.046434641 4283926558
0.056378681 0.012527931 0.053239927 4283992094
0.061934415 0.0036431551 0.062934212 4283992348
0.021167828 0.018209899 0.048394669 4284053548
0.022277266 0.020962061 0.045008902 4284123164
0.02336541 0.02371267 0.0416281 4283925284
0.025299618 0.023859495 0.041181501 4283792684
0.027453363 0.023355996 0.041466665 4283793448
0.030278917 0.020902567 0.043943811 4283794978
0.032900967 0.019100726 0.045685675 4283925793
0.035766479 0.016650427 0.048153736 4283990819
0.037732635 0.016799998 0.047699999 4284056353
0.03900028 0.018897675 0.04506046 4284122144
0.040251918 0.020994158 0.042424701 4284122143
0.042201973 0.021142701 0.041974828 4283924773
0.043670341 0.022588793 0.040071446 4283925029
0.045614958 0.022737049 0.039622921 4283925794
0.047559507 0.022885364 0.039174467 4283926049
0.051743265 0.017200604 0.045250442 4283926559
0.056477837 0.010223694 0.052764088 4283991074
0.062541574 1.277402e-05 0.063882761 4284056608
0.019350616 0.021813937 0.041357849 4284186659
0.021073401 0.022613782 0.040179253 4283993624
0.022576906 0.024066249 0.038270615 4283928089
0.024286414 0.024865221 0.037095182 4283796254
0.026429206 0.024358734 0.037381183 4283993879
0.029243227 0.021895604 0.039854433 4283993368
0.032078546 0.019434206 0.042322781 4283990819
0.03493518 0.016974453 0.044786301 4283990564
0.036893263 0.017123416 0.04433443 4283991074
0.037920829 0.019878671 0.040974565 4283925538
0.038927056 0.022632325 0.037619706 4283861533
0.041101664 0.022128722 0.037898712 4283797529
0.043522164 0.020974645 0.038901709 4283796254
0.04595327 0.019821404 0.039902356 4283990819
0.048394948 0.018669073 0.040900566 4284056608
0.052338853 0.013615575 0.046236385 4284121888
0.057832897 0.0046645999 0.055898711 4284121889
0.064925015 -0.0081801824 0.069876499 4284121889
0.015539438 0.019259702 0.041820064 4283854903
0.016447127 0.022685369 0.037714899 4283990308
0.018370448 0.022831157 0.037270654 4284055844
0.020504907 0.022321634 0.037556775 4283990818
0.022217179 0.023122946 0.036382303 4283991329
0.023924131 0.02392395 0.035209056 4283991838
0.026283082 0.022760231 0.036222607 4283992094
0.028874444 0.020942867 0.037961569 4283991074
0.031481799 0.019126749 0.039696939 4283990819
0.033878017 0.017966103 0.040701993 4284056354
0.035825364 0.018114261 0.040252611 4283991584
0.036610581 0.021531308 0.036176231 4283925539
0.038074382 0.022985695 0.034280468 4283860258
0.040240724 0.022479266 0.03455973 4283861278
0.043373987 0.019360689 0.037732117 4283797529
0.04604768 0.017550092 0.039452534 4283990563
0.049228758 0.014435295 0.042613994 4284056353
0.054175224 0.0067547448 0.050821483 4284122144
0.060691897 -0.0048348755 0.063340917 4284121888
0.068319291 -0.019025706 0.078720368 4284056099
0.01385707 0.016189203 0.042564884 4283722049
0.014175531 0.021601863 0.036271654 4283923754
0.015479326 0.023721334 0.033638146 4283404828
0.017808391 0.022550721 0.034655046 4283732504
0.020148152 0.021380955 0.035669576 4283926303
0.022285011 0.020869477 0.035953537 4283990564
0.023994757 0.021672852 0.034781344 4284056099
0.026136976 0.021161931 0.035064176 4284055843
0.028506093 0.01999471 0.036072094 4284056098
0.030885868 0.018828325 0.037077647 4284056098
0.032822497 0.018975608 0.036630694 4284056099
0.034759104 0.019122951 0.036183789 4283992603
0.035766814 0.021894276 0.032841709 4283926814
0.037222937 0.023352517 0.030950977 4283792683
0.039618552 0.02218768 0.03195313 4283858474
0.042985596 0.018402295 0.035840724 4283859493
0.046870299 0.013309058 0.041163739 4283926049
0.050797548 0.0082191378 0.046476997 4283990818
0.056504723 -0.001450751 0.056821339 4283990308
0.063546017 -0.014387242 0.07074488 4283990053
0.011709876 0.021184057 0.034101006 4283924263
0.012814078 0.023970712 0.030742655 4283794723
0.014513165 0.024775185 0.029574355 4283728934
0.01703912 0.022939336 0.031318262 4283798803
0.019791808 0.020444926 0.033785682 4283928088
0.022352468 0.018611815 0.035521731 4283925283
0.024497055 0.018098794 0.035802305 4284056098
0.026428286 0.018245451 0.035356436 4284056098
0.028138161 0.019051176 0.034185972 4284056353
0.029842705 0.019856559 0.033016786 4284056353
0.031768594 0.020003034 0.032572318 4283990308
0.033694465 0.020149566 0.032127898 4283925283
0.034924254 0.022270747 0.029516907 4283994644
0.036372721 0.023732763 0.027631288 4283927323
0.038759843 0.022562955 0.02863208 4283927323
0.042837616 0.016790953 0.034673039 4283993114
0.047448613 0.0097079426 0.042142492 4283992094
0.052854128 0.0006579496 0.051755935 4283991328
0.059574138 -0.011671163 0.064944901 4284055844
0.066395245 -0.023992434 0.078110576 4283990053
0.0094531253 0.0201132 0.032663058 4284120104
0.010565981 0.022909202 0.029309241 4283993879
0.011860102 0.025041062 0.026687751 4283793449
0.013548646 0.025846923 0.025523527 4283793449
0.015855417 0.024665829 0.026538974 4283859239
0.018804392 0.021499544 0.02972859 4283926304
0.021566868 0.018997176 0.032187205 4283925793
0.024134841 0.017158102 0.033916671 4284056354
0.026063319 0.017304543 0.033471435 4284056353
0.027328324 0.019434702 0.030857051 4284056354
0.028801173 0.020902684 0.028968891 4284056609
0.030942805 0.020387547 0.029248727 4283991073
0.033089742 0.019872891 0.029527398 4283990818
0.034778357 0.020679478 0.028363703 4283925029
0.036227144 0.022145921 0.026481314 4283926048
0.038850915 0.020311717 0.0281983 4283925793
0.042689636 0.015179813 0.033505503 4283925283
0.048753116 0.0041149743 0.045266308 4283990563
0.055152204 -0.007602267 0.057723813 4283990308
0.062390454 -0.021289617 0.072310045 4284055844
0.0062513128 0.015574988 0.035309736 4283853373
0.006813731 0.020378394 0.029772012 4284119338
0.0083238818 0.021852847 0.027877973 4283990309
0.0096237846 0.023991644 0.025260026 4283926813
0.010907758 0.026129304 0.022645811 4283928598
0.01279074 0.026271934 0.02221081 4283993368
0.015296679 0.024421336 0.02394948 4283993624
0.018028926 0.021907806 0.026408421 4283992603
0.020782515 0.019395979 0.028862497 4284056099
0.02334179 0.017549694 0.030588975 4284056099
0.025262184 0.017695531 0.03014561 4284056609
0.026298761 0.020495113 0.026816441 4283925538
0.027761271 0.021966703 0.02493397 4283928344
0.030344531 0.020122498 0.026655177 4283796254
0.032943737 0.018279623 0.028372722 4283797018
0.034864079 0.018425832 0.027929651 4283925029
0.036550112 0.019234501 0.026768258 4284056353
0.03941546 0.016731847 0.02919705 4284121888
0.044458464 0.0082729086 0.038075443 4284056098
0.051266484 -0.0048132204 0.051953759 4284056098
0.0584259 -0.018552773 0.066523544 4283990308
0.06445913 -0.028976731 0.077490993 4283989288
0.0045747384 0.019322678 0.028340323 4284053039
0.0060877725 0.020801693 0.026448807 4283924519
0.0077870265 0.021612501 0.02528522 4283924774
0.0092815682 0.02309023 0.023398135 4283991074
0.0105634 0.025234303 0.020789353 4283991329
0.012648392 0.02470988 0.021078523 4283990819
0.014946204 0.023519276 0.022089483 4283991074
0.017464783 0.021663155 0.023820287 4284055844
0.019786622 0.020474523 0.02482581 4284055844
0.02211912 0.019286815 0.025828881 4284056099
0.024244199 0.018765811 0.026109083 4284057118
0.02571235 0.020242151 0.024228552 4283925538
0.027393263 0.021052331 0.023069771 4283926304
0.029747069 0.019866547 0.024068149 4283925284
0.032797746 0.016686577 0.02721821 4283797273
0.035412222 0.014838323 0.028927388 4283990819
0.03780856 0.013656013 0.029916132 4284056098
0.041399188 0.0091524906 0.034483392 4284121634
0.047181614 -0.0013259239 0.04548214 4284121634
0.054501571 -0.015781835 0.060750999 4284121379
0.06047029 -0.026245922 0.071706958 4284121124
0.0023417771 0.018272132 0.026910787 4284053803
0.0032839291 0.021765845 0.02284673 4283993623
0.0053630769 0.021238428 0.023135412 4283795999
0.0074476078 0.020711534 0.023422858 4283731229
0.009338282 0.020854568 0.022985945 4283926559
0.010825194 0.022336213 0.021103924 4283990818
0.012915231 0.021809926 0.021390321 4284056098
0.015217856 0.020615332 0.022396818 4284121888
0.017321274 0.020090254 0.022680191 4284122144
0.019217484 0.020234097 0.022242293 4284056098
0.021113716 0.02037802 0.021804448 4284122144
0.022792073 0.021190049 0.02064779 4283992858
0.024465106 0.022001756 0.019492425 4283861533
0.026356019 0.02214551 0.019055981 4283858984
0.028924566 0.020287035 0.020770714 4283858218
0.03196615 0.017095413 0.02391463 4283925284
0.035265539 0.013238873 0.027768264 4283991074
0.039064594 0.0080511793 0.033044986 4283990818
0.043852333 0.00020037219 0.041170217 4284055844
0.050378293 -0.012310419 0.054278512 4284120868
0.05652168 -0.023480996 0.065936886 4284120868
0.061043892 -0.029982507 0.072585315 4284054569
0.064630568 -0.033816688 0.0763731 4283657024
0.00048632175 0.015881456 0.0269327 4283853373
0.0012568831 0.020059764 0.022148892 4284120614
0.002568759 0.022218892 0.019542847 4283926304
0.0046396032 0.021688676 0.019831738 4283729444
0.0069122352 0.020487102 0.020841628 4283732759
0.0089965463 0.019958021 0.021127574 4283925284
0.011086226 0.019429473 0.021412294 4283990818
0.013385646 0.018230155 0.022416169 4284056353
0.015281703 0.018373825 0.021978185 4284122144
0.016968094 0.019188423 0.020821143 4284121888
0.018649194 0.020002699 0.019665383 4284056098
0.020324979 0.020816645 0.01851091 4284056099
0.02199544 0.021630308 0.017357675 4283990819
0.023660593 0.022443606 0.016205773 4283994643
0.025543423 0.022586748 0.015771203 4283993114
0.028103277 0.020721039 0.017482998 4283993369
0.031135764 0.017517764 0.020620788 4284058393
0.035349865 0.010970425 0.027323494 4283991074
0.040551852 0.0017510988 0.036868345 4284121889
0.046537355 -0.009468969 0.048535004 4284055843
0.052374337 -0.020013392 0.059468463 4284121124
0.057329871 -0.027877592 0.0675354 4284054823
0.06112764 -0.032395698 0.07203199 4283657789
-0.0011409111 0.019703781 0.020005144 4284186149
0.00017403439 0.021869654 0.017403202 4284059923
0.0016639605 0.023359917 0.015526865 4283728424
0.0035303496 0.023500934 0.015095429 4283792174
0.0061815307 0.02094575 0.017546423 4283727403
0.0086552314 0.019066161 0.019272523 4283860768
0.010943469 0.017861474 0.020275662 4283925283
0.013038218 0.017331183 0.020557616 4284056354
0.014517859 0.018821152 0.018684017 4284056353
0.01598686 0.020310434 0.016812889 4284055844
0.017445249 0.02179894 0.014944308 4283991329
0.019537468 0.021268781 0.015227091 4283991074
0.021417536 0.021411555 0.014793035 4283858983
0.023077464 0.022226652 0.013643987 4283990564
0.024954874 0.02236939 0.013210673 4284056609
0.02773417 0.019824803 0.015632741 4284122144
0.031447284 0.014595371 0.020902785 4284122144
0.03658779 0.0053405799 0.030438704 4284056098
0.042503215 -0.0059221834 0.042093463 4284056098
0.048509132 -0.017177954 0.053727418 4284121379
0.05317279 -0.024401724 0.061075985 4283856433
0.05717063 -0.029609069 0.066280723 4283591488
0.060722768 -0.03347221 0.070056632 4283590469
-0.00053076446 0.022348082 0.014115393 4284512803
0.00076080859 0.024518834 0.011523847 4283862809
0.0028097667 0.023982553 0.011814484 4283795488
0.0054520592 0.021417907 0.014260931 4283795998
0.0081157237 0.01885497 0.016702509 4283992349
0.01039812 0.017645489 0.017703652 4284056354
0.012487259 0.017112534 0.017985294 4284056609
0.013755228 0.019282 0.015399575 4284056609
0.015216567 0.020775037 0.013533553 4283991328
0.0164553 0.022942448 0.010954708 4283928089
0.01918043 0.020384645 0.013382446 4283797019
0.021492299 0.019177902 0.01437716 4283796763
0.023814835 0.017972006 0.015369512 4283858728
0.025257574 0.019464077 0.013508042 4284122144
0.028266557 0.016237017 0.016634727 4284121888
0.032669764 0.0089689195 0.024025066 4284187424
0.038745698 -0.0030101761 0.036378931 4284187424
0.04468419 -0.014308408 0.048000336 4284121634
0.05000541 -0.023579948 0.057471648 4284120614
0.053731043 -0.028134435 0.061961755 4283658298
0.057735138 -0.033358827 0.067151889 4283525188
-0.00014069304 0.025695657 0.007533805 4284510509
0.0020904429 0.024477625 0.008543361 4284118829
0.0047238432 0.02190352 0.010985263 4284054314
0.0075770579 0.018652854 0.014139067 4284185384
0.0096525177 0.018116614 0.014422104 4284186658
0.011529595 0.018258736 0.01398842 4284056608
0.01278742 0.020434 0.011409979 4284057628
0.014238395 0.021930629 0.0095496364 4283925028
0.015466988 0.024103854 0.0069780792 4283794724
0.01818056 0.021536404 0.0094018988 4283860768
0.020915443 0.018970657 0.011820858 4283863575
0.02345188 0.017083321 0.013523076 4283924774
0.025559492 0.01655015 0.013799239 4284056353
0.029698037 0.0099311285 0.020469867 4284121633
0.035483941 -0.0014161952 0.032098401 4284121633
0.042051524 -0.014784098 0.045834295 4284186914
0.04686112 -0.022738539 0.053875394 4284186914
0.050555989 -0.027310804 0.058361009 4283590724
0.010777131 0.018742761 0.010718465 4284251173
0.012233704 0.020244112 0.0088600535 4284058139
0.013888549 0.021065066 0.0077168704 4283665693
0.015114985 0.023244692 0.0051507442 4283661358
0.017824981 0.020668203 0.0075687985 4283792174
0.020339405 0.018772526 0.0092710946 4283924774
0.023747988 0.014162596 0.013810841 4283991074
0.026749428 0.010912962 0.01692275 4283990564
0.031801291 0.0015591905 0.02640984 4284055588
0.038292855 -0.011858422 0.040130284 4284055588
0.043970138 -0.022555605 0.050995059 4284120868
0.047869749 -0.027823284 0.056182757 4284054314
0.051105358 -0.031054646 0.05924096 4283657024
0.011474792 0.020745413 0.0056049298 4283923243
0.012913059 0.022249844 0.0037541059 4283795999
0.014340691 0.023753587 0.0019057491 4283601688
0.016613767 0.022530615 0.0028995178 4283729953
0.019764204 0.018583426 0.0067279455 4283927834
0.024043296 0.011233341 0.01409236 4283991328
0.028602967 0.0032068752 0.02215139 4283990563
0.034574512 -0.0088986941 0.034440313 4283990053
0.040641885 -0.020996884 0.046707191 4284055334
0.044965159 -0.027645484 0.053302418 4284053804
0.047713093 -0.029529467 0.054946341 4283723578
0.05071225 -0.032091953 0.057291582 4283590468
0.013989944 0.022908155 8.836342e-05 4283990054
0.016473662 0.020996874 0.0017878511 4284056354
0.020272218 0.014985945 0.0077297459 4284056353
0.025433522 0.004879009 0.017902985 4284056099
0.031118292 -0.0065879561 0.029470781 4283990308
0.036893565 -0.018047914 0.041017696 4284055588
0.041623723 -0.026087508 0.04901778 4283856433
0.04503902 -0.030027241 0.052775558 4283591234
0.013850573 0.021381285 -0.0010183528 4283857964
0.016760796 0.018091593 0.0020897244 4283924264
0.021211576 0.010004088 0.010134259 4283990053
0.027039867 -0.002191443 0.022396864 4283990053
0.033407182 -0.015750162 0.03604709 4284055334
0.038535409 -0.02519016 0.045447439 4284055334
0.042376634 -0.030515045 0.050608974 4284054059
0.045342084 -0.033097848 0.052948743 4283590214
0.029517934 -0.012047719 0.029680749 4282083163
0.039053753 -0.028930932 0.046338625 4283198023
0.04290121 -0.034272835 0.05148552 4283394374
0.045736674 -0.060654037 0.044971243 4283853373
0.045578357 -0.06237781 0.043722086 4283592253
0.049727492 -0.068637133 0.049376469 4282741063
0.045193315 -0.063385725 0.041792531 4283590469
0.049337808 -0.069665015 0.047433171 4282804814
0.017077141 -0.053167306 0.0075109 4283590469
0.010132574 -0.05627013 0.0033296156 4283197003
0.0099851489 -0.057894386 0.0021520662 4282804303
0.012145743 -0.058494456 0.0023627314 4282541908
0.0071153417 -0.056662284 -0.0012296778 4283525953
0.0096459202 -0.05876746 0.00031060679 4282674254
0.011997998 -0.060120635 0.0011838297 4282476629
0.0048277602 -0.057670996 -0.0026121479 4283590468
0.0071579218 -0.059030451 -0.0017373306 4283066189
0.0091154799 -0.058882691 -0.0021899533 4282673744
0.011655975 -0.06099356 -0.00065679196 4282149974
0.0043498427 -0.060137488 -0.0056105005 4282738259
-0.0039536916 -0.052298009 -0.01401544 4284311098
-0.0013176538 -0.055196047 -0.011817612 4282412878
0.0013396926 -0.058092371 -0.0096246237 4282215509
0.0038326196 -0.06022685 -0.0080954256 4282345558
-0.0040963553 -0.053878695 -0.015161626 4283723324
-0.0021821856 -0.05373475 -0.015604626 4282542163
0.00064647943 -0.057403132 -0.012757502 4282345558
0.0031306855 -0.059544809 -0.011231204 4281887834
-0.007026542 -0.051776469 -0.019155882 4284116024
-0.0042389967 -0.055459082 -0.016307604 4283002948
-0.0026850291 -0.053785414 -0.018064622 4282542163
-0.010958992 -0.045043863 -0.027083887 4283398198
-0.0073425211 -0.052578136 -0.020950397 4282090048
-0.0049131215 -0.054737389 -0.019421529 4282088008
-0.0031870604 -0.053826965 -0.020518094 4282476373
-0.013814174 -0.042878583 -0.031052362 4284117298
-0.011269759 -0.045818724 -0.028859772 4282547773
-0.007658083 -0.053375117 -0.022741525 4281893188
-0.005586043 -0.05400221 -0.022525741 4282216018
-0.012770377 -0.049817793 -0.027581375 4282872388
-0.01055127 -0.051221214 -0.026707612 4282414664
-0.0077990778 -0.054939285 -0.023875782 4282219080
-0.0094921701 -0.058193825 -0.023266122 4282935374
-0.0072443262 -0.059599333 -0.022402186 4282478414
0.014554225 0.017101429 0.00069794292 4279719569
0.017900789 0.012425292 0.0052057453 4280375683
0.023013234 0.0022487976 0.01534088 4280637824
0.015256282 0.012804169 0.0024016262 4280503949
0.019464819 0.0053521544 0.0097097903 4279259804
0.025243022 -0.006926138 0.021924652 4278998429
0.031117059 -0.019197047 0.034117457 4279195034
0.035980947 -0.028012052 0.042779982 4280245123
0.013252273 0.011119127 0.0017129541 4282337653
0.016377453 0.0071041137 0.0054977122 4279521434
0.021451656 -0.0031410642 0.015592195 4278997918
0.027252734 -0.015457027 0.027772164 4279063454
0.03227631 -0.024997167 0.037127428 4279391638
0.036269452 -0.031071976 0.042965323 4281751663
0.018757109 -0.0027917251 0.012780292 4282075258
0.023860112 -0.013067562 0.022843458 4279783064
0.028396575 -0.021253698 0.030789239 4279652759
0.032342523 -0.027351856 0.036623102 4281160319
0.036557183 -0.03414046 0.043144509 4282275943
0.021131948 -0.012740169 0.020024676 4282075769
0.025413334 -0.020258978 0.027261769 4281878908
0.029107472 -0.025683001 0.032391116 4280897923
0.032844208 -0.03110373 0.037510753 4281684854
0.026326153 -0.02538798 0.02956341 4282273393
0.029601736 -0.029430799 0.033283975 4281553528
0.033126995 -0.03416983 0.037693165 4281554039
0.037350662 -0.041001491 0.044179566 4282012784
0.026812578 -0.02913601 0.030458266 4282470253
0.030094821 -0.033191495 0.034167476 4281749879
0.033626504 -0.037945323 0.038563631 4281750389
0.037415639 -0.04339698 0.043644957 4282144109
0.024668919 -0.03093762 0.029722249 4282274413
0.02729783 -0.032897033 0.03134378 4281487994
0.030586706 -0.036965095 0.035041567 4280438924
0.03412484 -0.041733794 0.039424762 4281356414
0.037480235 -0.045796588 0.043107349 4282340459
0.024727479 -0.033293672 0.029219178 4282078063
0.027993705 -0.037376694 0.032912247 4281815924
0.031291872 -0.041457191 0.036598012 4281684599
0.03462198 -0.045535132 0.040276505 4281619064
0.037324678 -0.047495157 0.041876331 4282994024
0.021756325 -0.03226354 0.025714835 4282601578
0.024994584 -0.036361918 0.029404411 4282208879
0.0284764 -0.041165747 0.033777438 4282077808
0.031781208 -0.04525885 0.037451826 4282208623
0.019215222 -0.032635204 0.023600483 4282928998
0.022224752 -0.036038019 0.026595006 4282208879
0.025260922 -0.03943868 0.029583475 4282143599
0.028746508 -0.044257522 0.033944141 4282012528
-0.040253617 0.023171531 -0.026447885 4279848343
-0.038645215 0.024019377 -0.0275575 4281025933
0.019269226 -0.034986325 0.023102431 4282339949
0.02228028 -0.038399957 0.026088392 4281947249
0.025735026 -0.043236516 0.030444553 4282078063
0.028804652 -0.04664547 0.033417158 4282405484
-0.042811863 0.015698489 -0.021057362 4282667623
-0.042542778 0.023751726 -0.029203178 4278865065
-0.039625667 0.026889982 -0.032819401 4278337978
-0.03760466 0.025579857 -0.031818517 4278796723
-0.035572894 0.024270667 -0.030820105 4279912604
-0.033530332 0.022962319 -0.029824095 4278797744
-0.031781986 0.023092823 -0.03022944 4279707328
0.016537268 -0.034630276 0.020306269 4281881459
0.019728869 -0.038771801 0.023976872 4281750389
0.022746764 -0.042195849 0.026953047 4281881459
0.025791282 -0.045617737 0.029923161 4282143598
-0.044279546 0.021456594 -0.029143674 4279652248
-0.041902348 0.027493088 -0.035560999 4278863788
-0.040178657 0.027621353 -0.035960924 4278929069
-0.036436811 0.026435101 -0.035362527 4278732974
-0.034108758 0.023678655 -0.032969669 4279193249
-0.032368504 0.023808522 -0.033373166 4279193503
-0.030318193 0.022496594 -0.032382153 4280633744
-0.028414719 0.021906273 -0.032090139 4282657168
0.01382282 -0.034259357 0.017516229 4282994534
0.0165888 -0.03698092 0.019809201 4282077808
0.019781729 -0.041135453 0.023469659 4281815668
0.022801138 -0.044570312 0.02643727 4282012273
0.025639037 -0.047286086 0.028713884 4282470508
-0.045890674 0.018432127 -0.028384712 4280504458
-0.043616794 0.025212893 -0.035496701 4278865319
-0.04202956 0.026065538 -0.036596611 4278735268
-0.040447466 0.026917946 -0.037695304 4278604198
-0.038726382 0.027046081 -0.038094576 4278865319
-0.036858343 0.026450532 -0.037796296 4278471599
-0.034835406 0.025131973 -0.036802374 4278602923
-0.032801673 0.023814293 -0.035810836 4278538409
-0.031066716 0.023943825 -0.036213059 4278800549
-0.02901677 0.022627579 -0.035225183 4278865828
-0.027436309 0.023480473 -0.036322959 4279389598
-0.025372818 0.022165434 -0.035338074 4278272954
0.010347366 -0.030992962 0.011986675 4282470764
0.013674982 -0.035885543 0.016337359 4282012273
0.016839944 -0.040055461 0.019994387 4281881203
0.020036845 -0.044222809 0.023644069 4282143088
-0.047768764 0.016853224 -0.029029915 4282274159
-0.047064751 0.022800067 -0.035032921 4278538409
-0.042572603 0.026817907 -0.039725315 4278996389
-0.040998399 0.027671836 -0.040820513 4279192739
-0.037132449 0.025749128 -0.039527643 4278273973
-0.035261914 0.025151642 -0.039231528 4278996134
-0.033537827 0.025280261 -0.039631307 4278603433
-0.031659052 0.02468363 -0.039337005 4278275758
-0.030089252 0.0255378 -0.040430754 4278603178
-0.026477627 0.025071017 -0.040537823 4279190444
-0.024419859 0.023751257 -0.039554842 4279977629
-0.022351325 0.022432359 -0.038574226 4280566933
0.0076794103 -0.030582681 0.0092128161 4282470253
0.010784402 -0.034770466 0.012873614 4281946483
0.014118478 -0.039677888 0.017211372 4281815668
0.017090306 -0.043138437 0.02017338 4281750388
0.020088768 -0.046596847 0.023129323 4281946739
-0.048153006 0.016863447 -0.031478412 4279849619
-0.047322378 0.02209807 -0.036769383 4278735014
-0.045863144 0.023684405 -0.038564801 4278604199
-0.037552483 0.025780482 -0.041949879 4278799784
-0.035836644 0.02590836 -0.042347837 4278734504
-0.034120657 0.026036346 -0.042745758 4278537898
-0.032404527 0.026164437 -0.043143641 4278471853
-0.023151338 0.023900248 -0.042374872 4278993838
-0.021253541 0.023303431 -0.042086184 4279389343
-0.01883141 0.02052862 -0.039734203 4278733738
-0.015509792 0.014125694 -0.033949427 4278470579
-0.005465731 -0.011729166 -0.010059433 4280757418
-0.00085083395 -0.022469513 -0.00020463299 4280231608
0.0019812882 -0.025952116 0.0027810321 4282859893
0.0048400685 -0.029432617 0.0057606087 4281225854
0.0077254996 -0.032910965 0.0087341163 4280439434
0.01102607 -0.037836336 0.013068033 4281291388
0.014363896 -0.042758748 0.017393379 4281750389
0.017140348 -0.045505755 0.019664226 4282143344
0.044493001 -0.067825325 0.037376113 4282406504
0.047942534 -0.071998507 0.040948756 4282078319
-0.0478983 0.013224036 -0.030435171 4280504204
-0.04692819 0.017743081 -0.035020426 4278735524
-0.045590982 0.020065883 -0.037510902 4279128479
-0.044405103 0.023118755 -0.040692817 4278866083
-0.043102041 0.025439173 -0.04317518 4279193504
-0.041532986 0.026297087 -0.044265982 4278996643
-0.039825521 0.026424134 -0.044662151 4278538409
-0.037971698 0.025820885 -0.044365555 4278669224
-0.036261283 0.025948342 -0.044762269 4278668714
-0.034550712 0.026075907 -0.045158949 4278472108
-0.032840021 0.026203565 -0.045555592 4278340274
-0.029577717 0.027188612 -0.047038406 4278735013
-0.027707145 0.026587207 -0.046745244 4278538154
-0.023614816 0.023928506 -0.044787005 4278799274
-0.021552533 0.022600465 -0.043811463 4278406063
-0.018961214 0.019088287 -0.040778682 4278865319
-0.01529064 0.011209242 -0.033636373 4278930853
-0.010136791 -0.002489049 -0.021024885 4278930853
-0.0047011152 -0.016907327 -0.0077520539 4278930853
-0.000626266 -0.025496989 2.3467932e-05 4279193503
0.0022100434 -0.028990261 0.0029999916 4280635274
0.0050730109 -0.032481357 0.0059703994 4281422459
0.0085367486 -0.038151182 0.010981465 4281160573
0.011655029 -0.042364232 0.014619533 4280504969
0.014608562 -0.045848131 0.017569272 4281815923
0.016791314 -0.046424471 0.017791303 4283190118
0.044109255 -0.068818741 0.035457071 4282078574
0.047326155 -0.072281167 0.038347114 4282143854
-0.047007591 0.0059020817 -0.025924154 4279980433
-0.046015188 0.010435853 -0.030504765 4279128989
-0.044789001 0.013500314 -0.033689577 4278407849
-0.043583877 0.01656333 -0.036869414 4278538664
-0.042537853 0.020357978 -0.04073726 4278800549
-0.040955447 0.021219047 -0.041829538 4278735524
-0.039664865 0.023545243 -0.044303969 4278669479
-0.038244076 0.025137873 -0.046083584 4278538409
-0.036685087 0.025997439 -0.04717017 4278931364
-0.034828641 0.025392426 -0.04687573 4278537898
-0.031569295 0.026379155 -0.048356358 4278537134
-0.030182347 0.027969697 -0.050127722 4278866084
-0.028320067 0.027365522 -0.049834337 4278603944
-0.026287757 0.026030695 -0.048855338 4278472363
-0.024077453 0.023965782 -0.047192525 4278274739
-0.021681167 0.021171432 -0.044847783 4278406318
-0.018573239 0.015456531 -0.039768059 4278406318
-0.014196075 0.0046324395 -0.029907724 4278537388
-0.0086717606 -0.01056651 -0.015963409 4278407083
-0.0039384477 -0.022107176 -0.0054603992 4278538153
-0.00058564544 -0.027803242 -0.00043703197 4279062688
0.0022521801 -0.031307288 0.0025308891 4281160829
0.0053051785 -0.035538539 0.0061740032 4281619574
0.0085813329 -0.040496476 0.010490499 4281619573
0.011507083 -0.04399351 0.013438364 4281684343
0.040762495 -0.067058355 0.031326 4281160573
0.043951668 -0.070533939 0.034214143 4281815924
0.047167405 -0.074007362 0.037096266 4282143599
-0.046628855 0.0014897324 -0.024213826 4282077554
-0.045365028 0.0045655966 -0.027400907 4279260058
-0.044122249 0.0076400079 -0.030583018 4278997663
-0.042900525 0.010712955 -0.033760179 4278669988
-0.041699871 0.01378442 -0.036932375 4278670754
-0.040239282 0.015384112 -0.038718075 4278473129
-0.039075471 0.018453032 -0.04188158 4278735268
-0.037786946 0.020785747 -0.044350598 4278800804
-0.036662661 0.023851929 -0.047504775 4278866084
-0.035106108 0.024713574 -0.048589099 4278997154
-0.020961173 0.016077872 -0.042464007 4278668968
-0.016979784 0.0066825785 -0.033983257 4278734503
-0.012054052 -0.006370198 -0.022104684 4278866084
-0.0072102547 -0.018683299 -0.010930383 4278866084
-0.0033580773 -0.026596576 -0.0038659978 4279260313
-0.00036238879 -0.030845515 -0.00021965988 4280898689
0.0026652813 -0.035091899 0.003419382 4281357688
0.0057249218 -0.039335825 0.0070511489 4281554294
0.0090074986 -0.044308499 0.011354638 4281554293
0.037664868 -0.066002645 0.027877277 4282471273
0.040606096 -0.068762235 0.030091235 4281750389
0.043568578 -0.071520098 0.032300372 4281684598
0.046780489 -0.075004742 0.03517516 4282405228
-0.04650569 -0.0014632531 -0.023900576 4281553529
-0.045235895 0.0016217642 -0.027082499 4278866849
-0.043590136 0.0024915189 -0.028186416 4278801568
-0.041949473 0.0033609979 -0.029289069 4278801313
-0.040864587 0.007180322 -0.033149578 4278735523
-0.039244823 0.0080484338 -0.034247234 4278604963
-0.038202062 0.011864875 -0.038097858 4278277034
-0.036047496 0.018755311 -0.045093115 4278538663
-0.034779429 0.02109319 -0.047552288 4278866593
-0.033680782 0.024166359 -0.05069384 4278931618
-0.032134511 0.025029594 -0.051774006 4278800294
-0.03091123 0.027364464 -0.054222621 4278603178
-0.028896011 0.026019454 -0.053246278 4278341295
-0.026870042 0.02467539 -0.052272391 4278734503
-0.023832165 0.018920079 -0.047202855 4278734759
-0.020073585 0.01022749 -0.039413586 4278603689
-0.014873721 -0.0043399297 -0.026184795 4278603689
-0.010091987 -0.016694903 -0.015024075 4278538408
-0.0062847398 -0.02463571 -0.007967432 4278997918
-0.0033196956 -0.028900169 -0.0043239258 4280701573
-0.00050549209 -0.032427944 -0.0013670381 4281553784
0.0025208369 -0.03668756 0.0022624596 4281554038
0.0055791363 -0.040944673 0.0058846972 4281554294
0.008669395 -0.045199223 0.009499589 4281619828
0.037949506 -0.069160104 0.027990533 4281881968
0.040672403 -0.071196929 0.029526783 4281751154
0.043636575 -0.073963374 0.031728987 4282209644
-0.046510108 -0.003684245 -0.024284145 4280832899
-0.045107484 -0.0013306402 -0.026770247 4278997153
-0.043456338 -0.00045828521 -0.027873835 4279128733
-0.041945115 0.0011536591 -0.029664913 4278867103
-0.040444314 0.0027649403 -0.031453487 4278801568
-0.038813889 0.0036360435 -0.032552049 4278997918
-0.037331358 0.0052461587 -0.034336239 4278997663
-0.036150143 0.0083338954 -0.037490617 4278932128
-0.035138093 0.012159087 -0.041325744 4278408104
-0.034152441 0.015982412 -0.045154672 4278276779
-0.033039838 0.019065337 -0.048292916 4278407849
-0.031948343 0.022146793 -0.051426183 4279194268
-0.030560583 0.023750437 -0.05318794 4278932129
-0.028699264 0.02313959 -0.05289929 4278669734
-0.026176475 0.019578239 -0.049883705 4278473129
-0.02279368 0.012331244 -0.043467168 4278407594
-0.018003084 -0.00081049651 -0.031616509 4278407594
-0.012944739 -0.014682099 -0.019107778 4278472874
-0.0090077966 -0.02338735 -0.011379295 4278538409
-0.0064253397 -0.026193641 -0.0090971235 4280833153
-0.0036415868 -0.029734768 -0.0061414875 4281291899
-0.00064855814 -0.03401009 -0.0025142082 4281422713
0.0023764297 -0.038282901 0.0011057607 4281619318
0.0054333955 -0.042553239 0.0047184569 4281946739
0.035304669 -0.069547847 0.025893977 4282471273
0.038013533 -0.071592465 0.027428502 4281947504
0.040738329 -0.073635668 0.028959414 4282405739
-0.046261542 -0.0073948093 -0.023292588 4281946738
-0.045109101 -0.0035489909 -0.027152644 4279456663
-0.043455213 -0.0026743226 -0.028255207 4279063198
-0.041941069 -0.0010577776 -0.030043745 4279128733
-0.040300108 -0.0001838766 -0.031143161 4278932383
-0.038664281 0.00068975613 -0.0322413 4279063198
-0.03703361 0.0015631095 -0.03333817 4278932383
-0.035698548 0.0039188713 -0.035803277 4278932383
-0.034527145 0.0070146769 -0.038948767 4278735523
-0.033226304 0.0093680881 -0.04140579 4278342824
-0.03194125 0.011720382 -0.043859024 4278408104
-0.029894069 0.018642835 -0.050799321 4278342059
-0.028342098 0.019511029 -0.051877398 4278343079
-0.025484838 0.014459398 -0.047510762 4278604453
-0.021258533 0.0034926496 -0.037714135 4278669988
-0.015937664 -0.01190532 -0.023860659 4278669733
-0.011707589 -0.022119343 -0.0147831 4278669733
-0.0086241066 -0.027153596 -0.010468543 4279653268
-0.0062117055 -0.029229149 -0.0088719055 4281160829
-0.003603518 -0.032042123 -0.0066021625 4281291899
-0.00079158694 -0.035591938 -0.0036611655 4281357178
0.0022320598 -0.039877959 -5.0728209e-05 4281881459
0.031814408 -0.066981003 0.021126606 4282668134
0.034932509 -0.070506006 0.023998091 4282012784
0.037857577 -0.073293142 0.026196012 4281816434
0.040581606 -0.075342976 0.027722171 4282602598
-0.046393439 -0.0088835247 -0.024372796 4282209644
-0.045240156 -0.0050267726 -0.028224885 4279980943
-0.043454431 -0.0048944317 -0.028639615 4279522199
-0.042071782 -0.0025290363 -0.031111179 4278669733
-0.040293679 -0.0023970716 -0.031523995 4278735523
-0.038794853 -0.00077715889 -0.033305522 4279128733
-0.0371641 9.835884e-05 -0.034400783 4278997664
-0.035683557 0.0017171539 -0.036177956 4279063454
-0.03406579 0.0025919117 -0.037270054 4279063454
-0.032603517 0.0042094998 -0.039042797 4278932383
-0.030998752 0.0050835311 -0.04013177 4278866848
-0.029866107 0.0081854835 -0.043261487 4278866593
-0.028596275 0.010543372 -0.045706142 4278342314
-0.027181305 0.012157906 -0.047467638 4278538918
-0.023813426 0.0048659705 -0.041080479 4278735778
-0.019394733 -0.0068734847 -0.030636277 4278670498
-0.014384128 -0.020831712 -0.018178867 4278670498
-0.011159904 -0.026625246 -0.013191691 4279195289
-0.0085900314 -0.029450081 -0.010919815 4279784338
-0.0061757229 -0.031532012 -0.0093285963 4281094528
-0.0035658106 -0.034353592 -0.0070658163 4281488504
-0.00057014823 -0.03865499 -0.003458804 4281750643
0.028993119 -0.066600464 0.018374562 4282471784
0.031874694 -0.069399901 0.020575756 4282143599
0.034777537 -0.072197579 0.022772158 4282143598
-0.041934006 -0.0054930635 -0.03081036 4280112524
-0.040150724 -0.00536073 -0.031224389 4279129499
-0.03878586 -0.0029899217 -0.033686772 4279063198
-0.037010208 -0.002857957 -0.034098886 4279325339
-0.03552407 -0.001234442 -0.035874039 4278998429
-0.033900931 -0.0003570877 -0.03696581 4279128989
-0.0324331 0.0012652725 -0.038736571 4278997918
-0.030822948 0.0021418296 -0.039825123 4278932129
-0.029373422 0.0037630871 -0.041591518 4279063199
-0.028092504 0.0061283298 -0.044033829 4278735269
-0.02618435 0.0055143908 -0.043760989 4278866594
