# .PCD v0.7 - Point Cloud Data file format
VERSION 0.7
FIELDS x y z rgba
SIZE 4 4 4 4
TYPE F F F U
COUNT 1 1 1 1
WIDTH 977
HEIGHT 1
VIEWPOINT 0 0 0 1 0 0 0
POINTS 977
DATA ascii
-0.01367313 0.026068298 0.056339704 4283925538
-0.011336718 0.024935503 0.057322279 4283991074
-0.0091841482 0.024452288 0.057561561 4283991074
-0.0068289228 0.023321193 0.058539405 4284056608
-0.0020640343 0.014412351 0.068385892 4284056864
-0.036937587 0.021161098 0.062646605 4283852863
-0.035782345 0.024594497 0.058406189 4284120614
-0.034327976 0.026718615 0.055666849 4283991328
-0.032889232 0.02884151 0.052931517 4283858984
-0.031298175 0.030310007 0.050946057 4283857963
-0.029035144 0.029166175 0.051943734 4283924774
-0.026588075 0.027370619 0.053683154 4283925794
-0.023949057 0.02492404 0.056162253 4283990563
-0.022002809 0.025088176 0.055663586 4284056354
-0.020056352 0.025252391 0.055164903 4284056099
-0.018661164 0.027371984 0.052441016 4283990563
-0.016535848 0.026884122 0.052685402 4283990564
-0.014215969 0.025745425 0.053668842 4283990819
-0.012077097 0.025258819 0.053909846 4283925794
-0.010904752 0.028027099 0.0504544 4283861024
-0.0087682381 0.027540402 0.05069609 4283798293
-0.0054281689 0.023151632 0.055362456 4283795233
-0.037101753 0.019532043 0.061453611 4284119084
-0.036265045 0.024288315 0.055728808 4284121123
-0.034977809 0.027074317 0.052250065 4284059413
-0.033711486 0.029858604 0.048776716 4284059159
-0.031795189 0.030019954 0.048285522 4283927323
-0.029537931 0.028871179 0.049281344 4284058649
-0.026923887 0.026413696 0.051760033 4284124693
-0.024815448 0.025921926 0.05200693 4284056354
-0.022879839 0.02608512 0.051510945 4284056098
-0.020944037 0.026248386 0.05101496 4284056353
-0.01900807 0.026411714 0.050518967 4283991073
-0.016885683 0.02592138 0.0507624 4283990818
-0.014946736 0.026085077 0.050265744 4283990819
-0.013390683 0.027555466 0.048292875 4283926813
-0.012039199 0.029678069 0.045585379 4283794468
-0.010113023 0.029840861 0.045092121 4283793448
-0.0071894005 0.026740573 0.048279122 4283794469
-0.0030265376 0.019728173 0.055871606 4283862298
-0.035853416 0.011977587 0.06696824 4283788858
-0.035629772 0.019383907 0.058270186 4284120359
-0.034977369 0.024811581 0.051818773 4284056099
-0.034037299 0.028920284 0.046864688 4283990564
-0.032291211 0.029738853 0.045631588 4284056864
-0.029699475 0.027270615 0.048109286 4284056608
-0.027086385 0.024804272 0.050581515 4284056099
-0.025329113 0.025623944 0.049345665 4284055844
-0.023933083 0.027756469 0.04663147 4284057119
-0.022010587 0.02791856 0.046138853 4284057374
-0.019904546 0.027424568 0.046384729 4284057374
-0.017793044 0.026931092 0.046629258 4284056864
-0.016053393 0.027749568 0.045398146 4284056609
-0.014510192 0.029223198 0.043431886 4283992859
-0.012977414 0.030695975 0.041468389 4283797019
-0.011061892 0.030857829 0.040977836 4283794979
-0.0089470074 0.030364934 0.041221716 4283860003
-0.0056153759 0.025944879 0.045866862 4283992094
-0.0018375143 0.02021927 0.051968686 4283992604
-0.033982165 0.0017412938 0.07542868 4283788604
-0.034359194 0.011816155 0.06376753 4284054313
-0.034329303 0.019903999 0.054353625 4284056099
-0.033704028 0.02534681 0.047922552 4284121634
-0.031949863 0.026168225 0.046688959 4284121888
-0.029691003 0.025010753 0.047677614 4284122144
-0.02759394 0.024513535 0.047923908 4284056609
-0.026542641 0.027971091 0.043735303 4283926303
-0.024984039 0.029450014 0.04176823 4283862809
-0.02307485 0.029610941 0.041278988 4283928089
-0.02061604 0.027796851 0.043000393 4283864340
-0.018512771 0.027300455 0.04324533 4283860258
-0.016780913 0.028120419 0.042017855 4283991328
-0.015436336 0.030255398 0.039322034 4283991329
-0.013720058 0.031074205 0.038098596 4283993113
-0.011812553 0.031235352 0.037610061 4283993114
-0.0093078613 0.029425452 0.039320037 4283992858
-0.0065855011 0.026960174 0.041758113 4284057373
-0.0038418621 0.024496753 0.044190779 4284056353
-0.00066302717 0.020722486 0.048079617 4284056354
0.0035956651 0.013670277 0.055610918 4284056099
-0.032615125 0.0022212379 0.071460143 4283855158
-0.032874472 0.011662785 0.060576029 4283989799
-0.032878757 0.019773938 0.051190905 4284055588
-0.031609766 0.022584539 0.047736824 4284186914
-0.030022308 0.024070036 0.045765519 4284056609
-0.028445221 0.025554748 0.043796867 4284056608
-0.02722849 0.028361129 0.040356316 4283925539
-0.025855087 0.030504746 0.037657857 4283792939
-0.023776256 0.030003944 0.037907258 4283793958
-0.021509044 0.028843101 0.038890585 4283795488
-0.019045517 0.027022833 0.040605836 4283925793
-0.017130591 0.027184382 0.04011523 4283990564
-0.01540637 0.028005911 0.038891397 4284055844
-0.013687283 0.028827064 0.037668936 4283990308
-0.0117772 0.028988397 0.037179716 4283990309
-0.009469416 0.027831344 0.038152926 4283990309
-0.0067480318 0.025357213 0.040584542 4284056099
-0.004617624 0.024861328 0.040821165 4284056354
-0.0026885457 0.025024518 0.040327273 4284056863
-0.00013121217 0.02321275 0.042018935 4283994133
0.0047743544 0.014163129 0.051712669 4283927323
-0.031353019 -0.0054319128 0.076894827 4283789368
-0.031100906 0.0020486936 0.068244442 4283790134
-0.031235099 0.010853179 0.05813209 4283790644
-0.030937247 0.017659623 0.05025059 4283923244
-0.030183606 0.022470027 0.044593811 4284121634
-0.029294647 0.026613761 0.039682835 4284122909
-0.028087683 0.029428003 0.036251426 4283993624
-0.026546843 0.030914072 0.034295514 4283860514
-0.024476252 0.030410348 0.034545325 4283860513
-0.021852084 0.027918806 0.036994807 4283927324
-0.019391961 0.026091671 0.0387059 4283992604
-0.017479762 0.026252953 0.038215965 4283990819
-0.015758045 0.027076408 0.036994413 4284056353
-0.013848178 0.027237628 0.036505178 4284056353
-0.011742271 0.026737262 0.036746226 4284056353
-0.0092337951 0.024914566 0.03844513 4284056099
-0.0071117245 0.024415661 0.038682193 4284056353
-0.0055958591 0.025900299 0.036733113 4283926048
-0.0042969584 0.028044829 0.034059249 4283927069
-0.0021772124 0.027545968 0.034297012 4283861278
0.001430504 0.022425409 0.039616935 4283862043
-0.031046934 -0.0091226436 0.077871747 4283789114
-0.030139215 -0.0042842701 0.072186954 4283789623
-0.029924154 0.0032172687 0.063564375 4283790388
-0.029767014 0.010713957 0.054956742 4283791153
-0.029667795 0.018205889 0.04636398 4283989798
-0.029454604 0.025027111 0.03852091 4284121633
-0.028246842 0.027850086 0.03509593 4283991838
-0.026882835 0.030005921 0.032409817 4283993624
-0.024635352 0.028834539 0.033391416 4283993114
-0.022194639 0.02699911 0.03510239 4283992603
-0.019923024 0.025829889 0.036077894 4283990819
-0.018016189 0.025990682 0.035589308 4283990564
-0.01629962 0.026815847 0.034370713 4284056099
-0.014202081 0.026312497 0.034612171 4284056099
-0.01209911 0.025809631 0.034852326 4284056354
-0.0099907219 0.025307335 0.03509111 4283990564
-0.0080779009 0.025468964 0.034601241 4283990819
-0.0067758858 0.027620256 0.031931467 4283927833
-0.0054896399 0.029770285 0.029265782 4283793959
-0.0035923682 0.0299308 0.028780049 4283858729
-0.0006371066 0.026778756 0.031917408 4283858728
0.0034158081 0.020317599 0.038667619 4283925029
-0.031059012 -0.011487979 0.077366017 4283854904
-0.02982498 -0.0079719462 0.073163517 4283789624
-0.028780885 -0.0037893169 0.068232603 4283790389
-0.028600238 0.0037332885 0.059637256 4283790899
-0.028646559 0.011919424 0.050322942 4283791664
-0.028756104 0.020100307 0.041024894 4283922989
-0.028231591 0.0256045 0.034673072 4284186659
-0.026864372 0.027767146 0.031991065 4284122144
-0.024614766 0.026591532 0.032968745 4284121888
-0.021989912 0.024082512 0.035404645 4284056099
-0.020268217 0.02491013 0.034186281 4283991329
-0.018739205 0.026404094 0.032240197 4283925793
-0.017030437 0.027230799 0.031025203 4283928853
-0.014748309 0.026058219 0.031994849 4283928598
-0.012455463 0.024886657 0.032961756 4283992349
-0.01074627 0.02571355 0.031746849 4283990564
-0.0092430115 0.027205681 0.029807622 4283990819
-0.0079536363 0.029362433 0.027146073 4283992858
-0.0064739622 0.030852713 0.025212998 4283994388
-0.0045873635 0.031012302 0.02472998 4283928343
-0.0020666085 0.029177837 0.026415942 4283993878
0.0015401095 0.024022266 0.031709492 4283993623
0.0051892586 0.018870361 0.036992244 4284056609
0.0091001131 0.013058085 0.042985141 4284121633
-0.031071447 -0.013857547 0.076857239 4284444974
-0.029672854 -0.011001501 0.073396347 4283986993
-0.028295167 -0.0081471466 0.069940858 4283725108
-0.027436934 -0.0032823198 0.064292081 4283725364
-0.026953094 0.0029204339 0.05718834 4283790899
-0.027202427 0.01180033 0.047170661 4283791153
-0.027172118 0.019334488 0.038632289 4284120358
-0.026316039 0.023514684 0.03375981 4284186659
-0.024415165 0.023674693 0.033272535 4284187424
-0.022332087 0.02316542 0.033514097 4284122398
-0.020797592 0.024664111 0.031569868 4284057118
-0.019648153 0.027499884 0.028173374 4283928598
-0.017949816 0.028327808 0.02696274 4283927324
-0.015678797 0.027149934 0.027931822 4283928599
-0.013397072 0.025973031 0.028898207 4283996174
-0.011698321 0.026801202 0.027687626 4283990818
-0.01000474 0.027629007 0.026478423 4284056099
-0.0083163269 0.028456442 0.025270594 4284055844
-0.0064272769 0.028616145 0.024786877 4283990819
-0.0049550831 0.030110244 0.022859043 4283991073
-0.0024377294 0.028268881 0.024540899 4283990819
0.00052314252 0.025095569 0.027660122 4284055844
0.0035105534 0.021924566 0.030772598 4284056354
0.0054291561 0.022087127 0.030281587 4284056098
0.0088998415 0.01758758 0.034821354 4284056864
-0.029682197 -0.013366248 0.072890185 4284575533
-0.028301083 -0.010502938 0.069440447 4283790134
-0.027106822 -0.0069683976 0.065264851 4283659574
-0.026107371 -0.0027633123 0.060365431 4283725109
-0.02548188 0.0027841516 0.054014236 4283725108
-0.025420137 0.010344859 0.045486152 4283791409
-0.025416359 0.017900806 0.03697294 4284120614
-0.024753876 0.022764683 0.031386301 4284186914
-0.023219183 0.024267696 0.029445229 4284056353
-0.022063836 0.02711259 0.026053814 4284058138
-0.020929448 0.029955771 0.022667816 4283794468
-0.019246854 0.030784521 0.021462856 4283792684
-0.016799834 0.028930157 0.023157334 4283858728
-0.014336828 0.0270772 0.024847755 4283925283
-0.012253169 0.026566172 0.025087787 4284057374
-0.010364424 0.026725683 0.024604021 4284056354
-0.0082725994 0.02621549 0.024842074 4284056353
-0.006380979 0.026375394 0.02435769 4284122144
-0.0046975203 0.027204711 0.023152886 4284056098
-0.0023865476 0.026026316 0.024108754 4284056353
0.00036220998 0.023511082 0.026500167 4284056354
0.0022674277 0.023672428 0.026012523 4284056608
0.0035161674 0.025839208 0.023371672 4283862808
0.005635079 0.025331784 0.023603236 4283795998
0.010224842 0.017476916 0.031713657 4283664419
-0.028307356 -0.012862895 0.068936966 4284575278
-0.026943706 -0.0099923052 0.065498397 4284118063
-0.02560097 -0.0071234368 0.062065296 4283790388
-0.024279177 -0.0042562224 0.058637574 4283856179
-0.023672968 0.0013070963 0.052304678 4283856179
-0.024166666 0.010912277 0.041620843 4283857199
-0.024555244 0.019837327 0.031682275 4284055589
-0.023922853 0.024713971 0.026115039 4284056098
-0.02295886 0.028240537 0.022007121 4284125204
-0.021647386 0.030418225 0.019354569 4283927833
-0.020162113 0.031921603 0.017429633 4283926559
-0.017918602 0.030732581 0.018399091 4283927579
-0.015274752 0.028199222 0.020810282 4283994134
-0.013201993 0.027685063 0.02105142 4284056099
-0.010923721 0.026499229 0.02201209 4284056098
-0.0090402402 0.026658345 0.02152971 4284056098
-0.0065404698 0.024802215 0.023205919 4284056353
-0.0050649121 0.026305243 0.021283908 4284056353
-0.0025464445 0.024450887 0.022955393 4284056353
-0.00065198541 0.024611223 0.022470424 4284056354
0.0010265745 0.025442515 0.021268709 4284058139
0.0022626668 0.027614748 0.018636087 4283858984
0.004146751 0.027774433 0.018153949 4283792428
0.0073743872 0.023912959 0.021960529 4283858729
0.012219734 0.015364483 0.030757649 4283859493
-0.026781358 -0.013024803 0.065725692 4284575533
-0.025432572 -0.010146726 0.06229762 4283790388
-0.024104699 -0.007270325 0.058874972 4283725108
-0.023144647 -0.0030423291 0.054005697 4283790643
-0.022920437 0.0038887784 0.046243131 4283856689
-0.023463801 0.013520338 0.035595387 4283791919
-0.023536921 0.021117851 0.027138619 4283990053
-0.023116015 0.026683275 0.020866768 4284056098
-0.021803953 0.028867522 0.018219044 4283925793
-0.020318329 0.030375263 0.016297331 4283992348
-0.017883413 0.028506715 0.01798485 4283992604
-0.015627086 0.027314495 0.01894767 4283991329
-0.01355727 0.02679784 0.019187918 4284056354
-0.011681933 0.026956163 0.018707542 4284056353
-0.010009021 0.027788799 0.017508587 4284122399
-0.0077257566 0.026599109 0.018464779 4284122144
-0.0058474503 0.026757909 0.017983818 4284122144
-0.0035481341 0.025569772 0.018935977 4283991328
-0.0018774606 0.026402473 0.017737864 4283991839
-0.00042774901 0.027907884 0.015825963 4283994134
0.0012298375 0.028739676 0.014631279 4283928854
0.0028821975 0.029571058 0.013438029 4283861024
0.0058714747 0.026367679 0.016525151 4283861533
0.0091135949 0.022494413 0.020318067 4283929109
0.013761397 0.01459226 0.028373716 4284059924
-0.025432892 -0.012499284 0.061797887 4284576298
-0.024101608 -0.00961392 0.058380991 4283856689
-0.023137674 -0.0053725801 0.053520687 4283921714
-0.022205256 -0.0011337958 0.048668534 4283856179
-0.021839909 0.0051376224 0.041655295 4283660083
-0.021884248 0.012761503 0.033209458 4283791664
-0.021986581 0.020380534 0.024778588 4283924519
-0.021401182 0.025283867 0.019246759 4284056098
-0.019907244 0.026796596 0.017326271 4284056098
-0.017848611 0.02627668 0.017567536 4284056098
-0.015590172 0.025080195 0.018526496 4284056099
-0.013912067 0.025915276 0.017327746 4283991074
-0.012638427 0.028103171 0.014695134 4283927833
-0.011178255 0.029613467 0.012783539 4283665183
-0.0087038279 0.027742058 0.01445619 4283665438
-0.0064210072 0.026548067 0.015409166 4283795489
-0.0043377466 0.026030727 0.015644575 4283925284
-0.002887778 0.02754046 0.013735823 4283991329
-0.0012327731 0.02837408 0.012543436 4283926558
0.00063518435 0.028532298 0.012065349 4283995154
0.0025032088 0.028690593 0.011587298 4283795233
0.0050416961 0.02682516 0.013243973 4283861278
0.0073699728 0.025635554 0.014185719 4283794213
0.010166414 0.023098607 0.016545234 4284120869
0.012984049 0.020563539 0.018899387 4284120614
0.01535478 0.019377779 0.01983046 4284053039
-0.024098851 -0.011961732 0.057883985 4284575278
-0.023131065 -0.0077069812 0.053032614 4283921714
-0.021667875 -0.0054973103 0.050355867 4283660083
-0.020576924 -0.0019276664 0.046240248 4283725108
-0.020054992 0.0036809929 0.039969057 4283791155
-0.020309463 0.012006812 0.03082831 4283726128
-0.020254802 0.018967483 0.023142716 4283924518
-0.019686319 0.023884699 0.017626924 4284055843
-0.018005684 0.024721943 0.016429095 4284122144
-0.01613608 0.024879579 0.01595003 4284122399
-0.014266349 0.025037296 0.015470993 4283991329
-0.013393652 0.028589187 0.011411792 4283927324
-0.011738982 0.02942455 0.010220846 4283795744
-0.0094753318 0.028224474 0.011175314 4283798293
-0.006786257 0.02566907 0.013555147 4283667478
-0.0049159899 0.025827223 0.013076268 4283925283
-0.003045626 0.025985474 0.012597434 4283990819
-0.0013904981 0.026821265 0.011406669 4283990818
0.00091326237 0.025624977 0.01235117 4283991074
0.0027864799 0.025783708 0.011871787 4283925284
0.0044365153 0.026619306 0.010682508 4283990309
0.0056295358 0.028807683 0.0080761239 4284055334
0.0070352443 0.0303185 0.0061823931 4284251683
-0.022779271 -0.011412043 0.053983919 4284640814
-0.021307595 -0.0091951229 0.051309913 4283921714
-0.019673519 -0.0076622702 0.049359873 4283921204
-0.018953368 -0.0027173087 0.043816656 4283856179
-0.018636741 0.0035893321 0.036845982 4283856434
-0.018925488 0.011938415 0.027734088 4283791153
-0.018900286 0.018918451 0.020072753 4283923499
-0.018353991 0.023849107 0.014574351 4284121378
-0.016681045 0.024687938 0.013380198 4284056608
-0.015209831 0.02620768 0.011472281 4284059668
-0.013948269 0.028407577 0.0088527258 4283858729
-0.012500625 0.029925488 0.0069509707 4283792173
-0.010245442 0.028720273 0.0079043023 4283792684
-0.0075652972 0.026155366 0.01027973 4283861279
-0.0054932721 0.025632715 0.010514608 4283860003
-0.0032034367 0.024430707 0.011459203 4283990819
-0.0011180192 0.023909353 0.011690775 4284056609
0.0011904947 0.022709046 0.012630755 4284056099
0.0026281551 0.02422668 0.010731993 4283923753
0.0031632222 0.028459463 0.0060026795 4283789879
-0.021298945 -0.011535462 0.050816648 4284248368
-0.019661896 -0.0099980421 0.048869148 4283986993
-0.018396199 -0.0070918389 0.045489222 4283921459
-0.017334606 -0.0035027787 0.041397862 4283921203
-0.017228134 0.0035057813 0.033732273 4283856179
-0.017551199 0.011878222 0.024649175 4283857454
-0.017746512 0.019561499 0.016297245 4284056354
-0.017225057 0.024505366 0.010816917 4284055843
-0.015955128 0.02671241 0.0082001388 4283993113
-0.014700942 0.028918238 0.0055874065 4283928089
-0.013059247 0.029756827 0.0044030882 4283928344
-0.011218455 0.0299123 0.0039316155 4283799314
-0.008342959 0.026655139 0.0070140995 4283799569
-0.005860053 0.024764929 0.0086696576 4283793958
-0.0033611953 0.022876188 0.010321142 4283925283
-0.0014909655 0.023034476 0.0098423753 4283991074
-5.5655837e-05 0.024556123 0.007947512 4283925538
0.00092883036 0.027439846 0.0046405885 4283393864
-0.019473031 -0.013025131 0.049091987 4284705839
-0.018020995 -0.010796752 0.046433136 4283921459
-0.016950473 -0.0071960874 0.042347796 4283921204
-0.016277317 -0.0022244602 0.036840029 4283921459
-0.0160174 0.0041167289 0.029913956 4283855669
-0.016568247 0.013198331 0.020147132 4283856434
-0.016800746 0.0209025 0.011823103 4283856433
-0.016110674 0.025173685 0.0070734508 4284120869
-0.015253454 0.028756892 0.003043158 4283990818
-0.013616934 0.02959724 0.0018617697 4283990818
-0.011985593 0.030437181 0.00068180636 4283662888
-0.0093259364 0.027853074 0.0030491259 4283662379
-0.0062263533 0.023901813 0.0068280417 4283596079
-0.0035189167 0.021321908 0.0091832522 4283067973
-0.017827101 -0.013825383 0.046653196 4284181814
-0.016750291 -0.010213319 0.04257454 4283920693
-0.015699755 -0.0066033937 0.038502686 4283921203
-0.015051425 -0.0016186014 0.033013031 4283855924
-0.014821179 0.0047397465 0.026109604 4283921713
-0.01541141 0.013846423 0.016374579 4283922478
-0.015482567 0.020883877 0.0087880492 4284055333
-0.015407935 0.027229378 0.0019246973 4283990053
-0.013972487 0.028759265 3.6008656e-05 4283989799
-0.012343664 0.029601155 -0.0011416553 4283531308
-0.0092746988 0.025634132 0.0026350301 4283072054
-0.0061738975 0.021669846 0.0064036697 4281429344
-0.015679196 -0.0089268796 0.038018487 4283986484
-0.014463555 -0.0059985816 0.034671508 4283921459
-0.01364968 -0.0016910508 0.029909944 4283921713
-0.013639525 0.0053749382 0.022319151 4283856434
-0.014073487 0.013816647 0.013324583 4283724853
-0.014372446 0.021563273 0.005054336 4283790899
-0.01372464 0.02585716 0.00033559278 4282216783
-0.015474133 -0.011947628 0.038241073 4284311354
-0.014064912 -0.0097030438 0.035608247 4283920693
-0.012861554 -0.0067670234 0.032271124 4283856179
-0.012257643 -0.0017553568 0.026816262 4283724853
-0.012667887 0.0067144744 0.017835593 4283593783
-0.012943365 0.014487006 0.0095776264 4283528503
-0.026279278 -0.027984772 0.054125622 4284247858
-0.014042139 -0.012030218 0.035120517 4284376888
-0.012645405 -0.0097801276 0.032495998 4283790133
-0.011649601 -0.006141942 0.028463295 4283528248
-0.011265792 -0.00042260438 0.022321036 4283594038
-0.011122033 0.0059874691 0.015484888 4283593273
-0.026281752 -0.030363563 0.053606518 4282479689
-0.025101475 -0.026699875 0.049534164 4282807618
-0.023604982 -0.024435502 0.046888486 4284705073
-0.01142801 -0.0091521181 0.028688589 4283854139
-0.010647222 -0.0048080496 0.023965565 4283594038
-0.0098980516 -0.00046652183 0.019250663 4283528503
-0.010181975 0.0073532537 0.011031529 4282281043
-0.026118852 -0.033447746 0.053794049 4282542418
-0.025100678 -0.029071648 0.049019374 4282153033
-0.023600988 -0.026800577 0.046377882 4283789879
-0.021422371 -0.02733304 0.046571068 4284638774
-0.010225184 -0.0085119717 0.02489513 4283789879
-0.0094668493 -0.0041566715 0.020187901 4283594294
-0.0087401308 0.00019606203 0.015488841 4282345304
-0.02612225 -0.035837013 0.053267308 4282673234
-0.024763949 -0.032854024 0.049916394 4281825358
-0.023426585 -0.029872704 0.046570927 4281957194
-0.02158986 -0.029001411 0.045349069 4282480453
-0.0090369284 -0.0078597255 0.021115677 4283790134
-0.0079013556 -0.0048943013 0.017822778 4283331644
-0.025795445 -0.039641622 0.054150432 4282673998
-0.024596386 -0.035943825 0.050098129 4281957450
-0.023423545 -0.032248128 0.046052642 4281826633
-0.021757297 -0.030669492 0.044127278 4281891913
-0.019573882 -0.031205881 0.044315927 4283461439
-0.008805275 -0.010872643 0.021335648 4283919674
-0.007663656 -0.007898014 0.01804783 4283330878
-0.025800012 -0.042043496 0.05361443 4282412879
-0.024597339 -0.038334507 0.04956945 4282022729
-0.023250528 -0.03533509 0.046234868 4281826378
-0.021924652 -0.032337282 0.042905688 4281892168
-0.01991722 -0.032168988 0.04239057 4281761609
-0.018087864 -0.031293828 0.041174039 4282089028
-0.024598651 -0.040729318 0.049037814 4281956938
-0.023248442 -0.037720907 0.045708925 4281891914
-0.02209194 -0.034004796 0.041684285 4282022473
-0.020435438 -0.032418195 0.03976807 4281826633
-0.01861129 -0.031541344 0.038554497 4281957959
-0.01643087 -0.032082219 0.038740672 4283460674
-0.024433061 -0.043840174 0.049204066 4282151759
-0.023246728 -0.04011083 0.045179978 4281891148
-0.022086613 -0.036383573 0.041162692 4281956938
-0.02042716 -0.034792464 0.039249055 4281827399
-0.018955931 -0.032490958 0.036639869 4281892679
-0.016958974 -0.032323394 0.03612756 4282415683
-0.014961854 -0.032155719 0.03561528 4282546499
-0.022736318 -0.044646788 0.046744101 4282672978
-0.021909326 -0.039480183 0.041336097 4281890129
-0.02041924 -0.037170757 0.038727008 4281760589
-0.019122444 -0.034149189 0.03542532 4281761098
-0.01748611 -0.03255545 0.033521034 4282088008
-0.015860185 -0.030962516 0.031619549 4282284358
-0.01368808 -0.031508286 0.031804651 4283984699
-0.021388642 -0.044017214 0.042896107 4282216018
-0.020411707 -0.039553147 0.038201936 4281694288
-0.018934123 -0.037238125 0.03560105 4281760334
-0.018012315 -0.032778483 0.030921182 4281957194
-0.016574048 -0.03046656 0.028330533 4282022473
-0.014595523 -0.03030039 0.027823063 4283658553
-0.020404533 -0.041939635 0.037673868 4282345813
-0.019100957 -0.038900156 0.034383692 4281498958
-0.017998151 -0.035144869 0.030406224 4281631304
-0.016921595 -0.031391662 0.026435578 4282154563
-0.01513093 -0.030508723 0.025237398 4283723578
-0.013157681 -0.030342918 0.024731344 4284573239
-0.019444674 -0.039841991 0.032474726 4281171538
-0.018343531 -0.036076006 0.028505975 4281828419
-0.017086424 -0.033031534 0.025234519 4281698369
-0.015480548 -0.031427216 0.023348169 4283788603
-0.018329673 -0.038446162 0.027988242 4281498959
-0.016887158 -0.036114421 0.025411455 4281565768
-0.015275702 -0.034505259 0.023526939 4283856179
-0.018495336 -0.040096324 0.026779568 4281102179
-0.016870506 -0.038481887 0.024894873 4281694288
-0.01507166 -0.037591819 0.023699531 4284051509
-0.015052676 -0.039960999 0.023180893 4283722303
-0.013629958 -0.03761768 0.020619238 4284704818
-0.0012861788 -0.028151136 -0.0046801157 4284312628
-0.001865793 -0.02826694 -0.0071808528 4283592763
0.00025825575 -0.028841805 -0.0070025828 4282937923
-0.0016081966 -0.031329315 -0.0070070159 4283921969
9.7345561e-05 -0.03042857 -0.0081642885 4282088008
0.0015833192 -0.028789695 -0.0099857654 4282742339
-0.001351431 -0.034400146 -0.0068393191 4283659573
-6.352365e-05 -0.032015037 -0.0093257744 4281957194
0.0012086183 -0.029631171 -0.011808058 4282153033
0.0028984919 -0.028729301 -0.012959516 4282545988
-0.0013041496 -0.03673612 -0.0073416298 4283136314
-0.00022435188 -0.033601176 -0.010487031 4281826888
0.00083438307 -0.030467894 -0.013626946 4281566024
0.0020886026 -0.028078925 -0.016099578 4281761353
0.0035462156 -0.026433501 -0.017907029 4282350913
0.0049933158 -0.024788897 -0.019711655 4283852864
-0.0014656819 -0.0383307 -0.0085091172 4282873154
-0.00059618801 -0.034441803 -0.01230959 4281631303
0.0006743297 -0.03204501 -0.014781548 4281761353
0.0019290745 -0.029649492 -0.017249333 4281761353
0.0033869818 -0.027999718 -0.019053556 4281826888
0.0048343763 -0.026350748 -0.02085495 4282612034
-0.00054589659 -0.03677256 -0.012808888 4281500233
0.00072779506 -0.03436907 -0.015276665 4281761353
0.0019856803 -0.031966727 -0.017740322 4281826633
0.0032277741 -0.029565629 -0.020199861 4281695818
0.0048968568 -0.028658833 -0.02134081 4281826378
0.0063366704 -0.027006049 -0.023136845 4283071289
0.0079925954 -0.02610008 -0.024274282 4284311863
-0.00070661306 -0.038357791 -0.013969488 4281301334
0.00099407881 -0.03744654 -0.015117156 4281564494
0.0022577643 -0.035037216 -0.017577341 4281761353
0.0037241913 -0.033378091 -0.01937707 4281826634
0.0049589276 -0.030970972 -0.02182965 4281760843
0.006401673 -0.02931362 -0.023623135 4282023238
0.007833872 -0.027656998 -0.025413867 4283135549
0.0010464936 -0.039780851 -0.015619858 4281301079
0.0023133457 -0.037364822 -0.018075848 4281694544
0.003782697 -0.035701077 -0.019873047 4281629518
0.0050205886 -0.033287186 -0.02232147 4281760843
0.0064662695 -0.031625252 -0.024112392 4281695818
0.0079014115 -0.029964086 -0.025900511 4281892168
0.0090971515 -0.027553398 -0.028337866 4283201849
0.010508562 -0.02589396 -0.03011978 4284377908
0.0021530688 -0.038942929 -0.019231129 4281496919
0.0040588826 -0.03878149 -0.019718897 4281628498
0.005302567 -0.036360618 -0.022163836 4281695053
0.0063070916 -0.033188101 -0.025256366 4281631303
0.0075165182 -0.030769896 -0.027692344 4281632068
0.0089387931 -0.029105339 -0.029473759 4282286654
0.010581786 -0.028193798 -0.030602705 4283202103
0.0036806166 -0.039603766 -0.021525446 4281301079
0.0051426776 -0.0379319 -0.023314033 4281499979
0.005701676 -0.03324056 -0.027700378 4281762629
0.0071321204 -0.031571057 -0.029480707 4281763138
0.0085520409 -0.029902395 -0.031258225 4281893443
0.010654584 -0.030497629 -0.031088639 4282220608
0.012295028 -0.029583987 -0.032215156 4284576043
0.0047625601 -0.0387454 -0.025113191 4281236818
0.0055430122 -0.034798417 -0.028840706 4281631049
0.0067481995 -0.032367554 -0.03126565 4281827144
0.0079375654 -0.029937934 -0.033686474 4282088775
0.0102653 -0.031292435 -0.032870565 4281957703
0.012370117 -0.031889509 -0.032703113 4282219333
0.013771875 -0.030217636 -0.034472421 4283264834
0.0043829046 -0.039554205 -0.026908994 4281102179
0.0056070648 -0.037115421 -0.029333893 4281760843
0.0065900795 -0.033918593 -0.032400936 4281761354
0.0075519979 -0.030723456 -0.035462502 4281957958
0.0096458718 -0.031323757 -0.035294004 4281892168
0.012211543 -0.033440594 -0.03383828 4281826633
0.014085382 -0.033280995 -0.034317203 4282219334
0.014766574 -0.029330868 -0.038010478 4284443698
0.0061156452 -0.040959675 -0.028539389 4281363809
0.0066570975 -0.036230717 -0.032891341 4281627988
0.0076223984 -0.033026617 -0.035947144 4281694798
0.0092577636 -0.032107037 -0.037067506 4281826378
0.011819972 -0.034230661 -0.035615858 4281695309
0.014398009 -0.03635275 -0.034168195 4281760589
0.015562067 -0.033911835 -0.036572184 4282414918
0.015264615 -0.026911836 -0.042815752 4284180794
0.0071734823 -0.040074091 -0.032098584 4281232739
0.0079199187 -0.036097255 -0.035792362 4281825615
0.0097907893 -0.03593817 -0.036270723 4281826888
0.012825694 -0.039593469 -0.033543788 4281760844
0.015886988 -0.04324637 -0.030823488 4281760333
0.018022349 -0.043847095 -0.030668631 4281956428
0.017755788 -0.03682499 -0.036905184 4282806088
0.011472203 -0.043608595 -0.032282755 4281694288
0.01499211 -0.048803221 -0.028290257 4281890384
0.01878418 -0.054759409 -0.023668341 4282020944
0.021191316 -0.056124035 -0.02288571 4282608973
0.021925535 -0.052136783 -0.026567597 4283065933
0.017618814 -0.059590902 -0.021792758 4282541654
-0.0022926815 0.02353235 0.0065830853 4281422713
-0.0032530464 0.018394865 0.0094579849 4279457683
-0.0026642159 0.022671185 0.0047446396 4279059628
-0.012294032 0.027391061 -0.0015484737 4278540194
-0.010048874 0.026167562 -0.00060591009 4278866338
-0.0067485608 0.021500532 0.0038603563 4278472364
-0.0031995848 0.016147994 0.0090218168 4278602669
-0.0017501116 0.017683841 0.0071331915 4279060649
-0.012244798 0.025176812 -0.0019583432 4278670243
-0.011027697 0.027405787 -0.0045414045 4278407338
-0.00083819404 0.012674723 0.0095058661 4278929323
-0.00068532676 0.018357884 0.0034100041 4282728058
-0.011827834 0.015169546 0.0058445875 4280115838
-0.011789616 0.021570884 -0.00096439198 4278800803
-0.011798892 0.027968317 -0.0077611255 4278669223
-0.010523945 0.015168246 0.0028273519 4279784594
-0.010924004 0.022978444 -0.0053619342 4279587223
-0.0086751282 0.021742228 -0.0044302866 4278734759
-0.0049394667 0.01564005 0.0013971273 4278603689
-8.8531524e-05 0.0060667321 0.010707932 4278602669
-0.0086531937 0.0066406652 0.0086973216 4279981198
-0.0090244785 0.014477238 0.00051897392 4279325083
-0.0075817481 0.016029652 -0.0013547447 4278670244
-0.0042536557 0.011304002 0.0030577872 4278735013
-3.5259873e-05 0.0037925281 0.010250924 4278865063
0.0022978932 0.0025593936 0.011157822 4279256999
-0.0069893226 -0.0012302175 0.013836747 4280309639
-0.0069241934 0.0052322298 0.0070658699 4279849874
-0.005867634 0.0081912763 0.0037934203 4279718804
-0.0037799925 0.0076502673 0.0040092561 4279128479
-0.00040853396 0.0029130951 0.0083991475 4279324828
0.0021371394 0.00097610056 0.0099987276 4280370839
-0.0063407794 -0.005627647 0.015462499 4280571268
-0.0058533624 -0.00054919347 0.010095999 4279980433
-0.0047801696 0.0024199411 0.0068259351 4279718293
-0.0033076219 0.0039836466 0.0049512815 4279718549
-0.00078132376 0.002038382 0.0065507442 4279784083
0.0015454255 0.00079591572 0.0074526407 4280503948
-0.0063001364 -0.0079281516 0.014989432 4280112524
-0.0051945373 -0.0049476847 0.01171764 4279390873
-0.0041100085 -0.0019688979 0.0084513221 4279259549
-0.0032565147 0.0017122701 0.0044971295 4279653014
-0.001366239 0.0018721111 0.0040131267 4279784083
0.00052409992 0.002032049 0.0035291724 4279915153
0.002632428 0.0014887191 0.0037365947 4280766089
-0.0058562197 -0.011646595 0.015900882 4281290623
-0.004741922 -0.0086567514 0.012633547 4279521944
-0.0036486872 -0.0056685433 0.009371642 4278669989
-0.0029960535 -0.0012694709 0.0047316961 4279260313
-0.0017378293 0.0010088608 0.0021731816 4279456663
-0.00049540028 0.0032860152 -0.00038124062 4279521944
0.0018197037 0.0020339452 0.00051704608 4279456154
-0.0033955723 -0.0086723678 0.0095916688 4279718548
-0.0027364232 -0.0042597465 0.0049600787 4279391639
-0.0021089204 0.00015029684 0.00033666566 4279391128
-0.0010834187 0.0031417795 -0.0029010177 4279062689
0.00079088658 0.0033004507 -0.0033807969 4279718038
0.0028853528 0.0027516596 -0.0031731008 4280504714
0.0045396462 0.0036180913 -0.004340169 4280962439
-0.0033499599 -0.010973822 0.0091162864 4280635273
-0.0024776533 -0.0072584786 0.0051821936 4278997153
-0.0018436462 -0.0028348342 0.00056709722 4279652759
-0.0010266975 0.00087603554 -0.0033526653 4279259293
0.00019837916 0.0031648465 -0.0058926092 4279915153
0.0020673126 0.0033231452 -0.0063709496 4280177294
0.0041588396 0.0027720444 -0.0061640786 4280373643
0.0062557124 0.0022214465 -0.0059584603 4283122543
0.028220689 0.025949908 -0.033830553 4282202248
0.030015383 0.026103809 -0.034288444 4280764303
0.03262829 0.024142042 -0.032729298 4279585949
0.039663449 0.010901481 -0.020427877 4279454368
-0.0015792288 -0.0058284737 0.00079129636 4279717784
-0.00075600669 -0.0021062084 -0.0031217616 4279325083
0.00025787205 0.00090176985 -0.0063430993 4279784083
0.0019096658 0.0017722137 -0.0075063007 4279718548
0.0037785321 0.0019306093 -0.0079845423 4279784338
0.0058723986 0.001377631 -0.0077798562 4280177548
0.0075163916 0.0022477247 -0.0089408243 4280766598
0.02264403 0.029111166 -0.038718153 4280434333
0.024420239 0.029263292 -0.039171476 4279454879
0.025929119 0.030123433 -0.040296793 4278799020
0.034276154 0.022800613 -0.034283496 4278600373
-0.0013156421 -0.008830633 0.001009319 4281289603
-0.00070030242 -0.004382398 -0.0035809893 4279587223
0.00053377822 -0.002079796 -0.0061132815 4279652759
0.0017520562 0.00022156537 -0.0086414479 4279783828
0.0036207959 0.00037994236 -0.0091196671 4279653268
0.0050401203 0.0019658096 -0.0109603 4279653013
0.0066762753 0.0028373934 -0.012117608 4280701319
0.007617116 0.005848404 -0.015313209 4282533749
0.017657688 0.030888138 -0.042255491 4281287308
0.019420668 0.031038946 -0.042705581 4280044949
0.021183603 0.031189853 -0.043155577 4278733993
0.024442254 0.032202058 -0.044725791 4278667438
0.025663029 0.0337727 -0.046514388 4279389343
0.027690075 0.033213668 -0.046292901 4279126948
0.031647 0.027689347 -0.041393626 4278471344
0.037866861 0.016495354 -0.031163024 4278600373
-0.00064502284 -0.0066626482 -0.0040432606 4280242573
0.00059224293 -0.0043532513 -0.0065713804 4279980433
0.0022521578 -0.0034777857 -0.007733345 4279784338
0.0034630895 -0.0011704192 -0.010254564 4279784083
0.0044337101 0.0018515885 -0.013451303 4279587734
0.0058375224 0.0034405701 -0.015284582 4280045968
0.0070009939 0.0057442375 -0.017793411 4280307598
0.0076837502 0.0094770603 -0.021653345 4281550979
0.01398148 0.029124042 -0.042425409 4279976863
0.014983665 0.031414896 -0.044892315 4279913369
0.016226199 0.032991283 -0.046683498 4278996644
0.017975846 0.033140965 -0.047130175 4278668968
0.019986954 0.032578014 -0.046906568 4278537643
0.024704434 0.034452699 -0.049584188 4279388833
0.027267385 0.032467145 -0.048027202 4278866339
0.029846109 0.030483028 -0.046474181 4279128224
0.034382168 0.023520797 -0.040262062 4278800293
0.039811011 0.014429767 -0.032066852 4278472618
-0.020739481 -0.045280214 0.035226926 4281620339
-0.01978787 -0.040779147 0.030569172 4280376959
0.00086666644 -0.0073496066 -0.0063523874 4281813883
0.0023129471 -0.0057529546 -0.0081934948 4279718294
0.0035270676 -0.0034387968 -0.010710547 4279718804
0.0045010969 -0.00040785968 -0.013901477 4279849618
0.0052270889 0.0033392832 -0.017764326 4279849364
0.0063858144 0.0056490712 -0.020266954 4279980178
0.0070642717 0.0093923993 -0.024117477 4279979668
0.0095693618 0.029509472 -0.044612873 4282662778
0.011076234 0.030375242 -0.045733169 4279781533
0.017309215 0.033119749 -0.049530745 4278668203
0.019053409 0.033269078 -0.049975939 4278668458
0.020797549 0.033418491 -0.050421052 4278603434
0.022541625 0.033568013 -0.05086606 4278601138
0.024016425 0.034431837 -0.05197756 4278403768
0.036296982 0.021476917 -0.041139964 4278735268
0.042606905 0.010221362 -0.030985313 4278604454
-0.021254592 -0.045501057 0.032625183 4280243848
-0.020130575 -0.041711587 0.028667057 4280113033
0.0025921203 -0.0087529533 -0.0079788156 4280308364
0.0035906471 -0.0057113096 -0.011169488 4279522198
0.0047921278 -0.0033915974 -0.013678243 4279783828
0.0057510845 -0.00035310537 -0.016858635 4279914898
0.0066889301 0.0026837252 -0.020033533 4279718294
0.0064457059 0.0093168393 -0.02657502 4279718293
0.0056856573 0.017384734 -0.034451731 4281551234
0.0066951066 0.030778997 -0.047916561 4280174488
0.0084393807 0.030927729 -0.04836224 4279257509
0.0096879415 0.032513022 -0.050148547 4278798509
0.016901933 0.032390207 -0.051257007 4278340019
0.018643361 0.032539312 -0.051701486 4278603434
0.02038474 0.032688506 -0.052145876 4278603433
0.022126053 0.03283779 -0.052590184 4278603944
0.023867305 0.032987181 -0.05303438 4278473129
0.028446674 0.030422291 -0.051268034 4278539173
0.031859737 0.026278352 -0.04773698 4278801058
0.035304405 0.022137221 -0.044213921 4278801059
0.041320473 0.011561163 -0.034744412 4278604708
-0.02159512 -0.046439532 0.03071777 4280242828
-0.020296484 -0.043365825 0.027455362 4279980944
-0.018660948 -0.041746225 0.025571102 4280047499
-0.016854249 -0.040853459 0.024375292 4280638334
0.0038749948 -0.0087105446 -0.010955961 4282010234
0.0048584566 -0.0056613833 -0.014136059 4280045713
0.0058208145 -0.0026139095 -0.017310679 4279652503
0.0067620836 0.00043185428 -0.020479757 4278931363
0.0067551471 0.0063631311 -0.026334649 4278604198
0.0060027018 0.01445562 -0.034195077 4279522198
0.0044809841 0.024707258 -0.044054911 4279521178
0.0045631491 0.029904883 -0.049200244 4279259038
0.0087971576 0.033232138 -0.053210177 4279192228
0.010277789 0.034100138 -0.054320343 4278603944
0.012258913 0.033527836 -0.054094285 4278407083
0.017011493 0.030226279 -0.051647745 4278406573
0.018755443 0.030375596 -0.052092865 4278668968
0.020499341 0.030525018 -0.052537896 4278341548
0.021977063 0.031393386 -0.053646855 4278669479
0.023986952 0.030824147 -0.053427666 4278931619
0.026273467 0.029537033 -0.052547008 4278932129
0.029118542 0.026814625 -0.050344981 4278931619
0.032538068 0.022658177 -0.046825491 4278735013
0.03626851 0.017786883 -0.042653359 4278604708
0.042291597 0.0071789213 -0.033210576 4278474149
-0.021588288 -0.048831049 0.030185947 4280242828
-0.020286262 -0.045748379 0.026929302 4279915408
-0.0188265 -0.043395799 0.024362857 4279654034
-0.017019711 -0.042500872 0.02316867 4279261079
0.0051480047 -0.0086599328 -0.013923595 4280700553
0.0058901533 -0.0048788302 -0.017765658 4280176784
0.0070637017 -0.0025482476 -0.020257143 4279062688
0.0075268 0.0019530095 -0.024758086 4278670243
0.0070214532 0.0093466975 -0.031932972 4279195289
0.0050422959 0.021077223 -0.043113433 4278932638
0.0044154041 0.028460782 -0.050257087 4278866083
0.0047041215 0.03294763 -0.054713123 4278472109
0.0096305832 0.034111787 -0.056702025 4278538408
0.011606092 0.033536803 -0.056476131 4278604199
0.013842154 0.032240454 -0.055586427 4278735014
0.018867087 0.028207775 -0.052487247 4278341293
0.021140018 0.026914859 -0.05160667 4278472874
0.023157546 0.02634402 -0.051391155 4278866084
0.025717381 0.024332076 -0.049853355 4278931873
0.028021801 0.023042217 -0.048980616 4278539429
0.030884352 0.0203126 -0.046789631 4278539173
0.034044415 0.016864765 -0.043944202 4278473638
0.03778901 0.011979468 -0.039787248 4278998430
0.043542679 0.0020596683 -0.031030886 4279129499
-0.021235406 -0.052688766 0.031020096 4281028994
-0.020100571 -0.048865873 0.027084054 4279915153
-0.018813491 -0.045775678 0.023837956 4279719059
-0.017366245 -0.043417599 0.021279806 4279260569
-0.01575093 -0.041790824 0.019407513 4281358453
0.006185092 -0.007874433 -0.01755275 4282076534
0.0071357861 -0.0048104487 -0.020711003 4279194268
0.0080653653 -0.0017481558 -0.023863776 4278670243
0.0080379806 0.0042161979 -0.029686743 4278932383
0.0072585009 0.012354281 -0.03750363 4279260569
0.005942408 0.021938499 -0.046640716 4278801058
0.0055251643 0.028615881 -0.053092547 4279324829
0.0060384758 0.032389134 -0.056867227 4278931364
0.019238694 0.02531212 -0.052222423 4278866083
0.022042375 0.022568367 -0.050023362 4278800803
0.024335787 0.021273024 -0.049151286 4278801058
0.027444638 0.017809633 -0.046301331 4278801059
0.029766988 0.016516935 -0.045436431 4278669989
0.032920592 0.013057604 -0.042597726 4278801314
0.035824299 0.010322958 -0.040423781 4278998174
0.039027911 0.0068681426 -0.037597664 4279521944
0.043665413 -0.00019367412 -0.031494223 4279456663
-0.020883773 -0.056559343 0.031844892 4281357178
-0.019915693 -0.051991854 0.027232638 4279849619
-0.018979147 -0.047426831 0.02262854 4279718805
-0.017712288 -0.044329617 0.019394377 4278997663
-0.016282856 -0.041966353 0.016845817 4279587734
-0.014496744 -0.04106864 0.015660407 4280767619
0.0072074533 -0.007076744 -0.021167863 4280439944
0.0079093389 -0.0032771192 -0.024982851 4278670243
0.008584816 0.00052036718 -0.028791007 4279260058
0.0085247494 0.0064994171 -0.034592248 4279063708
0.0081833825 0.013202716 -0.041048601 4279063454
0.0075527765 0.020629555 -0.04815805 4278801058
0.0071136355 0.027324717 -0.054589264 4278931618
0.0073677711 0.031834893 -0.059016369 4278801313
0.0083389431 0.034162141 -0.061445497 4279062688
0.010303183 0.033581853 -0.061220042 4278931619
0.012782399 0.031549532 -0.05967205 4278997153
0.016307514 0.026614185 -0.055482969 4279062943
0.019609392 0.022408012 -0.051963851 4279063199
0.023205737 0.017478973 -0.047792792 4278932128
0.02630811 0.014004085 -0.044949546 4278473639
0.029436834 0.01053156 -0.04211295 4278604710
0.031779721 0.0092363432 -0.041256644 4278997918
0.034406476 0.0072173551 -0.039745688 4279194779
0.036772966 0.0059243888 -0.038895227 4279391383
0.039149955 0.0046323687 -0.038047343 4279456918
0.043225128 -0.0010030083 -0.03327091 4279653779
-0.019731633 -0.055126224 0.027375007 4280177038
-0.019144729 -0.049077664 0.021419341 4279587479
-0.017877132 -0.045971718 0.018191615 4278669989
-0.016447186 -0.043601926 0.01564789 4279915408
-0.014846973 -0.041967724 0.013786208 4280440199
0.0079842322 -0.0055363812 -0.025435286 4279849874
0.0084297992 -0.0009973608 -0.029901814 4279587478
0.0093160048 0.0020788498 -0.033030037 4279260059
0.010419887 0.0044234395 -0.035488382 4279587733
0.010300696 0.010415111 -0.041261096 4279390619
0.0089188181 0.020050395 -0.050338037 4278800803
0.0082084127 0.027492307 -0.057410292 4279259804
0.008691974 0.031284966 -0.061160587 4278539174
0.010913141 0.029974233 -0.060277104 4278408358
0.013654141 0.027207447 -0.058075562 4278604709
0.0174454 0.021529391 -0.053240709 4278604964
0.021018941 0.016583152 -0.049075559 4278866849
0.024629422 0.011640143 -0.044919722 4278997918
0.027215963 0.0096108764 -0.04340373 4279325848
0.02981827 0.0075831078 -0.041891724 4279391384
0.032165878 0.006283924 -0.041039892 4279456918
0.035070237 0.0035318993 -0.038879447 4279522454
0.037168302 0.0029619224 -0.038689107 4279653779
0.039549965 0.0016660467 -0.037845746 4279587733
0.043909539 -0.0047126375 -0.032429844 4279718548
-0.019373197 -0.059006501 0.028190201 4282405993
-0.018776767 -0.052939784 0.022245361 4280242829
-0.017861456 -0.048350479 0.017666722 4278997663
-0.016611464 -0.045237195 0.014450176 4279456663
-0.015196703 -0.042862069 0.011915402 4279588244
-0.013609279 -0.041224476 0.0100604 4279915664
0.0089747012 -0.0047123581 -0.029020038 4280702084
0.0096336529 -0.00089444965 -0.032807279 4279784338
0.011220496 -6.9513917e-06 -0.033936609 4279456919
0.011595955 0.0045394599 -0.03837499 4279325848
0.011208143 0.0112781 -0.044789426 4279128989
0.01003328 0.020206913 -0.05317384 4279325593
0.010788109 0.023281142 -0.056261443 4278866848
0.012528911 0.023429934 -0.056705959 4278866849
0.015287373 0.020655967 -0.054515503 4278735780
0.018581057 0.016422965 -0.051014267 4278801314
0.022166109 0.011462469 -0.046863638 4279718039
0.025525726 0.0072353482 -0.043379053 4279980688
0.027857024 0.0059302561 -0.04252658 4280045969
0.030198835 0.0046261288 -0.04167667 4279653269
0.032821387 0.0025937296 -0.040174704 4279522454
0.03518682 0.0012918562 -0.039330639 4279587989
0.037562713 -8.970499e-06 -0.038489204 4279522199
0.039670892 -0.00058011711 -0.038303003 4279456919
0.044873443 -0.0091636218 -0.030946178 4279719314
-0.018054835 -0.058293488 0.024415405 4282209388
-0.017665923 -0.051472466 0.017814865 4278997664
-0.016592793 -0.047611069 0.013928054 4279456663
-0.015174866 -0.04522923 0.011397474 4279850129
-0.013396345 -0.044325542 0.010218974 4279719060
-0.011622947 -0.043422174 0.0090419482 4279849874
0.010421844 -0.0053451471 -0.031267043 4280440453
0.011780979 -0.0037202649 -0.033058617 4279457684
0.012406576 0.0001058653 -0.036828876 4279260569
0.012274843 0.0061313026 -0.042571746 4279260314
0.011854559 0.012886807 -0.048962861 4279521433
0.012880215 0.015238222 -0.051390909 4278997663
0.014644662 0.015389025 -0.051841468 4279260315
0.016917458 0.014074165 -0.050977707 4279260314
0.019971311 0.010562275 -0.048147194 4279653268
0.022792052 0.0077851675 -0.045979109 4279718803
0.025633868 0.0050100014 -0.043816306 4279784849
0.027967237 0.0037007257 -0.042967618 4279784339
0.030845892 0.00092897564 -0.040814087 4279784594
0.032935493 0.00035371259 -0.040624999 4279456663
0.035302959 -0.00095228106 -0.039784819 4279849618
0.037405588 -0.001526162 -0.039598927 4280112269
0.040069353 -0.003561236 -0.038112145 4280440199
0.04611614 -0.014362421 -0.028824706 4280440199
-0.017291166 -0.05534428 0.0186313 4282274158
-0.016574524 -0.049989026 0.013402937 4279980944
-0.015338756 -0.046859529 0.010203438 4279653523
-0.013560139 -0.045953665 0.0090265665 4279587733
-0.011786681 -0.045048174 0.0078511499 4279587734
-0.010404851 -0.042662453 0.0053350255 4279784338
0.011863897 -0.0059735961 -0.033509165 4280571523
0.012733895 -0.0028725341 -0.036613114 4279587988
0.013339337 0.00096286461 -0.040369824 4279325339
0.013426237 0.0062676743 -0.045434795 4278866849
0.014968297 0.0071561635 -0.046549004 4278932384
0.016253708 0.0087796524 -0.048317999 4279391129
0.018544426 0.0074619353 -0.047462091 4279653269
0.020589046 0.0068801381 -0.047263652 4279587733
0.023157421 0.0048295967 -0.045758098 4279588244
0.025741577 0.0027805492 -0.044256546 4279784594
0.028341534 0.00073294342 -0.042758886 4279653779
0.030957274 -0.0013131872 -0.041265156 4279784339
0.03304914 -0.0018903874 -0.041078348 4279980689
0.035418663 -0.0032005012 -0.040241979 4280373643
0.037523571 -0.0037763417 -0.040058315 4281161339
-0.016556621 -0.052371081 0.012874888 4280962949
-0.015317485 -0.049232598 0.0096810888 4280046479
-0.013911624 -0.046838637 0.0071635637 4279456663
-0.012331095 -0.045188542 0.0053203478 4279391129
-0.010954026 -0.042796735 0.0028104093 4278670244
-0.0093970373 -0.041148391 0.00097339228 4280178059
0.013060333 -0.0058593489 -0.036403589 4280177548
0.013672035 -0.0020125732 -0.0401536 4279063198
0.014257312 0.0018320642 -0.043896779 4278473128
0.015313085 0.0041991249 -0.046322595 4278408103
0.016855208 0.0050898977 -0.047435075 4279195034
0.018899506 0.0045057945 -0.04723829 4279588244
0.021205448 0.0031851567 -0.046389498 4279653779
0.023262866 0.002602417 -0.046195883 4279719314
0.025848866 0.00054699928 -0.044699721 4279850384
0.028186329 -0.00077053905 -0.04385874 4279850383
0.030801253 -0.0028232522 -0.042369783 4280178059
0.03289276 -0.0034026429 -0.042184535 4281685618
-0.014262613 -0.047718886 0.0053040143 4280177039
-0.012494285 -0.046809521 0.0041332096 4279128989
-0.011116695 -0.044411171 0.0016281083 4278407848
-0.0093639828 -0.043502856 0.00046150014 4279653778
-0.007814534 -0.041850638 -0.0013702111 4280112268
-0.0064762309 -0.039455306 -0.0038649375 4282537319
0.014003865 -0.0049964674 -0.039943572 4280374919
0.014349809 -0.00040031597 -0.044334382 4278866083
0.015657011 0.0012335777 -0.046102338 4278277034
0.017204488 0.002127029 -0.04721456 4279325849
0.019253721 0.0015411451 -0.047020651 4279850384
0.021564344 0.00021662936 -0.046176396 4279850384
0.023885496 -0.001106903 -0.045334697 4279850384
0.026217148 -0.0024293959 -0.044495638 4279981453
0.028295221 -0.0030123256 -0.044308793 4280571269
0.030378511 -0.0035946704 -0.044123176 4281489268
-0.014238533 -0.050088953 0.0047830734 4281355393
-0.013037283 -0.046936091 0.001612423 4279063198
-0.011471886 -0.045278508 -0.0002202224 4279325593
-0.0097217411 -0.044368248 -0.0013845144 4279981199
-0.0079767928 -0.043458264 -0.0025474308 4279850129
-0.0066379793 -0.041056376 -0.0050373124 4280636293
-0.0047055483 -0.040893424 -0.0055324575 4282406503
0.014196506 -0.0018944554 -0.045427702 4278997663
0.01525599 0.00048594177 -0.047844514 4278867103
0.017051583 0.00063943118 -0.048303008 4279522709
0.019353747 -0.00069029629 -0.047459953 4279850639
0.021666421 -0.0020189583 -0.046619531 4279981454
0.024248203 -0.0040878579 -0.045132317 4280243593
0.026584545 -0.0054142587 -0.044297755 4281095804
-0.012630802 -0.050799724 0.0024249386 4280700044
-0.011249561 -0.048388112 -7.1186572e-05 4280045458
-0.0096890442 -0.046726484 -0.0018991753 4280046479
-0.0081390068 -0.045065563 -0.0037244223 4279849619
-0.0065994188 -0.04340547 -0.0055468595 4279718805
-0.0048673972 -0.042494204 -0.0067045791 4280046478
-0.0033461377 -0.040835362 -0.008522178 4280441729
0.014607666 0.00048720464 -0.050233692 4279064729
0.01664827 -0.00010380521 -0.050041005 4279851150
0.019453345 -0.0029258095 -0.047902234 4280899453
