# .PCD v0.7 - Point Cloud Data file format
VERSION 0.7
FIELDS x y z rgba
SIZE 4 4 4 4
TYPE F F F U
COUNT 1 1 1 1
WIDTH 980
HEIGHT 1
VIEWPOINT 0 0 0 1 0 0 0
POINTS 980
DATA ascii
-0.0046817437 0.019137029 0.0090638418 4290782233
-0.0020867884 0.015932396 0.012451845 4290128159
-6.5583736e-05 0.015375538 0.01285843 4289670178
0.0019610636 0.014819071 0.013264094 4289474849
0.0033708662 0.016907958 0.010696113 4289475104
0.004764583 0.018996013 0.0081311511 4289213473
0.0066250376 0.019100437 0.0077957409 4290063388
0.0091401115 0.016561797 0.010427288 4290651418
0.011843078 0.013363818 0.013796229 4290585629
0.014911052 0.0088464841 0.018641859 4290520603
0.018875368 0.0010296479 0.027182128 4291306259
0.025694963 -0.017346356 0.047547318 4291306259
-0.015120365 0.022385094 0.0037072217 4289668903
-0.013820488 0.025146049 0.00039363664 4290126884
-0.012132313 0.025912233 -0.00068090582 4289538853
-0.010170892 0.025349438 -0.00026534859 4289015594
-0.0079200789 0.023458516 0.0016374283 4289342759
-0.0055083819 0.020904507 0.0042809104 4290455069
-0.003222432 0.019015748 0.0061774151 4290716698
-0.0012203231 0.018455565 0.0065858653 4289932063
0.00048177689 0.019223051 0.0055091782 4289736479
0.0020231269 0.020653799 0.003691881 4289998109
0.0035537481 0.022084082 0.0018765407 4289801503
0.0055560619 0.02152421 0.0022852386 4290389788
0.0078907683 0.019638719 0.0041733244 4289996834
0.010906421 0.015102614 0.0090173716 4290323999
0.014297534 0.0092432648 0.015333085 4290913304
0.019109694 -0.0019139238 0.027549881 4290651418
-0.015877217 0.024185939 -0.0010676619 4289734949
-0.014456566 0.026288182 -0.0036286716 4290389023
-0.012779109 0.027055992 -0.0046997201 4290650654
-0.010828707 0.026490316 -0.004283763 4290715933
-0.008447405 0.023925532 -0.0016411543 4290716189
-0.0058999881 0.020695701 0.0017396375 4290912539
-0.0040615425 0.020798452 0.0014078883 4290062114
-0.0023729205 0.021567311 0.00033512281 4289866274
-0.00053704157 0.021670094 3.9594015e-06 4289932063
0.0012988821 0.021772953 -0.00032716111 4290193438
0.0028189309 0.023207115 -0.0021374635 4290782234
0.0043282583 0.024640717 -0.0039457288 4289866019
0.0066435747 0.022747364 -0.0020588182 4288688428
0.0096392035 0.018194476 0.0027777967 4289734949
0.013516203 0.010318825 0.011296045 4289604134
0.019343454 -0.0048662834 0.027911678 4289604134
-0.018184327 0.024570037 -0.0040134857 4289144878
-0.016501639 0.025340188 -0.0050840424 4290258209
-0.01495783 0.026779361 -0.0068960534 4290192673
-0.013152122 0.026879914 -0.0072221542 4289473318
-0.010929417 0.024973851 -0.0053238082 4289407784
-0.0085488148 0.02240004 -0.0026873676 4290323744
-0.0064353086 0.021164741 -0.0015357692 4290258208
-0.004899133 0.022603892 -0.0033460464 4289996833
-0.0032239221 0.023374241 -0.0044148248 4289932064
-0.0014016069 0.023476241 -0.0047435565 4289801249
0.00057587028 0.022910347 -0.0043336963 4289931809
0.0020853542 0.024348348 -0.0061389166 4290585884
0.0037445985 0.025118198 -0.0072046104 4290912539
0.0058880858 0.023885161 -0.0060579409 4290716188
0.0088717863 0.019315904 -0.0012301715 4290454303
0.013073243 0.010078184 0.008743749 4290519839
0.019919151 -0.0091615357 0.029738743 4290519839
-0.018284574 0.023053922 -0.0050533894 4289210414
-0.016863346 0.025169507 -0.0076051783 4290258464
-0.015191272 0.025941387 -0.0086721964 4289538854
-0.013252243 0.02537046 -0.008257417 4288753964
-0.011168897 0.024128767 -0.0071036033 4289342504
-0.0089332014 0.022216773 -0.0052122651 4289800484
-0.0068254918 0.020976655 -0.0040627699 4289669923
-0.0051476061 0.021749293 -0.0051305308 4289473829
-0.0034750514 0.022521716 -0.0061972728 4289539364
-0.0016555376 0.022623546 -0.0065255091 4289735713
9.0524554e-06 0.023395751 -0.0075907274 4290127903
0.0015106536 0.024837781 -0.0093913944 4290258718
0.0031618737 0.025609391 -0.010454021 4289539108
0.0054599121 0.023701631 -0.00857348 4289277224
0.0086028054 0.018446656 -0.0030204151 4289473318
0.013136208 0.0078382753 0.0084015951 4289735204
0.021007009 -0.015482504 0.033755902 4289473318
-0.018384777 0.021538064 -0.0060931202 4289669923
-0.017224394 0.025008043 -0.01011993 4289735458
-0.015424378 0.025108151 -0.010445091 4290651163
-0.013352312 0.023861278 -0.009292501 4290455069
-0.010992046 0.021268282 -0.0066650342 4290585884
-0.0090342425 0.020696288 -0.0062550521 4290127904
-0.0070709884 0.020124732 -0.0058460361 4289735203
-0.0053957514 0.020899462 -0.006911749 4289539364
-0.0035764128 0.021001171 -0.0072400318 4289866274
-0.0022133887 0.02312094 -0.0097761126 4289866274
-0.00055682659 0.023894884 -0.010838277 4290127648
0.00093688071 0.025340991 -0.012634429 4289997089
0.0032208785 0.02342559 -0.010756081 4289997089
0.0056839399 0.020839164 -0.0081465859 4289604644
0.0089964867 0.014894601 -0.0018733027 4289277479
0.013703696 0.0035789981 0.010255584 4289277223
0.022263743 -0.022506304 0.038484242 4289473829
-0.018868208 0.0220512 -0.0093490379 4289538854
-0.017584808 0.024855819 -0.012628349 4289669923
-0.016056571 0.026307512 -0.014428169 4290651674
-0.013859835 0.024379682 -0.012539367 4290455324
-0.011508346 0.021777224 -0.0099165989 4291109399
-0.0095588788 0.021202557 -0.0095067313 4290978584
-0.0076039545 0.020628273 -0.009097795 4289931809
-0.0059367642 0.021404771 -0.010160505 4289997088
-0.003976319 0.020830989 -0.009752431 4289866019
-0.0023143813 0.021607373 -0.010814064 4289800739
-0.00081245601 0.023058319 -0.012608632 4289735204
0.00083611533 0.023834143 -0.013667726 4290847003
0.0031195506 0.021911988 -0.011793987 4290913049
0.0059073828 0.017967992 -0.0077257324 4290847259
0.0092238374 0.012003483 -0.0014672789 4290978329
0.014606263 -0.0020460635 0.013560462 4290847513
-0.020647913 0.019763758 -0.0093198391 4287442754
-0.019605927 0.023935031 -0.014069998 4290193184
-0.018335499 0.026747875 -0.017340701 4289604389
-0.016687531 0.027525108 -0.018398747 4289473829
-0.014502108 0.025589917 -0.016512614 4289081384
-0.012162089 0.022977846 -0.013894062 4289931553
-0.010082591 0.021722566 -0.012748993 4289997088
-0.008279752 0.021823145 -0.013074444 4290455068
-0.0064768419 0.02192384 -0.013399831 4290062624
-0.0045247301 0.021347344 -0.012991826 4290062369
-0.0030226521 0.022802647 -0.014783301 4289669923
-0.0013767779 0.023580449 -0.015840415 4289997088
0.000263758 0.024358055 -0.016896497 4290781979
0.0030182488 0.020398635 -0.012831722 4290454814
0.0058050603 0.016441146 -0.0087726954 4290781979
0.0094506219 0.0091035962 -0.0010671997 4290978073
0.015171085 -0.0063453354 0.015387098 4290978073
-0.021496207 0.022338554 -0.014773099 4289211434
-0.020342119 0.025841631 -0.018775348 4290127139
-0.018954501 0.027982108 -0.021302253 4290389278
-0.017582938 0.030121824 -0.023826234 4289800483
-0.015414219 0.028178968 -0.021941803 4290062368
-0.013091046 0.025556969 -0.019326504 4290781978
-0.010887187 0.023616297 -0.017448332 4290913049
-0.0090979114 0.02371612 -0.017771337 4290062624
-0.0071622767 0.023136355 -0.017362002 4290389789
-0.0052211918 0.022556935 -0.01695355 4289866019
-0.0035780258 0.023336785 -0.018008713 4290651163
-0.0020945482 0.024795601 -0.019793641 4289996834
-0.00046473742 0.025574828 -0.020846229 4289408038
0.0017987192 0.02363814 -0.018978357 4288950058
0.0048905648 0.018308504 -0.013466376 4289669669
0.0090162791 0.0089095645 -0.0035887379 4289800228
0.01573471 -0.01066228 0.017201547 4289800228
-0.0224673 0.025623666 -0.020942274 4289406508
-0.021076776 0.027770951 -0.023465119 4289995813
-0.01957228 0.029234562 -0.025251307 4290257954
-0.017945744 0.030014999 -0.02630233 4289996323
-0.015782975 0.028065119 -0.024421584 4290257698
-0.013465893 0.02543381 -0.02181147 4290519328
-0.011408728 0.024168266 -0.020668611 4290257953
-0.009484183 0.02358553 -0.020258922 4289996835
-0.0078464821 0.024367064 -0.02131163 4290127393
-0.0060652606 0.024466606 -0.021633063 4289996578
-0.0047385618 0.026611175 -0.024143793 4289996578
-0.0032737441 0.028073462 -0.025922265 4290258209
-0.0016627312 0.028853875 -0.026969898 4289603879
0.00074092671 0.026228162 -0.024374872 4289342249
0.0038153082 0.020879606 -0.018872306 4289603879
0.0087475516 0.0080438815 -0.0053765387 4290061603
0.016129479 -0.014316246 0.018277034 4289603879
-0.022689424 0.024828207 -0.022691123 4288556338
-0.021301262 0.026982062 -0.025208849 4288753199
-0.019669406 0.027764916 -0.026259344 4289080619
-0.017910294 0.027862657 -0.026577186 4289145644
-0.015880622 0.02659094 -0.025432687 4289407274
-0.01384009 0.025319872 -0.02429004 4289407274
-0.011788733 0.024049548 -0.023149334 4289930278
-0.010013141 0.02414857 -0.023469891 4289864999
-0.0083834678 0.024931872 -0.024519593 4289799463
-0.0069078095 0.026399046 -0.026297025 4289668904
-0.0052914768 0.027181797 -0.02734419 4289864998
-0.0038345382 0.028648073 -0.029118065 4290192164
-0.0022315606 0.02943027 -0.030162681 4289864999
3.8594007e-06 0.027478565 -0.028299171 4289668648
0.0030661523 0.022111414 -0.022806976 4289799718
0.0081494823 0.0085492469 -0.0086127259 4290061348
0.016523369 -0.017983396 0.01934348 4289668648
0.027490119 -0.05406367 0.057409734 4289799463
-0.022911213 0.024037553 -0.024436753 4288817713
-0.021271363 0.024822978 -0.025487203 4289210923
-0.01963678 0.025608215 -0.026536632 4289276459
-0.017742701 0.025018902 -0.026124861 4289603624
-0.015843146 0.024429988 -0.025714014 4288949549
-0.014075898 0.024528341 -0.026033208 4288557104
-0.012168095 0.02394003 -0.025623675 4287575609
-0.010397997 0.024038738 -0.025943249 4287183163
-0.0086278319 0.024137549 -0.026262764 4286136899
-0.004086569 0.027864475 -0.030852038 4286267713
-0.0021730363 0.027277116 -0.030443173 4286987068
6.4499676e-05 0.025318805 -0.028584752 4288164404
0.0028041936 0.021304866 -0.024554841 4288622128
0.0080463775 0.0070122294 -0.0096666412 4288622128
0.027712997 -0.057177611 0.057660736 4287641143
-0.022511758 0.019802237 -0.02252901 4289013808
-0.02098798 0.021280197 -0.024309378 4289341228
-0.019345298 0.022068098 -0.025358714 4289538088
-0.017575666 0.022166377 -0.025678489 4289734439
-0.015670992 0.02157549 -0.025270145 4289603623
-0.014036104 0.022363249 -0.026317872 4289211179
-0.0122662 0.022461833 -0.026637491 4289079598
-0.010639232 0.023249382 -0.027683698 4289145134
-0.0087261684 0.022659328 -0.027276546 4289603114
-0.0072528347 0.024135293 -0.029047307 4289210413
-0.005488053 0.02423398 -0.029365726 4289079854
-0.0037232116 0.024332775 -0.029684082 4288294964
-0.0018018782 0.023743607 -0.029278196 4287771958
0.00012487918 0.023154791 -0.028873179 4286856254
0.0030280687 0.018439787 -0.024129815 4286398529
0.0079432949 0.0054754876 -0.010720368 4286333249
0.027595472 -0.058925569 0.056462243 4287183164
-0.022733591 0.019009819 -0.024275787 4289013298
-0.021085605 0.019800143 -0.025324594 4289341483
-0.019572318 0.021282112 -0.02709993 4289930533
-0.017541282 0.01999685 -0.025965143 4289930533
-0.015768979 0.020095354 -0.026285343 4289931044
-0.013996579 0.02019397 -0.026605483 4289407784
-0.012364268 0.020983901 -0.027651127 4289603878
-0.010451555 0.020391507 -0.027245607 4289146154
-0.0088244788 0.021181349 -0.02829016 4288884269
-0.0070544854 0.021280222 -0.028609596 4288818479
-0.0052844398 0.021379199 -0.028928965 4288949294
-0.0033607259 0.020787815 -0.028525151 4289342249
-0.0014315918 0.020196835 -0.02812225 4289276714
0.00050295889 0.019606268 -0.027720246 4288818479
0.0030896738 0.016255993 -0.024432443 4288556594
0.0084977448 0.0011795387 -0.0088891294 4288556594
0.027647719 -0.061362751 0.055984199 4289080363
-0.02258344 0.016139045 -0.02383849 4288882739
-0.02105663 0.017626127 -0.025613211 4289275694
-0.019411206 0.018418616 -0.026659936 4289799463
-0.017375216 0.017129188 -0.025529232 4289865253
-0.015732285 0.017921733 -0.026575375 4289734693
-0.013957322 0.018020468 -0.026896 4289407528
-0.012322295 0.018812766 -0.027940575 4289538599
-0.010407154 0.018218273 -0.027537059 4289145898
-0.0087773614 0.019010479 -0.02858055 4288884269
-0.0068567134 0.018416481 -0.028177898 4289015083
-0.0049306341 0.017822882 -0.027776159 4289341993
-0.0029991157 0.017229639 -0.027375285 4289800229
-0.0012183376 0.017329417 -0.027696453 4289800229
0.00056248158 0.017429303 -0.028017554 4289407784
0.0033125468 0.013375683 -0.024017792 4288949293
0.0088867918 -0.0024419986 -0.0077896668 4288949293
0.027699688 -0.06380412 0.055503272 4289734694
0.033071693 -0.076827414 0.068771094 4289407784
-0.022681311 0.014652818 -0.024857979 4288555318
-0.020901479 0.014751416 -0.025179766 4289667884
-0.019379765 0.01624277 -0.026950374 4289668904
-0.017473303 0.015645122 -0.02654716 4289538344
-0.016099323 0.017831907 -0.029038634 4289473064
-0.014192674 0.017234476 -0.028635308 4289538343
-0.012560308 0.018028863 -0.029677838 4289276714
-0.010363024 0.016040811 -0.027831413 4289014829
-0.0087305121 0.016835405 -0.028873831 4289276459
-0.0068074502 0.016239291 -0.028473187 4289276459
-0.005029574 0.0163387 -0.028793979 4289407274
-0.0030983239 0.015743203 -0.028394628 4289603623
-0.0013176687 0.015842959 -0.028715782 4289538344
0.00062172115 0.01524817 -0.028317802 4289538344
0.0035348348 0.010486718 -0.023609146 4289080109
0.0092749372 -0.0060766675 -0.0066992785 4289079854
0.027920844 -0.066943735 0.055736668 4289603623
0.032950908 -0.078621544 0.067540966 4289407274
0.037249506 -0.078378856 0.066766992 4288491313
0.039398786 -0.078257315 0.066380136 4288619833
-0.022408389 0.011070305 -0.023705754 4288424504
-0.020873152 0.012566732 -0.025475707 4289471788
-0.019348577 0.014062701 -0.027243715 4289733928
-0.0179663 0.016256537 -0.029732067 4289799463
-0.016197052 0.016354829 -0.030051745 4289735714
-0.014290679 0.015755123 -0.029649954 4289276969
-0.012239128 0.014457876 -0.028528143 4288884013
-0.010176733 0.013161303 -0.027408164 4288949038
-0.0085388273 0.013958413 -0.028450008 4289014573
-0.006758444 0.014057849 -0.02877133 4289341483
-0.0051284879 0.014854772 -0.029811628 4289341739
-0.00335069 0.014954263 -0.030132342 4289537833
-0.0012611225 0.013659721 -0.029016912 4289342248
0.00068067759 0.013062818 -0.028620936 4289341738
0.0037565492 0.0075890049 -0.023206435 4289276459
0.0093343742 -0.0083313733 -0.0070510213 4289276459
0.027972098 -0.069395669 0.055248518 4289145388
0.032658152 -0.079719223 0.065595947 4289472554
0.034804612 -0.079598106 0.065209426 4289145133
0.036773697 -0.078781001 0.064108871 4288162873
0.038917445 -0.07865978 0.063723013 4288619833
-0.023123816 0.013083404 -0.028341066 4287639103
-0.021349601 0.013181658 -0.028661862 4288490293
-0.019832917 0.014681596 -0.030425284 4289145388
-0.018326886 0.016181095 -0.032186743 4289407274
-0.016563132 0.016279062 -0.032505441 4289604133
-0.014525514 0.01497642 -0.031384278 4288950058
-0.012477078 0.013674514 -0.030265044 4288490804
-0.010417804 0.012373269 -0.029147655 4288294453
-0.0089275055 0.013872409 -0.03090591 4288490803
-0.0070049912 0.013271773 -0.030508317 4288818479
-0.0055280179 0.014770327 -0.032263979 4289145389
-0.0036027133 0.014170056 -0.031866748 4289734183
-0.0016719773 0.013570203 -0.031470407 4289603369
0.00058096647 0.011572415 -0.029642947 4289603369
0.0038165934 0.0053816363 -0.023525231 4289407018
0.0097210631 -0.011987913 -0.0059756339 4289407018
0.027515603 -0.069756113 0.052615274 4289603369
0.032022018 -0.079415254 0.062227063 4289407018
0.034334805 -0.079992868 0.062555149 4289275694
0.036298499 -0.079173796 0.061457083 4288358969
-0.0091707632 0.013093455 -0.032638561 4287769408
-0.0076936781 0.014596436 -0.034391224 4287900988
-0.0059269369 0.014695179 -0.034710035 4288556338
-0.0038544089 0.013390608 -0.033597883 4289079598
-0.0017710887 0.012086807 -0.032487642 4288948528
0.00048128143 0.010082278 -0.030664779 4288883249
0.0037154295 0.0038712919 -0.024560887 4288751923
0.0096159987 -0.013554364 -0.0070497356 4288751923
0.02739775 -0.071508855 0.051413503 4288948528
0.031558521 -0.079798155 0.059579708 4288817203
0.034214381 -0.081779294 0.061330352 4288294199
0.036001004 -0.080257662 0.059522774 4287703873
-0.00025077164 0.011407007 -0.03453812 4288096063
0.0029711425 0.0051752217 -0.028446112 4288096829
0.0090205483 -0.013010532 -0.010259478 4288096063
0.030924089 -0.079468824 0.056228202 4288096063
0.033571281 -0.081457146 0.057975721 4287966013
0.009600956 0.010127515 0.083970085 4284118574
0.011030033 0.012698967 0.080495395 4283925029
0.013061799 0.012813039 0.080129124 4283926559
0.01636352 0.0080159158 0.085967995 4283926303
0.020354141 0.00076626986 0.094899759 4283860768
0.03340216 -0.00036788732 0.094961479 4283723069
0.0064095333 0.012619691 0.077733107 4283986739
0.0076804981 0.015816245 0.073490493 4284057374
0.0093841814 0.017161977 0.071577929 4283924518
0.011544835 0.016658174 0.071991123 4283858219
0.014186673 0.014306303 0.074725576 4283859749
0.017333984 0.010107629 0.079777062 4283925029
0.020355076 0.0065270141 0.084048606 4283991074
0.022575192 0.006026797 0.084451184 4284056353
0.024292633 0.0073735863 0.082536414 4284056354
0.025483124 0.010566033 0.078308605 4283990819
0.02699618 0.012526534 0.07562802 4283992603
0.029557776 0.010795554 0.077574581 4283927069
0.033396542 0.0047609285 0.084909692 4283926559
0.0052626543 0.015258215 0.07114958 4284120613
0.006665796 0.017846102 0.067692094 4284058393
0.0085065998 0.01857668 0.066559099 4283862299
0.010653559 0.018069876 0.066973127 4283861278
0.013439711 0.015089726 0.07047645 4283927068
0.016413979 0.011492934 0.074746951 4283993369
0.018929148 0.0097523592 0.07669691 4283990818
0.020627938 0.011102524 0.074788593 4284056099
0.022146752 0.013069989 0.072111629 4283990563
0.023477517 0.015654206 0.068667538 4283927324
0.025485139 0.015767271 0.068305865 4283858474
0.027670054 0.015263043 0.06871336 4283857963
0.030760314 0.011673149 0.072963223 4283924518
0.03497903 0.004382804 0.081816398 4283924518
0.0047079548 0.015443342 0.067679636 4284186658
0.0061035529 0.018039783 0.064229809 4284121889
0.0080892518 0.018151162 0.063871764 4283925539
0.010386195 0.017020971 0.065056689 4283925793
0.013168819 0.01402941 0.068552725 4283925793
0.015817465 0.011659933 0.071273424 4284056099
0.017996686 0.011152854 0.071680173 4284056099
0.01968224 0.012506766 0.069777392 4284056609
0.021357037 0.013860133 0.067876592 4284056099
0.022849306 0.015832895 0.065209158 4283993113
0.024499867 0.017185047 0.063312761 4283928853
0.026848242 0.016058156 0.064488776 4283927833
0.029746912 0.013073575 0.067964219 4283993368
0.034315329 0.0045167878 0.078334495 4283993113
0.0031786598 0.01116501 0.069980808 4283787584
0.0043015443 0.015018687 0.064990424 4284121378
0.005542241 0.0182472 0.060776852 4283925793
0.0076725297 0.017734883 0.06119068 4283860513
0.0099637136 0.016599813 0.062373541 4283925539
0.012898259 0.012973733 0.066632248 4283925029
0.01522189 0.011840602 0.067809336 4284122144
0.017392807 0.011330804 0.068216003 4284122144
0.018904289 0.013311272 0.065549754 4284056353
0.020568538 0.014668532 0.063653998 4284055844
0.02222202 0.016025286 0.06176018 4283925029
0.024039039 0.016759442 0.060634907 4283925283
0.026381645 0.01562777 0.06180878 4283925539
0.029274102 0.012631563 0.065277509 4283925284
0.034382083 0.0021782219 0.077922337 4284056354
0.003066469 0.0094844326 0.068828337 4283920184
0.0041901916 0.013351625 0.063847236 4283989799
0.0054315627 0.016591387 0.059641395 4283992604
0.0072564483 0.017327754 0.058515944 4283928343
0.0096971616 0.015562531 0.060465064 4283796764
0.012470052 0.012547923 0.063947089 4283796508
0.014787914 0.011410004 0.065122016 4284056099
0.016953219 0.010897627 0.065528117 4284055844
0.018791823 0.011635063 0.064400405 4284056098
0.02028754 0.013621436 0.061741754 4284056354
0.021938564 0.014982508 0.059851568 4283925028
0.023927117 0.015094498 0.059493326 4283927579
0.026446203 0.013334157 0.061428659 4283926559
0.02952005 0.0097028948 0.065653153 4283860004
0.034813002 -0.0014123358 0.079034291 4283859239
0.0019437894 0.012201432 0.062294461 4283986484
0.0033435933 0.014824959 0.058862668 4284056609
0.0048716739 0.016819457 0.056202598 4283793448
0.0066885538 0.017557599 0.055080157 4283726893
0.009120658 0.015785132 0.057026088 4283794469
0.011884645 0.012758775 0.06050184 4283925538
0.014354568 0.010988558 0.062441051 4284056864
0.016677482 0.0098464787 0.063611954 4284056099
0.018181629 0.011839999 0.060956452 4284056354
0.019501049 0.01445947 0.057539549 4283990818
0.020798918 0.017077828 0.054126527 4283994899
0.023119219 0.015935855 0.055298079 4283795999
0.025803683 0.013541767 0.057993677 4283797019
0.029406626 0.0080178231 0.064497806 4283865103
0.035060927 -0.0043901578 0.079375066 4283863319
0.0012558885 0.013058821 0.058084086 4284120868
0.002498541 0.016321031 0.053893682 4283993368
0.0041631386 0.017691346 0.052006993 4283927578
0.0059693083 0.018431153 0.050887991 4283927324
0.0083901063 0.016651299 0.052831233 4283993368
0.011142481 0.013613034 0.056301195 4284124439
0.013601098 0.011835432 0.058237713 4284056099
0.015749792 0.01131762 0.05864365 4284055844
0.017240848 0.013317136 0.055995226 4284056608
0.018547311 0.015944898 0.052586902 4283993623
0.020003404 0.017942546 0.049944926 4283793704
0.022312544 0.016795449 0.051115338 4283726893
0.025162088 0.013763104 0.054568104 4283793704
0.028934747 0.0075898878 0.061820745 4283859238
0.035308253 -0.0073768385 0.079709843 4283859239
0.00028111786 0.01519984 0.052354846 4284186403
0.0018017851 0.017207308 0.04970549 4284122654
0.0036052689 0.017949091 0.04858854 4283994134
0.0055555813 0.018058406 0.048236821 4283993368
0.0079704598 0.016271465 0.050176401 4284059158
0.010559078 0.013853593 0.052876312 4284057119
0.012688648 0.013332339 0.053284112 4284056098
0.01466072 0.013443133 0.052928653 4284056099
0.016301602 0.014817014 0.051049594 4284056099
0.017931733 0.016190315 0.049172562 4283993368
0.019380108 0.018194307 0.046536647 4283731739
0.021680797 0.017042201 0.047705483 4283730718
0.024521422 0.013998119 0.051151987 4283862299
0.02864255 0.0065404698 0.059909329 4283861788
0.035373196 -0.0097417198 0.079279646 4283861533
-0.0010830462 0.010273114 0.055406075 4283721284
0.00017164275 0.01355836 0.051229164 4284186658
0.0015460812 0.016207354 0.047820788 4284056099
0.0033469424 0.016951229 0.046705872 4283990564
0.0054464638 0.01642587 0.047117323 4283990309
0.007860817 0.014632149 0.049052272 4284121888
0.0099766217 0.014107831 0.049460877 4284122144
0.011937801 0.014217939 0.049107328 4284121634
0.013899017 0.014328118 0.048753817 4284121634
0.015860263 0.014438367 0.048400354 4284056098
0.017485222 0.015815901 0.046527348 4283925028
0.019270282 0.016559424 0.045415659 4283863319
0.021397041 0.016036132 0.045822579 4283861024
0.024234131 0.012980618 0.049261853 4283926048
0.028529603 0.0048627369 0.058759015 4283991584
0.035437837 -0.012110919 0.078846492 4283991073
-0.0014752895 0.0098953433 0.052746594 4283919929
-0.00036907569 0.013828726 0.047815785 4284186658
0.0011442602 0.015849175 0.045177206 4283927834
0.0030889437 0.015958071 0.044826429 4283795998
0.0053373836 0.014793534 0.045997959 4283796254
0.0077511966 0.012993025 0.04792827 4283991073
0.0097095445 0.013102895 0.047575176 4284056354
0.011667944 0.013212834 0.047222119 4284121633
0.013626382 0.013322849 0.04686911 4284121889
0.015419537 0.014068963 0.045757379 4284056353
0.017207343 0.014814824 0.044646725 4284056609
0.019160472 0.01492474 0.044294812 4283858983
0.021633781 0.013128061 0.046214741 4283793703
0.024299338 0.01069697 0.048888568 4283925029
0.028595448 0.0025499314 0.05836517 4283990818
0.035865135 -0.015754636 0.07992202 4283990818
-0.0021487027 0.010805963 0.048570406 4283920183
-0.0010524616 0.014752293 0.043650776 4284055333
0.00045046955 0.016778877 0.04101878 4283991839
0.0022352971 0.017526343 0.039909832 4283926049
0.0049249604 0.014439415 0.043359552 4283863318
0.0073328391 0.012631863 0.045286156 4283991584
0.0095998719 0.011463959 0.046451319 4283990308
0.011398412 0.012212479 0.045340095 4284121889
0.01335407 0.012322325 0.044987574 4284122143
0.014979452 0.013708757 0.043120787 4284056863
0.016426226 0.015732788 0.040499255 4283993114
0.018368496 0.015842099 0.040149305 4283731484
0.021176966 0.012762448 0.043577954 4283666713
0.024364244 0.0084090568 0.048512291 4283795488
0.029018238 -0.0010421351 0.059477787 4283991328
-0.0031024218 0.013018642 0.042886663 4284120869
-0.0020215139 0.016977534 0.037979275 4283992349
-0.00024208426 0.017726814 0.036872856 4283858728
0.001532048 0.01847587 0.03576744 4283858218
0.004361622 0.014735825 0.039969381 4283924773
0.006915126 0.01227989 0.042650413 4283991838
0.0093332976 0.010466235 0.044570483 4283990308
0.010969598 0.011857614 0.042704765 4284056354
0.01291978 0.011967145 0.042353228 4284056354
0.014374979 0.013998313 0.039734848 4283926303
0.015814051 0.016028617 0.037119478 4283860258
0.017918538 0.015497247 0.037525628 4283727659
0.020893864 0.011765966 0.041701697 4283729443
0.02425308 0.0067567378 0.047379386 4283863063
0.029440135 -0.0046475492 0.06058133 4283925794
-0.0040542968 0.015258543 0.037221655 4284186404
-0.0024155006 0.016654097 0.03535831 4284058394
-0.00093339384 0.018692994 0.032739434 4284058904
0.001127407 0.01815634 0.033151478 4284058904
0.0036478341 0.015689481 0.035832122 4284059158
0.0063439496 0.01258054 0.039264936 4284056863
0.0084399581 0.012046082 0.039670784 4284056099
0.010222465 0.012798142 0.038565636 4284056099
0.011837471 0.014192879 0.036706939 4283990818
0.013606578 0.014944363 0.035604257 4283993879
0.014867693 0.017623421 0.032241896 4283794468
0.017128717 0.01644659 0.033402048 4283792428
0.019919332 0.013343472 0.036818188 4283793448
0.023790658 0.0063889846 0.044742335 4283794214
0.029326158 -0.0063402206 0.059420783 4283991074
-0.0058112182 0.012246866 0.037978981 4284184618
-0.0045829341 0.015586581 0.033846017 4284186403
-0.0028088465 0.016339941 0.032743629 4284056353
-0.0010400638 0.017093079 0.031642247 4284056099
0.0011690408 0.015908238 0.032808192 4284056354
0.0033890009 0.014724035 0.033972275 4284056608
0.0059276484 0.012249282 0.03664339 4284056353
0.0077047758 0.013003226 0.03554067 4284056098
0.009635888 0.013111599 0.035192508 4284056353
0.01108101 0.015155545 0.032585364 4284055844
0.012839414 0.015908627 0.031486224 4284057374
0.014090262 0.018596122 0.028131954 4284059923
0.016510207 0.016769458 0.030042525 4284058904
0.019291896 0.013654612 0.03345241 4284058394
0.023153398 0.0066748448 0.041361082 4283991839
0.029034022 -0.0073884092 0.057510287 4284122909
-0.0060562491 0.011280265 0.036115292 4284185384
-0.0048299916 0.014631066 0.031990543 4284186658
-0.003058549 0.015386499 0.030890182 4283991583
-0.0011466928 0.015493399 0.030545216 4284058139
0.0010620169 0.014304029 0.031708077 4283991329
0.0031304955 0.013763316 0.032115664 4284056354
0.0053581931 0.012575159 0.033275202 4284122399
0.0071273074 0.013330858 0.032175545 4284121634
0.0090502463 0.013438765 0.031828851 4284121634
0.010649502 0.014841618 0.029979225 4284122144
0.012402575 0.015596645 0.028882619 4284055844
0.01381579 0.017645722 0.026286002 4283990054
0.016232504 0.015812097 0.028192483 4283990054
0.018838018 0.013332643 0.03084562 4283990053
0.022867696 0.0056811161 0.039487325 4284056099
0.029276252 -0.010371391 0.057848703 4284056099
-0.0065758787 0.011620449 0.032746255 4284185639
-0.0052168854 0.014331155 0.029384494 4284121633
-0.0034507699 0.015088564 0.028286617 4283928089
-0.0013988428 0.014544513 0.028695501 4283928598
0.00095503032 0.012700031 0.030608099 4283863573
0.0031741932 0.011506779 0.03176602 4283992094
0.005096931 0.011614496 0.031419236 4284056099
0.0073323697 0.01042236 0.032574289 4284055588
0.0091015846 0.011180367 0.031476226 4284055843
0.010703754 0.01258784 0.029629268 4284056353
0.011966366 0.015293855 0.026285388 4283990818
0.014042936 0.014751863 0.026690226 4283993114
0.016294695 0.013561031 0.027842607 4284058394
0.019074682 0.010423645 0.031237077 4283991073
0.02293266 0.003394302 0.039111804 4283990308
0.030229356 -0.015958235 0.061169181 4283990308
-0.007094577 0.011974413 0.029386591 4283989799
-0.0056031384 0.01404053 0.026784737 4283925538
-0.0038423389 0.014799822 0.025689419 4283794724
-0.0017960556 0.014253234 0.026097693 4283662123
0.00040379167 0.013054313 0.027255882 4283797273
0.0027652644 0.011203593 0.029162444 4283924518
0.0046825223 0.011310996 0.028816644 4284056353
0.0067560151 0.010766214 0.029220283 4284121634
0.008676067 0.010873934 0.028874092 4284121889
0.010434594 0.011633703 0.027779534 4283991073
0.011859283 0.013696764 0.025190268 4283992603
0.013768662 0.013804127 0.024846174 4283795743
0.016186964 0.011957163 0.026742883 4283796509
0.019138433 0.0081571527 0.030876126 4283929109
0.023697423 -0.0015015043 0.041717179 4283994388
-0.0095155388 0.012236016 0.026379973 4283986484
-0.0084353723 0.016275369 0.021529108 4284055843
-0.006408345 0.01572529 0.021939166 4284057883
-0.0043758526 0.015175583 0.022348277 4284055078
-0.0020473786 0.013316067 0.024256002 4283988524
1.4305115e-06 0.012767445 0.024662293 4283860004
0.0022063442 0.011564385 0.025816474 4283926303
0.0042687468 0.011016695 0.02622043 4284121378
0.0063365996 0.010469373 0.026623454 4284121378
0.0082511678 0.010576779 0.026278246 4284187169
0.009842962 0.011992624 0.024439435 4284057373
0.011424016 0.013407992 0.022602573 4283989544
0.013327908 0.01351504 0.022259459 4283922989
0.015740281 0.011660969 0.024152573 4283924009
0.018857531 0.0071936063 0.029022384 4283990309
0.023936067 -0.0044592842 0.042074032 4284055079
0.0016483441 0.011938965 0.022479881 4284379438
0.0037024207 0.011388553 0.022883762 4284316198
0.005450204 0.012151981 0.0217942 4284447779
0.0073512122 0.012258613 0.021451432 4284316709
0.008768484 0.014334666 0.01887282 4284385049
0.010661483 0.014441015 0.018531609 4284251684
0.012721151 0.013891285 0.018934816 4284314669
0.015124884 0.012030037 0.020824723 4284184363
0.018404923 0.0068905838 0.026428588 4284251429
0.024174128 -0.0074258782 0.042424913 4284317984
-0.018825449 0.0038052052 0.013835927 4282863719
-0.019785888 0.0069669969 0.0075779725 4282928744
-0.02511587 0.012207845 -0.029757351 4280109209
-0.022203065 0.015919875 -0.033999451 4281154709
-0.02070234 0.017423429 -0.035756908 4281678734
-0.018818192 0.016817756 -0.035354342 4282789260
-0.027101852 0.011337519 -0.0311713 4281356159
-0.026056223 0.015669666 -0.035809577 4278996134
-0.02455014 0.017177727 -0.037564974 4279061159
-0.023054726 0.018685343 -0.039318424 4278730678
-0.021441422 0.019487141 -0.040351577 4278993839
-0.019308567 0.017468192 -0.038512569 4279322024
-0.017293401 0.016155258 -0.037393752 4280110228
-0.015403967 0.015547823 -0.036993582 4280568463
-0.013509095 0.014940839 -0.036594361 4281091468
-0.011608765 0.014334271 -0.036196049 4281417104
-0.0099922903 0.015136871 -0.037229341 4282595459
-0.027433924 0.011277974 -0.033621099 4280765833
-0.026392907 0.015623216 -0.038249116 4278668713
-0.023527503 0.019354891 -0.04246705 4278470578
-0.017791338 0.016814426 -0.040544126 4279192229
-0.015773818 0.015497243 -0.039428808 4278537898
-0.013884593 0.014887709 -0.039030138 4278603434
-0.012273543 0.015692132 -0.040060956 4278865319
-0.010523304 0.015789723 -0.04037695 4278602923
-0.0090673789 0.01730039 -0.042119514 4279191464
-0.0073224045 0.01739791 -0.042434398 4278927793
-0.0054248124 0.016789362 -0.042036872 4279189679
-0.0033665523 0.015475199 -0.040928382 4279321768
-0.00098159164 0.012749955 -0.038398966 4279650974
0.0023887008 0.0057916306 -0.031607948 4279586204
0.0084260032 -0.0124529 -0.013459831 4279586204
0.027162107 -0.075013347 0.049010638 4279321768
0.030633379 -0.080536 0.054304112 4279650974
0.032929104 -0.081121214 0.054630544 4279586203
0.034876663 -0.080296397 0.053540114 4279913368
-0.028833896 0.0068675987 -0.031440817 4282863463
-0.028235272 0.014069129 -0.038933054 4279193249
-0.026849136 0.016296258 -0.04139901 4278537389
-0.025110461 0.016392367 -0.041713502 4278406574
-0.023622751 0.01790842 -0.04345927 4279062689
-0.022017471 0.018714221 -0.04448786 4278864808
-0.020155646 0.01810059 -0.044086043 4278471599
-0.018154763 0.016777905 -0.042970918 4278668203
-0.016279329 0.016165243 -0.042571407 4278406063
-0.014398437 0.015552942 -0.042172771 4278602923
-0.012795437 0.016359178 -0.043200627 4278471853
-0.011197742 0.017165186 -0.044227403 4278537388
-0.009605363 0.017971013 -0.045253146 4278273464
-0.0078685768 0.01806806 -0.045566563 4278271934
-0.0059793331 0.017456805 -0.045169096 4278468793
-0.0013956018 0.012694854 -0.040827587 4278994858
0.0021281727 0.0050058216 -0.033341605 4279127204
0.0084850825 -0.014712825 -0.013815227 4279127204
0.032635719 -0.082185954 0.052708738 4279127204
0.034403972 -0.080651961 0.050913926 4279193503
0.036340743 -0.079825349 0.049827043 4282667879
0.040567465 -0.079585887 0.049066592 4282796653
-0.029618673 0.0096644312 -0.036752436 4281552254
-0.028682835 0.014749652 -0.042079605 4278997154
-0.025573947 0.017078636 -0.044852462 4278275249
-0.023968749 0.017886592 -0.045879595 4278669478
-0.022240743 0.017982302 -0.046192028 4278603944
-0.020512648 0.018078117 -0.046504397 4278471854
-0.016511627 0.015423803 -0.044280186 4278406063
-0.014633708 0.014809148 -0.04388262 4278537388
-0.013033371 0.01561741 -0.044908397 4278602668
-0.0099955238 0.017944356 -0.047667082 4278864808
-0.0082642436 0.018041106 -0.0479795 4278800294
-0.0063806511 0.017427281 -0.047582593 4278603944
-0.0018089935 0.012649041 -0.043249909 4278865319
0.0023489706 0.0020941161 -0.032948487 4278668713
0.030224008 -0.083365425 0.051171746 4278537389
0.03216888 -0.082536407 0.050084848 4278668713
0.033931885 -0.080998212 0.04829406 4280439434
-0.030287139 0.011773441 -0.041330878 4281880438
-0.029363841 0.016873583 -0.046644848 4278604199
-0.018879719 0.016732564 -0.04780544 4278341293
-0.016879588 0.015400928 -0.046696346 4278603179
-0.014868647 0.014070051 -0.045589175 4278734249
-0.013129611 0.014166901 -0.045903228 4278799784
-0.0085098632 0.017310357 -0.049677938 4279389343
-0.0066292323 0.016694104 -0.049282007 4278800803
0.020570111 -0.06258183 0.028153326 4278406828
0.027481806 -0.0831156 0.048227418 4278406828
0.031702649 -0.082877509 0.047467295 4278734504
0.033107802 -0.079912059 0.044273831 4278472874
-0.030268021 0.0096016973 -0.041615739 4281815158
-0.029341131 0.014717652 -0.046919417 4278473639
-0.02797284 0.0169638 -0.049368061 4278735268
-0.026375763 0.017775599 -0.05039065 4278735269
-0.024658851 0.017870571 -0.05070116 4278800548
-0.02294185 0.017965637 -0.051011626 4278800549
-0.021094285 0.017344484 -0.050611943 4278734758
-0.019241259 0.016723733 -0.050213173 4278669223
-0.017111085 0.014671268 -0.048397053 4278538153
-0.015103258 0.013335738 -0.047292452 4278538153
-0.013649471 0.01486391 -0.049022283 4278669224
0.029132176 -0.083328143 0.045235194 4278341293
0.031063588 -0.082495399 0.044153851 4278669223
0.032637283 -0.080235228 0.04166986 4280898688
-0.030249164 0.0074257366 -0.041903496 4281553274
-0.029201783 0.011838127 -0.046485875 4279063453
-0.027588665 0.012652932 -0.047509883 4279063453
-0.026103079 0.01418661 -0.049242917 4279128733
-0.024253294 0.013563113 -0.048845354 4279063453
-0.022653297 0.014377505 -0.049866773 4279128989
-0.021058589 0.0151917 -0.05088716 4278997919
-0.019203156 0.014568847 -0.050490398 4278997919
-0.017206565 0.01322805 -0.049386941 4279128733
-0.015337542 0.012606174 -0.048992474 4278670243
-0.013745211 0.013420681 -0.050012127 4278473894
-0.0091492459 0.016580625 -0.053770065 4278669989
-0.0075808838 0.017394228 -0.054785084 4278342058
-0.0055543371 0.016055923 -0.053686537 4278604199
-0.002573818 0.010415729 -0.048367627 4278407593
0.0033276491 -0.0081268735 -0.030398529 4278407593
0.021664619 -0.071704015 0.031447545 4278342058
0.026069541 -0.081619233 0.04090225 4278407594
0.028160833 -0.081501335 0.040525589 4278407593
0.030252118 -0.081383303 0.040149022 4278472874
0.032343395 -0.081265122 0.039772548 4281422969
-0.029546216 0.00091518834 -0.037934523 4282012273
-0.028479293 0.0053420886 -0.042511102 4279653268
-0.027086198 0.0076029822 -0.04495487 4278342568
-0.016895376 0.0096235611 -0.048258517 4278604963
-0.015295036 0.010440618 -0.049278136 4278932639
-0.013559077 0.010537259 -0.049591664 4279260314
-0.011823054 0.010634027 -0.04990511 4278867614
-0.010525875 0.012890721 -0.052330825 4280112269
-0.0089467876 0.013707034 -0.053346295 4279981198
-0.007373035 0.014523163 -0.054360729 4279456663
-0.005341541 0.013180671 -0.053266201 4279129754
-0.0023569837 0.0075228475 -0.047960531 4278605219
0.0037055649 -0.011796944 -0.029330615 4278867359
0.021549657 -0.073415965 0.030273706 4279391128
0.025281124 -0.080487639 0.036906015 4279129754
0.027531983 -0.081088915 0.037231054 4278538918
0.029788217 -0.08168976 0.037555225 4278669989
0.031873956 -0.081571892 0.037179761 4281554294
-0.027992003 0.00026259199 -0.03997346 4279128478
-0.026465885 0.0018072538 -0.041707624 4278539683
-0.024950415 0.0033514425 -0.043439779 4278736034
-0.023196287 0.003448423 -0.043757055 4278408614
-0.021696739 0.0049919896 -0.045486227 4278539684
-0.01994779 0.0050889142 -0.045802403 4278474149
-0.016314242 0.0045603253 -0.045730088 4278277289
-0.01470045 0.0053803511 -0.046750579 4278408103
-0.012951195 0.0054777376 -0.047066506 4278408103
-0.009744782 0.0071171708 -0.049103271 4278342569
-0.0049751103 0.0095749758 -0.052150678 4278735778
-0.0018269233 0.0031781085 -0.046158101 4278801058
0.0040826015 -0.015480168 -0.028271727 4278801058
0.02499688 -0.081500694 0.035018403 4278735778
0.026904065 -0.080662727 0.033945978 4278997153
0.028978899 -0.080545619 0.033572372 4279062434
-0.027855471 -0.0026609004 -0.039570089 4279128478
-0.02656211 0.00034036115 -0.042713929 4278866593
-0.024681009 -0.00028823316 -0.042326827 4278735523
-0.023043469 0.0005347617 -0.043350454 4278604964
-0.021283992 0.00063214079 -0.043668624 4278867104
-0.019654311 0.0014549457 -0.044690665 4278866593
-0.018029906 0.002277568 -0.04571167 4278539429
-0.016140308 0.001649987 -0.045325723 4278604964
-0.014383193 0.0017476864 -0.045643147 4278670499
-0.012626011 0.0018454902 -0.045960519 4278473894
-0.010725453 0.0012188517 -0.045576308 4278474149
-0.0092574507 0.0027658604 -0.047296066 4278473638
-0.0075027831 0.0028638765 -0.047612738 4278474148
-0.0060508177 0.0044102781 -0.049329478 4278604709
-0.0041473731 0.0037842542 -0.048945475 4278342824
-0.0011412948 -0.0019080713 -0.043668691 4278342314
0.0047776327 -0.020623852 -0.025824655 4278342824
0.02471295 -0.082508922 0.033134032 4278342824
0.026787624 -0.082391933 0.032760371 4278735269
0.028689431 -0.081551932 0.031690616 4279652759
-0.028068423 -0.0034081601 -0.041287195 4279194013
-0.026539311 -0.0018543825 -0.043015707 4278866593
-0.024655811 -0.0024850965 -0.042630609 4278670499
-0.022766836 -0.0031154342 -0.042246383 4278801569
-0.020999447 -0.0030176453 -0.042566001 4278801058
-0.019491419 -0.0014645867 -0.044290382 4278866593
-0.017861634 -0.00063944235 -0.045310806 4278801058
-0.016102046 -0.00054172799 -0.045628767 4278670499
-0.0140668 -0.0018981025 -0.044544786 4278736034
-0.012442172 -0.0010729134 -0.045564044 4278867104
-0.010536522 -0.0017014816 -0.045182314 4278736034
-0.0090629905 -0.00014970824 -0.046899948 4278801058
-0.0071545541 -0.00077791885 -0.046518575 4278735523
-0.0055431351 4.6994537e-05 -0.047535125 4278670499
-0.0037831403 0.00014552847 -0.047852602 4278867104
-0.00061373785 -0.0062903278 -0.041892 4278997918
0.0056304634 -0.026515514 -0.022695661 4278997918
0.021698892 -0.080726616 0.028841835 4278670499
0.024429346 -0.083512351 0.031253014 4278997918
0.026501173 -0.083395541 0.030879855 4278736289
0.028227564 -0.081828326 0.029117517 4280177804
-0.027932562 -0.0063422285 -0.040891163 4278932128
-0.026516758 -0.0040533282 -0.043320373 4278932639
-0.024630852 -0.0046862029 -0.042937241 4278932639
-0.022739485 -0.0053186119 -0.04255506 4278736289
-0.020842634 -0.0059505962 -0.042173788 4278932639
-0.019329086 -0.0043928362 -0.043896016 4278736033
-0.017826192 -0.0028355084 -0.045616288 4278669988
-0.016064048 -0.0027376637 -0.045934718 4278735523
-0.014026549 -0.0040984042 -0.04485422 4278866593
-0.012399223 -0.0032708049 -0.04587245 4278670499
-0.010634191 -0.0031724498 -0.04619116 4278473894
-0.0090148002 -0.0023450963 -0.047207754 4278801058
-0.006955564 -0.0037041865 -0.04613087 4278866593
-0.0053387731 -0.0028767027 -0.047146872 4278604964
-0.0034197755 -0.0035063513 -0.046768755 4278736033
6.9089234e-05 -0.011418477 -0.039431367 4278670753
0.0064815208 -0.032433748 -0.019584887 4278670753
0.014829857 -0.061448097 0.007879165 4278736033
0.021254564 -0.080988273 0.026275188 4278736033
0.023978874 -0.083783284 0.028681219 4278605218
0.026045166 -0.083666801 0.028309051 4278998683
0.027766313 -0.082095362 0.026550744 4280571268
-0.027797267 -0.009285029 -0.040501047 4279063708
-0.026257098 -0.0077217445 -0.042225331 4278998173
-0.024484791 -0.0076239146 -0.042546 4278932128
-0.022464268 -0.0089906342 -0.041465964 4278604964
-0.020686395 -0.0088922717 -0.041787479 4278736034
-0.01903788 -0.0080617256 -0.042808309 4278932383
-0.017658889 -0.0057676621 -0.045225743 4278735778
-0.015891507 -0.0056695379 -0.045545131 4278801313
-0.013986565 -0.0063028596 -0.045166563 4278801568
-0.012216363 -0.0062043481 -0.045486297 4278736289
-0.010731827 -0.0046431236 -0.047199804 4278736289
-0.0089668743 -0.0045446604 -0.047518421 4278736033
-0.0072018765 -0.0044460893 -0.047836971 4278736033
-0.0051349811 -0.0058091059 -0.046764519 4278932383
-0.0032109059 -0.0064406507 -0.046388913 4278735778
0.000437852 -0.015107669 -0.038374834 4278735523
0.0070128366 -0.036917821 -0.017880332 4278735778
0.015204098 -0.065290883 0.0088269161 4278866848
0.02097521 -0.081970729 0.024407934 4278735778
0.023529019 -0.084044904 0.026115753 4279063198
0.025250314 -0.082469195 0.02436047 4279063708
0.02696085 -0.080893882 0.0226072 4282143598
-0.025879726 -0.012138154 -0.04043958 4282013803
-0.024218053 -0.011305045 -0.041461423 4280964734
-0.022437729 -0.011206668 -0.041783467 4280309893
-0.020530723 -0.011842582 -0.041407179 4279523984
-0.018618241 -0.012478076 -0.0410318 4279195289
-0.017096236 -0.010910828 -0.042749237 4279391639
-0.01571954 -0.0086100474 -0.045161534 4279522198
-0.013946854 -0.008511506 -0.045481794 4279391128
-0.012174103 -0.0084128678 -0.045801997 4278933148
-0.01040129 -0.008314088 -0.046122115 4278933148
-0.0087738223 -0.0074818432 -0.047137056 4278933148
-0.0068555064 -0.0081161894 -0.04676215 4278932893
-0.0050825365 -0.0080170631 -0.047082055 4278866338
-0.0031560697 -0.0086507201 -0.046708461 4278735268
0.00033728778 -0.016611706 -0.03940621 4278931873
0.0070664659 -0.039221607 -0.018265259 4278735268
0.015092891 -0.066949368 0.0076897116 4278866338
0.020531967 -0.082216039 0.021852434 4278866338
0.022912908 -0.083565108 0.022865687 4278932128
0.024795845 -0.082717344 0.021805443 4279260568
0.026845686 -0.082601637 0.021436349 4282471528
-0.015413616 -0.012295466 -0.044088561 4282405993
-0.013770215 -0.011460464 -0.04510507 4281226873
-0.011992235 -0.011361528 -0.045426216 4280113289
-0.010214191 -0.011262465 -0.045747284 4279326868
-0.0082908347 -0.011898894 -0.045374941 4279522709
-0.0066579357 -0.011063982 -0.046389204 4279457173
-0.0048797429 -0.010964569 -0.046710063 4279063964
-0.0032548234 -0.010129828 -0.047722768 4279063454
0.00039274991 -0.018850442 -0.039745972 4279194524
0.0066437721 -0.039325029 -0.020725809 4279063454
0.014820334 -0.06787277 0.0058622477 4278997919
0.020253416 -0.083186656 0.019993287 4279063454
0.022631194 -0.084540322 0.021003947 4279325594
0.024680868 -0.084424764 0.020634789 4280112014
0.021743093 -0.089046732 0.0031567952 4282929254
-0.00040028989 0.012489779 0.022075083 4285556773
0.00079061091 0.013645874 0.017661355 4287587848
0.0029840022 0.012433304 0.018811326 4286672143
0.0045653433 0.013857342 0.016980547 4285952789
0.0076958425 0.01670392 0.013324935 4285100069
0.018468561 0.0046225898 0.026066538 4285295144
0.024760731 -0.011717062 0.044252433 4285295144
-0.027163543 -0.019644279 -0.037972178 4285164074
-0.025483169 -0.018805813 -0.038994383 4285361443
-0.023808047 -0.017967522 -0.040015548 4285427234
-0.022138208 -0.01712941 -0.041035678 4285427234
-0.020347334 -0.017030355 -0.041359574 4285361188
-0.018427379 -0.017669901 -0.040988676 4285360933
-0.016765326 -0.016831886 -0.042007163 4285295398
-0.01510857 -0.015993986 -0.043024644 4285229098
-0.013457097 -0.015156288 -0.044041041 4285229609
-0.011531468 -0.015795056 -0.043670833 4285164584
-0.0098852441 -0.014957432 -0.044686135 4285099049
-0.0080992281 -0.014857817 -0.045008563 4284967213
-0.0064609461 -0.014020398 -0.046022255 4284967469
-0.0048279986 -0.01318315 -0.047034889 4284966959
-0.027146176 -0.021884456 -0.038304582 4285032494
-0.025226884 -0.022526808 -0.037935421 4285361444
-0.02354373 -0.021685801 -0.038956534 4285427233
-0.021865807 -0.02084503 -0.039976574 4285492513
-0.02031935 -0.019263305 -0.041689251 4285361444
-0.018396996 -0.019904967 -0.041320357 4285361443
-0.016600721 -0.019805398 -0.041645069 4285427234
-0.014535941 -0.02118703 -0.040585268 4285360933
-0.013007939 -0.019605841 -0.042294268 4285360934
-0.011071853 -0.020246256 -0.041927513 4285426468
-0.0098417029 -0.017185088 -0.04501551 4285426979
-0.0079081841 -0.017825473 -0.044648096 4285361444
-0.006559819 -0.015505612 -0.047040813 4285361698
-0.0047765374 -0.015405938 -0.047362603 4285361443
-0.0029932149 -0.015306108 -0.047684293 4285360934
0.00096993148 -0.025558926 -0.03836903 4285361189
0.01475941 -0.071922861 0.0042794091 4285360934
0.019369755 -0.08363539 0.014911081 4285361189
0.021569416 -0.084259748 0.015231199 4285032494
-0.026898526 -0.02561678 -0.03725167 4285098793
-0.025089435 -0.025517091 -0.037579119 4285296419
-0.023159593 -0.026160926 -0.037213381 4285493023
-0.021594271 -0.024573818 -0.03892643 4285492769
-0.019913591 -0.023730554 -0.039945342 4285492768
-0.018238179 -0.022887401 -0.040963244 4285493024
-0.016305294 -0.02353064 -0.040597692 4285492769
-0.014366951 -0.024173409 -0.040233079 4285492769
-0.012559932 -0.02407299 -0.040559564 4285492514
-0.010892279 -0.02322986 -0.0415757 4285558303
-0.0095141828 -0.020901915 -0.043969285 4285558304
-0.0078625195 -0.020059407 -0.044982344 4285492769
-0.0065111704 -0.017732721 -0.047370933 4285492769
-0.0047253482 -0.017632905 -0.047693182 4285492513
-0.0026337542 -0.019016702 -0.046640709 4285427233
0.0010241121 -0.027816921 -0.038721997 4285427233
0.014487367 -0.072838619 0.0024571905 4285427233
0.01876525 -0.083104558 0.011694144 4285427233
0.020956548 -0.083731666 0.012014239 4285295144
-0.02688197 -0.027869821 -0.037592907 4285296164
-0.024952516 -0.028516077 -0.037228707 4285427489
-0.023138098 -0.028415978 -0.037557039 4285427233
-0.021446764 -0.027569965 -0.038576439 4285493024
-0.019760713 -0.02672419 -0.039594766 4285558559
-0.018079922 -0.025878578 -0.040612057 4285492768
-0.016141962 -0.026523709 -0.040249012 4285492768
-0.014064621 -0.027913615 -0.039197691 4285492768
-0.012522906 -0.026322737 -0.040902987 4285492768
-0.01085256 -0.025477216 -0.041918047 4285493024
-0.0096134543 -0.022397734 -0.044995185 4285492769
-0.0078171305 -0.022297561 -0.045319486 4285426978
-0.006168101 -0.021452859 -0.046330433 4285492768
-0.0043743663 -0.021352589 -0.046654109 4285492769
-0.0024278872 -0.021996282 -0.046291929 4285492514
0.0012334175 -0.030823089 -0.038392525 4285427233
0.0066981316 -0.047827974 -0.022971887 4285427233
0.013733342 -0.071518689 -0.001414619 4285427233
0.017998226 -0.081816554 0.0078028319 4285427234
0.020676875 -0.084676504 0.010173327 4285099049
-0.026750699 -0.030875526 -0.037245966 4285426979
-0.024933837 -0.030775413 -0.037574824 4285361698
-0.023237221 -0.029927045 -0.038593657 4285427234
-0.021545894 -0.029078826 -0.039611515 4285427234
-0.019608386 -0.02972652 -0.039250087 4285492769
-0.017922238 -0.028878346 -0.040266827 4285493024
-0.016241368 -0.028030373 -0.041282479 4285558559
-0.014298253 -0.028677344 -0.040921867 4285558559
-0.01275906 -0.027082197 -0.042623535 4285492769
-0.010952253 -0.026981689 -0.042949907 4285427233
-0.0092872232 -0.026134104 -0.043962359 4285492769
