# .PCD v0.7 - Point Cloud Data file format
VERSION 0.7
FIELDS x y z rgba
SIZE 4 4 4 4
TYPE F F F U
COUNT 1 1 1 1
WIDTH 852
HEIGHT 1
VIEWPOINT 0 0 0 1 0 0 0
POINTS 852
DATA ascii
-0.0090857968 -0.023782738 -0.0036897501 4287117373
-0.0071084276 -0.023657404 -0.0040776758 4287183418
-0.0051309541 -0.023531951 -0.0044655344 4287248444
-0.0034206435 -0.021883525 -0.0061920756 4287117629
-0.0019935668 -0.018713102 -0.0092541743 4286658628
-0.009335205 -0.024633445 -0.0055449032 4287640123
-0.007360667 -0.02450829 -0.0059322775 4287445049
-0.0053860247 -0.024383016 -0.0063195848 4287510839
-0.0034112595 -0.024257623 -0.0067068362 4287510839
-0.0018448383 -0.021841735 -0.0090957712 4287313723
-0.00015554577 -0.020190068 -0.010814736 4287248188
0.0019476563 -0.020828202 -0.01053294 4286986303
0.0036237612 -0.019177124 -0.012249133 4286593603
-0.009584263 -0.025479443 -0.0073966109 4287771449
-0.0076125562 -0.025354497 -0.0077834451 4287640888
-0.0056407303 -0.025229432 -0.0081702191 4287380024
-0.0036687925 -0.025104202 -0.0085569043 4287576118
-0.0018327311 -0.024213232 -0.0096091609 4287444793
-1.9297004e-06 -0.023322456 -0.010660348 4287575608
0.0019649714 -0.023197174 -0.011045767 4287052093
0.003931962 -0.023071751 -0.011431096 4286921278
0.0057523474 -0.02218128 -0.012479907 4286790463
0.0075674616 -0.021291018 -0.013527589 4286724674
0.0093772933 -0.020400971 -0.014574135 4286659139
0.011336565 -0.020275533 -0.014957579 4287248698
0.013138499 -0.019385658 -0.016002411 4286920514
-0.0095827132 -0.027857773 -0.007912646 4287640123
-0.0076084882 -0.027732678 -0.0082999794 4287837239
-0.0057646036 -0.026839294 -0.0093523255 4287575864
-0.0036596842 -0.02748207 -0.0090744374 4287445303
-0.001956746 -0.025820963 -0.010789624 4287510328
1.2569129e-05 -0.025695689 -0.011175632 4287444793
0.0018408075 -0.024802759 -0.012224588 4286921533
0.0038076416 -0.024677344 -0.012609883 4287052349
0.005774565 -0.024551824 -0.012995123 4286659648
0.0078907497 -0.025193162 -0.012718818 4286790463
0.0098605007 -0.025067203 -0.013104419 4287052349
0.011830311 -0.024941094 -0.013489927 4287838004
0.013642959 -0.024048395 -0.01453524 4287379513
0.015610218 -0.02392219 -0.014920047 4287052093
0.018390395 -0.027626358 -0.012010748 4286725183
-0.009831354 -0.028698839 -0.0097607253 4287443263
-0.0077323392 -0.029344417 -0.0094835078 4287836219
-0.0057581589 -0.029219218 -0.0098707555 4287510329
-0.0036508851 -0.029863991 -0.0095949462 4287575608
-0.0018094443 -0.028968371 -0.010645012 4287445049
0.00030339137 -0.029612564 -0.010370112 4287510329
0.0021396764 -0.028716989 -0.011418964 4287117884
0.0041143782 -0.028591119 -0.011805831 4286921533
0.0057964697 -0.02692648 -0.013513285 4286921534
0.0077659823 -0.02680067 -0.013898934 4287183419
0.0098872706 -0.027443685 -0.013625215 4287314234
0.011859603 -0.027317412 -0.014011214 4287379769
0.013989039 -0.027959637 -0.013738896 4287249209
0.015964165 -0.027832963 -0.014125257 4286921789
0.018751368 -0.031547531 -0.011225502 4286790463
-0.0060122609 -0.030058168 -0.011715918 4287639359
-0.0039079823 -0.03070534 -0.011441181 4287508798
-0.0019337349 -0.030579858 -0.011828243 4287444793
0.0003169179 -0.031998254 -0.010894622 4287641653
0.0022967234 -0.031872176 -0.011282585 4287641653
0.0042766109 -0.031745963 -0.011670469 4287379004
0.0059642456 -0.030076645 -0.013375743 4287183163
0.008087799 -0.030721821 -0.013104203 4287183163
0.01021678 -0.031366505 -0.012833617 4287379513
0.012042772 -0.030468814 -0.013878345 4287510583
0.014020361 -0.030342065 -0.014265264 4287183673
0.015998002 -0.030215211 -0.014652117 4286921789
0.018300164 -0.031629182 -0.013727653 4286790463
-8.3785504e-05 -0.032065473 -0.013398229 4287312449
0.0020311587 -0.032713763 -0.013126939 4287770174
0.0041515455 -0.033361591 -0.012856628 4288097594
0.0058393516 -0.031687908 -0.014558657 4287443773
0.0079625845 -0.032335289 -0.014288685 4287705913
0.0099398755 -0.032208852 -0.014675773 4287640633
0.011917233 -0.032082282 -0.015062771 4287641143
0.013894659 -0.031955577 -0.015449672 4287314744
0.015872136 -0.031828724 -0.015836492 4286921789
0.018011719 -0.032474391 -0.015569235 4286855999
0.011022389 -0.029818729 -0.0195168 4288097338
0.012829728 -0.028917715 -0.02055449 4287443519
0.014950208 -0.029566906 -0.02028523 4287051074
-0.026873484 0.016661942 0.03748307 4281761354
-0.025191523 0.018894643 0.03492808 4280264249
-0.022781894 0.016211659 0.037421416 4280457794
-0.019479439 0.0079145804 0.045672208 4280067134
-0.02967678 0.019836247 0.031629656 4281305159
-0.028508842 0.025598004 0.025480665 4281307709
-0.026659913 0.026425757 0.024377666 4281697859
-0.024604052 0.025844678 0.024713978 4281632324
-0.021672755 0.019630879 0.030798059 4280849984
-0.018915877 0.014828175 0.035436589 4281045569
-0.016463555 0.01213941 0.037915081 4280784448
-0.014223136 0.010859318 0.03895542 4280915518
-0.012449615 0.012393899 0.037127659 4281373244
-0.011175141 0.01674106 0.0324382 4281633598
-0.0094334185 0.018273771 0.030616868 4280525624
-0.0060449168 0.01066757 0.038091585 4280327743
-0.0014257729 -0.0032598078 0.051984336 4280327743
-0.030583143 0.023874395 0.024688635 4280913479
-0.029033281 0.026824918 0.021430999 4279416374
-0.02750463 0.029774193 0.018177578 4280524093
-0.025361903 0.028483134 0.019233495 4280719679
-0.022882558 0.025073893 0.022438269 4279872824
-0.019931272 0.018841751 0.028503649 4280328764
-0.018070765 0.019672744 0.027400266 4280915008
-0.016098842 0.01979769 0.027013373 4280981308
-0.014603853 0.022745371 0.023766968 4281177913
-0.01300817 0.024986319 0.021239161 4280721973
-0.011303738 0.026521005 0.01942841 4280654144
-0.0084640235 0.021708816 0.024039503 4280718913
-0.0048066378 0.012669228 0.032920022 4279481143
-0.0012120642 0.0043389723 0.04107466 4278829363
0.002988413 -0.0068055689 0.05206364 4281175873
-0.032561928 0.021441884 0.024614837 4281172813
-0.031096034 0.025111079 0.02064351 4280913733
-0.029556319 0.028069656 0.017394403 4279676473
-0.027934775 0.03031807 0.014865983 4279872824
-0.025906235 0.029730815 0.015204312 4280002619
-0.023330189 0.025601335 0.019118488 4280784704
-0.020721778 0.021473989 0.023026373 4281045568
-0.018763542 0.021597937 0.022642065 4280915518
-0.017037988 0.023138016 0.02083021 4280980799
-0.015680291 0.026801102 0.016880684 4279873078
-0.014105663 0.029047225 0.014361907 4280849729
-0.012173519 0.029169898 0.013983006 4281566533
-0.0097326264 0.026463289 0.016450921 4281305923
-0.0066209957 0.020222284 0.022470511 4281045313
-0.0034609735 0.013984464 0.028480705 4280784704
0.0012345389 -2.5331974e-05 0.042292774 4280784703
-0.033253089 0.024109282 0.019139871 4281370948
-0.031607486 0.026365604 0.01661147 4281306434
-0.029777348 0.027198505 0.015516927 4281044804
-0.028158098 0.029453348 0.012993829 4281175619
-0.025921434 0.027441848 0.014759654 4281110083
-0.023668483 0.025431484 0.016522368 4280980289
-0.021177463 0.02200114 0.019708406 4281176383
-0.019568138 0.024255715 0.017187532 4280980798
-0.017742172 0.025088914 0.016094226 4281111359
-0.016159281 0.027341995 0.013578678 4280589628
-0.014349036 0.028174389 0.012488609 4278437683
-0.012544006 0.029006545 0.011399625 4279741243
-0.010236241 0.027000289 0.013152068 4279936828
-0.0075232759 0.022867106 0.017030057 4280197439
-0.0039839745 0.014480896 0.025155954 4280393024
0.0011050403 -0.001700446 0.041062903 4280915518
-0.035219975 0.021684825 0.019069236 4282348618
-0.03394217 0.026803266 0.013684433 4280328764
-0.032117546 0.027637925 0.012592489 4279676473
-0.030098006 0.02704544 0.012929151 4279350329
-0.02797021 0.025740184 0.013977928 4280849729
-0.025936879 0.025148772 0.014311964 4280849473
-0.023789935 0.023844853 0.015357167 4280915520
-0.021742813 0.023254506 0.015688637 4281111613
-0.019916989 0.024089754 0.014596917 4281111359
-0.018328525 0.026349608 0.012085102 4281176129
-0.016637191 0.027896281 0.01028657 4281045313
-0.014713489 0.028018255 0.0099091977 4280523073
-0.012541354 0.026716541 0.010949841 4280066878
-0.01048518 0.026127342 0.011279969 4280718659
-0.0077760294 0.021980733 0.01514885 4280652613
-0.0038450472 0.01143378 0.025378216 4280783174
0.0016498491 -0.006931372 0.043367703 4280783174
-0.036389634 0.01280947 0.025424656 4282804559
-0.035708308 0.022958897 0.015046276 4281241663
-0.034156658 0.025944121 0.011814322 4279155764
-0.032431826 0.027496498 0.010011917 4280002363
-0.028090857 0.024160504 0.012817768 4280784704
-0.02605781 0.023566857 0.013150191 4280784704
-0.024235003 0.024403878 0.012060532 4281111104
-0.022085637 0.023095794 0.01310201 4280981054
-0.020378351 0.024647653 0.011303416 4281111358
-0.018797539 0.026913557 0.0087980274 4281111360
-0.017114021 0.028464071 0.007004289 4281110593
-0.014713347 0.025728419 0.0094601419 4281045058
-0.012662962 0.025136545 0.0097896662 4281044804
-0.010480411 0.023831151 0.010825077 4280979013
-0.0077697411 0.019671552 0.014683733 4280783174
-0.0031787381 0.0055238828 0.028417446 4280783174
0.0025970787 -0.014324203 0.047772489 4280783174
-0.037579954 0.019819252 0.015689261 4281434444
-0.036286913 0.024969094 0.010324307 4280589884
-0.034748092 0.0279622 0.0071014222 4281240899
-0.03284239 0.028082125 0.0067268983 4281436229
-0.030637413 0.026048698 0.0084839445 4281110595
-0.028313808 0.02329874 0.010947829 4280328254
-0.026388772 0.023420155 0.010569714 4280719423
-0.024571262 0.024258971 0.0094827097 4281046079
-0.022538103 0.023663312 0.0098135825 4281046333
-0.020612493 0.023785047 0.0094355661 4280916028
-0.019149728 0.026774101 0.0062281843 4278438958
-0.017352916 0.027612001 0.0051455311 4279090483
-0.012536928 0.022124194 0.010041256 4279480634
-0.010223024 0.020098649 0.011777589 4280914498
-0.0072471276 0.014494441 0.017034473 4280914499
-0.002514407 -0.00041207671 0.031437535 4280782918
0.0028690696 -0.018173799 0.048633337 4280782918
-0.038322136 0.023278579 0.0095476788 4281176129
-0.036680773 0.025560431 0.0070396028 4279482164
-0.03505525 0.02784143 0.0045346692 4279871804
-0.033155017 0.027960978 0.0041611996 4280327999
-0.031055555 0.026640609 0.0052055139 4279611193
-0.028740779 0.023881331 0.0076645315 4279872569
-0.026718989 0.023282543 0.0079958308 4280719168
-0.024906784 0.024123177 0.0069114864 4281111104
-0.02287928 0.023524933 0.007241793 4280720188
-0.021297872 0.02580376 0.0047460627 4280719679
-0.019501165 0.026643708 0.0036649853 4280459324
-0.017827936 0.028202288 0.0018797582 4281175874
-0.015318632 0.024729677 0.0050295088 4279089973
-0.012782373 0.021258876 0.0081740525 4280458304
-0.010092869 0.017071538 0.012017051 4280980288
-0.0068551302 0.010013826 0.018666219 4280979778
-0.002378691 -0.0035021901 0.031628203 4281109318
0.0020653754 -0.016293801 0.043868225 4281109318
-0.039926961 0.017973334 0.012320854 4281892169
-0.038707279 0.02387733 0.0062664282 4281176383
-0.036890917 0.024719872 0.0051824264 4281372478
-0.035267688 0.027007177 0.0026828833 4280849474
-0.033370249 0.027126506 0.0023099333 4280783938
-0.031373255 0.026523747 0.0026442762 4280718914
-0.02896259 0.023033284 0.0058046468 4280784704
-0.026943773 0.022432089 0.0061348565 4280718913
-0.025241584 0.023996398 0.0043469481 4280980544
-0.023329787 0.02411709 0.0039715245 4280784704
-0.021643288 0.025680654 0.002186805 4279546934
-0.019736476 0.025801249 0.0018125195 4280915008
-0.017947607 0.026642937 0.00073466543 4281632069
-0.015801586 0.025321864 0.0017671678 4280980544
-0.013150886 0.021118872 0.0056077763 4280327998
-0.01021561 0.015476994 0.010846207 4280849729
-0.0065932646 0.0062363073 0.019583743 4280979523
-0.0029010884 -0.0029998794 0.028307725 4280912458
-0.039961003 0.015667588 0.011868233 4281632069
-0.03856048 0.020139158 0.0072416458 4281633343
-0.036736019 0.020984299 0.0061577111 4281306179
-0.035010532 0.022553943 0.0043681394 4281240388
-0.033199027 0.023398496 0.0032868404 4281370693
-0.031194292 0.022793949 0.0036180355 4281175108
-0.029082142 0.021465689 0.004653316 4280979523
-0.027168155 0.021586299 0.0042772908 4281110339
-0.025575645 0.023878701 0.0017890036 4280914243
-0.023779206 0.024722748 0.00071107224 4280914754
-0.022100538 0.026290096 -0.0010688026 4280198204
-0.020086631 0.025686763 -0.00073901378 4279806778
-0.018185146 0.025807068 -0.0011122152 4280067899
-0.016042277 0.024481446 -8.2443468e-05 4279872059
-0.013395384 0.02026505 0.0037490744 4280395064
-0.010338292 0.013882749 0.009675568 4280981053
-0.006718263 0.0046135187 0.018392181 4281044293
-0.0036850423 -0.0010394007 0.023598406 4280779094
-0.039738387 0.011175521 0.013532592 4282083164
-0.038326263 0.015660837 0.0089136045 4281436229
-0.036491059 0.016508788 0.0078291651 4281174344
-0.034660988 0.017356522 0.0067458116 4280979269
-0.032739699 0.017477281 0.0063681137 4280914754
-0.030917235 0.018324748 0.0052863415 4280718914
-0.028998226 0.018445551 0.0049092378 4280653633
-0.027183391 0.019292712 0.0038291626 4280849474
-0.025587812 0.021591768 0.0013452116 4281110848
-0.024008118 0.023889981 -0.0011355765 4281241664
-0.022219509 0.024735771 -0.0022102799 4281175874
-0.020320982 0.024855778 -0.0025829915 4281175619
-0.018304527 0.0242505 -0.0022552842 4281045314
-0.016282566 0.023645669 -0.0019285837 4281111103
-0.013639495 0.01941596 0.0018937653 4281177404
-0.010460921 0.012288786 0.0085051395 4281046079
-0.0071001649 0.0044404641 0.015804283 4280847433
-0.039602503 0.0073957741 0.01447924 4282149208
-0.038093321 0.011165254 0.010572877 4281303884
-0.036247358 0.012016021 0.0094879325 4281239623
-0.034313031 0.012137465 0.0091075711 4280913988
-0.032378495 0.012259014 0.0087272376 4280979269
-0.030542597 0.013109446 0.0076444969 4280849219
-0.028914921 0.01541689 0.0051589552 4280588354
-0.027094677 0.01626654 0.0040794425 4280523073
-0.025279611 0.017115988 0.0030009635 4280784193
-0.023688838 0.019421369 0.00052294135 4280849473
-0.022001706 0.020997964 -0.001252111 4280849984
-0.020210184 0.021846183 -0.0023256894 4281045313
-0.018071078 0.020511389 -0.0013018325 4281044803
-0.016041376 0.019904844 -0.0009783078 4281175364
-0.013514355 0.016389713 0.0021350952 4280782664
-0.010583505 0.010695115 0.0073349103 4281042253
-0.039723471 0.0057986006 0.013305986 4282280024
-0.038037606 0.0081157386 0.010813545 4281368398
-0.036186256 0.008968994 0.00972916 4281303883
-0.034246705 0.0090907216 0.0093477406 4281239879
-0.032306917 0.0092125759 0.0089663621 4281240133
-0.030465625 0.010065489 0.007884169 4281110084
-0.028730854 0.01164896 0.0061027557 4281109573
-0.026798494 0.011770643 0.0057230555 4280979269
-0.024972685 0.012622923 0.0046440922 4280783428
-0.023370825 0.014935508 0.0021687923 4280848964
-0.02167277 0.016517133 0.00039486121 4280914754
-0.019870505 0.01736819 -0.00067921076 4280980034
-0.017721154 0.016029693 0.00033928547 4280784194
-0.015921243 0.01688081 -0.00073415693 4280913988
-0.013512619 0.014084473 0.001674057 4280717128
-0.01070603 0.0091017559 0.0061648972 4280585039
-0.039759219 0.0034677312 0.012834789 4281887833
-0.038158126 0.0065253749 0.0096453093 4281303883
-0.036216237 0.0066471323 0.0092633385 4281369419
-0.034367286 0.0075024739 0.0081811119 4281305158
-0.03252349 0.0083575919 0.0070999749 4281240134
-0.030586295 0.0084793344 0.0067191385 4281109318
-0.028851323 0.010067165 0.0049409512 4281044294
-0.026815228 0.0094559863 0.0052594244 4280913479
-0.024986684 0.010310553 0.0041815937 4281043783
-0.023272544 0.011897407 0.0024076728 4281044293
-0.021457031 0.012751356 0.0013325522 4281175364
-0.019532114 0.012872949 0.00095460285 4281240388
-0.017372519 0.011530712 0.0019677812 4281436228
-0.015561856 0.012384668 0.00089384522 4281043783
-0.013143323 0.0095802024 0.0032935292 4280847434
-0.01045265 0.005314298 0.0070770122 4280650063
-0.039625287 -0.00033963472 0.013761111 4281953879
-0.038015634 0.002727218 0.010576481 4281304138
-0.03615617 0.0035852715 0.0094937328 4281370184
-0.03439483 0.005178839 0.007713357 4281632324
-0.032548301 0.0060362741 0.0066333003 4281371458
-0.030805275 0.0076288283 0.0048567057 4281305414
-0.028769672 0.0070152953 0.0051735248 4281239879
-0.026935935 0.0078722462 0.004096223 4281239623
-0.025107346 0.0087289661 0.0030199941 4280978758
-0.023502067 0.011054836 0.00055379327 4280979013
-0.021353975 0.0097072721 0.0015657702 4281240644
-0.019538261 0.010563493 0.00049230363 4281175109
-0.017493539 0.0099511668 0.00080781523 4281239623
-0.015563078 0.010073304 0.00042891968 4281108554
-0.013142668 0.0072602108 0.0028216466 4281303884
-0.010450453 0.0029812977 0.0065949485 4281301589
-0.037349112 -0.0055130273 0.015686937 4281627733
-0.035555705 -0.0039132908 0.013903465 4281369673
-0.033865593 -0.0015761778 0.011425037 4281500743
-0.032191344 0.00076002628 0.0089497995 4281436229
-0.03063111 0.0038328767 0.0057817362 4281567808
-0.028789498 0.0046923459 0.0047044065 4281435974
-0.027056567 0.006288819 0.0029332265 4281044039
-0.025121741 0.0064106509 0.0025530383 4280978503
-0.023295619 0.0072694793 0.0014789999 4281109829
-0.021251537 0.0066546872 0.0017928053 4281109829
-0.019430429 0.0075133964 0.00071990862 4281109318
-0.017497577 0.0076355413 0.00034043565 4281174854
-0.015564568 0.0077578127 -3.8981438e-05 4281108298
-0.01314231 0.0049361587 0.0023467652 4281369164
-0.01069846 0.0021159127 0.0047283936 4280582234
-0.030977853 -0.011196919 0.017504834 4282738769
-0.029575668 -0.0066335648 0.012947036 4282282830
-0.02820541 -0.0020720959 0.0083956085 4281628753
-0.026867047 0.002487503 0.0038504787 4281237328
-0.025136411 0.0040882453 0.0020830706 4280976719
-0.023307577 0.004949376 0.0010101125 4280913734
-0.021261118 0.0043325499 0.0013218019 4280979269
-0.019323207 0.0044548735 0.00094123743 4280848453
-0.017385148 0.0045773387 0.00056072697 4280912968
-0.015566349 0.0054382756 -0.00050992891 4280977228
-0.013264321 0.0033461899 0.0011791885 4281041999
-0.011445217 0.0042073876 0.00010865182 4280188513
-0.02712094 -0.012575619 0.015525831 4282935628
-0.023211263 0.0018839985 0.001228936 4280713558
-0.021159746 0.0012652799 0.0015379656 4280779603
-0.019216627 0.0013879091 0.0011563543 4280845394
-0.017389931 0.0022514015 8.5692853e-05 4281042253
-0.01556842 0.003114678 -0.00098387524 4280976718
-0.01375211 0.0039777234 -0.0020523369 4281302863
0.004408285 -0.0090914071 0.033415996 4280767874
0.0060238801 -0.0068027377 0.030919336 4281488504
0.0077684 -0.0052342191 0.029124197 4281815158
0.010830462 -0.010138646 0.033611685 4282602089
0.00018678606 -6.236881e-05 0.022114404 4278539173
0.0020492002 0.00078701973 0.02102441 4278538409
0.0053241216 0.0046496168 0.016757473 4278403258
0.015254349 -0.01371529 0.033665299 4279913369
0.017776683 -0.015746087 0.035346922 4281028994
-0.0028781146 0.003243044 0.016423456 4278408868
-0.0010318719 0.0040934309 0.015338164 4279259038
0.0022192746 0.0079651773 0.011083908 4278799274
0.0040417463 0.008814387 0.010003526 4279520668
0.0094698742 0.0018318519 0.016175039 4278470324
0.012376867 -0.0023798496 0.019946571 4279258273
0.0148503 -0.0044203475 0.021632809 4278800549
0.016866021 -0.004291147 0.021238435 4278669988
0.018721189 -0.0034391657 0.020152166 4278865829
0.020407729 -0.0018648803 0.018375516 4280373388
0.022913586 -0.0039028302 0.020055763 4279126948
0.026110299 -0.0088282526 0.024494588 4278930598
0.030030005 -0.016639039 0.031685684 4280503694
-0.0035379529 0.0045270473 0.012449883 4279128734
-0.0017023981 0.005378969 0.011368275 4278799783
0.0016695783 0.008534193 0.0078203306 4278667949
0.0036284328 0.008659184 0.0074366592 4279192738
0.0058815181 0.0073328018 0.0084390529 4278930598
0.010877371 0.0025063977 0.012513533 4278472365
0.013015829 0.0019081607 0.012816859 4278865574
0.015159704 0.0013104081 0.013119156 4278734249
0.016667157 0.0036126077 0.010658991 4278733993
0.030397058 -0.011678346 0.023853425 4278995624
0.032790206 -0.012994416 0.024829347 4278998174
0.035373323 -0.015033342 0.02649001 4280309129
0.037790626 -0.016347595 0.027461406 4281357433
0.03984949 -0.016214445 0.027059488 4282667878
-0.0057648569 0.0035175085 0.010957383 4278343844
-0.004062891 0.0051001832 0.0091833659 4278867103
-0.0023715273 0.0066823438 0.0074114688 4278800804
-0.00055189431 0.00753548 0.0063347276 4278341294
0.0012625009 0.0083883777 0.005259091 4278338488
0.010142263 0.0037945211 0.0085614193 4278669479
0.012269676 0.0031934306 0.0088652149 4278865573
0.014244907 0.0033200011 0.0084787421 4278734248
0.017217722 0.007934846 0.003576545 4279127203
0.019011408 0.0087874755 0.0025057448 4279062688
0.021641456 0.0060071722 0.0048720296 4278996389
0.02497704 0.00032287091 0.009980876 4278668714
0.028008156 -0.0039061084 0.01370912 4278472874
0.030365966 -0.0052288696 0.0146887 4278801058
0.032555461 -0.0058249012 0.014981152 4278735523
0.034205116 -0.0042434707 0.013218895 4278669478
0.035844065 -0.0026626065 0.011458879 4279323808
0.049707837 -0.02388759 0.030354969 4280961928
-0.0061502606 0.0033690855 0.0083888862 4278801824
-0.0045867786 0.0056867823 0.0059267245 4278473638
-0.0029032417 0.0072727278 0.0041596647 4278538408
-0.0010916106 0.0081275031 0.0030861218 4278603944
0.00099749491 0.0075212047 0.0033953302 4278800548
0.0032361075 0.0061850771 0.0043938458 4278735268
0.005485557 0.0048497245 0.0053903684 4278735269
0.0075963996 0.0042451322 0.0056955647 4278538664
0.0097127035 0.0036410168 0.0059997961 4278669479
0.011524916 0.0044965222 0.0049266499 4278669479
0.013489287 0.0046223924 0.0045422949 4278603689
0.016604222 0.0085198879 0.00034066662 4278469814
0.018224403 0.010103092 -0.0014130799 4278471854
0.02666489 -0.00044693798 0.0077141058 4278537898
0.029003447 -0.0017752349 0.0086941272 4278734503
0.030994976 -0.0016466752 0.0083051771 4278669224
0.032078695 0.0021213517 0.0045014899 4278668458
0.035661146 0.0038323626 0.0023654457 4278471089
0.050865069 -0.022548132 0.025979932 4278932639
-0.006534934 0.0032297745 0.0058270097 4279128989
-0.0049764439 0.0055536255 0.003370773 4278603689
-0.0032980591 0.0071436316 0.0016079508 4278668713
-0.0014917664 0.0080002397 0.00053708255 4278537389
0.00059167296 0.0073913708 0.00084574893 4278996389
0.0031122118 0.0045855343 0.0032195169 4278537898
0.0053611696 0.0032457784 0.0042128451 4278473129
0.0074717067 0.0026389733 0.0045164488 4278735269
0.0091319457 0.0042285174 0.0027577095 4278473129
0.010936148 0.0050856695 0.0016877651 4278669734
0.012735069 0.0059426203 0.00061894208 4278472874
0.01436875 0.0075307861 -0.0011342838 4278668969
0.023186181 0.0036472902 0.0014427528 4278668968
0.025670771 0.0015821159 0.0031076949 4278669224
0.027819399 0.00097893924 0.003404744 4278734758
0.0297947 0.0011064634 0.0030189678 4278668969
0.032456823 0.0064710602 -0.0025182031 4278865319
0.034413386 0.006597735 -0.0029000491 4278996899
0.037317105 0.003076829 0.00011713058 4278799783
0.040823944 -0.0026303381 0.0051669776 4278799273
0.045152821 -0.011251368 0.012923541 4278603688
0.049743451 -0.020597063 0.021345817 4278801313
0.054804053 -0.031395853 0.031110082 4278736288
-0.0070491806 0.0038349926 0.0025821161 4279127969
-0.0054983869 0.0061649084 0.00013224781 4278472364
0.0028446391 0.0037209615 0.0013583414 4278733484
0.0053832084 0.00090766698 0.0037220921 4278538153
0.0070489123 0.0025017783 0.001965465 4278604199
0.0088557452 0.003361173 0.00089656189 4278538409
0.010194026 0.0064222664 -0.0022262167 4278669479
0.011982255 0.0072807074 -0.0032913014 4278930853
0.01376519 0.0081389099 -0.0043552741 4278996644
0.015867744 0.0075300038 -0.0040513016 4279258273
0.018140852 0.0061882138 -0.0030653942 4278669989
0.020592541 0.0041142032 -0.0013991632 4278538663
0.022719353 0.0035071895 -0.0010996778 4278735014
0.024851568 0.0029006302 -0.00080110133 4278538664
0.026637435 0.003759779 -0.001865156 4278669479
0.028596506 0.0038862452 -0.0022477694 4278473128
0.044632629 -0.011442848 0.010355426 4278407338
0.050004698 -0.023742236 0.0214644 4278801058
0.054667939 -0.033111461 0.029851329 4278539428
-0.0093764216 0.0035926104 0.0004164353 4278802078
-0.0075623915 0.0044536889 -0.00065294653 4278538409
-0.0057535991 0.0053145587 -0.0017212257 4278406574
-0.0040855333 0.0069125518 -0.0034754314 4278734248
-0.0022899024 0.0077728555 -0.0045410022 4278997154
0.002290383 0.0043347925 -0.0018703807 4278733993
0.0048200786 0.0015121922 0.00048852898 4278341803
0.0069246367 0.00090062618 0.00079001486 4278669478
0.0087314844 0.0017621666 -0.00027728081 4278603943
0.010070309 0.0048320219 -0.003393583 4278603433
0.013481915 0.0072888136 -0.0062017119 4278404789
0.018346317 0.003124781 -0.0028717294 4278669224
0.020635054 0.0017798021 -0.0018921047 4278604199
0.022593901 0.0019058958 -0.0022749454 4278669989
0.024379775 0.0027670637 -0.0033374075 4278735268
0.026160315 0.0036279932 -0.0043987408 4278604454
0.02757878 0.005957976 -0.0068162824 4278342058
0.029524324 0.0060836822 -0.0071961614 4278800038
0.031469874 0.006209515 -0.0075759585 4278799783
0.03397464 0.0041331723 -0.005924359 4278537643
0.036495484 0.0020579994 -0.0042757951 4278537643
0.039799452 -0.0029509589 7.3893927e-05 4278735014
0.044696484 -0.013825968 0.0098205823 4278735014
0.050462395 -0.027629279 0.022251751 4278670243
0.054931443 -0.036293209 0.029941756 4279783828
-0.010135137 0.0057032034 -0.0041859858 4278802079
-0.0082045197 0.0058257207 -0.0045646336 4278473129
-0.0044781938 0.0068106577 -0.0060071978 4278733994
-0.002825886 0.0084121153 -0.007754955 4278603943
-0.00076212734 0.0077953935 -0.0074474043 4278341039
0.0042580329 0.0021301284 -0.0027351212 4278669224
0.0065029562 0.00077715516 -0.0017508361 4278800548
0.0083044693 0.001640521 -0.0028154552 4278472363
0.0097925477 0.0039804354 -0.005242493 4278406574
0.01303957 0.0071814507 -0.0087254718 4278928303
0.018056735 0.0022658631 -0.0047232769 4278274739
0.020342302 0.00091632456 -0.0037463158 4278538408
0.022298325 0.0010422245 -0.0041286089 4278669734
0.024081543 0.0019053891 -0.0051889122 4278669733
0.025332879 0.0049792901 -0.0082808398 4278473128
0.026741005 0.0073150769 -0.010691404 4278603944
0.028675683 0.0074400827 -0.011069164 4278602923
0.03134457 0.0046194345 -0.0087428205 4278865319
0.033848681 0.0025365204 -0.0070960037 4278865828
0.036746681 -0.0010174513 -0.0041023307 4278669734
0.040054653 -0.0060414523 0.00023512449 4278473383
0.045537114 -0.019156255 0.011978483 4278538919
0.051115997 -0.032264642 0.023703087 4278669988
-0.024955161 -0.0020560548 0.002513377 4279785359
-0.023332335 0.00029698014 6.3352287e-05 4279130008
-0.021281123 -0.00032395124 0.00037078746 4279457684
-0.019338138 -0.00020135194 -1.081638e-05 4279457684
-0.017394997 -7.8625977e-05 -0.00039235875 4279918213
-0.012311317 0.0047447905 -0.0056522898 4279525260
-0.010510765 0.0056092143 -0.0067158714 4278605218
-0.0087154359 0.006473437 -0.0077783349 4278669478
0.0013282336 0.0048615187 -0.0076159332 4278603689
0.0036970265 0.0027615577 -0.0059489496 4278538154
0.0057848729 0.0021445304 -0.0056475028 4278538154
0.0075757019 0.0030094013 -0.0067083836 4278537898
0.01067175 0.0069596097 -0.010865709 4278800293
0.012438677 0.0078233033 -0.011921642 4278800548
0.014848094 0.0057266951 -0.010262113 4278602923
0.017602898 0.0021515116 -0.0072494894 4278537644
0.019882631 0.00079718977 -0.0062746406 4278472363
0.022173099 -0.00055627525 -0.0053018299 4278734758
0.023783684 0.0010484233 -0.0070369802 4278734758
0.025032878 0.0041308776 -0.01012193 4278603434
0.028370533 0.0065979287 -0.012904368 4278403513
0.031219291 0.003029637 -0.0099094696 4278271934
0.033908792 0.00020167977 -0.0075935763 4278602669
0.036997207 -0.0041013882 -0.0039350251 4278800548
0.040692013 -0.010616608 0.0017358316 4278669733
0.04637602 -0.024508096 0.014120506 4278604454
0.051374696 -0.035441719 0.023798261 4278801314
0.054658592 -0.039731555 0.027419023 4282144109
-0.024865463 -0.0051408634 0.0027191816 4279718803
-0.023236901 -0.0027810261 0.00027296413 4279194779
-0.021402448 -0.0019128844 -0.00079617649 4279194524
-0.019459598 -0.0017903075 -0.0011777617 4279128988
-0.017749086 -0.00017740577 -0.0029310957 4278932894
-0.015811279 -5.492568e-05 -0.0033115298 4278671263
-0.014116511 0.0015572086 -0.0050615966 4278802588
-0.012432329 0.0031688437 -0.0068095513 4278998683
-0.010631748 0.0040354282 -0.0078715123 4278408613
-0.0087067485 0.0041575655 -0.0082490817 4278735524
-0.0069139376 0.0050238967 -0.0093093365 4278866593
-0.005126372 0.0058900565 -0.010368526 4279063198
-0.0033440441 0.0067559555 -0.011426557 4278801059
-0.0011459067 0.0053908676 -0.010439903 4278735269
0.001206059 0.0032832101 -0.0087746903 4278735014
0.0032827929 0.002663143 -0.0084727444 4278538409
0.0050681941 0.0035297498 -0.0095310658 4278603944
0.006697271 0.0051389784 -0.011267308 4278800549
0.0099235028 0.008355841 -0.014733283 4278472109
0.011838838 0.0084786341 -0.015107993 4278275249
0.019256525 0.0014290512 -0.0094722547 4278865829
0.021538477 7.0638955e-05 -0.0085010231 4278669479
0.023313694 0.00093767792 -0.0095565319 4278406828
0.0243829 0.0047698915 -0.013308343 4278406574
0.025781043 0.0071181133 -0.015707109 4278602159
0.027704706 0.0072424114 -0.016082719 4278864808
0.036869925 -0.0057127774 -0.0051174471 4279128224
0.040945511 -0.013728328 0.0018814187 4278669989
0.046631426 -0.027661063 0.014234567 4278604708
0.051239498 -0.037147261 0.022546872 4279456664
0.054322913 -0.040710442 0.025488373 4282274668
-0.024881743 -0.0074861571 0.0022323718 4279718803
-0.02325017 -0.0051195994 -0.00020953361 4279194523
-0.021412984 -0.0042492077 -0.0012775538 4279194523
-0.019581012 -0.0033789724 -0.0023445031 4278932128
-0.017754219 -0.0025090054 -0.0034103161 4278408359
-0.015932642 -0.0016392767 -0.0044750366 4278408614
-0.014116235 -0.00076973438 -0.0055386317 4278801824
-0.012305059 9.958446e-05 -0.0066011217 4278866848
-0.010245517 -0.00052455813 -0.006298129 4278670243
-0.0084394217 0.00034467131 -0.0073594456 4278867105
-0.0066385567 0.0012137219 -0.0084197 4278735778
-0.0051125735 0.003574729 -0.010840027 4278670754
-0.0031900406 0.0036970228 -0.011216871 4278670753
-0.0011272058 0.0030736849 -0.010914078 4278670754
0.00094106793 0.0024508163 -0.010612264 4278867103
0.0027237311 0.0033192486 -0.01166846 4278408104
0.0045011342 0.0041874722 -0.012723535 4278735524
0.0061223507 0.0058005899 -0.014455007 4278735268
0.0077329539 0.0074131414 -0.016184248 4278407338
0.016368814 0.003438428 -0.013631612 4278669734
0.018464509 0.0028183833 -0.013334349 4278735013
0.020904899 0.00071101636 -0.011690404 4278734758
0.022499792 0.0023233816 -0.013415944 4278603433
0.025479801 0.006289877 -0.017532781 4278866084
0.027400643 0.0064140037 -0.017907832 4278669734
0.030053627 0.0035661235 -0.015598029 4278865574
0.033099484 -0.00076596439 -0.011950951 4278800293
0.036931057 -0.0080665275 -0.0056295032 4278669479
0.041771557 -0.019075997 0.0040297154 4278669988
0.046886161 -0.030822448 0.014342446 4278801313
0.050711453 -0.037368126 0.019958533 4281487483
-0.025003538 -0.0090853646 0.0010577841 4279586969
-0.0232637 -0.0074622706 -0.00069503579 4279194014
-0.021423824 -0.0065895543 -0.0017619682 4279194268
-0.019362658 -0.0072163418 -0.0014613708 4278997663
-0.017759643 -0.0048447102 -0.0038925549 4278801569
-0.016053937 -0.0032233149 -0.0056383242 4278408614
-0.014237531 -0.0023516268 -0.0067003076 4278670754
-0.012178428 -0.0029780939 -0.0063989558 4278801824
-0.010113843 -0.0036040992 -0.0060986006 4278801824
-0.0081730708 -0.0034810156 -0.0064792936 4279129499
-0.0063641444 -0.0026093349 -0.0075394553 4279129244
-0.00469511 -0.00098956376 -0.0092775077 4280045969
-0.002899345 -0.00011844188 -0.010334957 4279587478
-0.00096881017 4.4703484e-06 -0.010713283 4279456918
0.00081913173 0.00087530166 -0.011768974 4279522708
0.0027471855 0.00099830329 -0.012146629 4279129499
0.004527282 0.0018688664 -0.013200603 4280309383
0.0063021109 0.002739206 -0.014253449 4282143599
0.0076114535 0.0058506802 -0.017331231 4279456409
0.0093676709 0.0067200735 -0.01838026 4278866593
0.011277359 0.0068424866 -0.018753877 4278669988
0.013509974 0.0054718629 -0.017779881 4278604198
0.015917473 0.0033556148 -0.016134609 4278735268
0.017840698 0.0034792572 -0.016510598 4278735268
0.019763976 0.0036030412 -0.016886503 4278800549
0.021170825 0.0059646741 -0.019277373 4278603689
0.036803644 -0.009679459 -0.0068130651 4278472618
0.042214103 -0.022955887 0.004826149 4278800803
0.047140237 -0.033992328 0.014444176 4278801313
0.050184123 -0.037579976 0.0173769 4282471529
-0.025020219 -0.011436664 0.00056661945 4279521689
-0.023277521 -0.0098090097 -0.001183535 4279062943
-0.02132453 -0.0096859708 -0.0015672417 4278997663
-0.019371405 -0.0095628127 -0.0019508945 4278932128
-0.017533861 -0.0086878613 -0.0030155787 4278867104
-0.015819922 -0.0070616081 -0.0047597019 4278670499
-0.013874345 -0.0069385692 -0.0051416019 4278932639
-0.012052424 -0.0060641989 -0.0062029855 4279063708
-0.010109253 -0.0059411079 -0.0065842578 4279129243
-0.0082950816 -0.005067043 -0.0076439055 4279260059
-0.0064861253 -0.0041932017 -0.0087024495 4279587478
-0.0046824142 -0.0033195689 -0.0097598694 4280045458
-0.0028839409 -0.0024461523 -0.010816172 4279915154
-0.00095088035 -0.002323091 -0.011195011 4279718548
0.00069724023 -0.00069990754 -0.012925461 4280308874
0.0026251376 -0.00057692826 -0.013303105 4280309384
0.0042573884 0.0010454357 -0.015030228 4281030524
0.0063306615 0.00041886419 -0.014732413 4282209388
0.0079496689 0.0020406619 -0.016456801 4282143598
0.0098698549 0.0021636337 -0.016832557 4279980944
0.011631519 0.0030356646 -0.017880933 4279260824
0.013387881 0.0039074793 -0.018928176 4278801568
0.015466824 0.0032818839 -0.018631009 4278801569
0.017217934 0.0041536093 -0.019677034 4278932639
0.019302316 0.0035286024 -0.019380758 4278932384
0.020704191 0.0058964118 -0.021765685 4278801058
0.022439316 0.0067675263 -0.022808351 4278538919
0.024169106 0.007638365 -0.023849843 4278603943
0.026253585 0.0070138648 -0.023553204 4278341803
0.032106958 -0.00095884502 -0.016955633 4278473129
0.037052345 -0.012786172 -0.0066625378 4278735268
0.043037076 -0.028342284 0.0069460217 4278866593
0.047200218 -0.036423877 0.013873804 4278669988
-0.024722546 -0.016055666 0.0021171682 4280832388
-0.023184069 -0.01291424 -0.00099394843 4279586968
-0.02122587 -0.012790896 -0.0013786983 4278932639
-0.019380435 -0.011913352 -0.0024434244 4278736288
-0.017655775 -0.010282211 -0.0041864822 4279325594
-0.015823402 -0.0094053075 -0.0052484283 4278801568
-0.013875283 -0.0092821345 -0.005630848 4278670499
-0.011927046 -0.0091588274 -0.0060132006 4279063709
-0.010104939 -0.0082822219 -0.0070728669 4278932639
-0.0084170476 -0.0066527799 -0.008808312 4279456409
-0.0066080689 -0.005776763 -0.0098652216 4279653013
-0.0046700165 -0.0056536421 -0.010245224 4279521944
-0.0030058473 -0.0040253848 -0.011975692 4279260313
-0.00093325973 -0.0046546757 -0.011679762 4279456919
0.0010024309 -0.0045313314 -0.012059023 4279915153
0.0029382184 -0.0044078678 -0.01243822 4280374664
0.0045786761 -0.0027805939 -0.014163726 4280571014
0.0066596679 -0.0034089014 -0.013869022 4281292664
0.0084399544 -0.0025336966 -0.014919627 4280440454
0.01021497 -0.00165876 -0.015969068 4279587989
0.011826277 -3.2901764e-05 -0.017688453 4279326104
0.013426922 0.0015924349 -0.019405698 4278736033
0.017428473 0.0010882616 -0.019486047 4278408104
0.019179638 0.0019622967 -0.020530352 4278277034
0.020925477 0.0028361008 -0.021573523 4278407849
0.022491504 0.0044597834 -0.023283506 4278866594
0.024223994 0.0053330362 -0.024323914 4279063199
0.026130982 0.0054562613 -0.024696264 4279128989
0.028220508 0.004829973 -0.024402129 4278604708
0.031982161 -0.0025405362 -0.018116299 4278604964
0.037300386 -0.015901394 -0.0065181796 4278604963
0.043286674 -0.031503074 0.0070556179 4278604963
0.047066644 -0.038110606 0.012636181 4278932894
-0.024216734 -0.022205271 0.0050150324 4282471274
-0.022661678 -0.019054137 0.0019071866 4280963203
-0.020797633 -0.018173404 0.00084039383 4280177549
-0.019164279 -0.015780449 -0.0015821401 4279064473
-0.017315976 -0.014900491 -0.0026456658 4279260824
-0.015590981 -0.013264827 -0.0043854807 4279259803
-0.01363498 -0.013141163 -0.0047694501 4278866594
-0.011802293 -0.01226186 -0.0058296598 4278866849
-0.010100938 -0.010627382 -0.00756452 4278736289
-0.0084101781 -0.0089934096 -0.0092972489 4279260059
-0.0065985098 -0.0081150532 -0.01035306 4279194269
-0.0047920719 -0.0072369277 -0.01140776 4279456409
-0.0029908791 -0.006358996 -0.012461328 4279456409
-0.0010554418 -0.0062358007 -0.012840641 4279325339
0.0010222755 -0.0068668425 -0.012547278 4279587989
0.0028157383 -0.0059890449 -0.013599058 4279849873
0.0047514588 -0.0058654696 -0.013978154 4280178059
0.0065370537 -0.0049879178 -0.015028209 4280112524
0.0086231492 -0.0056179389 -0.014736117 4279915408
0.010403529 -0.0047404692 -0.015784957 4279456918
0.012336869 -0.0046165511 -0.016163219 4279260569
0.013787493 -0.0022330061 -0.018548265 4278670499
0.015712902 -0.0021093562 -0.018924791 4278605219
0.017638359 -0.0019855574 -0.01930121 4278932383
0.019563854 -0.0018616393 -0.019677557 4278670243
0.02131775 -0.00098515302 -0.020720676 4278604709
0.022891991 0.00064346194 -0.02242901 4278735779
0.024809528 0.00076724589 -0.022803513 4278408104
0.02672708 0.00089114904 -0.023177935 4278539684
0.028826986 0.00026340038 -0.022887506 4278736289
0.032597482 -0.0071283355 -0.016619742 4278736543
0.037735447 -0.019776411 -0.005716322 4278867613
0.043535613 -0.034672298 0.0071590841 4278998684
-0.01488781 -0.020169504 -0.00082892738 4282142579
-0.013033837 -0.019286804 -0.0018917751 4281028228
-0.011431634 -0.016888812 -0.004302917 4280503694
-0.0097193867 -0.015249312 -0.0060366481 4280241553
-0.0080177188 -0.013610296 -0.0077682375 4279456409
-0.0061953217 -0.012729101 -0.0088245291 4279652759
-0.004378166 -0.011848144 -0.0098797027 4279587479
-0.0027029067 -0.010210432 -0.011605837 4279587478
-0.0010382496 -0.0085733458 -0.013329779 4279259548
0.00089981779 -0.0084498823 -0.013709531 4279587478
0.0028379746 -0.0083262846 -0.014089202 4279653269
0.0049235858 -0.0089587495 -0.013798838 4279784339
0.0067145564 -0.0080786794 -0.014848308 4279456919
0.008805681 -0.0087105632 -0.014558838 4279194525
0.010436043 -0.0070749074 -0.016275495 4279129243
0.01221383 -0.0061953366 -0.017322123 4279063709
0.013825558 -0.0045605823 -0.019034989 4278474149
0.015753496 -0.0044367611 -0.019412 4278605219
0.017847579 -0.0050678104 -0.01912263 4278998429
0.019609492 -0.0041887388 -0.020165764 4278867104
0.021366082 -0.0033098906 -0.021207768 4278539684
0.023117341 -0.002431266 -0.022248629 4278801313
0.025216904 -0.0030614361 -0.021959942 4278735778
0.026962837 -0.0021829084 -0.022999581 4278670499
0.029249948 -0.0035664439 -0.022048607 4278801824
0.032841735 -0.010225721 -0.016461106 4278736289
0.037794448 -0.022157088 -0.0062480592 4279129244
0.043023031 -0.034836136 0.0046099313 4278867104
0.046028018 -0.038469978 0.0075173639 4282733414
-0.005662322 -0.018119752 -0.0066371206 4280634253
-0.0039655715 -0.016476534 -0.0083642695 4280176784
-0.0024159104 -0.014074735 -0.010759728 4279980179
-0.0010213666 -0.010914966 -0.013821912 4279521943
0.00091922656 -0.010791346 -0.014202164 4279980943
0.0027153902 -0.0099090412 -0.015251216 4279587733
0.004800681 -0.010543711 -0.014962432 4279456408
0.0065916628 -0.0096615031 -0.01601029 4279063964
0.0085299201 -0.0095375255 -0.0163897 4279129244
0.010468241 -0.0094134137 -0.016769022 4278997663
0.012248721 -0.0085315034 -0.017814539 4278735523
0.014023907 -0.0076497793 -0.018858913 4278932639
0.015630517 -0.0060108975 -0.020567421 4279063708
0.017724279 -0.0066441298 -0.020279624 4278998174
0.019654818 -0.0065199062 -0.020656962 4278932639
0.02158539 -0.0063955411 -0.021034211 4279063709
0.023515992 -0.0062710419 -0.021411356 4279129243
0.025269967 -0.0053899288 -0.022451017 4278998174
0.027197924 -0.0052653626 -0.022827465 4278867104
0.029489897 -0.0066529736 -0.021880664 4279063198
0.033085324 -0.013331555 -0.016308675 4278801058
0.037665758 -0.023785971 -0.0074433186 4278866593
0.042511176 -0.034990974 0.0020674504 4282143853
0.0030258931 -0.013773762 -0.014411142 4282467958
0.0049718656 -0.013649546 -0.014792258 4281486208
0.0066185109 -0.012004383 -0.016505795 4280504459
0.0085592829 -0.011880241 -0.016885696 4280176784
0.010500126 -0.011755995 -0.01726553 4279979924
0.011967842 -0.0093519688 -0.019639246 4278997153
0.013900772 -0.0092279688 -0.020017341 4279194269
0.015344482 -0.0068251863 -0.022386223 4279194269
0.017766777 -0.0089795664 -0.020773262 4278801569
0.019868277 -0.0096143484 -0.020488523 4278801824
0.022146285 -0.011007696 -0.019542711 4279063708
0.02356606 -0.0086059719 -0.021906465 4279128733
0.025146246 -0.0069638044 -0.023606062 4279194268
0.02689489 -0.0060807541 -0.024642952 4279128733
0.029365513 -0.008231245 -0.023038857 4278670499
0.033143751 -0.015687697 -0.016821796 4278669988
0.037911456 -0.026930496 -0.0073205335 4278473128
0.042379752 -0.036652334 0.00084840879 4282471274
0.0087405592 -0.014989488 -0.016720558 4282206073
0.010841485 -0.015627138 -0.016437838 4281486210
0.012632702 -0.014740206 -0.017482193 4280569483
0.014258377 -0.013091512 -0.019187955 4280176783
0.016036317 -0.012205169 -0.02022952 4279063198
0.018305726 -0.013603665 -0.019285491 4279194013
0.020585887 -0.015001394 -0.018343428 4279063709
0.022534892 -0.014875837 -0.018724279 4279194268
0.023789413 -0.011705995 -0.021744717 4279194268
0.025375154 -0.01005917 -0.023442071 4279194269
0.027129155 -0.0091735199 -0.024478402 4278932128
0.029604461 -0.011330254 -0.022880152 4278932639
0.033570506 -0.019568555 -0.016022312 4279063709
0.037782464 -0.028563127 -0.0085185384 4279194523
0.042058669 -0.037553407 -0.0010272004 4282667623
0.019670464 -0.022063695 -0.014510849 4282992749
0.021806117 -0.02270069 -0.014236031 4281748603
0.023264039 -0.020283557 -0.016597567 4280570249
0.024359021 -0.016340919 -0.020272495 4280177039
0.025955647 -0.014688984 -0.021968732 4279390364
0.027899193 -0.014563397 -0.022348227 4278997153
0.030205727 -0.01596313 -0.021414107 4278867104
0.033812106 -0.022699721 -0.015888399 4279260314
0.038027175 -0.031720154 -0.0084049255 4279849873
0.025793701 -0.024820052 -0.015529308 4282733414
0.027590562 -0.023927487 -0.016570797 4282339439
0.029382078 -0.023035094 -0.017611193 4280571524
0.031530887 -0.023672752 -0.017340081 4279850639
0.034604996 -0.028133474 -0.013796828 4279784594
0.037897877 -0.033356525 -0.0096056685 4281486974
-0.017520577 -0.02929496 -0.021087889 4282732903
-0.019471802 -0.031787954 -0.021213971 4282405229
-0.021869905 -0.03113807 -0.023965791 4282798439
-0.010611266 -0.032775134 -0.02922013 4282667369
