# .PCD v0.7 - Point Cloud Data file format
VERSION 0.7
FIELDS x y z rgba
SIZE 4 4 4 4
TYPE F F F U
COUNT 1 1 1 1
WIDTH 835
HEIGHT 1
VIEWPOINT 0 0 0 1 0 0 0
POINTS 835
DATA ascii
-0.0042015016 -0.020201176 -0.008682319 4287182144
-0.0023720488 -0.01931455 -0.0096864104 4287246913
-0.00011118874 -0.020739175 -0.0087213675 4287246914
0.0015674122 -0.019082248 -0.01038035 4287051073
0.0035371967 -0.018965915 -0.010727197 4287379259
0.0055070184 -0.01884944 -0.011073943 4287836984
0.008102186 -0.021811709 -0.0088039646 4287901753
0.010400824 -0.023233451 -0.0078450786 4287639868
0.012386829 -0.02311562 -0.0081943618 4287574334
0.014208451 -0.022228435 -0.0091962786 4287443774
0.016358852 -0.022879586 -0.0088926451 4287706168
0.018175092 -0.02199246 -0.0098934146 4287706423
0.02033085 -0.02264303 -0.0095905224 4287575863
0.022842251 -0.024830371 -0.0079867514 4287379259
-0.0074527264 -0.026661247 -0.0052467519 4286398274
-0.0058766231 -0.024225518 -0.0075647989 4288165168
-0.0038964227 -0.024109051 -0.0079138512 4288427308
-0.0023443922 -0.021674439 -0.01022751 4288557359
-8.1308186e-05 -0.023103289 -0.009266139 4288230194
0.0018963441 -0.022986606 -0.0096144537 4288230193
0.0040248334 -0.023641989 -0.0093092257 4288230449
0.006005235 -0.02352488 -0.0096578309 4288426544
0.0081418417 -0.024179533 -0.0093538323 4287837238
0.010283839 -0.024833724 -0.0090506831 4288033589
0.012431227 -0.025487468 -0.0087483758 4288033589
0.014419761 -0.025369376 -0.0090980204 4287902774
0.016575219 -0.026022404 -0.0087968828 4288099124
0.018396825 -0.02513276 -0.0097969817 4287968309
0.020729939 -0.026556142 -0.0088469135 4288033588
0.023248758 -0.028749526 -0.0072494312 4287836984
-0.0077029057 -0.027487978 -0.0071086711 4286267459
-0.005991973 -0.02582106 -0.0087671289 4288295218
-0.0040119439 -0.025704637 -0.0091161812 4288295729
-0.0023170188 -0.02403836 -0.010771655 4288230959
-0.00019699335 -0.024696715 -0.010466763 4288492589
0.0020764023 -0.026129097 -0.0095104659 4288230704
0.0043605715 -0.027560681 -0.0085559534 4288753963
0.0065022185 -0.028217375 -0.0082545672 4288426798
0.0084932372 -0.028099507 -0.0086049372 4288099379
0.010166872 -0.026433706 -0.010256068 4288033588
0.012313936 -0.027089626 -0.0099553736 4288229939
0.014466388 -0.027745143 -0.0096554738 4287968054
0.016790967 -0.02917356 -0.0087074656 4288033845
0.018787395 -0.029054731 -0.0090582911 4287968309
0.021128088 -0.030481964 -0.0081128646 4288098869
0.023479501 -0.031908393 -0.0071692746 4288098358
-0.0059702583 -0.028193638 -0.0093166847 4288294963
-0.0039877072 -0.028077066 -0.0096661691 4288557103
-0.0021475106 -0.027183369 -0.010667191 4288296239
-2.2433698e-05 -0.02784352 -0.010364877 4288230704
0.0021080598 -0.028503232 -0.010063423 4288099634
0.0043944567 -0.02993907 -0.0091125946 4288557869
0.0063852817 -0.029821351 -0.0094630364 4288230704
0.0082202815 -0.028927237 -0.010462666 4287903028
0.010208473 -0.028809428 -0.010812448 4287902773
0.012357907 -0.029467404 -0.010513777 4287771959
0.01451272 -0.030124888 -0.010215996 4287771959
0.016672898 -0.030781925 -0.0099190567 4287706423
0.018669166 -0.030663088 -0.010269845 4287902518
0.021009374 -0.032094687 -0.0093276706 4288033588
0.023360305 -0.033525437 -0.0083872993 4287836219
-0.0060857236 -0.029790759 -0.010520203 4288032568
-0.0039637461 -0.030453511 -0.010219203 4288099124
-0.0021208785 -0.029557496 -0.01121903 4288033333
-0.00013838336 -0.029440686 -0.011568325 4287837495
0.0018441603 -0.029323727 -0.011917511 4287902518
0.0041273795 -0.030763999 -0.010969469 4288033590
0.0061153583 -0.030646473 -0.011319431 4287837239
0.0079476722 -0.029750414 -0.012316881 4287577138
0.0099330097 -0.02963277 -0.012666164 4287772978
0.012079429 -0.030293033 -0.012368659 4287575353
0.014067478 -0.030174956 -0.01271821 4287509818
0.016221972 -0.030834526 -0.012421882 4287574844
0.018381828 -0.031493589 -0.012126444 4287509053
0.020547044 -0.032152213 -0.011831841 4287379003
0.022717617 -0.03281039 -0.011538083 4287312194
-0.0067480989 -0.028260961 -0.014320737 4287508543
-0.0046371855 -0.028926536 -0.014019458 4287574333
-0.0026629604 -0.02881033 -0.014367385 4287444028
-0.00054388493 -0.029475205 -0.014067298 4287444283
0.0014331192 -0.029358573 -0.014415516 4287444283
0.0035603195 -0.030022666 -0.014116706 4288229174
0.0053872317 -0.029124916 -0.015111661 4287967543
-0.011391554 -0.00032787025 0.045357388 4282674508
-0.031704478 0.0091557428 0.035376359 4281824849
-0.029801823 0.0099911764 0.034316663 4279478083
-0.027372085 0.0072333664 0.036780562 4280329529
-0.022894904 0.0045949742 0.038882863 4281763139
-0.020869013 0.0047131702 0.038525023 4281498704
-0.018725753 0.0041135177 0.038869862 4281367633
-0.017536275 0.0092568696 0.03359659 4281434444
-0.016384356 0.014398158 0.028329981 4281371968
-0.015019391 0.018102303 0.024472518 4280853298
-0.012273356 0.013914064 0.028327918 4280720189
-0.0087108649 0.0054247007 0.036379162 4280720189
-0.036309987 0.010907292 0.031338889 4281889618
-0.035299867 0.018235512 0.023943249 4281108044
-0.033939652 0.022676274 0.01937259 4279154744
-0.032197051 0.024231479 0.017621145 4280329528
-0.029827215 0.021461479 0.020088997 4280134709
-0.027544722 0.019413479 0.021850638 4281111868
-0.025357604 0.018086948 0.022907583 4281243194
-0.023502715 0.018922165 0.021858225 4281373499
-0.021535989 0.019036986 0.021510895 4281243449
-0.020167917 0.022751927 0.01766105 4280917558
-0.018581737 0.025025688 0.01521611 4281111869
-0.016761295 0.025859252 0.014173189 4281567809
-0.014051333 0.021655925 0.018024899 4280785724
-0.010917403 0.015296467 0.023966826 4280527919
-0.0060031563 -0.00040983409 0.038976114 4281113908
-0.037950911 0.02087336 0.018873746 4281043528
-0.036491975 0.024603613 0.015015546 4280783938
-0.034757428 0.026162565 0.013268769 4281175108
-0.032826558 0.02627477 0.012927368 4281306433
-0.030577064 0.024218239 0.014689755 4280915519
-0.028202437 0.02143991 0.017150141 4280785724
-0.026252277 0.021553539 0.016805563 4280981309
-0.024416178 0.022389762 0.015761215 4281046333
-0.022702232 0.023948096 0.01401853 4280980798
-0.021118525 0.026228122 0.011578888 4279026223
-0.019550852 0.028507311 0.0091421492 4280916539
-0.017624229 0.028620072 0.0088021178 4281371713
-0.015186831 0.025846109 0.011251956 4281048374
-0.011945602 0.018744245 0.017879907 4280396848
-0.0071868375 0.0037103519 0.03215998 4280396848
-0.038729668 0.024377398 0.012774941 4281044038
-0.037190974 0.027391784 0.0096292868 4279481144
-0.035271145 0.027503222 0.0092897415 4280068409
-0.033247836 0.026889503 0.0096503384 4280394299
-0.031006999 0.024825893 0.011409266 4279677239
-0.028749883 0.022763371 0.013165357 4280198713
-0.026587844 0.02142667 0.014220025 4281046589
-0.024985231 0.02371408 0.011781871 4280981308
-0.02339863 0.026000652 0.0093466267 4280850238
-0.02170857 0.027562 0.0076115509 4278958393
-0.020029176 0.029122844 0.0058784462 4279350838
-0.017985933 0.028511062 0.0062361159 4280069174
-0.015554659 0.025728069 0.0086803604 4280134198
-0.012711138 0.020775288 0.013206847 4280330293
-0.008235056 0.007142067 0.026065139 4280720953
-0.0025719032 -0.012272321 0.044460583 4280916284
-0.039030783 0.024272524 0.010198619 4280653124
-0.037399173 0.026567452 0.0077599068 4280785214
-0.035582624 0.027406361 0.0067218835 4280654653
-0.033564977 0.02679006 0.0070818258 4280655419
-0.031435952 0.025446929 0.0081387796 4280459579
-0.029187493 0.023377329 0.0098914169 4280849983
-0.02714517 0.02276282 0.010247193 4280784703
-0.025439076 0.024329253 0.0085123945 4280849473
-0.023976788 0.027348474 0.0053874669 4280718913
-0.021939464 0.026733972 0.0057443487 4280849473
-0.020384539 0.029025365 0.0033198348 4280915263
-0.01834698 0.028411075 0.0036768313 4280915518
-0.016176552 0.027071133 0.0047271508 4281111104
-0.013214961 0.021376558 0.0099378135 4281046843
-0.0090155564 0.0091530085 0.021379929 4281046845
-0.0033702329 -0.010320894 0.039733514 4281046845
-0.039046422 0.021986298 0.0097237937 4280978248
-0.037509404 0.025017813 0.0065917713 4280784448
-0.035893433 0.027318411 0.0041608135 4281046079
-0.034087434 0.028158911 0.003126428 4281176383
-0.031969614 0.026810758 0.0041820086 4281111104
-0.029624112 0.024004675 0.0066274856 4280915264
-0.027479097 0.022658318 0.0076784207 4280849728
-0.025778182 0.024228714 0.0059479061 4280654143
-0.023971453 0.025069743 0.0049137673 4280784704
-0.022169977 0.025910579 0.0038806382 4280915009
-0.020495597 0.027479775 0.0021549999 4281111104
-0.018582817 0.027591672 0.0018173675 4281046079
-0.016415533 0.026247188 0.0028648893 4280980799
-0.013717812 0.021991201 0.0066787801 4281243449
-0.0097944401 0.011186019 0.016711332 4280981819
-0.0048433319 -0.0047086179 0.031567525 4281046843
-0.03896752 0.018963687 0.0099425241 4281500489
-0.037522115 0.022736311 0.0061199334 4280785979
-0.03610342 0.026507482 0.0023021414 4280199479
-0.034402922 0.028081801 0.00057465769 4278701864
-0.032396428 0.027460612 0.00093322806 4278570794
-0.029951535 0.023913801 0.0040678452 4280329274
-0.027812324 0.02256275 0.0051164567 4280980799
-0.025775827 0.021943629 0.0054699681 4280850493
-0.023966379 0.02278696 0.0044369991 4280980799
-0.022043213 0.022899218 0.0040973439 4280849984
-0.020728268 0.026665181 0.0002985294 4280263483
-0.018942673 0.027507432 -0.0007299874 4279089973
-0.016908258 0.026888691 -0.00037571462 4279025714
-0.014219683 0.022619165 0.0034297868 4279350583
-0.010439295 0.012510963 0.01274926 4280719933
-0.0063132495 0.00094739348 0.023434488 4281045058
-0.0025144443 -0.0084216595 0.032037593 4281110339
-0.00075310841 -0.0068422854 0.030300518 4281951839
-0.039078444 0.017401598 0.008764958 4281565514
-0.037729695 0.02191934 0.0042560822 4281047609
-0.036413044 0.026435368 -0.00024708034 4278570028
-0.034717724 0.028013639 -0.0019702986 4280460343
-0.032611534 0.02665611 -0.000919363 4278438958
-0.030278288 0.023831956 0.0015149261 4280524858
-0.028034143 0.021742664 0.0032533589 4280915773
-0.026114061 0.02185452 0.0029140818 4280915518
-0.024309963 0.022699684 0.0018837075 4280915774
-0.022629954 0.024277717 0.00016362546 4280588864
-0.020960588 0.025855206 -0.0015544542 4280523838
-0.019301865 0.027432218 -0.003270617 4280980034
-0.017273113 0.026810966 -0.0029170199 4280654144
-0.011347394 0.015318096 0.0074239173 4280459578
-0.0077799857 0.0066472143 0.015334455 4281176639
-0.0045608804 0.00017607212 0.021171575 4280914243
-0.039661638 0.01952292 0.004120979 4281240899
-0.038325533 0.024052918 -0.00037574256 4280525368
-0.036622144 0.025635853 -0.0020971638 4281045569
-0.034826808 0.026482143 -0.003124729 4281306433
-0.032826252 0.025856227 -0.0027684798 4281110339
-0.030604362 0.02375903 -0.0010312037 4280654653
-0.028476812 0.022398591 1.2771692e-05 4280590138
-0.026678197 0.023245476 -0.0010150676 4281047099
-0.025000826 0.02482757 -0.0027314522 4280981053
-0.023215413 0.025673896 -0.0037567862 4279807798
-0.021435261 0.026520018 -0.0047811233 4280654654
-0.019536331 0.026631035 -0.0051163584 4281241154
-0.017637298 0.026742183 -0.005451519 4281436484
-0.015220471 0.023915067 -0.0030380287 4280850238
-0.011989348 0.016682751 0.0034917691 4280394044
-0.0085695349 0.0087194443 0.010698335 4280719934
-0.0056404173 0.0036961585 0.015151672 4280914499
-0.040054612 0.020188674 0.00087693986 4281371714
-0.03882277 0.025469787 -0.0042996951 4279872824
-0.036930569 0.02557946 -0.0046344758 4280262973
-0.035140596 0.026427615 -0.0056594987 4280979014
-0.033040628 0.025060989 -0.0046141059 4280458048
-0.031037532 0.024433136 -0.0042599109 4279807544
-0.028918482 0.023067877 -0.0032177723 4280915518
-0.027127922 0.023916423 -0.0042425417 4281046589
-0.025574237 0.026239853 -0.0066420534 4281046589
-0.023918077 0.027825117 -0.0083512887 4280916284
-0.022030152 0.027935378 -0.0086846743 4279287598
-0.020142116 0.028045744 -0.0090180039 4280460599
-0.0181274 0.027419329 -0.0086652748 4280655929
-0.015848674 0.025319777 -0.0069423993 4280133178
-0.012761965 0.018801689 -0.0011120876 4280654143
-0.0096267574 0.012286544 0.0047097472 4281110084
-0.0065803826 0.0065106452 0.0098390486 4280911183
-0.040540777 0.02160868 -0.0030471224 4281110338
-0.039221875 0.026163556 -0.0075208177 4280851004
-0.037536934 0.027754024 -0.0092323534 4280133179
-0.035658136 0.027863003 -0.0095647015 4280067388
-0.033674292 0.027231749 -0.0092088562 4280066878
-0.031577319 0.025860742 -0.0081662461 4280589119
-0.029579744 0.025230497 -0.007812677 4280915775
-0.027689643 0.025340542 -0.008146707 4280850749
-0.026030712 0.026930131 -0.0098531526 4281046333
-0.02414573 0.027040083 -0.010186119 4281112124
-0.022381671 0.027889561 -0.011204306 4281176894
-0.020499147 0.027999602 -0.011536663 4281110848
-0.018237259 0.0258925 -0.0098159425 4281045314
-0.015959136 0.023786411 -0.0080979606 4280587589
-0.013137579 0.018726282 -0.00364915 4280653125
-0.01014379 0.012929916 0.0014759698 4280522054
-0.007244058 0.0078746006 0.0059111691 4280388689
-0.040649623 0.020073801 -0.004204209 4281500744
-0.039426625 0.025384627 -0.0093560237 4281045823
-0.037744187 0.026979297 -0.011063844 4281045059
-0.035868213 0.027088095 -0.011395708 4281109574
-0.033887334 0.026454434 -0.011040986 4281044549
-0.031686045 0.024336554 -0.0093151294 4280914499
-0.029909022 0.025188491 -0.010334296 4281110594
-0.028024413 0.025298208 -0.010667367 4281241663
-0.026255183 0.02614991 -0.011684978 4281110848
-0.024373032 0.026259691 -0.012017455 4281241919
-0.022369854 0.025628015 -0.01166622 4281307199
-0.020361207 0.024996772 -0.011315862 4281111614
-0.018094543 0.022883408 -0.0096009476 4281046588
-0.015811652 0.020771146 -0.0078888452 4281045314
-0.013380881 0.017918974 -0.0054977285 4280783938
-0.01065984 0.013586558 -0.0017477418 4280848708
-0.0076324046 0.0077749565 0.0033582016 4280454479
-0.040570714 0.017048553 -0.0039875163 4281761354
-0.03924486 0.021629766 -0.0084425556 4281176129
-0.037653409 0.023974158 -0.010834301 4280915264
-0.035670273 0.023338392 -0.010481773 4280523073
-0.033786215 0.02344773 -0.010815009 4280523073
-0.031472854 0.020579048 -0.0084105833 4280392768
-0.029797725 0.022178009 -0.010113486 4280653889
-0.027907878 0.02228801 -0.010447494 4280654143
-0.026017904 0.022398114 -0.010781456 4280654144
-0.024009757 0.021764405 -0.010432809 4280849984
-0.021996126 0.021131165 -0.010085092 4280654143
-0.019853596 0.019754767 -0.00905672 4280523328
-0.017700206 0.018379085 -0.0080301361 4280653379
-0.015535958 0.017004184 -0.0070054205 4280783429
-0.01322937 0.014886886 -0.0053023747 4280848453
-0.010504037 0.010541797 -0.0015631709 4281044294
-0.0076094717 0.0054558739 0.0028496212 4280387414
-0.040211275 0.011772498 -0.0017217523 4281761608
-0.038871191 0.016367458 -0.0061693592 4281371203
-0.037067831 0.017224804 -0.0071901968 4280915009
-0.035167933 0.017334938 -0.0075263297 4280915264
-0.033267878 0.017445177 -0.007862418 4280589119
-0.03126055 0.016808853 -0.0075156791 4280784704
-0.02935753 0.016919479 -0.0078521231 4280783939
-0.027454376 0.017030224 -0.0081885094 4280783429
-0.025666289 0.017887324 -0.0092061488 4280783428
-0.023647703 0.017252088 -0.0088610733 4280846923
-0.021623608 0.016617231 -0.0085168434 4280848199
-0.019347504 0.014491357 -0.0068137175 4280783684
-0.017181113 0.013112091 -0.0057927663 4280913733
-0.01513252 0.012479059 -0.005452638 4281174854
-0.012815785 0.010355845 -0.0037563925 4280781899
-0.010348819 0.0074885786 -0.001384899 4280584528
-0.0077235475 0.0038777515 0.0016604117 4280190299
-0.039946869 0.0072246864 -0.000155624 4282345558
-0.038402788 0.010334253 -0.0032292211 4281305923
-0.036583282 0.011194646 -0.0042512864 4281110594
-0.034768991 0.01205492 -0.0052723712 4280915519
-0.032959931 0.012914911 -0.0062924265 4280849473
-0.030942149 0.012277007 -0.0059492211 4280784193
-0.02902852 0.012388244 -0.006287552 4280849473
-0.027002387 0.011751004 -0.0059456094 4281044293
-0.025085807 0.011862628 -0.0062842905 4281043783
-0.0231691 0.011974372 -0.0066229063 4280979269
-0.021252286 0.01208625 -0.0069614477 4281044039
-0.019089144 0.010702372 -0.0059434008 4280979269
-0.017040946 0.010067031 -0.0056049582 4281044549
-0.014858782 0.0086844638 -0.0045900419 4280913988
-0.012665775 0.0073027015 -0.0035769884 4280978248
-0.010328058 0.0051743388 -0.0018893466 4280715598
-0.0081106871 0.0037942454 -0.00088040577 4280190554
-0.039870419 0.0041634589 3.3856835e-05 4282214999
-0.038320482 0.007281974 -0.0030341484 4281436739
-0.036396824 0.0073933452 -0.0033745989 4281306689
-0.034675911 0.0090074912 -0.0050758813 4281240898
-0.03275732 0.0091187805 -0.0054152682 4281241154
-0.030945413 0.009981215 -0.0064340811 4280979269
-0.028919712 0.0093416944 -0.006093869 4281044293
-0.026888512 0.0087026134 -0.0057545435 4281044038
-0.025081582 0.0095650926 -0.006772222 4281174343
-0.023044758 0.0089265555 -0.0064337235 4281240389
-0.021122705 0.0090387166 -0.0067732036 4281175109
-0.018954638 0.0076508075 -0.005759351 4281044804
-0.016901352 0.0070135444 -0.0054234415 4281109828
-0.014842603 0.0063767582 -0.0050884467 4281043783
-0.012778383 0.0057403892 -0.0047543477 4280979013
-0.010708701 0.0051044822 -0.0044211056 4280585038
-0.008633554 0.0044689626 -0.0040886947 4279927649
-0.039794534 0.0010938048 0.00021704799 4282149719
-0.038334675 0.0049751624 -0.0035251419 4281436483
-0.036309853 0.0043329224 -0.0031867591 4281502529
-0.034482107 0.0051982254 -0.0042069443 4281371713
-0.032659575 0.0060632974 -0.0052260794 4281175108
-0.030842267 0.006928198 -0.0062441994 4281175109
-0.028920852 0.007039845 -0.0065839328 4281240389
-0.02688726 0.0063987225 -0.0062467009 4281109063
-0.024962887 0.0065107793 -0.0065867826 4281174343
-0.022920996 0.0058703572 -0.006250849 4281370438
-0.020993713 0.0059828088 -0.0065912716 4281175109
-0.019066308 0.0060953796 -0.0069316216 4281240644
-0.017013334 0.0054559112 -0.0065973406 4280848708
-0.015083045 0.0055688918 -0.0069380184 4280979269
-0.012890957 0.0041784123 -0.0059314654 4280978759
-0.01108868 0.0050435513 -0.0069460557 4280519249
-0.039439976 -0.0042526796 0.0024296944 4282280534
-0.03806182 0.00039626658 -0.0019848058 4281370948
-0.036026537 -0.00024754554 -0.0016499432 4281436228
-0.034188032 0.00062052161 -0.002670391 4281370948
-0.032147072 -2.270937e-05 -0.0023363465 4281304393
-0.030313648 0.00084529072 -0.0033557217 4281304904
-0.028376244 0.00095784664 -0.003698292 4281304649
-0.026550606 0.0018255934 -0.0047160634 4281238348
-0.024730191 0.002693139 -0.0057328255 4281173324
-0.022915073 0.0035604909 -0.0067485687 4281238604
-0.021105196 0.0044277012 -0.0077633341 4281042509
-0.019423228 0.0060491115 -0.009450404 4280846669
-0.017250601 0.0046529323 -0.0084439293 4280584273
-0.015195139 0.0040115565 -0.0081116557 4280518229
-0.012872793 0.0018627569 -0.0064364211 4280320858
-0.037025213 -0.01026506 0.004954603 4282152523
-0.0350563 -0.01015114 0.004606091 4281890893
-0.033087231 -0.010037109 0.0042576422 4282022729
-0.03111802 -0.0099229515 0.0039092456 4282088263
-0.029148653 -0.0098086596 0.0035609235 4282414918
-0.027288206 -0.0089368671 0.0025385548 4282545224
-0.025879927 -0.0050363168 -0.0011773626 4281431383
0.021750655 -0.012702264 0.036179241 4282274414
0.024331221 -0.01475627 0.037870217 4281028484
0.027446799 -0.01898583 0.041611955 4281421694
0.029892066 -0.02031184 0.042612042 4282667878
0.032526419 -0.022362337 0.04429388 4282733158
0.034452766 -0.021511562 0.043240737 4282863718
0.035638805 -0.017761417 0.039458241 4282798439
0.036425069 -0.012563363 0.034316394 4282405483
0.037740909 -0.0095411241 0.031226153 4280437648
0.040377714 -0.011590898 0.032908015 4279518884
0.043614045 -0.015812285 0.036629219 4280043674
0.048459999 -0.025824249 0.045786701 4279979414
0.00042477995 -0.0023456439 0.025813254 4281225854
0.0022998452 -0.0014972687 0.024769632 4278470324
0.005209595 -0.0057530105 0.028536743 4278534584
0.0083029494 -0.010735691 0.032984864 4280437904
0.010664254 -0.012072012 0.033995692 4281029249
0.012566421 -0.011221558 0.032947656 4280374409
0.01446322 -0.010371268 0.031900618 4280045968
0.015706543 -0.0066078603 0.028115703 4278865574
0.016758254 -0.0021177605 0.023651358 4279520669
0.020976122 -0.0026051402 0.023623018 4278534329
0.026608616 -0.008911714 0.029052129 4279127714
0.029015724 -0.010244258 0.030055711 4278931618
0.030890945 -0.0093943104 0.029013185 4278997409
0.031842958 -0.0049093515 0.024566969 4278735524
0.032762632 -0.00042618811 0.020126527 4279061413
0.034405719 0.0011482239 0.018411839 4278731699
0.03680452 -0.00018421561 0.019417332 4278272954
0.045377478 -0.01664561 0.034316134 4278668714
0.05105475 -0.029590182 0.04615717 4279455389
-0.0028370395 0.0017575622 0.019444434 4278803863
-0.0012669265 0.0040701479 0.01703286 4278341039
0.0004328303 0.0056503862 0.015310172 4278796724
0.008236181 -0.0027697533 0.022475274 4278669734
0.0099414922 -0.0011886805 0.020751923 4278800548
0.011954434 -0.0010694861 0.020397713 4278865574
0.01331991 0.0019718856 0.017311204 4278603179
0.014828442 0.0042816997 0.014911219 4278601903
0.016488072 0.0058605447 0.013196265 4279257254
0.024382904 -0.0018113405 0.019635821 4279127459
0.026757242 -0.0031501055 0.020641793 4278735013
0.028419495 -0.0015705824 0.018926864 4278473129
0.03078112 0.0052322671 0.012108708 4278865319
0.032586254 0.0060805231 0.011080403 4279193249
0.035343319 0.0032847971 0.013442686 4278733995
0.038898498 -0.0024238825 0.018510995 4278406064
0.043677766 -0.012500413 0.027633561 4278996388
0.049530007 -0.026213631 0.040125441 4278866339
-0.0020978712 0.0061312169 0.012397401 4278931363
-0.00012026355 0.006247744 0.012048965 4279127713
0.0023021773 0.0041639209 0.013752108 4278537899
0.0048917532 0.0013478696 0.016135843 4278602669
0.0070419833 0.00073269755 0.01646721 4278275504
0.0087286383 0.0023169518 0.014750509 4278603688
0.010404557 0.0039007366 0.013035757 4278537898
0.013724156 0.0070666969 0.0096122213 4279060903
0.015534915 0.0079165101 0.0085839443 4278865829
0.017849648 0.0065694824 0.009596847 4278930343
0.020347603 0.00449121 0.011287456 4278602668
0.023212023 0.00095023215 0.01433355 4278537643
0.025569767 -0.00039388239 0.01533916 4278734758
0.027216036 0.0011890531 0.013630327 4278800038
0.029360607 0.0087407678 0.0061554336 4278405554
0.031524178 0.008127898 0.0064856089 4279389344
0.034267005 0.005322665 0.0088437255 4278865319
0.038195301 -0.0018657073 0.015252894 4278537389
0.048406295 -0.024267249 0.03546657 4278669223
0.053535718 -0.035095192 0.045214433 4278997918
0.0018894747 0.0040319189 0.01117971 4278274739
0.0063104779 0.002059862 0.012526043 4278799783
0.0081427172 0.0029126555 0.011495307 4278668968
0.0096518658 0.005235292 0.009104969 4278669224
0.011306461 0.0068222135 0.0073974258 4278732463
0.022568112 0.0015359521 0.011083586 4278800293
0.024739616 0.00092094392 0.011410354 4278734759
0.026375301 0.0025075823 0.0097067077 4278734759
0.027450958 0.0062944144 0.0059769577 4278341293
0.037493087 -0.0012942106 0.012004891 4278471344
0.041858345 -0.0099669695 0.019737162 4279126948
0.047284205 -0.022298828 0.030824309 4278997153
0.052599516 -0.033892594 0.041222751 4278735524
-0.00078776479 0.0052684397 0.0075998302 4278275249
0.0037534311 0.0025501549 0.0096264612 4278930853
0.0058869123 0.0019296706 0.0099574383 4278734504
0.0075577646 0.0035216659 0.0082501285 4278735014
0.009535294 0.0036387742 0.0079021621 4278538664
0.011190049 0.0052300096 0.0061979028 4278472363
0.013162229 0.0053470284 0.0058510504 4278407083
0.014967645 0.0062008351 0.0048270426 4278341548
0.017276064 0.0048448443 0.0058343629 4278276013
0.019595245 0.0034895465 0.0068399175 4278668968
0.022274854 0.00066260993 0.0091952477 4278800293
0.024265828 0.00078131258 0.0088455398 4278735014
0.025896315 0.0023719445 0.007146196 4278669734
0.027333084 0.0046978295 0.004774393 4278472874
0.028939284 0.006287232 0.0030794791 4278603944
0.030722966 0.007140696 0.0020600124 4278473129
0.033074174 0.0057881624 0.0030605285 4278538664
0.036404479 0.00076085329 0.0074218861 4278538409
0.04075421 -0.0079387873 0.015136912 4278473129
0.046362787 -0.021043144 0.0268702 4278407594
0.051462859 -0.031937696 0.036573298 4278735269
0.055621345 -0.039155021 0.042909265 4279521944
-0.0031570345 0.0050434545 0.0053892392 4278734759
-0.0013383962 0.0058992729 0.00436384 4278865574
0.0010660514 0.0037949085 0.0060551683 4278603688
0.0033362061 0.0024314895 0.007065251 4278472873
0.0056171715 0.0010687932 0.0080735702 4278669479
0.0074413568 0.0019254535 0.0070475186 4278407593
0.0095772892 0.0013031438 0.0073766238 4278472874
0.011234906 0.0028989315 0.0056751645 4278734503
0.013045706 0.0037551224 0.0046517863 4278800038
0.014517888 0.0060888901 0.0022782064 4278472874
0.019133803 0.0033682659 0.0042864881 4278538409
0.021807257 0.00053226948 0.0066362931 4278407594
0.023792703 0.0006506443 0.0062875538 4278342058
0.025778119 0.00076913834 0.0059389113 4278735014
0.027397988 0.0023635924 0.0042448505 4278603944
0.029192487 0.0032197982 0.0032250299 4278669479
0.030605299 0.0055509359 0.00086264824 4278276523
0.032765213 0.0049314946 0.0011885813 4278275249
0.035704523 0.0013633817 0.0041972003 4278342058
0.04524377 -0.019032821 0.022259496 4278473129
0.050529417 -0.030697584 0.032609947 4278866594
0.054471083 -0.03720057 0.038262412 4279325593
-0.0034141429 0.0042009428 0.0035167052 4278930854
0.0027693249 0.0030638427 0.0038340255 4278534074
0.005041752 0.0016962886 0.0048405095 4279192229
0.0071692765 0.0010712445 0.0051692962 4278407594
0.0093022063 0.0004466325 0.0054972223 4278538153
0.01127946 0.00056380033 0.0051493696 4278406828
0.012601659 0.0036459863 0.0021038479 4278472363
0.023497449 -0.00021141768 0.0044084168 4278669479
0.025659934 -0.00083331764 0.0047318912 4278669479
0.027462574 2.5376678e-05 0.0037122457 4278407083
0.029074496 0.0016238391 0.0020229644 4278669224
0.034618828 0.0034581572 -0.00035589794 4278337978
0.049597263 -0.029439718 0.028659904 4279192738
0.053526573 -0.035962924 0.034299619 4278538408
-0.0038129836 0.0041077361 0.00097108958 4278865319
0.0046201609 0.0015931129 0.0022921837 4278863279
0.006742008 0.00096552074 0.0026203408 4278669479
0.0087110251 0.0010820925 0.0022738553 4278865829
0.010680059 0.0011988059 0.0019274666 4278734504
0.011994675 0.0042891577 -0.0011100792 4278275249
0.013287779 0.0073783696 -0.0041437466 4278602414
0.015235309 0.0074941441 -0.0044860896 4278864809
0.020525293 0.0017840937 0.00019684946 4278471344
0.022848416 0.00041635334 0.0011918745 4278537898
0.024822775 0.00053419173 0.00084517663 4278735013
0.02661467 0.0013944283 -0.0001708963 4278538409
0.029430915 0.0060820356 -0.0048741456 4279258528
0.031386271 0.0061992109 -0.005217148 4279062688
0.043209169 -0.015687376 0.013754539 4278472109
0.04846514 -0.027423047 0.024056997 4278997153
0.052787296 -0.035448521 0.031015826 4278669478
-0.0043531172 0.0047703758 -0.00224275 4278930598
-0.0026952028 0.0063783824 -0.0039347988 4278996899
-0.00090068951 0.0072394162 -0.0049509164 4278996388
0.0014884956 0.0051147938 -0.0032717979 4278405809
0.0038938597 0.0029912591 -0.0015954399 4278603178
0.0060046278 0.0023608804 -0.0012670332 4278669479
0.0079627372 0.002476804 -0.0016116113 4278931108
0.0097601097 0.0033385605 -0.002627729 4278471853
0.013006466 0.0065522939 -0.0059982669 4278733993
0.014782334 0.0074131563 -0.007010309 4278931108
0.017238881 0.0052935183 -0.0053423587 4278865319
0.02220035 0.001057446 -0.0020146281 4278472874
0.024346093 0.00043020397 -0.0016914932 4278865828
0.025950335 0.0020367429 -0.0033728615 4278735014
0.030507913 0.0075970367 -0.0090713967 4279192994
0.033610508 0.0032509789 -0.0054165185 4278865318
0.047535747 -0.026127629 0.020135242 4278538408
0.052252803 -0.035663955 0.028406201 4278538918
0.055387832 -0.039252058 0.03135607 4282536553
-0.0066920519 0.0045830682 -0.0044309851 4278472874
-0.0030977875 0.0063093603 -0.0064610522 4278800038
-0.0011614896 0.0064235255 -0.0068021473 4279062434
0.0012243837 0.0042922124 -0.0051274472 4278668969
0.005268544 0.0037739053 -0.0051411153 4278800038
0.0070578344 0.004637219 -0.0061542415 4278734503
0.0088417679 0.0055003539 -0.0071663172 4278603433
0.021730009 0.00096492469 -0.0045438809 4278669224
0.023511201 0.0018287301 -0.0055548348 4278735014
0.025286984 0.002692312 -0.0065647648 4278538664
0.026318118 0.0065414757 -0.010236675 4278276013
0.040585663 -0.010025635 0.0033192229 4278734759
0.046004821 -0.022578135 0.01423797 4278735268
0.051515318 -0.035125032 0.025140872 4278735523
0.055053949 -0.040214732 0.029407987 4281619319
-0.0072221719 0.0052706823 -0.0076278248 4279062433
-0.0054304376 0.006135568 -0.0086402819 4278341804
0.0024451129 0.005840607 -0.0093308371 4278735013
0.0045337491 0.0052046031 -0.0090018716 4278669224
0.0063122921 0.0060694292 -0.010011448 4278669224
0.0082459189 0.0061840266 -0.010351619 4278603689
0.010179557 0.0062987581 -0.010691693 4278800294
0.01194738 0.007163316 -0.011699103 4278472363
0.01404684 0.0065285414 -0.011371585 4278275504
0.01632287 0.0051448271 -0.010378422 4278341294
0.01860965 0.0037617981 -0.0093870405 4278603688
0.021083739 0.0016304851 -0.0077319504 4278538409
0.022856873 0.0024959892 -0.008739816 4278735013
0.024624597 0.0033612698 -0.009746654 4278538919
0.025832962 0.0064722076 -0.012744823 4278473128
0.027581774 0.0073365867 -0.013748163 4278865828
0.0297052 0.0067042187 -0.0134241 4279062688
0.032604799 0.0030797496 -0.010450056 4278932129
0.035140418 0.00095292926 -0.0088050691 4278735524
0.039276809 -0.0071552172 -0.0018687169 4278669988
0.044676952 -0.019745596 0.0090251714 4278735523
0.050575346 -0.033825293 0.021224791 4278997919
0.054514259 -0.040425524 0.0268031 4279325849
-0.0077513158 0.0059715956 -0.010814633 4279128479
-0.0059676394 0.0068381727 -0.01182401 4278931874
-0.0040451325 0.0069513917 -0.01216278 4279062944
-0.0019757375 0.0063117146 -0.011832371 4279062943
9.9081546e-05 0.0056724846 -0.011502821 4278800803
0.0020271018 0.0057863891 -0.011842277 4278932129
0.0039551519 0.0059004128 -0.012181658 4278801059
0.0060408264 0.0052621439 -0.011853695 4278866594
0.0079716146 0.0053765625 -0.012193374 4278866594
0.010065384 0.0047390759 -0.011866679 4278866593
0.011833215 0.005605787 -0.012872435 4278997664
0.014100716 0.0042171031 -0.011881208 4278997664
0.01620793 0.0035807714 -0.011556609 4278997664
0.01866797 0.0014420003 -0.0099040857 4278997664
0.02061487 0.0015581027 -0.010246034 4278801059
0.02256174 0.0016743541 -0.01058787 4278866594
0.024326785 0.0025416315 -0.011592569 4278801059
0.026086414 0.0034087226 -0.012596218 4278801059
0.027840609 0.0042756498 -0.013598865 4278735524
0.030158972 0.0028909221 -0.012615783 4278866593
0.032488026 0.0015070066 -0.011634519 4278670243
0.03482778 0.00012379885 -0.010655007 4278735524
0.038365774 -0.0057584196 -0.0057165171 4278735524
0.043551646 -0.017636515 0.0044918652 4279062943
0.049636677 -0.032507867 0.017322024 4278669734
0.053975217 -0.040627256 0.024205023 4278735523
-0.012985457 0.00029919297 -0.0076147309 4279394698
-0.01104724 0.00041284412 -0.0079566492 4278935189
-0.0092448629 0.0012824312 -0.0089678457 4278999449
-0.0077250302 0.0036631748 -0.01131583 4278604199
-0.0060799606 0.0052875504 -0.01299244 4278342314
-0.0022351854 0.0055140927 -0.013669839 4278538919
-0.00031273812 0.0056275353 -0.014008427 4278277034
0.0083381422 0.0015562177 -0.011371234 4278276779
0.016263893 0.0012632385 -0.012071313 4278342314
0.022445887 0.00010407716 -0.011770635 4278342314
0.028472841 -0.00029929727 -0.012135102 4278276779
0.03061178 -0.00093504786 -0.011817082 4278276779
0.032948438 -0.0023228452 -0.010840419 4278473129
0.034905624 -0.0022052675 -0.011183511 4278407849
0.038444877 -0.0081047341 -0.0062584984 4278408104
0.043430243 -0.019265339 0.0032652612 4278801059
0.04930874 -0.033428252 0.015405243 4278342314
0.053230986 -0.040068328 0.020956589 4281488504
-0.024381779 -0.0042209923 -0.004725243 4280179588
-0.023020998 -0.00031219423 -0.0084242811 4278999958
-0.021328058 0.0013183951 -0.010106792 4279196054
-0.019523442 0.0021896511 -0.011117201 4278932638
-0.017599069 0.00230214 -0.01145694 4278473383
-0.015419193 0.00089779496 -0.010458284 4278670499
-0.013098087 -0.0012640655 -0.0087928167 4278801569
-0.011160012 -0.0011504292 -0.0091347164 4278539173
-0.0092218705 -0.0010366663 -0.0094765266 4278473638
-0.0078374855 0.002108559 -0.012487307 4278408104
-0.005909957 0.002221927 -0.012827072 4278407849
-0.0038385354 0.0015778765 -0.012500402 4278473384
-0.0016151667 0.00017696619 -0.011508807 4278342569
0.0001713708 0.0010483786 -0.012515081 4278342569
0.0040375926 0.0012768954 -0.013195714 4278539174
0.0065998547 -0.0016355515 -0.010880115 4278604709
0.0087037422 -0.0022768974 -0.010558638 4278408104
0.010650374 -0.0021613985 -0.010900992 4278342569
0.012431664 -0.0012895688 -0.011905796 4278539174
0.014543641 -0.001930058 -0.011585443 4278604709
0.018610291 -0.0024539605 -0.011608391 4278604708
0.020383481 -0.0015821084 -0.012611388 4278473638
0.02268762 -0.0029767454 -0.011632855 4278473638
0.024458058 -0.0021048039 -0.012635163 4278604709
0.026591407 -0.0027432889 -0.012318007 4278604709
0.028916951 -0.004136309 -0.011342905 4278670244
0.030874107 -0.0040189773 -0.011686171 4278539174
0.033023432 -0.0046561211 -0.011371526 4278604709
0.034593321 -0.0030294433 -0.013029709 4278670244
0.038128436 -0.0089463741 -0.0081172884 4278735778
0.043308843 -0.020893842 0.0020389105 4278735778
0.048981141 -0.034343988 0.013491979 4279128478
0.052899085 -0.041003749 0.019029124 4282471529
-0.024265714 -0.0073131472 -0.0045683342 4282273904
-0.023015738 -0.0026319623 -0.0089295534 4278801059
-0.021200467 -0.0017580464 -0.0099402806 4278669988
-0.019390449 -0.00088430941 -0.010949978 4278538918
-0.01746086 -0.00077154487 -0.011290659 4278604453
-0.015403625 -0.001419276 -0.010963759 4278604964
-0.013210688 -0.0028270334 -0.0099706864 4278473894
-0.011272762 -0.0027133971 -0.010312553 4278670244
-0.0093347691 -0.002599664 -0.010654352 4278670244
-0.0073967017 -0.0024857968 -0.010996073 4278604454
-0.0054585785 -0.0023717955 -0.011337697 4278604454
-0.0035203882 -0.0022576749 -0.011679242 4278604454
-0.001435779 -0.0029029921 -0.011356468 4278669989
0.0003561303 -0.0020290539 -0.012362077 4278408104
0.002446197 -0.0026737973 -0.012040074 4278539174
0.0045416616 -0.003318049 -0.011718961 4278670244
0.006956771 -0.0054796189 -0.0100741 4278473638
0.0089086071 -0.0053639412 -0.010417475 4278408103
0.010860462 -0.0052481294 -0.010760751 4278408103
0.012812316 -0.0051322281 -0.01110395 4278473638
0.014764175 -0.0050161779 -0.011447039 4278670243
0.016545463 -0.0041419193 -0.012449975 4278539174
0.018494615 -0.0040257946 -0.0127924 4278670244
0.020443747 -0.0039095283 -0.013134724 4278473639
0.022571478 -0.0045507401 -0.012818421 4278735779
0.02452324 -0.004434064 -0.013161014 4278539173
0.02647496 -0.0043172836 -0.013503513 4278473639
0.028800029 -0.0057146549 -0.012531646 4278670243
0.030946415 -0.0063542649 -0.012218241 4278735779
0.032906048 -0.0062366351 -0.012561835 4278735778
0.034670867 -0.0053622574 -0.013561033 4278604709
0.03820724 -0.011296406 -0.0086620674 4279128733
0.043387588 -0.023278363 0.0014675367 4279128734
0.048856687 -0.036011219 0.0122365 4279128478
0.052361988 -0.04117845 0.016451338 4282733414
-0.024378158 -0.0088865161 -0.0057542431 4281880948
-0.023360692 -0.0026655346 -0.011441213 4278538918
-0.021312114 -0.0033162907 -0.011114716 4278472873
-0.019624118 -0.0016772598 -0.012789634 4278603943
-0.017323248 -0.0038535371 -0.011130716 4278669988
-0.015388332 -0.0037403554 -0.011472262 4278408104
-0.013063088 -0.0059149861 -0.0098174578 4278539174
-0.011252709 -0.0050385818 -0.010825191 4278670244
-0.0093121752 -0.0049247146 -0.011167452 4278473639
-0.0075097196 -0.0040484816 -0.012173629 4278538919
-0.005430907 -0.0046965629 -0.011851694 4278604453
-0.0033466704 -0.0053441226 -0.011530641 4278473639
-0.00096459687 -0.0075146407 -0.0098853484 4278473639
0.00068918616 -0.0058764294 -0.011553243 4278604708
0.0029385835 -0.0072841793 -0.010572672 4278408103
0.0045816749 -0.0056463704 -0.01223851 4278473638
0.0066849254 -0.006292209 -0.01192034 4278473638
0.0086339191 -0.0061766952 -0.012263209 4278342568
0.010582928 -0.0060610548 -0.012605987 4278735778
0.012696967 -0.0067058802 -0.012289431 4278604709
0.014648665 -0.0065898299 -0.012632489 4278604709
0.016770771 -0.0072339624 -0.012317106 4278604709
0.018725144 -0.0071175173 -0.012660455 4278277034
0.020855278 -0.0077608675 -0.012346327 4278604709
0.022990756 -0.0084037781 -0.012033049 4278539173
0.025131583 -0.0090462342 -0.011720609 4278670244
0.026910063 -0.0081693679 -0.012720909 4278735778
0.02905618 -0.0088112652 -0.012409206 4278670243
0.030829195 -0.0079344586 -0.013408344 4278801313
0.032980584 -0.0085757971 -0.013097383 4278801313
0.03494269 -0.0084578842 -0.013441309 4278932639
0.038285717 -0.013650417 -0.0092099123 4278997918
0.043066077 -0.024149939 -0.0004131021 4278997918
0.048326917 -0.036161438 0.009675933 4280046224
-0.024490558 -0.010459602 -0.0069399402 4281487483
-0.023355514 -0.0049868897 -0.011947677 4278735523
-0.021304563 -0.0056396574 -0.011623271 4278472873
-0.019491848 -0.0047614798 -0.012630141 4278603943
-0.01743532 -0.0054136962 -0.012306537 4278473384
-0.015500553 -0.0053005368 -0.012648065 4278604453
-0.013175931 -0.0074816793 -0.010998141 4278669988
-0.010967713 -0.0088970438 -0.01001431 4278801058
-0.0091545731 -0.008018218 -0.011020795 4278604453
-0.0072087497 -0.0079039112 -0.01136389 4278473384
-0.0052628666 -0.0077894852 -0.0117069 4278669988
-0.003316924 -0.0076749027 -0.012049809 4278801058
-0.0013709329 -0.0075602159 -0.012392655 4278604453
0.00072384253 -0.0082090795 -0.012074929 4278801569
0.0028240308 -0.0088574886 -0.011758074 4278735523
0.004775513 -0.0087421089 -0.012101591 4278735523
0.0065702163 -0.0078633726 -0.013104044 4278669988
0.008678548 -0.0085109025 -0.012788314 4278604453
0.010467909 -0.0076322556 -0.01378965 4278932128
0.012746507 -0.0090420172 -0.012817033 4278932128
0.014533177 -0.0081631988 -0.01381772 4278801569
0.01682521 -0.0095719174 -0.012847271 4278474149
0.018782113 -0.0094553158 -0.013191052 4278670499
0.021090236 -0.010862783 -0.012223281 4278867104
0.023409089 -0.012269512 -0.011257235 4278605219
0.02573866 -0.013675436 -0.010293026 4278605219
0.027527895 -0.012795769 -0.011293557 4278408614
0.029498085 -0.012677737 -0.011639182 4278605218
0.031468224 -0.012559578 -0.011984698 4278735778
0.034013547 -0.014724746 -0.010371376 4278736034
0.036186062 -0.015366837 -0.010065671 4279063198
0.039349489 -0.019812547 -0.0065009524 4278932128
0.043544129 -0.028059483 0.00031570205 4279260059
0.04800031 -0.037063241 0.0077731661 4279849619
0.051289793 -0.041501001 0.011316085 4282536554
-0.02437564 -0.013568245 -0.0067954026 4281487738
-0.023117945 -0.0088478103 -0.01112812 4278866593
-0.021178253 -0.0087347105 -0.011470791 4278538918
-0.019238457 -0.0086215064 -0.011813398 4278473128
-0.017298564 -0.0085081682 -0.012155928 4278735268
-0.015358582 -0.0083946884 -0.012498364 4278538918
-0.01302921 -0.010581993 -0.010854315 4278538918
-0.010816082 -0.012001455 -0.0098746493 4278670499
-0.0088624209 -0.01188682 -0.010219228 4278670243
-0.0070465244 -0.011005506 -0.011224471 4278997663
-0.0052359365 -0.010124445 -0.012228653 4278539429
-0.0031442605 -0.010775894 -0.011912245 4278671008
-0.0010471493 -0.011426963 -0.011596672 4278604964
0.00090679526 -0.011311665 -0.011940807 4278669988
0.0028607771 -0.011196256 -0.01228486 4278735523
0.0048147887 -0.01108072 -0.012628824 4278603943
0.0069254749 -0.011730403 -0.012315262 4278866084
0.009041544 -0.012379676 -0.01200258 4278669989
0.010838978 -0.011498362 -0.013003655 4278866593
0.012960445 -0.012147039 -0.012691714 4278932128
0.014919903 -0.012030542 -0.013036147 4278866593
0.017219514 -0.013443075 -0.012070384 4280439690
0.019357104 -0.014090464 -0.011760943 4280438924
0.021675497 -0.015501618 -0.010798268 4280504204
0.024360921 -0.018440261 -0.0085301138 4280373133
0.026706137 -0.019849554 -0.0075719622 4280176784
0.028878558 -0.020494342 -0.0072682393 4280177040
0.031056298 -0.021138653 -0.0069653997 4280374409
0.033239365 -0.021782517 -0.0066633942 4280571269
0.035619341 -0.023189262 -0.0057109045 4281029503
0.037815727 -0.023832075 -0.0054110447 4281422968
0.040608302 -0.026763394 -0.0031609845 4282012783
0.044220872 -0.032744542 0.0016848543 4282209388
-0.023920812 -0.018995449 -0.0046670889 4282142323
-0.022532739 -0.015031174 -0.0083294921 4279390873
-0.02069594 -0.014147401 -0.0093373917 4279456408
-0.018499766 -0.015572622 -0.0083584897 4279194013
-0.016541217 -0.015458196 -0.0087043084 4279194523
-0.014582578 -0.015343666 -0.0090500675 4279456663
-0.01249424 -0.015998103 -0.0087352209 4279914389
-0.010268144 -0.017421126 -0.0077611697 4280110739
-0.0083011985 -0.017305702 -0.0081080794 4281355394
-0.0066095442 -0.015652806 -0.0097731389 4281617023
-0.004788205 -0.014768951 -0.010777559 4281420674
-0.0028291419 -0.014653623 -0.011122804 4281551489
-0.00072428957 -0.015306339 -0.010810286 4282271864
0.001089137 -0.014422566 -0.011813007 4282402678
0.003048338 -0.014306843 -0.01215798 4282468213
0.0050075687 -0.014190987 -0.012502853 4282794359
0.0074362829 -0.01637768 -0.010880269 4283317875
-0.021949351 -0.021240234 -0.0055502327 4282536554
-0.019977733 -0.021125302 -0.0058985585 4282404463
-0.017884601 -0.021782018 -0.005586517 4282404464
-0.015786007 -0.022438325 -0.00527531 4282469489
-0.013935488 -0.021551207 -0.0062837498 4282403699
-0.011831343 -0.022206925 -0.0059733102 4283058794
-0.014000818 -0.031786606 -0.023114061 4282994023
-0.012177028 -0.030879341 -0.02410101 4283059814
-0.012924608 -0.030833252 -0.029024495 4282797928
