# .PCD v0.7 - Point Cloud Data file format
VERSION 0.7
FIELDS x y z rgba
SIZE 4 4 4 4
TYPE F F F U
COUNT 1 1 1 1
WIDTH 693
HEIGHT 1
VIEWPOINT 0 0 0 1 0 0 0
POINTS 693
DATA ascii
0.032441847 -0.03686478 0.016234186 4286724418
0.016523562 -0.03404247 0.0019604908 4287836983
0.018721465 -0.034664653 0.0022199685 4286136899
0.013842899 -0.033555351 -0.00082301255 4286267204
0.016210848 -0.034937628 9.9414028e-05 4286398274
0.0065037496 -0.030275561 -0.0054499051 4286986049
0.009009257 -0.032424748 -0.0038614189 4286921279
0.0042206012 -0.031272896 -0.0068952134 4287640379
0.0063745826 -0.031905152 -0.0066322749 4287641143
0.0087066777 -0.033298947 -0.0057094125 4287051583
0.002437152 -0.034559079 -0.0063554561 4287509308
0.0042590089 -0.033664472 -0.0074154353 4288165423
0.0060755648 -0.032770075 -0.0084742559 4286725694
0.0018151142 -0.033889554 -0.0095169609 4287313213
0.0037959963 -0.033759996 -0.0099149374 4288492333
0.0056072026 -0.032863759 -0.010971109 4286528578
0.0010299571 -0.032437466 -0.013326469 4287246658
0.0031668395 -0.033077523 -0.013065084 4287771703
-0.011232764 -0.0021951124 0.03135566 4281825104
-0.01983925 0.018802248 0.0084520895 4281306433
-0.018195428 0.020359039 0.0066581704 4280133433
-0.015117884 0.014757946 0.011890667 4280328509
-0.010673389 0.0027196705 0.023431625 4280197949
-0.0064373463 -0.0078817829 0.033551618 4279609918
-0.023015976 0.01265569 0.012295542 4281893444
-0.022299051 0.019247577 0.0055822106 4281046334
-0.021491259 0.025118127 -0.00041944161 4280654908
-0.019735098 0.025959305 -0.0015029199 4281174854
-0.017262865 0.023210555 0.0009189304 4280458304
-0.013593607 0.014721185 0.0089388359 4279938103
-0.010159224 0.007671304 0.015546346 4280850749
-0.006671194 0.00062503666 0.022143152 4281110339
-0.0037493855 -0.003548719 0.025934596 4281498703
-0.0017412342 -0.0034178421 0.025530796 4281233503
-0.026129097 0.016700007 0.0059115719 4281436483
-0.024874695 0.020428382 0.0020175781 4281046333
-0.023374796 0.022713855 -0.0004693009 4280133179
-0.022168301 0.026439346 -0.0043534846 4280589374
-0.020422786 0.027281977 -0.0054331454 4281305923
-0.018250261 0.025963988 -0.0044140122 4281045824
-0.015186325 0.020326994 0.00079519674 4280263993
-0.012527782 0.016852282 0.0039013783 4280654398
-0.0098423623 0.013379417 0.007002227 4281110340
-0.0074396618 0.011347286 0.0087036267 4281107533
-0.0045484006 0.0071585476 0.012491444 4280581979
-0.029843874 0.013424717 0.0069416221 4282086734
-0.028940491 0.019336052 0.00094643608 4281435208
-0.027427115 0.021628693 -0.0015383903 4281306688
-0.025663234 0.022474408 -0.0026204139 4281046078
-0.023904555 0.02331984 -0.0037012715 4280589118
-0.022705361 0.027055793 -0.007575843 4279025714
-0.020967834 0.027900081 -0.0086522736 4279807288
-0.018803805 0.02657713 -0.0076347119 4280068664
-0.016042594 0.022366293 -0.0038308203 4280656949
-0.013547692 0.019601665 -0.0014264639 4281177658
-0.011487123 0.019004002 -0.001114428 4281047099
-0.0095757134 0.019128449 -0.0014988668 4280914753
-0.0067204386 0.014924206 0.002286383 4280913733
-0.0036729611 0.010000847 0.0067596734 4280781644
-0.032871746 0.017523751 0.00057708472 4281566278
-0.031717278 0.022001036 -0.0040057078 4280003128
-0.030083984 0.023574039 -0.0057849064 4279546679
-0.027939819 0.022244886 -0.0047670193 4280393789
-0.026050888 0.022366978 -0.005147595 4280980799
-0.024297513 0.023214243 -0.0062257666 4280980799
-0.022826165 0.025511067 -0.0086970553 4280915518
-0.020947531 0.025632817 -0.0090753175 4281046334
-0.018781308 0.024305575 -0.0080614295 4281046333
-0.016164999 0.020806082 -0.0049631745 4281176894
-0.013969123 0.019481033 -0.00395513 4281111358
-0.012369517 0.021052822 -0.0057268292 4280851003
-0.010934979 0.023347914 -0.0081902184 4279678514
-0.0087308027 0.02202373 -0.0071836021 4279873078
-0.0055570044 0.016359381 -0.0020222128 4279936064
-0.0347782 0.015106536 0.00052336883 4281955409
-0.033848591 0.021054335 -0.0054511838 4280329274
-0.032337427 0.023359746 -0.0079260096 4280459069
-0.026437789 0.022268638 -0.0076681897 4280784958
-0.02441866 0.021663219 -0.0073515847 4281045823
-0.022808693 0.023239553 -0.0091225524 4280719679
-0.020927519 0.023361437 -0.009501351 4280849983
-0.019046247 0.023483455 -0.0098800771 4280915775
-0.016579866 0.020699322 -0.0074831378 4280915518
-0.014687657 0.020822257 -0.0078639071 4280785468
-0.013098553 0.022397727 -0.0096302424 4280720443
-0.01182862 0.025424723 -0.012778945 4280263484
-0.0097952485 0.024821121 -0.012464549 4280719679
-0.0071179271 0.021315195 -0.0093863178 4280001599
-0.0034399256 0.013457961 -0.0021693716 4278564929
-0.00019792467 0.0077808127 0.0029653767 4279020359
0.002416335 0.0050072148 0.0053332448 4280453714
-0.037273109 0.016338408 -0.0030234293 4281045314
-0.035973772 0.020112835 -0.0068943147 4280263229
-0.034701012 0.023885682 -0.010759754 4281045058
-0.033080824 0.025466491 -0.012529938 4281305923
-0.031089179 0.024856761 -0.012209688 4281045823
-0.028831966 0.022787876 -0.010499354 4280850238
-0.02669128 0.021449804 -0.0094872452 4280785979
-0.024675123 0.020841949 -0.0091716386 4281046334
-0.022929579 0.0216932 -0.01024496 4280980543
-0.021048538 0.021815062 -0.010623736 4280784703
-0.019023996 0.021208078 -0.010309581 4280849473
-0.016993985 0.0206016 -0.0099964757 4280980034
-0.015107267 0.020724162 -0.010376152 4280980544
-0.013674732 0.023032121 -0.012829453 4278830129
-0.012258165 0.025339097 -0.015279416 4280980289
-0.010544028 0.026189074 -0.016345846 4281240899
-0.0080378652 0.023399301 -0.013963044 4281240643
-0.004861705 0.017700173 -0.0088281631 4280979014
-0.0019722618 0.013459079 -0.0050789146 4280457538
0.00078187883 0.0099475458 -0.0020240461 4280717638
0.0035628416 0.0064378977 0.0010255296 4280453459
-0.039175756 0.013924547 -0.0030756602 4281761609
-0.03809277 0.019176617 -0.0083351359 4280849728
-0.036689602 0.022228263 -0.011498656 4280198204
-0.035185844 0.024546184 -0.013962312 4279806524
-0.033573478 0.026130829 -0.015727682 4280850494
-0.031717308 0.026250541 -0.016101858 4280589884
-0.029341608 0.023442335 -0.013700227 4279026733
-0.0270769 0.021367453 -0.011996243 4280851004
-0.025066398 0.020757072 -0.011681184 4281176639
-0.023464046 0.022341557 -0.0134441 4280980799
-0.021591164 0.02246289 -0.013821242 4280720189
-0.019718178 0.022584334 -0.014198324 4280915520
-0.017699175 0.021974929 -0.013884656 4280849729
-0.015971888 0.022827558 -0.014952311 4280914754
-0.014401101 0.024410609 -0.016708497 4279742008
-0.012840923 0.025993042 -0.018462418 4279611449
-0.010978155 0.026114371 -0.018837031 4280523583
-0.0087967589 0.024775654 -0.017835565 4280329528
-0.0059567392 0.020518035 -0.014086215 4280134708
-0.0030845478 0.016262658 -0.010343307 4281047609
-1.2855977e-05 0.011279956 -0.0059203645 4281307453
0.0030963644 0.0062997714 -0.0015048534 4281371714
0.0057251081 0.0035098419 0.00084722787 4280977994
-0.039182931 0.011628427 -0.0035133483 4281694543
-0.038096204 0.01689598 -0.0087621398 4281108554
-0.036927775 0.021426409 -0.013308878 4281306433
-0.035547949 0.024485439 -0.016461145 4280132668
-0.03394071 0.026074078 -0.01822219 4280328764
-0.031963021 0.025459036 -0.017902412 4280524603
-0.029590815 0.022641845 -0.015506602 4280981053
-0.02719707 0.019826144 -0.013115063 4281046334
-0.025456943 0.020681217 -0.014184104 4281046334
-0.023997419 0.023003466 -0.016633485 4280850238
-0.022413462 0.024591241 -0.018389363 4280785214
-0.020410933 0.023978464 -0.018074095 4280654398
-0.018257231 0.022633001 -0.017070748 4281045823
-0.016537912 0.023487285 -0.018135175 4280980799
-0.014974952 0.025074139 -0.019886494 4280523838
-0.013268843 0.025927838 -0.020948146 4280264503
-0.011411574 0.026048791 -0.021321669 4279807799
-0.0090769008 0.023972992 -0.019635838 4280785724
-0.0062407404 0.019702017 -0.015895551 4280981054
-0.0030434802 0.013969354 -0.010790936 4281372989
2.9534101e-05 0.0089713633 -0.0063796537 4281372223
0.0029702485 0.0047075823 -0.0026601101 4281305669
0.0052531622 0.0033716932 -0.0016818829 4280977229
-0.038849995 0.007115908 -0.0018720506 4281694798
-0.037751518 0.012399562 -0.0071118502 4280912204
-0.036690295 0.017680861 -0.012344021 4280847944
-0.035301916 0.020749144 -0.015491528 4280847944
-0.033686437 0.022342682 -0.017250979 4280848709
-0.03182786 0.022462495 -0.01762568 4281045059
-0.029710136 0.021109641 -0.016618852 4281046589
-0.027581565 0.019757561 -0.015614077 4280850748
-0.025846742 0.020614512 -0.016680468 4280850238
-0.024667263 0.024414718 -0.020502225 4278375719
-0.022953592 0.025270477 -0.021564154 4279678003
-0.021102272 0.025390495 -0.02193689 4278962474
-0.018668633 0.02256915 -0.019559508 4279681319
-0.01680642 0.022690088 -0.019934282 4280915773
-0.014944103 0.022811137 -0.02030899 4280719678
-0.013235278 0.023667149 -0.021369521 4281046333
-0.011062957 0.022318944 -0.02037286 4281176383
-0.0085619763 0.019502573 -0.018008586 4281307453
-0.0055546872 0.014484785 -0.013595727 4281373755
-0.0021812916 0.0080012456 -0.0078228069 4281047099
0.00090641901 0.0029888973 -0.0034258962 4281111614
0.0030138008 0.0023819134 -0.0031324886 4280783174
0.0049542673 0.0025089979 -0.0035222135 4281106004
-0.038405076 0.001846455 0.00044905767 4281631304
-0.03729216 0.0071462765 -0.0047822255 4281501509
-0.03621652 0.012443841 -0.010005952 4281828419
-0.034935534 0.016260855 -0.013840517 4281370438
-0.033433147 0.0185984 -0.016289204 4281044038
-0.031693332 0.019457482 -0.017355183 4280979268
-0.02995874 0.020316325 -0.018420035 4280981818
-0.028097346 0.02043651 -0.018795155 4280785723
-0.026505187 0.022033356 -0.020546392 4280524603
-0.025198326 0.025105737 -0.02367042 4280720444
-0.023632675 0.026701093 -0.025416147 4281241409
-0.02164951 0.026082646 -0.025100276 4280655419
-0.018933937 0.02177684 -0.021355774 4280590904
-0.016926471 0.021160208 -0.021044616 4280981053
-0.014913566 0.020544037 -0.020734467 4281046589
-0.013048634 0.020665348 -0.021109637 4281177404
-0.010559261 0.01783935 -0.018749651 4281111613
-0.0077308863 0.013541497 -0.015027455 4281503294
-0.0047088936 0.0085093006 -0.010628928 4281372478
-0.0016493797 0.0034797192 -0.006237898 4281501253
0.00094729662 0.00066118687 -0.0038991328 4281695564
0.002548635 0.0022600964 -0.0056510419 4281237584
0.0044836067 0.0023868158 -0.0060396679 4281431639
-0.03830117 -0.0012192205 0.00068206154 4281500999
-0.037066065 0.003354691 -0.0038489141 4281305668
-0.035625942 0.006443657 -0.0069939191 4281435974
-0.034328185 0.010272674 -0.010823728 4281175363
-0.032933198 0.013358951 -0.013959478 4281109063
-0.031685941 0.017184928 -0.017778944 4281240133
-0.030336127 0.020268515 -0.020905413 4281241919
-0.028612047 0.021128953 -0.02196645 4281111614
-0.026893191 0.021989174 -0.023026343 4280069174
-0.025728308 0.025810272 -0.026828881 4280980799
-0.024030633 0.026669331 -0.027884357 4281306688
-0.021910563 0.025308404 -0.026884127 4281111103
-0.019198857 0.020989269 -0.023148675 4280524603
-0.016898602 0.018891037 -0.021470964 4280785213
-0.014732767 0.017533392 -0.020479646 4281045823
-0.012556147 0.016176596 -0.019490458 4281111104
-0.0095891841 0.011125311 -0.015092499 4281305923
-0.0069018416 0.0075543001 -0.012065211 4281567808
-0.00386516 0.0025077984 -0.0076810867 4281499978
-0.0011188239 -0.0010590777 -0.00466552 4281432914
0.0013210997 -0.0031473711 -0.0030152765 4281629009
0.0027613677 -0.00080532581 -0.0054450966 4281628754
0.0043576062 0.00079774112 -0.007192634 4281169753
-0.038310848 -0.0035493001 0.00021968409 4281631304
-0.036956556 0.00029402971 -0.0036135707 4281436993
-0.035628833 0.00413578 -0.007441368 4281305923
-0.034085751 0.0064889118 -0.0098885987 4281109829
-0.032682188 0.0095844641 -0.013019566 4281240133
-0.031299889 0.012678757 -0.016146168 4281109829
-0.030196808 0.01725778 -0.020640299 4281305668
-0.02873069 0.019606389 -0.023071676 4281502529
-0.027549155 0.023439385 -0.026869509 4280524349
-0.026394263 0.027270742 -0.030661903 4279872568
-0.024567537 0.027389009 -0.031029802 4280003383
-0.022313625 0.025280979 -0.029347833 4280003383
-0.019318357 0.019464396 -0.024255414 4280525369
-0.01687105 0.01661779 -0.021900278 4281045823
-0.014402244 0.013772696 -0.019549381 4281306179
-0.011758886 0.010187693 -0.016521618 4281370693
-0.0089329518 0.0058632568 -0.012818566 4281370184
-0.0060748421 0.001541093 -0.0091219097 4281435209
-0.0035067387 -0.0012970641 -0.006790638 4281956684
-0.00091715157 -0.0041336939 -0.0044635874 4281890894
0.001194559 -0.0047471076 -0.0041760509 4281825359
0.002973441 -0.0038792863 -0.0052452651 4281824338
0.0044034272 -0.0015312359 -0.0076680481 4280384353
-0.037982456 -0.0081221759 0.0018171286 4281560668
-0.036732227 -0.003521122 -0.0026973919 4281304393
-0.03527765 -0.00041377544 -0.0058323089 4281371714
-0.033723488 0.001946561 -0.00827685 4281501763
-0.032185227 0.0043060407 -0.010718143 4281435208
-0.030788995 0.0074099675 -0.013841042 4281173323
-0.029542841 0.011257805 -0.017643936 4281238604
-0.028586283 0.016594067 -0.022809021 4281370184
-0.027398691 0.020438351 -0.026599946 4281371714
-0.026374564 0.02502574 -0.031068204 4281242173
-0.024545312 0.025144152 -0.03143663 4281176894
-0.022431567 0.023773983 -0.030441634 4280979779
-0.019437812 0.017939806 -0.025361948 4280653124
-0.016548708 0.012852445 -0.020971369 4281240644
-0.013772279 0.0085114911 -0.017268334 4281305924
-0.011116557 0.004916355 -0.014251208 4281239878
-0.0082784295 0.00057958812 -0.01056038 4281434699
-0.0057246089 -0.0022683814 -0.0082328431 4281695308
-0.0033102445 -0.0043716803 -0.0065874835 4281759823
-0.00087974966 -0.0064738393 -0.004945219 4281824848
0.0012343153 -0.0070892721 -0.0046597803 4281825359
0.0033537857 -0.0077042356 -0.0043753358 4281888853
-0.036393575 -0.0080974177 -0.0011050543 4281171538
-0.035281651 -0.0027364492 -0.0062905047 4281305159
-0.03372445 -0.00036932528 -0.0087308306 4281501508
-0.032059826 0.0012491122 -0.010483986 4281434953
-0.030279778 0.0021195039 -0.01155165 4281434698
-0.029019542 0.0059791729 -0.015349248 4281368909
-0.027917229 0.010584421 -0.019823641 4281042508
-0.027114876 0.016681843 -0.025654903 4281241918
-0.026081823 0.021282852 -0.030115157 4281503548
-0.024244688 0.021401763 -0.030485183 4280981054
-0.02169735 0.017788172 -0.027454749 4280981054
-0.018689055 0.011937402 -0.022390988 4281569339
-0.015785262 0.0068357289 -0.018014818 4281437248
-0.012993958 0.0024825707 -0.014324522 4281175619
-0.010323197 -0.0011225343 -0.011318577 4281566279
-0.008091785 -0.0024887845 -0.010350112 4281761098
-0.0056915246 -0.0045997277 -0.0087068416 4281825614
-0.0035966337 -0.005218856 -0.0084193731 4281824849
-0.0011694916 -0.0073278025 -0.0067813331 4281628243
0.0011076629 -0.0086905882 -0.0058217132 4281496663
-0.033123396 -0.0064398125 -0.005773813 4281629774
-0.031688809 -0.0033160821 -0.0088915359 4281696329
-0.030023828 -0.0016931444 -0.010641424 4281629773
-0.028626382 0.0014284179 -0.013751481 4281433678
-0.027381338 0.0052981228 -0.017537802 4281303119
-0.026296727 0.0099154487 -0.021998771 4281107279
-0.02497109 0.013032705 -0.025094111 4281239369
-0.023110017 0.013153158 -0.025468953 4281566023
-0.020823292 0.011027552 -0.023808271 4281696838
-0.018086858 0.0066575184 -0.020116929 4281631813
-0.015318237 0.0022896752 -0.016431985 4281892933
-0.012667302 -0.0013277605 -0.013430294 4281958214
-0.010142066 -0.0041953251 -0.011110231 4281631558
-0.0079057962 -0.0055656806 -0.010145967 4281565259
-0.0058166496 -0.006187506 -0.0098590711 4281825358
-0.0035615154 -0.0075563416 -0.0088984566 4281693523
-0.0012956113 -0.0089244097 -0.0079398835 4281431129
-0.032524325 -0.012536369 -0.0028356607 4282084694
-0.031442061 -0.0071464851 -0.0079922313 4281564493
-0.029894508 -0.0047666803 -0.010420698 4281368399
-0.028619491 -0.00088424981 -0.01420502 4281498958
-0.027109094 0.0014933422 -0.016625779 4281368654
-0.025748268 0.0046214834 -0.019721786 4281434699
-0.024136052 0.0062458888 -0.02145749 4281174089
-0.022117406 0.0056164041 -0.021158626 4281174598
-0.019951619 0.0042365342 -0.020183934 4281435463
-0.017341994 0.00060524791 -0.01718224 4281630795
-0.014852554 -0.0022736341 -0.014861686 4281695819
-0.012491323 -0.0044006035 -0.013220625 4281826378
-0.0099615827 -0.007276617 -0.010907982 4281891914
-0.0078755133 -0.0079009607 -0.010622197 4281435464
-0.0059417374 -0.0077749714 -0.011011072 4281564493
-0.004007902 -0.007648848 -0.011399851 4281431129
-0.029389419 -0.01011119 -0.0081704902 4281954389
-0.028228462 -0.005462952 -0.012627547 4281563728
-0.026837833 -0.0023242757 -0.015723139 4281433168
-0.025334947 5.9500337e-05 -0.01813742 4281695053
-0.02384799 0.0024424046 -0.020548446 4281500234
-0.021960489 0.0025645271 -0.020928646 4281500234
-0.019789852 0.0011805966 -0.019958187 4281565258
-0.017320056 -0.0017084181 -0.017640278 4281825868
-0.01497563 -0.0038431734 -0.01600082 4281825359
-0.012615062 -0.0059767514 -0.014364516 4281825358
-0.010238372 -0.0081091151 -0.012731411 4281694544
-0.0078455433 -0.010240339 -0.0111014 4281497683
-0.0059092455 -0.010114186 -0.011490782 4280841823
-0.027710803 -0.010815062 -0.010386215 4282280788
-0.026567549 -0.006154798 -0.01482982 4281759823
-0.025189601 -0.00300809 -0.017916268 4281696074
-0.023696937 -0.00061829388 -0.020323575 4281630283
-0.021804221 -0.00049582124 -0.020704821 4281565259
-0.019628718 -0.001883857 -0.019738564 4281564494
-0.017298419 -0.0040262118 -0.01810124 4281760078
-0.014951993 -0.0061673522 -0.01646712 4281759314
-0.012589414 -0.0083073527 -0.014836104 4281759058
-0.010666799 -0.0081823543 -0.01522293 4281563473
-0.024645463 -0.0083582327 -0.015680071 4282150229
-0.023410685 -0.0044453219 -0.019431628 4281695053
-0.021648593 -0.0035647079 -0.020487117 4281433934
-0.01946824 -0.0049567595 -0.019525137 4281695309
-0.016845599 -0.0086199939 -0.016550515 4281891148
-0.014635626 -0.01000993 -0.015594278 4281693013
-0.012414902 -0.011399023 -0.014640179 4281561178
-0.022989802 -0.0090452507 -0.017877437 4281825358
-0.021216996 -0.0081617832 -0.018933475 4281695308
-0.01902644 -0.0095575526 -0.017976813 4281630539
-0.016537763 -0.012471579 -0.015682256 4281890893
-0.014466628 -0.013106026 -0.015400274 4281759314
-0.018163513 -0.016461261 -0.014434205 4282282319
-0.01565697 -0.019382857 -0.012149753 4281953623
0.022421513 -0.0024327487 0.041855961 4278798763
0.028251035 -0.0084579438 0.047357317 4278272953
0.018717082 -0.0065011382 0.043564294 4282732904
0.01913495 -4.5187771e-05 0.036824308 4279193759
0.020061057 0.0043014362 0.03220113 4278405044
0.022272117 0.003732644 0.032497127 4278929323
0.034430984 -0.01760979 0.052984688 4279519393
0.014923837 -0.0019903481 0.036425795 4278735268
0.0160629 0.0016667321 0.032507446 4278735013
0.01900195 0.0061587319 0.027490098 4279258019
0.021387292 0.0048827454 0.02848741 4279193249
0.024164692 0.0021996647 0.03088202 4279061414
0.027543528 -0.0025931746 0.035369787 4278274484
0.031155899 -0.0080870613 0.040548749 4278406574
0.034811117 -0.013577998 0.04571921 4278800549
0.039113306 -0.02117566 0.052973714 4278408358
0.0095112994 0.0010169819 0.031114835 4281094018
0.011007894 0.0032709315 0.028605368 4279324319
0.013019726 0.0034028888 0.028201453 4278800804
0.01485182 0.0042417869 0.027097397 4278800804
0.026057009 0.00066708028 0.02926727 4278471854
0.029061543 -0.0027282611 0.03234623 4278800038
0.031497277 -0.0040048733 0.0333305 4278604199
0.034748524 -0.0081024691 0.037096456 4278800804
0.03864352 -0.014313594 0.0429422 4279128478
0.043412924 -0.023341723 0.051557742 4281685108
0.0063467063 0.0034819916 0.026110463 4279192739
0.0074924789 0.0071610734 0.022206843 4278272444
0.0096569397 0.0065821037 0.022506874 4278272444
0.014181644 0.0047164336 0.023802586 4278996134
0.016182691 0.0048479065 0.023401003 4278734504
0.018183749 0.0049794689 0.022999492 4278865574
0.020372454 0.0044026449 0.023295071 4278472874
0.022756841 0.0031178817 0.024286158 4278603689
0.025537904 0.00041766465 0.026667003 4278865829
0.028144732 -0.0015730932 0.028348278 4278800038
0.029577531 0.00068428367 0.02585721 4278407083
0.034635596 -0.002586022 0.028516769 4278404534
0.048992611 -0.029752344 0.054290321 4278535349
0.0049865097 -0.010537051 0.037624229 4280304283
0.0047109649 -0.00043322891 0.027416509 4279127968
0.0052040145 0.0061059818 0.020719806 4278799019
0.0066772178 0.0083714575 0.01822469 4279060904
0.0088306516 0.0077895597 0.018525297 4278471344
0.014230229 0.0023595691 0.023305696 4279192228
0.016233813 0.0024911985 0.022903595 4278537898
0.018237419 0.0026229396 0.022501584 4278800038
0.020241037 0.0027547851 0.02209964 4278669223
0.022624932 0.0014656112 0.023087557 4278735014
0.025019532 0.00017730892 0.024073381 4278800293
0.02722935 -0.00039998442 0.024363343 4278603434
0.028453659 0.0025732964 0.021185985 4278472109
0.03005822 0.0041255653 0.019398503 4278274484
0.032466136 0.0028385967 0.020381991 4279060139
0.045254536 -0.019455023 0.041275363 4278864808
0.049702927 -0.027114771 0.048447173 4280570503
0.0016812906 -0.0073528215 0.03191901 4281946483
0.002242595 -0.00078964978 0.025223125 4279783573
0.0045690387 0.0066142678 0.017441276 4278668459
0.0063770227 0.0074578002 0.016346697 4279062178
0.0085274577 0.0068735108 0.016646264 4279192994
0.011213005 0.0041487515 0.019032745 4278930088
0.013740769 0.0021389648 0.020719577 4278602669
0.016284619 0.00013040006 0.022403229 4278668969
0.018106163 0.00097540021 0.021306349 4278603433
0.02029692 0.00039432198 0.02159825 4278603689
0.022303082 0.00052646548 0.021195887 4278735014
0.02450189 -5.3912401e-05 0.021486379 4278669224
0.026315397 0.00079106539 0.020391418 4278734504
0.028922956 0.0060404465 0.014749404 4279257763
0.031113638 0.0054600462 0.015041824 4279454623
0.034339786 0.0013216361 0.018783551 4279127713
0.038224146 -0.0049490854 0.024587531 4278537899
0.04215667 -0.011216514 0.030381937 4278341804
0.046137333 -0.017480642 0.036166795 4278735523
0.051683329 -0.02871836 0.046757512 4278735523
-0.00037428737 -0.00041926652 0.022336688 4278868379
0.0012973025 0.0011446029 0.020541035 4278604199
0.0059061646 0.0072650239 0.013776669 4278470069
0.013610167 0.00049615651 0.019527704 4278341039
0.015971608 -0.00080354512 0.020513304 4278668713
0.017606081 0.00075877458 0.018725846 4278734503
0.019416966 0.0016053841 0.017632835 4278603944
0.021412272 0.0017367974 0.017232645 4278538409
0.02360004 0.0011535585 0.017523678 4278472874
0.025793158 0.00057079643 0.017813733 4278538409
0.027002532 0.0035606399 0.014652453 4278338998
0.040331021 -0.0071973279 0.023657817 4278604199
0.044288516 -0.01348263 0.029432591 4278735523
0.049376983 -0.023330659 0.038629469 4278801568
0.054759577 -0.033886522 0.048497189 4279195288
0.00035379082 0.0031012073 0.015875157 4278342823
0.0020015761 0.0046679601 0.014087688 4278473383
0.0038068928 0.0055155829 0.012996811 4278799784
0.0057777651 0.0056445971 0.01260093 4278537644
0.0080957599 0.0043373033 0.013591722 4278734248
0.010600735 0.0023127645 0.015273247 4278734504
0.012942906 0.0010072812 0.016259354 4278800039
0.015114252 0.00042031705 0.016551709 4278734249
0.016369721 0.0034213737 0.013387278 4278668458
0.025271643 0.00035964698 0.01524266 4278407083
0.026673861 0.0026413128 0.01277734 4278865574
0.028059987 0.0049220249 0.010315316 4278406574
0.030039016 0.0050529614 0.0099188313 4278276014
0.03325206 0.0008873716 0.01364365 4278997153
0.036705535 -0.0039918348 0.018048411 4278735268
0.039985422 -0.0081527233 0.021759968 4278735524
0.044152215 -0.015173614 0.02820624 4279062943
0.049021658 -0.024337038 0.036696047 4279915409
0.05352252 -0.032065295 0.043803692 4281357179
0.0036786608 0.003895469 0.011821263 4278474148
0.0058200769 0.0033038631 0.012117643 4278408103
0.0081402659 0.0019923449 0.013104729 4278735014
0.010471206 0.00068159401 0.014089786 4278669224
0.012634169 9.17539e-05 0.014382096 4278276523
0.014258323 0.001662083 0.012603104 4278537644
0.02514042 -0.0012803972 0.014053008 4278537134
0.026740486 0.00028905272 0.012279376 4278604199
0.028329834 0.0018578619 0.010508023 4278669734
0.030314073 0.0019891486 0.010110497 4278669479
0.03353126 -0.0021892563 0.013824653 4278866338
0.036988713 -0.0070835277 0.018217195 4278736034
0.040272757 -0.011257283 0.021918193 4279128989
0.044656519 -0.019017607 0.029031102 4279718803
0.049099132 -0.026773944 0.036132362 4280701574
0.0529439 -0.03237395 0.041174129 4281946994
0.0033826195 0.002998665 0.0099547133 4279000978
0.0056915656 0.0016818568 0.010940749 4278540449
0.01016584 -0.00022678822 0.012216941 4278538409
0.011968717 0.00062552094 0.011130165 4278538664
0.014455091 0.0066609159 0.0048322445 4278996134
0.016599067 0.006067954 0.0051270369 4279062178
0.018937645 0.0047539696 0.0061076973 4278930853
0.021862736 0.0012766048 0.0091453586 4278733994
0.02442538 -0.0007564649 0.010806128 4278603434
0.026412204 -0.00062525272 0.01040791 4278538663
0.028598974 -0.0012147501 0.010694524 4278473129
0.030993722 -0.0025245175 0.011664391 4278538664
0.0340151 -0.0059949011 0.014683209 4278866593
0.037063207 -0.0094634369 0.017696733 4279391128
0.040348716 -0.013650179 0.021387624 4279784338
0.044946417 -0.022154532 0.02916456 4279981198
0.049392276 -0.029934667 0.036247205 4280636039
0.053240836 -0.035551965 0.041275211 4282274414
0.0070172101 0.0023638681 0.0073022228 4278738328
0.0093337856 0.0010434091 0.0082836356 4278474149
0.01130436 0.0011727288 0.0078880601 4278669733
0.024100289 -0.0016658828 0.0089375041 4278538665
0.026478514 -0.0029812977 0.0099072084 4278996899
0.029267013 -0.0057420284 0.012241174 4278801568
0.032076899 -0.0085011944 0.014570955 4279129244
0.035113316 -0.011981539 0.0175786 4279587734
0.03776082 -0.014014967 0.019217921 4280570759
0.041055828 -0.018214211 0.022897113 4280570758
0.04544878 -0.026022054 0.0299723 4280636293
0.049900576 -0.033825904 0.03703586 4280308874
0.053318534 -0.038016617 0.040690716 4282668134
0.010641061 0.0017334968 0.0046557207 4278276778
0.012422614 0.0025888681 0.0035765599 4278472363
0.013831723 0.0048966855 0.0011290051 4278537898
0.01578347 0.0050251186 0.00073746778 4278472109
0.018113028 0.0037017688 0.0017134063 4278276014
0.020836461 0.00092764944 0.0040536337 4278604199
0.023581309 -0.0018449351 0.0063896552 4278866594
0.026347557 -0.0046160147 0.0087214634 4278735269
0.029534424 -0.0088360235 0.012412172 4279390873
0.032753401 -0.013053849 0.016096568 4279587478
0.03538955 -0.015094653 0.017733151 4279915409
0.038041733 -0.017134316 0.019366646 4280308363
0.041130565 -0.020621866 0.022355836 4280570758
0.045524098 -0.02845373 0.029412981 4280571014
0.049760796 -0.035557434 0.035780147 4280505734
0.009978842 0.0023077726 0.0014331825 4278865574
0.011933088 0.0024361461 0.0010409765 4278669224
0.01370398 0.0032931268 -3.4324825e-05 4278800549
0.015655581 0.0034215674 -0.00042582117 4278866083
0.018362107 0.00063744932 0.0019111764 4278866338
0.021090042 -0.0021451339 0.0042439699 4278997408
0.024227552 -0.0063817725 0.0079346113 4278866338
0.026806902 -0.0084333047 0.0095774494 4278801059
0.030200027 -0.013393447 0.013936946 4279521943
0.03302427 -0.016169168 0.016250813 4280178058
0.03566511 -0.01821626 0.017881608 4280374409
0.03832195 -0.02026213 0.019509243 4280374408
0.042045541 -0.025940582 0.024522867 4280374153
0.046024717 -0.032342635 0.03020528 4280504968
0.049836516 -0.038014993 0.035201438 4281225343
0.0073716715 0.0027678236 -0.0013888534 4278278053
0.0094955489 0.0021644682 -0.0010968614 4278931619
0.011805333 0.00083069503 -0.00012375787 4278735014
0.013942651 0.00022847205 0.00016572326 4278801059
0.016271217 -0.0011038706 0.0011352785 4278801059
0.018987596 -0.00389608 0.0034637861 4278866593
0.021534158 -0.0059565306 0.0051080799 4278866338
0.027265195 -0.012263454 0.010424042 4278735523
0.030266454 -0.015779167 0.013414102 4279784339
0.033294465 -0.01929304 0.016398931 4280243339
0.03614457 -0.022075631 0.018701138 4280440199
0.039016061 -0.024856724 0.02099921 4280439688
0.042538825 -0.029823117 0.025321759 4280373899
0.046098989 -0.034786887 0.029636849 4281947504
0.0067197829 0.0033696517 -0.0045934357 4279457174
0.00919066 0.0012969896 -0.0029392652 4278537898
0.011497267 -4.1350722e-05 -0.0019687712 4278734758
0.013997637 -0.0021118224 -0.00032033771 4278735778
0.016514067 -0.0041810647 0.0013249321 4278932384
0.01942333 -0.007714279 0.0043249121 4278932639
0.022359364 -0.011245638 0.0073196683 4279325848
0.025128409 -0.014042832 0.0096312296 4279718549
0.027722465 -0.016106524 0.011261338 4278735779
0.030730721 -0.019632697 0.01424185 4279981199
0.033765711 -0.023156978 0.017217098 4280308618
0.037031874 -0.027410865 0.020862771 4280570758
0.040123008 -0.030931227 0.023826994 4281684598
0.0088861324 0.00043428689 -0.0047782846 4278735015
0.011549916 -0.0023792535 -0.0024525453 4278669988
0.014235133 -0.0051912442 -0.00013100449 4279063709
0.016941778 -0.0080017224 0.0021863086 4279063709
0.019481637 -0.010075904 0.0038221283 4279522199
0.022228435 -0.012883477 0.0061315801 4279784848
0.024996623 -0.015689485 0.0084367897 4279849874
0.027982455 -0.019228183 0.011413569 4279128479
0.03139285 -0.024233148 0.015735431 4280177549
0.034639094 -0.028501585 0.019375222 4280570504
0.037713166 -0.032034092 0.022334587 4281160319
0.0064671077 0.0001867488 -0.0069027506 4278932639
0.0091139525 -0.0026367679 -0.0045802225 4278539173
0.011962242 -0.0061962306 -0.001584583 4278931619
0.014654636 -0.0090165064 0.00072899368 4279063964
0.017368454 -0.011835247 0.0030383607 4279653013
0.019915655 -0.013915464 0.0046677655 4279784339
0.022669625 -0.016731314 0.0069692638 4279981199
0.025251627 -0.018809028 0.0085919295 4279980943
0.028829942 -0.024567686 0.013582038 4279718294
0.032451048 -0.030323349 0.018563619 4279980178
0.035510726 -0.033867858 0.021517631 4281094529
0.038188979 -0.035938688 0.023121394 4282602089
0.0066897459 -0.0028842837 -0.0067034555 4278671008
0.0093411021 -0.0057162568 -0.0043883552 4279324829
0.012553364 -0.010765761 -5.022902e-05 4279521944
0.015255608 -0.013594136 0.0022548465 4279784339
0.017979283 -0.016420968 0.0045557227 4280242573
0.020348653 -0.017767943 0.0055041108 4280504969
0.022919275 -0.019853093 0.0071240645 4280570504
0.025699131 -0.02267579 0.0094139148 4280635529
0.029283913 -0.02845151 0.014389696 4280766344
0.0072603188 -0.0074483082 -0.005159867 4279131539
0.0099215284 -0.010288365 -0.0028532567 4279587478
0.012783812 -0.013868757 0.00012328383 4279718549
0.015490558 -0.01670558 0.0024209414 4280177293
0.018033722 -0.018799357 0.0040413272 4280242573
0.02078063 -0.021633275 0.0063311178 4280701064
0.02335858 -0.023724444 0.0079446901 4280897668
0.025952592 -0.025814489 0.0095551629 4281290624
0.029541157 -0.031607442 0.01451714 4282140794
0.0033955723 -0.010052525 -0.0048641423 4280507774
0.0053513423 -0.0099244639 -0.0052569555 4280178059
0.0074812807 -0.010540731 -0.0049760239 4279260059
0.0099701807 -0.012644939 -0.0033499463 4280177039
0.012654649 -0.015492111 -0.0010544378 4280242573
0.015360534 -0.018337734 0.0012368653 4280308109
0.018087842 -0.021181807 0.0035239924 4280701063
0.020649068 -0.023280829 0.0051359553 4281683578
0.023416508 -0.026121952 0.0074151773 4283058029
0.0034370534 -0.012404956 -0.0053558662 4280376448
0.0055666119 -0.013023518 -0.0050766333 4280112014
0.0080494657 -0.015134864 -0.003454288 4279653013
0.010195155 -0.015752114 -0.0031780913 4279456409
0.012704803 -0.017861418 -0.0015609916 4280308108
0.015594497 -0.021461777 0.0013939049 4280439178
0.018326286 -0.024314255 0.0036735553 4281028738
0.00085445493 -0.011892259 -0.0081448788 4280375683
0.00330979 -0.01401224 -0.0065221018 4280046479
0.0056101158 -0.015381984 -0.0055734455 4280308619
0.0082687326 -0.018248573 -0.003285965 4280046478
0.010419443 -0.018867694 -0.0030124206 4279456409
0.013112895 -0.021731727 -0.00073172711 4279980688
0.015827768 -0.02459424 0.0015447568 4282010743
-0.003812667 -0.010739788 -0.011208554 4280312444
-0.0017106645 -0.011364914 -0.010927328 4280243848
0.00089346617 -0.014244191 -0.0086356979 4280308874
0.0033507943 -0.016370587 -0.0070181992 4280177549
0.0058242269 -0.018495791 -0.005403826 4280308619
0.0084873363 -0.021370776 -0.0031237956 4280242573
0.011171877 -0.024244271 -0.00084794126 4280177039
0.013698906 -0.026365586 0.00075595174 4279783063
-0.0061918274 -0.010948993 -0.013314412 4280180354
-0.0039381906 -0.012331061 -0.012363282 4279588498
-0.001836516 -0.012958393 -0.012083617 4279915919
0.00076676533 -0.015846469 -0.0097983275 4280308108
0.0032234192 -0.017979465 -0.0081855785 4280112014
0.00569617 -0.02011127 -0.0065759588 4280242573
0.0085318461 -0.023748294 -0.0036349879 4280439434
0.011218213 -0.026630409 -0.0013659997 4280569483
0.014104776 -0.030263826 0.0015649581 4282728313
-0.0087137222 -0.010391586 -0.016085241 4279850639
-0.0064740181 -0.011779107 -0.015134622 4280242828
-0.0039038062 -0.014678285 -0.012849437 4280046478
-0.0016372278 -0.016063794 -0.011904033 4279259548
0.00097054988 -0.018960319 -0.0096261632 4279521434
0.0034318641 -0.0210995 -0.0080192704 4280439179
0.0062504336 -0.024748705 -0.0050830976 4280766344
-0.010914765 -0.011337541 -0.017512754 4280049028
-0.0088380165 -0.011971258 -0.017231628 4279718549
-0.0065988153 -0.01336316 -0.016284155 4280242573
-0.0040294454 -0.016271129 -0.014005309 4280111503
-0.0014386214 -0.019177638 -0.01173065 4280242573
0.0010086149 -0.021324463 -0.010125859 4279718038
0.0036396533 -0.024228074 -0.0078590792 4280307088
0.0062921382 -0.027130127 -0.0055964985 4282009468
-0.014005933 -0.017733678 -0.013876682 4281164399
-0.012365494 -0.016085096 -0.015601328 4279785103
-0.010887183 -0.013675861 -0.017990574 4279784594
-0.0088080913 -0.014311604 -0.017711543 4279522198
-0.0064098611 -0.016468599 -0.016102092 4280112013
-0.0036764592 -0.020145707 -0.013165461 4280177549
-0.00075404346 -0.02458141 -0.0095694941 4280636294
0.0017058738 -0.026733972 -0.0079721427 4282796143
-0.012192603 -0.019197792 -0.015420677 4280177548
-0.010708578 -0.016781695 -0.017806148 4279784594
-0.0087784752 -0.016656108 -0.018194402 4279718803
-0.0062215626 -0.019582488 -0.015926173 4280243594
-0.0030057505 -0.025558837 -0.011007814 4280571269
-7.1175396e-05 -0.030006863 -0.0074240742 4281028994
0.0022367239 -0.031402625 -0.0064966297 4282399618
-0.010228306 -0.02142711 -0.016300762 4280373898
-0.0082876682 -0.02130083 -0.016691128 4281094273
-0.0058774166 -0.023470119 -0.015093854 4281815158
-0.0079518668 -0.025195241 -0.015861781 4282798694
0.015552454 -0.034604199 -0.013479221 4281943934
0.017403658 -0.036097765 -0.015054628 4282994534
