# .PCD v0.7 - Point Cloud Data file format
VERSION 0.7
FIELDS x y z rgba
SIZE 4 4 4 4
TYPE F F F U
COUNT 1 1 1 1
WIDTH 807
HEIGHT 1
VIEWPOINT 0 0 0 1 0 0 0
POINTS 807
DATA ascii
-0.026452009 -0.022111826 0.00082287285 4286854723
-0.024625521 -0.021211311 -0.0002728207 4286854724
-0.027855929 -0.027674891 0.0033827173 4286593603
-0.026158046 -0.026009277 0.001619678 4287313723
-0.024176363 -0.025867805 0.001188796 4287510839
-0.022344377 -0.024964683 9.3687326e-05 4287510584
-0.020517603 -0.024061792 -0.0010001911 4287248444
-0.018696036 -0.023159139 -0.0020928374 4286921279
-0.0170375 -0.021495707 -0.0038468381 4286921279
-0.015549995 -0.01907216 -0.0062603755 4286789444
-0.028137814 -0.028532721 0.001510933 4286855488
-0.026442375 -0.026862971 -0.00024826452 4287379514
-0.024610471 -0.0259578 -0.00134179 4287248954
-0.022484522 -0.026580371 -0.0011087768 4287379514
-0.020657703 -0.025675319 -0.0022010133 4287445049
-0.018371236 -0.027060591 -0.0013075098 4287314234
-0.016704477 -0.025392316 -0.0030599535 4287117883
-0.014887992 -0.024487652 -0.0041496679 4287118139
-0.013239708 -0.022820376 -0.0058979271 4286659648
-0.028560754 -0.028619371 -0.0010202117 4286724418
-0.02658217 -0.028478287 -0.0014505424 4287183163
-0.024750244 -0.027570985 -0.0025424361 4287183418
-0.022774063 -0.027429827 -0.0029720515 4287379769
-0.020797767 -0.027288541 -0.0034016073 4287510584
-0.018666599 -0.027912654 -0.0031711943 4287183163
-0.016687419 -0.027770929 -0.003601186 4287052604
-0.01470815 -0.02762904 -0.0040310882 4286856253
-0.012891538 -0.026722103 -0.0051190853 4286855998
-0.01124559 -0.025050558 -0.0068634334 4286398018
-0.0031828657 -0.025247015 -0.0079194084 4285940548
-0.00067214295 -0.027396008 -0.0063835569 4286071364
-0.026865851 -0.029324859 -0.0033131912 4286921279
-0.024889957 -0.029183857 -0.003742855 4286790463
-0.022913925 -0.029042728 -0.0041724481 4287248699
-0.021089714 -0.028133564 -0.0052608177 4287379514
-0.018961549 -0.028760076 -0.0050314292 4287052604
-0.017142434 -0.027851038 -0.0061185025 4287052604
-0.01500874 -0.028476886 -0.0058901161 4286725183
-0.013032183 -0.028335102 -0.0063193515 4286594113
-0.010890316 -0.028960101 -0.0060925409 4286398018
-0.021077789 -0.030514091 -0.0058021247 4286593603
-0.019101694 -0.030372716 -0.0062315539 4286593604
-0.015468631 -0.028550521 -0.0084012039 4286397508
0.021237891 0.0057993159 0.028619047 4282022473
0.023879003 0.0038232356 0.030252267 4281435719
0.016058296 0.0074064955 0.024813995 4282152013
0.015436865 0.016784184 0.015415787 4281436994
0.016383614 0.020477176 0.011544469 4280786999
0.018755239 0.019199915 0.012497722 4280327998
0.023237914 0.010827661 0.020326916 4280131139
0.028635459 -0.00037733465 0.030891251 4279934533
0.01351553 0.0070463344 0.022649951 4282739534
0.012328342 0.018592022 0.011200969 4281240389
0.012468588 0.025145218 0.0045860233 4280982584
0.013992321 0.026709918 0.0027929833 4281501508
0.016126893 0.026138093 0.0030626142 4281502019
0.019945543 0.019872613 0.0088206949 4280719933
0.024024742 0.012899183 0.015254079 4281045824
0.027511755 0.0080638975 0.019620877 4281110338
0.03060041 0.0046537742 0.022610787 4281241153
0.033495203 0.0019566938 0.024911139 4281372224
0.035295352 0.0028152317 0.023790456 4281436739
0.03641253 0.0058052763 0.02062282 4281436484
0.039565049 0.0024002716 0.023599256 4280067134
0.044593781 -0.0066843778 0.032022614 4279610939
0.049691834 -0.015763827 0.040431086 4279806778
0.053439967 -0.020579167 0.044742111 4280980289
0.011211779 0.013274886 0.01387141 4282476373
0.010794062 0.021994509 0.0052022832 4281175363
0.011723798 0.025707841 0.0013512122 4278438193
0.013239782 0.02727633 -0.00043680612 4280523583
0.015572999 0.025987595 0.00051809754 4280653888
0.018755499 0.021843903 0.0042090835 4280197949
0.021757692 0.018416442 0.0072092125 4279676219
0.024786549 0.014991008 0.01020364 4281175619
0.026971437 0.014421113 0.010461054 4281241919
0.029161628 0.013851695 0.010717384 4281046078
0.030019142 0.017560624 0.0068826051 4281176129
0.031075574 0.02055493 0.0037347721 4280134454
0.033480611 0.019272245 0.0046748361 4280458303
0.038437285 0.01015415 0.013092118 4280328764
0.04346326 0.0010412708 0.021494467 4280003129
0.04903125 -0.00949049 0.031239599 4280003894
0.0551572 -0.021439821 0.04232391 4281111104
0.0095006153 0.017400473 0.0071862834 4281370439
0.0096600763 0.023993991 0.00059706066 4281045823
0.010980204 0.02628383 -0.0018735779 4280980033
0.012692545 0.027139608 -0.0029725516 4279545658
0.015226699 0.025129758 -0.0013361583 4279741243
0.017986322 0.022405043 0.00097978208 4280196928
0.020979404 0.018966064 0.0039735483 4280783938
0.023354767 0.017676391 0.0049162535 4281110848
0.025523329 0.017103083 0.0051755728 4281241664
0.027036779 0.018676415 0.0033918852 4281176639
0.027648313 0.02310966 -0.0011096084 4279938103
0.028678708 0.026110753 -0.004245135 4281631813
0.031056538 0.024821743 -0.0033025192 4281436228
0.03482981 0.019246228 0.0017077988 4281240898
0.039813101 0.010101996 0.010097773 4281045313
0.046282563 -0.0033221245 0.022535894 4280980034
0.053092159 -0.017452732 0.035628852 4281045058
0.0081844106 0.020122685 0.0018957844 4281108553
0.0087266304 0.025296528 -0.0033080718 4281045823
0.010439031 0.026154328 -0.0044054342 4281241409
0.012553949 0.025574457 -0.0041366322 4281110083
0.0150874 0.023558058 -0.0025050705 4280979523
0.017846115 0.020824611 -0.00019559171 4280848964
0.020414241 0.018810935 0.0014286237 4280848708
0.022783745 0.017516501 0.0023692669 4281110849
0.024294831 0.019093841 0.00058938097 4281176129
0.025575258 0.021388091 -0.0018671425 4281241663
0.026394421 0.025115937 -0.0056769671 4279351093
0.027862664 0.026690509 -0.0074473904 4279024439
0.030231971 0.025396556 -0.0065062447 4280002109
0.033995561 0.01980295 -0.0015071062 4279936828
0.038968168 0.01062981 0.0068634963 4280002109
0.046133637 -0.004985489 0.021299209 4279937083
0.05341642 -0.020592064 0.035709683 4280849729
0.0064790957 0.024314359 -0.0047401907 4281371459
0.0073979683 0.028059326 -0.0085640103 4279743539
0.0096976161 0.02675489 -0.0076119476 4279352368
0.012415387 0.02400963 -0.0053004725 4279417139
0.015360929 0.020545252 -0.002313192 4280914754
0.017914996 0.018523999 -0.0006910488 4281110339
0.020061594 0.017944604 -0.00043050572 4281110338
0.0217847 0.018805906 -0.0015280908 4281045824
0.023285365 0.020386823 -0.0033023925 4281242173
0.024335828 0.023406543 -0.0064290939 4281242429
0.025587305 0.025705304 -0.0088742683 4281111358
0.027272899 0.026564289 -0.0099634212 4281045824
0.029864091 0.024546452 -0.0083486838 4280589118
0.033623315 0.018935233 -0.0033619562 4280653888
0.039056774 0.0082959831 0.0063372431 4280784704
0.046927735 -0.0095227361 0.022758484 4280784704
0.05421675 -0.02517654 0.037131008 4280784450
0.0055876486 0.018270425 -0.0013991985 4281042763
0.0059500895 0.024199292 -0.0072642015 4281176383
0.0070626512 0.027231336 -0.010398339 4280330038
0.009158235 0.026645638 -0.010128749 4280330038
0.015427489 0.018246911 -0.0028062724 4280328763
0.017983511 0.016219296 -0.0011895411 4281110849
0.019920904 0.016360395 -0.0016086493 4281241409
0.021429861 0.017946146 -0.0033814982 4281046079
0.022711221 0.020253375 -0.0058283089 4281177149
0.023756992 0.023281433 -0.0089473249 4281242429
0.024781384 0.026307985 -0.012061597 4281112379
0.027133683 0.025004067 -0.011123545 4281111103
0.030179266 0.02153708 -0.0081655839 4281111104
0.033942148 0.015908763 -0.0031929053 4281241664
0.03984366 0.0037953481 0.0078265974 4280980543
0.047720268 -0.014077149 0.02420501 4280980543
0.055015519 -0.029778168 0.038539577 4280979779
0.0042926744 0.021051489 -0.0066503636 4280848964
0.0054218695 0.0240933 -0.0097815311 4280982073
0.0067277513 0.026407994 -0.012229207 4281697858
0.0090210065 0.025094464 -0.011282464 4281698114
0.01173164 0.022331305 -0.0089827059 4280589118
0.014875643 0.0181197 -0.0053334627 4280980289
0.017425623 0.016085096 -0.0037203785 4281175873
0.019146198 0.016950458 -0.0048141629 4281306433
0.020647388 0.018540032 -0.0065820436 4281112379
0.021921203 0.020853177 -0.0090221763 4281177148
0.02274026 0.024613447 -0.012807072 4278637604
0.024420671 0.025476359 -0.013891877 4278893878
0.026994484 0.023444153 -0.01228344 4279025714
0.030493684 0.018519238 -0.0079887044 4280329784
0.034950282 0.010703973 -0.0010146294 4281372223
0.041094374 -0.0021686554 0.010645694 4281306943
0.049217332 -0.020817392 0.027650833 4281306943
0.055336654 -0.032951459 0.038595192 4281305924
0.0033850037 0.022402577 -0.010525237 4280719168
0.0048944578 0.023996279 -0.012292118 4279807799
0.0063932464 0.025589351 -0.014056654 4281176893
0.0084828474 0.024998836 -0.013789059 4280719933
0.010984074 0.022954009 -0.012170631 4280328763
0.014118787 0.018728681 -0.0085293092 4279937593
0.016451545 0.017414019 -0.0075941938 4281045568
0.018583812 0.016827106 -0.0073355245 4281242429
0.020079929 0.018420614 -0.0090989191 4281112123
0.021132352 0.021466397 -0.012206136 4281046843
0.022163397 0.024510734 -0.015308646 4280265014
0.02361672 0.026101455 -0.017062532 4280330038
0.027079787 0.021158665 -0.012771753 4279287344
0.035266973 0.0076541305 -0.00086302031 4281242428
0.041877761 -0.0067079589 0.012106306 4281307198
0.050006174 -0.025412634 0.029067017 4281307198
0.055419188 -0.035408273 0.037976079 4281371459
0.058501773 -0.038151301 0.040190015 4281628244
0.0019173287 0.018520541 -0.0092369281 4280580193
0.0026711971 0.023041002 -0.013710194 4280979013
0.0041728802 0.024638496 -0.015472122 4280783938
0.0058615506 0.025505316 -0.016556103 4280523328
0.0081457533 0.024182454 -0.01561406 4280458558
0.010643616 0.022130854 -0.013999839 4280458558
0.013363101 0.01935111 -0.01171523 4281175874
0.015687332 0.0180315 -0.01078159 4281241154
0.017811276 0.017441757 -0.010522747 4281242429
0.019085998 0.01976791 -0.012953219 4281112123
0.020128388 0.022821635 -0.016051609 4280460854
0.021368366 0.025145479 -0.018474393 4281371969
0.023478847 0.024555199 -0.0182123 4281371714
0.026716115 0.020325199 -0.014602567 4281110338
0.030439293 0.014641888 -0.0096613076 4281110338
0.035582911 0.0045958385 -0.00071762595 4281307199
0.043124199 -0.012719341 0.014890195 4281307199
0.051028427 -0.030752264 0.031137899 4281307199
0.055501349 -0.037869163 0.037354015 4281437248
0.058105044 -0.03916692 0.038228344 4282542673
0.0019693896 0.016228832 -0.0097209644 4281168734
0.003111124 0.019297428 -0.01283498 4281433679
0.0046210736 0.020899825 -0.014595318 4281499979
0.0059229285 0.023233771 -0.017027196 4281173578
0.0082092956 0.021906696 -0.016088901 4281370439
0.010506328 0.020580553 -0.015152874 4281372223
0.013224903 0.017792083 -0.012874717 4281438269
0.015132409 0.017930888 -0.01328744 4281240644
0.016829139 0.018801026 -0.014371063 4281241409
0.018093633 0.021132931 -0.016794335 4281177659
0.019342091 0.023463793 -0.019214045 4279874099
0.020793296 0.025062926 -0.02096089 4279936574
0.022676663 0.025200546 -0.021367963 4280588863
0.025904626 0.020956866 -0.017766196 4280198204
0.030298434 0.01306539 -0.010833483 4280263229
0.036356956 6.9431961e-05 0.00075544696 4280458813
0.044600412 -0.019486204 0.01832125 4280458813
0.05134441 -0.033925056 0.03119538 4280915008
0.054633334 -0.037417017 0.034067914 4281498704
0.0022103414 0.013198093 -0.0095339883 4281496154
0.0037418343 0.014806308 -0.011295805 4281760334
0.0054572634 0.015679263 -0.012382347 4281368653
0.0067729019 0.018020719 -0.014812212 4281108808
0.0086722635 0.0181586 -0.015223436 4281042509
0.010774214 0.017562583 -0.014963422 4282021454
0.013086729 0.016233362 -0.014033973 4282021454
0.014786191 0.017105751 -0.015116611 4281697094
0.016059147 0.019444652 -0.01753681 4281435973
0.017316081 0.021782517 -0.019953448 4281372478
0.018772902 0.023386285 -0.02169827 4281110593
0.020219021 0.024989389 -0.023440689 4280849218
0.022318158 0.02439402 -0.02317949 4280588609
0.02509433 0.021601886 -0.020919826 4280783683
0.030157588 0.011489205 -0.012005422 4280848963
0.037587944 -0.00593815 0.0035464531 4280848963
0.045842007 -0.02555152 0.021065116 4280979524
0.051425032 -0.036374569 0.030582391 4281174853
0.054003738 -0.037682928 0.031455398 4281563983
0.0026395805 0.0094218627 -0.0086809434 4281757783
0.0041793324 0.011034958 -0.010441177 4281696074
0.0059028193 0.011910677 -0.011527799 4281501254
0.0074239336 0.013522692 -0.013283873 4281238604
0.0089344084 0.015134014 -0.015037498 4281304139
0.010838967 0.015272401 -0.015449744 4281108043
0.012948573 0.014674932 -0.015193012 4281107534
0.014648091 0.015549503 -0.01627399 4281173323
0.016131867 0.017159387 -0.018021526 4281239369
0.01739192 0.019503929 -0.020433811 4281305159
0.01863593 0.021847479 -0.022842567 4281370694
0.020300681 0.022719957 -0.023915686 4281500999
0.022181107 0.022857368 -0.024322107 4281435463
0.025180079 0.019321933 -0.021404013 4281370184
0.030469522 0.0084445402 -0.011848539 4281174599
0.038358506 -0.010503165 0.004990817 4281174599
0.046386089 -0.029440559 0.02180028 4281174599
0.051270887 -0.03809429 0.029303852 4281239878
0.053612005 -0.038673379 0.029511675 4282279768
0.00231231 0.0085900202 -0.010520414 4281889619
0.0036581084 0.010946415 -0.012947015 4281499468
0.0057646818 0.010346055 -0.012691598 4281433933
0.00748289 0.011223719 -0.013775364 4281173324
0.009195786 0.012101062 -0.014857857 4281043019
0.010903362 0.012978129 -0.015939105 4281173324
0.013015296 0.012378685 -0.015684525 4281238858
0.01471753 0.013255604 -0.016764436 4281239114
0.016624602 0.013394527 -0.017176963 4281304138
0.01810595 0.015008628 -0.018920522 4281044294
0.019576591 0.016622134 -0.020661714 4280979013
0.021254731 0.017497763 -0.021736052 4280718403
0.0229275 0.018373124 -0.022809139 4280783429
0.025712509 0.01556433 -0.020564675 4280979014
0.031006889 0.0046548247 -0.011035201 4281044038
0.038898647 -0.014348902 0.0057602981 4281174343
0.046697509 -0.032606222 0.021864463 4281174343
0.050882563 -0.039077736 0.027364597 4281238858
0.0023627691 0.0062799007 -0.011018154 4281890384
0.0035203397 0.0093842819 -0.014109004 4281303118
0.0054325722 0.0095228553 -0.014523193 4281434445
0.0073448308 0.0096615627 -0.014937289 4281173324
0.0092571042 0.009800382 -0.015351303 4281238603
0.010967389 0.010679819 -0.016431475 4281238348
0.012877002 0.01081869 -0.016844725 4281303883
0.014993932 0.010217555 -0.016592801 4281238603
0.017116196 0.0096168816 -0.016341899 4281304393
0.018818434 0.010496251 -0.017420005 4281304649
0.020084679 0.012854382 -0.019823538 4281109063
0.021552868 0.014472142 -0.021560788 4281044038
0.023231018 0.015350066 -0.022633376 4281044038
0.026243769 0.011794001 -0.019734873 4281174854
0.031769097 0.000113599 -0.0095702978 4281174854
0.03966631 -0.018945999 0.0071808258 4281174854
0.046776816 -0.035041869 0.021262486 4281239623
0.050728634 -0.040794618 0.026088174 4281369419
0.0022244044 0.0047093704 -0.012186431 4281237328
0.0035737455 0.0070789605 -0.014603783 4281369164
0.0054885037 0.0072177202 -0.01501852 4281303883
0.0074032806 0.0073566139 -0.015433159 4281304393
0.0093180686 0.007495597 -0.015847731 4281369164
0.011232868 0.0076347217 -0.016262203 4281303884
0.013147667 0.0077739656 -0.016676575 4281303628
0.015062466 0.0079133213 -0.017090864 4281303883
0.016977247 0.0080528185 -0.017505039 4281304394
0.018892013 0.0081924126 -0.017919142 4281304394
0.020376474 0.0098155886 -0.019656664 4281174343
0.021850258 0.011438064 -0.021391744 4281109063
0.02375426 0.011577211 -0.021803251 4281239623
0.026327617 0.0094931349 -0.0202346 4281043529
0.032303948 -0.0037037656 -0.008777583 4281108809
0.039975498 -0.022078745 0.0072708996 4281108809
0.047086895 -0.038222156 0.021315813 4281173833
0.050808519 -0.043251552 0.025469694 4281369164
0.0024626367 0.0016474649 -0.012022634 4281235544
0.004008662 0.0032783747 -0.013770984 4281040978
0.0061248876 0.0026722029 -0.013522652 4281107789
0.0078538954 0.0035571456 -0.01460378 4281108044
0.0095776021 0.0044417754 -0.015683617 4281303883
0.011497587 0.0045812652 -0.016099207 4281303884
0.013417576 0.0047208816 -0.016514715 4281303628
0.015130617 0.005605109 -0.017591964 4281303628
0.016838316 0.0064890385 -0.018667977 4281108044
0.018540651 0.0073727444 -0.019742783 4281173578
0.020452578 0.0075122789 -0.02015616 4281239369
0.022146873 0.0083956048 -0.021228993 4281108553
0.024056066 0.0085351542 -0.021641606 4281239369
0.027302865 0.0042149201 -0.018103682 4281239114
0.033063266 -0.0082770512 -0.0073365103 4281304649
0.040968731 -0.027448609 0.0093264664 4281304649
0.046472438 -0.038439862 0.018736187 4281631049
0.049953602 -0.042742379 0.02222383 4281760589
0.0096376464 0.0021267533 -0.016187724 4280907869
0.011761576 0.0015193522 -0.015942443 4281170773
0.014094904 0.00016567856 -0.015037437 4281302609
0.016232144 -0.00044047087 -0.014794883 4281368143
0.01795589 0.00044681877 -0.015872696 4281433933
0.019462205 0.0020800754 -0.017608345 4281237583
0.021172561 0.0029666796 -0.018683113 4281042254
0.022877565 0.0038529485 -0.0197566 4281173069
0.024577204 0.0047389492 -0.020828836 4281238603
0.028053418 -0.00033918768 -0.016645571 4281500489
0.034046449 -0.013612732 -0.0052519618 4281435464
0.041047715 -0.02985952 0.0087435609 4281435464
0.045858786 -0.038648583 0.016163301 4281499978
0.020744931 -0.011610374 -0.0078322496 4281824339
0.022076916 -0.0092215464 -0.010230185 4281693778
0.02360744 -0.0075820535 -0.011967639 4281368144
0.025127256 -0.0059431866 -0.013702745 4281368908
0.026416499 -0.0035571605 -0.016091114 4281303628
0.029470105 -0.0071534738 -0.01323464 4281434699
0.034802489 -0.018222429 -0.0038379459 4281434953
0.041126326 -0.032274485 0.0081576584 4281434953
0.045245916 -0.038848229 0.013597111 4281630284
0.03199587 -0.017747134 -0.0065784073 4282346834
0.036007028 -0.024348475 -0.001130715 4282020433
0.040749192 -0.033194609 0.0062639704 4282020689
-0.028387334 -0.0068707764 0.042719327 4281225343
-0.027473684 -0.00099119544 0.036666419 4280373389
-0.025743779 0.00058601052 0.034826782 4279586204
-0.023295414 -0.0014194101 0.03648993 4280438158
-0.020088587 -0.007004559 0.041647147 4279256743
-0.016838934 -0.012586527 0.046795141 4278733228
-0.030973542 -0.0065257475 0.03981876 4281553529
-0.030595761 0.0022486746 0.030975137 4278799783
-0.027315866 0.006127663 0.026611444 4278273463
-0.022012908 -5.4016709e-05 0.032029789 4278994858
-0.019249719 -0.0035011917 0.035079841 4278931873
-0.016613316 -0.006228365 0.037427437 4279259803
-0.013642903 -0.010389492 0.041162711 4279784339
-0.011435036 -0.010960162 0.041413333 4280176529
-0.0098681338 -0.0086605996 0.038882907 4281946483
-0.0076600276 -0.0092310011 0.039133616 4281422459
-0.0041109137 -0.015537232 0.044933785 4281815924
-0.032868881 0.0011931211 0.029493634 4279520923
-0.031699132 0.0056632385 0.024868485 4278471854
-0.029860806 0.0065255389 0.023740295 4278931618
-0.02802765 0.0073876083 0.022613257 4278866084
-0.0254726 0.0046456084 0.024971616 4278733483
-0.023044143 0.0026257858 0.026629131 4278537644
-0.020599529 0.00060722977 0.028283224 4278538409
-0.0184456 3.0331314e-05 0.028543692 4278735014
-0.016286213 -0.00054608285 0.028803039 4278668969
-0.014597595 0.0010373816 0.026979521 4278603179
-0.0032049082 -0.01276809 0.039074343 4280173978
-0.034740116 -0.0020288676 0.030108791 4282011763
-0.03368276 0.0031794533 0.024791162 4278406828
-0.021344014 0.0018607154 0.024288982 4278800039
-0.019354306 0.002003178 0.023856681 4278865574
-0.017520357 0.0028679296 0.022731561 4278275249
-0.016008735 0.0051763728 0.020223003 4278340019
-0.014190529 0.006040208 0.019101471 4278274994
-0.012049772 0.005460605 0.019363441 4278405044
-0.005890388 -0.0036305115 0.027474012 4278865063
-0.0030163676 -0.0070906132 0.030483976 4278931363
-0.00063928589 -0.0083861575 0.03142171 4278800803
0.0015713088 -0.0089602023 0.031668935 4278800803
0.0030677095 -0.0066519901 0.029164415 4279914643
0.004548151 -0.0043447837 0.026663382 4280109718
0.010279847 -0.0105315 0.031961124 4279256999
0.011752436 -0.0082245171 0.029462073 4282733158
-0.03606673 0.0028695762 0.022622574 4279587223
-0.034763452 0.0066396371 0.018713366 4278538409
-0.032938514 0.0075051785 0.017591234 4278538154
-0.030979019 0.0076449513 0.017165095 4278668203
-0.028734636 0.0063341781 0.018127333 4278733738
-0.02662446 0.0057494268 0.018393684 4278603178
-0.024213392 0.003715314 0.020044964 4278537898
-0.022086933 0.0031319484 0.020307939 4278865829
-0.019954991 0.0025490895 0.020569809 4278865574
-0.018596087 0.0055884793 0.017374244 4278275249
-0.015136741 0.0080431327 0.014447772 4279257508
-0.012845941 0.0067365915 0.015400543 4279192229
-0.010211617 0.0039837137 0.017728973 4278864299
-0.0050503574 -0.00079381466 0.021684315 4278472873
-0.0028775185 -0.0013729259 0.021938007 4278538408
-0.0010533668 -0.00050581247 0.020817298 4278341294
0.0081787258 0.0031036586 0.015916117 4281291134
-0.036732327 0.0041663274 0.018640075 4278800803
-0.035170529 0.006490387 0.016129836 4278734248
-0.033214007 0.0066297874 0.015704229 4278930343
-0.031117801 0.0060416609 0.015971787 4278668968
-0.028873917 0.0047264919 0.016930778 4278669479
-0.026764069 0.0041395426 0.017195527 4278341548
-0.024796236 0.0042801797 0.016767785 4278603944
-0.022527914 0.0029671267 0.017721687 4278669479
-0.020707313 0.003835097 0.016602669 4278669224
-0.019047435 0.00542932 0.014795235 4278800038
-0.0060509928 0.0011988953 0.017037593 4278734504
-0.0042401999 0.0020670593 0.015921403 4278734248
-0.0026115142 0.0036599189 0.014121414 4278275249
-0.0015319958 0.0074265897 0.010270524 4278601903
-0.00011472031 0.0097422227 0.0077931611 4278996389
0.0020260364 0.0091591254 0.0080524525 4278273973
0.004359711 0.0078522786 0.0089933956 4278471344
0.0059433095 0.0094424859 0.0072035706 4278931364
-0.03844909 0.00022755563 0.019952554 4279325084
-0.029013146 0.0031191185 0.015734453 4278472363
-0.027048264 0.0032594129 0.01530725 4278407083
-0.025083248 0.003399834 0.014880103 4278603944
-0.023268066 0.0042694509 0.013763837 4278669479
-0.021458086 0.0051388443 0.012648738 4278800294
-0.019963942 0.0074653551 0.010158877 4278931109
-0.017853726 0.0068767741 0.01042227 4278865319
-0.015898716 0.007017009 0.0099977097 4279192739
-0.013126977 0.0035166666 0.013004617 4278996388
-0.010992426 0.0029301494 0.013262971 4278865574
-0.0085151158 0.0008886084 0.014890513 4278734504
-0.0067070201 0.0017586127 0.013776463 4278865829
-0.0052521713 0.0040831119 0.011295683 4278538409
-0.00061922148 0.0095967874 0.0052390853 4279126438
0.0039021745 0.015103377 -0.00079249963 4279459213
-0.038845118 7.969141e-05 0.017367158 4278997408
-0.037927661 0.0060804486 0.011406262 4278406573
-0.036116038 0.0069513172 0.010291916 4279258019
-0.034036633 0.0063574761 0.010559668 4278733738
-0.029294115 0.002243869 0.013849045 4278668203
-0.027187575 0.0016522929 0.01411114 4278668969
-0.025369819 0.00252413 0.012995875 4278865829
-0.023557257 0.0033957511 0.011881779 4278734503
-0.022207271 0.0064603463 0.0087079937 4278537898
-0.020413108 0.0073308349 0.0075981179 4278470069
-0.018308554 0.0067396536 0.0078610545 4278536369
-0.015877604 0.0046879277 0.009493391 4278668203
-0.01326742 0.0019071624 0.011806983 4278538409
-0.011298999 0.0020485595 0.011379662 4278473129
-0.0091620125 0.0014601648 0.011635906 4278603944
-0.0073618665 0.0023317337 0.010525233 4278735268
-0.0060883835 0.0053917244 0.0073687462 4278407593
-0.004483223 0.0069915429 0.0055805063 4278342058
0.0020184629 0.012655832 -0.00086919405 4278341548
-0.038588736 0.0074282363 0.0074617183 4278472109
-0.036787722 0.0083004907 0.0063513303 4279258528
-0.034719285 0.0077036843 0.0066197766 4278734503
-0.032089587 0.0041704923 0.0096401302 4278537388
-0.027903933 0.0029808357 0.010166879 4278734504
-0.026096787 0.0038540661 0.0090555651 4278537898
-0.024294842 0.004727073 0.0079454193 4278537643
-0.021016393 0.0079383552 0.0043593394 4278403513
-0.013896655 0.0024954751 0.0085604461 4278406828
-0.011770763 0.0019039363 0.0088173738 4278669479
-0.0096394308 0.0013129488 0.009073169 4278538409
-0.0080155246 0.0029182658 0.0072839735 4278604198
-0.0067494251 0.005986385 0.0041357344 4278342058
-0.0051520206 0.0075899735 0.0023525031 4278407594
-0.0035652183 0.0091929138 0.00057165883 4278603688
-0.0010809675 0.0071394369 0.0021880688 4278603434
0.00068223104 0.0080110878 0.0010875091 4278734504
0.0015053861 0.012536325 -0.0034009498 4278934678
-0.041966531 0.0018842146 0.010573552 4279128734
-0.040659543 0.0057083368 0.0067048529 4278473129
-0.030420456 0.0034522489 0.0073443772 4278537898
-0.02847464 0.0035911202 0.0069212699 4278668969
-0.026675437 0.0044659078 0.005813322 4278537898
-0.024732005 0.0046048239 0.0053909002 4278275249
-0.023396786 0.0076856688 0.0022336179 4278537898
-0.021308996 0.0070887953 0.0024967501 4278800294
-0.019373193 0.0072274953 0.0020762375 4278341293
-0.014687452 0.0038318485 0.0046424521 4278602923
-0.012572549 0.0032373443 0.0049000988 4278538154
-0.01045223 0.0026433766 0.0051566074 4278800294
-0.0086679906 0.0035181195 0.0040526977 4278341548
-0.0072358437 0.0058604628 0.001591797 4278471854
-0.0038830861 0.0083414167 -0.0012855455 4278796469
-0.0015836209 0.0070144907 -0.00035069976 4278798764
0.00017428398 0.0078879073 -0.0014484636 4278734760
0.00099310651 0.01242587 -0.0059260502 4279591558
-0.042604584 0.0032493845 0.0066361735 4278866848
-0.041307453 0.0070836172 0.0027779089 4278538409
-0.039514478 0.0079595149 0.0016724365 4278800549
-0.037460182 0.0073571578 0.0019405549 4278603944
-0.035264473 0.0060166046 0.0028930986 4278472363
-0.032919373 0.0039383098 0.0045284135 4278931619
-0.030981842 0.0040764511 0.0041069994 4278538154
-0.029044162 0.0042147189 0.0036856467 4278865828
-0.027399469 0.0058291331 0.0018977774 4278603434
-0.023534071 0.0061055049 0.00105765 4278602669
-0.02175574 0.0069812909 -4.3853186e-05 4279389344
-0.019668166 0.0063823462 0.00021774974 4279061669
-0.015151549 0.0037122145 0.0020972667 4278668713
-0.013042323 0.0031151623 0.002354431 4278800039
-0.011095569 0.0032550842 0.0019318732 4278603434
-0.0093192793 0.0041313991 0.00083133299 4278406573
-0.0064860545 0.0088268891 -0.0040736329 4278993073
-0.0022667274 0.0076341107 -0.0035585398 4278403768
3.4932047e-05 0.0063031241 -0.0026274109 4278996134
-0.042365674 -0.00055959076 0.007515897 4278604454
-0.041059744 0.0032860711 0.0036640195 4278669734
-0.039258715 0.0041646287 0.002558467 4278931873
-0.037329789 0.0043018237 0.0021386696 4278997664
-0.035129275 0.0029572472 0.0030868175 4278866339
-0.033194687 0.0030950531 0.0026659528 4278866338
-0.031118903 0.0024923757 0.0029279729 4278669734
-0.029325079 0.0033710077 0.0018243594 4278735268
-0.027682807 0.0049895272 4.0373765e-05 4278734503
-0.025902007 0.0058674142 -0.0010601776 4278275758
-0.015452482 0.0028625652 0.00023695175 4278734503
-0.013841368 0.0044796839 -0.0015397007 4278800039
-0.012073122 0.0053574815 -0.0026369141 4278603178
-0.0082062967 0.005635716 -0.0034759929 4278799529
-0.0066241734 0.0072511807 -0.0052459473 4278800293
-0.004874289 0.0081281066 -0.0063388315 4278800038
-0.0027675927 0.0075293928 -0.00608226 4278406064
-0.00010438263 0.004718639 -0.0038061412 4278603434
0.0010892116 0.0078080818 -0.0069182594 4279326358
-0.043469001 -0.0082402304 0.012237485 4282471274
-0.042252701 -0.003637515 0.007701478 4279194269
-0.040558029 -0.0020116791 0.0059087751 4278670243
-0.038873818 -0.00038652867 0.0041184695 4278408104
-0.036934372 -0.00024861842 0.0036963588 4278342314
-0.034859236 -0.00085369498 0.003956628 4278407848
-0.033054989 2.7574599e-05 0.0028522843 4278538918
-0.031115051 0.00016583502 0.0024303189 4278473638
-0.029462036 0.0017893687 0.0006471714 4278866594
-0.02767333 0.0026698485 -0.00045354012 4278931873
-0.026187528 0.005034402 -0.0029119207 4278866338
-0.024414565 0.0059140399 -0.0040090764 4279062688
-0.0226468 0.0067933723 -0.0051049748 4278931618
-0.020256836 0.0047060177 -0.0034888359 4278800803
-0.018010292 0.0033613741 -0.0025532665 4278669478
-0.015752975 0.0020175949 -0.0016198913 4278603944
-0.014473993 0.0051208958 -0.0047446275 4278669224
-0.012881223 0.0067411214 -0.0065138978 4278800038
-0.0072888099 0.0078965724 -0.008439023 4279258273
-0.0053686947 0.008035019 -0.0088554583 4278799529
-0.00024366751 0.0031344667 -0.0049846368 4278472364
0.00095054507 0.0062325969 -0.0080902576 4279326868
-0.043485072 -0.01059369 0.011724572 4282143343
-0.042265106 -0.0059777424 0.007197733 4278932894
-0.040312815 -0.005839169 0.0067726439 4278736289
-0.038620386 -0.0042090639 0.0049838154 4278604708
-0.036673088 -0.0040706322 0.0045599705 4278604708
-0.034860957 -0.0031867772 0.0034554685 4278670243
-0.032777991 -0.0037933812 0.0037124334 4278604709
-0.030970868 -0.0029096678 0.0026091887 4278735779
-0.027372193 -0.0011429936 0.00040634442 4278604199
-0.025877971 0.0012286827 -0.0020489292 4278669988
-0.024248283 0.0028551519 -0.0038233856 4278735779
-0.022629138 0.0044810176 -0.0055955062 4278866594
-0.020393882 0.0031310841 -0.004660855 4278932128
-0.018307187 0.0025256351 -0.0044040056 4278801058
-0.016215052 0.0019206926 -0.0041482495 4278669988
-0.014776118 0.0042890757 -0.0065909261 4278407593
-0.013353098 0.0066564605 -0.0090301111 4278538663
-0.011776004 0.0082800016 -0.010792572 4278341803
-0.0034056269 0.0058629364 -0.0097679049 4278537134
-0.00093289465 0.0037762001 -0.0081738262 4278472619
0.00081191957 0.0046574324 -0.0092620188 4279654289
-0.043623272 -0.012202807 0.01052663 4281553784
-0.042153325 -0.0090702772 0.0073723542 4278932639
-0.040195856 -0.0089313537 0.006946112 4278867358
-0.038497839 -0.0072966143 0.0051594144 4278867104
-0.036677834 -0.0064101592 0.0040547578 4278998174
-0.034862999 -0.0055239201 0.0029512653 4278932639
-0.032777693 -0.0061326027 0.0032060826 4278801824
-0.030686896 -0.0067407265 0.0034597674 4278801824
-0.028876912 -0.0058545247 0.0023576366 4278670244
-0.02707215 -0.0049685761 0.0012566671 4278866848
-0.02571797 -0.0018433332 -0.0018716054 4279128989
-0.023780432 -0.001704812 -0.0022927308 4279325849
-0.022304192 0.00067228079 -0.0047389464 4279129243
-0.020061478 -0.0006814301 -0.0038093003 4279063708
-0.018126249 -0.00054273754 -0.004229662 4278997918
-0.016190924 -0.00040391833 -0.0046499511 4279063453
-0.014748897 0.0019711629 -0.0070883306 4278867104
-0.013322782 0.0043452382 -0.0095232138 4279850129
-0.011742767 0.0059732646 -0.01128295 4279521944
-0.009828411 0.0061110631 -0.011698318 4278670243
-0.0079139844 0.0062489584 -0.012113628 4278276523
-0.0058216937 0.0056425706 -0.011859023 4278538663
-0.0037240088 0.0050366893 -0.011605506 4278341804
-0.0012546629 0.0029432029 -0.010015682 4278538918
-0.043396469 -0.016063422 0.011370071 4281094528
-0.042166542 -0.011420868 0.0068609519 4279062944
-0.040460493 -0.0097813085 0.0050756829 4278736034
-0.038635273 -0.0088924468 0.0039714566 4278866593
-0.036947522 -0.0072539672 0.0021903412 4278801569
-0.035000335 -0.0071154684 0.0017665746 4278998174
-0.03291535 -0.0077263638 0.0020197881 4279063709
-0.030684587 -0.0090859607 0.0029481621 4279063708
-0.028871913 -0.0081974342 0.0018470967 4278867104
-0.027210046 -0.0065602362 7.2039664e-05 4278801569
-0.025558677 -0.0049237013 -0.001700582 4279129243
-0.023766916 -0.0040363297 -0.0027968492 4279260314
-0.021980342 -0.0031492263 -0.0038918983 4279391639
-0.019886427 -0.0037586093 -0.0036400352 4279194779
-0.018104952 -0.0028716102 -0.004733786 4279194779
-0.016005509 -0.0034803897 -0.0044829678 4279129244
-0.01455773 -0.001098372 -0.0069176587 4279980689
-0.012958899 0.00053521246 -0.0086782398 4282471019
-0.011370674 0.002168186 -0.010436493 4282405994
-0.0092761815 0.0015595034 -0.010184185 4281881713
-0.0071762912 0.00095137954 -0.0099329809 4282274924
-0.0054262169 0.0018369332 -0.011019294 4279456918
-0.003501147 0.0019758344 -0.011436724 4278867104
-0.0013930835 0.0013686642 -0.011187018 4279063963
0.00034915283 0.0022540167 -0.012271342 4279525513
-0.043170746 -0.019936815 0.012203998 4280701064
-0.041807715 -0.016033195 0.0083810063 4279521434
-0.040090781 -0.014388599 0.0065967133 4279063198
-0.0383843 -0.01274465 0.0048147747 4278932129
-0.036688324 -0.011101268 0.0030351849 4278932128
-0.034868058 -0.010210402 0.0019338476 4279325338
-0.033190403 -0.008568123 0.00015839562 4279325594
-0.030822713 -0.010683782 0.0017588725 4279194268
-0.029152747 -0.0090418532 -1.4673918e-05 4279063198
-0.027202439 -0.0089027062 -0.00043879077 4278669988
-0.025696289 -0.0065107271 -0.0028817337 4279128733
-0.023753714 -0.006371893 -0.0033039805 4279194525
-0.021811012 -0.0062329322 -0.0037261695 4279260059
-0.019712105 -0.006844148 -0.0034770742 4279194779
-0.017925259 -0.0059546232 -0.0045703482 4279194779
-0.015982229 -0.0058152676 -0.004992323 4278670754
-0.014367271 -0.0041763335 -0.0067531965 4279522199
-0.012596142 -0.0032875389 -0.0078428257 4280112014
-0.010660835 -0.0031483844 -0.0082628559 4280505478
-0.0085533485 -0.0037583038 -0.0080150235 4280505734
-0.006615214 -0.0036187097 -0.0084354859 4280177549
-0.0048544556 -0.0027301833 -0.0095224958 4280112014
-0.0032790303 -0.0010933653 -0.011274227 4279391383
-0.0015314668 -0.00020559877 -0.012358145 4279784594
0.00021080673 0.00068193674 -0.013440815 4279785104
0.0023239553 7.3194504e-05 -0.013193698 4279982218
0.0040609725 0.000960581 -0.014275045 4280244358
0.0061795115 0.00035248697 -0.0140289 4280705654
-0.041450325 -0.02066268 0.00988835 4282274413
-0.039595898 -0.01976759 0.0087809553 4281356158
-0.037875872 -0.018118359 0.0069993837 4280177294
-0.036166344 -0.016469724 0.0052201292 4279457174
-0.034601893 -0.014067762 0.0027690744 4279522453
-0.032916013 -0.012420572 0.0009951517 4279456665
-0.030960795 -0.012281321 0.00056978501 4279325083
-0.029148016 -0.011388496 -0.00052800775 4279456153
-0.027340438 -0.010495923 -0.0016245916 4278997408
-0.025242221 -0.011109725 -0.0013772864 4278867104
-0.023439698 -0.010217287 -0.0024725925 4279325338
-0.021489143 -0.010077767 -0.0028964859 4279391129
-0.019850299 -0.0084331334 -0.0046595614 4279260059
-0.018063415 -0.0075414553 -0.0057511944 4279194779
-0.016281761 -0.0066500306 -0.0068415832 4278801569
-0.014505338 -0.0057588518 -0.00793075 4279391639
-0.012567595 -0.0056196526 -0.0083514098 4279456919
-0.010629766 -0.0054803342 -0.0087719988 4279587989
-0.0085199699 -0.006092228 -0.0085263867 4279325848
-0.0065793246 -0.0059524626 -0.0089474041 4279456919
-0.004638616 -0.0058125705 -0.0093683284 4279587988
-0.0030576363 -0.004170984 -0.011117997 4279194779
-0.0013047047 -0.0032806471 -0.012201404 4279391383
0.00025772303 -0.001640223 -0.013946828 4279653523
0.0021853037 -0.0015007704 -0.014364534 4279587989
0.0039223619 -0.00061122328 -0.015444231 4279718803
0.0058473386 -0.00047172606 -0.015861182 4280047243
0.0075764358 0.00041753799 -0.016939005 4279719568
0.0093002282 0.0013064891 -0.018015549 4280114053
0.011823583 -0.00080168992 -0.016451722 4280115839
-0.035514448 -0.022616044 0.0080623468 4282406249
-0.033933606 -0.020206407 0.0056126332 4281095039
-0.032368574 -0.017797761 0.0031664586 4279849363
-0.030819368 -0.01539018 0.00072386954 4279849108
-0.029001225 -0.014494784 -0.00037349109 4279914644
-0.02704322 -0.014355116 -0.00079929922 4279718039
-0.025232781 -0.013460077 -0.0018947599 4279062943
-0.023427557 -0.012565292 -0.0029889923 4279390874
-0.02162753 -0.011670776 -0.0040820148 4279587478
-0.019988447 -0.010021791 -0.0058418158 4279456153
-0.018043146 -0.0098824352 -0.0062644091 4278997918
-0.016258787 -0.0089886561 -0.0073537398 4278867359
-0.014479659 -0.0080951452 -0.0084418412 4278932894
-0.012539402 -0.0079557821 -0.0088630524 4279260314
-0.010599062 -0.0078162849 -0.0092841964 4279325594
-0.0084869303 -0.0084301755 -0.0090407562 4279194779
-0.0067181438 -0.0075369105 -0.010126231 4279260314
-0.0047775842 -0.0073970333 -0.010547137 4279260314
-0.0030166693 -0.0065041035 -0.011630738 4279063708
-0.0010786653 -0.0063641518 -0.012050888 4279391384
0.0006743446 -0.0054714903 -0.013132615 4279063709
0.002422072 -0.0045791492 -0.014213068 4279194525
0.0037837848 -0.0021827072 -0.016613176 4279194524
0.005515568 -0.001291208 -0.01769002 4279653013
0.00724205 -0.00040002167 -0.018765582 4279521943
0.0093599409 -0.0010122582 -0.018522436 4279391384
0.012287285 -0.0046295896 -0.015647726 4279456919
0.016667169 -0.013503306 -0.0081755947 4279392149
0.02111103 -0.022372223 -0.00071720313 4281292154
-0.042620849 -0.030874126 0.013974774 4282732903
-0.023265544 -0.015674584 -0.0028409166 4281748093
-0.021460153 -0.014777519 -0.0039334474 4281290114
-0.019815497 -0.013123892 -0.0056911167 4280307599
-0.017865025 -0.012984149 -0.0061148312 4279914389
-0.016236156 -0.011331342 -0.0078689102 4279194013
-0.014454324 -0.010435507 -0.0089559648 4279325340
-0.012677733 -0.0095398873 -0.010041764 4279128734
-0.010737542 -0.0094004124 -0.010462871 4279194524
-0.0086257569 -0.010016501 -0.010221032 4279194779
-0.0068569295 -0.0091210753 -0.011304861 4278998174
-0.0049165227 -0.0089812055 -0.011725733 4278932894
-0.0031555668 -0.0080861226 -0.012807684 4278998430
-0.0012177117 -0.0079461932 -0.013227815 4279194779
0.00072018802 -0.0078061298 -0.013647849 4279063708
0.0024706051 -0.0069113746 -0.014727259 4279456919
0.0038354024 -0.0045082495 -0.017123071 4279456664
0.0055699013 -0.003614448 -0.018198812 4279587734
0.0074945949 -0.003474839 -0.018615602 4279325338
0.0096174777 -0.0040888712 -0.018375197 4279129244
0.012950704 -0.0092238411 -0.014196632 4279260314
0.017338779 -0.018122897 -0.0067462018 4279588244
0.022203162 -0.028523527 0.0020012492 4279719314
0.025262674 -0.032141663 0.0048393598 4281881714
-0.017687619 -0.016094215 -0.0059715351 4282467449
-0.015892524 -0.015195377 -0.0070598968 4280896394
-0.014266003 -0.013538308 -0.0088100713 4280569229
-0.012318049 -0.013398409 -0.0092329662 4280176274
-0.010538667 -0.012500316 -0.010317625 4279914388
-0.008593224 -0.012360372 -0.010739801 4279260059
-0.0069956817 -0.01070492 -0.012483252 4279063709
-0.0050554238 -0.01056508 -0.012904098 4278736289
-0.0032944269 -0.0096678063 -0.013984388 4278998428
-0.00081078708 -0.011799194 -0.01242763 4278866848
0.00095031038 -0.01090166 -0.013507748 4278867103
0.0028934255 -0.010761097 -0.013928825 4279325849
0.0040766485 -0.0075943395 -0.016978754 4279522199
0.0058165193 -0.0066979751 -0.018053984 4279063708
0.007355772 -0.0050457418 -0.019784039 4278998174
0.0098742507 -0.0071738288 -0.018234232 4279128733
0.013211325 -0.0123237 -0.014068091 4279325338
0.017805569 -0.022004031 -0.0059838509 4279456408
0.02226313 -0.030923791 0.0014316924 4280570248
0.025324179 -0.034552641 0.0042611649 4282537064
-0.0082187578 -0.016228385 -0.0099422438 4282600049
-0.006613005 -0.014567994 -0.011684218 4281683324
-0.0046649091 -0.014427602 -0.012106772 4280438669
-0.0027167611 -0.014287055 -0.012529231 4280504459
-0.00040495768 -0.015664987 -0.011636908 4279849363
0.0013641603 -0.014764719 -0.012717112 4279522199
0.0031279884 -0.013864674 -0.013796109 4279456919
0.0045069493 -0.011447564 -0.016185036 4279260313
0.0062548593 -0.010548465 -0.017260356 4278736288
0.0078023262 -0.0088912621 -0.018988894 4278998174
0.0099324994 -0.0095090941 -0.018753404 4278932639
0.013471182 -0.015431903 -0.013945821 4278867104
0.017864984 -0.024382435 -0.0065364609 4279259803
0.022116957 -0.032570593 0.00020698085 4281160063
0.00072615221 -0.022589289 -0.008232791 4282271099
0.0025139637 -0.021685533 -0.0093153901 4280635273
0.0041095614 -0.020020969 -0.011051311 4280374154
0.0056945197 -0.018356994 -0.012784868 4279522198
0.0074611157 -0.017454363 -0.013862564 4279063709
0.0090274774 -0.015791543 -0.015591859 4278801824
0.010780772 -0.014889583 -0.016666526 4278932894
0.01393057 -0.019308649 -0.013178079 4279129243
0.017924041 -0.026764877 -0.0070920736 4279456919
0.021765221 -0.033457369 -0.0016680062 4281554549
0.008856792 -0.025153302 -0.0098353587 4282536554
0.010444688 -0.023484536 -0.011566039 4281947249
0.012219347 -0.022578932 -0.012643642 4281028739
0.014989018 -0.025484942 -0.010469642 4280897414
0.018185465 -0.029913396 -0.0070011914 4281029249
0.021619294 -0.035101332 -0.0028906139 4282536553
0.0087184049 -0.035537288 -0.013901518 4282272374
0.01109051 -0.036940418 -0.013045033 4282600558
0.012348114 -0.036091946 -0.016605496 4280700044
0.014528789 -0.036723301 -0.016394053 4282798438
