# .PCD v0.7 - Point Cloud Data file format
VERSION 0.7
FIELDS x y z rgba
SIZE 4 4 4 4
TYPE F F F U
COUNT 1 1 1 1
WIDTH 604
HEIGHT 1
VIEWPOINT 0 0 0 1 0 0 0
POINTS 604
DATA ascii
0.0016732402 0.0097393319 0.054773428 4281696839
0.0025487356 0.01455833 0.049207866 4280261954
0.0046207197 0.014703453 0.048764341 4279871549
0.0084821265 0.0081772208 0.055620782 4280002620
-0.0015713535 0.011888161 0.04958038 4281893188
-0.00086279958 0.017392591 0.043295376 4281112634
0.00014988706 0.021554623 0.038478643 4281568064
0.0020109452 0.022366814 0.03731361 4281566533
0.0051179603 0.018493287 0.041248456 4281045824
0.0089828186 0.011945412 0.048087731 4281176894
0.012348955 0.0074082911 0.052733928 4281046589
0.014818726 0.0062178671 0.053738765 4281306433
0.016920375 0.0063654706 0.05328919 4281436739
0.018061491 0.0098552108 0.049212031 4281436993
0.018981118 0.014011376 0.044415705 4280134454
0.021250915 0.013489127 0.044696964 4280261188
0.025527475 0.0062888265 0.052215278 4280000323
-0.0033946112 0.016899154 0.041042931 4281697604
-0.0021997765 0.020402953 0.036962003 4280137258
-0.00068515539 0.022561129 0.034342676 4279873079
0.00098941475 0.024046488 0.032454208 4280003128
0.0033676066 0.022844985 0.033475153 4279742518
0.0063002706 0.019630201 0.036672495 4279937849
0.0088919271 0.017759718 0.038412914 4280980543
0.01112652 0.017232478 0.038699791 4281045568
0.013177263 0.017376482 0.038261093 4280849473
0.014844194 0.018861808 0.036374636 4280198203
0.016305864 0.021016918 0.033767127 4281632069
0.018540617 0.020490021 0.034054227 4281566533
0.021980444 0.015943207 0.038673498 4281241663
0.027686568 0.0040306002 0.051222764 4281110338
-0.0043756925 0.018581957 0.036175087 4281174343
-0.0031933933 0.022095826 0.032105073 4280654398
-0.0015186518 0.023585528 0.030219741 4280132923
0.00032119453 0.024400584 0.029062517 4279937594
0.0028692633 0.022520281 0.030807175 4280002619
0.0056145042 0.019967638 0.033273049 4280719678
0.0078300312 0.019436754 0.033562288 4280784959
0.0096781813 0.020252727 0.032403544 4280980544
0.011710104 0.020395406 0.031968862 4280979778
0.013742074 0.020538177 0.03153424 4279220789
0.01538524 0.022026338 0.029656172 4280328764
0.017609024 0.021496419 0.029944006 4280328764
0.020637207 0.018277951 0.033113115 4280198203
0.026121354 0.0069966018 0.044916868 4280327998
-0.0053548589 0.020287059 0.031323485 4281371714
-0.0040149316 0.023134481 0.027989645 4280915520
-0.0023506097 0.024627764 0.026109856 4280980545
0.00018067658 0.022739656 0.027853057 4280849473
0.0027280822 0.020852719 0.029592913 4280915009
0.0051107407 0.019642815 0.030606352 4280849728
0.0069535747 0.020460509 0.029450323 4280849728
0.0086049046 0.021953318 0.027573634 4280783683
0.010245597 0.023445506 0.02569925 4280914244
0.012450295 0.022911925 0.02598935 4280654144
0.014660383 0.022378761 0.026278403 4281045569
0.017072739 0.021171454 0.027285878 4280849984
0.019894958 0.018616028 0.029729132 4281111868
0.025974536 0.0052737519 0.0436626 4281242429
-0.0058301985 0.019977719 0.028660841 4281112123
-0.0046649612 0.023512278 0.024610892 4279873079
-0.002835732 0.024330851 0.023459144 4278960179
0.0029429346 0.017829068 0.029822722 4280784449
0.0051497966 0.017293036 0.030110478 4280719168
0.0071787238 0.017435327 0.029676303 4280784704
0.0086496491 0.019610539 0.027081426 4280915009
0.0099158939 0.022462144 0.023770373 4280914754
0.011543538 0.023957845 0.021902177 4281176128
0.013936667 0.022744704 0.022910401 4281176128
0.01673395 0.020178661 0.025352344 4281241919
0.020150792 0.01558423 0.029941902 4281243449
0.026433913 0.0015216917 0.04455898 4281243449
-0.0071631745 0.014767818 0.031497821 4281434953
-0.0068061091 0.02172083 0.023836892 4281111359
-0.00531381 0.023903534 0.021242008 4280720189
-0.0033200569 0.024042975 0.020815078 4280654908
0.0026236549 0.016837969 0.027885251 4280719423
0.0048275292 0.016299568 0.028171949 4280849983
0.0066705197 0.017121635 0.027019158 4280915520
0.00813655 0.019303076 0.024430253 4280784704
0.0095866024 0.02148344 0.021844875 4280785214
0.010829479 0.024342258 0.018545467 4278439723
0.013407961 0.022444848 0.020269174 4279353389
0.016592087 0.018511489 0.024138544 4278507299
0.020605097 0.011864945 0.030864246 4280852789
0.027497794 -0.00427939 0.047591515 4281243704
-0.0084540918 0.017879188 0.025227927 4281369928
-0.0074462295 0.02211953 0.020471267 4279416119
-0.0057918988 0.023625169 0.018603347 4280914753
-0.0038036034 0.023764204 0.018177565 4281240899
-0.0011154003 0.021172248 0.020629134 4280459069
0.0017718896 0.017899305 0.023794912 4279741753
0.0039647892 0.017357931 0.024082303 4280784959
0.0061631128 0.016816989 0.024368651 4280849983
0.0076242387 0.019004636 0.021785717 4280655163
0.0092577152 0.020509411 0.019922782 4280785468
0.010498557 0.023376841 0.016630381 4281242174
0.012880027 0.022154104 0.017634515 4281176638
0.016057564 0.018207133 0.021495417 4279353898
0.020859288 0.0088138133 0.031062938 4280915773
0.0279544 -0.0080640018 0.048464201 4281438269
-0.010118842 0.014023647 0.026612997 4282477649
-0.0095782764 0.020335943 0.019700743 4281305413
-0.0084186867 0.023902815 0.015676569 4279807033
-0.0064386129 0.024041176 0.015252475 4279807544
-0.0044584423 0.024179634 0.014828425 4279937849
-0.001953885 0.022263277 0.016557552 4279742263
0.00074423477 0.019663319 0.019000467 4280719168
0.0031035878 0.018434145 0.020005725 4280784448
0.0051081218 0.018574677 0.01957674 4280719168
0.0065563433 0.020767998 0.01700151 4280329274
0.0081767142 0.022276215 0.015144654 4279938869
0.0097864233 0.023783818 0.013290096 4281111869
0.012159403 0.022556059 0.014292795 4281437504
0.015327685 0.018595278 0.0181458 4280785213
0.020516289 0.0078039765 0.029117715 4280589628
0.028006904 -0.010495335 0.047903433 4280589628
-0.010420166 0.013047889 0.024682183 4282217039
-0.0098807141 0.01937975 0.017784994 4281500744
-0.0083898604 0.021581981 0.015205074 4281371203
-0.0065764561 0.022408035 0.014063157 4281241664
-0.0045963973 0.022546466 0.013639119 4281111613
-0.0026162565 0.022684988 0.013215132 4280980799
-0.00010426715 0.020762663 0.014937792 4280848709
0.0020639822 0.020215102 0.015227187 4280784448
0.0042376406 0.019668065 0.015515462 4280849219
0.0056756139 0.021867234 0.012947343 4280914754
0.0072855577 0.023379091 0.011096001 4280523838
0.0090754516 0.024204288 0.0099596344 4280067899
0.011439916 0.022971548 0.010960862 4280329273
0.014598943 0.018996954 0.014805969 4279871038
0.019975059 0.007484287 0.026464947 4280327233
0.028059054 -0.012930803 0.047339663 4280327233
-0.01072108 0.012076765 0.022754811 4281106514
-0.010019027 0.017738119 0.016589422 4280520524
-0.0083613582 0.019256979 0.014730539 4280260679
-0.0063761622 0.019395649 0.014305316 4279999049
-0.0043908767 0.019534424 0.013880141 4280067898
-0.0024054982 0.019673303 0.013455022 4280589883
-0.00042003766 0.019812286 0.013029955 4280653634
0.0015654974 0.019951358 0.012604944 4281110084
0.0037335083 0.019401714 0.012892764 4281174854
0.0053516664 0.020918436 0.011042878 4281305669
0.0069591887 0.022434544 0.0091952942 4281371203
0.0089369193 0.022573445 0.0087722279 4281437249
0.011300899 0.021336291 0.0097702704 4281306179
0.014458682 0.017348461 0.013605773 4280979779
0.019633044 0.0064860135 0.02452815 4280979779
0.027306374 -0.012620412 0.043937758 4280980033
-0.0098302588 0.01471211 0.016824417 4280061014
-0.0080007873 0.01554352 0.015682247 4279867213
-0.00600769 0.015682735 0.015255317 4279541578
-0.0038429722 0.015130274 0.015541904 4279671118
-0.0021954328 0.016653031 0.013688717 4279669333
-0.00038163736 0.017483793 0.01255016 4279864919
0.0014269017 0.018314242 0.011412837 4280062798
0.0035946034 0.01776237 0.011699073 4280193613
0.0053979196 0.018592648 0.010563016 4280063308
0.0073835142 0.018732011 0.010138195 4279739203
0.0093691461 0.018871479 0.0097134486 4280065604
0.011740651 0.017630436 0.010706574 4280261699
0.014318448 0.015700236 0.012405772 4280847688
0.01909316 0.0061823279 0.02188696 4280847688
0.026554842 -0.012296453 0.040545657 4280977738
-0.0098055042 0.012372084 0.016339608 4280453969
-0.0079732947 0.013205871 0.015198484 4279736909
-0.0058089718 0.012651078 0.015483424 4279802189
-0.0038105622 0.012790732 0.015055411 4279670608
-0.0021601021 0.014318056 0.013204869 4279670608
-0.00052025169 0.015844785 0.011356644 4279735378
0.0014677122 0.015983991 0.010931082 4279801679
0.0036377944 0.015430063 0.011215206 4280063053
0.0058132634 0.014876649 0.011498205 4280194378
0.0078067556 0.015016541 0.011071686 4279999304
0.0099903345 0.014463872 0.01135309 4280000068
0.011793848 0.015296645 0.010218848 4280000069
0.014373634 0.013360001 0.011912681 4280064584
0.019346356 0.0031193048 0.022077061 4280129608
0.026607435 -0.014726654 0.039985716 4280258893
-0.0099442191 0.010724656 0.0151398 4280388434
-0.0079461373 0.010864057 0.014711685 4280063819
-0.0057794452 0.010307238 0.014994465 4279541324
-0.0039496422 0.011143222 0.01385564 4279344719
-0.0022989325 0.012674928 0.012008321 4279474513
-0.00065883622 0.014206037 0.010163311 4279604819
0.0013290085 0.014345229 0.009737771 4279800914
0.0034987777 0.013789065 0.010020304 4280127824
0.005858466 0.01253818 0.011009112 4280324684
0.0078545064 0.012678258 0.010582048 4279802699
0.0096607208 0.013513304 0.0094487965 4279999814
0.011654165 0.01365339 0.0090224333 4280129608
0.014428489 0.011015601 0.011416633 4280325449
0.019598814 4.7765672e-05 0.022260897 4280260169
0.026459124 -0.016466886 0.03871879 4280454224
-0.010958686 0.0040443018 0.019345015 4282476883
-0.010082897 0.0090775043 0.013940185 4280388689
-0.0080849268 0.0092168897 0.01351209 4280062544
-0.0057502314 0.0079592317 0.014502548 4279931983
-0.0042596646 0.010194361 0.011947412 4279736399
-0.0026113726 0.011730261 0.010103881 4279801425
-0.0011500195 0.013963565 0.0075551644 4279734869
0.001011353 0.013404556 0.0078377239 4279800149
0.0033598058 0.012148365 0.0088256113 4279865684
0.0057189949 0.010893062 0.0098112337 4279866449
0.0077149123 0.011033118 0.0093841888 4279802189
0.0095211864 0.011870332 0.0082525462 4280064584
0.011322159 0.012707293 0.0071221404 4280063818
0.014482982 0.0086671114 0.010917537 4280194888
0.019850554 -0.0030322745 0.022438541 4280260169
0.026511203 -0.018903106 0.038154468 4280649808
-0.011258602 0.0030834302 0.017424997 4280975699
-0.010221515 0.0074306428 0.01274078 4280192338
-0.0083891191 0.0082709491 0.011604503 4279540048
-0.00622572 0.0077094734 0.011884671 4279605583
-0.0043984726 0.0085496306 0.010749649 4279476298
-0.0027499348 0.010089912 0.0089093484 4279409233
-0.0012881458 0.012329794 0.006365452 4279211354
0.00069410354 0.012468569 0.0059410855 4279407450
0.0032208711 0.010507949 0.0076311268 4279538263
0.0055795573 0.0092482194 0.0086135603 4279734869
0.0075753443 0.0093882456 0.0081865266 4279213649
0.009571176 0.0095283985 0.0077595748 4279802699
0.01175921 0.0089695826 0.0080351718 4279867978
0.01473196 0.0056156293 0.01111735 4279999560
0.019509042 -0.0040247291 0.020505972 4280127823
0.025962401 -0.01924789 0.03548488 4280452693
0.0050722323 0.0090073422 0.0060109049 4278622558
0.0070625506 0.0091469884 0.0055850483 4279276634
0.0092422143 0.0085852817 0.0058607012 4278950488
0.011427261 0.0080240443 0.0061352849 4279473748
0.014590925 0.0039578155 0.0099103525 4280258128
0.01956257 -0.0064143017 0.019976296 4280584018
0.026014343 -0.021685719 0.034919389 4280648789
0.014644375 0.0015969798 0.0094022676 4279798874
0.019024355 -0.0066986457 0.017349251 4280191319
0.025266724 -0.021315962 0.031560704 4280581469
-0.011877928 0.0035342425 0.014092948 4278803863
-0.010685276 0.007190749 0.010127246 4278280348
-0.0090234317 0.0087360516 0.0082870945 4279001743
-0.012336366 0.0032928735 0.011476822 4279064474
-0.010985829 0.0062544122 0.0082258955 4278473639
-0.0055280626 0.0087859556 0.0048354715 4278932128
-0.0030269362 0.0068100467 0.0065208748 4279195544
-0.0010369904 0.0069492385 0.0060947686 4278804628
-0.013219722 -0.0041594803 0.016346049 4282667368
-0.012793995 0.0030605718 0.0088673532 4278603943
-0.0097938776 0.0075839832 0.0037919916 4278471854
-0.003165368 0.0051705614 0.0053269491 4278801059
-0.0011755601 0.0053097233 0.0049008615 4278997409
0.00063607097 0.0061556622 0.0037742741 4279062944
0.0026233494 0.0062948763 0.0033488981 4278996898
0.0083965622 0.0074190125 0.001374919 4278470578
0.010956176 0.00544139 0.003043443 4278996389
0.014697494 -0.00076799095 0.008891236 4279259549
0.01907775 -0.0090898126 0.016818397 4278932894
0.025119098 -0.023048051 0.030299708 4278999448
-0.01414305 -0.0022733361 0.01161547 4281552763
-0.013250835 0.0028373525 0.006264504 4278406573
-0.011585709 0.0043958426 0.0044333786 4278472109
-0.0099311396 0.0059536621 0.0026046373 4279127713
-0.0079523996 0.0060917214 0.0021806732 4278865573
-0.00597357 0.0062298924 0.0017567687 4278472109
-0.0034764931 0.0042405948 0.003433127 4278603688
-0.0016648695 0.0050885677 0.0023081452 4278604453
0.00031953305 0.0052274391 0.0018832795 4278473384
0.0060870536 0.0063530356 -8.8088214e-05 4278733993
0.0082577504 0.0057841167 0.00018454343 4278536113
0.014750255 -0.0031370297 0.0083771758 4279193249
0.019327564 -0.012192614 0.016979538 4278735779
0.024971502 -0.024779834 0.02903894 4278801823
-0.014907952 -0.0010773763 0.0076030381 4280766854
-0.0036146604 0.002603896 0.0022412241 4278669734
-0.0019781925 0.0041652396 0.00041996315 4278604454
3.4123659e-06 0.0043039173 -4.3064356e-06 4278473129
0.0036003701 0.0060029477 -0.0022450257 4278406318
0.0055768043 0.0061415881 -0.0026679393 4279651993
0.0079304092 0.0048597679 -0.0017006584 4279061923
0.010868415 0.0014485642 0.0013477951 4278537899
0.01480267 -0.0055101588 0.0078601316 4278603688
0.0199698 -0.016723335 0.01852113 4278866338
0.025820147 -0.030058913 0.031242207 4279063198
-0.015827667 0.00085115433 0.002903305 4278932129
-0.014162153 0.0024182349 0.0010786057 4278342058
-0.012668908 0.0046990663 -0.0014429409 4278406828
-0.010698542 0.0048363954 -0.0018652212 4278341039
-0.0087280795 0.0049738362 -0.00228744 4278341293
-0.0040974841 0.0023946837 -0.00034418702 4278866339
-0.0024661273 0.0039600655 -0.0021611303 4278539174
-0.00066768378 0.0048115626 -0.0032799467 4278408104
0.00094512105 0.0063758343 -0.0050927121 4278472618
0.014854737 -0.0078873858 0.0073400959 4278603944
0.02041417 -0.020559385 0.019358382 4278866339
0.026268821 -0.033936217 0.032047339 4278997409
-0.016433191 0.0013681799 -0.00038278475 4278735269
-0.014616646 0.0022223443 -0.0015044305 4278669733
-0.013128296 0.0045093223 -0.0040199775 4278407083
-0.011163406 0.0046462566 -0.0044410955 4278735014
-0.0090315938 0.0040671453 -0.0041657463 4278604199
-0.006555371 0.0020565763 -0.0024998002 4278473383
-0.0042351969 0.00076296926 -0.0015324596 4278604709
-0.0026036091 0.002332747 -0.0033461694 4278473639
-0.00080510974 0.0031864122 -0.0044633746 4278407848
0.00062775984 0.0054703057 -0.0069664493 4278735269
0.0029588714 0.0041779652 -0.0060011484 4278407083
0.005115211 0.0036013499 -0.0057304651 4278603433
0.0078414902 0.00088117272 -0.0033853091 4278669479
0.010780025 -0.0025518686 -0.00035338849 4278668969
0.015099995 -0.010983035 0.0075078309 4278473128
0.020661261 -0.023694262 0.019496173 4278670244
0.026318684 -0.03639859 0.031464055 4278670243
0.029049164 -0.038389929 0.033076644 4282668134
-0.017011844 -0.0075890049 0.0058326125 4282602599
-0.016725637 0.00046043843 -0.0022648312 4278735524
-0.0093347058 0.0031651407 -0.0060406402 4278537388
-0.0070311502 0.0018659309 -0.0050731506 4278800803
-0.0045448393 -0.00015043467 -0.003414169 4278407848
-0.0027410425 0.00070571899 -0.0045310035 4278538664
-0.0007651858 0.00084396452 -0.0049540587 4278735014
0.00085075945 0.0024171695 -0.0067609418 4278931364
0.0026387386 0.003272526 -0.0078740865 4278865574
0.0049774051 0.0019764528 -0.0069136005 4278931108
0.0077028014 -0.00075253844 -0.0045748278 4278800803
0.010830931 -0.004913263 -0.00086122379 4278407594
0.014957841 -0.012654155 0.006291151 4278538919
0.020319581 -0.024688624 0.017562147 4278735778
0.026169505 -0.03814888 0.030189808 4278670243
0.028496578 -0.038714975 0.030422874 4282274923
-0.017762419 -0.0063514933 0.001847554 4281881459
-0.017173436 0.00027870387 -0.0048389491 4278407594
-0.014044743 0.0041571781 -0.0091542322 4279193249
-0.0069987774 -0.0004767105 -0.0055619571 4278472363
-0.0048540905 -0.0010590926 -0.0052924976 4278538664
-0.0028784461 -0.00092098862 -0.0057156086 4278669479
-0.0010798573 -6.2949955e-05 -0.0068295561 4278538154
0.010881502 -0.0072787777 -0.0013719816 4278669478
0.015202027 -0.015762322 0.0064496882 4278539174
0.020565789 -0.027833849 0.017692406 4278670754
0.025623363 -0.038462177 0.027543064 4278539683
-0.018664382 -0.0043724105 -0.0028189514 4279718804
-0.016133633 0.0024124682 -0.009907078 4278799528
-0.014662724 0.0047179013 -0.0124042 4279586459
-0.012389731 0.0034075603 -0.011436917 4278734249
-0.0073046088 -0.0013783202 -0.0074358284 4278537898
-0.0051629171 -0.0019631013 -0.0071673766 4278538409
-0.0033643544 -0.0011030212 -0.0082797818 4278734503
0.0016351044 0.0029190555 -0.012986086 4279062688
0.0043319911 0.00017047673 -0.010654416 4278341039
0.010741428 -0.0089272782 -0.002572231 4278800293
0.015252531 -0.018158101 0.0059161521 4278473384
0.02042 -0.029546112 0.016445808 4279063709
0.025078002 -0.038766399 0.024903007 4279325849
-0.01986995 -0.00091924518 -0.0088550039 4278866339
-0.018688317 0.0028453767 -0.012736594 4278406828
-0.0077787787 -0.0015504435 -0.0099956989 4278669224
-0.0059855953 -0.00068861246 -0.011105444 4278734759
-0.0043717586 0.00089731067 -0.012902226 4278800294
-0.00081707165 0.0026192516 -0.015114475 4278668204
0.0013165623 0.0020321235 -0.014845546 4278997153
0.0036403425 0.0007218793 -0.013891727 4279127714
0.0069120452 -0.0042048842 -0.0095128939 4278603435
0.01568825 -0.022004157 0.0067482777 4278407338
0.02086059 -0.033426777 0.017250653 4278866084
0.024731528 -0.039784163 0.022952687 4279587733
-0.02061522 0.00038068742 -0.012794614 4278735014
-0.01928826 0.0034276396 -0.015975203 4278604199
-0.017508842 0.0042900592 -0.017080754 4278800038
-0.015574098 0.0044246987 -0.017495554 4278735014
-0.013312791 0.0031047389 -0.016532298 4278931364
-0.010708928 0.00033138692 -0.014194503 4278800293
-0.008420743 -0.00098646432 -0.013236828 4278735268
-0.0068067573 0.0006037578 -0.015030501 4278735014
-0.00520337 0.002193287 -0.016821776 4278669479
-0.003257446 0.0023294017 -0.017238453 4278407083
0.010271437 -0.01149781 -0.0056553409 4278537898
0.015545102 -0.023687191 0.0055229217 4278735014
0.020909553 -0.035870075 0.016681854 4278931619
0.024187542 -0.040072329 0.020324327 4282668134
0.040231958 -0.043371908 0.021240413 4282602343
-0.022098262 -0.0042797029 -0.010783684 4282077809
-0.021206591 0.0009681955 -0.016031491 4278669479
-0.019731991 0.003293246 -0.01851486 4278735014
-0.01780016 0.0034275651 -0.018929128 4278800038
-0.013447057 0.0015079007 -0.017695317 4278669734
-0.011009786 -0.00054491311 -0.0160507 4278342058
-0.0090615563 -0.00040901452 -0.016468145 4278473128
-0.0072842985 0.00045599043 -0.017571185 4278604199
-0.0058597438 0.0027783811 -0.020043217 4278735013
-0.0037455671 0.0021852776 -0.019773591 4278669224
-0.0019841269 0.0030495599 -0.020873029 4278931364
0.0003172271 0.0017288327 -0.019921022 4279062179
0.0028136931 -0.00031901896 -0.018288467 4278996898
0.0058874302 -0.0045492724 -0.014612481 4278604199
0.010131635 -0.013143159 -0.0068533011 4278538919
0.01559438 -0.026097395 0.0049788766 4278735013
0.021153247 -0.039044723 0.016790602 4278735013
0.037104793 -0.042364828 0.017716054 4282405483
-0.022532124 -0.0044261739 -0.013335049 4281225089
-0.021644637 0.00083673745 -0.018570542 4278472618
-0.013744149 0.00064312667 -0.019543938 4278275759
-0.011475764 -0.00068497658 -0.018588688 4278538409
-0.0093648173 -0.001280807 -0.018320326 4278538664
-0.0074193217 -0.0011449903 -0.018737108 4278735014
-0.0056472793 -0.00027805567 -0.019837299 4278472874
-0.0040567219 0.001319468 -0.021619244 4278800038
-0.00018127635 0.0015908554 -0.022448853 4278472108
0.0026775785 -0.001924485 -0.019457467 4278668969
0.0055631697 -0.0054378957 -0.016471684 4278735014
0.0099918731 -0.014788203 -0.0080510397 4278669733
0.015643315 -0.028511636 0.0044318959 4278670243
-0.023263857 -0.0030938014 -0.017253913 4279718038
-0.022385895 0.0021837056 -0.022475906 4278537643
-0.01869626 0.0031852946 -0.023986328 4278800038
-0.013878155 -0.0009509027 -0.020704914 4278340784
-0.011775617 -0.001549691 -0.020436453 4278668969
-0.0098356828 -0.0014143884 -0.020852137 4278669224
-0.0078956671 -0.0012789369 -0.021267742 4278472874
-0.0059555769 -0.0011433885 -0.021683283 4278538154
-0.00049763545 0.00072931498 -0.024289835 4278337979
0.0056127012 -0.0077862963 -0.016969398 4278996134
0.010230869 -0.017897077 -0.0078915711 4278604199
0.015883954 -0.03166189 0.0045598634 4278604199
0.020470282 -0.041029289 0.012925737 4278604454
0.02862465 -0.039708816 0.010464232 4282602088
-0.023844935 -0.0024806038 -0.020474326 4278996899
-0.021213029 0.0036813766 -0.026778523 4278668968
-0.019300301 0.0038142949 -0.027188744 4278735013
-0.017067812 0.0024747029 -0.026232548 4278799783
-0.012240235 -0.0016737208 -0.022962848 4278472363
-0.010305773 -0.0015388057 -0.023377363 4278668968
-0.008541733 -0.00066819787 -0.024472665 4278603433
-0.00660979 -0.0005332157 -0.024886459 4278341293
-0.0034597255 0.0026771501 -0.028430484 4279324063
0.0054753795 -0.0094043463 -0.018147521 4278996134
0.010279959 -0.020280138 -0.0084151831 4278538408
0.015932018 -0.034086473 0.0040053464 4278603943
-0.025472619 -0.0064240694 -0.019165143 4282602599
-0.024871767 0.0003637746 -0.025736462 4278735269
-0.012704059 -0.0017887279 -0.025482595 4278341548
-0.01094272 -0.00091625005 -0.026575768 4278669224
-0.0091866553 -4.3980777e-05 -0.027667779 4278669224
-0.0058659427 0.0024370924 -0.030526189 4278537898
-0.0041283593 0.0033084303 -0.031613972 4278866083
-0.0016721077 0.0012313798 -0.029992539 4278604199
0.0011674985 -0.0023180917 -0.027021643 4278537898
0.0051517673 -0.010285452 -0.020001259 4278472365
0.010328712 -0.022667237 -0.0089417379 4278472873
0.016171405 -0.037251428 0.0041226037 4278800549
0.019983262 -0.043731026 0.0097487345 4279194268
-0.026190475 -0.005054906 -0.023060085 4281423224
-0.025301218 0.00026904792 -0.028250225 4278408103
-0.023540445 0.0011429414 -0.029342197 4278670244
-0.02178489 0.002016589 -0.030432953 4278669734
-0.019720986 0.0014082342 -0.030161452 4278931619
-0.017651659 0.00080035627 -0.029891036 4278407083
-0.01541476 -0.00054756552 -0.028942265 4278669479
-0.013167106 -0.0018945709 -0.027995752 4278735013
-0.011411078 -0.0010203198 -0.02908618 4278669479
-0.009830419 0.00059365481 -0.03085305 4278669479
0.0052008331 -0.012639493 -0.020503078 4278734759
0.010377118 -0.025058426 -0.0094712768 4279062689
0.015835643 -0.038209386 0.0022143461 4279062688
0.019060574 -0.042494111 0.0058091097 4278932128
-0.026760884 -0.0044116899 -0.026260806 4280898178
-0.025581278 -0.00056026876 -0.030076697 4278670243
-0.023671865 -0.00042783469 -0.030486397 4278801569
-0.021608401 -0.0010385439 -0.030216549 4278932128
-0.019696098 -0.00090567768 -0.030626696 4278997919
-0.017624412 -0.0015156046 -0.030358376 4278866593
-0.015709247 -0.0013823137 -0.030768963 4278932384
-0.013629381 -0.0019914061 -0.030502271 4278932384
-0.011878643 -0.001115337 -0.031589922 4278801058
-0.010303106 0.00050269067 -0.033352468 4278669733
-0.0087381639 0.0021200404 -0.035112612 4278735523
-0.0070085563 0.0029949918 -0.036195472 4278604454
-0.0049283393 0.0023865327 -0.035928398 4278669734
-0.0026621222 0.0010371506 -0.034988619 4278473128
0.00034794956 -0.0032762662 -0.031358089 4278539429
0.010047955 -0.025972016 -0.011347918 4278473638
0.015117729 -0.037681341 -0.001033444 4278670244
-0.02674713 -0.006739147 -0.026733181 4280766598
-0.025267251 -0.0043682456 -0.029183537 4278669734
-0.023349978 -0.0042352751 -0.029594934 4278473383
-0.02127884 -0.0048476458 -0.029328376 4278342569
-0.0085254982 -0.00093453377 -0.034905434 4278801059
-0.006790515 -5.7034194e-05 -0.035987817 4278932384
-0.004527539 -0.0014111102 -0.035050698 4278997918
-0.0027951077 -0.00053352863 -0.036132332 4278997918
0.00021369755 -0.0048601553 -0.03251138 4278736033
0.0043691136 -0.013643689 -0.024870902 4278736289
0.010096053 -0.028366961 -0.011880187 4278998429
0.014592053 -0.037882648 -0.0036015585 4279325849
-0.02644258 -0.010567039 -0.02585252 4280897414
-0.024954274 -0.0081890747 -0.028299745 4278801314
-0.02333096 -0.0065598637 -0.030066635 4278473894
-0.020950347 -0.0086695999 -0.028449569 4278276779
-0.019334808 -0.0070407018 -0.03021461 4278473383
-0.017412029 -0.0069070086 -0.03062693 4278538918
-0.015973862 -0.0045319125 -0.03306295 4278604453
-0.014058888 -0.0043985322 -0.033473425 4278736033
-0.011976942 -0.0050117299 -0.033210371 4278474149
-0.0098895803 -0.0056244358 -0.032948382 4278408104
-0.0079690553 -0.0054902956 -0.033359766 4278539174
-0.0062233657 -0.0046098679 -0.034442808 4278343079
-0.0025675818 -0.0035955384 -0.035934627 4278342569
-0.00010345131 -0.0056980699 -0.034334499 4278538919
0.0042325109 -0.015253596 -0.026043098 4278473384
0.0099555645 -0.030020721 -0.013084276 4278604454
0.01444898 -0.039564945 -0.0048263893 4280373388
-0.026139073 -0.014407836 -0.024981197 4281028738
-0.024938479 -0.010522284 -0.028777067 4278735779
-0.023462996 -0.0081385151 -0.031216592 4278604964
-0.021083072 -0.010254852 -0.029604301 4278604964
-0.019155204 -0.010120943 -0.030017808 4278867103
-0.017227247 -0.0099868923 -0.030431248 4278670499
-0.015944727 -0.0068555623 -0.033536639 4278408359
-0.013863187 -0.0074711069 -0.033275235 4278539429
-0.011776246 -0.00808613 -0.033014882 4278735778
-0.0093451068 -0.010198191 -0.031413026 4278473638
-0.0075861067 -0.009314768 -0.032497372 4278670244
-0.0058323815 -0.008431606 -0.033580501 4278408359
-0.0040839389 -0.0075486377 -0.034662444 4278342569
-0.0023407713 -0.0066659674 -0.035743125 4278473639
0.00012799352 -0.0087747499 -0.03414885 4278604453
0.0042813122 -0.017610781 -0.026547218 4278604453
0.0098151024 -0.031674184 -0.014288148 4278735779
0.01430594 -0.041246928 -0.0060509853 4281487738
-0.026417434 -0.015251085 -0.026818581 4280635529
-0.025070876 -0.012107186 -0.029931612 4278670244
-0.02359499 -0.0097168609 -0.032366328 4278670244
-0.021368966 -0.011087753 -0.031431902 4278539429
-0.019443907 -0.010954045 -0.031844821 4278604964
-0.017360225 -0.011571877 -0.031585705 4278539429
-0.015915919 -0.0091832653 -0.034013283 4278473894
-0.013668183 -0.01055216 -0.033083148 4278670243
-0.011576235 -0.011169046 -0.032825526 4278670243
-0.0091404803 -0.013287276 -0.031229617 4278604708
-0.0073761158 -0.012401305 -0.032313477 4278539173
-0.0054424852 -0.012266137 -0.032727581 4278408103
-0.003863208 -0.010630116 -0.034477536 4278539174
-0.0021146685 -0.0097449049 -0.035557739 4278670243
0.00017618388 -0.011109874 -0.034636229 4278801313
0.0043297932 -0.019972079 -0.027054256 4278867104
0.0092989337 -0.031828105 -0.016823158 4278933149
0.013781853 -0.041429728 -0.0086055659 4281357944
-0.026405349 -0.017599195 -0.027306093 4279914899
-0.025055528 -0.014446378 -0.030413294 4278670243
-0.023275867 -0.013558187 -0.031499557 4278670244
-0.021195397 -0.014178663 -0.031241572 4278801314
-0.019265153 -0.014044598 -0.031655606 4278736033
-0.017176479 -0.014664277 -0.031399217 4278802080
-0.015404396 -0.013776109 -0.03248347 4278867104
-0.013473883 -0.013641663 -0.032897297 4278801313
-0.011543281 -0.013507076 -0.033311028 4278735778
-0.0094436035 -0.014125496 -0.033056621 4278670243
-0.007510189 -0.013990469 -0.03347078 4278604708
-0.0057510659 -0.013102584 -0.034551799 4278342568
-0.0041742288 -0.011462383 -0.036297962 4278539174
-0.0022486486 -0.011327542 -0.036710169 4278604708
4.1678548e-05 -0.012696899 -0.035791818 4278604708
0.0040078759 -0.020833403 -0.028893666 4278801313
0.0087835416 -0.031972937 -0.019351549 4279063199
0.01344889 -0.042355053 -0.010490008 4282471784
-0.025814235 -0.022979334 -0.025110016 4280635528
-0.024303012 -0.020573638 -0.027542612 4279522710
-0.022507314 -0.019682154 -0.028630687 4279129243
-0.020564009 -0.019547306 -0.02904761 4279063453
-0.018776096 -0.018656127 -0.030133842 4278867103
-0.016677093 -0.019277267 -0.029881297 4278670499
-0.014733482 -0.019142039 -0.030298015 4278735778
-0.012789786 -0.019006692 -0.030714674 4278670244
-0.010846015 -0.018871211 -0.031131251 4278604709
-0.0090709887 -0.017980292 -0.032214232 4278473894
-0.0074727349 -0.016334452 -0.033961944 4278670499
-0.0057109147 -0.015444204 -0.035041917 4278604708
-0.0039543658 -0.01455418 -0.036120649 4278604708
-0.0022031069 -0.013664417 -0.037198167 4278604708
8.9365989e-05 -0.015037999 -0.036283549 4278670244
0.0040560439 -0.023198478 -0.029403465 4278735779
0.0088314153 -0.034370668 -0.019885849 4278932383
-0.015705168 -0.026182227 -0.026374346 4283254889
-0.013743065 -0.026045717 -0.026795046 4282992239
-0.011944182 -0.025151186 -0.027881747 4282140028
-0.010150544 -0.024256922 -0.028967185 4281092234
-0.0086994581 -0.021847852 -0.031381216 4280241554
-0.0069216751 -0.020954452 -0.03246307 4280110994
-0.0053231344 -0.019304164 -0.034207448 4279521943
-0.0035585575 -0.01841142 -0.035286278 4279325338
-0.0017992705 -0.017518871 -0.036363922 4278867104
0.00068265572 -0.019652896 -0.034792099 4278801313
0.0046577863 -0.027836673 -0.027931834 4278998174
0.0088789444 -0.036772445 -0.020423103 4279391893
0.012784161 -0.044191547 -0.014248651 4282667878
-0.0056875423 -0.028629705 -0.028325798 4282793085
-0.0038936622 -0.027732894 -0.029409381 4283057008
-0.0022815317 -0.026077107 -0.031153331 4282728568
-0.00050088018 -0.025180951 -0.032233886 4282401913
0.0018198788 -0.026561297 -0.031331822 4281353863
0.0054425523 -0.033250786 -0.025812827 4281551234
0.0091132503 -0.039936699 -0.020304035 4282339183
0.012380457 -0.045491569 -0.026624028 4282733158
0.013470501 -0.043923266 -0.030851521 4281946484
-0.038209982 -0.034263641 -0.041783459 4282405483
-0.012621179 -0.037237152 -0.045724563 4281553018
-0.012918849 -0.038044788 -0.047530062 4282339948
