# .PCD v0.7 - Point Cloud Data file format
VERSION 0.7
FIELDS x y z rgba
SIZE 4 4 4 4
TYPE F F F U
COUNT 1 1 1 1
WIDTH 584
HEIGHT 1
VIEWPOINT 0 0 0 1 0 0 0
POINTS 584
DATA ascii
-0.014531534 -0.02889391 -0.0028772056 4286985539
-0.014667008 -0.030534096 -0.004075218 4287379768
-0.01495219 -0.031416655 -0.0059425989 4287313978
0.011144888 0.0075288713 0.011384668 4281691484
0.014075223 0.0041222423 0.01444591 4280976209
0.01836909 -0.0042432025 0.022369245 4280847433
0.023501677 -0.015438013 0.033058368 4281174599
0.028916145 -0.02733513 0.044423863 4281239879
-0.002278775 0.010768592 0.0071165208 4279796323
-0.00013967231 0.010191962 0.0073998924 4279927904
0.0018301122 0.010327786 0.0069850627 4280191063
0.0037999637 0.01046373 0.0065703038 4280587333
0.0050495081 0.013446249 0.0033715367 4280325703
0.0055466667 0.019273147 -0.0026044883 4281044804
0.0071137212 0.020829692 -0.0044020452 4280198969
0.0096106455 0.018830322 -0.0027256794 4280459324
0.014222234 0.0090124905 0.0065788738 4279610174
0.020262875 -0.0057749003 0.02072023 4279610174
0.02661193 -0.021264888 0.035530694 4278633013
0.031885792 -0.032484643 0.046163991 4280980034
-0.0063788593 0.017592669 -0.0020169094 4279410508
-0.0041056648 0.016296789 -0.0010312069 4279998794
-0.0018217042 0.015001677 -4.7668815e-05 4280586823
-5.0667673e-05 0.015850008 -0.0011529382 4280718404
0.0015378445 0.017412096 -0.0029520281 4280980033
0.0029358305 0.019687325 -0.0054431614 4280132924
0.0037700832 0.024102516 -0.010012457 4280785213
0.0053133182 0.025661789 -0.011801712 4281371203
0.0077855028 0.023654133 -0.010125078 4281305414
0.011989132 0.01523 -0.0022222083 4281109574
0.017996356 0.00039441139 0.011891669 4281109574
0.024507739 -0.015858687 0.027364073 4281109574
0.030148994 -0.028540492 0.039358281 4280979268
0.034074895 -0.034804516 0.045123167 4281174344
-0.013003442 0.0097291395 0.0040355604 4280516698
-0.012156229 0.014885724 -0.0012580063 4280322898
-0.011346307 0.020039804 -0.0065435916 4279803464
-0.010246322 0.023757227 -0.010428868 4279672648
-0.0081748068 0.023171335 -0.010134723 4280065604
-0.0031570047 0.018418133 -0.0060771555 4280654144
-0.0015789978 0.019983724 -0.0078707859 4280915518
-0.00018867105 0.02226492 -0.010355504 4281046333
0.00154512 0.023113057 -0.011451138 4279937848
0.0027264245 0.02610844 -0.014622325 4279676983
0.0044415966 0.026955515 -0.015713872 4281175363
0.0069024153 0.024940483 -0.014039731 4280654143
0.010712173 0.017919794 -0.007534977 4279806524
0.015347755 0.0080425739 0.0017186012 4280067388
0.021624245 -0.0075485855 0.016472021 4280067388
0.028018335 -0.023131408 0.031200772 4280719168
0.032921202 -0.032989733 0.040398419 4281110339
0.035861146 -0.0356993 0.042702928 4280977994
-0.014225122 0.01316034 -0.0020126551 4281172303
-0.013711791 0.019770339 -0.0086824372 4280719424
-0.012603104 0.023499139 -0.012561435 4281110338
-0.011194032 0.025787618 -0.015045593 4281371714
-0.0089700148 0.024479412 -0.014056176 4281045824
-0.0065663792 0.022453137 -0.012375483 4280784703
-0.0043181665 0.021146849 -0.011391049 4280524859
-0.0025817677 0.021997139 -0.012485752 4280850238
-0.0010275282 0.023565583 -0.014271067 4280915518
0.00069561973 0.024415176 -0.015362816 4280915009
0.0024134815 0.025264509 -0.016453369 4279742264
0.0043109059 0.025395736 -0.016852664 4279285048
0.0065834783 0.024091799 -0.015872857 4280262973
0.0098179094 0.019201323 -0.011450397 4280393279
0.013282679 0.013596289 -0.0063473443 4280979778
0.018550366 0.001540482 0.004937252 4280849729
0.025891392 -0.017678089 0.023075556 4280849729
0.031769387 -0.031152681 0.035689935 4280849729
0.035305858 -0.036021583 0.040049337 4281108044
-0.014512356 0.012290202 -0.0038701613 4281433934
-0.014158163 0.019641615 -0.011219027 4280913988
-0.013214704 0.02410274 -0.015782436 4279547188
-0.011486579 0.024954192 -0.016874088 4280003893
-0.0095977224 0.025084063 -0.017272154 4279807798
-0.0070341192 0.022329479 -0.014902731 4279286579
-0.0049630888 0.021739379 -0.01461163 4280916029
-0.0030606501 0.021870524 -0.015012307 4280785214
-0.0015115105 0.023442931 -0.016793227 4280915520
0.00020634383 0.024294324 -0.017882228 4280915009
0.0021009296 0.024425257 -0.018280998 4280980799
0.0041802488 0.023836277 -0.017991228 4281045568
0.0062649474 0.023247764 -0.017702514 4281110593
0.0087351091 0.021220393 -0.016040107 4281045569
0.011414038 0.018474765 -0.013694217 4280783428
0.016068239 0.0085377917 -0.0044904593 4280783428
0.023372058 -0.010742299 0.013611337 4280783428
0.030418716 -0.0285744 0.030312641 4280913733
0.034751315 -0.036334731 0.037402362 4281109829
0.037288003 -0.03762392 0.038324021 4282150994
-0.014178667 0.0085277036 -0.0029519964 4281890384
-0.014445964 0.018797912 -0.013056498 4280913989
-0.013664685 0.023995876 -0.018301638 4280326979
-0.011778716 0.024125434 -0.018699182 4280523073
-0.0098926686 0.024255104 -0.019096663 4280784193
-0.0076695718 0.022938237 -0.018113595 4280980289
-0.0056068636 0.022345312 -0.017822351 4281111104
-0.0035387501 0.021752931 -0.017532196 4280980799
-0.0014652386 0.02116102 -0.017243104 4281045823
0.00061367825 0.020569585 -0.016955072 4280850238
0.0025161393 0.020701058 -0.017355504 4280981308
0.0044186376 0.020832635 -0.017755864 4281046333
0.006133996 0.021686368 -0.018842457 4281046079
0.0076541752 0.023261704 -0.020613575 4280198969
0.0099338032 0.021949738 -0.019641655 4279612724
0.013590556 0.015588164 -0.013879502 4280199224
0.020659309 -0.0030321777 0.0035017133 4280199479
0.028067555 -0.022363849 0.02153731 4280199479
0.033384666 -0.033755071 0.032030299 4280329018
0.036316577 -0.036491238 0.034316905 4281632324
-0.013381194 0.0025730208 3.1128526e-05 4282018649
-0.014260523 0.015780114 -0.01281789 4281109318
-0.013633043 0.021719873 -0.018743237 4280392003
-0.011581581 0.021123692 -0.018451566 4280784194
-0.010021579 0.02270513 -0.02022855 4280914755
-0.0081355795 0.022834904 -0.02062594 4281045059
-0.0062495135 0.022964783 -0.021023268 4281110849
-0.0038424432 0.020919271 -0.019357948 4280980033
-0.0017719232 0.020324945 -0.019069882 4281045568
0.00030399859 0.019731134 -0.01878285 4281111614
0.0020219982 0.020587012 -0.019868521 4281111868
0.0039190203 0.020718202 -0.02026774 4280981308
0.0054420717 0.022298038 -0.022036305 4280850748
0.0069544613 0.023877181 -0.023802515 4279156528
0.009033218 0.023284122 -0.023515666 4280133179
0.012287455 0.018349379 -0.019131696 4280134709
0.017951386 0.0047353804 -0.0065659862 4279939378
0.025319757 -0.014658004 0.011433667 4279939378
0.03120813 -0.028256178 0.023952374 4279158058
0.035346657 -0.035340674 0.030322848 4281437759
-0.012276318 -0.0048650056 0.0043749753 4282018649
-0.013603456 0.010568418 -0.010517583 4281629264
-0.013281509 0.017983176 -0.01781035 4280587078
-0.011873461 0.020297721 -0.020274635 4280718914
-0.010315895 0.021883354 -0.022047827 4280849473
-0.0087689497 0.023468398 -0.023818744 4278374189
-0.0070618205 0.024325233 -0.024900841 4279417139
-0.0046661198 0.022272378 -0.023238059 4279026224
-0.0022543482 0.020220786 -0.021578617 4280655163
-0.00018408149 0.019624338 -0.021292007 4281177148
0.0013471395 0.021208875 -0.023059184 4281241918
0.0030518621 0.022066116 -0.024140345 4280981309
0.0045644604 0.023649529 -0.025903404 4279938869
0.0060663931 0.025232367 -0.02766416 4281306433
0.0081341416 0.024636358 -0.027376642 4281305923
0.010986583 0.021137297 -0.02436447 4280915008
0.015840817 0.010383196 -0.014549219 4280915008
0.022376619 -0.0061692744 0.00069161691 4280915008
0.029035315 -0.022713065 0.015906723 4281045058
0.034172729 -0.033447072 0.025662696 4281305924
0.037724726 -0.038375713 0.029973017 4281565004
-0.011328906 -0.011606991 0.0080050975 4281953623
-0.012948167 0.0053350776 -0.008233102 4282150484
-0.013090957 0.014964119 -0.017574033 4281108553
-0.012002338 0.01874616 -0.021407725 4280849729
-0.010775086 0.021796383 -0.024549732 4280980544
-0.0094011724 0.024115294 -0.027001694 4281046079
-0.0075314045 0.02424404 -0.027395595 4281176384
-0.0049684606 0.021454677 -0.02505216 4278830638
-0.002735991 0.02012565 -0.024080692 4280916029
-0.00085001811 0.020255849 -0.024477756 4281112379
0.0004921183 0.022573188 -0.026922638 4281111614
0.0021862052 0.023431875 -0.027999919 4280850748
0.0036883503 0.02501893 -0.029757492 4279286579
0.0053691305 0.025876917 -0.030831808 4280263484
0.0074285455 0.025278151 -0.030544171 4280588609
0.010271911 0.021767549 -0.0275383 4280784449
0.014325926 0.013891578 -0.020462437 4280328253
0.019438688 0.0023812503 -0.010005321 4280393278
0.026258236 -0.014943153 0.0058589503 4280393278
0.03279534 -0.030803867 0.020341234 4280784193
0.036953885 -0.037930474 0.02667479 4281369928
0.039480396 -0.039237514 0.02758562 4282022473
-0.012137588 -0.00065273046 -0.005278334 4282411349
-0.013060827 0.012669191 -0.018029386 4281760078
-0.012780827 0.020124838 -0.025280461 4281241918
-0.011563655 0.02318304 -0.028413743 4280719678
-0.010032278 0.024775721 -0.030174838 4281110849
-0.007829804 0.023440003 -0.029200453 4281175874
-0.0057896897 0.022836916 -0.028911002 4281176385
-0.003392648 0.020771205 -0.027258314 4280395064
-0.0016932599 0.021632195 -0.028335255 4281111613
8.2701445e-07 0.022492953 -0.029410973 4281046845
0.0015058331 0.024084449 -0.031165961 4280915518
0.0031866319 0.024944548 -0.03223877 4280720189
0.0044838823 0.027265623 -0.034668986 4280393789
0.0069158599 0.025203004 -0.033023141 4280393278
0.009558361 0.022411317 -0.030702328 4280653633
0.013010787 0.016700879 -0.02567531 4280653379
0.016905565 0.0095337331 -0.019303022 4280913733
0.023485992 -0.0071158558 -0.0041469391 4280913734
0.030804744 -0.02594538 0.013011338 4280913734
0.035768524 -0.036012992 0.022035597 4281240644
0.03828115 -0.037325352 0.022946069 4281175363
-0.011329148 -0.0066666007 -0.002342524 4282149718
-0.012871463 0.0096353814 -0.017803848 4282281809
-0.01307112 0.019317307 -0.027090074 4281174853
-0.012350731 0.024587579 -0.03226478 4279481909
-0.010662243 0.0254496 -0.033338159 4280263994
-0.0086385272 0.024843033 -0.033046942 4280458813
-0.0062635988 0.022769138 -0.031394612 4280133689
-0.0040481575 0.021430157 -0.030426081 4280068918
-0.0021784902 0.021559231 -0.030819718 4281046843
-0.00048970804 0.022421777 -0.031892702 4280980544
0.0015609674 0.021817692 -0.031606767 4281046079
0.0032444857 0.022680111 -0.032678466 4280849219
0.0049226843 0.02354233 -0.033748996 4281110083
0.0069787838 0.022938922 -0.033463903 4281240643
0.0094287917 0.020871133 -0.031826682 4281305668
0.012288738 0.017339982 -0.02884062 4281240389
0.015774272 0.011614516 -0.023833591 4281109573
0.021730052 -0.0028907508 -0.010736318 4281109573
0.02922743 -0.022510514 0.007059209 4281044804
0.034792673 -0.034804776 0.018086454 4281044804
0.03813532 -0.039047696 0.021688981 4281044804
-0.012204662 0.0043819025 -0.015537526 4282477649
-0.013198975 0.017777599 -0.028214514 4281305413
-0.012806889 0.024536617 -0.034740396 4280720698
-0.011458457 0.026873384 -0.037172243 4280393023
-0.0092757009 0.025527608 -0.036200333 4280654144
-0.0070821978 0.024182677 -0.035230596 4280654144
-0.0043517463 0.020630687 -0.032226145 4281176129
-0.0023068227 0.0200238 -0.031940814 4281045568
-0.00025651604 0.019417375 -0.031656545 4281110083
0.0017991699 0.018811449 -0.031373315 4281175619
0.0038602389 0.018206015 -0.031091129 4281109828
0.0059266835 0.017601021 -0.030809943 4281109829
0.0079984739 0.016996562 -0.030529831 4281044293
0.010075629 0.016392596 -0.030250765 4281174344
0.012748426 0.013585679 -0.027949363 4281173324
0.015642032 0.010046095 -0.02497847 4281238094
0.021796089 -0.005237177 -0.011239829 4281238094
0.028881418 -0.023448147 0.0051663741 4281238093
0.034440678 -0.035779893 0.016166991 4281238093
0.037779383 -0.040036142 0.019760525 4281433933
-0.011221234 -0.0023717135 -0.011925528 4282607699
-0.012355614 0.011803798 -0.025257818 4282022474
-0.012275066 0.020061381 -0.033131808 4280915775
-0.010915551 0.022405498 -0.035561115 4280521034
-0.0090623647 0.022533052 -0.035951562 4280716619
-0.0068640187 0.021184057 -0.034986082 4281175364
-0.0043045059 0.018359631 -0.032668114 4281240134
-0.0019014701 0.01627481 -0.031031374 4281109573
0.00033709034 0.014928922 -0.03007412 4281044293
0.002586361 0.013583943 -0.029119056 4281044038
0.0046604462 0.012977228 -0.02884125 4280913479
0.0069284886 0.011633739 -0.027889922 4280978759
0.0088247396 0.011765227 -0.028288715 4281044038
0.010914914 0.011159971 -0.02801403 4281109063
0.01320703 0.0098185241 -0.027067486 4281304648
0.016306829 0.0055320263 -0.023433985 4281434445
0.022265604 -0.0090602264 -0.010402932 4281368908
0.029149573 -0.026589379 0.0052904524 4281368908
0.034296341 -0.037486196 0.014921581 4281499724
0.037423845 -0.041019887 0.017835507 4281368908
-0.010558348 -0.0076728165 -0.0096940016 4282149208
-0.011676054 0.0065452158 -0.022998609 4281109063
-0.011744663 0.015568905 -0.031535812 4280978248
-0.010374065 0.017920308 -0.033962548 4280585803
-0.0083406381 0.017307855 -0.033678308 4280585294
-0.0063018203 0.016695909 -0.033395175 4280649808
-0.003732495 0.013863444 -0.03108583 4280652103
-0.0013194755 0.011772774 -0.029456113 4280848199
0.0011096299 0.0096832663 -0.027829662 4280978758
0.0033717416 0.0083348155 -0.026880585 4281043783
0.0052731447 0.0084664077 -0.027280651 4281044294
0.0073629655 0.0078586712 -0.027007662 4280979269
0.0092670843 0.0079906881 -0.027408119 4281174598
0.011364939 0.0073837936 -0.027136683 4281304903
0.013468146 0.0067773908 -0.026866283 4281434954
0.016572032 0.0024781227 -0.02324347 4281630540
0.022532308 -0.012157679 -0.010245479 4281695564
0.029212611 -0.029000789 0.0047388375 4281695564
0.034152027 -0.039192185 0.013676399 4281629773
0.037068695 -0.041998923 0.015913935 4281564238
-0.0111598 0.0020085275 -0.021432225 4282412623
-0.01105151 0.010315932 -0.029276032 4281369164
-0.0093334764 0.011188626 -0.030349061 4281303883
-0.0074512027 0.011318177 -0.03074564 4281108298
-0.0053966902 0.010705143 -0.030467447 4281108554
-0.003336776 0.010092594 -0.030190304 4281043018
-0.00091642886 0.0079958215 -0.02856702 4281173578
0.0013397895 0.0066424906 -0.027620073 4281239369
0.0036067404 0.0052899718 -0.02667525 4281174343
0.0055133328 0.0054219142 -0.027076412 4281174343
0.0076081567 0.0048123896 -0.026806153 4281175364
0.0093265958 0.0056861788 -0.027878467 4281240644
0.011426795 0.0050772727 -0.027609162 4281370948
0.013532335 0.0044688508 -0.027340896 4281435209
0.016637648 0.0001565516 -0.023728175 4281630795
0.022395181 -0.013782203 -0.011431272 4281630539
0.028866841 -0.029935211 0.0028482825 4281630539
0.033800833 -0.040157482 0.011764036 4281630029
0.036713924 -0.042973191 0.013995761 4281759059
-0.010967586 -0.0010541677 -0.021229086 4282543184
-0.010524128 0.0057867989 -0.027706811 4281891148
-0.0089620464 0.0074076951 -0.029454742 4281434699
-0.0069025792 0.0067926496 -0.029179279 4281369673
-0.0048377104 0.0061781332 -0.028904922 4281435464
-0.0027674511 0.0055641383 -0.02863159 4281435209
-0.00069179013 0.0049506277 -0.028359301 4281304393
0.0015692599 0.003593199 -0.027416624 4281239368
0.0036583431 0.0029808506 -0.027146995 4281173833
0.0057528056 0.0023689941 -0.026878398 4281109318
0.0074766055 0.0032452196 -0.027950287 4281109828
0.0093857683 0.0033776015 -0.028351795 4281240644
0.011681657 0.0020232424 -0.027416022 4281305414
0.013988242 0.00066971779 -0.026482353 4281435464
0.017100297 -0.0036551282 -0.022880921 4281566279
0.022258075 -0.015406407 -0.012616846 4281434698
0.028521467 -0.030864984 0.00096117705 4281434698
0.033243332 -0.040375635 0.0091893505 4281499469
0.035940804 -0.042458177 0.010750601 4282410839
-0.011098344 -0.0026296377 -0.022379665 4281755999
-0.010653395 0.0042310208 -0.028842967 4281564238
-0.0087581389 0.0043613464 -0.029242374 4281436483
-0.0068628117 0.0044917762 -0.029641721 4281435719
-0.0047956072 0.0038752407 -0.029369485 4281305158
-0.0028974898 0.0040061027 -0.029769238 4281370439
-0.00064500794 0.0026436225 -0.028828114 4281303883
0.0014383681 0.0020285547 -0.028559018 4281369164
0.0037096106 0.00066766143 -0.027621705 4281238603
0.0058064125 5.3808093e-05 -0.027355229 4281239879
0.0079085864 -0.00055963546 -0.027089771 4280979013
0.010587621 -0.0034099668 -0.02482265 4281044293
0.013288025 -0.0062586144 -0.022559961 4281305414
0.015813965 -0.0083602965 -0.020968081 4281893189
0.019149978 -0.013441734 -0.016715907 4281826634
0.023529273 -0.022245713 -0.0091448948 4281106514
0.028380344 -0.032534897 -0.00025769882 4281171794
0.032480065 -0.039839953 0.0059570726 4281171029
-0.010291755 0.0004260242 -0.027964104 4281497939
-0.0088875256 0.002805829 -0.030378301 4281435973
-0.0069923438 0.0029362515 -0.030777615 4281305158
-0.0045822039 0.00081891567 -0.029167116 4281566279
-0.0023302957 -0.00054804981 -0.028229289 4281500234
0.00010931864 -0.0026631206 -0.026624817 4281369164
0.0025649853 -0.004776895 -0.025023671 4281173324
0.0048544109 -0.0061409473 -0.024093421 4281172559
0.0077094845 -0.0097491965 -0.021164062 4281302608
0.010215972 -0.011859104 -0.019573346 4281237074
0.013309477 -0.016211793 -0.015987903 4280976464
0.016049044 -0.019066513 -0.013739973 4281564238
0.019005634 -0.022667229 -0.010831598 4281954898
0.022187252 -0.027013369 -0.0072644325 4282410583
-0.01009462 -0.0026397556 -0.027764644 4281367124
-0.0081863143 -0.0025085807 -0.028166838 4281435208
-0.0059403814 -0.0038805529 -0.027231207 4281304649
-0.0033408105 -0.006754674 -0.024961131 4281370439
-0.00071982294 -0.0096271709 -0.022695456 4281501254
0.0022761412 -0.014000297 -0.019099865 4282283083
0.0047658198 -0.016118303 -0.017510742 4282347599
0.0072715543 -0.01823508 -0.015924912 4282542163
-0.0087553523 -0.010993563 -0.022892602 4281627478
-0.0064913258 -0.012368806 -0.021964174 4281694034
-0.0038793534 -0.015250906 -0.019703355 4281563983
-0.0014172234 -0.017377742 -0.018113643 4282152779
0.0015827678 -0.021763772 -0.014528815 4282806089
0.0044382475 -0.025394164 -0.011616215 4283328584
0.0061809234 -0.0080390498 0.058510825 4281552254
0.008633811 -0.0092699006 0.059498273 4280437393
0.012142021 -0.014627762 0.064775825 4279651483
0.00083729252 -0.005921267 0.053835168 4281684088
0.0017698035 -0.00094205141 0.048385814 4278338488
0.0033392124 0.0012724623 0.045804024 4278403003
0.006091278 -0.0013464615 0.048225932 4278404023
-0.012452949 -0.0057301894 0.052353024 4280634509
-0.010670152 -0.0041994005 0.050479397 4279192229
-0.0079839118 -0.0068323687 0.052908093 4279323043
-0.0057411492 -0.0073827803 0.053184062 4279849363
-0.0039659515 -0.0058522299 0.051312245 4278931873
-0.0026823916 -0.0022424385 0.047297843 4278276014
-0.0015884787 0.0020587072 0.042574704 4278602669
-2.9440969e-05 0.0042790025 0.03999991 4279192228
0.0018504038 0.0051127896 0.03885515 4279324828
0.0078526884 -0.0022212788 0.04582724 4278734248
0.012750249 -0.013153143 0.05677589 4278996899
-0.018284719 -0.010659643 0.055290155 4281422458
-0.017324198 -0.0049423277 0.0491101 4278800294
-0.01626214 7.557869e-05 0.04365585 4278471344
-0.0080514811 0.00063835829 0.041924179 4278865318
-0.0061559714 0.001474984 0.040777445 4278800039
-0.0045860223 0.0037023351 0.038205169 4278602923
-0.00099738315 0.0060687363 0.035207577 4278733995
0.0010373369 0.0062088296 0.034778923 4279192738
0.0035847537 0.0042647347 0.036483675 4278799528
0.0066688992 0.00023817271 0.040316775 4278274738
0.011018703 -0.0086468607 0.04911311 4278668968
0.016153643 -0.020303763 0.060732558 4278407084
-0.020090181 -0.0039923713 0.045436561 4279128223
-0.019160386 0.0017402992 0.039276123 4278472618
-0.017697383 0.0046749339 0.03598538 4278865318
-0.015962359 0.006211035 0.034128286 4279127713
-0.014088567 0.0070480481 0.03298755 4279126948
-0.011308186 0.0036953315 0.036128692 4278864553
-0.0088102259 0.0017406568 0.037838474 4278602924
-0.0067680366 0.0018808469 0.037407927 4278930854
-0.005365666 0.0048119575 0.03413038 4278734248
-0.0036592744 0.0063466728 0.03227976 4278275504
0.0058340542 0.0013307557 0.03624367 4278668713
0.0094665326 -0.0047972575 0.04218784 4278735013
0.014576834 -0.016493119 0.053784534 4278669478
-0.020645399 -0.0035842583 0.042053737 4279915153
-0.019863378 0.0028665587 0.035193793 4278407339
-0.0094130039 0.0021606311 0.034477063 4278472363
-0.0073789582 0.0023002401 0.034048215 4278668968
-0.0056644045 0.0038397387 0.032199122 4278603689
-0.0037979595 0.0046789572 0.031061886 4278800294
-0.0017715953 0.0048183426 0.030634889 4278996644
0.00042269006 0.0042584613 0.030916443 4278669224
0.0024519078 0.0043982491 0.030488996 4278603943
0.0050007142 0.0024412423 0.03218361 4278800549
0.0080931783 -0.0016109347 0.03599526 4278800804
0.012824481 -0.01194831 0.046156183 4278931618
-0.020369988 -0.0073840693 0.042959139 4280505479
-0.020142119 0.0019006059 0.033261925 4278801058
-0.018978428 0.0062582567 0.028562976 4278603688
-0.016969111 0.0063957423 0.028139019 4278930854
-0.014661778 0.0051277056 0.029136704 4278668203
-0.012343619 0.0038604662 0.030132225 4278996388
-0.010014635 0.0025941059 0.031125495 4278865318
-0.0078317709 0.0020308197 0.03140749 4278800038
-0.0058030896 0.0021701381 0.030979829 4278734759
-0.003936585 0.0030115321 0.029844211 4278734759
-0.0019103549 0.0031508878 0.029417226 4278734503
0.00028362125 0.0025887787 0.029697197 4278668969
0.016584117 -0.020532481 0.051498219 4278340529
-0.019543353 -0.014019839 0.04670091 4282077554
-0.019857474 -0.0018830076 0.03417708 4280046224
-0.018971637 0.0038991421 0.028065393 4278538664
-0.016959757 0.0040367842 0.027640888 4278341548
-0.014947742 0.004174538 0.027216425 4278668713
-0.012935586 0.004312396 0.026792007 4278602669
-0.0084405951 0.002474986 0.028065855 4278471599
-0.0062606148 0.0019094422 0.028346831 4278668968
-0.004237283 0.002048485 0.027920367 4278341548
-0.0020490624 0.0014837161 0.028199771 4278603178
-0.00019031763 0.0023268983 0.027067618 4278275249
0.001322899 0.0045769662 0.024527235 4278274994
0.0031657778 0.0054192692 0.023398584 4278864299
0.01444912 -0.014545731 0.042497829 4278536879
0.019475875 -0.025643378 0.053287819 4278734503
-0.018857088 -0.019978084 0.049710542 4282077809
-0.019292783 -0.0070950761 0.036501355 4280701829
-0.018535469 -0.00058685988 0.02969099 4278735013
-0.016950723 0.0016737208 0.027139748 4278406828
-0.015233289 0.0032260492 0.025299555 4278275249
-0.011522271 0.0049151629 0.023039008 4278271679
-0.0048614182 0.0025027916 0.024590382 4278734503
-0.0028461404 0.0026413649 0.024165677 4278734249
0.00067487359 0.0050360933 0.021207215 4278340019
0.0025097765 0.0058800131 0.020081868 4279389854
0.0052158721 0.0031967685 0.022467474 4279127713
0.0084773377 -0.001600571 0.026952883 4278799783
0.012860123 -0.010625325 0.035635479 4278275759
0.017129155 -0.0189403 0.043603197 4278734760
0.021090431 -0.025841482 0.050158136 4278866083
-0.018172916 -0.02596242 0.052701101 4281881204
-0.018870201 -0.011618853 0.038102098 4280045969
-0.018672872 -0.0022509918 0.028475473 4279194013
-0.017379124 0.0014353469 0.02451597 4278471854
-0.015815195 0.0037011355 0.021974107 4278471854
-0.01396504 0.004547447 0.020846548 4279062178
-0.011966363 0.0046844333 0.020425016 4278734758
-0.0098111816 0.0041126758 0.020707825 4278667949
-0.0074914433 0.0028326586 0.021693328 4278602414
-0.0054844096 0.0029705316 0.021270266 4278865318
-0.0036416873 0.003816843 0.020144669 4278931108
0.0072708018 0.00097056478 0.021532385 4278405809
0.010732733 -0.0045477748 0.026701318 4278800293
0.013871249 -0.0086490139 0.030464055 4278473893
0.017227672 -0.013454735 0.034918159 4279261078
-0.018449001 -0.016159907 0.039690226 4279652248
-0.018810201 -0.0039148107 0.027260179 4279390619
-0.017806746 0.0012060776 0.021898838 4278537898
-0.01440287 0.0043261647 0.018238099 4278799528
-0.012256138 0.0037515014 0.018520949 4278406064
-0.0077873692 0.0018927008 0.019785596 4278274739
-0.0061062686 0.0034518167 0.017959962 4278734504
-0.0045999847 0.0057207868 0.01543569 4278800548
-0.0029427484 0.0072784722 0.013615252 4278800549
-0.00078736246 0.0067050457 0.013896758 4279063199
0.0012011938 0.0068420768 0.013477908 4279194014
0.003539674 0.0055595934 0.014456635 4278932129
0.0058889054 0.004278034 0.015433149 4279063198
0.0080686174 0.0037067086 0.01570986 4278867868
0.0093390085 0.0066820234 0.012500262 4279196819
-0.018169206 -0.020003855 0.040561199 4280045458
-0.018947486 -0.0055783615 0.026045075 4280307089
-0.018233605 0.00098592043 0.019288274 4278800548
-0.0084002912 0.0023836568 0.016480224 4278930854
-0.0073725022 0.0067981631 0.011859691 4278866083
-0.0062126108 0.010497883 0.0079453792 4279195034
-0.017470967 -0.026010431 0.043531403 4280964224
-0.018514715 -0.010107122 0.027639398 4281029248
-0.018224154 -0.0013737604 0.018789569 4279194014
-0.016962659 0.0023431852 0.014861541 4278538154
-0.015125711 0.0031950623 0.013741648 4279062178
-0.013140801 0.0033310354 0.013322959 4278801313
-0.011155751 0.0034671351 0.012904337 4278933913
-0.016914457 -0.03132426 0.045781292 4282668134
-0.017514065 -0.017527513 0.032023869 4281553529
-0.017925035 -0.0051743537 0.019688146 4279784083
-0.01665476 -0.0014459193 0.01576647 4278800804
-0.015260737 0.0015627891 0.012549469 4278603434
-0.013734959 0.0038523078 0.010035465 4278606238
-0.016800534 -0.023541145 0.034984678 4281881203
-0.017192531 -0.011149593 0.022672871 4281487993
-0.016052935 -0.0066886991 0.018057888 4279194523
-0.014945257 -0.0022298992 0.013449708 4278472873
-0.014022332 0.0029469281 0.0081514958 4280048264
-0.016514976 -0.02741193 0.035834044 4282667114
-0.016606774 -0.016428106 0.02494164 4281553274
-0.015600178 -0.011230551 0.019637125 4279784338
-0.014330905 -0.0074802712 0.015732126 4278538665
-0.0138514 -0.00012049079 0.0083566681 4280114309
-0.016022783 -0.021728255 0.027194588 4281422204
-0.015148807 -0.015789665 0.021203751 4281356669
-0.013718296 -0.012752309 0.017998712 4280176528
-0.013376225 -0.0046452582 0.0099428687 4278932383
-0.015729066 -0.025595687 0.028044326 4281749623
-0.014992725 -0.01891198 0.021371452 4281291388
-0.013406668 -0.016592368 0.018864332 4280701318
-0.012597907 -0.010640524 0.012900503 4279587989
-0.015580457 -0.02874662 0.028192552 4282273393
-0.014690537 -0.022771992 0.022224544 4281422203
-0.012946669 -0.021174267 0.020411482 4281291389
-0.011821728 -0.016661838 0.015839105 4280571269
-0.014389399 -0.026644833 0.023068191 4282273393
-0.012786534 -0.024311021 0.020567341 4281487739
-0.011199582 -0.02197814 0.018069884 4281226109
-0.014382072 -0.029063419 0.022525823 4282797674
-0.012627091 -0.027456209 0.020716963 4281487739
-0.011034388 -0.025116444 0.018223261 4281160319
-0.01069279 -0.016913325 0.010239722 4281098864
-0.013063814 -0.027667508 0.018115735 4281487738
-0.011172969 -0.026792362 0.016999191 4280635783
-0.010366868 -0.020770833 0.01108847 4281160574
-0.013351094 -0.028607488 0.016205711 4281684088
-0.011311505 -0.028467953 0.015775351 4280700808
-0.010041993 -0.024641179 0.011927823 4281553529
-0.013340916 -0.031022713 0.015665049 4282730354
-0.011601198 -0.029403403 0.013869299 4281618043
-0.010179725 -0.026305526 0.010712238 4281487738
-0.0095621422 -0.019511774 0.0041533019 4281882733
-0.012041472 -0.029592201 0.011285925 4281684089
-0.010471102 -0.027227685 0.0088166222 4281487739
-0.0093856715 -0.022639327 0.0043117255 4281685364
-0.028554019 -0.031622224 0.012814505 4282797929
-0.012631793 -0.0290277 0.0080299377 4282273139
-0.011069044 -0.026657231 0.0055671856 4281684089
-0.0096783601 -0.023543872 0.0024297722 4281356923
-0.013220988 -0.028449774 0.0047838241 4282731628
-0.01197248 -0.024580911 0.00097347051 4281422204
-0.010438599 -0.022205725 -0.0014782324 4280963714
-0.010665771 -0.011627436 -0.011361572 4281295213
-0.012874071 -0.022482336 -0.0036040097 4281356159
-0.011508923 -0.019353323 -0.006722942 4280439178
-0.011274327 -0.01098951 -0.014557551 4280178313
-0.0134679 -0.021862656 -0.006817583 4281879418
-0.01226582 -0.017975077 -0.010601681 4280308618
-0.011248615 -0.013338968 -0.01505284 4279850639
-0.013907842 -0.021982275 -0.0093490891 4282862698
-0.012865774 -0.01733157 -0.013795722 4280374154
-0.011855647 -0.012682922 -0.018235516 4279916684
-0.012843598 -0.019693717 -0.014299616 4280504969
-0.011829853 -0.015031755 -0.018730354 4279391129
-0.010526862 -0.011880666 -0.021816373 4280571780
-0.012666669 -0.022816934 -0.014137987 4281290878
-0.011488903 -0.018898249 -0.017892309 4279850128
-0.0096961074 -0.018007621 -0.018971544 4279458194
-0.0074193291 -0.019386508 -0.018049132 4281687913
-0.0082265846 -0.027195707 -0.01348259 4282014314
-0.011603653 -0.03562507 -0.034277733 4282601833
-0.0098211616 -0.034709021 -0.035335079 4282601834
-0.012209862 -0.034862332 -0.037380472 4282208368
-0.015777681 -0.033416815 -0.045584735 4282340204
-0.016346242 -0.034958825 -0.049152251 4281684854
-0.039079819 -0.032224357 -0.055192433 4281879929
-0.039330062 -0.032955177 -0.056954868 4282143343
-0.020130686 -0.034092382 -0.059013717 4282274414
-0.020409163 -0.034827001 -0.060771607 4282208879
-0.020687278 -0.035557024 -0.062526122 4280372878
