# .PCD v0.7 - Point Cloud Data file format
VERSION 0.7
FIELDS x y z rgba
SIZE 4 4 4 4
TYPE F F F U
COUNT 1 1 1 1
WIDTH 848
HEIGHT 1
VIEWPOINT 0 0 0 1 0 0 0
POINTS 848
DATA ascii
-0.013309274 -0.027155779 0.00097924285 4286660158
-0.011628766 -0.023969866 -0.0020045582 4288033844
-0.0099696852 -0.020784952 -0.0049849125 4287445049
-0.013494898 -0.028000928 -0.00092090853 4286659648
-0.011731606 -0.025579073 -0.00323282 4288296749
-0.0099843331 -0.02315788 -0.0055421535 4287772979
-0.0081626214 -0.021509655 -0.0071848533 4287379259
-0.0064447336 -0.019089736 -0.009489377 4287116608
-0.013680223 -0.028841503 -0.0028174985 4286855999
-0.011919353 -0.026413344 -0.0051240381 4288362794
-0.0099992342 -0.025534824 -0.0061024558 4287904049
-0.0081746988 -0.023882158 -0.0077422797 4287838258
-0.0061747544 -0.023778357 -0.008056486 4287903283
-0.0043661483 -0.022126213 -0.0096936356 4287771959
-0.0024697818 -0.021248497 -0.010667926 4287314234
-0.013947342 -0.028900541 -0.0053725485 4286920513
-0.012021977 -0.028019793 -0.0063501988 4287903284
-0.010101866 -0.027139127 -0.007326955 4287838258
-0.0081870295 -0.026258692 -0.0083027724 4287838004
-0.0060916282 -0.026931129 -0.0079571139 4287772979
-0.0042775087 -0.025274463 -0.0095917676 4287968563
-0.0022774749 -0.025170423 -0.0099058058 4287838003
-0.00047930703 -0.023514293 -0.011537803 4287968818
0.0013081841 -0.02185864 -0.013167993 4287379259
-0.012039911 -0.030404888 -0.0069162231 4287379004
-0.010029744 -0.030300803 -0.0072322395 4287510329
-0.0082896538 -0.02786056 -0.0095253792 4287444793
-0.0062873103 -0.027756646 -0.0098399762 4287379769
-0.0042848624 -0.027652614 -0.010154502 4287380024
-0.0022822805 -0.027548432 -0.010468936 4287838003
-0.00048128515 -0.025887914 -0.01209802 4287968563
0.0013090111 -0.024227791 -0.013725365 4288034099
0.0030886419 -0.022568129 -0.015350888 4287706168
0.0048575811 -0.020908855 -0.016974675 4287510074
-0.0083922334 -0.029462159 -0.010747777 4286986558
-0.0062974356 -0.03013894 -0.010405371 4287052093
-0.0042924322 -0.030034758 -0.010720288 4287248698
-0.0023853369 -0.029150054 -0.011691274 4287772468
-0.00058423728 -0.027485259 -0.013317043 4287706933
0.0012062006 -0.025820836 -0.014941083 4287772215
0.0031981431 -0.025716856 -0.015253576 4287902774
0.0048638023 -0.023273192 -0.017529299 4287968309
0.0066248551 -0.021609917 -0.019148422 4287903539
0.0086035728 -0.02150625 -0.019458545 4287445049
-0.006585259 -0.030176707 -0.012939835 4286659139
-0.0043954588 -0.03163825 -0.011944076 4287183929
-0.0023905002 -0.031533949 -0.012258893 4287183419
-0.00058658049 -0.029864706 -0.013881778 4287379513
0.0012066774 -0.028195843 -0.015502924 4287641144
0.0032011457 -0.028091736 -0.015815819 4287772215
0.0048697554 -0.025641493 -0.018087016 4288164913
0.0067449845 -0.024755694 -0.01905085 4288427308
0.0088429712 -0.025433458 -0.018709837 4287903284
0.011296645 -0.028455578 -0.01641495 4287248954
0.013174769 -0.027569175 -0.017378969 4286267204
-0.0025913753 -0.032352433 -0.014135269 4287116354
-0.00058916956 -0.032248177 -0.014449576 4287116609
0.001310017 -0.031359352 -0.015415801 4287117373
0.0032039061 -0.030470677 -0.016381091 4287379259
0.0047669597 -0.027229674 -0.019298965 4288687664
0.0065309443 -0.02555766 -0.020911885 4287641654
0.0087398477 -0.027021654 -0.019921733 4287510329
0.011309396 -0.030836113 -0.016983507 4287248954
0.013548076 -0.032298252 -0.01599787 4286921788
-0.0010934658 -0.030701995 -0.018274387 4287050818
0.0010008924 -0.031384759 -0.017936533 4287312704
0.0029950552 -0.031280667 -0.018249376 4286920768
0.0048809238 -0.030390158 -0.019211659 4287510329
0.0066504218 -0.028713606 -0.020822091 4287706679
0.0088642724 -0.030181587 -0.019836074 4287575608
0.011088975 -0.031648926 -0.018851629 4287182908
0.013324521 -0.033115506 -0.017868815 4286659393
0.0044531934 -0.029616661 -0.022370039 4286855234
0.0063256584 -0.028724514 -0.023328478 4287313213
0.0085336752 -0.030197136 -0.022344848 4287247679
0.010752533 -0.031669043 -0.021362865 4286855234
0.0061122552 -0.029517055 -0.025182256 4287181633
0.008317139 -0.03099414 -0.024201469 4287704638
-0.020021413 0.018166721 0.042592961 4280979778
-0.017910253 0.017566219 0.042991396 4280850494
-0.024128225 0.015611976 0.04270244 4282543693
-0.022864681 0.023511961 0.034491487 4281176384
-0.021148931 0.026449852 0.031308297 4280589118
-0.019151565 0.026553497 0.030994471 4281370694
-0.016604852 0.021700092 0.035693135 4280652614
-0.013695557 0.014016695 0.043248426 4280588609
-0.026529241 0.01671382 0.03890726 4282282574
-0.025043059 0.022505805 0.032859817 4281436484
-0.023389194 0.026163377 0.028966248 4278829619
-0.02168918 0.029109053 0.0257922 4280719424
-0.019708116 0.029211812 0.025480904 4281305924
-0.017570239 0.027893994 0.026598494 4280262208
-0.015016321 0.023025915 0.031284284 4280132668
-0.012257006 0.016739786 0.03739132 4280914499
-0.0094489045 0.010456279 0.043490767 4281109828
-0.0065029152 0.0034656376 0.050295331 4281371204
-0.0039618053 2.605468e-05 0.05353003 4281566023
-0.029154975 0.020687945 0.032260988 4282608463
-0.027538661 0.025070705 0.027656503 4281503294
-0.025617611 0.025886603 0.026629388 4280850238
-0.023771826 0.027415261 0.024889089 4280655674
-0.022082169 0.030368987 0.02172333 4279221554
-0.020036537 0.02975852 0.022126891 4279807799
-0.017985303 0.029148389 0.02252968 4279741753
-0.015605014 0.025689222 0.025780931 4280588863
-0.013281111 0.02294378 0.028316088 4280653634
-0.011107985 0.021623731 0.029424913 4281046588
-0.009012837 0.02101627 0.029821038 4281437758
-0.0070037954 0.02112098 0.029505733 4279678259
-0.0040508993 0.014109246 0.036292568 4280784959
-0.00017016754 0.0006967634 0.049459085 4280915518
-0.031439092 0.021121234 0.029204987 4282347343
-0.029999722 0.027663771 0.022468157 4280525623
-0.028027806 0.027765643 0.022157978 4280853809
-0.025921207 0.026437134 0.023273438 4281178424
-0.023943458 0.026539482 0.022962477 4281242429
-0.022183437 0.028786741 0.02051568 4281046845
-0.020138044 0.028174061 0.020917576 4280981054
-0.018165093 0.028276406 0.020607561 4280785213
-0.01586904 0.025520742 0.023140285 4280850238
-0.013634648 0.023480676 0.024959423 4280981054
-0.011728395 0.024298541 0.023936749 4280785214
-0.010093864 0.027258534 0.020786744 4280851514
-0.0084807687 0.030217513 0.01764017 4281435718
-0.0060410388 0.026751079 0.020874042 4280915008
-0.002701778 0.016862988 0.030476898 4280069174
0.00091252849 0.0055518672 0.041483395 4280458813
0.0045110546 -0.0050412118 0.051769055 4281175874
-0.033367816 0.017261088 0.030433685 4281827144
-0.032131206 0.026695907 0.020856932 4279286834
-0.030470837 0.030385826 0.016987175 4280524603
-0.026290987 0.027718302 0.019216467 4280851768
-0.024114754 0.025668263 0.021039348 4281242939
-0.022212129 0.026487656 0.020018499 4281177149
-0.0201643 0.025872856 0.020418342 4280915774
-0.018188756 0.025975294 0.020107891 4280980799
-0.016051855 0.024644472 0.021215506 4280850494
-0.014153864 0.025463931 0.020195704 4281176383
-0.012261074 0.026283227 0.0191768 4280199479
-0.010639619 0.029251155 0.016035523 4280068664
-0.0088567995 0.030785825 0.014312317 4281502273
-0.0067082606 0.029456016 0.015418497 4281371458
-0.0039680116 0.0238318 0.020761885 4280915008
-0.00088595599 0.016062833 0.028216675 4280394299
0.002562236 0.0061503649 0.037779123 4280785214
0.0065057538 -0.0066197589 0.050150573 4281242174
-0.03552692 0.016268611 0.028808817 4282672724
-0.034031805 0.022852644 0.022093169 4281372479
-0.032467257 0.027994346 0.016806703 4280980289
-0.030693959 0.030254792 0.014367594 4281567299
-0.028679591 0.029635757 0.014770673 4281176384
-0.026458722 0.026858404 0.017301414 4280916283
-0.024285708 0.024801724 0.019119695 4281046843
-0.02224103 0.024184465 0.019518252 4281242684
-0.020340871 0.025005937 0.018499509 4280981309
-0.01844592 0.025827177 0.017481688 4280785468
-0.016556162 0.026648253 0.016464766 4281046078
-0.014754776 0.028187845 0.014741792 4281111359
-0.012706477 0.02757128 0.015140097 4280915773
-0.010918248 0.029110428 0.013419299 4278831404
-0.0089581721 0.029212486 0.0131116 4279547954
-0.0069039799 0.028596465 0.013509233 4280069173
-0.0043609925 0.024390779 0.017430138 4280265269
-0.0014874004 0.018033259 0.023459233 4281047354
0.0018431507 0.0088074282 0.032296665 4281307198
0.0058725774 -0.0047201514 0.04534445 4281307198
-0.036268931 0.023330562 0.019062523 4281305923
-0.034524862 0.026320972 0.015914489 4280003384
-0.032802131 0.029310327 0.012769922 4280849219
-0.030855041 0.029410679 0.01246347 4281175874
-0.028907727 0.02951115 0.012157061 4280589884
-0.026692931 0.026724838 0.014681975 4279874354
-0.024595369 0.025382869 0.015788782 4281177148
-0.022559036 0.024763025 0.016186904 4281177404
-0.020666938 0.025586151 0.01517111 4281111613
-0.019012902 0.028572619 0.012037783 4280720699
-0.017139312 0.029394981 0.01102505 4280459068
-0.015187938 0.029496279 0.010718483 4280850238
-0.012979265 0.027435463 0.012526526 4281046078
-0.011019465 0.027537387 0.012218784 4280916028
-0.0090594999 0.027639415 0.011911086 4281111614
-0.0069117583 0.026300877 0.013010642 4280981563
-0.0041739978 0.020641916 0.018327564 4281046844
-0.0011944659 0.013545252 0.025043242 4281240644
0.0021449365 0.0042917803 0.03385748 4281240644
0.006286975 -0.0099961907 0.047574043 4281369419
-0.038134966 0.018749692 0.021000624 4281433679
-0.036475535 0.023198865 0.016439166 4281175364
-0.034736421 0.026197612 0.013298574 4280784194
-0.032960061 0.028471041 0.010868859 4280197694
-0.031015757 0.028571229 0.010562827 4279999559
-0.029007282 0.027947437 0.01096345 4280197439
-0.026859816 0.025876313 0.012775573 4280916794
-0.024765346 0.024529815 0.013879477 4281242173
-0.022804048 0.024631225 0.013571038 4281046843
-0.021066885 0.026903167 0.0111479 4280980799
-0.019423198 0.029897694 0.0080228755 4278570028
-0.017560396 0.030721616 0.0070134765 4279090484
-0.013080295 0.025862761 0.011326232 4280263484
-0.011032332 0.025241837 0.011721293 4280980798
-0.0091607757 0.026066624 0.010710767 4281177659
-0.0067324154 0.022556275 0.013912815 4281046333
-0.0038914271 0.016158022 0.019916743 4281111614
-0.0007044673 0.007595785 0.028016396 4281111358
0.0025474094 -0.00096298009 0.036105946 4281370695
0.0064910762 -0.01384978 0.048386849 4281760334
-0.038084429 0.014979817 0.021908686 4281040979
-0.036310073 0.017988883 0.018769149 4281241919
-0.034612808 0.021723531 0.014926811 4281307199
-0.032883804 0.024730422 0.011794536 4281371204
-0.030992698 0.025557287 0.01078184 4281305924
-0.029042911 0.025657803 0.010474977 4281177149
-0.027026374 0.025032364 0.010872665 4281111358
-0.025004234 0.024407297 0.011269537 4281177404
-0.023048442 0.024508394 0.010961934 4280917049
-0.021316383 0.026786469 0.0085446378 4280916284
-0.019755002 0.03051487 0.0047241999 4280785978
-0.017820228 0.030615143 0.0044201175 4281175873
-0.015554357 0.027814649 0.0069240211 4278830129
-0.013181273 0.024290301 0.010126117 4280524094
-0.011045437 0.02294226 0.011220661 4280784958
-0.0091711544 0.023769282 0.0102114 4281111614
-0.0065538548 0.018798903 0.014805309 4280979778
-0.0036099218 0.011657044 0.021492943 4280978758
-0.00031504408 0.0023449585 0.030270495 4281107534
0.0028468929 -0.0055148378 0.037639044 4282086479
0.0064857118 -0.016267844 0.047792751 4282412368
-0.037883956 0.0090101063 0.02492328 4281499214
-0.036092978 0.012028612 0.021787778 4281173324
-0.034378957 0.015774854 0.017951138 4281305924
-0.032633353 0.018791199 0.014822922 4281110339
-0.030909088 0.021806538 0.011698133 4281436228
-0.028951328 0.021907404 0.011389975 4281503039
-0.027126174 0.023464814 0.0096761277 4281307453
-0.025173407 0.023565613 0.0093688993 4281242429
-0.023292225 0.024394453 0.0083596958 4280981309
-0.021490771 0.025950953 0.0066497466 4279873078
-0.019931506 0.029689945 0.0028380184 4281110593
-0.017999548 0.029790066 0.0025343662 4281240643
-0.015819628 0.027708098 0.0043317461 4280849729
-0.01345278 0.024172612 0.0075264303 4280002109
-0.011234742 0.022092827 0.0093179839 4280981053
-0.0089096762 0.019287072 0.011806046 4280849474
-0.0063760765 0.015028842 0.015688106 4280979013
-0.0034255497 0.0078657195 0.022357941 4279866703
-0.00042090937 0.00070551038 0.029019367 4280582233
0.0026378632 -0.0064517707 0.035672378 4281888598
0.0061675422 -0.016511142 0.045104746 4282215254
-0.037885409 0.0059395358 0.0251032 4281565258
-0.03598303 0.0075047612 0.023380101 4281108299
-0.034202185 0.010531418 0.020252928 4281239879
-0.032442655 0.013557054 0.017129175 4281501508
-0.030643594 0.015850991 0.014710964 4281437249
-0.028860498 0.018144257 0.012295305 4281110849
-0.02709337 0.020436779 0.0098822182 4281175363
-0.025342215 0.022728533 0.0074717598 4281242429
-0.02346373 0.023559347 0.0064646183 4281112123
-0.021813538 0.026579916 0.0033585103 4280654653
-0.020184729 0.029599462 0.00025583245 4279872313
-0.018258292 0.029699244 -4.6990812e-05 4279675963
-0.016084332 0.027610511 0.0017462419 4279806524
-0.013638515 0.023334451 0.0056318035 4280393024
-0.011335868 0.020518728 0.008116628 4281176128
-0.0087398253 0.015516885 0.012690312 4281371204
-0.0062923543 0.011975057 0.015864167 4279801679
-0.0035298578 0.0062482059 0.021123532 4279536733
-0.00092134997 0.0019811615 0.024983898 4280254558
0.0018210448 -0.0030127019 0.029534973 4280711009
0.0047054105 -0.0087328255 0.034775428 4281102434
0.0075263493 -0.013722368 0.039314345 4281691229
-0.03793731 0.0035939738 0.024574548 4282020688
-0.036032069 0.0051636398 0.022854328 4281369418
-0.034192745 0.0074658915 0.020434618 4281370184
-0.032195214 0.0075685456 0.020119987 4281435719
-0.030440424 0.010602631 0.017003726 4281240389
-0.028706994 0.013635702 0.013890889 4281305414
-0.027061056 0.017400317 0.010081935 4281108809
-0.025235388 0.018966436 0.0083746752 4281045059
-0.023420323 0.020532064 0.0066691963 4281175364
-0.02183852 0.024293646 0.0028705476 4280718150
-0.020283502 0.028053939 -0.00092381239 4280849218
-0.018277574 0.027421847 -0.00052919891 4280979778
-0.016101439 0.025326684 0.001258688 4280849219
-0.013568874 0.020306207 0.0058304509 4280979523
-0.011173803 0.016750649 0.0090039922 4280846413
-0.0085707568 0.011733986 0.013564874 4279406683
-0.0063022263 0.0096440762 0.01533853 4279470688
-0.037939589 0.0005088523 0.024743263 4281955409
-0.036133844 0.0035538599 0.021625414 4281369419
-0.034183789 0.0043920428 0.020609863 4281435208
-0.032238897 0.0052300468 0.019595191 4281370183
-0.030420374 0.0075379014 0.017183859 4281370439
-0.028681118 0.010579869 0.014076774 4281500743
-0.026897233 0.012886077 0.011671075 4281239879
-0.025060628 0.014457047 0.0099654133 4281044803
-0.023306001 0.016761944 0.007564473 4280980288
-0.021641452 0.019800425 0.0044694385 4280262464
-0.020075087 0.023572072 0.00068164337 4280979524
-0.01821759 0.024406396 -0.00031870883 4281045313
-0.015954424 0.021571107 0.0021587284 4281110084
-0.013499718 0.017269559 0.0060227579 4280848963
-0.011012506 0.012969829 0.0098817023 4279214158
-0.037743594 -0.0055354759 0.027700841 4281824593
-0.036078397 -0.00026836246 0.022491887 4281565003
-0.03417531 0.0013097748 0.020778749 4281631049
-0.032282788 0.0028875247 0.01906731 4281304903
-0.030400801 0.0044647604 0.017357636 4281500998
-0.028592575 0.0067785978 0.014952977 4281436484
-0.026734445 0.0083548054 0.013247206 4281370948
-0.024886895 0.0099306107 0.011543139 4281305923
-0.023049947 0.011505924 0.0098408619 4281109829
-0.021297533 0.013817288 0.0074452972 4281044803
-0.019637775 0.016864233 0.0043577673 4280782663
-0.017840717 0.01843778 0.0026619909 4280782919
-0.015726123 0.017066747 0.0037428057 4280781899
-0.013261598 0.012752794 0.0075951936 4279732573
-0.033837687 -0.0062183663 0.025119077 4281431383
-0.03221162 -0.00093800575 0.019928116 4281434699
-0.030442063 0.0021225959 0.016829513 4281566023
-0.028630849 0.0044430271 0.014429378 4281500489
-0.026704144 0.0052846298 0.013421088 4281501508
-0.02485105 0.0068649575 0.011719513 4281435973
-0.023008559 0.008444868 0.010019635 4281240388
-0.021102834 0.0092856959 0.0090148831 4281044294
-0.01935536 0.011603341 0.0066251615 4280783428
-0.017465454 0.012443542 0.005623051 4280586568
-0.015498888 0.012545384 0.0053139096 4280585549
-0.013193745 0.0096950755 0.0077714073 4279993183
-0.03006218 -0.0054140016 0.021155015 4281630283
-0.028417762 -0.00086196512 0.016676247 4281303119
-0.026674334 0.0022060648 0.013588564 4281304138
-0.024883974 0.0045320317 0.01119691 4281566788
-0.023109604 0.0068572834 0.0088077942 4281435973
-0.021203887 0.0077002347 0.0078046927 4281044548
-0.019303363 0.0085430071 0.0068024816 4280849219
-0.017329004 0.0086451098 0.0064920047 4280782918
-0.015354481 0.0087473318 0.0061815819 4280782663
-0.013210844 0.0073692501 0.0072512003 4279864918
-0.011143427 0.0067318901 0.0076295966 4279731808
-0.028205995 -0.0061882809 0.018906832 4282607189
-0.026645001 -0.00088087469 0.013749705 4281561943
-0.024917107 0.0021950677 0.010671229 4281172049
-0.023139764 0.0045269132 0.0082866335 4281174853
-0.021157805 0.0046291873 0.007974782 4281110593
-0.019251879 0.0054743662 0.0069733793 4280979268
-0.017351191 0.0063193887 0.0059728725 4280913989
-0.015455712 0.0071642324 0.0049732598 4280912714
-0.013481144 0.0072665438 0.0046629021 4280061013
-0.024882462 -0.00089131296 0.010831679 4280712028
-0.023028728 0.0007019937 0.0091400472 4281040979
-0.021185618 0.002294831 0.0074501419 4281239623
-0.019353088 0.0038872883 0.0057619652 4281045058
-0.017531168 0.0054792687 0.0040755803 4280979524
-0.015638392 0.0063261464 0.0030780071 4280976719
-0.013666663 0.0064282864 0.0027680704 4279471709
-0.019378286 0.0015533864 0.0052370848 4280908124
-0.017553542 0.0031497702 0.0035535628 4281369673
-0.015820753 0.0054926202 0.0011862973 4280908889
-0.017654624 0.0015654266 0.002344246 4280645474
0.0031430423 -0.00016734749 0.023795653 4278870929
0.0052854083 -0.00079136342 0.024169691 4279195543
0.0076518878 -0.0028755292 0.025928468 4281291898
0.010818768 -0.010069914 0.032531343 4282471528
0.001895979 0.0062607899 0.014938344 4278866849
0.01626562 -0.020299353 0.038891386 4280503439
-0.0026121326 0.0073841885 0.011575782 4278278563
-0.00061740354 0.0074882433 0.011262796 4278867103
0.0011701919 0.0090622455 0.0095692417 4278472109
0.0051494353 0.0092703775 0.0089453002 4278997153
0.013813097 -0.0073034093 0.023838885 4278668459
0.016943738 -0.013802171 0.029707655 4279718294
0.019877996 -0.018830404 0.034194108 4278801058
-0.0049005039 0.0071562156 0.0092886249 4278737819
-0.0030095167 0.0079972148 0.0082869167 4278998428
-0.001023028 0.00810083 0.0079752179 4278539173
0.0027379319 0.0097823068 0.005975469 4278668204
0.0047193766 0.0098859891 0.0056648152 4279325083
0.0070356987 0.0077797845 0.007416469 4278800293
0.0095968992 0.0042015538 0.010539622 4278668713
0.012302164 -0.00011152774 0.014345174 4278603688
0.014800545 -0.0029503331 0.016773455 4278800804
0.017198209 -0.005051814 0.018512718 4278998429
0.019737232 -0.0078882501 0.020934816 4279653523
0.022681288 -0.012930833 0.025408208 4281750388
-0.0051936768 0.0070411935 0.0066952119 4278670753
-0.0014277808 0.0087267384 0.0046977205 4278407593
0.011495754 0.0027013049 0.0090008164 4278472363
0.013499025 0.0028065667 0.0086870743 4278603689
0.015380129 0.003650181 0.0076893503 4278537898
0.017380841 0.0037555471 0.0073761949 4278668714
0.026975669 -0.015845165 0.024861362 4278404023
-0.0077413656 0.0090581104 0.0023579868 4279392658
-0.005771596 0.0091606006 0.0020487076 4278342568
-0.0038016923 0.0092631951 0.0017394917 4278276523
-0.0017311461 0.0086243823 0.0021161409 4278407338
0.00013848394 0.0094687492 0.0011212649 4278603943
0.0021087527 0.0095716938 0.00081224553 4278669478
0.0040791258 0.0096747652 0.00050330721 4278800294
0.0063835196 0.0075549781 0.0022467757 4278800038
0.0088182278 0.0046953261 0.0046714498 4278734503
0.01104119 0.003318347 0.0057262713 4278865829
0.012916815 0.0041637123 0.0047309855 4278406828
0.014664996 0.0057493225 0.0030542063 4278406573
0.018639203 0.0059586689 0.002432202 4279126438
0.028126705 -0.012958713 0.01918776 4278471088
0.031152382 -0.018026732 0.023625366 4281553019
0.034497894 -0.024571478 0.029416062 4282208113
-0.0099018775 0.0081214234 0.00077669229 4279588499
-0.0082119294 0.010456026 -0.0015885066 4278276269
-6.6597015e-05 0.0086335912 -0.00076722633 4278864808
0.0019008331 0.008736372 -0.001075807 4278735013
0.0040852986 0.0073527172 -1.8571503e-05 4278931619
0.0062806718 0.0059697032 0.0010370845 4278604454
0.0084869266 0.0045874044 0.0020910734 4278735268
0.010470938 0.0046915188 0.0017802501 4278538919
0.012335759 0.0055384561 0.00078831334 4278472108
0.015800081 0.0087167323 -0.0025535086 4278734504
0.017898235 0.0080783144 -0.0021819966 4279062944
0.020522114 0.0044716299 0.00090678874 4278342058
0.023438565 -0.00061745197 0.0053495476 4278734504
0.026121926 -0.0042207092 0.008429178 4278538408
0.028694149 -0.0070807114 0.010826441 4278866593
0.031569727 -0.011422582 0.014576036 4278801568
0.034908425 -0.017986961 0.020352829 4280112779
0.038003214 -0.023066051 0.024768215 4281554038
-0.026718166 -0.0055844113 0.012676717 4282733414
-0.024984051 -0.0024909675 0.0096105905 4279522964
-0.023130175 -0.00089337677 0.0079222554 4279393169
-0.012143027 0.0079363585 -0.0014864979 4279063963
-0.010271352 0.0087846145 -0.002478837 4278603944
-0.006828282 0.012718998 -0.006510796 4278733993
-0.00027135015 0.0078030452 -0.002652186 4278733738
0.0019044951 0.0064145029 -0.0015970459 4278538664
0.0041995756 0.0042811558 0.00013773981 4278866339
0.0062888861 0.0036394149 0.00050841551 4278473128
0.0080425069 0.0052335486 -0.0011628149 4278538919
0.0097854137 0.0068272948 -0.0028323131 4278342313
0.011755858 0.0069307834 -0.0031409441 4278931364
0.024797756 0.00085800141 0.0011020498 4278538408
0.027068928 -0.0005241856 0.0021433877 4278735268
0.029491626 -0.0026493743 0.003859234 4278604453
0.032073986 -0.0055172071 0.0062484266 4279063199
0.03482407 -0.0091272295 0.0093096374 4278997154
0.038494099 -0.017195627 0.016416125 4281028994
0.042223517 -0.025260679 0.02351341 4281880438
-0.026690025 -0.0086920932 0.012822005 4282667624
-0.025085572 -0.0040903166 0.0083897235 4279063708
-0.023161132 -0.003238 0.0073901871 4278998683
-0.021315027 -0.0016364381 0.0057064658 4279392148
-0.019403692 -0.00078459084 0.0047091572 4279655309
-0.014288444 0.0070121735 -0.0030611446 4279001489
-0.012330297 0.0071136728 -0.0033689002 4278604709
-0.0087816007 0.010310777 -0.0067126886 4278406573
-0.0070232265 0.011908717 -0.0083819758 4278997154
-0.0048859306 0.010513447 -0.0073243701 4279127459
-0.002637621 0.0083708912 -0.0055875732 4278733993
-0.0004757978 0.0069771335 -0.0045336327 4278275504
0.0016969331 0.0055840984 -0.0034813574 4278735269
0.0039887428 0.0034440979 -0.0017510885 4278735269
0.0060750805 0.0028000399 -0.0013816161 4278538663
0.0075989589 0.0058930367 -0.0044066003 4278669479
0.0092176162 0.0082378238 -0.0067498297 4278604199
0.011058137 0.0090877712 -0.0077346326 4278603944
0.013015017 0.0091906711 -0.0080410447 4278407083
0.015096348 0.0085469186 -0.0076703546 4278341295
0.01966472 0.0050211921 -0.0049026338 4278407083
0.02190299 0.0036327317 -0.003859668 4278734759
0.024152081 0.0022449791 -0.0028183712 4278931618
0.026136253 0.00235001 -0.0031285165 4278800548
0.027979866 0.0032010749 -0.0041130697 4278407338
0.032380849 0.0011745766 -0.0027110493 4278405299
0.046140138 -0.025968187 0.020910423 4280766344
0.049345948 -0.031070866 0.025285516 4282667879
-0.026727278 -0.011056073 0.012276168 4282274669
-0.025119442 -0.0064412728 0.0078533972 4279129499
-0.023262601 -0.0048349425 0.006171179 4278801568
-0.021343362 -0.0039806664 0.0051741945 4279128989
-0.019429345 -0.0031265542 0.0041781114 4278998429
-0.017677289 -0.00076995045 0.0018177228 4279129754
-0.016022336 0.002337113 -0.0012222165 4279063708
-0.014556322 0.0069452301 -0.0056221755 4278998174
-0.012776662 0.0085481927 -0.0072916993 4278931363
-0.010918472 0.0094000101 -0.0082786102 4278472618
-0.00067992881 0.0061558783 -0.0064115925 4278407083
0.0015950464 0.0040084198 -0.0046837842 4278800548
0.0035621412 0.0041112676 -0.0049922587 4278341803
0.0053078495 0.0057134554 -0.0066556735 4278865829
0.010956086 0.007520631 -0.0089304056 4278930853
0.012669735 0.0091216192 -0.010588424 4278735013
0.014993861 0.0069775879 -0.0088677425 4278669989
0.01708037 0.0063320324 -0.0084993979 4278866084
0.019561235 0.0034410283 -0.0061082272 4278866084
0.02153438 0.0035452321 -0.0064168414 4278735013
0.023507573 0.00364957 -0.0067253588 4278669734
0.025343057 0.0045022145 -0.0077070771 4278341803
0.027032733 0.0061027557 -0.0093607148 4278603435
0.028854765 0.0069549531 -0.010340123 4278931363
0.030671397 0.007806994 -0.011318664 4279128224
0.03337387 0.0041730255 -0.0082666343 4278668203
0.03685952 -0.0031969175 -0.0018628128 4278734759
0.040245213 -0.0098164752 0.0038618958 4279128733
0.044149373 -0.018674888 0.011590111 4279456663
0.048277639 -0.028276853 0.019978251 4279325593
-0.026764762 -0.013424076 0.011727252 4281750643
-0.025153529 -0.0087962225 0.0073139397 4279063199
-0.023223702 -0.0079393759 0.0063168583 4278866594
-0.021299075 -0.0070826635 0.0053206263 4278998174
-0.019455191 -0.005472526 0.0036440017 4279063453
-0.017621938 -0.0038628355 0.0019691186 4278801568
-0.015880253 -0.0015002191 -0.00038456172 4278670498
-0.012876552 0.0069881082 -0.0084824283 4278734759
-0.011107389 0.0085949674 -0.010146925 4278997154
-0.0091654249 0.0086958036 -0.010451999 4278931619
-0.0071288981 0.0080441162 -0.010078616 4278931363
-0.0051839836 0.0081453174 -0.010383985 4278669479
-0.0030393116 0.0067419037 -0.0093341498 4278603943
-0.00098624453 0.0060914382 -0.0089630922 4278735013
0.0011775382 0.0046892762 -0.0079161255 4278800548
0.0030284971 0.0055435896 -0.0088996077 4278341803
0.012689248 0.0068078861 -0.011106486 4278276523
0.014891405 0.0054085627 -0.010064899 4278604198
0.01685081 0.005511798 -0.01037155 4278604198
0.019198775 0.003362745 -0.0086593879 4278407593
0.021298576 0.0027160123 -0.0082946597 4278604454
0.022999126 0.0043211952 -0.0099468408 4278407594
0.024826504 0.0051755682 -0.010925624 4278341293
0.028036144 0.0091340989 -0.01489276 4279192993
0.029693585 0.010737516 -0.016537881 4278734758
0.032379001 0.0070918798 -0.01349154 4278407338
0.038907338 -0.0054413602 -0.0027274638 4278670244
0.042788032 -0.014326893 0.0049843481 4278736289
0.047370255 -0.026205786 0.015359278 4278802078
0.051229365 -0.034334488 0.022381585 4278802334
-0.026802469 -0.015796125 0.011175246 4282012018
-0.025255185 -0.010399021 0.0060904147 4278932384
-0.023395363 -0.0087839589 0.0044143843 4278932638
-0.021473426 -0.0079252869 0.0034202812 4278932383
-0.019556697 -0.0070667788 0.0024270797 4278932383
-0.017567102 -0.0069640502 0.002114079 4279063198
-0.015900526 -0.0038392097 -0.00091436133 4278670243
-0.010940421 0.0047742128 -0.0093013225 4278407849
-0.009173695 0.0063853413 -0.010962027 4278800803
-0.0072290339 0.006486401 -0.011267456 4278866593
-0.0052842535 0.0065875947 -0.011572798 4278997663
-0.0032396726 0.0059343353 -0.011202163 4278604198
-0.0012919642 0.0060359016 -0.011507801 4278735268
0.00086599961 0.0046291277 -0.010463263 4278800548
0.0026037879 0.0062393993 -0.012118856 4278341549
0.0042203963 0.0086032078 -0.014446921 4278734504
0.0058209114 0.010966279 -0.016772386 4278932128
0.0077529214 0.011067607 -0.017075103 4278276523
0.010277823 0.0074013993 -0.014013032 4278275504
0.012465987 0.005996868 -0.012972659 4278406828
0.014788974 0.0038398355 -0.011261827 4278735268
0.016494919 0.0054492503 -0.012911796 4278669734
0.018578187 0.0047993734 -0.012546244 4278604199
0.020534843 0.0049026832 -0.012852292 4278735013
0.022491537 0.0050061345 -0.013158246 4278669734
0.024310816 0.005862236 -0.014134075 4278538664
0.038647328 -0.0062931105 -0.0046179816 4278735523
0.042523447 -0.015204713 0.0030745147 4278539683
0.046782419 -0.025615536 0.012090254 4279064474
0.050631702 -0.03376849 0.019095756 4280767363
-0.026711408 -0.019689165 0.011979739 4282077554
-0.025222402 -0.013518184 0.0062258048 4279063963
-0.02349681 -0.010382161 0.0031943945 4279063708
-0.02164745 -0.0087632984 0.0015234537 4279063199
-0.019658152 -0.0086607113 0.0012103952 4279194524
-0.017668698 -0.00855802 0.00089739636 4278866848
-0.015840385 -0.0069399178 -0.00076998211 4278932128
-0.014106069 -0.0045646876 -0.0031124167 4278735523
-0.012387779 -0.0021901801 -0.0054522566 4278276779
-0.010596763 -0.00057365745 -0.0071134935 4278735524
-0.0089992918 0.0025566295 -0.010124062 4278276779
-0.0053844936 0.0050301477 -0.012761409 4278342314
-0.0034397431 0.0051314309 -0.013066689 4278866593
-0.0015970953 0.0059893653 -0.014045714 4278669734
0.00024025887 0.0068471357 -0.015023823 4278669478
0.0054944642 0.010931462 -0.019296924 4278799783
0.0073051974 0.011788294 -0.020270504 4278537644
0.012243044 0.0051904842 -0.014835293 4278341548
0.014562752 0.0030268058 -0.013128976 4278735014
0.016392652 0.0038851276 -0.014105189 4278669479
0.018087983 0.0054984167 -0.015750052 4278669479
0.019772563 0.0071112812 -0.017393196 4278276523
0.023796011 0.0065621808 -0.017332403 4278669479
0.025601808 0.0074198246 -0.018304383 4278538664
0.027116802 0.0097861513 -0.020610442 4278931618
0.029197261 0.0091346353 -0.020245522 4278866083
0.031875543 0.0054670796 -0.017214783 4278866339
0.035184048 -0.0012148395 -0.011523228 4278735778
0.038694628 -0.008647874 -0.0051733553 4278670499
0.042571571 -0.01758527 0.0024989573 4278801824
0.046989985 -0.028779782 0.012156234 4280701573
0.050519709 -0.035449378 0.017813686 4282011764
-0.024988968 -0.018927246 0.0083879149 4281684853
-0.023319241 -0.015021548 0.0046837209 4279522453
-0.021458972 -0.01339785 0.0030143773 4279063198
-0.01968443 -0.011014447 0.00067034364 4279194268
-0.017692413 -0.010911636 0.00035692751 4279194268
-0.015941795 -0.008529298 -0.0019831322 4278604708
-0.014040787 -0.0076669604 -0.0029703453 4278801059
-0.012144987 -0.006804809 -0.0039565898 4278538918
-0.010431666 -0.0044239983 -0.0062905513 4278801059
-0.0087343864 -0.0020439699 -0.0086218826 4278932128
-0.0070531555 0.00033541024 -0.010950624 4278604964
-0.005291272 0.0019550398 -0.012603699 4278473638
-0.0034406669 0.002815403 -0.013582415 4278473639
-0.0016974397 0.0044343472 -0.015232424 4278669988
3.5110861e-05 0.006052807 -0.016880617 4279063198
0.0017569698 0.0076708645 -0.018527091 4278866338
0.011899415 0.0051464662 -0.017363656 4278734759
0.014336847 0.0022184178 -0.014992583 4278538154
0.016037658 0.0038361549 -0.016635079 4278341548
0.025499381 0.0058646053 -0.019490834 4278407594
0.027299792 0.0067242384 -0.020460207 4278669989
0.029530611 0.0053144693 -0.019432385 4278342823
0.0323641 0.00088021159 -0.015746091 4278342823
0.035531286 -0.0050644055 -0.010735635 4278670243
0.039048385 -0.012518652 -0.0044034356 4278801824
0.042931549 -0.021481551 0.0032478711 4279456663
0.04703822 -0.031196587 0.011552536 4281160828
0.050569192 -0.037885495 0.017194755 4282209644
-0.020982344 -0.021098971 0.007193136 4282798184
-0.019335952 -0.01718352 0.0035011237 4280373643
-0.017638657 -0.014031433 0.0004877625 4279325339
-0.015962776 -0.010880344 -0.0025221445 4279194524
-0.014142152 -0.0092539042 -0.0041816235 4278800804
-0.012332138 -0.0076279417 -0.0058392808 4278735524
-0.010532763 -0.006002374 -0.0074952245 4278735524
-0.0087440498 -0.0043772757 -0.0091493651 4278801313
-0.0068721212 -0.003513895 -0.010129943 4278670498
-0.0051020198 -0.0018895045 -0.011781026 4278801569
-0.0031440742 -0.0017875582 -0.012088392 4278539173
0.00014424697 0.0029809698 -0.016723584 4278538664
0.0017642714 0.0053641871 -0.019037269 4278538664
0.0034782737 0.0069862008 -0.020679044 4279128478
0.0052943155 0.0078474879 -0.021650219 4279062943
0.0072204806 0.0079484731 -0.021952055 4278997408
0.009501148 0.0057695732 -0.02024984 4278538664
0.011798069 0.0035916194 -0.018550035 4278735013
0.013987709 0.0021743402 -0.017519828 4278734758
0.015683252 0.0037961602 -0.019158196 4278276013
0.016981255 0.0076958239 -0.022793688 4278472365
0.018647216 0.0093162581 -0.024427213 4278800549
0.020571079 0.009417966 -0.024728026 4278734504
0.025396973 0.0043096617 -0.020677075 4278735014
0.027482226 0.003654018 -0.020316381 4278473639
0.029863136 0.0014815778 -0.018628869 4278408359
0.032999355 -0.0044820607 -0.013626989 4278539429
0.036329266 -0.011201568 -0.0079688244 4278932894
0.03955451 -0.017160192 -0.0029806988 4280178314
0.042978838 -0.023874439 0.0026629223 4280112268
0.046768956 -0.032101698 0.0096224444 4279784848
0.05013445 -0.038052432 0.014589009 4281815923
0.052723035 -0.040212907 0.01624481 4282732393
-0.019063938 -0.022613734 0.005639202 4282733414
-0.017275218 -0.020216607 0.0033030091 4281422203
-0.015743259 -0.015527822 -0.0010473887 4279326358
-0.013994645 -0.01313255 -0.0033770921 4278932384
-0.012347694 -0.0099741369 -0.0063756038 4278670244
-0.010545488 -0.008344166 -0.008028619 4278866848
-0.0087539591 -0.0067146122 -0.0096799284 4278997918
-0.0067856126 -0.0066123754 -0.0099891163 4278932638
-0.0049135573 -0.0057467371 -0.01096797 4278670498
-0.0029476695 -0.0056444034 -0.011276603 4278735523
-0.0012871139 -0.0032528788 -0.01359183 4278473894
0.00046188757 -0.0016249716 -0.015235957 4278735523
0.0037079863 0.0031547248 -0.019854147 4278539174
0.0055321045 0.0040186271 -0.020824965 4278801058
0.007235609 0.0056446195 -0.022461582 4279063453
0.009282399 0.0049836934 -0.022097398 4278932384
0.011213958 0.0050852001 -0.022399891 4278866593
0.013268966 0.004424952 -0.022036813 4278539429
0.016493801 0.0084368512 -0.025965545 4278537644
0.01802031 0.010822617 -0.028258713 4279521179
0.020201605 0.0094011277 -0.027230207 4278997154
0.022667505 0.0064579695 -0.024876475 4278669478
0.025294591 0.0027550384 -0.021863073 4278276269
0.027664118 0.00057542324 -0.020178877 4278735524
0.030484784 -0.0038854033 -0.016510744 4278604708
0.033928551 -0.011386804 -0.010200731 4278932384
0.037275907 -0.018124752 -0.0045603113 4280112268
0.040212594 -0.022579029 -0.00090999715 4281161083
0.042870089 -0.025511138 0.0014144946 4281422969
0.04618305 -0.031482078 0.0063758278 4280440198
-0.012192491 -0.013856418 -0.0055754231 4280962694
-0.010382075 -0.012221687 -0.0072264341 4279324574
-0.0084914155 -0.011353187 -0.0082067363 4279259294
-0.006512437 -0.011250414 -0.0085176155 4278998173
-0.0047258995 -0.0096166357 -0.010164585 4278867103
-0.0028510503 -0.0087485388 -0.01114215 4278735778
-0.0011848286 -0.0063503236 -0.013453241 4278866593
0.00056968257 -0.004717797 -0.015094936 4278800803
0.0040466525 -0.0014541596 -0.018372953 4278408104
0.0057690814 0.0001770407 -0.020009339 4278539174
0.007595975 0.0010433123 -0.020978786 4278276779
0.011113226 0.0035395771 -0.023579229 4278735778
0.012921445 0.0044052228 -0.02454548 4278736289
0.014346451 0.0075624287 -0.027501125 4278473384
0.025192227 0.0012007058 -0.023048844 4278276778
0.027845453 -0.0025114492 -0.020047761 4278735523
0.031105023 -0.0092736855 -0.01440886 4278736034
0.034413163 -0.01603321 -0.008777448 4279981454
0.037619632 -0.022027411 -0.0038131485 4281161084
0.040257532 -0.02496931 -0.0014923867 4281554039
0.042761356 -0.027147554 0.00016629137 4281554294
0.045756355 -0.03161142 0.0037977332 4281685874
-0.010131393 -0.016879924 -0.0057661692 4282664309
-0.0084114634 -0.014472954 -0.0080810646 4280176019
-0.0067075975 -0.012066655 -0.010393377 4279456663
-0.0048274659 -0.011196323 -0.011370182 4279063964
-0.0030514784 -0.009558633 -0.013012115 4278866849
-0.0011846088 -0.0086887181 -0.013986632 4278670243
0.00057273731 -0.0070517957 -0.015625402 4278342059
0.0024263151 -0.0061823353 -0.016597707 4278669733
0.0041649751 -0.0045461431 -0.018233355 4278735523
0.0062299073 -0.0052106753 -0.01787556 4278866593
0.0079552531 -0.0035749525 -0.019508932 4278604708
0.0097875968 -0.0027061477 -0.020477496 4278473639
0.011132944 0.0012279525 -0.024095695 4278276779
0.012820728 0.0028620735 -0.025722906 4278670243
0.014246151 0.0060278997 -0.028671943 4278997664
0.015907064 0.0076608434 -0.030294765 4278997664
0.01755723 0.0092934147 -0.031915836 4279062688
0.019732263 0.0078629255 -0.030892987 4278538663
0.022327926 0.004136689 -0.027891468 4278276778
0.025368493 -0.0018840283 -0.022914998 4278735778
0.028310243 -0.0071370974 -0.018604465 4279064219
0.031723857 -0.014683239 -0.012323213 4280440199
0.034896649 -0.020696588 -0.0073671169 4281422713
0.037812423 -0.025177918 -0.0037336554 4281684854
0.04045498 -0.02812814 -0.00142028 4281684853
0.042963624 -0.030312635 0.00023266859 4282274923
-0.0048329942 -0.013545454 -0.011910767 4281027208
-0.0029554702 -0.012672998 -0.012885415 4279521689
-0.0011846274 -0.011031158 -0.0145231 4279259549
0.000575535 -0.0093898028 -0.016158983 4278669733
0.0024318062 -0.0085180923 -0.017130014 4278997153
0.0042827614 -0.0076464862 -0.018100146 4278997408
0.0062406175 -0.0075439885 -0.018407065 4278997408
0.0079687797 -0.0059038028 -0.020037543 4278735778
0.0099213943 -0.0058013424 -0.020343453 4278801058
0.011392962 -0.0026247501 -0.023293246 4278604964
0.014397226 0.0029571876 -0.028522238 4278538919
0.015935287 0.0053628236 -0.030802347 4279063198
0.017588276 0.0069998428 -0.032420516 4278997664
0.019765574 0.0055651739 -0.031401377 4278735268
0.022499532 0.0010606498 -0.027750023 4278669989
0.0255442 -0.0049770698 -0.022787549 4278539428
0.029057618 -0.013314418 -0.015858896 4279654289
0.032052185 -0.018579654 -0.011568164 4281291899
0.034937259 -0.023075655 -0.0079400297 4281684599
0.037554815 -0.026035957 -0.0056295376 4281750133
0.040346585 -0.029761754 -0.0026663821 4281750389
0.043009978 -0.032719351 -0.00036281906 4282668134
-0.0028600134 -0.015795656 -0.01276511 4282598264
-0.0010836348 -0.014149286 -0.014400301 4279652248
0.00068204105 -0.012503311 -0.016033765 4279128224
0.0025436915 -0.011629179 -0.017003972 4279062944
0.0040719807 -0.0084414929 -0.019956358 4278931874
0.0060269833 -0.0083391666 -0.020262841 4279062944
0.0078673176 -0.0074657798 -0.02122942 4279194013
0.0098197758 -0.0073633268 -0.021535307 4278932128
0.011411887 -0.0049487501 -0.023819145 4278800803
0.013110716 -0.0033054575 -0.025441423 4278473384
0.01454775 -0.00012181699 -0.02837893 4278408104
0.016219709 0.0015203059 -0.029996816 4278407849
0.01788092 0.0031620413 -0.031612944 4278669989
0.020199496 0.00095354021 -0.029941108 4278800293
0.022943236 -0.0035633743 -0.026301306 4278604199
0.026275434 -0.011157081 -0.020040885 4278407848
0.029519888 -0.017978318 -0.014444777 4279128988
0.032668494 -0.024027444 -0.009511685 4281029504
0.035271827 -0.026997231 -0.0072057229 4281815669
0.037896737 -0.029965743 -0.0049030576 4281815668
0.040390711 -0.032164 -0.0032579619 4282667368
0.0026550479 -0.014748581 -0.016884279 4280634764
0.0042983517 -0.012325428 -0.019171502 4279718293
0.00603747 -0.010676183 -0.020797178 4279259294
0.0077658854 -0.009027414 -0.022421047 4279063198
0.0096008889 -0.008152023 -0.023385018 4279194268
0.011310562 -0.0065039471 -0.025005795 4278669734
0.013132203 -0.0056290254 -0.025967501 4279062944
0.014823128 -0.0039817169 -0.027585102 4279062944
0.016631383 -0.0031071976 -0.028544549 4278997153
0.018434301 -0.0022328794 -0.02950302 4278997408
0.020632301 -0.0036750436 -0.028493779 4278997409
0.023385823 -0.0082043335 -0.024865504 4279456665
0.026727237 -0.015819058 -0.018623214 4279981708
0.029839467 -0.021887474 -0.01369789 4279588499
0.032706317 -0.026410364 -0.010087023 4280374664
0.03545858 -0.030160032 -0.007134581 4281684854
0.037938494 -0.032365628 -0.0054923538 4282405483
0.0045239069 -0.016221978 -0.018396337 4282402679
0.0062712431 -0.014568038 -0.02001993 4279980178
0.0080078691 -0.012914553 -0.021641757 4279324829
0.0097337812 -0.011261441 -0.023261838 4278669989
0.011329126 -0.0088338479 -0.025536142 4278801059
0.013153441 -0.0079566091 -0.026496645 4278735269
0.014972437 -0.0070795417 -0.027456157 4278931874
0.016914021 -0.0069771782 -0.027759969 4279062944
0.018855654 -0.0068746731 -0.028063681 4279194268
0.021063998 -0.0083205998 -0.027059399 4279128989
0.023691271 -0.012088157 -0.024096176 4279522710
0.026900459 -0.018950053 -0.018524658 4280505989
0.029875353 -0.024261586 -0.014266023 4280636803
0.032888018 -0.029571004 -0.010013135 4280309129
0.035791621 -0.034104697 -0.0064179176 4280439434
0.0099831633 -0.0151565 -0.022490151 4280438923
0.011586849 -0.012721986 -0.024760809 4279521944
0.013174433 -0.010288239 -0.027028807 4278800549
0.014870986 -0.0086320117 -0.028640673 4278931618
0.016812418 -0.0085296705 -0.02894447 4278866339
0.01875389 -0.0084271803 -0.029248156 4279063198
0.020961795 -0.009877421 -0.028247137 4278932128
0.02372409 -0.014432035 -0.02464024 4279063198
0.026934545 -0.021313213 -0.019083941 4280571013
0.030193549 -0.028191693 -0.013535121 4281292154
0.032925177 -0.031964071 -0.010596236 4281881203
0.012441639 -0.020519227 -0.020731276 4282337398
0.013684236 -0.015740462 -0.024954736 4279848854
0.015019502 -0.011742227 -0.028521113 4279324829
0.016838495 -0.010860719 -0.02947725 4278932129
0.018652149 -0.0099793896 -0.030432407 4279194524
0.021125723 -0.012991086 -0.028133359 4278997918
0.023892399 -0.017558351 -0.024537157 4279260058
0.027383704 -0.026015274 -0.017696837 4280702084
0.030510906 -0.032134406 -0.012813898 4281488249
0.032962065 -0.034361176 -0.011182399 4282404973
0.017119363 -0.014757827 -0.028713368 4280504968
0.018810868 -0.013093069 -0.030317549 4279587479
0.021156192 -0.015332349 -0.028674949 4279063454
0.024331387 -0.022254184 -0.023143224 4279522453
0.027831756 -0.030734248 -0.016322648 4281880948
0.030827437 -0.036089785 -0.012102275 4282863974
0.019619428 -0.02013018 -0.026970174 4281946483
0.021983046 -0.02237498 -0.025335383 4279718804
0.024769265 -0.026966996 -0.021762246 4279260059
0.028002359 -0.033904962 -0.016254468 4280701829
0.030579697 -0.036927976 -0.013984694 4282798183
0.022410039 -0.02709236 -0.023955805 4282667878
0.025070705 -0.03091184 -0.021039462 4281946739
-0.016063448 -0.02905184 -0.025568249 4282863208
0.0052531175 -0.030273184 -0.03200433 4282928743
0.0050411969 -0.03104306 -0.033840809 4282927978
-0.0091496222 -0.030116037 -0.035444558 4282667368
0.0047194771 -0.031007111 -0.036311455 4282862443
