# .PCD v0.7 - Point Cloud Data file format
VERSION 0.7
FIELDS x y z rgba
SIZE 4 4 4 4
TYPE F F F U
COUNT 1 1 1 1
WIDTH 471
HEIGHT 1
VIEWPOINT 0 0 0 1 0 0 0
POINTS 471
DATA ascii
-0.014797628 0.010582946 0.005899312 4280779348
-0.013425007 0.013581842 0.0027217567 4280977230
-0.01192509 0.015861474 0.00024614297 4278563909
-0.0096846148 0.014551446 0.001259299 4279410763
-0.0039178543 0.0061944798 0.0088480227 4280392259
-0.0017828718 0.0056054965 0.0091553126 4280783429
0.00019551814 0.005734019 0.0087666065 4280717894
0.001844544 0.0072964057 0.0069890264 4280717894
0.0033155084 0.0095749721 0.0045196358 4280652868
0.0047704317 0.011852585 0.002053475 4280262208
0.00672758 0.011980169 0.0016692746 4279476809
0.010088267 0.0063783303 0.0068241768 4279280204
0.01349188 0.00077941269 0.01197074 4278757454
0.018927192 -0.012690812 0.02471352 4279997519
0.024464414 -0.02615425 0.037436415 4280127058
0.028986547 -0.035317995 0.045997776 4280583764
-0.016211092 0.015470862 -0.0015573073 4280848964
-0.014862038 0.018476911 -0.0047236253 4280914243
-0.013088942 0.019321315 -0.0057975883 4281239879
-0.011018835 0.018725604 -0.0054794624 4280391238
-0.0054538026 0.011059158 0.0014038514 4280784704
-0.0035024285 0.011185803 0.0010203626 4280915774
-0.0017128326 0.012031808 -5.6434423e-05 4280915520
-9.3087554e-05 0.013596684 -0.0018250067 4280589119
0.0013487786 0.015879817 -0.004283689 4280654143
0.0026047044 0.018880777 -0.00743098 4280066879
0.0047021322 0.018287711 -0.0071175601 4280717893
0.0078565255 0.013384849 -0.0026606023 4279348288
0.011938212 0.0048935041 0.0052402653 4278697018
0.018251756 -0.012209781 0.021405034 4278697018
0.024327386 -0.027868897 0.036166292 4279936318
0.028661123 -0.036343426 0.044017971 4281109573
0.031172512 -0.037638575 0.044975825 4281760844
-0.018267021 0.013769828 -0.0023452695 4281563729
-0.017335556 0.0189531 -0.0075936131 4279676219
-0.015713502 0.020521715 -0.0093599055 4280262464
-0.013953768 0.021367408 -0.010429604 4281305924
-0.011897359 0.020768635 -0.01011044 4280849729
-0.0093745776 0.018004425 -0.0077122077 4280262719
-0.0068302713 0.015241705 -0.0053181387 4280132924
-0.0049004704 0.015366957 -0.0056973863 4280980799
-0.0032939687 0.016935155 -0.0074600969 4281046334
-0.0018624924 0.019224077 -0.0099118948 4280393789
-0.00011295825 0.020069852 -0.010979019 4280654144
0.001291804 0.022357248 -0.013425417 4281175108
0.0035425797 0.021039978 -0.012420226 4281110084
0.00650445 0.0168413 -0.0086605493 4280850494
0.010920681 0.0068817362 0.00060179457 4280914753
0.01775784 -0.012435593 0.018794604 4280914753
0.024007257 -0.028863177 0.034208868 4281047354
0.028336057 -0.037364066 0.042041633 4281047354
0.030655796 -0.037944153 0.042310331 4281500999
-0.018951133 0.0150939 -0.0062906593 4281368144
-0.017886579 0.019566916 -0.010831719 4280587589
-0.016272325 0.021139316 -0.012593135 4278893369
-0.014224365 0.020537686 -0.012274073 4279480888
-0.012472529 0.021385141 -0.013340482 4280133179
-0.0099586099 0.01861164 -0.010947142 4278960179
-0.0077354722 0.017287619 -0.0099403635 4280654399
-0.0056603812 0.016688175 -0.0096263066 4280719678
-0.0040643811 0.018260039 -0.011383645 4280849983
-0.0028074421 0.021278232 -0.014518084 4280393534
0.00065959245 0.022972208 -0.016642684 4279545658
0.0029018372 0.021650013 -0.015639143 4280131904
0.0058544911 0.017437689 -0.011887582 4279872059
0.010437695 0.0067244172 -0.0019593239 4279741754
0.017444931 -0.013374723 0.016877346 4280265524
0.023687506 -0.029852778 0.032254912 4280265524
0.027825743 -0.037658066 0.039383389 4281243449
0.030516421 -0.039684422 0.04102131 4281436229
-0.019493923 0.015708514 -0.009530101 4281304139
-0.01843651 0.020194139 -0.014059892 4280784448
-0.01668483 0.021043532 -0.015124796 4280980034
-0.014790468 0.021166019 -0.015497433 4281045314
-0.012745395 0.020562124 -0.015179371 4281110338
-0.010388277 0.018506013 -0.013482062 4280914498
-0.0080149919 0.016451053 -0.011787847 4280719424
-0.0061015412 0.01657521 -0.012163907 4280849728
-0.0045107044 0.018151119 -0.013916975 4280850238
-0.0029305182 0.019726392 -0.015667835 4280719679
-0.0013610125 0.021301135 -0.01741655 4280784449
0.00036720932 0.02214998 -0.018476101 4280002109
0.002606295 0.02082324 -0.017475236 4280393789
0.0053803548 0.017322525 -0.014418738 4280654144
0.01013286 0.0058513582 -0.0038283309 4280851259
0.016952287 -0.013584547 0.014278676 4280851259
0.023002559 -0.029388838 0.028935771 4280851259
0.02694522 -0.036494479 0.035364259 4281046333
0.029624505 -0.0385281 0.036999464 4281566278
-0.019616447 0.014148407 -0.010686276 4281173578
-0.018558141 0.018647127 -0.015206331 4280849475
-0.016951509 0.020227708 -0.016959662 4280980034
-0.014912188 0.019621141 -0.016642222 4280915009
-0.012716968 0.018286318 -0.01563672 4280915008
-0.010510955 0.016952343 -0.014633304 4280980033
-0.0082941279 0.015619144 -0.01363188 4280914753
-0.0062250122 0.015014939 -0.013319967 4280784704
-0.0046339668 0.016595215 -0.015069775 4280915773
-0.0030535683 0.018174849 -0.016817374 4280981054
-0.0016503781 0.020481572 -0.019248683 4281046079
7.5209886e-05 0.021332417 -0.020306064 4281111104
0.002483014 0.019273825 -0.018623095 4281176384
0.0054306276 0.01503507 -0.014890391 4280979778
0.010005649 0.0042560324 -0.0050101308 4280850238
0.016820218 -0.015238896 0.013053186 4280850238
0.022501286 -0.029638052 0.02630927 4280850238
0.026436705 -0.036765948 0.032722689 4281045824
0.029297901 -0.039532676 0.035035726 4281370184
-0.019878488 0.01332017 -0.012531729 4280978504
-0.019106429 0.019294553 -0.018419474 4280589118
-0.017507639 0.020879008 -0.02016801 4278829619
-0.015624255 0.02100075 -0.020538511 4278960689
-0.012989409 0.017468251 -0.017471951 4278829619
-0.010633599 0.015398987 -0.015784321 4279611449
-0.0084172562 0.014061399 -0.014786109 4280980545
-0.0065067522 0.014185339 -0.015161611 4280849983
-0.0047571883 0.015039615 -0.016222352 4281046845
-0.0031765811 0.016623586 -0.017966704 4280851259
-0.0019393526 0.019666683 -0.021077354 4280460089
-4.7385693e-05 0.019789875 -0.021448867 4279026733
0.0023597591 0.017724723 -0.01977073 4279286579
0.0054805838 0.012743555 -0.015365055 4280458559
0.010232609 0.0012027249 -0.0048274193 4280914498
0.016867934 -0.01762186 0.01250954 4280915518
0.022365607 -0.031335801 0.025051672 4280981054
0.025928898 -0.037028305 0.03008781 4281111358
0.028783897 -0.039804183 0.032395486 4281239368
-0.020558301 0.01469785 -0.016437408 4281175874
-0.01936952 0.018488251 -0.020247983 4281112379
-0.017917942 0.020810254 -0.022679571 4281175874
-0.016040057 0.020931628 -0.023049001 4281110338
-0.013711765 0.018853933 -0.02136101 4279350583
-0.011214551 0.016044579 -0.018990899 4280654144
-0.0090067312 0.014702074 -0.017994337 4280915009
-0.0072625428 0.015557997 -0.019052431 4281110848
-0.0053628348 0.015681341 -0.019425722 4281046333
-0.0039535686 0.018001385 -0.021848401 4280915518
-0.0025603212 0.02032049 -0.024267849 4279156529
-0.00084538758 0.021174971 -0.025319848 4280198969
0.0018934533 0.01763925 -0.022281317 4279611449
0.022047698 -0.032302253 0.023114853 4280784704
0.025606759 -0.038012445 0.0281386 4281109829
0.02827061 -0.04006663 0.029761955 4281109063
-0.022169083 0.010818876 -0.015150666 4282869839
-0.021515146 0.017565176 -0.021702502 4280786234
-0.020199805 0.020629644 -0.024816029 4280849984
-0.018327512 0.020750534 -0.025184451 4281110595
-0.016455121 0.020871542 -0.025552809 4281305668
-0.014132857 0.018786974 -0.023868635 4280783938
-0.011794422 0.016703524 -0.022187522 4279936829
-0.0095951334 0.015356146 -0.021192642 4280784703
-0.0078589469 0.016213723 -0.022247506 4280915519
-0.0059674159 0.016336538 -0.022619201 4280981054
-0.0045658052 0.018662579 -0.025035432 4279546934
-0.0030142106 0.020253472 -0.026767381 4281045569
-0.0013046004 0.021109775 -0.027816687 4281305923
0.0010851435 0.019030489 -0.026145089 4280849474
0.004535269 0.012550294 -0.020400001 4280849729
0.01015434 -0.0027286336 -0.0065174885 4280914753
0.016424183 -0.020200029 0.0093781259 4280849219
0.021730168 -0.033264026 0.021181516 4280979780
0.024915462 -0.037525907 0.024838202 4280979524
-0.0229728 0.012955792 -0.019728651 4282739279
-0.022191778 0.018982701 -0.025578588 4281112379
-0.020744894 0.021317292 -0.02799945 4279480378
-0.019025177 0.022175409 -0.029049858 4280393279
-0.017016552 0.021558113 -0.028733026 4280392768
-0.014702965 0.019466411 -0.027052077 4279610939
-0.012220792 0.016638674 -0.024692245 4279741244
-0.010182455 0.016023591 -0.024380965 4280653633
-0.0084542856 0.016882859 -0.025432652 4280719679
-0.0068918727 0.018478565 -0.027163606 4280719679
-0.005340118 0.020073697 -0.028892376 4279806524
-0.0036332123 0.0209319 -0.029939644 4279479359
-0.0019316003 0.021789856 -0.03098572 4280651849
0.00027825683 0.02043945 -0.029995665 4280588354
0.0033682138 0.015410624 -0.025618637 4280067388
0.0094970614 -0.0021222234 -0.0097350962 4280067388
0.016292222 -0.021853119 0.0081535634 4279807288
0.0212311 -0.03348577 0.018575437 4280654398
0.024594422 -0.038496241 0.022899203 4281306434
-0.023502342 0.013633862 -0.022923101 4282477648
-0.022450395 0.018197149 -0.027392488 4281306433
-0.020864245 0.019797947 -0.029125407 4281045823
-0.019000266 0.019918282 -0.029492211 4280587589
-0.017136186 0.02003872 -0.029858958 4280848454
-0.01482325 0.017940447 -0.028182842 4280783938
-0.012494173 0.015843377 -0.026509853 4280914499
-0.010458831 0.015225962 -0.026199684 4280914499
-0.0088909194 0.01682625 -0.027928501 4280849473
-0.0073336586 0.018425956 -0.029655151 4280784448
-0.0057870671 0.020025134 -0.031379651 4280458304
-0.0039198175 0.020146579 -0.031746414 4279350329
-0.0022208542 0.021006502 -0.03279034 4280458048
-0.00018518418 0.02038981 -0.032479707 4280457793
0.0027243607 0.016083367 -0.028789114 4280653633
0.0086644739 -0.00076456368 -0.013618439 4280849729
0.015981238 -0.022768177 0.006254131 4280849729
0.020732747 -0.033698425 0.01597603 4281045058
0.024089346 -0.038724579 0.020289589 4281240643
-0.023350708 0.010612093 -0.022697954 4282607698
-0.022153802 0.014446311 -0.026477218 4282478158
-0.020418044 0.015309654 -0.027527591 4282217039
-0.018687539 0.016172767 -0.028576851 4281957194
-0.016962312 0.017035708 -0.029625025 4281957194
-0.014794081 0.015672997 -0.028634088 4281696584
-0.012462985 0.013569534 -0.02696646 4281500743
-0.01042527 0.012950055 -0.026658373 4281241408
-0.008854486 0.01455491 -0.028384503 4280914243
-0.0072943456 0.01615914 -0.03010842 4280913988
-0.0057448708 0.017762817 -0.031830199 4280979268
-0.0040405616 0.018625163 -0.032873604 4281045823
-0.0021734089 0.018746711 -0.033240266 4281240644
-0.00013537332 0.018127978 -0.032931764 4281240133
0.0027756765 0.013808571 -0.029251322 4281305669
0.008538112 -0.002349332 -0.01479242 4280979268
0.015849508 -0.024418451 0.0050316583 4280979268
0.020598246 -0.035381444 0.014729332 4280848454
0.023953462 -0.040422887 0.019031614 4281044549
0.026037754 -0.040286288 0.018623006 4282346068
-0.023199715 0.0075818971 -0.022479061 4282411349
-0.021719679 0.0099379867 -0.02489166 4281305414
-0.019831967 0.010059699 -0.025263248 4281174343
-0.017944153 0.010181546 -0.025634764 4280978503
-0.01634939 0.011791818 -0.027362671 4280848199
-0.014317498 0.011169538 -0.027055273 4280913479
-0.012280181 0.01054778 -0.026748898 4280913478
-0.010237426 0.0099265054 -0.026443491 4280913224
-0.0085038021 0.010792561 -0.027491283 4280914243
-0.0069354326 0.012401693 -0.029213559 4280848964
-0.0053777061 0.014010228 -0.030933611 4280913733
-0.0035000294 0.014132328 -0.031302437 4280847433
-0.0016222969 0.014254555 -0.031671181 4280848198
0.00059680268 0.012891755 -0.030692901 4281173834
0.0031733513 0.010044955 -0.028370693 4281304393
0.0085878186 -0.0046760589 -0.015293725 4281239624
0.015360378 -0.024584241 0.0024656039 4281239624
0.020101005 -0.035580389 0.012140144 4281174088
0.023265405 -0.039895743 0.015761301 4281826378
-0.022778004 0.0030492097 -0.020908993 4282215764
-0.021425243 0.0061593726 -0.023997046 4281370694
-0.019529644 0.0062816069 -0.024370182 4280914243
-0.017633941 0.0064039305 -0.02474327 4280848709
-0.015884534 0.0072727203 -0.025792863 4280783173
-0.01414039 0.0081412718 -0.026841342 4280913478
-0.012098037 0.0075176507 -0.02653762 4281043783
-0.010050252 0.0068944991 -0.026234869 4280978758
-0.0081541352 0.007017456 -0.02660758 4280979014
-0.0064177364 0.0078859627 -0.027654186 4280848198
-0.0048490986 0.009499535 -0.029373091 4280783429
-0.0029608458 0.009622328 -0.029743988 4280652869
-0.0010725483 0.0097452477 -0.030114803 4280782663
0.0011567771 0.0083787739 -0.029141832 4280847943
0.0039163753 0.0047793463 -0.026156846 4280782919
0.0089888945 -0.0084955916 -0.014456451 4280848199
0.01540759 -0.026973777 0.0019171592 4281043273
0.019966898 -0.037258379 0.010897178 4281043529
0.023130102 -0.041586839 0.014508665 4280975953
-0.022628613 -2.2426248e-06 -0.020705791 4282020943
-0.02126997 0.0031169727 -0.023788422 4281044294
-0.019369163 0.003239505 -0.024162602 4280652868
-0.017468244 0.0033621863 -0.024536707 4280587589
-0.015567243 0.0034849569 -0.024910755 4280847944
-0.013963945 0.0051045641 -0.026633661 4280913224
-0.011916541 0.0044790506 -0.026332542 4281109318
-0.0098637082 0.0038540587 -0.02603244 4281109318
-0.0079623833 0.0039773285 -0.026406191 4281044294
-0.0062206052 0.004848361 -0.027452193 4281109064
-0.0044841357 0.0057192072 -0.028497119 4281109064
-0.0022580549 0.0043478906 -0.02752696 4281108808
-0.00069180876 0.0059659258 -0.029241949 4281109064
0.0015450679 0.0045955554 -0.02827372 4281174344
0.0039656907 0.0024792477 -0.026637794 4281239879
0.0092132799 -0.011581361 -0.014297784 4281239879
0.015097737 -0.027874447 2.8321519e-05 4281304903
0.019651776 -0.038189754 0.0089862719 4281305159
0.022627387 -0.041785486 0.011921044 4281301844
-0.021253377 0.00081736594 -0.024261031 4281174854
-0.019209336 0.00018902868 -0.023961309 4280653123
-0.017446578 0.00106287 -0.025010338 4280783173
-0.015543044 0.0011858121 -0.025384884 4280717893
-0.013936859 0.0028098971 -0.02710502 4280913224
-0.011887107 0.0021824017 -0.026806064 4280912968
-0.0098319203 0.0015553609 -0.026508097 4281044294
-0.0077713095 0.00092881173 -0.026211087 4281174344
-0.0060241483 0.0018023551 -0.027256507 4281043783
-0.0041201673 0.0019260421 -0.027630597 4281239624
-0.0022161417 0.0020498559 -0.028004598 4281174344
-0.00064700842 0.0036723539 -0.029716834 4281044039
0.0014218949 0.0030469447 -0.029420998 4281174343
0.0040146708 0.00017513335 -0.027121799 4281370438
0.0092614926 -0.013926759 -0.014812985 4281370438
0.014966462 -0.029519059 -0.0011899639 4281370183
0.019337036 -0.039116532 0.00707886 4281370183
0.022492476 -0.043471552 0.010672126 4281496154
-0.021099214 -0.0022397116 -0.024063284 4281044294
-0.019190665 -0.0021167099 -0.024439013 4280979778
-0.01742522 -0.0012404844 -0.025486972 4281045059
-0.015519146 -0.0011173934 -0.025862023 4280913988
-0.013761543 -0.00024148822 -0.026908223 4281043018
-0.011706751 -0.00087083131 -0.026611906 4281043019
-0.00964652 -0.0014997572 -0.02631654 4281108554
-0.0075808764 -0.0021281466 -0.026022164 4281173578
-0.0056690723 -0.0020040944 -0.026397897 4281369929
-0.0039191507 -0.0011280924 -0.027442129 4281239114
-0.0020099171 -0.0010039434 -0.027817162 4281369418
-0.00060253218 0.0013747737 -0.030194759 4281304394
0.001298748 0.0014986321 -0.030568052 4281173578
0.0040633343 -0.0021330193 -0.027608788 4281239369
0.0093093738 -0.016276188 -0.015331176 4281239369
0.014835205 -0.031163372 -0.0024080183 4281238858
0.018841991 -0.039287977 0.0045100413 4281303628
0.021807492 -0.042906024 0.0074302517 4281952858
-0.020257343 -0.0090830252 -0.020513248 4281043019
-0.018610898 -0.0074480399 -0.022234999 4281240133
-0.016832046 -0.0065687969 -0.023283957 4281240133
-0.015058447 -0.0056898296 -0.024331758 4281174089
-0.013141729 -0.0055659413 -0.024708824 4280911948
-0.010922801 -0.006951347 -0.023747616 4280977229
-0.008846838 -0.0075813904 -0.023457035 4280846668
-0.0069218576 -0.0074565932 -0.023835439 4281239624
-0.0049968213 -0.0073316917 -0.024213776 4281239369
-0.0033952631 -0.0056985989 -0.025926007 4281434444
-0.0014754683 -0.0055737719 -0.026303118 4281369164
-5.7004392e-05 -0.0031878799 -0.028677905 4281304393
0.0020246394 -0.0038167983 -0.028387873 4281305414
0.0046291202 -0.0067051873 -0.02610416 4281173833
0.0095321052 -0.019382872 -0.015188007 4281239114
0.014526144 -0.032054387 -0.0042896373 4281042253
0.018347647 -0.039450355 0.0019478649 4281238348
-0.017191712 -0.017346285 -0.016029468 4280906083
-0.015383393 -0.016463064 -0.017082559 4280972128
-0.013871398 -0.014065534 -0.019471571 4281235034
-0.011930745 -0.013940096 -0.019853354 4281170264
-0.0098391138 -0.014571413 -0.019567596 4281106003
-0.0074349158 -0.016715713 -0.01794892 4281106769
-0.0053270794 -0.017345726 -0.017666148 4281433678
-0.0035316646 -0.016462557 -0.018716125 4281108044
-0.001741536 -0.015579619 -0.019764962 4281433423
0.0039362423 -0.014443405 -0.021577086 4281494114
0.0060550794 -0.015071966 -0.021295933 4281363809
0.010104124 -0.02400849 -0.013725629 4281036898
0.014395121 -0.033695869 -0.0055056019 4281036899
-0.00016449392 -0.014604673 0.06251511 4280045458
0.0010404773 -0.010304831 0.057807773 4280570249
0.0026810654 -0.0080875307 0.055250175 4278928558
0.004939951 -0.0086444542 0.055551372 4279124653
0.0080105774 -0.012666687 0.05941847 4279781535
0.011605306 -0.018765703 0.065417856 4282077809
0.022323163 -0.018067181 0.063313767 4281946484
-0.0034593269 -0.011603966 0.056646205 4280766854
-0.0030079968 -0.003811121 0.048379824 4278800039
0.00052092224 -0.00075905025 0.044712536 4278928813
0.0030614585 -0.0027115196 0.046443559 4278535348
0.0057792403 -0.0053581297 0.048883185 4278863534
0.0088461116 -0.0093936473 0.052741177 4279258783
0.011445876 -0.011341937 0.054460749 4278473128
0.013723545 -0.011899479 0.054756932 4278538664
0.015147541 -0.0089832991 0.051503852 4278931364
-0.0046862811 -0.018349878 0.06077905 4282863974
-0.0050700381 -0.0063394755 0.048244357 4279849109
-0.0022891089 0.00021241605 0.041021727 4278996134
-0.00039027631 0.0010435805 0.039906781 4279782553
0.0021361932 -0.00091630965 0.041635547 4278996134
0.0045179389 -0.0021775663 0.042651128 4278406319
0.0070740804 -0.0041353852 0.04437425 4278537898
0.0093138255 -0.0046976507 0.044676095 4278931364
0.011221081 -0.0038654506 0.043559872 4278668969
0.014845319 -0.0015050918 0.040623255 4279126948
0.017087938 -0.0020667762 0.040924832 4279521178
0.023777826 -0.011542432 0.049996108 4278341038
-0.0058355555 -0.015179038 0.054511987 4282732904
-0.0059405975 -0.0045338571 0.043430887 4279653013
0.0061226562 -0.0023307353 0.039579853 4278537898
0.0083487034 -0.0028961152 0.039882783 4278734503
0.0099050216 -0.00066418946 0.037356943 4278734248
0.015892366 0.00043644011 0.035441641 4278471599
0.018662533 -0.0022235662 0.037858289 4278471599
0.027780024 -0.020803928 0.056050807 4278603435
-0.0066933855 -0.013383195 0.049687959 4282601579
-0.0065150782 -0.0041116327 0.040052865 4279587478
-0.0055073313 0.00093980879 0.034685522 4278604199
-0.0034693889 0.0010718927 0.034284882 4278341039
-0.0012761429 0.00050182641 0.03459223 4278406574
0.00092254579 -6.7800283e-05 0.034898572 4278275504
0.0032872558 -0.001338914 0.035910849 4278800038
0.005499512 -0.0019074529 0.036214683 4278603689
0.0077172071 -0.0024755299 0.036517531 4278800294
0.0096031055 -0.0016403869 0.035408791 4278734503
0.011312384 -0.00010422617 0.033596374 4278536369
0.013184967 0.00073024631 0.032490406 4278273209
0.022047102 -0.0093770623 0.041827358 4278603434
0.027271293 -0.021146588 0.05335509 4278734504
-0.0072354451 -0.0029710233 0.03597689 4278604199
-0.0059380159 0.00068545341 0.032037761 4278735269
-0.0039055571 0.00081715733 0.031638183 4278930853
-0.0015629455 -0.00045996904 0.032651313 4279127204
0.0007904768 -0.0017362535 0.033662356 4278734503
0.0028339252 -0.0016035289 0.033260852 4278473129
0.0052035972 -0.0028785765 0.034268908 4278669734
0.0074183047 -0.0034490377 0.034570679 4278669479
0.0093015656 -0.0026119053 0.033464108 4278800549
0.010837274 -0.00036816299 0.030952327 4278472618
0.012530737 0.0011713579 0.029146425 4278800038
0.014919439 -0.00010188669 0.030151103 4278800294
0.017856386 -0.0034830123 0.033258487 4278669224
0.021911267 -0.011078507 0.040566981 4278472874
0.027132355 -0.022885263 0.052067168 4278603944
-0.0076830834 -0.013261653 0.043623231 4282274158
-0.0073671415 -0.0046412498 0.034739226 4278472873
-0.0062184632 -0.00026688725 0.030102476 4278276014
0.0028619803 -0.0039779842 0.032728508 4278603689
0.0049080551 -0.0038450137 0.032326542 4278341548
0.0069542043 -0.0037119091 0.031924665 4278538409
0.0090004057 -0.0035787076 0.03152284 4278603944
0.010533832 -0.0013286471 0.029016498 4278537643
0.017722629 -0.0051600635 0.032016147 4278668204
0.021593783 -0.012074754 0.038607415 4278734758
0.02662473 -0.023214214 0.049381681 4278865828
-0.0085364617 -0.011410207 0.038840383 4282339949
-0.0082319826 -0.0027644485 0.029978495 4278669734
-0.006946478 0.00091299415 0.026058242 4278603688
-0.0050796792 0.0017527714 0.024957724 4278735269
0.0024096072 -0.0042311102 0.030087087 4278537643
0.0044501871 -0.0040985048 0.029686198 4278603433
0.0063254349 -0.0032576472 0.028584424 4278669224
0.0083634593 -0.0031249896 0.028184198 4278472365
0.010059992 -0.0015766248 0.026384197 4278406319
0.021095183 -0.012359269 0.035953496 4278406319
0.025933648 -0.022827156 0.046005584 4278866083
-0.0093880594 -0.0095365793 0.034073971 4282274413
-0.0089485794 -0.001576975 0.025937222 4278734760
-0.0058169514 0.0029519275 0.020930417 4279063198
-0.0035025701 0.0016598627 0.021939132 4278668458
0.0016382113 -0.0030538291 0.026051547 4278668969
0.0036679395 -0.002921924 0.025652785 4278800294
0.0058629662 -0.0035002381 0.025953427 4278800039
0.0075596683 -0.0019476563 0.02415666 4278406574
0.0094162971 -0.0011056289 0.023060348 4278274994
0.011094309 0.0004459843 0.021267369 4279062688
0.013641451 -0.0015511587 0.022962801 4279258529
0.016919263 -0.0063849166 0.027441967 4278733739
0.020778626 -0.013343975 0.034002475 4278668713
0.025611645 -0.023844875 0.044030793 4278734758
-0.011099569 -0.003357321 0.025112323 4279326613
-0.010248918 0.0024831742 0.019103512 4278409123
0.00070855021 -0.001145862 0.021330427 4278932128
0.0027247332 -0.0010148659 0.020934314 4278603943
0.0049060509 -0.0015962496 0.021235991 4278669478
0.0067573003 -0.00075252354 0.020142298 4278276014
0.025106188 -0.024146602 0.041365404 4278866339
0.029825032 -0.033964202 0.050661288 4279195034
-0.012663811 0.0021542385 0.016886905 4280050559
-0.010312386 0.010285348 0.0084105451 4279787653
-0.00021934137 0.00078427047 0.016625743 4278868633
0.0016211011 0.0016292259 0.015535653 4278999704
0.0037860237 0.0010445938 0.015838884 4278999704
0.0052860826 0.0033185184 0.013358813 4278802333
0.0069403686 0.0048771277 0.011577066 4279326104
0.0087568983 0.0057209954 0.010492012 4279523473
0.011621766 0.0022806153 0.01357206 4279458448
0.014870055 -0.0025855377 0.018033847 4279523728
0.019603701 -0.013158359 0.028031923 4279130009
0.024968766 -0.02586624 0.040091578 4278736543
0.029498683 -0.035001174 0.048672929 4279065749
0.040423639 -0.045211606 0.033102363 4282471019
0.037162766 -0.043427818 0.02886001 4282274413
-0.030411087 -0.036189616 -0.041188676 4282340203
-0.037918195 -0.03394486 -0.051717132 4282667623
-0.040044487 -0.037135154 -0.053620223 4281748603
-0.040275559 -0.037858374 -0.055393428 4281946739
