# .PCD v0.7 - Point Cloud Data file format
VERSION 0.7
FIELDS x y z rgba
SIZE 4 4 4 4
TYPE F F F U
COUNT 1 1 1 1
WIDTH 686
HEIGHT 1
VIEWPOINT 0 0 0 1 0 0 0
POINTS 686
DATA ascii
-0.0011464991 -0.03610459 -0.021643117 4286855744
0.014399193 0.012489587 0.051084042 4282088008
0.014510401 0.018540524 0.044001579 4280786999
0.017447498 0.016083315 0.046423346 4280916284
0.023090376 0.0057799146 0.057594702 4280524093
0.010245763 0.016494535 0.043789729 4281239623
0.010358678 0.022565484 0.036721326 4280785724
0.0112966 0.026006259 0.032581724 4281502529
0.013753911 0.024850048 0.033549033 4281501254
0.018233376 0.017788745 0.04106573 4280523073
0.023675928 0.0081079528 0.051477693 4280523073
0.0071942136 0.017246351 0.040160418 4281761863
0.0079601146 0.021360509 0.035289831 4280915009
0.0091248713 0.024154056 0.031883828 4279025714
0.010268426 0.02694609 0.028483 4280198714
0.012273325 0.027101897 0.027995672 4280198969
0.015841311 0.022648599 0.032593332 4279873078
0.019898402 0.016881756 0.0386336 4280590904
0.023317482 0.013092875 0.042486906 4281112124
0.026537191 0.0099643543 0.045608088 4280979268
0.028613854 0.010126173 0.045103632 4281110339
0.030453926 0.010945536 0.043876015 4281176129
0.033963278 0.0071640015 0.047707692 4279740734
0.0047283228 0.022807639 0.03094805 4281175109
0.0065284893 0.023625284 0.029731207 4280718404
0.0076780245 0.026426557 0.026335318 4279740479
0.0096774772 0.02658185 0.025849245 4279742518
0.011676967 0.026737228 0.025363225 4280329018
0.014791919 0.023589235 0.028501552 4280589883
0.018159205 0.019782878 0.032357723 4280784703
0.020644758 0.01862026 0.033311903 4280980798
0.022909883 0.018118612 0.033540644 4280785468
0.02377806 0.021576658 0.029434517 4280719934
0.02509241 0.023713369 0.02677818 4280524093
0.028541984 0.019913912 0.030614644 4280654144
0.034198485 0.010183834 0.040926531 4280132924
0.040911943 -0.0021760985 0.054097958 4278568753
0.002767168 0.02029454 0.030978672 4281044293
0.0033150371 0.025098499 0.025402926 4280393534
0.0055238865 0.024589635 0.025643278 4280654143
0.0075231902 0.02474482 0.025157172 4280915009
0.009740103 0.024236765 0.025395695 4280784194
0.011962378 0.023729164 0.025633018 4280784703
0.014635736 0.02189628 0.027315643 4280850238
0.01709953 0.020727396 0.028271854 4280784958
0.01911756 0.020884477 0.027781516 4280980798
0.020904746 0.021703944 0.026569892 4280784958
0.021752594 0.025171533 0.022476725 4279286068
0.023046214 0.027313288 0.019830275 4280850749
0.025995579 0.024822127 0.022223718 4281436484
0.030414972 0.018363848 0.028924726 4281176639
0.036108054 0.0086034611 0.039203584 4280981563
0.042621091 -0.0031338111 0.05161567 4280655418
0.00080060586 0.017777018 0.031007625 4282281553
0.00095748529 0.023930892 0.023986429 4280525878
0.0021136515 0.026750222 0.020601694 4279416374
0.0047330335 0.024906088 0.022292376 4278699059
0.0073683858 0.023063328 0.023979194 4280199224
0.010019723 0.021221854 0.025662236 4281046079
0.012246981 0.020712465 0.025896683 4281045823
0.014479579 0.020203583 0.026129909 4281045568
0.016492179 0.020360149 0.025640823 4280980799
0.018276807 0.021181546 0.024431374 4280915518
0.019364201 0.02399626 0.021063883 4280980798
0.020430349 0.026809398 0.017701618 4279351858
0.021947157 0.028292697 0.015781611 4279677749
0.024884967 0.025791768 0.018171404 4280003383
0.028809041 0.020637736 0.023424968 4280199988
0.034482978 0.010842614 0.033684276 4280396083
0.040976249 -0.0009360984 0.046072111 4280916794
-0.00098625198 0.021430917 0.024021316 4280982328
-0.00022925436 0.025597326 0.019191518 4281306944
0.0013327375 0.027087707 0.017263051 4281762629
0.0039434284 0.02523623 0.018950988 4280655163
0.0072136149 0.021382093 0.022801396 4280981054
0.010081384 0.018866114 0.025201213 4280850748
0.012530807 0.01768706 0.026154321 4281046333
0.014323449 0.018511154 0.024944361 4281111358
0.015885696 0.02000206 0.023016281 4281111104
0.017209537 0.022159241 0.020371936 4281111104
0.018517476 0.024315249 0.017731573 4281175874
0.020042548 0.025803585 0.015812676 4280980544
0.021792751 0.026624788 0.014613401 4280784703
0.024491228 0.024781067 0.016280685 4280653888
0.028410871 0.019609012 0.02152238 4280522819
0.034566365 0.0084486976 0.033188947 4280457539
0.042043909 -0.0060321093 0.048405483 4280979523
-0.0035384484 0.020940267 0.02188329 4281307199
-0.0023624264 0.023778651 0.018506479 4280132924
-0.0010012314 0.025944639 0.01585735 4280002363
0.00076210126 0.026768167 0.014655832 4280459579
0.0031551011 0.025580049 0.015619177 4280068664
0.0064159892 0.021711834 0.019462202 4279613233
0.0092748478 0.019186325 0.021857671 4281176894
0.011496173 0.018671997 0.022090379 4281111358
0.013500566 0.018827826 0.021603219 4281046589
0.014605293 0.021661431 0.018244293 4280589884
0.016143946 0.023155067 0.016325191 4279481909
0.01790222 0.023978952 0.015125446 4278438958
0.020353839 0.022796091 0.016075131 4279351094
0.022344984 0.022951365 0.015591536 4280914754
0.025288869 0.020433225 0.017966893 4280653125
0.029458227 0.014575936 0.023907658 4280522053
0.036353879 0.0013747886 0.037684798 4280717893
-0.004889857 0.016417585 0.02408617 4282151759
-0.0042944364 0.021286897 0.018543843 4281371203
-0.0027187131 0.02278696 0.016618382 4280979523
-0.0013596602 0.024959411 0.0139746 4280718658
0.00019230321 0.026457857 0.01205501 4280329274
0.0025794916 0.025264803 0.013016578 4280459834
0.0054055266 0.022727743 0.015413556 4280785979
0.0082528442 0.020192422 0.017805424 4281046589
0.010463214 0.019675069 0.01803913 4280916028
0.012234814 0.020501897 0.016837545 4280589884
0.013326984 0.023343388 0.013488121 4280785214
0.014852662 0.024840452 0.011575401 4280850494
0.017057808 0.02432302 0.011810705 4280263483
0.022895979 0.01926484 0.016560413 4280719678
0.026322886 0.015397109 0.02035404 4280784959
0.031466097 0.0068391636 0.029127605 4281045313
0.038624674 -0.0070749447 0.043579586 4281045313
-0.0052419975 0.01541099 0.022185974 4281758804
-0.0042466857 0.018944241 0.018096507 4280980288
-0.0028712712 0.02112446 0.015453562 4280586569
-0.0010998808 0.021952964 0.014253173 4281108553
0.00045770779 0.02345622 0.012335476 4281111868
0.0028496571 0.022259139 0.013292607 4281045823
0.004824508 0.022412375 0.012812413 4280915773
0.0072324984 0.021216683 0.013765827 4280916029
0.0089935418 0.022044823 0.012568358 4280851003
0.010971157 0.022198565 0.012087699 4280525114
0.012275266 0.024374068 0.0094625987 4279742773
0.014244949 0.02452739 0.0089840107 4281110848
0.016674269 0.023333889 0.0099325515 4281371458
0.020044103 0.019448213 0.013730213 4280915518
0.023445766 0.015565164 0.017520167 4280459834
0.028068166 0.0083204731 0.02486049 4280915773
0.033951126 -0.0022827983 0.035741553 4280981054
-0.0050003938 0.012374602 0.022448272 4281954898
-0.0039988644 0.015919395 0.018365346 4280912459
-0.0024146028 0.017428987 0.016444191 4280128843
-0.0010465793 0.01961536 0.013807941 4279934533
0.00072231144 0.020445958 0.012609825 4279543873
0.0024859644 0.021276213 0.011413116 4280327489
0.0044580437 0.021429226 0.010933582 4281111358
0.0064301677 0.021582358 0.010454126 4281177404
0.0081833359 0.022412077 0.009260159 4281177914
0.0099312253 0.023241501 0.0080675669 4280916793
0.011673816 0.024070647 0.0068762787 4279872313
0.013184175 0.025575351 0.0049737878 4279807289
0.016061569 0.023025118 0.0073457845 4279938104
0.019424727 0.019125678 0.011135347 4280134963
0.024229247 0.011177093 0.019181408 4280591159
0.0295726 0.0018834323 0.028632134 4281177404
0.03595116 -0.010103814 0.040902503 4281503804
-0.0053522401 0.011370845 0.020549979 4281890639
-0.0041522458 0.014246322 0.017193075 4280912458
-0.0023648255 0.015080385 0.015991926 4280326213
-0.00078815222 0.016593844 0.014075946 4279738949
0.00098614767 0.017427035 0.012878176 4279608898
0.0027551986 0.018259913 0.011681754 4279673414
0.0045189783 0.019092515 0.010486633 4279608899
0.0062775053 0.019924782 0.0092929117 4280066369
0.0078119785 0.021435477 0.0073875673 4280589119
0.0093358513 0.022945486 0.0054848157 4281045058
0.011073235 0.023776408 0.0042964593 4281044548
0.013032068 0.023928884 0.0038205087 4281044549
0.015679121 0.022047654 0.0054758824 4281045568
0.019734446 0.016101427 0.011386063 4280719678
0.025480516 0.0054164454 0.022248577 4280850494
0.031786248 -0.0066164359 0.034507535 4281046333
0.037467435 -0.016610466 0.044619843 4281176638
-0.0055062734 0.0096891671 0.019371632 4281498704
-0.0045056008 0.013255991 0.015305012 4280783173
-0.0027207397 0.014092006 0.014106132 4279934278
-0.0013517402 0.016291715 0.011479296 4280129863
0.00041732565 0.017126732 0.010284349 4279803974
0.0026023947 0.016598172 0.01051756 4280063819
0.0047928169 0.01607018 0.010749504 4279737419
0.00655674 0.016905077 0.0095560811 4279802189
0.0080967955 0.018420666 0.0076525435 4279342933
0.0096262805 0.019935511 0.0057517067 4279540814
0.011369042 0.020769089 0.0045635924 4279737929
0.012879986 0.022282682 0.0026674084 4280716874
0.015755495 0.019714601 0.0050269663 4280978249
0.020275194 0.012388617 0.01233888 4281044294
0.026729323 -0.00037069619 0.025297202 4281109573
0.033284288 -0.01312203 0.038231112 4281109574
-0.005660262 0.0080077648 0.018193476 4281237584
-0.0044588819 0.010901026 0.014849104 4280260934
-0.0030762032 0.01310838 0.012223653 4279999304
-0.0012991503 0.013946079 0.011028349 4279999304
0.00026489422 0.015467554 0.0091219023 4280129864
0.0026600473 0.014252916 0.010065373 4280129864
0.0046397261 0.014406502 0.0095839761 4280129864
0.0066194497 0.014560178 0.0091026351 4279931983
0.0083808396 0.015397191 0.0079115219 4279997773
0.0099159069 0.016916923 0.0060124956 4279671629
0.011440393 0.018435888 0.0041161589 4279539794
0.013180595 0.019271597 0.0029303581 4279868743
0.016060468 0.016695 0.0052824207 4279608899
0.021509681 0.0066161081 0.015402518 4279936063
0.028209982 -0.0068663135 0.029033318 4280262209
0.03477947 -0.019658588 0.041933067 4281501508
-0.0062080808 0.0077008307 0.015588604 4280646748
-0.0050113238 0.010602623 0.01225175 4279802443
-0.0032289587 0.011442833 0.01105668 4279608389
-0.0014518313 0.012282737 0.0098629445 4279738438
0.00011250004 0.01380866 0.0079596564 4279672394
0.0022969134 0.013275601 0.00818979 4279802698
0.0042738151 0.013428941 0.0077090561 4280129099
0.0064662695 0.012896776 0.0079373457 4280063054
0.0084459037 0.013050556 0.0074561089 4279801679
0.0099839121 0.014574945 0.0055595934 4279606094
0.011734813 0.015413538 0.0043727681 4279541324
0.013706554 0.01556702 0.0038936809 4279868489
0.017051006 0.011612892 0.0076490268 4280001343
0.022278816 0.0021860152 0.017037384 4280197184
0.028751399 -0.010656014 0.029930018 4280196928
0.034614548 -0.02143801 0.040686809 4281695564
-0.0013997741 0.0099309981 0.009407714 4278882914
0.00037484989 0.010773018 0.0082162805 4279605329
0.0021442212 0.01161474 0.0070261955 4279605583
0.0039083324 0.012456201 0.0058374256 4279931474
0.0060978141 0.011921525 0.006064862 4279736143
0.0080746692 0.012075074 0.0055842958 4279606093
0.0096103102 0.013603717 0.0036915801 4280129354
0.011358636 0.014444314 0.00250699 4280064073
0.013553515 0.013910532 0.0027333796 4280194888
0.017353775 0.0085693002 0.0078877509 4280456264
0.023046337 -0.0022616535 0.018660016 4280324683
0.029291585 -0.014458753 0.030817524 4280324683
0.034686185 -0.02390337 0.040142983 4281564494
1.4979392e-05 0.0098009557 0.0063435473 4279013983
0.0015719719 0.011335246 0.004448548 4279407448
0.0035433061 0.011488155 0.0039691627 4279473239
0.0059449095 0.010260925 0.0049015321 4279473494
0.007921638 0.010414466 0.004420992 4279736143
0.0094575547 0.011947542 0.0025314242 4279542599
0.011205966 0.012790367 0.0013484359 4279933768
0.01340051 0.012254342 0.0015732944 4280325449
0.017198989 0.0068952739 0.0067152008 4280390984
0.022426078 -0.0025936142 0.016058624 4280781643
0.028895847 -0.015519924 0.028890654 4280912204
0.034048438 -0.024307519 0.037494272 4282150738
0.0068984143 0.011522688 0.0004433915 4279078754
0.0090846326 0.010983586 0.00066850334 4279082323
0.010830462 0.011828423 -0.00051225349 4279475278
0.013022019 0.011289954 -0.00028827414 4279999304
0.016816068 0.0059128255 0.0048418157 4280456519
0.022268297 -0.0042985752 0.014864456 4280390729
0.028734013 -0.017267227 0.027666867 4280781898
0.034119904 -0.026774473 0.036949329 4281954899
0.012643967 0.010330319 -0.0021465123 4279406938
0.016433569 0.0049351975 0.0029717311 4279997774
0.021879932 -0.0053098798 0.012971677 4280519758
0.028572205 -0.019014195 0.026443306 4281107279
0.034190983 -0.029245533 0.036401518 4281953623
-0.0079683252 0.0044913292 0.016324636 4280309384
-0.0071485229 0.0087817609 0.011566326 4278409634
-0.0053635053 0.0096242651 0.010372128 4278411163
-0.0092853345 0.0069613606 0.010881126 4278997408
-0.0061136186 0.010033391 0.0070764124 4278537898
-0.0041398816 0.010186046 0.0065961257 4278933914
-0.0019615553 0.0096478686 0.0068243556 4278608023
-0.011039689 0.0037530139 0.011616312 4279062433
-0.0086317025 0.0096104369 0.0049774647 4278340274
-0.0046951659 0.0099147931 0.004019469 4278274739
-0.0025224984 0.0093739778 0.0042473972 4279193504
-0.00055139139 0.0095266551 0.0037679151 4278539683
0.0014197603 0.0096794218 0.0032884814 4278407848
-0.012428731 -0.00085775554 0.013766326 4280963969
-0.011955656 0.0048677474 0.0076113045 4278275248
-0.01075102 0.0078052878 0.0042981207 4278602668
-0.0089791343 0.0086532608 0.0031118393 4279128224
-0.0072124749 0.0095009804 0.0019268617 4279192994
-0.0050481558 0.0089571625 0.0021551847 4278471854
-0.0028784834 0.008413896 0.0023822226 4278865319
-0.00070342794 0.0078711584 0.002608031 4278473128
0.0010582097 0.008718878 0.0014246441 4278670243
0.0026025437 0.010261133 -0.00046076626 4278932383
0.0041363239 0.011802614 -0.0023434889 4278866593
0.00631156 0.011260331 -0.002117401 4279458448
-0.014273729 0.0037523136 0.0062209666 4279194524
-0.0032340139 0.0074585527 0.00052036345 4278800548
-0.0010619499 0.0069133639 0.00074528903 4278538153
0.0011154674 0.0063686967 0.00096898526 4278341293
0.0024508946 0.0086125731 -0.0016157068 4278274229
0.0083400868 0.0090699792 -0.0030473843 4278667184
0.010525666 0.0085264593 -0.0028252155 4279324318
0.016507033 0.002570726 0.0025008917 4278476698
0.033790249 -0.030330509 0.034458809 4281097844
-0.016400557 0.0019409433 0.0055393502 4279062688
-0.015551742 0.0062996149 0.0008219555 4278472874
-0.013592143 0.0064506978 0.00034475699 4278603689
-0.0096726529 0.0067531914 -0.00060947984 4278341039
-0.0055518001 0.006356135 -0.00086066127 4278406828
-0.003589116 0.0065080225 -0.0013381988 4278800294
-0.0014200322 0.0059603304 -0.00111413 4278865829
0.00054542348 0.0061126351 -0.0015921891 4278341039
0.002087649 0.0076635405 -0.0034706593 4278602924
0.0036193319 0.0092137158 -0.0053464305 4278995624
0.0057912394 0.0086667314 -0.0051227659 4279061414
0.010817789 0.0054791421 -0.0025860947 4279258529
0.013463438 0.003537938 -0.00097396225 4278867359
0.017490299 -0.0025898367 0.0048125498 4278998428
0.023176314 -0.013598241 0.015457563 4278932893
0.029180072 -0.025297537 0.026777145 4279588754
0.033625454 -0.032108054 0.033213884 4281161083
-0.01852696 0.00013007224 0.0048579648 4282208114
-0.014313068 0.0069144219 -0.0029198676 4278602669
-0.011782866 0.0049563274 -0.0012855157 4278407083
-0.010018721 0.005810298 -0.0024651103 4278669479
-0.0076653026 0.0045565367 -0.0015376993 4278865828
-0.0059036426 0.005410552 -0.0027165227 4278603944
-0.0041472204 0.0062642545 -0.0038939957 4278735013
-0.0023960397 0.0071176812 -0.0050701015 4278735014
0.0032541566 0.008273676 -0.0071942583 4278996644
0.0054230727 0.0077242553 -0.0069714729 4279062178
0.0082554817 0.0050728321 -0.0046596732 4278537643
0.014658084 -0.0023259595 0.002034992 4278603943
0.01915355 -0.0098729655 0.0091932267 4278735524
0.024857365 -0.020915419 0.019808196 4279325593
0.029715445 -0.029151835 0.027628545 4280767873
0.033225384 -0.033185661 0.031276353 4281750643
-0.019935314 -0.0045048594 0.0069961734 4282471019
-0.019952405 0.0034131333 -0.0012338981 4278996133
-0.012125902 0.0040161684 -0.0031400621 4278406828
-0.010169037 0.004167214 -0.0036164615 4278604199
-0.0080141164 0.0036137104 -0.003392458 4278735268
-0.0062550493 0.0044697076 -0.0045690611 4278473129
-0.0045012049 0.0053254217 -0.0057442952 4278669479
-0.0029585399 0.0068849549 -0.0076166149 4278603943
-0.0010092668 0.0070360005 -0.0080907419 4278472618
0.011621507 -0.0013442039 -0.001431372 4278406574
0.015625816 -0.0075136274 0.0043315738 4278800548
0.020813553 -0.01719147 0.013549197 4278866593
0.026075559 -0.026863404 0.022748869 4280308874
0.030249616 -0.033019237 0.028470848 4281423224
0.033060841 -0.034960307 0.030033462 4281816434
-0.021542575 -0.0084501803 0.0084234327 4282602344
-0.0220582 0.0016200915 -0.0019084755 4279914133
-0.020829409 0.0046031699 -0.0051957425 4278406064
-0.019252677 0.0061687976 -0.0070737563 4278800294
-0.017312143 0.0063182488 -0.0075464286 4278735014
-0.015181709 0.0057602674 -0.0073183477 4278602669
-0.012660943 0.0037881136 -0.0056913272 4278537643
-0.010514408 0.0032316148 -0.005466992 4278669478
-0.0083624795 0.0026756376 -0.0052438881 4278669478
-0.007006824 0.0049471259 -0.0078145377 4278669734
-0.0052608773 0.0058044195 -0.0089862645 4278604199
-0.0037258826 0.0073677301 -0.010853458 4278604199
-0.001576338 0.006812036 -0.010629438 4278473129
0.00057855248 0.0062568635 -0.010406632 4278669479
0.0027387924 0.0057022348 -0.010185041 4279127714
0.005337026 0.0037370995 -0.0085761324 4278800039
0.0081701707 0.0010680482 -0.0062773935 4278800038
0.012132684 -0.0051246583 -0.00051887333 4278473129
0.016815785 -0.013428129 0.0073050857 4278801059
0.022016417 -0.023135893 0.016497064 4279719059
0.026372982 -0.030019931 0.022906955 4281161084
0.029853629 -0.034082629 0.026542429 4281750643
0.032661434 -0.036030583 0.028101053 4282012784
0.035485119 -0.037977137 0.029655866 4282733414
-0.023634501 -0.0023048744 -0.00047567487 4279128479
-0.022744603 0.0021096021 -0.0051647425 4278537898
-0.01105424 0.0030101463 -0.0080121029 4278800039
-0.0091055147 0.0031606704 -0.0084864479 4278800294
-0.0073569231 0.0040202439 -0.0096572991 4278537898
-0.0058164187 0.0055882931 -0.011522701 4278339509
0.00021749735 0.0053313226 -0.012245137 4278471599
0.0025882088 0.0040663183 -0.011331096 4278735269
0.0054017995 0.0013867915 -0.0090341326 4278604454
0.0084554031 -0.0019984767 -0.0060501974 4278539173
0.012864081 -0.0096254498 0.0010758936 4278670499
0.017555181 -0.017954826 0.0088786036 4279589009
0.022990126 -0.028399877 0.018736359 4279916683
0.026669595 -0.033185013 0.023058984 4281488759
0.029922133 -0.036554188 0.025995031 4282144109
-0.025747962 -0.0041042119 -0.0011525415 4282405228
-0.025193498 0.0017506778 -0.0072378032 4278669478
-0.023608532 0.0033255666 -0.0091116205 4278538409
-0.022034045 0.0048997179 -0.010982759 4278668969
-0.020470023 0.0064731687 -0.01285127 4278275249
-0.016047724 0.0046340674 -0.011697259 4278406828
-0.013344359 0.0019361079 -0.0093806796 4278603433
-0.011593215 0.0027978569 -0.010550719 4278800038
-0.009452574 0.0022365749 -0.010328099 4278668713
-0.0081065781 0.0045205429 -0.012886759 4278472108
-0.0046408735 0.0062420145 -0.01521734 4278471599
0.002650924 0.0017205477 -0.011785109 4278669479
0.0056821182 -0.0016776174 -0.0088038463 4278604198
0.0093955416 -0.0072028339 -0.0037574992 4278604963
0.014036288 -0.015562788 0.0040381029 4278473893
0.018740702 -0.023917697 0.011818297 4279195033
0.023282228 -0.031558327 0.018894557 4281291643
0.026277907 -0.034231938 0.021141276 4281881458
0.029294793 -0.036903746 0.023382951 4282406249
-0.027457234 0.00068653375 -0.0086070839 4278997409
-0.026221357 0.0036963969 -0.011876967 4278733229
-0.024292186 0.0038445666 -0.012347165 4278536879
-0.022725385 0.0054225624 -0.014213273 4278930853
-0.020801272 0.0055705905 -0.014682062 4278604454
-0.018503964 0.0042898506 -0.013757411 4278538919
-0.016195957 0.0030100867 -0.012835331 4278669479
-0.013877232 0.0017312244 -0.011915728 4278669479
-0.012325823 0.003308624 -0.01377766 4278472874
-0.010390636 0.0034580752 -0.014248729 4278668969
-0.0071273781 0.0058969036 -0.017269077 4278602669
-0.0051999353 0.0060461089 -0.017738003 4279193504
-0.0028569363 0.0047698691 -0.016823836 4278930853
-8.2470477e-05 0.0020693839 -0.014530411 4278734504
0.0029263087 -0.0013417006 -0.011551835 4278538153
0.0063930582 -0.0061749816 -0.0072004423 4278735269
0.010552028 -0.013141111 -0.0007911846 4278604453
0.01542707 -0.022238269 0.0076701008 4279653013
0.019700112 -0.029195331 0.014051862 4281095039
0.023573536 -0.03472539 0.019046739 4281750388
0.026344582 -0.036696337 0.02059963 4281946993
0.038015947 -0.039429449 0.021476071 4282667113
-0.029373933 -0.0018080026 -0.0085763447 4280046224
-0.02287234 0.0038078651 -0.01534497 4278928558
-0.020764664 0.003238976 -0.015117934 4278866084
-0.018651597 0.0026706457 -0.01489218 4278407593
-0.016344134 0.0013864189 -0.013973184 4278407594
-0.014600892 0.0022518337 -0.015138179 4278407594
-0.013057165 0.003832981 -0.016995009 4278735268
-0.011327025 0.0046976581 -0.018156696 4278734758
0.0034137666 -0.0051271617 -0.010635879 4278800549
0.0073178932 -0.011404186 -0.0049212594 4278800803
0.011706071 -0.019105747 0.0021565817 4279063453
0.015931802 -0.026088655 0.0085336193 4280701829
0.019987121 -0.03235355 0.014211763 4281684854
0.023185743 -0.035760306 0.0171366 4281881203
0.025724603 -0.037024789 0.018000714 4282143599
0.034789119 -0.03851039 0.018021051 4282536044
-0.030625489 -0.0071880966 -0.0057548508 4281683833
-0.030543137 0.00088275224 -0.013903424 4278669223
-0.029135834 0.00319013 -0.016463419 4278275249
-0.027568731 0.0047766566 -0.01832333 4279258018
-0.023200098 0.0029127747 -0.017171282 4278928558
-0.020911917 0.0016223341 -0.016250953 4278275759
-0.018985339 0.0017706305 -0.016720288 4278603689
-0.01686985 0.0012003928 -0.016496647 4278735014
-0.0153233 0.0027860999 -0.018351078 4278669479
-0.013981346 0.0050893277 -0.020894434 4278800294
-0.012064993 0.0052372962 -0.021360938 4278669479
-0.01014857 0.0053853989 -0.021827362 4278472874
-0.0078279935 0.0040983409 -0.020914361 4278472874
-0.0061108246 0.0049645305 -0.022070978 4278669479
-0.0035695359 0.0029614568 -0.020472631 4278472874
-0.00038229674 -0.0011912957 -0.016814804 4278342058
0.003687378 -0.0082088038 -0.010416202 4278735269
0.0080254003 -0.015938669 -0.0033439379 4279062943
0.012203852 -0.022947505 0.0030284561 4280832898
0.016435327 -0.029952072 0.0093879998 4281684854
0.019826844 -0.034088336 0.012996618 4281881203
0.023024281 -0.037506215 0.01591371 4282470764
-0.032782767 -0.00015838444 -0.01526325 4278669478
-0.029972624 0.004469052 -0.020372592 4278733993
-0.028065179 0.0046153814 -0.020837611 4279389598
-0.02580164 0.0033184066 -0.019914664 4279061669
-0.023346741 0.0013009161 -0.018301003 4278275249
-0.021242414 0.00072735548 -0.018076438 4278537643
-0.019132674 0.00015429407 -0.017853061 4278800039
-0.017394718 0.0010236055 -0.019013707 4278734503
-0.0158532 0.0026132837 -0.020863662 4278668969
-0.014516085 0.0049227774 -0.023401078 4278602669
-0.012408633 0.004350014 -0.0231768 4278537134
-0.010295816 0.0037778169 -0.022953792 4278865319
-0.0077739544 0.0017664284 -0.021355748 4278669479
-0.0060540773 0.0026350319 -0.022511423 4278604199
-0.0035108849 0.00062549859 -0.020918347 4278669734
9.7215176e-05 -0.0049789697 -0.015898079 4278604199
0.0043850914 -0.01273714 -0.008831393 4278735524
0.009161517 -0.02192837 -0.00040896237 4278801059
0.012918158 -0.027520888 0.0045754164 4281619064
0.016496861 -0.032391578 0.0088660307 4281815413
0.01988964 -0.036541022 0.012464676 4282012273
0.022637153 -0.038533799 0.014008723 4282928744
-0.034358051 -0.0040940344 -0.013838533 4279194269
-0.033597644 0.0011269301 -0.019174255 4278604199
-0.032364655 0.0041715801 -0.022417942 4278274739
-0.021938618 0.0012841076 -0.021280728 4278537898
-0.019837182 0.00070822239 -0.021056991 4278800038
-0.018107112 0.001579091 -0.022214074 4278537898
-0.0081235468 0.00087456405 -0.023173165 4278996644
-0.0057934001 -0.00042051822 -0.022268798 4278538663
-0.0032456778 -0.0024362803 -0.02068169 4278538664
0.00099470839 -0.010222599 -0.013621196 4278669734
0.005081201 -0.017282948 -0.0072588306 4278538664
0.0094356295 -0.025060102 -0.00022592023 4278932384
0.012978259 -0.029949188 0.0040621012 4281029249
0.01655801 -0.034835234 0.0083411448 4282077553
-0.035326276 -0.0020781457 -0.018444469 4279128733
-0.034076873 0.00097645819 -0.021685828 4278604198
-0.032848533 0.0040295571 -0.024921972 4278931619
-0.031124379 0.0049014613 -0.026076525 4278866084
-0.029055517 0.0043203831 -0.025846811 4278865828
-0.026803661 0.0030136481 -0.024927467 4278800548
-0.024541087 0.0017078966 -0.024010697 4278669224
-0.022633575 0.0018545538 -0.024475504 4278734759
-0.020354893 0.00055023283 -0.023562439 4278668968
-0.017101277 0.0030204207 -0.026557144 4278406573
-0.015582997 0.0046172813 -0.028394975 4278538408
-0.0132907 0.0033144951 -0.027484871 4278669734
-0.0080698393 -0.0014611483 -0.023617223 4278734758
-0.0053294376 -0.0042087063 -0.021347854 4278604199
-0.0021543056 -0.0084023178 -0.017716084 4278538663
0.0020995699 -0.016211823 -0.010676591 4278670244
0.0059877448 -0.022569701 -0.0050160643 4279783828
0.0099236574 -0.028923728 0.00063296035 4279717018
0.013255304 -0.033104658 0.00422699 4281356159
0.01683878 -0.038005888 0.0084939301 4282601579
-0.035307612 -0.0044160709 -0.018879637 4278997663
-0.034054894 -0.0013524145 -0.022115394 4278473639
-0.030924279 0.0018552914 -0.025808997 4278342059
-0.028850462 0.0012723133 -0.025582068 4278735013
-0.026771236 0.00068990886 -0.025356421 4278997409
-0.024686597 0.00010807067 -0.025131993 4278735269
-0.022961903 0.00098267198 -0.026284738 4278735014
-0.02105708 0.0011292249 -0.026748821 4278931364
-0.019528124 0.0027310774 -0.028586222 4278275504
-0.016308442 0.0052054524 -0.031567633 4279127459
-0.014024664 0.0038976148 -0.030658733 4278799783
-0.0048666522 -0.0080099702 -0.020436008 4278669734
-0.0010653697 -0.014394671 -0.014768982 4278669733
0.0032020174 -0.022227399 -0.0077504423 4279194269
0.0064686164 -0.026426926 -0.0041503888 4281028993
0.0099815279 -0.031349309 0.00012221932 4281487739
0.01309731 -0.034818083 0.0030267239 4280766089
0.016679192 -0.039734878 0.007282801 4282143089
-0.035167497 -0.025352366 -0.001073759 4282732649
-0.035289291 -0.0067581236 -0.019317701 4279259548
-0.033866677 -0.0044168457 -0.021857526 4278866593
-0.032290582 -0.0028078258 -0.023703825 4278473384
-0.030381177 -0.0026615113 -0.024169454 4278538919
-0.028471652 -0.0025150776 -0.024635032 4278407849
-0.026562005 -0.0023685098 -0.02510055 4278407849
-0.024652235 -0.0022218227 -0.025566023 4278473383
-0.022924833 -0.0013448149 -0.026717827 4278669989
-0.021387752 0.00026188791 -0.028554047 4278931618
-0.020048961 0.0025977269 -0.031072792 4278669478
-0.0083655752 -0.0046874881 -0.025877837 4278276523
-0.0044050477 -0.01182422 -0.019533262 4278735523
2.1163374e-05 -0.020413384 -0.011840342 4279195033
0.0038841031 -0.026813045 -0.0062026884 4281161083
0.0069482941 -0.030297115 -0.0032938588 4281815923
0.010253286 -0.034506731 0.00028726831 4281881203
0.013590125 -0.038713768 0.0038608164 4281683833
-0.035746243 -0.015857816 -0.013078729 4281815414
-0.034943853 -0.010572016 -0.018379889 4280046479
-0.033512834 -0.0082234591 -0.020917002 4278670244
-0.031759497 -0.0073428676 -0.022073973 4278539174
-0.030011322 -0.0064625591 -0.023229603 4278604708
-0.028268319 -0.0055825263 -0.024383891 4278538919
-0.026353512 -0.0054355711 -0.024850668 4278604454
-0.024438601 -0.005288519 -0.025317404 4278276779
-0.021533061 -0.0013329238 -0.02967176 4278407593
-0.0201938 0.0010095537 -0.0321858 4278800803
-0.019060571 0.0040827245 -0.035378832 4278931874
-0.01717696 0.0042279959 -0.035837486 4279062688
-0.014902223 0.0029105693 -0.034932781 4278997409
-0.011824142 -0.0013306141 -0.031306639 4278669989
-0.0083125569 -0.0070312098 -0.026327442 4278604198
-0.0037411787 -0.016382232 -0.017960003 4278604453
0.00048692897 -0.024266705 -0.010967297 4280112779
0.0039382745 -0.029225029 -0.0067024101 4281553783
0.0067925211 -0.031989858 -0.0044797305 4282012273
0.010096131 -0.036212817 -0.00090790913 4282273903
0.013431584 -0.040433198 0.0026563369 4283058284
-0.035893831 -0.017492056 -0.014224458 4282733158
-0.035090175 -0.012190744 -0.019514706 4279915153
-0.033492509 -0.010571435 -0.021359906 4278670244
-0.031398814 -0.011159733 -0.021142889 4278932384
-0.029814113 -0.0095411316 -0.022984803 4278735779
-0.028414015 -0.0071880296 -0.025509264 4278408104
-0.02649935 -0.0070411116 -0.025976028 4278604709
-0.02458458 -0.0068940669 -0.026442729 4278473639
-0.022669699 -0.0067468956 -0.026909372 4278473638
-0.021493603 -0.0036618561 -0.0301066 4278538918
-0.019963864 -0.002046749 -0.031934585 4278473383
-0.016550563 -0.00028630346 -0.03422109 4278604708
-0.014265794 -0.0016073212 -0.033322081 4278932384
-0.011376437 -0.0051276684 -0.030387208 4278735269
-0.0074574463 -0.012311824 -0.02406479 4278866593
-0.0030788928 -0.020957738 -0.016398923 4278669989
0.0011574142 -0.028865844 -0.0094258804 4279784594
0.0042006522 -0.032373726 -0.0065281242 4281619319
0.0072704349 -0.035879426 -0.0036367252 4282077553
-0.035559308 -0.021341398 -0.013309261 4282667369
-0.034746442 -0.016024016 -0.018590491 4279980944
-0.033140589 -0.014399633 -0.020434532 4278670244
-0.031207908 -0.014251702 -0.020905953 4278866849
-0.02978893 -0.011890687 -0.02343031 4278866594
-0.028559659 -0.0087932348 -0.026634444 4278473639
-0.026645143 -0.0086463392 -0.027101181 4278801314
-0.024730522 -0.0084993243 -0.027567852 4278670244
-0.022633906 -0.0090890005 -0.02735272 4278736034
-0.021454513 -0.0059949011 -0.030544333 4278539173
-0.01954753 -0.0058481097 -0.031008886 4278670244
-0.017830264 -0.0049649328 -0.032153171 4278539174
-0.015925754 -0.004818067 -0.032616928 4278276779
-0.014021169 -0.004671067 -0.033080619 4278538919
-0.01073217 -0.0096733347 -0.028799079 4278342569
-0.0068047605 -0.016878948 -0.022494739 4278735779
-0.0026212558 -0.02481547 -0.01552665 4279522454
0.0010034554 -0.030542329 -0.010600476 4279980943
0.0042538773 -0.034796149 -0.0070351735 4280832899
0.0075361356 -0.03904736 -0.0034775101 4282405229
-0.034240734 -0.020610757 -0.01699068 4280505989
-0.032789808 -0.018240884 -0.019518236 4279194523
-0.031017762 -0.01735229 -0.02067499 4278866849
-0.029593054 -0.014984198 -0.023195982 4278670244
-0.02818409 -0.012617148 -0.02571303 4278669224
-0.026438151 -0.011730194 -0.02686315 4278866849
-0.024697397 -0.010843515 -0.028011914 4278735779
-0.022780161 -0.010696165 -0.02847914 4278670499
-0.021415778 -0.0083320886 -0.030984983 4278539429
-0.019506291 -0.0081850886 -0.031450134 4278670243
-0.017596722 -0.0080379844 -0.031915233 4278473638
-0.01549479 -0.0086290091 -0.031702597 4278539173
-0.013387498 -0.00921949 -0.031491239 4278539429
-0.010089472 -0.014236473 -0.027223127 4278605218
-0.0063538738 -0.020725802 -0.021612594 4279194779
-0.0021648034 -0.028686196 -0.014663475 4280702084
0.0010550432 -0.032955736 -0.011100471 4281684599
0.0043067317 -0.037222683 -0.0075450949 4281028484
-0.03049193 -0.021946073 -0.019086331 4282077298
-0.029227037 -0.018828399 -0.022286408 4279980178
-0.027636167 -0.017196029 -0.024120137 4279259549
-0.025879581 -0.016306072 -0.025271257 4279194014
-0.024306983 -0.014674895 -0.027100308 4278997664
-0.022744898 -0.01304435 -0.028926738 4278801313
-0.021193292 -0.011414528 -0.030750491 4278539429
-0.019465428 -0.010526285 -0.031894252 4278866848
-0.017932184 -0.0088976026 -0.0337134 4278670244
-0.015641194 -0.01023154 -0.032825593 4278539173
-0.013534255 -0.010824241 -0.032615747 4278473129
-0.010040447 -0.016596861 -0.027683744 4278866339
-0.0065041892 -0.022366114 -0.022761943 4279521944
-0.002520185 -0.029611245 -0.016503407 4281618808
0.00028503314 -0.032415442 -0.014294703 4282012019
0.0039432999 -0.038174853 -0.00940229 4282273904
-0.026569825 -0.02402474 -0.020502405 4281618043
-0.025146596 -0.021643281 -0.023013232 4280634763
-0.023739155 -0.019262925 -0.025520122 4279651994
-0.022347458 -0.016883701 -0.028023044 4279194525
-0.020787675 -0.01524882 -0.029845638 4278736289
-0.019424926 -0.012871563 -0.032341316 4278539429
-0.018077992 -0.01049535 -0.0348331 4278604708
-0.015979428 -0.011091039 -0.034622919 4278342569
-0.013486471 -0.013171181 -0.033066209 4278800804
-0.010188948 -0.018219084 -0.028820453 4278801058
-0.0066544674 -0.024006113 -0.023911057 4280046479
-0.0030775517 -0.029789716 -0.019011877 4281619319
-7.3511153e-05 -0.033344887 -0.016136803 4282405229
-0.021408021 -0.02297321 -0.025101895 4282535024
-0.020015795 -0.020587161 -0.027600078 4280438923
-0.018825717 -0.017456956 -0.030768542 4278867104
-0.01746773 -0.015073292 -0.033258203 4278932128
-0.01593389 -0.013435662 -0.035070945 4278931873
-0.013439056 -0.015522227 -0.033519544 4278866594
-0.010140445 -0.02058553 -0.029285258 4278997408
-0.0066051148 -0.026390076 -0.024388941 4280439434
-0.0032295808 -0.031447172 -0.020173185 4281946483
-0.017855778 -0.023554847 -0.027862636 4282600304
-0.01629265 -0.021910667 -0.029679442 4280111504
-0.015122924 -0.018772945 -0.032836333 4279391128
-0.012809705 -0.020118237 -0.031963516 4279194013
-0.0098955892 -0.023702785 -0.029082896 4279325084
-0.0065561235 -0.028778225 -0.024869692 4281094529
-0.0035836175 -0.032357976 -0.022003062 4282010744
-0.014122695 -0.024881423 -0.029947201 4282994278
-0.011988051 -0.025480822 -0.029750535 4282470254
-0.0092584006 -0.028326504 -0.027549407 4282208114
-0.0063083172 -0.031919137 -0.024685446 4283124583
0.0067569297 -0.041979343 -0.02574347 4282797929
0.01079938 -0.04409045 -0.027219232 4281946484
-0.017583627 -0.038879111 -0.040375207 4282929254
-0.015647028 -0.038729861 -0.040846843 4282798183
-0.018291194 -0.038184464 -0.043475762 4282535278
-0.018811129 -0.038250253 -0.045913395 4282404719
-0.019330237 -0.038306817 -0.048344646 4282601579
-0.022127278 -0.036944449 -0.051605657 4282732904
-0.022272617 -0.038539514 -0.052723538 4280700298
