# .PCD v0.7 - Point Cloud Data file format
VERSION 0.7
FIELDS x y z rgba
SIZE 4 4 4 4
TYPE F F F U
COUNT 1 1 1 1
WIDTH 833
HEIGHT 1
VIEWPOINT 0 0 0 1 0 0 0
POINTS 833
DATA ascii
-0.010076653 -0.020129636 -0.0082875229 4287115843
-0.0079524331 -0.020774573 -0.007987082 4286855233
-0.0059712417 -0.020654358 -0.0083478652 4287051328
-0.0038388632 -0.021298558 -0.0080487207 4287444284
-0.0017010681 -0.02194228 -0.0077504478 4287836984
0.00044214725 -0.022585586 -0.0074530318 4287509308
0.0025907531 -0.023228407 -0.0071565402 4287182144
0.0055541694 -0.02769009 -0.0035713511 4286985538
-0.025776111 -0.024219871 -0.0052738455 4286725694
-0.024041407 -0.022564076 -0.0069620837 4287903283
-0.021936871 -0.023213252 -0.0066603911 4287837494
-0.019697353 -0.024629951 -0.0056974557 4288230193
-0.017975777 -0.022974603 -0.0073830304 4288688174
-0.015995085 -0.022855066 -0.0077442192 4288621873
-0.013876766 -0.023502901 -0.0074446504 4287836984
-0.011753 -0.024150282 -0.0071459827 4287836984
-0.0097667202 -0.02403003 -0.0075078984 4287968053
-0.0076347664 -0.02467671 -0.0072104898 4287706423
-0.0054973811 -0.025322892 -0.0069140089 4287837494
-0.0035055652 -0.025201902 -0.0072766324 4287903284
-0.0013600364 -0.025847331 -0.0069814366 4288361008
0.00079090148 -0.026492283 -0.0066871163 4287641143
0.0029472448 -0.027136832 -0.0063936459 4287575608
0.0055941343 -0.030078948 -0.0041322568 4287444538
-0.025651388 -0.027363956 -0.0051525095 4286855743
-0.023787193 -0.026473962 -0.0061770012 4287837238
-0.021801583 -0.026354536 -0.0065393937 4287837748
-0.019815862 -0.026234969 -0.006901708 4288099379
-0.017962091 -0.025345281 -0.0079239756 4288753199
-0.015844166 -0.025995426 -0.0076260874 4288818478
-0.013995595 -0.025105789 -0.0086472034 4288229684
-0.011732057 -0.026524894 -0.0076915333 4287968309
-0.0097432584 -0.0264045 -0.0080539221 4288099124
-0.0076089427 -0.02705317 -0.0077586481 4287968564
-0.0057654604 -0.02616331 -0.008778424 4288230449
-0.003625676 -0.026811376 -0.0084839435 4288230449
-0.0014804676 -0.027458966 -0.008190331 4287903540
0.00067014247 -0.028106116 -0.0078976275 4287641654
0.0026672855 -0.027984425 -0.0082609253 4287314233
0.0053106807 -0.030935444 -0.0060054893 4286660159
-0.025769569 -0.028970771 -0.0063582296 4287052093
-0.02402918 -0.02730599 -0.0080409357 4287968309
-0.021919906 -0.02795922 -0.0077434378 4287903284
-0.019934349 -0.027839661 -0.0081057223 4288099379
-0.017816819 -0.028492175 -0.0078094909 4288360498
-0.015962966 -0.027600154 -0.0088300565 4288295219
-0.013977151 -0.0274802 -0.0091920951 4287968053
-0.011711411 -0.028903514 -0.0082401568 4288098868
-0.0095774829 -0.029554471 -0.0079465592 4288098868
-0.0075834095 -0.029433623 -0.0083097937 4287771959
-0.0057372525 -0.028541453 -0.0093284221 4287968053
-0.0035950989 -0.029191554 -0.0090360353 4287706679
-0.0012941845 -0.030612066 -0.0080899904 4287837494
0.00070544332 -0.030490354 -0.0084538432 4287575865
0.0028638132 -0.031139061 -0.0081640976 4286986813
-0.026250646 -0.028252319 -0.0095399478 4286921024
-0.024394482 -0.027358554 -0.010559634 4288098869
-0.022417232 -0.02723965 -0.010920518 4287837239
-0.020310856 -0.027895086 -0.010624056 4287902518
-0.018067308 -0.029324383 -0.0096717039 4287902518
-0.016081735 -0.029204577 -0.010033802 4287968054
-0.014096078 -0.029084645 -0.010395822 4287641144
-0.011970587 -0.029738456 -0.010102407 4287771448
-0.0098396614 -0.030391775 -0.0098099308 4287509818
-0.0077033043 -0.031044647 -0.0095183412 4287313724
-0.0058571473 -0.030150302 -0.010535297 4287052094
-0.0038658157 -0.030029386 -0.010897857 4287117374
-0.0017212555 -0.030681327 -0.010607448 4286986558
0.00058457255 -0.032105744 -0.0096655162 4286855744
-0.026489094 -0.029074892 -0.011397441 4286985793
-0.024635606 -0.028179139 -0.012414993 4287509819
-0.022661194 -0.028060406 -0.012775351 4287314234
-0.020557821 -0.028718181 -0.012479999 4287575354
-0.018317439 -0.030152008 -0.0115304 4287509819
-0.016200475 -0.030808717 -0.011237335 4287182653
0.016332665 0.0086204931 0.033349924 4281695563
0.017130744 0.013691768 0.028091377 4279870274
0.019866478 0.010989465 0.030516429 4280720698
0.023717327 0.0040505156 0.037122108 4280458559
0.026697157 0.00064583868 0.04023353 4279545404
0.031024376 0.00019425899 0.040178575 4281697859
0.032130308 0.0038500205 0.036325559 4281698114
0.031839278 0.01244279 0.027612811 4281763904
0.032872476 0.016094297 0.023773154 4280003894
0.035688549 0.013397686 0.026184289 4280198459
0.040767673 0.0029474646 0.036220036 4280001088
0.012304751 0.0060116723 0.033550411 4282151503
0.012116142 0.01535546 0.024109552 4281109319
0.013075814 0.019732118 0.019562019 4281240645
0.014179934 0.023398012 0.015717192 4280916284
0.016692448 0.021392964 0.017447349 4280981309
0.019585282 0.017972022 0.020566171 4279744559
0.022689775 0.013844468 0.024375444 4281112634
0.024889108 0.013259903 0.024705024 4281502018
0.026903611 0.013383761 0.024339424 4281502529
0.028146628 0.016339093 0.021198718 4281241408
0.028390326 0.022831626 0.014595341 4281046078
0.029378489 0.026491262 0.01077215 4281697349
0.031947136 0.024490476 0.012492739 4281110848
0.036568008 0.015418932 0.021129074 4280590394
0.043321781 -0.00071839243 0.036666527 4280590394
0.010158733 0.012897462 0.023952311 4282216273
0.010111015 0.021556303 0.015234631 4280457283
0.011389704 0.024521835 0.012093516 4280394044
0.012999991 0.026064064 0.01034661 4281763138
0.015137248 0.025473222 0.010685571 4281371968
0.018007614 0.022040039 0.013800144 4280980798
0.020720229 0.019319132 0.016216297 4280850493
0.02326701 0.017309986 0.017935473 4281372223
0.025069855 0.01814276 0.016881119 4281372223
0.0264819 0.020395301 0.014443535 4280850238
0.027096206 0.025486432 0.009242164 4280133943
0.028663177 0.027026832 0.0075037517 4281371458
0.031022366 0.025728576 0.0085301939 4280459323
0.034816395 0.019465506 0.014386365 4280394809
0.04072015 0.0061135441 0.027131213 4280199733
0.048187785 -0.012195252 0.044682413 4279874354
0.009699909 0.012698993 0.021342987 4282542419
0.0094776377 0.022097163 0.01195148 4280914753
0.010922501 0.024357513 0.0095123854 4279808054
0.0125276 0.025903828 0.0077697188 4280199989
0.014659196 0.025310419 0.0081080794 4279874354
0.017341454 0.02257891 0.010522963 4279353133
0.020229684 0.019136056 0.01362611 4280981053
0.022396155 0.018545136 0.013958337 4281241919
0.023998447 0.020091787 0.012216572 4281241663
0.025397412 0.022350043 0.0097863581 4281045314
0.02658497 0.025319472 0.0066690762 4279221044
0.028146755 0.02686394 0.0049348995 4279090483
0.030500125 0.02556096 0.0059591196 4279741498
0.033880576 0.020701066 0.010424392 4279221554
0.038534455 0.011575297 0.019011576 4280394299
0.045344763 -0.0046581626 0.034462348 4280784194
0.0091869775 0.021219946 0.010064 4281044803
0.010282423 0.024917752 0.0062456429 4280785723
0.012055892 0.025752515 0.0051995981 4281111869
0.014002889 0.025871839 0.0048459526 4280916028
0.016857909 0.02241604 0.0079466812 4281046333
0.019924095 0.018247113 0.011732979 4281111359
0.02227458 0.016939111 0.012754004 4281111104
0.023877069 0.018490136 0.011015546 4281045824
0.025468767 0.020040542 0.0092791636 4280980544
0.026464496 0.023733072 0.0054795481 4280980543
0.028026488 0.025281914 0.0037486795 4281045824
0.030178968 0.024688452 0.004082229 4281175619
0.033352338 0.020526871 0.0078496393 4281111103
0.037586927 0.012799583 0.015043635 4281241408
0.043757051 -0.001344502 0.028400892 4281306688
0.051512878 -0.020474337 0.046537168 4281306688
0.009238027 0.0189116 0.0095623359 4281305669
0.010336854 0.022620477 0.005751688 4280851003
0.01176092 0.024892665 0.0033264346 4281176894
0.013705105 0.02501183 0.0029733088 4281046589
0.016193591 0.022979446 0.0046879128 4281045823
0.019250598 0.018796913 0.0084659345 4281241664
0.021779362 0.016767204 0.01017339 4281111104
0.023755701 0.016888767 0.009814743 4280915519
0.025539797 0.017726988 0.0087689292 4280980799
0.026733795 0.020714186 0.0056638028 4280981054
0.027906224 0.02370017 0.0025626794 4280915518
0.029657874 0.024536707 0.0015229899 4280850238
0.032621793 0.021077603 0.0045962911 4280915264
0.036435086 0.014757328 0.01040417 4281306433
0.042171646 0.0020000115 0.022362506 4281371458
0.049904041 -0.017189853 0.040458173 4281371204
0.0094593056 0.01587911 0.0097472053 4281434188
0.010044556 0.021758899 0.0038765855 4281308474
0.011466298 0.024037458 0.0014567487 4280394808
0.013050472 0.025595613 -0.0002720505 4279025968
0.018578092 0.019360095 0.0052088629 4278506024
0.02128483 0.016604252 0.0075995512 4281111614
0.023445001 0.016006589 0.0079280399 4281242174
0.025610503 0.01540935 0.0082556363 4281242429
0.026613003 0.019124009 0.0044714529 4280981053
0.027588557 0.022837102 0.00069223344 4280654908
0.028737256 0.02583041 -0.0023978483 4278373934
0.031486679 0.023077846 -1.4403835e-05 4279220788
0.035284903 0.016737133 0.0057812426 4279219769
0.0410049 0.0039397851 0.017712658 4278633779
0.048297521 -0.013874523 0.034402229 4278633779
0.0089984983 0.015727192 0.0071740523 4281236309
0.0095795579 0.021624029 0.001317542 4281111613
0.011172008 0.02318693 -0.0004095044 4280980798
0.012753701 0.024749234 -0.0021344777 4281306433
0.014867961 0.024146251 -0.0017995648 4280590139
0.017538983 0.021379441 0.00059087574 4279219769
0.020417975 0.017892823 0.0036624828 4281110849
0.022945464 0.015850127 0.0053603332 4281372479
0.024913426 0.015971303 0.0050033126 4281373244
0.025908552 0.019696355 0.001228787 4280981309
0.02687674 0.02341985 -0.0025407672 4280719934
0.028217839 0.025700968 -0.0049402807 4281436228
0.030758474 0.023659602 -0.0032444149 4281305924
0.034341693 0.018018916 0.0018564267 4280327489
0.039631825 0.006621547 0.01239829 4280328254
0.047325402 -0.01268772 0.030411219 4280719168
0.0080277883 0.017757535 0.0025488613 4281435464
0.0087694675 0.022946715 -0.0026063286 4280851003
0.010351354 0.024513297 -0.004328141 4280394044
0.012100751 0.025355376 -0.005363062 4281370948
0.014387602 0.024025932 -0.0043439306 4281501764
0.01705246 0.021250084 -0.0019590091 4280785214
0.019738782 0.018475704 0.00042204931 4280329018
0.022257576 0.016425975 0.0021164911 4281241918
0.024025636 0.017269745 0.0010786047 4281176638
0.025010705 0.02100502 -0.0026857741 4281177149
0.026165908 0.024015993 -0.0057637934 4279676983
0.027699079 0.025580548 -0.0074760187 4280915264
0.030233709 0.023532331 -0.005784031 4281110594
0.033399813 0.019318424 -0.0020550974 4280653889
0.0386764 0.0078855753 0.0084626395 4280458304
0.046144072 -0.010761172 0.025754476 4280458304
0.053538196 -0.028677456 0.042342678 4280326978
0.0070587397 0.019809939 -0.0020597838 4281369674
0.0079607014 0.024287105 -0.0065169353 4280916793
0.00953204 0.025857322 -0.0082334634 4279286068
0.011626903 0.025248736 -0.0078984201 4279676984
0.013727123 0.024640575 -0.0075642727 4279807289
0.016566593 0.02112975 -0.0045022033 4280003128
0.019246753 0.018346295 -0.0021266211 4280915263
0.021570683 0.017015174 -0.0011173347 4281176639
0.022947639 0.01931116 -0.0035135597 4281242684
0.024114184 0.022331402 -0.0065870583 4281242430
0.025259169 0.025350422 -0.0096565597 4280654909
0.026981395 0.026193857 -0.010684226 4280263738
0.02950732 0.024138674 -0.0089956764 4280067389
0.03245927 0.02063559 -0.0059533012 4280327998
0.037099306 0.011340149 0.0025067972 4280654144
0.044543713 -0.0073644072 0.019759679 4280783683
0.052127764 -0.026060201 0.036987364 4280783683
0.0069406889 0.018240526 -0.0032368265 4280910929
0.0074983966 0.02418796 -0.0090491772 4281242173
0.0088892952 0.026490685 -0.011443503 4281046843
0.010797862 0.026607677 -0.011790149 4280784704
0.013428895 0.023812324 -0.0094124582 4280654143
0.01608141 0.021018386 -0.0070385933 4280914498
0.018569397 0.018953711 -0.0053486493 4281111104
0.020696122 0.018345304 -0.0050206785 4281240898
0.022254048 0.019919761 -0.0067309667 4281436739
0.023413055 0.022948205 -0.0097964481 4281373498
0.024944006 0.024521179 -0.011501631 4281438524
0.026663577 0.025366642 -0.012527136 4281307454
0.029388307 0.022577964 -0.010165824 4281306434
0.032134477 0.019790694 -0.0078082606 4281307199
0.036147039 0.012646124 -0.0013973946 4281306943
0.042945676 -0.0039368048 0.013787931 4281306943
0.050719313 -0.023416445 0.031651847 4281372223
0.056051228 -0.034175523 0.041392908 4281306434
0.0071620755 0.015209496 -0.0030508554 4280318819
0.0078987051 0.020443924 -0.0081702676 4281371203
0.0092980359 0.022753626 -0.010561086 4281306688
0.011392295 0.022140659 -0.010229267 4281240644
0.013672369 0.020797871 -0.0092189033 4281305924
0.015963186 0.019455791 -0.0082103722 4281109828
0.018078882 0.018844485 -0.0078821816 4281240644
0.020011399 0.018963397 -0.008232832 4281436484
0.021943877 0.01908242 -0.0085833911 4281371203
0.02368241 0.019931011 -0.0096108336 4281567300
0.025415502 0.020779423 -0.010637246 4281306179
0.027342437 0.020898432 -0.010986546 4281305923
0.029673222 0.019559607 -0.0099846609 4280980033
0.032219324 0.017492741 -0.0083096027 4280979524
0.035818111 0.011783883 -0.003264633 4280653633
0.04219006 -0.0033923388 0.010535574 4280784194
0.04973828 -0.022202902 0.02768332 4280784194
0.055272192 -0.033723399 0.038074978 4280979524
0.0084702894 0.015954152 -0.0066216146 4280714578
0.010055643 0.017538235 -0.0083307084 4280848964
0.011985436 0.017656542 -0.008681206 4280588863
0.014275791 0.016310044 -0.007676038 4280589374
0.016210927 0.016428903 -0.0080273272 4280589118
0.018146031 0.016547866 -0.0083785327 4280523583
0.020269452 0.015935004 -0.0080533111 4280914243
0.022398217 0.015322506 -0.0077289389 4280848453
0.024338569 0.015442148 -0.0080808243 4281110848
0.026278865 0.015561879 -0.0084326258 4281111104
0.0282191 0.015681729 -0.0087843174 4280913989
0.03056284 0.014339432 -0.0077881487 4280914499
0.032712784 0.013728857 -0.0074672187 4280782153
0.036111016 0.0087338537 -0.0031095976 4281044294
0.04227484 -0.0057570338 0.009982964 4281109318
0.049396206 -0.023163058 0.025743963 4281109318
0.054924615 -0.034718528 0.036110058 4281304139
0.0074335523 0.0098576099 -0.0033760173 4280188513
0.0092126504 0.010712117 -0.0044081965 4280976974
0.010986373 0.011566415 -0.005439301 4280979269
0.012932152 0.011685699 -0.0057927025 4280979523
0.014877915 0.011805102 -0.0061460072 4280980288
0.016823661 0.011924624 -0.0064992206 4280980288
0.018398374 0.01351285 -0.008202699 4281045059
0.020526867 0.012898132 -0.0078800553 4281110083
0.022660691 0.012283847 -0.0075582983 4281370948
0.024993401 0.010936201 -0.0065636905 4281370949
0.026944306 0.011056609 -0.0069174031 4281435973
0.028895151 0.01117713 -0.0072710114 4281305669
0.030845925 0.011297755 -0.0076245265 4281305413
0.03320526 0.0099521652 -0.0066343597 4281239624
0.036403239 0.0056754425 -0.0029609036 4281304394
0.042568974 -0.0088586062 0.010098103 4281173323
0.04926683 -0.024851218 0.024478408 4281173579
0.054792427 -0.03644149 0.034818448 4281107534
0.0074839871 0.0075410083 -0.0038838065 4280451418
0.0090938881 0.0091352016 -0.0055908388 4281108044
0.011042219 0.0092545301 -0.0059447843 4281175619
0.01281327 0.010110959 -0.0069736517 4281110339
0.01493885 0.0094935298 -0.0066524125 4281045059
0.016887136 0.0096132159 -0.0070060766 4281176129
0.018835396 0.0097330064 -0.0073596588 4281175108
0.020971641 0.00911659 -0.0070400811 4281436229
0.022731803 0.00997293 -0.0080665248 4281435973
0.025066741 0.0086210668 -0.0070755943 4281370949
0.026824098 0.0094774961 -0.0081014009 4281436229
0.028973587 0.0088623166 -0.0077838316 4281370949
0.030926909 0.0089831129 -0.008137797 4281240133
0.033288445 0.0076333955 -0.0071513741 4281304903
0.036901649 0.0018734485 -0.0021488052 4281174344
0.043071974 -0.012703598 0.01087616 4281043018
0.049561869 -0.028008714 0.024550503 4281108298
0.054660235 -0.038164109 0.033527084 4281172813
0.0071960092 0.0066997409 -0.0057443916 4280779603
0.0089751445 0.0075585917 -0.0067732423 4281044039
0.010923333 0.0076779053 -0.0071271709 4281240133
0.012871511 0.007797353 -0.0074809915 4281175619
0.014819678 0.0079169124 -0.0078347307 4281110339
0.016950302 0.0072977617 -0.0075159683 4281305668
0.019086285 0.0066790357 -0.0071980371 4281370949
0.021039741 0.0067992657 -0.0075524687 4281240133
0.022802599 0.0076579675 -0.0085777845 4281240134
0.024946518 0.0070400834 -0.0082610194 4281370438
0.02689983 0.0071606562 -0.0086151566 4281305158
0.029051686 0.0065435246 -0.0082996991 4281436229
0.031007553 0.0066644922 -0.0086541157 4281370949
0.033371303 0.0053105727 -0.0076714251 4281304903
0.036985721 -0.00046658516 -0.002682345 4281370438
0.04315526 -0.015086956 0.01030957 4281370438
0.049432166 -0.029700592 0.023282172 4281435719
0.053883865 -0.037675887 0.030236254 4281500488
0.0072461609 0.0043793991 -0.0062549878 4280517973
0.0090279989 0.0052406117 -0.007282713 4280912458
0.010978725 0.0053600967 -0.0076370966 4281109063
0.012929443 0.0054797009 -0.0079913791 4281239879
0.015059793 0.0048582256 -0.0076742638 4281239369
0.017013164 0.0049782172 -0.0080288593 4281306689
0.01933652 0.0036166757 -0.0070427712 4281436484
0.021482896 0.0029965863 -0.0067283418 4281369929
0.024015371 0.00089590251 -0.005076116 4281369929
0.025984712 0.0010173768 -0.005433226 4281565514
0.027954001 0.001138933 -0.0057902578 4281632324
0.030121662 0.00052063167 -0.0054793078 4281632324
0.032294631 -9.7237527e-05 -0.0051692519 4281567043
0.034676727 -0.0014543682 -0.0041931369 4281696838
0.038514972 -0.0079872459 0.0014459277 4281958214
0.044074964 -0.02043172 0.012403626 4281892678
0.049726196 -0.032870457 0.023344932 4281696328
0.053323068 -0.037913337 0.027620418 4281499978
0.009251954 0.0021747425 -0.0071240682 4280451928
0.010859713 0.0037819222 -0.0088206436 4280713303
0.012987075 0.0031579807 -0.0085047428 4280844883
0.014940323 0.0032778457 -0.0088594016 4280779348
0.017440012 0.0011683479 -0.0072065163 4280909398
0.02014064 -0.0016830862 -0.0048877657 4280974934
0.023237787 -0.0060187429 -0.0012364676 4280909143
0.026557352 -0.011095017 0.0030767964 4281628244
0.028757058 -0.011713736 0.0033800909 4281824338
0.030766498 -0.011589684 0.0030157873 4282282063
0.032775871 -0.011465505 0.002651603 4282020434
0.03518711 -0.012825251 0.003619046 4281756764
0.037609 -0.014184192 0.0045845844 4282148444
0.040866893 -0.018509075 0.0082074031 4282279514
-0.030556768 -0.010842331 0.038106538 4282405228
-0.018240474 -0.010101922 0.035858385 4282471273
-0.01709754 -0.0049052387 0.030617105 4281947249
-0.015328489 -0.0033333898 0.028856615 4280109719
-0.012486812 -0.0075570047 0.032652289 4280437138
-0.0096127689 -0.011778541 0.036442161 4281355904
-0.0072695166 -0.013101883 0.03745307 4281750388
-0.0053458661 -0.012252741 0.036383644 4280768128
-0.003427498 -0.011403866 0.035315298 4279260569
-0.0025563873 -0.0054903477 0.029405264 4281029504
0.00029078498 0.00054344535 0.023135593 4278338488
0.0046481751 -0.00065647066 0.023780575 4278797998
0.006672699 -0.00053306669 0.02341233 4279390618
0.0080373213 0.0024807528 0.020288615 4278737564
0.0087097827 0.0083829612 0.014415335 4279657094
-0.037246495 -0.009960033 0.035189219 4279980433
-0.036051109 -0.0040113702 0.029231912 4279455133
-0.032900184 0.0020545721 0.022917444 4278600119
-0.027622215 -0.0057100803 0.029844267 4279191464
-0.025593877 -0.005588226 0.02947397 4278997664
-0.023443572 -0.0061935931 0.029798804 4279063709
-0.022034772 -0.0024353862 0.025955131 4278800803
-0.020652715 0.0013213232 0.022116421 4278931364
-0.017040931 0.0037433133 0.019305781 4278404023
-0.014638346 0.0016842782 0.021019658 4278272444
-0.0097845197 -0.0024304688 0.024438756 4279128479
-0.0079065338 -0.0015820116 0.023379331 4278669479
-0.0061798543 -7.8082085e-06 0.021630252 4278538409
-0.0049099103 0.0037430003 0.017812653 4278734758
-0.0033640265 0.0060411543 0.015379468 4278404278
-0.0015260987 0.0068876818 0.01432764 4279059884
0.0024526604 0.0071298927 0.013603693 4278995879
0.0047663525 0.0058013052 0.014617343 4278996643
-0.038601682 -0.0028461218 0.025585217 4279259294
-0.037226297 0.001656957 0.0210397 4278603435
-0.035666518 0.0046975836 0.017891927 4278995880
-0.033795334 0.0055464804 0.016834388 4279258018
-0.029022127 0.00067503005 0.020972332 4278537644
-0.026904501 6.5356493e-05 0.021301417 4278865829
-0.025024675 0.00091525167 0.020242589 4278604198
-0.023398764 0.003223598 0.017798925 4278341803
-0.020194959 0.0078378469 0.012920534 4279192229
-0.018087454 0.0072281063 0.013251876 4278931108
-0.012891617 0.00091010332 0.018745365 4278799019
-0.010748897 0.00030285865 0.019070497 4278472618
-0.0090301633 0.0018807948 0.017326104 4278734759
-0.0074679404 0.0041861758 0.014894726 4278602668
-0.0042404719 0.0080667064 0.010729045 4279324318
-0.0025698654 0.009642154 0.0089937504 4279389088
-0.0004401803 0.0090347975 0.0093217772 4279061158
0.0015356354 0.0091551244 0.0089623053 4278340018
0.0036734641 0.0085484385 0.0092890579 4279061414
-0.040628977 -0.0053266585 0.025426676 4282601833
-0.039542213 0.001388967 0.018801687 4278865829
-0.036324486 0.0067542493 0.013215421 4278602414
-0.034466706 0.0076044798 0.012161974 4279389089
-0.032273851 0.0062579811 0.013189429 4278668204
-0.027617857 0.0021034628 0.016623266 4278865574
-0.025751434 0.0029546618 0.015568575 4278669479
-0.024386976 0.0067318231 0.011749582 4278537643
-0.020960972 0.0098943412 0.0082686003 4278339764
-0.018734973 0.0085505396 0.0092906263 4278864298
-0.01157099 0.0023320764 0.01441046 4278734503
-0.0097225271 0.0031831115 0.013359686 4278668969
-0.0081707053 0.0054943711 0.010935189 4278537898
0.00093851611 0.0097435564 0.0057074483 4278733229
0.0029061623 0.0098634958 0.0053495429 4279323298
0.0048738383 0.0099835396 0.0049917251 4278341804
-0.040947624 -0.0054857582 0.022815576 4282470763
-0.03996747 0.0019840747 0.015512643 4278735014
-0.030187793 0.0033108145 0.013013376 4278668968
-0.028210901 0.0034295171 0.012652418 4278734759
-0.02647654 0.0050161183 0.010911101 4278538409
-0.024876811 0.0073359162 0.0084821265 4278538409
-0.01436922 0.0042636991 0.010127408 4278668969
-0.012251284 0.0036505908 0.01045371 4278538154
-0.010270722 0.0037705228 0.010092853 4278603944
-0.0085811168 0.0053554177 0.0083604641 4278407083
-0.0070503876 0.0076720119 0.0059448835 4278668713
-0.0056866109 0.010719858 0.0028474638 4278602923
-0.0038835481 0.0115707 0.0018069958 4278340529
-0.0017732903 0.010957822 0.0021352256 4278340529
0.00050133467 0.0096137896 0.0031458819 4278995878
0.0023018271 0.010464817 0.0021061422 4279258019
0.0058867652 0.012166247 2.9853545e-05 4278345373
-0.041265585 -0.005635865 0.020211233 4282537319
-0.040391736 0.0025925934 0.012233583 4278669478
-0.038946398 0.0063954666 0.0084158201 4278472363
-0.037204534 0.0079862475 0.0066760723 4278930854
-0.035362802 0.0088398531 0.0056288075 4279127458
-0.033073857 0.0067470372 0.0073427465 4278865574
-0.030768633 0.0046553016 0.009053804 4278931108
-0.028802618 0.0047733188 0.0086948052 4278669479
-0.026957653 0.0056275576 0.0076472834 4278735014
-0.025365636 0.007953316 0.0052247178 4278735014
-0.023536526 0.0088067651 0.0041802963 4278341548
-0.021841913 0.010395616 0.0024498021 4278734503
-0.019630261 0.009042263 0.0034677768 4278734759
-0.017407767 0.0076896995 0.0044838134 4278996644
-0.015037131 0.0056027845 0.0061836075 4278735014
-0.012790281 0.0042519271 0.007195374 4278604199
-0.010817919 0.004371345 0.006835999 4278603944
-0.0089908354 0.0052254647 0.0057925526 4278538409
-0.007465139 0.0075482801 0.0033828188 4278538154
-0.0059555024 0.0098701641 0.00097612198 4278800549
-0.0041551106 0.010723062 -6.2235631e-05 4278865829
-0.0020478368 0.010107785 0.00026491191 4278799528
6.4842403e-05 0.0094929859 0.00059111137 4278930343
0.0018599853 0.010345861 -0.00044598337 4278995878
0.0039781034 0.0097316206 -0.00012059603 4278276779
-0.041184731 -0.0087350309 0.020376993 4282602854
-0.0404061 0.00025700033 0.011725973 4278801059
-0.039167233 0.005549252 0.0065361653 4278407083
-0.037320279 0.0064051598 0.0054895412 4278603944
-0.035588801 0.0079997778 0.0037550414 4278669479
-0.033416092 0.0066389516 0.0047761891 4278538409
-0.031232513 0.0052789152 0.0057953913 4278735014
-0.029156372 0.0046580508 0.0061252899 4278407594
-0.027195729 0.004775852 0.005767351 4278473129
-0.025482357 0.0063698664 0.0040366035 4278669224
-0.023653224 0.0072254762 0.0029938277 4278603433
-0.021958426 0.0088186562 0.0012666145 4278406319
-0.012908813 0.0026552975 0.0059975591 4278865574
-0.011364106 0.0049855188 0.0035891607 4278407083
-0.0096902549 0.006578058 0.0018663127 4278603689
-0.0080270767 0.0081700832 0.00014551263 4278537898
-0.0062240399 0.0090251714 -0.00089176279 4278537388
0.0015801266 0.0095001385 -0.0023118434 4279061413
0.0035312474 0.0096191838 -0.0026666494 4279193250
0.0054823905 0.0097383335 -0.003021379 4278278564
-0.040624879 -0.00059960783 0.0098378621 4279259549
-0.039492443 0.005449079 0.0039717034 4278537898
-0.036034644 0.0086464286 0.00051024836 4278271934
-0.031579904 0.0051751286 0.0032333005 4278537134
-0.029391266 0.0038111806 0.0042483397 4278734759
-0.027675144 0.005409576 0.0025203172 4278538409
-0.025846109 0.0062672496 0.0014790799 4278800294
-0.023769893 0.0056444854 0.0018075835 4278603434
-0.018045463 0.0067373812 5.6093559e-05 4278403513
-0.013446283 0.0032767951 0.0027543437 4278799018
-0.011766948 0.0048738718 0.0010337271 4278603433
-0.0099532604 0.0057315081 -3.9618462e-06 4278603434
-0.008440312 0.0080665201 -0.0024014218 4278340784
-0.0064922199 0.0081847757 -0.0027561346 4278537134
-0.0050033331 0.010518521 -0.0051489891 4278864299
0.0011394769 0.0093970075 -0.0048521026 4278864809
0.0032489151 0.0087779015 -0.0045284643 4279193249
-0.04094515 -0.00070784986 0.0072661676 4279193758
-0.039816961 0.0053578913 0.0014140476 4278406574
-0.036259584 0.00782004 -0.0013533374 4278733483
-0.029743791 0.0037116855 0.0016907174 4278472363
-0.027912185 0.0045715347 0.00065056421 4278472874
-0.026085809 0.0054311603 -0.0003884919 4278668969
-0.022577591 0.0078918785 -0.003145664 4278602414
-0.020638257 0.0080088079 -0.0034994045 4279389089
-0.018430583 0.0066423267 -0.0024906639 4278930088
-0.014122225 0.0046530589 -0.0011590254 4278471853
-0.012453467 0.0062538683 -0.0028744433 4278734503
-0.010505639 0.0063718855 -0.0032292791 4278734248
-0.0069102794 0.0080898404 -0.0052952687 4278471088
-0.0054264329 0.0104298 -0.0076822797 4279323554
-0.0034918189 0.010547489 -0.0080343513 4279192738
-0.0015571639 0.010665268 -0.0083863577 4278471854
0.0029669404 0.0079412907 -0.0063867788 4279258273
0.0052451417 0.0065804794 -0.0053898091 4278474149
-0.04146824 0.0006846711 0.0033302326 4279390873
-0.038631178 0.0083737224 -0.0042291149 4278930854
-0.036593951 0.0077436268 -0.0038974001 4278931364
-0.034438737 0.0063687637 -0.0028830972 4278669479
-0.032157451 0.0042495131 -0.0011876803 4278471854
-0.030331321 0.0051110461 -0.0022252165 4278472108
-0.028510429 0.005972378 -0.0032617133 4278800294
-0.026694782 0.006833531 -0.0042972243 4278800039
-0.02101687 0.0079274923 -0.0060371808 4279061923
-0.018948991 0.0073002428 -0.0057102903 4278996388
-0.016602349 0.0051858574 -0.0040260903 4278275249
-0.012570579 0.004677698 -0.0040568877 4278668969
-0.010622896 0.0047956929 -0.0044117086 4278734504
-0.0055433214 0.0088644475 -0.0088564809 4278537389
0.00026019663 0.0092177689 -0.0099124191 4278865063
0.002521798 0.0078514516 -0.0089158025 4278996390
0.0049603544 0.0057440028 -0.0072473749 4278604453
-0.042449474 -0.0092441738 0.010027841 4282011764
-0.04198999 0.0020948946 -0.00059241615 4279325339
-0.040776737 0.0074461624 -0.0057311631 4278275504
-0.030682169 0.0050339326 -0.0047661229 4278406828
-0.028746255 0.0051501617 -0.0051196138 4278668968
-0.026933275 0.0060132742 -0.006152933 4278865829
-0.025125552 0.006876193 -0.0071852035 4278472363
-0.014774289 0.0037297755 -0.0055611823 4278865829
-0.012971368 0.0045930818 -0.0065920483 4278538154
-0.011173747 0.0054562017 -0.0076218527 4278603944
-0.0093814507 0.0063191429 -0.0086506624 4278734503
-0.0074445419 0.0064367056 -0.0090033505 4278406828
-0.0037258565 0.0074170157 -0.010382509 4278341039
0.00030356273 0.0069081932 -0.010413283 4278930853
0.0022406727 0.0070263594 -0.010765554 4278930853
0.0046759136 0.0049121529 -0.0091014709 4278866593
-0.04240901 0.0027725622 -0.0038196202 4278735524
-0.041098721 0.0073884279 -0.0082637277 4278669734
-0.039072968 0.0067531615 -0.0079333503 4278735013
-0.037041686 0.0061183572 -0.0076038837 4278865829
-0.03511706 0.0062335655 -0.0079555754 4278734758
-0.033077434 0.0055994093 -0.0076274406 4278800294
-0.031032324 0.0049657524 -0.0073002554 4278734759
-0.028981708 0.0043325573 -0.0069739763 4278603943
-0.027171396 0.0051976591 -0.008005172 4278931618
-0.025366347 0.0060625449 -0.0090353172 4278866339
-0.023566566 0.0069272816 -0.010064447 4278866338
-0.021641083 0.0070433393 -0.010415688 4279062944
-0.019448232 0.0056629032 -0.0094141867 4278866339
-0.017108221 0.0035350844 -0.0077387653 4278866338
-0.014891028 0.0021563917 -0.0067415703 4278866083
-0.012946397 0.0022740811 -0.0070959348 4278800804
-0.011146083 0.0031394884 -0.0081245918 4278800804
-0.009351071 0.0040047169 -0.0091521908 4278931618
-0.0074116178 0.004122436 -0.0095053408 4279063199
-0.0054721162 0.0042402819 -0.0098584089 4279063199
-0.0035325699 0.004358232 -0.010211403 4279194013
-0.0015929788 0.0044763088 -0.010564318 4278931874
0.00034663826 0.0045945197 -0.010917136 4278932128
0.0022862852 0.0047128499 -0.011269869 4279259549
0.0047235675 0.0025923252 -0.0096111763 4279063709
0.0068398602 0.0019652098 -0.0092952456 4279394953
0.012867773 0.0015779063 -0.0096896794 4280050559
0.015000174 0.00095227361 -0.0093762968 4279984514
0.017319916 -0.00041824579 -0.0083962809 4279525513
0.02057378 -0.0055139363 -0.004082887 4279656584
0.024802033 -0.014332242 0.0035564825 4279591049
0.029284772 -0.023891352 0.011850338 4280246908
-0.042421959 0.00045390427 -0.0043144822 4279325338
-0.041212134 0.0058352202 -0.0094294008 4278669988
-0.039293297 0.005949825 -0.0097802281 4278735524
-0.03726501 0.0053126439 -0.0094519034 4278866339
-0.035231195 0.0046759248 -0.0091244876 4278734758
-0.033306569 0.0047912076 -0.0094761178 4278603688
-0.031264424 0.004155159 -0.0091500115 4278538153
-0.029336855 0.0042708516 -0.009502003 4278473128
-0.027163707 0.0028844625 -0.0085006449 4278473385
-0.025355939 0.0037516654 -0.0095296316 4278604454
-0.023425337 0.0038679019 -0.0098819006 4278408104
-0.021625426 0.0047348589 -0.010909287 4278473639
-0.017496783 0.0034670234 -0.010264104 4278604453
-0.015146576 0.0013334528 -0.0085954312 4278407849
-0.0051324069 0.0004235208 -0.0090214331 4278276524
-0.0033399165 0.0012911111 -0.010046633 4278276779
0.00054974109 0.0015280396 -0.010754263 4278276524
0.0023315884 0.0023953319 -0.011777258 4278407849
0.0046052076 0.0010169372 -0.010792734 4278604708
0.0067211874 0.00038765371 -0.010478398 4278867614
0.0090136435 -0.00098939985 -0.0094970781 4278867358
0.010621753 0.00062644482 -0.011187086 4278932383
0.012748489 -1.847744e-06 -0.010874378 4279130009
0.014701437 0.0001180172 -0.011228973 4279130009
0.017381664 -0.0027520508 -0.0089199264 4278933149
0.021005936 -0.0093574822 -0.0032875901 4278933149
0.025988927 -0.021190189 0.006990511 4278998938
0.03086794 -0.032270402 0.016588679 4279392403
-0.042334095 -0.0026232898 -0.0041334839 4281422204
-0.041014127 0.0020190626 -0.0085594822 4278539684
-0.039193861 0.0028884113 -0.0095897652 4278342569
-0.037051335 0.0014952421 -0.0085865241 4278473384
-0.035009779 0.00085678697 -0.0082622059 4278276779
-0.033077233 0.00097253174 -0.0086152926 4278342314
-0.031144567 0.0010884106 -0.0089683104 4278276779
-0.029211767 0.0012044013 -0.0093212742 4278342314
-0.025095291 -6.9528818e-05 -0.0086779017 4278539174
-0.02315677 4.7177076e-05 -0.0090316255 4278407849
-0.021348801 0.00091683865 -0.010058856 4278277034
-0.019546095 0.001786232 -0.011085002 4278408103
-0.017340649 0.00039798766 -0.010092376 4278538919
-0.015124399 -0.0009894371 -0.0091016646 4278473384
-0.012897328 -0.0023760721 -0.0081128124 4278342314
-0.011091612 -0.0015060157 -0.0091391485 4278407849
-0.0089977197 -0.0021397844 -0.0088232104 4278342314
-0.0070478208 -0.0020214468 -0.0091782752 4278408104
-0.004945755 -0.0026545152 -0.0088635925 4278669989
-0.0031478815 -0.0017843992 -0.0098881554 4278538919
-0.0011978485 -0.0016656816 -0.010242967 4278408104
0.00075221434 -0.0015468523 -0.010597693 4278473639
0.002702307 -0.0014278814 -0.010952326 4278473384
0.0048179701 -0.0020595342 -0.010639658 4278342314
0.0067707803 -0.0019401535 -0.010994589 4278473384
0.0088945162 -0.0025710091 -0.01068324 4278604454
0.01102362 -0.0032014102 -0.01037276 4278604709
0.013158089 -0.0038313568 -0.010063159 4278473384
0.015118947 -0.0037110001 -0.010419185 4278801314
0.017261442 -0.0043402016 -0.010110854 4278603943
0.021068437 -0.011714756 -0.0038293484 4278669478
0.026051311 -0.023582011 0.006422203 4278932128
0.030740663 -0.033945456 0.015332693 4280111503
-0.042044915 -0.0072224066 -0.0026041484 4281094783
-0.040817045 -0.0018097982 -0.0076991771 4278867104
-0.038988702 -0.00093786418 -0.0087292474 4278408104
-0.036947586 -0.0015786365 -0.0084066074 4278408104
-0.034900941 -0.0022190064 -0.0080848448 4278539174
-0.03307756 -0.0013469756 -0.009113783 4278408104
-0.031025283 -0.0019867867 -0.0087928828 4278473384
-0.029087253 -0.0018704981 -0.0091468003 4278735524
-0.025085762 -0.0023928285 -0.0091815498 4278538408
-0.023144707 -0.0022759885 -0.0095357466 4278603943
-0.02133403 -0.0014040619 -0.010561781 4278473384
-0.019395463 -0.0012871474 -0.010915352 4278473639
-0.017185137 -0.0026793703 -0.0099269692 4278669989
-0.014963984 -0.0040708482 -0.0089404751 4278604454
-0.012873217 -0.0047072619 -0.0086257746 4278538919
-0.010920912 -0.0045890361 -0.0089814803 4278538919
-0.0089685395 -0.0044706762 -0.0093370965 4278473384
-0.0067175776 -0.0058598369 -0.0083556538 4278408104
-0.0047597289 -0.0057408959 -0.0087120747 4278342569
-0.0031111017 -0.0041148439 -0.010403446 4278538919
-0.0011585355 -0.0039959773 -0.010758719 4278538919
0.00079406053 -0.003876999 -0.011113915 4278407849
0.0029093847 -0.004510887 -0.010802961 4278866594
0.004864715 -0.004391484 -0.011158451 4278669989
0.0068200585 -0.0042719617 -0.011513854 4278801059
0.0089461636 -0.0049048215 -0.011204577 4278538664
0.010904199 -0.0047848821 -0.011560279 4278407594
0.013214476 -0.0061691999 -0.010588686 4278604199
0.014999058 -0.0052966699 -0.011608287 4278538919
0.017504241 -0.0074318051 -0.0099762557 4278538664
0.021314796 -0.014827713 -0.0037120129 4278538664
0.026113385 -0.025977872 0.0058508739 4279194268
0.03023429 -0.034117498 0.012754599 4281029503
-0.042059325 -0.0095618367 -0.0031146919 4280439434
-0.040724322 -0.0048926845 -0.0075235693 4278669988
-0.038678288 -0.0055354536 -0.0072035925 4278735523
-0.036844403 -0.0046609268 -0.0082329391 4278670244
-0.034792714 -0.0053031221 -0.0079138083 4278539174
-0.032849729 -0.0051867813 -0.0082688285 4278801314
-0.030789718 -0.0058282614 -0.0079510426 4278735523
-0.028843783 -0.0057114959 -0.0083064204 4278604453
-0.026897743 -0.0055946261 -0.0086617311 4278603943
-0.025076516 -0.0047201589 -0.0096882312 4278472874
-0.023132935 -0.0046031922 -0.010042909 4278341804
-0.021189243 -0.0044860989 -0.010397508 4278407339
-0.019245461 -0.004368864 -0.010752033 4278603943
-0.016894549 -0.0065219849 -0.0090985214 4278800804
-0.01480417 -0.0071606785 -0.0087855449 4278866339
-0.012708358 -0.0077989101 -0.0084734699 4278407849
-0.010894567 -0.0069240406 -0.0094979545 4278407849
-0.0087932497 -0.0075617135 -0.0091866991 4278670244
-0.0068356022 -0.0074429214 -0.0095431944 4278473639
-0.0047261044 -0.0080798268 -0.0092332242 4278669988
-0.0030746236 -0.0064492673 -0.01092179 4278669988
-0.00096236914 -0.0070857704 -0.01061214 4278604453
0.00099545717 -0.0069664568 -0.010968267 4278539174
0.0031158254 -0.0076022223 -0.01065991 4278670244
0.0049111564 -0.0067274868 -0.011680289 4278735779
0.0070369374 -0.0073626414 -0.011372696 4278342569
0.0091680922 -0.0079973713 -0.011066007 4278342569
0.011304632 -0.0086316764 -0.010760154 4278669989
0.013446528 -0.0092654824 -0.010455216 4278538919
0.015236489 -0.0083904415 -0.011474128 4278866849
0.017565055 -0.0097777098 -0.010508972 4278604709
0.021376498 -0.017195173 -0.0042614751 4278801314
0.025615035 -0.026116639 0.0032964675 4278670498
0.029539198 -0.033526935 0.0095236916 4282339693
-0.04207401 -0.011905305 -0.0036282795 4280504714
-0.040838823 -0.0064620897 -0.0087014204 4278669988
-0.038687095 -0.0078677982 -0.007709994 4278604453
-0.036850519 -0.0069909766 -0.008738189 4278669988
-0.034796447 -0.007635206 -0.0084211631 4278604709
-0.032964952 -0.0067584515 -0.0094482591 4278735523
-0.030905254 -0.007402122 -0.0091320863 4278735523
-0.029078878 -0.006525442 -0.010158057 4278735523
-0.02713567 -0.0064087436 -0.010512858 4278603943
-0.025192335 -0.0062919185 -0.010867591 4278276269
-0.023248889 -0.0061749667 -0.011222246 4278669223
-0.02130536 -0.0060578808 -0.011576819 4278407083
-0.019096069 -0.0074589849 -0.010595008 4278603943
-0.017011449 -0.0081003532 -0.010282694 4278735013
-0.014783189 -0.0095000267 -0.0093041239 4278866083
-0.012685001 -0.0101403 -0.0089941537 4278538408
-0.010724947 -0.010021612 -0.0093512787 4278669478
-0.0086185634 -0.010661133 -0.0090425974 4278735524
-0.0068046451 -0.0097838566 -0.010065272 4278801058
-0.0046927854 -0.010422789 -0.0097573986 4278931873
-0.0030384511 -0.0087877363 -0.011443171 4278669733
-0.00092381984 -0.009426266 -0.011135614 4278538663
0.00087684393 -0.0085492879 -0.012155487 4278604198
0.0031592697 -0.009944573 -0.011185936 4278866593
0.0051223487 -0.0098247007 -0.011542837 4278932128
0.0074209347 -0.011218786 -0.010575986 4278801058
0.0097302534 -0.01261206 -0.009611032 4278867104
0.011704098 -0.012491152 -0.0099695986 4278605219
0.013677929 -0.01237011 -0.010328076 4278801058
0.015473271 -0.011492588 -0.011346306 4278604708
0.018169072 -0.01439631 -0.0090665706 4278473638
0.021621749 -0.02032277 -0.0041550398 4278735523
0.025676975 -0.028514057 0.0027239798 4279391639
0.029223569 -0.034434468 0.0076186676 4282668134
-0.042289905 -0.012726352 -0.0054897624 4280112013
-0.040643819 -0.01032044 -0.0078632711 4278801058
-0.038696177 -0.010204196 -0.0082194274 4278800803
-0.036748379 -0.010087825 -0.0085755205 4278473128
-0.03480044 -0.0099713281 -0.0089315502 4278735524
-0.032852381 -0.009854719 -0.0092875278 4278866593
-0.030904189 -0.0097379684 -0.0096434234 4278931873
-0.028836608 -0.010383263 -0.0093302345 4278735523
-0.02688548 -0.01026611 -0.0096864877 4278735523
-0.024809629 -0.0109106 -0.0093746474 4278604453
-0.02298291 -0.010031387 -0.010398752 4278472873
-0.021031477 -0.0099138543 -0.010754793 4278669479
-0.018814594 -0.011318818 -0.0097776754 4278604198
-0.016722247 -0.01196184 -0.0094684837 4278801058
-0.014762491 -0.011843413 -0.0098257354 4278866593
-0.01266193 -0.01248572 -0.0095178699 4278473384
-0.010842748 -0.011606202 -0.010540026 4278735523
-0.0085905865 -0.01300846 -0.0095688282 4278604454
-0.0069227591 -0.011368468 -0.011253963 4278932128
-0.0046597458 -0.012769833 -0.010284561 4279979924
-0.0026942566 -0.012650311 -0.010642282 4279914643
-0.00057189167 -0.01329051 -0.010337785 4279521943
0.0013963543 -0.013170585 -0.010695833 4280111503
0.0036890432 -0.014569581 -0.0097314678 4280307854
0.005992502 -0.015967809 -0.0087689087 4280111249
0.0083067045 -0.017365217 -0.0078082532 4280111248
0.010461394 -0.01800283 -0.0075091608 4279849109
0.01262146 -0.018640012 -0.007210888 4280569739
0.014786886 -0.019276679 -0.0069135278 4280701063
0.016601028 -0.018395856 -0.0079335235 4280832644
0.018952796 -0.019790307 -0.0069791973 4280832644
0.022050042 -0.024216875 -0.0033976585 4280636039
0.025365857 -0.029399388 0.00083494838 4282077044
-0.042003863 -0.017369851 -0.0039937571 4281160319
-0.040449724 -0.014191583 -0.0070346366 4279324829
-0.03849417 -0.014074877 -0.0073922495 4279062944
-0.036538474 -0.013958052 -0.0077498103 4278866594
-0.034582652 -0.013841107 -0.0081072971 4279194013
-0.032626674 -0.013724014 -0.0084647164 4279718293
-0.030670576 -0.013606802 -0.0088220648 4279914643
-0.028595261 -0.014253758 -0.0085119903 4279848854
-0.026636235 -0.014136143 -0.0088696964 4280306578
-0.024677105 -0.014018379 -0.0092273168 4280372114
-0.022845007 -0.0131367 -0.010250766 4280568974
-0.020758525 -0.013782494 -0.0099423565 4280700044
-0.018534061 -0.015191376 -0.0089699067 4280699788
-0.016298775 -0.016599439 -0.0079993792 4281878909
-0.014190547 -0.017243519 -0.0076946244 4282075004
-0.012358014 -0.016361207 -0.0087176822 4281942658
-0.010387529 -0.016241893 -0.0090767108 4282073983
-0.0084169768 -0.016122468 -0.0094356686 4282336633
-0.006446369 -0.016002893 -0.0097945221 4282859894
-0.0043244101 -0.016645551 -0.0094918124 4283121523
0.0093579628 -0.024298802 -0.004401241 4282731884
0.011361022 -0.024176225 -0.0047652167 4282536808
-0.041618906 -0.022798017 -0.0018414073 4282601833
-0.039845183 -0.02114518 -0.0035408325 4282077808
-0.037976511 -0.020260066 -0.0045700818 4281946483
-0.036004864 -0.020142302 -0.0049305633 4281684344
-0.033922203 -0.020791396 -0.0046237409 4281881203
-0.031947598 -0.020673215 -0.0049845763 4282077554
-0.029972866 -0.0205549 -0.0053453408 4282076534
-0.027998015 -0.020436466 -0.0057060421 4282795123
0.0040194616 -0.033538043 -0.014111743 4282665583
0.0065040849 -0.035746485 -0.012531256 4282470509
0.0080521535 -0.035683326 -0.015398735 4281616768
0.0097584818 -0.036392495 -0.017613916 4282929510
-0.039970323 -0.029878221 -0.021740809 4282601323
-0.042134658 -0.030777186 -0.023216616 4282535788
-0.018628232 -0.032531343 -0.027375309 4282929254
-0.01901076 -0.03251981 -0.029840959 4282666603
-0.019259825 -0.033295244 -0.031659864 4282601579
