# .PCD v0.7 - Point Cloud Data file format
VERSION 0.7
FIELDS x y z rgba
SIZE 4 4 4 4
TYPE F F F U
COUNT 1 1 1 1
WIDTH 936
HEIGHT 1
VIEWPOINT 0 0 0 1 0 0 0
POINTS 936
DATA ascii
-0.0037086091 0.013511548 0.026677281 4288033843
-0.0032170161 0.0097791124 0.027698725 4287706679
-0.0020862694 0.013053875 0.023475289 4288034608
-0.00055129896 0.015073214 0.020765379 4287841064
-0.0029364477 0.006662786 0.027957618 4287771449
-0.0015868961 0.0093199052 0.024493732 4287968309
-0.00025883294 0.011975735 0.021034315 4288231468
-0.0028663806 0.0041693635 0.027458586 4287705659
-0.0013010462 0.006204132 0.02475176 4288033589
3.296067e-05 0.0088693947 0.02129738 4288362284
0.0011276074 0.012164576 0.017097123 4289017123
0.0019748372 0.016089221 0.012152605 4288690213
0.039421145 -0.0053865612 0.033886738 4287183928
-0.0030063044 0.0023056343 0.026206203 4287771704
-0.0016529064 0.0049810857 0.022754021 4288033589
-0.00032099406 0.007655248 0.019306302 4288558634
0.00098943361 0.010328086 0.015863113 4289344034
0.0022783477 0.01299968 0.01242435 4289540384
0.0037687996 0.015036831 0.0097377673 4289541913
0.028813019 0.001747705 0.02284956 4287315000
0.032024346 -0.0006361939 0.025364935 4287249974
0.035004411 -0.002387397 0.027134329 4287249463
0.039531544 -0.007924065 0.033347279 4287314489
-0.0033557068 0.0010784306 0.024205051 4287837494
-0.0017922453 0.0031266809 0.021507926 4288164914
-0.00024489569 0.0051739626 0.018814228 4288689194
0.0010687814 0.0078560933 0.015376568 4288950823
0.002360956 0.010536937 0.011943385 4289671198
0.00363162 0.01321649 0.0085146651 4289803034
0.0055574607 0.013989003 0.0073274001 4289607193
0.007021361 0.016031424 0.0046510771 4289019419
0.02572605 0.001635801 0.019819982 4287184949
0.02867103 -0.00012453645 0.021591812 4287445048
0.031881578 -0.0025174767 0.024101138 4287445559
0.034608673 -0.0036418699 0.025125809 4287249209
0.039386518 -0.0098324604 0.032065317 4287248954
-0.003914074 0.00049454719 0.021459699 4287314999
-0.0023555651 0.0025492646 0.018768281 4287838003
-0.00059851049 0.0039648563 0.016826555 4288820263
0.0009304306 0.0060178339 0.014141381 4289343524
0.0022231902 0.0087077525 0.010714315 4289998364
0.0037171452 0.010758718 0.0080364048 4290129944
0.005645738 0.011533672 0.0068501383 4290326549
0.0071127294 0.013583092 0.0041778833 4290327058
0.0092558032 0.013720023 0.0037380978 4289607959
0.011865636 0.012583006 0.0047833771 4288300064
0.019504914 0.0039447136 0.014281355 4287447598
0.022414757 0.0021752268 0.016055629 4287446323
0.025828801 -0.00086577982 0.019307233 4287510838
0.029022656 -0.0032688417 0.021813728 4287445049
0.032237764 -0.0056704283 0.024315856 4287445303
0.03522196 -0.0074348152 0.026075117 4287445304
0.039751153 -0.013011847 0.032259688 4287445303
-0.00073726731 0.0021200329 0.015586935 4288102184
0.0007920817 0.0041798241 0.012906373 4289148704
0.0020854168 0.0068788342 0.0094854385 4290129178
0.003357243 0.0095765442 0.0060689747 4290456598
0.0055084443 0.0097138472 0.0056274235 4290391573
0.0074316496 0.010490827 0.0044438988 4290261014
0.0095799835 0.010628127 0.0040030554 4290457364
0.012427983 0.0088476818 0.0057851821 4290260504
0.016235664 0.0045119934 0.010525696 4288689449
0.019842107 0.00081769377 0.014518745 4288689194
0.022515398 -0.00031947345 0.015548095 4287969328
0.025687193 -0.002733022 0.018052839 4287772468
0.028633613 -0.0045066848 0.019815035 4287772213
0.031845257 -0.006917499 0.022311732 4287510838
0.034826167 -0.0086888149 0.024067029 4287445559
0.039605707 -0.014924265 0.030975044 4287380534
0.00065372908 0.0023420826 0.011671543 4288888348
0.0021673285 0.0044077709 0.0089989007 4290195478
0.0038871614 0.0058302768 0.0070713088 4290391319
0.0058212439 0.0066101514 0.0058870688 4290260759
0.0075221388 0.0080316775 0.0039634481 4290522133
0.0096730506 0.0081691556 0.0035220906 4290456854
0.012756188 0.0057405867 0.0060385689 4290325783
0.016567921 0.0013893992 0.010767363 4288951334
0.020178607 -0.0023181587 0.014750272 4289016359
0.02261568 -0.0028184429 0.015037708 4288034609
0.02578936 -0.0052408539 0.01753585 4287969074
0.028984316 -0.007661812 0.020029709 4287772213
0.031453073 -0.0081597939 0.020310834 4287511093
0.034430679 -0.0099380314 0.022062168 4287249973
0.039205719 -0.01619627 0.028955571 4286923319
0.0035272471 0.0046486259 0.0051042363 4290654734
0.0054587023 0.0054306537 0.003922075 4290785293
0.0076122778 0.0055682436 0.0034801215 4290652948
0.0099960016 0.0050619207 0.0037767589 4290521369
0.013083694 0.0026246868 0.0062860474 4289998109
0.016899494 -0.0017420314 0.011003174 4288558378
0.020276111 -0.0048193261 0.014239043 4289081638
0.022956528 -0.005964946 0.015260711 4288165678
0.025403911 -0.0064667426 0.015544593 4287904048
0.028102782 -0.0076109916 0.016562611 4287381553
0.0057706349 0.002316162 0.0041744784 4290393103
0.0079294583 0.0024541058 0.0037314743 4290785293
0.010318244 0.0019459166 0.0040254816 4290652949
0.012945022 0.00079209358 0.0050548613 4290063388
0.016524097 -0.0029445663 0.0090255439 4288427563
0.019658975 -0.0053876154 0.011519112 4288558633
0.022092814 -0.0058925487 0.011804141 4288166188
0.024531864 -0.0063970461 0.012088172 4287381298
0.010409903 -0.00053037331 0.0035329014 4289935123
0.012806336 -0.0010402054 0.0038238689 4289541913
0.016149009 -0.0041422509 0.0070511028 4287839024
0.0025098615 -0.012418341 -0.0051895715 4289869843
0.0023721235 -0.014241572 -0.0064145289 4289345308
0.0043067811 -0.013436664 -0.0075816177 4289475868
-0.00014100852 -0.015532836 -0.0079204179 4289738774
0.0024547104 -0.016733874 -0.006915912 4289932319
0.0046150731 -0.016595714 -0.0073591545 4289932573
0.0070010265 -0.017126482 -0.0070800334 4290129433
0.0100773 -0.019663427 -0.0046366975 4287775273
-0.00027843355 -0.017353196 -0.0091434754 4290392594
0.0027571025 -0.019902024 -0.0066982582 4290193438
0.0053683482 -0.021106485 -0.0056999139 4289277989
0.0077646999 -0.021638818 -0.0054244623 4288231979
1.8745894e-05 -0.020521361 -0.0089245327 4290784528
0.0032788042 -0.023752831 -0.0057660788 4289211944
0.0061202543 -0.025635019 -0.004052598 4288492333
0.0083016753 -0.025495358 -0.0045000575 4287773744
0.00053238799 -0.024374641 -0.0079920515 4288034863
0.0037994853 -0.027616873 -0.0048427992 4287641653
0.0064258156 -0.028829291 -0.0038537867 4287576118
0.0083872965 -0.028013468 -0.0050200224 4287184693
0.0012619563 -0.028919674 -0.0063506439 4288034353
0.0040994985 -0.030815683 -0.004645735 4287641399
0.0065083848 -0.031354032 -0.0043775551 4287445303
0.0084725739 -0.030535765 -0.0055427887 4287185203
-0.0036569934 -0.029674895 -0.0081270523 4287446834
-0.0010555254 -0.030898236 -0.0071393847 4287708463
0.0015566081 -0.032120809 -0.0061537698 4288623913
0.0041793669 -0.033342548 -0.0051702932 4287576884
0.0063684806 -0.033202462 -0.0056193806 4287445813
0.0083326949 -0.032381922 -0.0067830496 4286988853
-0.0089652957 -0.029051296 -0.011335395 4287447344
-0.005968445 -0.03164804 -0.008913558 4287380789
-0.0033727631 -0.03287635 -0.0079278797 4287380534
-0.00076641212 -0.0341039 -0.0069442578 4287315253
0.00141734 -0.033964396 -0.0073924065 4287707953
0.0038203199 -0.034507699 -0.0071261898 4288165934
0.0062285792 -0.035050549 -0.0068609715 4287446324
-0.014629723 -0.027033269 -0.015973095 4288625444
-0.011671108 -0.02964168 -0.013549782 4289016359
-0.0086911069 -0.032248601 -0.011130773 4288296493
-0.0061065769 -0.033482254 -0.010146003 4287706933
-0.0037224747 -0.034029387 -0.0098777227 4287576628
-0.0013330753 -0.034576029 -0.0096104294 4287248953
0.0012780831 -0.035807632 -0.0086308047 4287446323
0.0036807416 -0.036353208 -0.0083660781 4288101673
-0.017109448 -0.028292112 -0.017464928 4288165933
-0.014365255 -0.03022185 -0.015760101 4288034863
-0.011605012 -0.032150485 -0.014058448 4288034863
-0.0086231632 -0.034766279 -0.011646029 4288623659
-0.0064529432 -0.034627996 -0.012091644 4288230958
-0.0040718401 -0.035177551 -0.011824291 4287446323
-0.0016854338 -0.035726637 -0.011557937 4287184183
0.00092255627 -0.036962926 -0.010580756 4287053878
-0.01919377 -0.030928098 -0.017525241 4287839278
-0.016850328 -0.031482942 -0.017252143 4288099633
-0.014301484 -0.032728262 -0.016266461 4287969074
-0.011539237 -0.034663461 -0.014569912 4287707699
-0.0085555436 -0.037288122 -0.012164079 4287969328
-0.0070070457 -0.035078429 -0.014745958 4288558379
-0.0048423652 -0.034940362 -0.015190341 4287512624
-0.020899743 -0.034955882 -0.01615984 4287314999
-0.019329397 -0.032738701 -0.018742003 4287445048
-0.016986277 -0.03329581 -0.018470392 4287968819
-0.014437922 -0.034545645 -0.017487705 4287903538
-0.011676337 -0.036487617 -0.01579567 4287773234
-0.0091039417 -0.037735648 -0.014817733 4287511859
-0.00735253 -0.036212198 -0.016683556 4287708463
-0.020652328 -0.038164757 -0.01595661 4286595134
-0.019270636 -0.035244696 -0.019246899 4287445049
-0.016925167 -0.035803907 -0.018977329 4288165423
-0.014374631 -0.037058085 -0.017998181 4287642163
-0.011611037 -0.039006673 -0.016311217 4287446324
-0.016864365 -0.03831622 -0.019487023 4287576628
-0.014311659 -0.039574727 -0.018511482 4287119413
0.011484472 0.046987157 0.024919316 4281241153
0.012443583 0.050104327 0.020629898 4281241664
0.016006829 0.046663925 0.024809077 4280981564
0.0053738253 0.043565694 0.026561119 4282154053
0.0072927969 0.044301275 0.02534999 4281567554
0.0087443758 0.04623406 0.022601083 4280589118
0.0090114744 0.05115892 0.016010784 4279742773
0.010417252 0.053088918 0.013271302 4280264248
0.013479955 0.050830062 0.015910104 4280459833
0.018980935 0.042591684 0.026217468 4279938613
-0.00081817317 0.046287648 0.020059809 4281761099
0.00019395654 0.04943062 0.015774995 4280524603
0.0025318565 0.048963606 0.01611013 4279939378
0.00533129 0.04729452 0.017981276 4280199479
0.0074542863 0.047429658 0.017545268 4281110338
0.0086432388 0.049968351 0.014039628 4280849984
0.010519134 0.050703581 0.012839071 4280719679
0.013106073 0.049636941 0.013938591 4280394044
0.017152775 0.04496881 0.019630611 4280785724
0.020997994 0.040903676 0.02454862 4280980798
0.024386816 0.03804101 0.027929693 4280915008
0.028051857 0.034580205 0.032069482 4281110339
-0.0030598126 0.038173534 0.027420923 4282151758
-0.0035137625 0.045560386 0.017748252 4280848964
-0.0031524578 0.050527159 0.011163481 4281045313
-0.0014985751 0.051868323 0.0091960728 4281371714
0.0012708858 0.050190534 0.011068687 4280328254
0.0047401963 0.046703361 0.015238993 4280588863
0.0070884069 0.046234872 0.015570536 4280914753
0.0089752534 0.046973046 0.014369279 4280849474
0.01062063 0.048313893 0.012403846 4280914243
0.013209849 0.047242913 0.013499811 4280980543
0.016292386 0.044967368 0.016122133 4281111103
0.018908152 0.043898143 0.017212763 4280915773
0.02030091 0.045841139 0.014485508 4280850749
0.021428043 0.04838527 0.010999046 4280330293
0.025306389 0.044306591 0.015899524 4280068919
0.033043321 0.03120371 0.032214686 4279938869
-0.0059844842 0.038034074 0.024331838 4281891148
-0.0057691317 0.043629821 0.016977176 4281109829
-0.0051679593 0.048009653 0.011167839 4280132158
-0.0041649016 0.051174618 0.0069004819 4280068409
-0.0022990301 0.051913537 0.0057049543 4279936829
0.00046180165 0.050228469 0.0075746253 4279807034
0.0039220005 0.046727151 0.011737511 4280132924
0.0069533186 0.044439167 0.01436393 4280784193
0.008840275 0.045179643 0.013164237 4280783938
0.010485935 0.046525054 0.011201888 4280849218
0.012597754 0.046659697 0.010768317 4281045313
0.014950628 0.046189491 0.011097521 4281241409
0.016821001 0.046929125 0.0099013746 4280915518
0.018192772 0.048877601 0.0071831346 4279547953
0.019049883 0.052033864 0.002946157 4280720699
0.022147151 0.049750466 0.0055593848 4281437248
0.027811479 0.041428003 0.015767947 4281502274
0.036637746 0.025863834 0.035074204 4281502274
-0.0059091318 0.035608899 0.023878701 4281304903
-0.0059038512 0.041834168 0.01577051 4281044038
-0.0050846646 0.045621194 0.010738008 4281109829
-0.0040781396 0.048797704 0.0064777583 4280262463
-0.0024317286 0.050147437 0.0045182034 4279741243
0.00055346754 0.047847353 0.0071478486 4279872059
0.0037876379 0.044940669 0.010537088 4280523328
0.0063576279 0.043859322 0.011630677 4280849729
0.0075404085 0.046424825 0.0081450939 4280915264
0.0089372946 0.048381459 0.00542631 4279677493
0.011271301 0.04790777 0.0057578087 4279677493
0.013610545 0.047434472 0.0060882717 4280590138
0.015711317 0.047568556 0.0056570694 4281111103
0.016826458 0.050130025 0.0021855719 4280785724
0.01816906 0.052083507 -0.0005219318 4279742773
0.021005822 0.050397046 0.0013279095 4280002874
0.02563934 0.044467449 0.0084835961 4280132924
0.032125872 0.034298271 0.020933628 4280393278
0.039482564 0.022317059 0.035637051 4280588609
-0.0047773449 0.030122798 0.027251191 4282740043
-0.0047543338 0.036371753 0.019155011 4281633088
-0.0041348385 0.040784445 0.013363734 4281240644
-0.0035529209 0.045194779 0.0075802654 4281305923
-0.0021202851 0.047160245 0.0048585832 4280914244
0.00019523571 0.046682857 0.0051921383 4280783938
0.0029709258 0.044985253 0.0070495158 4280718913
0.0055324677 0.043898877 0.0081417412 4280654144
0.0064750239 0.047082927 0.0039026439 4280588863
0.0076261461 0.049655527 0.0004298687 4279417649
0.0094701983 0.050397962 -0.00075777993 4278505513
0.015090021 0.047007751 0.0029433519 4281046334
0.016692823 0.048359796 0.00099620223 4280916284
0.018533645 0.049102247 -0.00019062683 4280980034
0.021375189 0.047409367 0.0016535819 4281045058
0.026012283 0.041457463 0.0087929741 4281175619
0.031473536 0.033683762 0.018190555 4281240389
0.038302179 0.022873383 0.031352982 4281174343
-0.0042811567 0.026450384 0.028312944 4282740553
-0.0036068771 0.030882321 0.022521302 4281763138
-0.0023205222 0.033472173 0.019026712 4281176128
-0.0019325975 0.038513042 0.012486406 4280915008
-0.00069997064 0.041099563 0.009002991 4281175618
0.00051112031 0.043684814 0.0055239946 4281110594
0.0023825022 0.044431034 0.0043321475 4281045569
0.0042484151 0.045177013 0.0031414181 4280719423
0.0049457308 0.048983786 -0.0018470511 4280394044
0.0067873253 0.049728297 -0.0030326471 4281306688
0.0090994239 0.049248755 -0.0026997291 4281372479
0.012620105 0.045711052 0.0014228635 4280915518
0.015686113 0.043398526 0.0040237606 4280719933
0.017789295 0.043532893 0.0035921633 4280784703
0.02014103 0.04305613 0.0039171129 4280981309
0.023503508 0.040135641 0.0072648227 4280979779
0.028162953 0.034162585 0.014384098 4281174853
0.033132505 0.02758237 0.022247255 4281239624
0.039457913 0.017953377 0.03386993 4281304903
-0.0042080367 0.023996282 0.027840316 4282544714
-0.002888859 0.026597206 0.024345189 4281567043
-0.0015911765 0.029196829 0.020854533 4281567043
-0.00053405645 0.032410488 0.016607314 4281306944
5.2702846e-05 0.036852881 0.010844715 4281045824
0.001050709 0.040062904 0.0066097379 4281111103
0.0020218289 0.043271292 0.0023803301 4281502273
0.0034256207 0.045248661 -0.00032586232 4281176129
0.0041158367 0.049068604 -0.0053035393 4279611959
0.0059494963 0.049814895 -0.006485939 4279872569
0.008491138 0.048718423 -0.0053956434 4280133179
0.012005373 0.045166794 -0.001281064 4279806778
0.015794788 0.041003469 0.0035830513 4280523839
0.018884014 0.038683482 0.0061730146 4280914498
0.022740133 0.034524504 0.011023566 4281175363
0.026382366 0.030981299 0.015112057 4281174854
0.030564368 0.026213935 0.020701788 4281109574
0.034532461 0.022062348 0.025529459 4281304394
0.040611878 0.0130109 0.036371723 4281304394
-0.0043461015 0.022155955 0.026603624 4282480199
-0.0028127942 0.024148013 0.023875214 4281632068
-0.001295611 0.026139075 0.021150202 4281566788
0.00042430335 0.0275116 0.019188002 4281241408
0.0012471613 0.031353276 0.014192328 4281372224
0.0024862729 0.033958416 0.010720082 4281241409
0.0030230668 0.038413595 0.0049787685 4281111613
0.0035222585 0.042866394 -0.00075474009 4281241664
0.0039838199 0.047316905 -0.0064805225 4280980289
0.0055826092 0.048682079 -0.0084175318 4280915008
0.0085964585 0.046348091 -0.0058184452 4280915008
0.012592929 0.041550528 -0.00020331144 4280719168
0.016875122 0.036139727 0.0061575919 4281045314
0.020468362 0.03257972 0.010246761 4281109829
0.024838684 0.027174637 0.016589709 4281109574
0.028754968 0.023003848 0.021417029 4280913478
0.032454874 0.019450862 0.02548445 4281174344
0.035673913 0.017130492 0.028041713 4281631558
0.040986829 0.0098910872 0.036604673 4281500489
-0.0040628174 0.019075055 0.026886299 4282609993
-0.0025237089 0.021074232 0.024161436 4281696583
-0.0012167811 0.023692539 0.020681381 4281501254
0.00050607347 0.025069792 0.0187217 4281437504
0.0019967596 0.0270661 0.016006924 4281502785
0.0032471942 0.029681023 0.012538612 4281567808
0.0042493492 0.032914005 0.008318454 4281502784
0.0049951607 0.036764577 0.0033480674 4281307198
0.0054766163 0.041232146 -0.0023708194 4281307454
0.0066248318 0.043840822 -0.0058179609 4280914244
0.0096513135 0.041498654 -0.0032276735 4280653634
0.013899893 0.036065314 0.0031261146 4281175618
0.018682225 0.029398434 0.010976098 4281044294
0.022295788 0.025826219 0.015051767 4281044039
0.025941342 0.022256162 0.019120879 4281238603
0.029368002 0.019306039 0.022432111 4281303883
0.033074815 0.015740044 0.026488751 4281434699
0.036044922 0.014028613 0.028288096 4281499979
0.04187886 0.0055277534 0.038331151 4281565258
-0.0039907182 0.01660795 0.02640494 4283525188
-0.0026616843 0.019236598 0.022926584 4282089029
-0.0011382948 0.021241669 0.02020964 4281631813
0.00036895112 0.023245789 0.017496057 4281306179
0.0018600647 0.025248922 0.014785886 4281502018
0.0033350072 0.027251132 0.01207903 4281633854
0.0047937846 0.029252375 0.0093755499 4281698879
0.0062364032 0.03125263 0.0066754818 4281438013
0.0071989419 0.034494538 0.0024713725 4281700409
0.0088384477 0.035871435 0.00053223222 4281569594
0.012128261 0.032900982 0.0038635433 4281371713
0.016404694 0.027449135 0.01019761 4281305924
0.020486552 0.022621041 0.015770368 4281174854
0.023629747 0.020277537 0.018330626 4281370183
0.026298171 0.019176042 0.019385755 4281435209
0.029729251 0.01621497 0.022688329 4281434188
0.033186939 0.013255663 0.025985479 4281630540
0.036927301 0.0096783489 0.030026011 4281630028
0.043028194 0.00052689388 0.040793777 4281564495
-0.001060155 0.018786483 0.019735001 4283917889
0.00045020995 0.020797549 0.017025515 4281958979
0.0019444164 0.022807701 0.014319345 4281959234
0.0031987329 0.02544098 0.010862745 4281895229
0.00465794 0.027449055 0.0081638694 4281895228
0.0063300813 0.028832391 0.0062211156 4281830714
0.0077596204 0.030838719 0.0035284311 4281634874
0.010345259 0.029727064 0.0045972615 4281307964
0.013890027 0.026123267 0.0086681992 4281437503
0.018186264 0.020652412 0.01498419 4281632068
0.021560617 0.017676236 0.018290475 4281564749
0.024226086 0.016570006 0.019343071 4281565003
0.026654292 0.016087022 0.019644737 4281695563
0.029839266 0.013737347 0.022190318 4281695308
0.033298697 0.01076692 0.025479361 4281695054
0.037552368 0.0059322119 0.031004637 4281760333
0.00096751866 0.017091656 0.018058799 4283526464
0.0018075372 0.02098868 0.013097085 4282416449
0.0028388819 0.02425739 0.0088943243 4282091578
0.004295839 0.026272111 0.0062006041 4281766199
0.0061944779 0.027033839 0.0050126761 4281896758
0.0078560477 0.028421165 0.0030752271 4281569849
0.010912504 0.026053842 0.0056406707 4281568829
0.014227233 0.023062473 0.0089513212 4281567553
0.018527202 0.017571576 0.015252545 4281697348
0.021421336 0.015834736 0.017053284 4281630284
0.024086377 0.014724001 0.018102877 4281630028
0.026514325 0.014238788 0.018403068 4281630028
0.029698532 0.011880083 0.020942599 4281760588
0.033663083 0.0076494366 0.025716551 4281825614
0.038176376 0.0021726526 0.031974323 4281889873
0.0029261515 0.021821341 0.00843063 4283594038
0.004386208 0.023843054 0.0057409704 4282093363
0.0058301082 0.025863778 0.0030547157 4281895738
0.0077206818 0.026627397 0.0018700287 4281634619
0.010776369 0.024251025 0.0044294074 4281503549
0.014563746 0.019992791 0.0092285499 4281698368
0.018627981 0.015109442 0.014767542 4281305668
0.02152417 0.013366045 0.016563162 4281369673
0.024191478 0.012250941 0.017609254 4281760844
0.027116841 0.010509564 0.019399002 4281890893
0.030558478 0.0075154454 0.02267611 4282086988
0.0047021387 0.020778939 0.006027177 4284442678
0.0059232255 0.023437405 0.0025962554 4282157114
0.0075853011 0.024833841 0.00066497922 4281895738
0.010874165 0.021818198 0.0039653927 4281699644
0.014662919 0.017544329 0.0087533221 4281633599
0.018967664 0.012013189 0.015025549 4281502529
0.021626635 0.010893045 0.016070157 4281175109
0.024540845 0.0091440994 0.017857529 4281956428
0.027470969 0.0073962584 0.019641705 4282609739
0.030917015 0.0043911859 0.022910155 4283722304
0.0064728195 0.019741075 0.003628172 4283594804
0.0079120947 0.021775214 0.00095227361 4282156859
0.010971588 0.019381095 0.0034984425 4281831224
0.015471081 0.01319465 0.010510139 4281764668
0.019306641 0.0089080948 0.015277632 4281763393
0.022454154 0.0065198541 0.017805919 4281697093
0.025378468 0.0047648251 0.019586578 4283133253
0.011535838 0.015670257 0.004516609 4284116533
0.015805284 0.010096233 0.010768026 4283200318
0.01964492 0.0057941452 0.015523843 4283459909
-0.0050091138 -0.0053469762 0.02514194 4282673488
-0.004262629 -0.00072077662 0.019466475 4282938179
-0.0027063813 0.0013405345 0.016780242 4284508468
-0.0051494176 -0.0072164685 0.023885667 4282478159
-0.0044018505 -0.0025744103 0.018220887 4282154310
-0.0028451986 -0.00050629303 0.015539259 4282414153
-0.005083588 -0.0097311959 0.023372978 4282085713
-0.0043322472 -0.0050731339 0.017718367 4281957958
-0.0027725331 -0.0029980056 0.015040755 4281892933
-0.0014430981 -0.00027881935 0.011624761 4282350658
8.1684673e-05 0.0017942749 0.0089544505 4282547774
0.039060373 -0.018105887 0.027672835 4282674254
-0.0054299952 -0.010954645 0.021373674 4282282573
-0.0046802713 -0.0062808618 0.015730254 4282350658
-0.0029115125 -0.0048465654 0.013798602 4282221629
-0.0015815094 -0.0021183118 0.010388739 4281961273
-0.00027299742 0.00060867891 0.0069833472 4282549303
0.0014527312 0.002040524 0.0050607398 4283267638
0.030172016 -0.0093398765 0.014852524 4283197258
0.033389151 -0.011777185 0.017329559 4282347599
0.039423306 -0.0213046 0.027854286 4282086989
-0.0057760505 -0.012173288 0.019377597 4282675784
-0.0048194705 -0.0081336685 0.014485233 4282417214
-0.0032616283 -0.0060451515 0.011817403 4282157624
-0.0019337393 -0.0033079982 0.0084142014 4282224434
-0.00041083689 -0.0012214556 0.0057536438 4281962804
0.0010959415 0.00086410716 0.003096506 4282223669
0.0030302734 0.0016507693 0.0019168183 4282549814
0.0056327963 0.0004905872 0.0029479228 4283267638
0.024390675 -0.0082564317 0.010839105 4283001419
0.027572542 -0.010705162 0.013317041 4282021199
0.030278385 -0.011857815 0.014327504 4281890893
0.033748712 -0.014951091 0.017528974 4281825104
0.039785538 -0.024512134 0.028029889 4281693779
-0.0085891495 -0.0055594482 0.0085186064 4283467814
-0.0062084226 -0.0060734004 0.0088106468 4282682414
-0.0038223795 -0.0065869205 0.0091016591 4282354738
-0.0022856228 -0.0044928715 0.0064429045 4282092853
-0.00054867729 -0.0030513108 0.0045241341 4282158389
0.001177504 -0.0016103908 0.0026076771 4282158644
0.0033362687 -0.0014725961 0.0021645799 4281962038
0.0057193181 -0.001985807 0.0024565496 4282027318
0.0076535512 -0.0011967197 0.0012786426 4282418489
0.018664444 -0.0071463995 0.0068302974 4283459143
0.021810984 -0.00960657 0.0093091428 4282478668
0.024492577 -0.010765441 0.010321371 4282086479
0.027676316 -0.013223018 0.012792729 4281825358
0.030384392 -0.014380038 0.013799697 4281825358
0.033605266 -0.016835 0.01626353 4281825358
0.039893214 -0.027079195 0.027470611 4281694289
-0.012014154 0.0030772872 -0.0045126081 4284641579
-0.0080115823 -0.0026768483 0.0016809478 4284055589
-0.0045932299 -0.0064651743 0.0056560263 4282816288
-0.0022102033 -0.0069810376 0.0059461743 4282094128
-0.00025418936 -0.0061886795 0.0047650859 4282027828
0.0012587246 -0.0040891245 0.0021160096 4282159154
0.0029770241 -0.0026440844 0.0002043657 4281962804
0.0049087098 -0.0018529445 -0.00097156689 4281962039
0.0068349624 -0.0010620989 -0.0021462701 4282484534
0.0094444249 -0.0022305995 -0.0011226423 4283072053
0.012296701 -0.0040511377 0.00063064694 4283461693
0.015869655 -0.007828638 0.0045745745 4283657534
0.018999459 -0.010298956 0.0070505887 4281956683
0.02215055 -0.012767818 0.0095222965 4281564748
0.025322925 -0.015235215 0.011989705 4281825613
0.02827096 -0.017049152 0.013723761 4281891404
0.030738305 -0.017558288 0.013997532 4281825613
0.033963751 -0.02002196 0.016454279 4281890893
0.040000517 -0.029650487 0.026908524 4281956683
-0.0032016726 -0.0061918311 0.0017758459 4284126223
-0.00060836389 -0.0073663145 0.0027992949 4283271974
0.0015582696 -0.0072280802 0.0023545362 4282747438
0.0030608021 -0.0051223524 -0.00028761849 4282486319
0.0049952315 -0.0043288097 -0.0014625005 4282224179
0.0069241999 -0.0035354644 -0.0026362278 4282158899
0.0095358817 -0.0047083162 -0.0016161576 4281570358
0.012158151 -0.0058803372 -0.00059822947 4282089283
0.015495225 -0.0090164505 0.0026068762 4281762119
0.019096378 -0.012805562 0.0065358281 4281238858
0.022009248 -0.014628649 0.0082722604 4281434443
0.024938054 -0.016450636 0.010005541 4281826634
0.027882775 -0.018271506 0.011735626 4281891658
0.030843388 -0.020091217 0.013462476 4281891658
0.034572288 -0.023871578 0.017365545 4281956938
0.040107444 -0.032226019 0.026343592 4282742338
-0.0013938134 -0.0072223507 -0.00062735379 4283278348
0.0009831565 -0.0077428557 -0.00033890456 4283011109
0.0027018937 -0.0062887333 -0.0022443868 4282747438
0.0044098338 -0.0048351549 -0.0041476227 4282420019
0.0070131076 -0.0060131177 -0.0031289943 4282027828
0.010085395 -0.0085053593 -0.0006538555 4281439033
0.012715249 -0.0096814223 0.00035946444 4282023749
0.01559025 -0.01151387 0.0020988621 4281826888
0.018955695 -0.014659319 0.0052905157 4281369673
0.021867923 -0.01648917 0.007022433 4281629519
0.025038682 -0.018974621 0.0094777793 4281825358
0.02798545 -0.020802088 0.011202805 4282022729
0.030948102 -0.022628382 0.012924589 4282284614
0.034427907 -0.025765933 0.01609312 4283068483
0.039454103 -0.032837756 0.023602672 4284180794
0.0023433159 -0.0074502565 -0.0041979589 4283073584
0.0044961646 -0.0073126517 -0.004639715 4282616369
0.0073280074 -0.0091549531 -0.0028962828 4282485044
0.01040486 -0.011655934 -0.0004282482 4281307963
0.013039588 -0.012836102 0.00058094412 4281827144
0.015919315 -0.014675017 0.0023147725 4281761098
0.019052055 -0.017172098 0.0047715679 4281238858
0.021966323 -0.019008532 0.0064984262 4281696074
0.024654113 -0.020184927 0.0074970722 4282284359
0.027597565 -0.022019323 0.009218134 4284313139
0.030804675 -0.024511166 0.01165992 4284704563
0.0043586446 -0.0091319643 -0.00586202 4283074858
0.0069636647 -0.010318782 -0.0048499331 4282485299
0.010265888 -0.013491049 -0.0016611107 4281372989
0.01313169 -0.015337635 7.0814043e-05 4281892934
0.016247671 -0.017844874 0.0025247745 4281826634
0.01891117 -0.01902752 0.0035251528 4281435209
0.021824799 -0.020870723 0.0052475035 4282677060
0.024512118 -0.022051618 0.0062431544 4283722303
0.0094408309 -0.013332821 -0.0050681047 4282223159
0.012992074 -0.01717924 -0.001166366 4282547265
0.016341304 -0.020359524 0.0020052791 4282939453
0.019243712 -0.022210281 0.0037252009 4283856434
0.0097594168 -0.016493775 -0.0048494451 4283921714
0.01308366 -0.019686989 -0.001680579 4283723578
0.016200693 -0.022212103 0.00076076388 4284443698
0.013165477 -0.033461533 -0.0062523931 4284508213
0.01605542 -0.035360269 -0.0045624971 4283462714
0.020374438 -0.041335844 0.0013992079 4282091069
0.025217902 -0.048667185 0.0087750778 4282219333
0.013024972 -0.03531187 -0.0074953809 4282874174
0.016146928 -0.037899442 -0.005098477 4282023749
0.020466933 -0.043895155 0.00084906816 4281369928
0.025311027 -0.051251151 0.0082077533 4281761354
0.0080529489 -0.03607323 -0.0092628784 4282740299
0.010693237 -0.037302472 -0.0082888864 4282217038
0.013114288 -0.037846342 -0.008027561 4281760333
0.016238099 -0.040442809 -0.0056371987 4281565259
0.019853555 -0.044406138 -0.0018322021 4281108299
0.024214543 -0.050419278 0.0040930882 4281564494
0.0059487903 -0.038745716 -0.0093434528 4283393608
0.00791308 -0.037918359 -0.010502428 4282086734
0.010325884 -0.03846515 -0.010241061 4281956174
0.012743956 -0.039011471 -0.0099806264 4281760334
0.016096588 -0.042303748 -0.0068872571 4281565259
0.019710865 -0.0462806 -0.0030913129 4281239114
0.023594793 -0.050941505 0.0014055446 4281890893
0.0034016075 -0.040043168 -0.010845132 4281891659
0.0058089076 -0.040592767 -0.010584325 4281434188
0.0079973442 -0.040452532 -0.011033144 4281629518
0.010412521 -0.041001417 -0.010773748 4281563983
0.012832933 -0.041549802 -0.010515384 4281563984
0.015955079 -0.044164315 -0.0081370622 4281694798
0.019098511 -0.04677733 -0.0057630092 4281434189
-0.0032421395 -0.035243951 -0.018280331 4283066699
-3.3879187e-06 -0.038566716 -0.015179623 4281891148
0.0028248348 -0.040503711 -0.01350069 4281826124
0.0056690285 -0.042439505 -0.011824988 4281369163
0.0080812899 -0.042990915 -0.011566617 4281760844
0.010725437 -0.0442333 -0.010602735 4281629009
0.012692261 -0.043401018 -0.011758938 4281497938
0.015349581 -0.044642292 -0.010797579 4281759824
0.018017516 -0.045882799 -0.0098382719 4281694034
-0.0057490533 -0.03650862 -0.019769397 4282480198
-0.0033796697 -0.037065521 -0.019504189 4281892169
-0.00014192495 -0.040399566 -0.016411021 4281630284
0.0026856328 -0.042343318 -0.0147366 4281695819
0.0053080479 -0.04359182 -0.013771538 4281695053
0.00771729 -0.044145636 -0.013514131 4281369163
0.010131822 -0.044699006 -0.013257675 4281629008
0.012322453 -0.044558339 -0.013706736 4281888089
-0.0095839873 -0.040694594 -0.017982494 4283134528
-0.008042437 -0.038465142 -0.020548925 4282350658
-0.0060964888 -0.037630603 -0.021698359 4281500488
-0.003517187 -0.038886726 -0.02072781 4281695563
-0.0002804508 -0.042232059 -0.017642193 4281303884
0.0023281586 -0.043486066 -0.016677484 4281629773
0.0045055151 -0.043346614 -0.017124072 4281825358
0.0071300445 -0.044599377 -0.016162395 4281693523
-0.01208753 -0.041958019 -0.019471545 4284049468
-0.010130803 -0.041120782 -0.020621806 4282415173
-0.0085942624 -0.038884893 -0.023182608 4281501508
-0.0062334957 -0.039446965 -0.022918757 4281500999
-0.0034419473 -0.041406684 -0.021246456 4281761098
-0.00063438597 -0.0433653 -0.019577306 4281367633
0.0017529533 -0.043925241 -0.019318685 4281433423
0.0039248066 -0.043786138 -0.019764144 4281955664
-0.01262831 -0.042376734 -0.022107199 4282804558
-0.010472371 -0.04223945 -0.022549946 4282219078
-0.0089381533 -0.039996937 -0.025105596 4281370948
-0.0063704895 -0.041262969 -0.024138909 4281500489
-0.0035796089 -0.043229461 -0.022471122 4281759568
-0.001203235 -0.043792456 -0.022211865 4282083418
-0.010813578 -0.04335326 -0.024474818 4282869329
-0.0086605074 -0.04321602 -0.02491688 4282217549
-0.0067172097 -0.042374827 -0.026061133 4281695563
-0.0039296625 -0.0443483 -0.024397261 4281693523
-0.01290938 -0.052889355 -0.026816882 4282798439
-0.011767437 -0.049186096 -0.030747071 4282798438
-0.01304628 -0.054710031 -0.02804029 4282273649
-0.025394432 0.0036393963 0.0066559315 4285426469
-0.023248523 0.0037751831 0.0062146559 4285688608
-0.018984428 -0.003223788 0.013964474 4285754144
-0.029519141 0.0082034636 -0.0015698709 4285361188
-0.028148284 0.010942318 -0.0049825311 4285689118
-0.025850285 0.010424675 -0.0046724118 4285885469
-0.022392564 0.006002143 9.5371157e-05 4285951259
-0.018312102 -0.00037013739 0.0070832744 4285425959
0.007791508 0.00062855333 0.002504956 4285296163
-0.03317498 0.0035284981 0.001075346 4285295908
-0.031771515 0.0062782764 -0.002337981 4285493023
-0.030757802 0.010334104 -0.0072333254 4285886488
-0.029028734 0.011774022 -0.0091511868 4285689118
-0.026741739 0.011253424 -0.0088403709 4285689118
-0.023872688 0.0087737739 -0.0063057877 4285754908
-0.020592406 0.0049896352 -0.0022934675 4285886234
-0.017675126 0.0025132522 0.00023134425 4285492768
-0.014536166 -0.00061431155 0.0034917593 4285296163
-0.01157336 -0.00308761 0.006007351 4286021128
-0.03719807 0.0081584454 -0.0071302131 4285557793
-0.034559552 0.0063222647 -0.0053343512 4285558303
-0.032811612 0.007767722 -0.00725317 4285624349
-0.031258345 0.009868471 -0.0099114142 4285689883
-0.029534424 0.011312615 -0.011825155 4285886743
-0.027253062 0.010789352 -0.011514697 4285820953
-0.024774276 0.009611167 -0.010465249 4285820953
-0.021895297 0.0071232393 -0.0079388618 4285689628
-0.019784527 0.0072570965 -0.0083727129 4285558558
-0.017873842 0.0080459416 -0.0095449165 4285427489
-0.01536024 0.0068703629 -0.0085023455 4285230884
-0.043301474 0.0046656877 -0.0055394508 4284966704
-0.042216662 0.0087525602 -0.010431156 4285755164
-0.040471356 0.010202 -0.012346495 4286017049
-0.038209256 0.0096748099 -0.012034018 4286082583
-0.035406265 0.0071724541 -0.0094986521 4285820698
-0.033125307 0.006646648 -0.0091899224 4285623838
-0.031390492 0.008095827 -0.011102825 4285624094
-0.029666351 0.0095444825 -0.013013508 4285624093
-0.027574489 0.0096768271 -0.01344369 4285624093
-0.025098832 0.0084938947 -0.012396663 4285689629
-0.022612456 0.00731178 -0.011351824 4285689629
-0.020707078 0.0081024542 -0.012521442 4285755419
-0.019206906 0.010207254 -0.01516372 4285886489
-0.017115019 0.010340098 -0.015593562 4285885978
-0.013996778 0.0071889088 -0.012344301 4285885724
-0.01001996 0.0014128573 -0.0061594658 4285426724
-0.0062056007 -0.0037035458 -0.00071914122 4285299479
-0.045705833 0.0034135506 -0.0070455037 4285164329
-0.044439208 0.0068532191 -0.011188854 4285820954
-0.043028992 0.0096300133 -0.014585197 4285754654
-0.040948246 0.0097610466 -0.015013512 4285623584
-0.038516145 0.0085702371 -0.013961069 4285689119
-0.035716627 0.0060586371 -0.011431217 4285820699
-0.033619639 0.0061910003 -0.011862665 4285689884
-0.031889971 0.0076443963 -0.013771448 4285624349
-0.029984608 0.0084369108 -0.014939792 4285624349
-0.027895544 0.0085690729 -0.015369404 4285624349
-0.025614748 0.0080414154 -0.015061911 4285624348
-0.023522971 0.0081739575 -0.015491936 4285755419
-0.021825327 0.0096258074 -0.017393727 4285755163
-0.020138411 0.011077113 -0.019293293 4285754908
-0.017854923 0.010549987 -0.018986035 4285754398
-0.014950787 0.0080460533 -0.016476974 4285885723
-0.011609691 0.0042257383 -0.012504805 4285558304
-0.0082364939 0.00040757284 -0.0085391514 4285427489
-0.0048312014 -0.0034084432 -0.0045800209 4285560089
-0.046331849 0.0036264993 -0.010464262 4285426978
-0.044737656 0.0057495125 -0.013117407 4285690139
-0.043159451 0.0078716129 -0.015767194 4285886999
-0.04125163 0.008666005 -0.016934853 4285886999
-0.038822662 0.0074704736 -0.015884891 4285886999
-0.036204781 0.0056127273 -0.014098853 4285886999
-0.034113277 0.0057447217 -0.014529187 4285689629
-0.032388736 0.0072022714 -0.016433749 4285689629
-0.030488688 0.0079966746 -0.01759946 4285689628
-0.0284051 0.0081285052 -0.018027935 4285623838
-0.026129952 0.0075982288 -0.017720845 4285689629
-0.024237875 0.0083924606 -0.018884689 4285689629
-0.022351164 0.0091864876 -0.020047411 4285952279
-0.020868953 0.011303633 -0.022676613 4285886489
-0.018391546 0.010112265 -0.021635924 4285689374
-0.015698504 0.008260265 -0.019864585 4285689629
-0.012574199 0.0050870515 -0.016632054 4285755418
-0.0094231479 0.00191563 -0.013404947 4285624349
-0.0062453579 -0.0012539774 -0.010183256 4285361698
-0.0028251975 -0.0050824322 -0.0062364228 4285229864
0.034533959 -0.028318472 0.015544362 4284966959
0.039560806 -0.035414957 0.023036651 4285031983
-0.046298426 0.0011887215 -0.010915723 4285360933
-0.045035724 0.0046506226 -0.01504273 4285558559
-0.043289866 0.0061135218 -0.016948987 4285689884
-0.041382007 0.0069101378 -0.018115118 4285623838
-0.039128814 0.0063755885 -0.017805506 4285623838
-0.036514234 0.0045108311 -0.016023416 4285624093
-0.034967523 0.0066381022 -0.018661778 4285689629
-0.033253487 0.0080994628 -0.020561092 4285755164
-0.031364106 0.0088954605 -0.021723043 4285886743
-0.028913964 0.0076973215 -0.020680234 4285952278
-0.026453085 0.0064999424 -0.019639503 4285820954
-0.024175538 0.0059676692 -0.019334387 4285623838
-0.022679562 0.0080923736 -0.021961875 4285623838
-0.02100024 0.0095521696 -0.023853611 4285755419
-0.018725384 0.009020051 -0.02354772 4285755673
-0.016035652 0.0071611106 -0.021780349 4285755673
-0.012707555 0.0033129565 -0.017824166 4285624349
-0.0097675985 0.00079350173 -0.015334755 4285558814
-0.0065934649 -0.0023875833 -0.012120079 4285493023
-0.0031771304 -0.0062297918 -0.0081817918 4285360934
0.0022059234 -0.0092695728 -0.0054203011 4284904739
0.027454931 -0.023892783 0.0079597011 4284901933
0.030661236 -0.026393637 0.010395467 4285032493
0.034139063 -0.029553756 0.013548896 4285097773
0.039161231 -0.036675304 0.021025114 4285163054
-0.045443144 -0.0045954026 -0.0076801293 4285360424
-0.044497889 0.0002152808 -0.013277669 4285492513
-0.042910893 0.0023514219 -0.015919954 4285558558
-0.041339885 0.0044866614 -0.018558871 4285624349
-0.039084304 0.0039499514 -0.018251274 4285624348
-0.03717896 0.0047489107 -0.019415233 4285624349
-0.035459403 0.0062150173 -0.021312643 4285755419
-0.034116864 0.0090150591 -0.024676062 4285820698
-0.032052305 0.0091455579 -0.025100712 4285820699
-0.029233595 0.0066085495 -0.022593193 4285820698
-0.026393449 0.0040730014 -0.020090014 4285952278
-0.024307404 0.0042051785 -0.020518858 4285689373
-0.022614485 0.0056702904 -0.022410389 4285558558
-0.02093227 0.007134784 -0.024299599 4285624349
-0.018453116 0.0059345216 -0.023265492 4285558813
-0.015554071 0.0034032427 -0.020774048 4285493278
-0.012011805 -0.001123704 -0.016099393 4285493278
-0.0088519957 -0.0043170676 -0.012889624 4285624604
-0.0056654532 -0.0075085983 -0.009685263 4285558558
0.021922668 -0.023396306 0.0047193915 4284967214
0.024612181 -0.024581492 0.0057114661 4285163819
0.02755703 -0.026429243 0.0074229613 4285294888
0.030517761 -0.02827581 0.009131223 4285229099
0.034244727 -0.032110222 0.012997523 4285097774
-0.044918351 -0.0090650246 -0.0059354939 4285360424
-0.043794405 -0.004908368 -0.010788683 4285426214
-0.04253288 -0.0014239363 -0.014899839 4285492004
-0.041125756 0.0013887398 -0.01827063 4285426723
-0.039565019 0.0035301857 -0.020902704 4285558813
-0.037842628 0.0050008409 -0.022797674 4285690139
-0.036311228 0.0071406551 -0.02542356 4285821464
-0.034795854 0.0092795473 -0.028046083 4285754908
-0.032739453 0.0094095413 -0.028469043 4285623328
-0.030117942 0.007532116 -0.026697431 4285689118
-0.02728931 0.0049868263 -0.024198111 4285754909
-0.024632957 0.0031118281 -0.022433504 4285689628
-0.022549715 0.0032439455 -0.022861693 4285624604
-0.020267406 0.00270769 -0.022560515 4285624604
-0.017576251 0.00083523616 -0.020802837 4285559069
-0.01425578 -0.0030405186 -0.016863812 4285559068
-0.010696102 -0.0075820684 -0.012203656 4285492768
-0.0077283094 -0.010117739 -0.009732388 4285426723
-0.0051640496 -0.011316687 -0.0087185204 4285360679
0.018865909 -0.023403548 0.0017545819 4284967979
0.022020169 -0.025926068 0.0041884258 4285163818
0.024953805 -0.02778136 0.0058974996 4285229098
0.027658764 -0.028969914 0.0068833977 4285229098
0.030621544 -0.030823112 0.0085866526 4285228844
-0.044558946 -0.012879472 -0.0049377419 4285360424
-0.042925783 -0.010727074 -0.0075803027 4285360679
-0.041816935 -0.0065577552 -0.012420982 4285425958
-0.040740144 -0.0023903511 -0.01725499 4285426213
-0.039345797 0.00043062866 -0.020616859 4285690139
-0.037972815 0.0032503717 -0.023974262 4285624604
-0.036441043 0.0053969361 -0.026595574 4285624604
-0.035290956 0.0088861324 -0.030675648 4285886999
-0.033425551 0.0096873548 -0.031828016 4285886744
-0.030812725 0.0078026578 -0.03005933 4285821208
-0.02799293 0.0052478053 -0.02756441 4285821464
-0.025151704 0.0026944242 -0.025073815 4285689884
-0.022289051 0.00014251843 -0.022587549 4285624348
-0.019603882 -0.0017371848 -0.020833381 4285558814
-0.016499504 -0.0049568973 -0.017627995 4285493278
-0.013368372 -0.0081747808 -0.014428016 4285492768
-0.01000356 -0.012061086 -0.010507338 4285426469
-0.0072354777 -0.013935067 -0.0087698922 4285360424
-0.0048759589 -0.0144681 -0.0084857382 4285360423
0.013174885 -0.022198889 -0.0021976493 4285163054
0.016293777 -0.02473288 0.00023710355 4285360934
0.019433964 -0.027265385 0.0026675686 4285492003
0.022356369 -0.029128194 0.0043741837 4285294889
0.025294704 -0.0309899 0.0060776547 4285163308
0.028004546 -0.032182604 0.0070594624 4285163309
0.031466186 -0.035377532 0.010192886 4284900914
-0.044692289 -0.014681552 -0.006149184 4285360424
-0.043058757 -0.012522392 -0.0087871701 4285360169
-0.04177976 -0.0090143867 -0.012886401 4285360423
-0.040355507 -0.0061826594 -0.016248308 4285425958
-0.038952593 -0.0033521466 -0.01960573 4285492004
-0.037571039 -0.00052287802 -0.022958688 4285360678
-0.036390837 0.0029793419 -0.027037274 4285493024
-0.035054702 0.0058059804 -0.030380728 4285558813
-0.033369247 0.0072836243 -0.032261662 4285690138
-0.030942399 0.0060659945 -0.031226508 4285690139
-0.027932703 0.0028285272 -0.028009702 4285624603
-0.02470286 -0.0010804199 -0.024071008 4285558813
-0.02144088 -0.0049871989 -0.020138834 4285558813
-0.018544236 -0.0075458474 -0.017665695 4285426468
-0.015424777 -0.010775845 -0.014471173 4285360679
-0.012686733 -0.012658712 -0.012732372 4285294633
-0.0095191235 -0.015885409 -0.0095475763 4285228844
-0.0073719872 -0.015748661 -0.0099885017 4285360168
-0.0054370034 -0.014939643 -0.01115283 4285425959
0.013265762 -0.024715029 -0.002717562 4285228588
0.016152982 -0.026587091 -0.0010084957 4285295144
0.019292345 -0.029128619 0.0014159456 4285426468
0.022452997 -0.031668663 0.0038361102 4285229098
0.025876474 -0.034877487 0.0069694519 4285163564
0.02932658 -0.0380845 0.010097407 4285098029
-0.044334304 -0.018515676 -0.0051647387 4285294379
-0.042858809 -0.015672009 -0.008531101 4285229098
-0.041573774 -0.012152363 -0.012623873 4285294378
-0.039971825 -0.0099882595 -0.015250489 4285425959
-0.038385879 -0.0078250133 -0.01787379 4285425959
-0.036993083 -0.0049860328 -0.021222845 4285425959
-0.035801467 -0.0014718473 -0.025296014 4285689629
-0.034819078 0.0027170442 -0.030091641 4285624604
-0.032942887 0.0035234317 -0.031243127 4285558814
-0.030132763 0.00094984844 -0.028758731 4285558814
-0.027110677 -0.0022980347 -0.025552288 4285558813
-0.023868596 -0.0062197037 -0.021625433 4285492768
-0.020594385 -0.010139216 -0.017705098 4285558049
-0.017883727 -0.012030795 -0.015965484 4285426214
-0.01495578 -0.014596339 -0.013504919 4285294888
-0.012618186 -0.01513559 -0.013219599 4285294634
-0.0098620728 -0.017023917 -0.011489075 4285294379
-0.0075084819 -0.017561916 -0.011206876 4285294634
-0.0053615207 -0.017425057 -0.011647683 4285360168
0.013356286 -0.027235337 -0.0032402575 4285228844
0.016245533 -0.029114 -0.0015362538 4285294889
0.019622788 -0.032337256 0.0015986413 4285491494
0.023026677 -0.035558671 0.0047281682 4285294633
-0.041368399 -0.015299093 -0.012367155 4285294123
-0.039760746 -0.013127856 -0.014990348 4285360169
-0.037994772 -0.011636585 -0.01688195 4285360168
-0.036416437 -0.0094669722 -0.019498955 4285360168
-0.035213415 -0.0059408173 -0.023566704 4285425958
-0.034037113 -0.0024162494 -0.027628884 4285491494
-0.032147508 -0.0016067661 -0.028781578 4285557794
-0.029324807 -0.0041885488 -0.026305985 4285360933
-0.026290314 -0.0074469 -0.023109857 4285558048
-0.023229035 -0.010703426 -0.019919153 4285491749
-0.020336695 -0.013280451 -0.017457638 4285426214
-0.017819734 -0.01450092 -0.016446911 4285426214
-0.015090996 -0.016397987 -0.014715597 4285360424
-0.012346226 -0.018293861 -0.012987535 4285294378
-0.0093789855 -0.020865645 -0.010541074 4285294633
-0.0070176581 -0.021405432 -0.010261968 4285294379
0.013215962 -0.029084392 -0.0044824108 4285163054
0.016104553 -0.030969821 -0.0027829111 4285229099
0.019716671 -0.034879468 0.0010599717 4285360424
0.023837864 -0.040136926 0.0063263625 4285228843
-0.039378837 -0.016957678 -0.01400882 4285294379
-0.037604652 -0.01546137 -0.01589907 4285359914
-0.03601791 -0.013284523 -0.018513098 4285360168
-0.034985635 -0.0090656094 -0.023300428 4285360168
-0.033985447 -0.0048485659 -0.028081119 4285425959
-0.031723469 -0.0053979345 -0.02778393 4285557538
-0.029081065 -0.0073078014 -0.026039936 4285492003
-0.02585201 -0.011257414 -0.02212913 4285426469
-0.023169421 -0.013164509 -0.020393237 4285426214
-0.02027522 -0.015750408 -0.017938316 4285426213
-0.017756062 -0.016975224 -0.016931143 4285425959
-0.015025295 -0.018878896 -0.015204899 4285360168
-0.012278486 -0.020781424 -0.013481867 4285360168
-0.0093093934 -0.023362093 -0.011042003 4285360168
-0.0063189324 -0.02594123 -0.008606486 4285228588
0.013305984 -0.031610884 -0.0050091818 4285163053
0.016429596 -0.03418041 -0.0026002303 4285098028
0.02051729 -0.039458103 0.0026605427 4285098283
0.024886034 -0.045410134 0.0086261034 4284902953
-0.037563413 -0.017932292 -0.016375296 4285031984
-0.03615028 -0.015065081 -0.019709919 4285294633
-0.034399878 -0.01356554 -0.021591999 4285294888
-0.033206116 -0.010017376 -0.025642235 4285426214
-0.031115731 -0.009885285 -0.026072223 4285426214
-0.029025314 -0.009753067 -0.026502132 4285294888
-0.025984753 -0.013033528 -0.023322791 4285360424
-0.023302816 -0.014947396 -0.021591414 4285360168
-0.020214062 -0.018224563 -0.018421818 4285360423
-0.017692696 -0.019453783 -0.017418157 4285491749
-0.014959917 -0.021364022 -0.015697028 4285426214
-0.035929684 -0.018216632 -0.01946041 4285294634
-0.034352873 -0.016026806 -0.022062998 4285294633
-0.033155732 -0.012467187 -0.026106164 4285360423
-0.030878307 -0.013020094 -0.025815271 4285360678
-0.028595507 -0.013572525 -0.025525395 4285294889
-0.025737762 -0.016178969 -0.023075569 4285360169
-0.02285859 -0.018783938 -0.020630073 4285229099
-0.019958001 -0.021387435 -0.01818889 4285359913
-0.017233897 -0.023305088 -0.016470719 4285425449
-0.01469429 -0.024537511 -0.015473828 4285490729
-0.034306172 -0.018492203 -0.02253684 4285228589
-0.033105664 -0.014921147 -0.02657295 4285294888
-0.030825876 -0.015476149 -0.026284095 4285360679
-0.028353706 -0.016717922 -0.025276914 4285294889
-0.025301747 -0.020020146 -0.02211545 4285294633
-0.022415366 -0.022633646 -0.019677643 4285294124
-0.032692924 -0.018758979 -0.025604714 4284966703
-0.030589592 -0.018626068 -0.026037365 4285294889
-0.027552024 -0.021940563 -0.022880789 4285294379
-0.024298146 -0.025942609 -0.019012321 4285294123
-0.02961795 -0.02455245 -0.022928983 4285097519
-0.026565317 -0.027877241 -0.019783273 4285163054
