# .PCD v0.7 - Point Cloud Data file format
VERSION 0.7
FIELDS x y z rgba
SIZE 4 4 4 4
TYPE F F F U
COUNT 1 1 1 1
WIDTH 962
HEIGHT 1
VIEWPOINT 0 0 0 1 0 0 0
POINTS 962
DATA ascii
-0.0045444705 -0.0073186681 0.0031269267 4288427054
-0.0022831745 -0.0086073428 0.0041064471 4288688939
0.00015916303 -0.010607354 0.0057828147 4288688939
0.0033093393 -0.015454009 0.01024968 4288688939
0.0075505972 -0.02456864 0.018895986 4288557613
0.012039572 -0.034389853 0.028224567 4288557869
0.014793918 -0.037091538 0.030569458 4288230449
0.017018836 -0.037657924 0.030821243 4290846748
0.019807993 -0.040356927 0.033158727 4288949804
0.022429604 -0.042343453 0.034796633 4289931299
0.024109185 -0.040775396 0.032958977 4287706423
-0.025721565 -0.011114173 0.0073003955 4287706423
-0.024070591 -0.0095460042 0.0054705795 4288295218
-0.022289351 -0.0086949095 0.0043470468 4288557613
-0.02036988 -0.0085603297 0.0039279982 4288623404
-0.018596336 -0.0077095926 0.0028062873 4288754219
-0.016381741 -0.0090066865 0.0037921593 4288623404
-0.014459163 -0.0088715777 0.0033726692 4288623404
-0.012074206 -0.010882854 0.0050561428 4288623148
-0.010456845 -0.009316355 0.0032342523 4288753963
-0.0086906292 -0.0084655583 0.0021144934 4288753963
-0.0069296211 -0.0076150596 0.0009959992 4288754218
-0.0046795979 -0.0089090765 0.0019746572 4288754218
-0.0022513978 -0.010916732 0.0036490541 4288754219
0.00019291788 -0.012923196 0.0053200647 4288623404
0.0031715631 -0.017070912 0.0090783201 4288623404
0.0070594139 -0.024786256 0.016311271 4288688939
0.010827936 -0.031783491 0.022835748 4288296493
0.013384618 -0.033781506 0.024482576 4288296239
0.015590545 -0.034351461 0.024736909 4290062623
0.018174024 -0.036347359 0.026378067 4289735969
0.020207303 -0.03620287 0.025935611 4289343523
0.022240622 -0.036058269 0.025493236 4288624934
-0.025855407 -0.012706146 0.0061466098 4288295219
-0.024204195 -0.011133604 0.0043199882 4288818733
-0.02228234 -0.010998972 0.0039003398 4288884778
-0.020503551 -0.010145806 0.00277902 4288819498
-0.018584058 -0.010011144 0.002360031 4288688939
-0.016515851 -0.010594435 0.0026416108 4288623404
-0.014442161 -0.011177264 0.0029221214 4288688939
-0.012209129 -0.012477264 0.0039008334 4288557613
-0.010434978 -0.011623904 0.0027809162 4288623148
-0.0088252537 -0.010053419 0.00096399337 4288557613
-0.0070641935 -0.0092007592 -0.00015289709 4288492333
-0.0048146807 -0.010499202 0.0008225888 4288754219
-0.0022199526 -0.013230249 0.0031886678 4288558124
0.00022633746 -0.01524315 0.0048543289 4288558124
0.0030338243 -0.018687561 0.0079071447 4288492844
0.0067442432 -0.025710903 0.014427835 4288492843
0.0099743903 -0.030582391 0.01885456 4288492843
0.01233913 -0.031871967 0.0198054 4289278244
0.014531374 -0.032445081 0.02006101 4289736734
0.016729027 -0.033017717 0.020315582 4289410078
0.019120619 -0.034305044 0.021260841 4289213983
0.021331687 -0.034876473 0.021512611 4288887583
0.022772515 -0.032587953 0.019000718 4289347094
-0.026124246 -0.013576612 0.0042911973 4288360754
-0.024613157 -0.011278868 0.0017671064 4288491824
-0.022696748 -0.011144653 0.0013486184 4288884778
-0.020637169 -0.011730976 0.0016302597 4288688939
-0.018572092 -0.012316801 0.0019107927 4288623403
-0.01635316 -0.013622448 0.002889175 4288558123
-0.014425501 -0.013487026 0.0024685394 4288623658
-0.012344006 -0.014071383 0.0027457252 4288362029
-0.010569803 -0.013215832 0.0016274266 4288296493
-0.008959841 -0.011640988 -0.00018629618 4288623403
-0.0071987286 -0.010786146 -0.0013015755 4288754218
-0.0049497224 -0.012089022 -0.00032926723 4288689193
-0.0023558736 -0.014828905 0.0020304471 4288296749
-7.9989433e-05 -0.016129665 0.0029970668 4288427818
0.0027237646 -0.019585289 0.0060425121 4288558634
0.0062544495 -0.025912501 0.011854725 4288623913
0.0094778053 -0.030799747 0.016271429 4288754983
0.011656329 -0.031376161 0.016528355 4289933339
0.01365719 -0.031234242 0.01609276 4290195478
0.016029537 -0.032527439 0.017038839 4289868314
0.018412607 -0.033819772 0.017982667 4289737498
0.020997446 -0.035828508 0.019613927 4288886818
0.022436021 -0.033533543 0.017107392 4289019418
-0.026662357 -0.012995549 0.0010386333 4288231469
-0.025296368 -0.0099685863 -0.0021785852 4288493098
-0.023250565 -0.010558173 -0.0018956494 4288231469
-0.021342151 -0.01042445 -0.0023123436 4288231469
-0.019142516 -0.011735953 -0.0013331166 4288166188
-0.016932093 -0.013046563 -0.00035620853 4288102183
-0.014710866 -0.014356337 0.00061846338 4288167973
-0.01247884 -0.015665203 0.0015908219 4287773744
-0.010704577 -0.014807478 0.00047414005 4287642928
-0.0090943836 -0.01322826 -0.0013363818 4287250483
-0.0073332116 -0.012371242 -0.0024500499 4287381809
0.01115486 -0.031587012 0.013951408 4289738263
0.012967397 -0.030725457 0.012827221 4289345309
0.01533122 -0.032023661 0.013771873 4289541149
0.017893963 -0.03404066 0.015402945 4289541149
0.020472759 -0.036056399 0.01703061 4289410588
0.022099946 -0.034474485 0.0152175 4289738518
0.0106542 -0.031788781 0.01138111 4288824089
0.012461446 -0.03092543 0.010259705 4289149979
0.015004747 -0.032950453 0.011889962 4289148449
0.017188098 -0.033530526 0.012142768 4289279009
0.019758176 -0.035553463 0.013767416 4289213728
0.02137761 -0.033967756 0.011959318 4289934614
0.011956271 -0.031116225 0.0076987483 4290391318
0.014308393 -0.03242407 0.0086394418 4290194968
0.016671218 -0.033730976 0.0095778499 4289998874
0.019044768 -0.035037003 0.010514012 4290130198
0.021042716 -0.034894831 0.010079393 4289933339
0.0094756149 -0.03143812 0.0055746902 4288234528
0.011451893 -0.031297974 0.0051444229 4290652694
0.013613194 -0.031884126 0.0053986628 4290063899
0.015967496 -0.03319601 0.0063356552 4290914323
0.018332522 -0.034507073 0.0072704423 4289933338
0.020322327 -0.034365483 0.0068375934 4290259739
0.008618623 -0.030152269 0.0016577821 4290457363
0.010584097 -0.030012883 0.0012298767 4289801759
0.012549616 -0.029873393 0.00080203824 4288493098
0.015264947 -0.032647572 0.0031032935 4288820264
0.017621439 -0.033963583 0.0040366184 4289736224
0.019603088 -0.033822559 0.0036055502 4290128413
0.020607576 -0.030042 -0.00022798218 4289017888
0.0079424232 -0.029579736 -0.0015637744 4290849298
0.0097178295 -0.028709918 -0.002671726 4289670688
0.011857122 -0.029302001 -0.0024159681 4288950568
0.014376305 -0.031354949 -0.00079998001 4289932063
0.016911512 -0.033406563 0.00081258826 4290389788
0.018692434 -0.032535873 -0.00029620342 4290063389
0.020077558 -0.030205287 -0.0027615633 4290194714
0.007267382 -0.028993674 -0.0047755335 4289801248
0.0088531114 -0.02738902 -0.0065603424 4289277478
0.011165794 -0.028717123 -0.0056242067 4289015849
0.013489202 -0.030044399 -0.004690269 4289408804
0.016202766 -0.032836102 -0.0024016267 4289735713
0.017975727 -0.031963788 -0.0035070498 4290193694
0.019743372 -0.031091683 -0.0046112742 4290521623
0.0055335909 -0.032210715 -0.0041558463 4288234019
0.0074878894 -0.032072268 -0.0045814309 4289342504
0.0090791658 -0.030462801 -0.0063642208 4289146409
0.011396665 -0.03179498 -0.005432358 4288950313
0.013351131 -0.031656168 -0.0058577117 4288885034
0.015495166 -0.032252073 -0.0056060981 4288885034
0.017452376 -0.0321128 -0.0060318466 4288885034
0.019994229 -0.034176879 -0.0044303155 4288688939
0.022157017 -0.034771062 -0.0041824905 4287838768
0.024525361 -0.03609886 -0.0032611927 4287971114
0.026701517 -0.036691897 -0.0030160425 4287971114
0.028882997 -0.037284389 -0.0027720137 4288167464
0.030861601 -0.037142858 -0.0032018712 4288363814
0.033051062 -0.037734501 -0.0029593697 4288297769
0.036099993 -0.041258283 -3.1247735e-05 4288035374
0.040256586 -0.048444815 0.0062466711 4287838768
0.043809876 -0.053429104 0.010501586 4287315763
0.0055721626 -0.034560099 -0.004644976 4288430369
0.0075289831 -0.034421481 -0.0050711175 4288622893
0.0093045086 -0.033545122 -0.0061742133 4288885034
0.011442795 -0.034143858 -0.0059231548 4288950313
0.013213091 -0.033267625 -0.0070249243 4289015848
0.015356794 -0.033865735 -0.0067748642 4288885289
0.017697884 -0.035200246 -0.00585113 4288688939
0.020244341 -0.037270516 -0.0042555472 4288558124
0.022609487 -0.03860306 -0.0033368608 4288819243
0.024985299 -0.039934687 -0.0024204357 4288689194
0.027169101 -0.040529318 -0.0021786308 4288428074
0.029358249 -0.041123487 -0.0019378541 4288362539
0.031344701 -0.04098139 -0.0023694141 4288362028
0.033541817 -0.041574694 -0.0021302206 4288362029
0.037024334 -0.04657957 0.0021283962 4288231213
0.041192204 -0.053787105 0.0083875507 4288100398
0.0056104101 -0.036913559 -0.0051370589 4288625699
0.0077482462 -0.037514821 -0.0048876954 4288623913
0.0097103044 -0.037375711 -0.0053148894 4288623659
0.011672415 -0.037236489 -0.0057420013 4288688683
0.013448071 -0.036357641 -0.0068433536 4288950569
0.015596777 -0.036957629 -0.0065959757 4288688683
0.018326314 -0.039774247 -0.0043303659 4288688683
0.020882726 -0.041850403 -0.0027417978 4288819498
0.023060832 -0.042447887 -0.0025005778 4288950569
0.025044464 -0.042306356 -0.0029317951 4288623658
0.027028099 -0.042164706 -0.0033629341 4288296493
0.029216908 -0.042761095 -0.0031237258 4288362028
0.031411029 -0.043356918 -0.0028855987 4288362029
0.033610467 -0.043952234 -0.0026485436 4288165679
0.036881015 -0.048234768 0.00092991814 4288230704
0.041262656 -0.056201689 0.0078411326 4287903283
0.005648315 -0.039271168 -0.0056320829 4288625699
0.0076101646 -0.039132208 -0.006059329 4288689449
0.0097530447 -0.039735131 -0.0058126515 4288492843
0.011350378 -0.038112015 -0.0075868769 4288558124
0.013682343 -0.039456196 -0.0066678924 4288754219
0.015836027 -0.040057965 -0.0064232675 4288688428
0.018378358 -0.042141803 -0.0048366478 4288558124
0.020742413 -0.04348325 -0.003924381 4289015848
0.022920169 -0.044082932 -0.0036847144 4288754219
0.024903644 -0.043941431 -0.0041159205 4288558124
0.026887126 -0.043799795 -0.0045470148 4288427308
0.029075589 -0.044398375 -0.0043093488 4288296494
0.031269364 -0.044996403 -0.0040727854 4288558123
0.033468463 -0.04559394 -0.0038372912 4288230958
0.036950674 -0.0506294 0.00039854646 4288034353
0.041117102 -0.057880767 0.0066254027 4287838004
0.0058613382 -0.042377375 -0.0054566702 4288559653
0.0078283623 -0.042238057 -0.0058850488 4288558123
0.0097954385 -0.042098619 -0.0063133491 4288492844
0.011762578 -0.041959025 -0.0067415563 4288689193
0.013543647 -0.04107549 -0.0078407852 4288623403
0.015696988 -0.041679487 -0.0075977398 4288427053
0.018238604 -0.043769903 -0.0060158372 4288819754
0.020796228 -0.045859061 -0.004437387 4288623403
0.022779536 -0.045717679 -0.004868634 4288361519
0.024962313 -0.046319105 -0.0046315566 4288165168
0.026746176 -0.045434542 -0.0057308599 4288230704
0.028934296 -0.046035342 -0.0054947548 4288361518
0.031127727 -0.046635576 -0.0052597448 4288099889
0.033536587 -0.047977425 -0.0043599159 4288295983
0.03701999 -0.053028144 -0.00013572723 4287903283
0.041187011 -0.060301252 0.006074639 4287968819
0.0058983639 -0.044745304 -0.0059592463 4288362793
0.0078679025 -0.044605806 -0.0063881725 4288558379
0.009837497 -0.044466183 -0.0068170205 4288100654
0.011623882 -0.043580204 -0.0079158656 4288689194
0.013404977 -0.042694487 -0.0090134703 4288558123
0.015557978 -0.043300688 -0.0087719709 4288558379
0.018098876 -0.045397721 -0.0071948208 4288950824
0.02084972 -0.04823897 -0.0049533062 4288885033
0.02283553 -0.048097409 -0.0053850971 4288557869
0.025219869 -0.049445905 -0.004483588 4287968819
0.027412953 -0.050048597 -0.0042503364 4288034098
0.029611379 -0.050650798 -0.0040181391 4288034099
0.03160787 -0.050507963 -0.0044518709 4288164913
0.033814281 -0.051109374 -0.0042211749 4288034098
0.037088934 -0.055430911 -0.00067298487 4287968819
0.041041307 -0.061981864 0.0048578028 4287641654
0.0054098256 -0.044870324 -0.0084754601 4288559654
0.0075516142 -0.045480028 -0.0082335435 4288231469
0.0095183887 -0.045340613 -0.0086617805 4287969583
0.023676781 -0.053471096 -0.0032421276 4287118648
0.026073914 -0.054823034 -0.0023466656 4286921788
0.028279979 -0.055427 -0.0021178657 4286725693
0.03069579 -0.056777395 -0.0012262249 4286202689
0.032708116 -0.056633405 -0.0016633803 4286071874
-0.0031231008 0.02405639 -0.001910151 4280517974
-0.00038024038 0.020739079 0.0012551695 4280518993
0.0039867945 0.01121613 0.010839714 4280780624
0.0098699257 -0.0038178302 0.026114473 4280780624
-0.028360471 0.024969272 -0.0020605903 4280908888
-0.026509494 0.025099177 -0.0024645869 4280583763
-0.024373144 0.023840375 -0.0014288304 4280517718
-0.022225946 0.022582456 -0.0003954228 4280453204
-0.020363815 0.022713408 -0.00080166012 4280453203
-0.018501543 0.022844449 -0.0012078648 4280519249
-0.016639128 0.022975586 -0.0016140407 4280847179
-0.01462061 0.022413347 -0.0013031997 4280977738
-0.012755256 0.022544876 -0.0017098794 4280847179
-0.010567218 0.021290362 -0.00068498217 4281043018
-0.0085323304 0.020729586 -0.00037755817 4280912968
-0.0064919963 0.02016928 -7.1251765e-05 4281043528
-0.0044462048 0.019609414 0.00023397803 4280978248
-0.0025669597 0.01974237 -0.00017539598 4280978504
0.00053478777 0.015030511 0.0044053402 4280978248
0.0059788823 0.0013261065 0.01823773 4280978248
-0.02794122 0.020650584 -0.00029225834 4281369673
-0.026079692 0.020781193 -0.00069859065 4281043784
-0.023933142 0.019518696 0.00033164583 4281108809
-0.021920845 0.018953465 0.00064186193 4280912714
-0.020050831 0.019084934 0.00023387559 4280978248
-0.018180661 0.019216511 -0.00017406978 4281044039
-0.016310349 0.019348182 -0.00058198348 4281045313
-0.014284126 0.018784307 -0.00027452596 4281045058
-0.012410887 0.018916361 -0.00068294816 4280979524
-0.010376416 0.01835325 -0.00037715398 4280979268
-0.0083364844 0.017790563 -7.244572e-05 4281240644
-0.0062911138 0.017228402 0.0002311077 4281044803
-0.0042403042 0.01666671 0.0005335398 4281110339
-0.0021840483 0.016105507 0.0008348655 4281240644
0.00057538971 0.012767412 0.0039801616 4281175109
0.0060182847 -0.00098099187 0.01778006 4281175109
-0.027386509 0.015615344 0.0021812711 4281435973
-0.025790878 0.01714481 0.00033757463 4281175619
-0.023779042 0.016577255 0.00064617582 4281371459
-0.021761715 0.016010169 0.00095364079 4281240898
-0.019886479 0.016141973 0.00054449402 4281306689
-0.018011078 0.016273882 0.00013537891 4281176128
-0.016135544 0.016405895 -0.00027369149 4281045313
-0.014104284 0.015840106 3.1044707e-05 4281044803
-0.012225814 0.015972503 -0.00037853234 4281044803
-0.010508135 0.016802523 -0.0015006829 4281306179
-0.0086320862 0.016934942 -0.0019095894 4281240898
-0.0064234324 0.015673209 -0.00089559518 4281175618
-0.0043729208 0.015109286 -0.00059474818 4281371459
-0.0023169741 0.014545858 -0.0002950076 4281371459
0.00078992173 0.0098035857 0.0042616762 4281436738
0.0062342584 -0.0039885528 0.018028418 4281175618
-0.027380429 0.013363823 0.0017741658 4281370693
-0.025781877 0.014897883 -6.6963956e-05 4281109318
-0.02362562 0.013627231 0.0009545479 4281175874
-0.021892689 0.014459938 -0.00016972236 4281306434
-0.019870177 0.013891034 0.00013505481 4281306689
-0.017992228 0.014023095 -0.00027463026 4281306689
-0.015961416 0.013455 2.842769e-05 4281110594
-0.014080524 0.01358746 -0.00038176216 4280980033
-0.01235754 0.014419891 -0.0015034676 4281240644
-0.010639794 0.015252084 -0.0026240116 4281306689
-0.008600466 0.01468493 -0.0023224792 4281436739
-0.0065557063 0.014118295 -0.0020221034 4281567298
-0.0045055002 0.013552144 -0.0017228434 4281502274
-0.0022784621 0.012287542 -0.00071604736 4281371458
0.0010037348 0.0068312585 0.0045369528 4281567554
0.0068029948 -0.0084017739 0.019685606 4281371459
-0.027374662 0.011108186 0.0013639927 4281566789
-0.025773183 0.012646809 -0.0004745163 4281305414
-0.023614764 0.01137187 0.00054320507 4281371459
-0.021734551 0.011503883 0.00013286807 4281175874
-0.019854195 0.011635985 -0.00027744099 4281175874
-0.01812356 0.012470834 -0.0013994118 4281175874
-0.016398109 0.013305463 -0.0025202213 4281240899
-0.014367469 0.012735203 -0.0022186618 4281371968
-0.012489229 0.01286754 -0.0026282221 4281241663
-0.010610856 0.012999982 -0.0030377395 4281372223
-0.0087323822 0.013132513 -0.0034472179 4281699134
-0.006687928 0.01256365 -0.0031484282 4281698878
-0.0044694878 0.011293948 -0.0021431167 4281698878
-0.0022402704 0.010025047 -0.0011400487 4281698368
0.0015645884 0.0024484359 0.0062190089 4281763648
0.0080764554 -0.015635453 0.02415379 4281763648
-0.02723287 0.0081426352 0.0016638339 4281697603
-0.025764793 0.010391548 -0.00088503957 4281370439
-0.023745865 0.0098178163 -0.00058297627 4281567554
-0.021721445 0.0092445537 -0.00028204918 4281502529
-0.019691542 0.008671768 1.7749146e-05 4281240644
-0.017955489 0.0095091723 -0.001103783 4281175619
-0.016072296 0.0096416324 -0.0015145903 4281240898
-0.014188968 0.0097742081 -0.0019253539 4281371458
-0.012147825 0.009202607 -0.0016277116 4281436738
-0.010101233 0.0086314827 -0.0013311859 4281632578
-0.0080491751 0.008060798 -0.001035735 4281633089
-0.0059916861 0.0074906461 -0.00074143708 4281763649
-0.0040971003 0.0076245107 -0.001154284 4281633089
-0.0016893595 0.0056484044 0.00054931454 4281829439
0.0021239929 -0.001951728 0.0078884885 4281829439
0.008994218 -0.021498159 0.027188012 4281829439
-0.027364053 0.0065845028 0.00053462386 4282480199
-0.025895543 0.0088399947 -0.0020094505 4281763139
-0.023735434 0.00755639 -0.00099873822 4281631814
-0.02142033 0.0055661947 0.00071940944 4281763649
-0.019235902 0.0042844936 0.0017249547 4281698113
-0.017489128 0.0051247999 0.00060269423 4282743613
-0.015443228 0.0045511201 0.00089749508 4282872899
-0.013546679 0.0046846047 0.00048383139 4283003460
-0.011335012 0.0034051761 0.0014837869 4283394883
-0.0092727207 0.0028329492 0.0017752312 4283657025
-0.0073677935 0.0029673167 0.0013599638 4284048959
-0.012766957 -0.016534425 -0.00025844388 4283852608
-0.010995299 -0.015674718 -0.0013729343 4283525444
-0.009228874 -0.014815234 -0.0024862541 4283395904
-0.0076289847 -0.013232313 -0.0042911442 4283134529
-0.0053836666 -0.014544182 -0.0033246325 4283004988
-0.0032942332 -0.015131898 -0.0030520307 4282744379
-0.0010300539 -0.016442224 -0.0020894753 4282417468
0.0017608851 -0.019920655 0.00094239227 4282284614
0.0054519027 -0.027011074 0.0074181911 4282219334
-0.027466133 -0.013248555 -0.0040430045 4282350148
-0.025835253 -0.011660084 -0.0058521321 4282286144
-0.023795411 -0.012254529 -0.0055712061 4282221629
-0.021892577 -0.012121238 -0.0059867157 4282090813
-0.019989595 -0.011987828 -0.0064021731 4282154054
-0.017938651 -0.012581185 -0.0061234487 4282349894
-0.01558128 -0.014627434 -0.0044586519 4282351169
-0.01336094 -0.015945911 -0.0034903111 4281566024
-0.011129797 -0.017263569 -0.0025242167 4281435208
-0.0095217898 -0.015675783 -0.0043277396 4281174088
-0.0076020434 -0.015540533 -0.0047463598 4281239623
-0.0056821927 -0.015405178 -0.0051649259 4281502019
-0.0037622452 -0.015269697 -0.0055834288 4281567554
-0.0015039034 -0.016584873 -0.0046228403 4281306433
0.001452446 -0.020799883 -0.00090883952 4281502528
0.0049643032 -0.027187534 0.0048632789 4281894463
0.0081699491 -0.032122023 0.0092494618 4283460418
-0.027923398 -0.023716949 0.0035858527 4282936648
-0.027329609 -0.016281478 -0.0037920913 4281698369
-0.025693156 -0.014688261 -0.0055991812 4281567553
-0.023787938 -0.014554925 -0.0060152998 4281371714
-0.021882564 -0.014421485 -0.0064313868 4281241153
-0.020122014 -0.013558663 -0.0075405417 4281306433
-0.018071406 -0.01415424 -0.0072633913 4281370948
-0.01586502 -0.015478201 -0.0062953746 4281435973
-0.013647832 -0.016801335 -0.0053295894 4281435463
-0.01157549 -0.017395057 -0.0050569316 4281500998
-0.0094977058 -0.017988279 -0.004785371 4281370694
-0.0075754263 -0.017852873 -0.0052045556 4281240388
-0.0058166794 -0.01698941 -0.0063127512 4281436738
-0.0038968623 -0.016853943 -0.0067312298 4281502019
-0.0018079989 -0.017445929 -0.0064617423 4281698369
0.0011444166 -0.02167441 -0.0027566822 4281568319
0.0044774748 -0.027354836 0.0023149159 4281960253
0.0074993856 -0.031578161 0.0060050208 4283527228
-0.02792605 -0.02604831 0.0031213555 4283132999
-0.027193747 -0.019322917 -0.0035473024 4281501254
-0.025551736 -0.017724909 -0.00535239 4281371203
-0.023780778 -0.01685942 -0.0064623756 4281044803
-0.021872871 -0.016725816 -0.0068790177 4281044803
-0.019820049 -0.017323568 -0.0066040875 4281175619
-0.017761745 -0.017920859 -0.0063302154 4281175109
-0.015848093 -0.017786518 -0.0067478707 4281109318
-0.013781533 -0.018382967 -0.0064756805 4281239879
-0.011709526 -0.018978901 -0.0062045874 4281109318
-0.0096320547 -0.019574352 -0.0059346007 4281305668
-0.0078706965 -0.018708639 -0.0070418278 4281370693
-0.0059511214 -0.018573321 -0.0074603492 4281436738
-0.0040314458 -0.018437892 -0.0078788148 4281501763
-0.001774136 -0.019761913 -0.0069245556 4281502273
0.0011796728 -0.024003372 -0.0032296497 4281893698
0.0039914586 -0.02751305 -0.00022679381 4282872898
-0.028191544 -0.026914589 0.0012681708 4283133253
-0.027326457 -0.020904034 -0.0046932781 4281370183
-0.025547601 -0.020035923 -0.0058034351 4281436228
-0.023773931 -0.019168027 -0.0069124298 4281175364
-0.021863505 -0.019034274 -0.0073296512 4281371459
-0.019808322 -0.019634083 -0.0070568183 4281306434
-0.017600425 -0.020966858 -0.0060957996 4281305669
-0.015681572 -0.020832174 -0.0065145986 4281370438
-0.013762593 -0.02069737 -0.006933351 4281305414
-0.011843495 -0.02056244 -0.0073520364 4281370694
-0.0096084401 -0.02189289 -0.00639656 4281435973
-0.0076837763 -0.021757342 -0.0068162847 4281501509
-0.0057590157 -0.021621667 -0.0072359489 4281502273
-0.0036682338 -0.022218041 -0.0069702622 4281567554
-0.0015720278 -0.022813901 -0.006705666 4281567044
0.0010433495 -0.025604665 -0.0043897331 4282089794
0.0035062097 -0.027662136 -0.0027619526 4283003969
-0.028063372 -0.029986516 0.0014921818 4283264069
-0.027191602 -0.023958027 -0.0044576693 4281435719
-0.025407374 -0.02308739 -0.0055673961 4281239879
-0.023628317 -0.022216991 -0.0066759009 4281370948
-0.021712683 -0.022082902 -0.0070942789 4281370948
-0.019652508 -0.022684537 -0.0068242382 4281371458
-0.017586865 -0.02328568 -0.0065553132 4281436738
-0.01536601 -0.024621844 -0.0056002643 4281632834
-0.013591588 -0.023751207 -0.0067073442 4281567554
-0.011667296 -0.023615949 -0.0071271863 4281567554
-0.0099006183 -0.022745579 -0.0082324333 4281763393
-0.0076579675 -0.024079762 -0.0072818045 4281763393
-0.0055676214 -0.024678469 -0.0070177503 4281894464
-0.0036375672 -0.024542332 -0.0074384939 4281698368
-0.0015390217 -0.025140233 -0.0071760509 4281437249
0.00090706348 -0.027205639 -0.0055495836 4281828419
0.0033692233 -0.029269725 -0.0039265621 4283331644
-0.028459482 -0.030111015 -0.0010486599 4283591488
-0.027725264 -0.023326546 -0.0076736771 4281894719
-0.025812753 -0.023192912 -0.0080915447 4281763648
-0.023900077 -0.023059152 -0.0085093621 4281894718
-0.021845691 -0.023663513 -0.0082397964 4281960508
-0.019930065 -0.023529306 -0.0086580869 4281698878
-0.017867416 -0.02413287 -0.0083901566 4281765179
-0.015649736 -0.025473654 -0.0074377004 4281896249
-0.013725705 -0.025338523 -0.0078575741 4282090814
-0.011646673 -0.025940582 -0.0075929556 4282286144
-0.0097197518 -0.025805034 -0.008013295 4282483513
-0.0074722804 -0.027143203 -0.0070670247 4282549049
-0.005539801 -0.027007021 -0.0074883942 4282680373
-0.0037727728 -0.026134148 -0.0085917991 4283138099
-0.0015063584 -0.027470656 -0.0076494124 4283269424
0.0011125691 -0.030278645 -0.0053473189 4283530544
-0.028462648 -0.032449953 -0.00151869 4283983933
-0.027590863 -0.026386552 -0.0074424408 4283333429
-0.025945254 -0.024770968 -0.0092352871 4283465518
-0.023894005 -0.025377855 -0.0089667663 4283988014
-0.021978661 -0.025243819 -0.0093850978 4284118064
-0.019919127 -0.025849901 -0.0091182087 4284117554
-0.017854132 -0.026455499 -0.0088524446 4284444718
-0.015634291 -0.0278005 -0.007903723 4284707113
-0.0034042075 -0.043283924 -0.011291046 4284706349
-0.0014539324 -0.043146327 -0.011716176 4284574768
0.00049642101 -0.043008566 -0.012141209 4284182578
0.0026190877 -0.043622054 -0.011896949 4283856688
0.0047471523 -0.044235051 -0.011653777 4284117554
0.0070581734 -0.045598574 -0.010743588 4284116533
0.0091996863 -0.046210341 -0.010503139 4283854393
0.0109808 -0.045320392 -0.011597592 4283591743
0.013127744 -0.045931511 -0.011358138 4283133253
0.015656486 -0.048042618 -0.0097882822 4282938944
0.018964812 -0.053152703 -0.0055610873 4283004224
0.021923371 -0.056760259 -0.0026711123 4283394884
-0.016316198 -0.050382987 -0.0054369681 4284638774
-0.01464697 -0.04873468 -0.0072117634 4284575278
-0.012988299 -0.047086969 -0.0089842081 4283856944
-0.011800326 -0.043175243 -0.012769364 4283334960
-0.0098585859 -0.043038718 -0.013192985 4283008048
-0.0080754608 -0.042147599 -0.014287107 4282679864
-0.0056520253 -0.04427398 -0.012700167 4282417214
-0.0035405979 -0.044890873 -0.012455333 4282286144
-0.0015904792 -0.044753283 -0.01288043 4282547518
0.00019032881 -0.043861769 -0.013973702 4282286909
0.0023100078 -0.044477709 -0.013730392 4281828418
0.0042603537 -0.044339716 -0.014155246 4281828163
0.0063881353 -0.044954799 -0.013913561 4281892934
0.0083412752 -0.044816338 -0.014338821 4281761609
0.010477163 -0.045430586 -0.014098711 4281826633
0.01261843 -0.046044305 -0.013859656 4281695818
0.01532916 -0.048914857 -0.011629183 4281958724
0.018633343 -0.054040521 -0.0074125053 4282285123
0.02197485 -0.059163332 -0.0032038661 4282611268
-0.012973707 -0.049455144 -0.0094808899 4282087754
-0.011629097 -0.04628934 -0.012588542 4281698113
-0.0098380595 -0.04539559 -0.013682835 4281763393
-0.0078936964 -0.045258805 -0.014106967 4281371969
-0.0057880431 -0.045878373 -0.013862651 4280979523
-0.0036769509 -0.046497501 -0.013619401 4281109828
-0.001726985 -0.046359941 -0.014044471 4281501509
5.3856522e-05 -0.045466229 -0.015136115 4281500998
0.0020013191 -0.04532858 -0.015560437 4281435973
0.00377433 -0.044435233 -0.016650159 4281435973
0.0058964379 -0.045052893 -0.016408864 4281370183
0.0080239475 -0.045670085 -0.016168613 4281435719
0.010339342 -0.047041722 -0.015265748 4281435463
0.012480263 -0.047657646 -0.015028249 4281500744
0.015190087 -0.05053699 -0.012804098 4281500743
0.018492792 -0.055678025 -0.0085985111 4281696074
0.021639649 -0.060061984 -0.0050623799 4282020689
-0.012809087 -0.052586921 -0.0093114078 4281825868
-0.011764623 -0.047893398 -0.013750907 4281698113
-0.0099735409 -0.046997488 -0.014843591 4281632578
-0.0080293417 -0.046860717 -0.0152677 4281306179
-0.0059240237 -0.047482513 -0.015024953 4281240388
-0.0038132742 -0.048103847 -0.014783256 4281370949
-0.0018634647 -0.047966287 -0.015208285 4281239879
8.643046e-05 -0.047828592 -0.015633244 4281239623
0.0020364001 -0.047690772 -0.016058121 4281174854
0.0036377572 -0.046037242 -0.017810706 4281174088
0.0057595298 -0.046657115 -0.017570976 4281239368
0.0078866966 -0.047276512 -0.017332274 4281370184
0.010383878 -0.049409762 -0.015770435 4281304903
0.012342125 -0.049270689 -0.01619662 4281566789
0.015051037 -0.052158825 -0.013978802 4281435208
0.018161949 -0.056558616 -0.010444709 4281696074
0.021111863 -0.060199499 -0.0075773085 4282282064
-0.013095714 -0.053442173 -0.01115064 4282218824
-0.011900105 -0.049497165 -0.01491306 4281108298
-0.0099534914 -0.049360342 -0.01533778 4281174088
-0.0080067813 -0.049223408 -0.015762437 4281174344
-0.0060599595 -0.049086317 -0.016187016 4281043784
-0.0041130558 -0.048949093 -0.016611513 4281174088
-0.00216607 -0.048811756 -0.01703595 4281174088
-5.0168484e-05 -0.049434654 -0.01679682 4281239368
0.001899641 -0.049296856 -0.017221671 4281108808
0.0036753714 -0.048398905 -0.018308755 4281239113
0.0059762821 -0.0497806 -0.017409414 4281239369
0.0079289377 -0.049642213 -0.017834596 4281173833
0.01006379 -0.050263092 -0.017599158 4281173579
0.012204021 -0.050883427 -0.017364774 4281500488
0.014912017 -0.053780347 -0.01515327 4281369164
0.018211767 -0.058952145 -0.010969874 4281433678
0.020970447 -0.061845183 -0.0087692011 4282412114
-0.013381924 -0.054292686 -0.012986511 4281957194
-0.012035556 -0.051100619 -0.016074996 4281305159
-0.010244407 -0.050200351 -0.017164446 4281238603
-0.008300513 -0.050063632 -0.017588504 4281303884
-0.0061958805 -0.050689846 -0.017348878 4281173068
-0.004085809 -0.051315576 -0.017110288 4281303884
-0.002136305 -0.051178068 -0.017535269 4281304393
-0.00035537407 -0.050277837 -0.018622063 4281304649
0.0019342192 -0.051664971 -0.017723721 4281369929
0.0038865991 -0.051526867 -0.018149041 4281370183
0.0060156733 -0.052150585 -0.017914165 4281370183
0.0076122694 -0.050488457 -0.01965896 4281368908
0.0097441114 -0.051111735 -0.019424494 4281369164
0.011696711 -0.050973065 -0.019849461 4281499468
0.014585752 -0.05464036 -0.01698532 4281433423
0.017691404 -0.059066646 -0.013469686 4281367379
-0.013817541 -0.054372557 -0.015483287 4281694544
-0.012018487 -0.05346968 -0.016572934 4281434699
-0.010224663 -0.052567013 -0.017661393 4281107533
-0.0084360465 -0.051664628 -0.018748581 4281433933
-0.0063317567 -0.052293047 -0.018510506 4281433934
-0.004222028 -0.052921019 -0.018273495 4281107023
-0.0022726841 -0.052783512 -0.018698443 4281303374
-0.00049171969 -0.051881112 -0.019783616 4281757018
0.0014551096 -0.051743537 -0.02020783 4281755998
0.0035757944 -0.052370198 -0.019972809 4282082908
-0.0042109564 0.045268171 0.029570686 4280699788
0.010820828 0.046996389 0.025515577 4278404023
0.012337565 0.04842557 0.023618275 4278271169
-0.024064079 0.045611802 0.02881466 4280635528
-0.021604642 0.05175012 0.021239588 4278468284
-0.018996783 0.048620671 0.024581885 4278862258
-0.013700474 0.042367585 0.031249085 4279454878
-0.011953104 0.043153994 0.030086303 4279521434
-0.010051411 0.0432886 0.029672084 4278734758
-0.0089605115 0.046679687 0.025524022 4279127969
-0.0085556321 0.052673332 0.018397016 4278471598
-0.0019239858 0.049166806 0.021645689 4278337978
0.00048368797 0.047349311 0.0234678 4278930854
0.0027292743 0.046183113 0.024543209 4278865829
0.0049856342 0.045017786 0.025616275 4278800039
0.0065185204 0.046452329 0.023718609 4278471853
0.0071096085 0.051134087 0.01811556 4278536113
0.0080411658 0.054514453 0.014002616 4278667438
0.009712372 0.055296186 0.012857029 4279062178
-0.042106405 0.048106063 0.025343517 4278735014
-0.040838815 0.051519718 0.021164404 4278273463
-0.03923177 0.052962538 0.019252853 4278338489
-0.032393962 0.046794821 0.025566475 4279258019
-0.030255534 0.045615632 0.026661182 4278865829
-0.028918013 0.048369586 0.023247594 4278603688
-0.027463697 0.050466917 0.020589055 4278603434
-0.026447088 0.054528192 0.015684569 4279192230
-0.025032423 0.05662284 0.013034767 4278340529
-0.023195684 0.056752522 0.012634454 4278864299
-0.017857224 0.049815297 0.020056346 4278536623
-0.015836626 0.049293209 0.020396562 4278930344
-0.014123853 0.050079297 0.019242978 4278931108
-0.012416299 0.050865117 0.018090529 4278800038
-0.010004792 0.056355581 0.011321731 4279060903
-0.0084962286 0.057792448 0.0094323121 4279520924
-0.0063181818 0.056616861 0.01051899 4278864554
-0.0036113039 0.053483915 0.013831867 4278667438
-0.001052957 0.05100546 0.016396688 4278536879
0.00099277124 0.050485693 0.016731838 4278733994
0.002863232 0.050618533 0.016324757 4278865319
0.0038169026 0.054011326 0.012215117 4278471344
0.0067765862 0.056881838 0.0084494986 4279322788
0.0090060309 0.055710427 0.0095253028 4279324063
0.011634354 0.053237375 0.012075223 4278536879
-0.044669636 0.049725354 0.020860197 4279062688
-0.041921385 0.055255141 0.014029631 4279258274
-0.040213607 0.056042306 0.012878198 4279455899
-0.03813763 0.05485414 0.013983028 4279192484
-0.035669446 0.051692314 0.017338941 4278995369
-0.033563696 0.050506357 0.018437358 4278471599
-0.031711943 0.050636768 0.018033529 4278996389
-0.030400425 0.053397596 0.014632195 4278865318
-0.028696746 0.054184832 0.01348185 4278340784
-0.025447927 0.056415338 0.010437125 4278601648
-0.02361659 0.056544594 0.010037962 4279257509
-0.021339737 0.054703996 0.011878209 4278339509
-0.016583644 0.050370045 0.016293643 4278733993
-0.014881447 0.051157553 0.015143981 4278996389
-0.013502724 0.053256571 0.012507172 4278996388
-0.0018858686 0.052078184 0.012313947 4278536624
0.00032674521 0.05090085 0.013389884 4278668713
0.0018280894 0.052341837 0.011505572 4278930853
0.0029524527 0.055090547 0.0081457701 4278864808
-0.045480669 0.052159183 0.015233958 4279194013
-0.040584847 0.055849522 0.010279501 4278273209
-0.034211993 0.051612679 0.014329828 4278734248
-0.032370992 0.051742285 0.013928305 4278603689
-0.030799635 0.053191599 0.012031194 4278734504
-0.029101163 0.053980574 0.010883635 4278603178
-0.017329089 0.051464774 0.012203671 4278603434
-0.015481189 0.051595397 0.01180104 4278603434
-0.013951026 0.053042307 0.0099133588 4278537898
-0.012431432 0.054488562 0.0080279708 4278603178
-0.010922387 0.055934094 0.0061449762 4278406319
-0.0054248348 0.056323655 0.0049478542 4278602923
-0.002717223 0.053168785 0.0082441475 4278996389
-0.00051575899 0.05198624 0.0093192067 4278538664
0.0011555143 0.052774284 0.0081783179 4278472618
0.0024555363 0.054874852 0.0055639725 4278472874
0.0042966008 0.055005696 0.0051633585 4278341548
0.0061377138 0.055136599 0.0047627762 4278341293
0.0083609186 0.053955883 0.005833393 4278275759
0.010594845 0.052776039 0.0069016814 4278668713
0.013428565 0.049630642 0.010170912 4278668969
-0.045608997 0.050638631 0.014132068 4279194268
-0.04423897 0.053420689 0.010730686 4278472618
-0.040955238 0.05566572 0.0076873656 4278668204
-0.038890824 0.054467849 0.0087880697 4278602924
-0.036688775 0.052608188 0.0106344 4278668713
-0.034729332 0.052074533 0.010982526 4278735014
-0.033028468 0.052865714 0.0098359715 4278538154
-0.031332754 0.053656597 0.0086905863 4278603433
-0.02964218 0.054447211 0.0075463206 4278865318
-0.027816683 0.054575853 0.007148277 4279061669
-0.026133761 0.055366013 0.0060058124 4278865574
-0.024310581 0.055494618 0.0056083668 4278800038
-0.022487246 0.055623289 0.0052109305 4278669224
-0.020060726 0.053108484 0.0077842716 4278537898
-0.017919563 0.051916678 0.0088687297 4278603689
-0.016079739 0.052046701 0.0084678419 4278407083
-0.014398538 0.052837111 0.007326033 4278603433
-0.012722556 0.053627215 0.0061854087 4278734504
-0.010887671 0.053757086 0.0057857409 4278472363
-0.0095529966 0.055866297 0.0031684767 4278537898
-0.007895343 0.056655295 0.0020319875 4278603433
-0.0058987029 0.05612525 0.0023727417 4278603688
-0.0033722408 0.053618088 0.0049247388 4278604199
-0.0010017864 0.051771507 0.0067352522 4278603944
0.00084439293 0.051902566 0.0063334182 4278276013
0.0025078431 0.052692294 0.0051959064 4278603433
0.004351493 0.052823309 0.0047947187 4278800039
0.0058189034 0.054270878 0.0029244442 4278472618
0.0076573268 0.054401651 0.0025244895 4278275759
-0.045850426 0.049783994 0.01228107 4279260314
-0.044598274 0.053240165 0.0081379991 4278538409
-0.043135472 0.05536386 0.0054968745 4278603943
-0.041324802 0.055490997 0.005101718 4278800549
-0.039266169 0.054288227 0.0062004011 4278800039
-0.036943562 0.051756725 0.0087893885 4278603433
-0.034857817 0.050556015 0.0098822005 4278603943
-0.033024974 0.050684951 0.0094823837 4278603944
-0.031326465 0.051478177 0.0083379988 4278668968
-0.029770337 0.052935176 0.0064507481 4278603434
-0.028224684 0.054391447 0.0045658723 4278537388
-0.026689559 0.055847086 0.0026832912 4278537134
-0.023059212 0.05610314 0.0018918719 4278533564
-0.020641543 0.053578883 0.0044605453 4278536113
-0.018202372 0.051056206 0.0070245732 4278734504
-0.016209394 0.0505233 0.0073641799 4278472363
-0.014369518 0.050653353 0.0069632977 4278537898
-0.012690753 0.051445823 0.0058236886 4278734504
-0.011181105 0.052900132 0.0039470904 4278602668
-0.0060279034 0.054612696 0.0012770649 4278271679
-0.0014870167 0.051565856 0.0041577984 4278930343
0.00071362033 0.050374448 0.0052265301 4278668968
0.0025597885 0.050505556 0.0048247334 4278603434
0.0044060275 0.050636731 0.0044229683 4278472108
0.0055004917 0.053409778 0.00108945 4278799783
0.011987507 0.050502297 0.0035474915 4278337468
0.016021766 0.043377474 0.011182155 4278271679
-0.045752347 0.046930175 0.012676261 4279914898
-0.044609696 0.051065441 0.0077929646 4278472873
-0.043262094 0.053863447 0.004409574 4278340784
-0.035244286 0.0503713 0.0072937328 4279192228
-0.033548549 0.051166464 0.0061514694 4278538154
-0.031723589 0.051294852 0.0057533793 4278668969
-0.030035466 0.052089565 0.0046129096 4278799784
-0.028352499 0.052883971 0.0034736134 4278602668
-0.025437154 0.056468952 -0.0010234332 4278271679
-0.023482285 0.05593092 -0.00067734532 4278271934
-0.018484741 0.050200354 0.0051837508 4279192229
-0.016338997 0.049000081 0.0062606391 4278472363
-0.014657579 0.049794834 0.0051220208 4278603433
-0.012981381 0.050589286 0.0039845873 4278668969
-0.011637852 0.052712191 0.001375163 4278537389
-0.010476615 0.055498209 -0.0019667344 4278338489
-0.0086603649 0.055626832 -0.0023622876 4278536113
-0.001794368 0.050705791 0.0023205895 4279061159
0.00022337586 0.050173011 0.0026535857 4278537898
0.0018816963 0.050966747 0.0015204567 4278799783
0.0033496469 0.052423008 -0.00034339353 4278537389
0.0048069619 0.053878631 -0.0022049174 4278536879
0.0066345222 0.054008607 -0.0026025232 4279191973
0.008655265 0.053476349 -0.0022698753 4279782298
0.014895871 0.045132384 0.0064111687 4278470068
-0.046106257 0.046748262 0.010081077 4280177293
-0.044967897 0.050896358 0.0052085277 4278341803
-0.040014386 0.053956121 0.0010446031 4278992819
-0.0355011 0.049526654 0.0054542907 4278601903
-0.033807918 0.050323747 0.0043142363 4278471853
-0.032119878 0.051120535 0.0031753406 4278734248
-0.030436978 0.051917024 0.0020376202 4278668203
-0.029038265 0.054049779 -0.00057938322 4278274994
-0.027797565 0.056849565 -0.0039324993 4278536879
-0.026143506 0.057644218 -0.0050637834 4279716764
-0.02390454 0.055767749 -0.0032400144 4278733228
-0.019072399 0.050683811 0.0018716343 4278406574
-0.016935118 0.049478471 0.0029471032 4278799528
-0.015261605 0.050274838 0.0018118285 4278865318
-0.013754185 0.051737685 -5.7857484e-05 4278733993
-0.011269629 0.056660455 -0.0059932815 4278864809
-0.0092952736 0.056122109 -0.0056527015 4279586969
-0.0069723725 0.054252218 -0.0038468111 4279127714
-0.0044591241 0.05171768 -0.0013117054 4278799274
-0.00026606768 0.049980581 8.722581e-05 4278930854
0.0012047812 0.051441368 -0.0017740233 4278668713
0.0026650019 0.052901506 -0.003632959 4278471854
0.0059340708 0.054490309 -0.0058853375 4278340529
0.0077535771 0.054619774 -0.0062811486 4278930344
0.01015991 0.052756432 -0.0044929488 4278602668
-0.04668466 0.047920115 0.0060035326 4278997153
-0.043869026 0.052879129 5.5748969e-06 4278734248
-0.042549185 0.055692706 -0.0033586565 4278997409
-0.040633895 0.055146836 -0.0030077118 4278866339
-0.0383351 0.052587148 -0.00043334626 4278930598
-0.036143415 0.050700299 0.0013953894 4278405553
-0.034460805 0.051498793 0.00025924295 4278668203
-0.032917306 0.052967839 -0.0016155029 4278734249
-0.031247638 0.053765554 -0.0027487269 4278799273
-0.026414305 0.056827046 -0.0068788286 4279717274
-0.024473317 0.05628356 -0.0065330546 4278996133
-0.017685406 0.050639704 -0.0010918463 4278734248
-0.016180485 0.052106682 -0.0029577697 4278734504
-0.014686115 0.053572942 -0.0048212977 4278865318
-0.0029379278 0.051003087 -0.0035352027 4278341039
-0.0011134632 0.051132534 -0.0039323671 4278603178
0.0001649335 0.053264447 -0.0065174233 4278865318
0.0014273711 0.055395257 -0.0090989135 4278668713
0.011857562 0.051374462 -0.0059855869 4278340274
0.016897082 0.040846609 0.0052208118 4278864809
-0.04737395 0.049784396 0.0011961032 4279455643
-0.03484983 0.051345196 -0.0023052674 4278668458
-0.033311412 0.052818272 -0.0041757058 4278799783
-0.031783432 0.054290641 -0.0060437638 4278865318
-0.030544259 0.057107739 -0.0093835266 4278406574
-0.020701595 0.053706352 -0.006925635 4278603688
-0.018434115 0.051818844 -0.0051178355 4278603944
-0.01678177 0.052618038 -0.0062452648 4278669224
-0.015134625 0.053416938 -0.0073715039 4278603434
-0.013492722 0.054215584 -0.0084965937 4278668969
-0.012021855 0.055684686 -0.010351637 4278406318
-0.0057604462 0.052715361 -0.007878745 4278406574
-0.0037730001 0.052173711 -0.0075441767 4279062433
-0.0016009361 0.050962627 -0.0064824186 4278865829
-0.00014555082 0.052431107 -0.0083338097 4278669479
0.0012992285 0.053898875 -0.010182789 4278931619
0.0027333684 0.055365995 -0.012029445 4278931363
0.0049163811 0.054155987 -0.010969842 4279259039
0.0065324903 0.05495356 -0.012088673 4279127968
0.0089241415 0.05307598 -0.010307144 4279128223
0.011331875 0.051199574 -0.0085290158 4278800549
0.016162347 0.041304335 0.0019292794 4278735269
-0.047724448 0.049640648 -0.0013714787 4279783574
-0.046612293 0.053826302 -0.0062089302 4278276013
-0.044826239 0.053951386 -0.006598955 4278734504
-0.043400802 0.056105148 -0.0092074145 4278275504
-0.041622311 0.05622983 -0.009595694 4278472364
-0.0395924 0.055002939 -0.0085073449 4278734759
-0.037295043 0.052425545 -0.0059458194 4278734758
-0.03549996 0.052551582 -0.0063375765 4278865829
-0.033838287 0.053352982 -0.0074658841 4278669479
-0.032318041 0.054829195 -0.0093290545 4278734758
-0.030530401 0.054954913 -0.0097190365 4278865574
-0.028884202 0.055755429 -0.010843817 4279062178
-0.026954591 0.055206604 -0.01049895 4279193504
-0.025166452 0.055332575 -0.010888881 4279062434
-0.022929281 0.05343616 -0.0090795336 4279062434
-0.020828247 0.05221495 -0.008006189 4278997154
-0.01871638 0.050994538 -0.0069351047 4279062944
-0.016908973 0.051122148 -0.0073290272 4278931619
-0.015261739 0.051923219 -0.0084536672 4278997408
-0.013293769 0.051377609 -0.0081167882 4278931873
-0.011320353 0.050832458 -0.0077810399 4279128223
-0.0091731735 0.049614944 -0.0067174267 4279259293
-0.0075281635 0.050416157 -0.0078413617 4279128479
-0.0057147332 0.050544634 -0.0082362611 4279062688
-0.0037248917 0.050000936 -0.0079038721 4279062688
-0.0017296225 0.049457662 -0.0075725615 4279062944
0.00027105585 0.048914883 -0.0072424216 4279062944
0.0015397891 0.051059343 -0.0098154843 4278997409
0.0033535883 0.051188212 -0.010210192 4278669479
0.0053571202 0.050645869 -0.0098804981 4278603944
0.0073660538 0.05010394 -0.0095518799 4278407339
0.0095753856 0.048891589 -0.0085012326 4278538409
0.011795443 0.047680046 -0.0074528093 4278407849
0.016230248 0.039093334 0.0015356503 4278276524
-0.047737837 0.047469027 -0.0017136596 4280045968
-0.046507232 0.050989233 -0.0058030291 4278734758
-0.044715911 0.051114637 -0.0061942404 4279062689
-0.043164574 0.052596968 -0.0080612535 4278932128
-0.041255414 0.05204393 -0.0077140043 4279128479
-0.039340712 0.051491305 -0.0073678708 4278932128
-0.037164293 0.049583487 -0.0055506788 4278866083
-0.03536395 0.049709857 -0.005943615 4278997153
-0.033696838 0.050513785 -0.0070714997 4278734758
-0.032034881 0.051317412 -0.0081982194 4278603689
-0.030378081 0.052120745 -0.0093237599 4278865829
-0.028585017 0.052246887 -0.0097148931 4278603434
-0.026791781 0.052373093 -0.010106024 4278669223
-0.024704859 0.051146325 -0.0090330169 4278603688
-0.022607096 0.049920347 -0.0079622734 4278538409
-0.020346418 0.048019089 -0.006162988 4278472874
-0.018224344 0.046794973 -0.0050974367 4278472874
-0.016406342 0.046923298 -0.0054936884 4278407594
-0.012607187 0.046504796 -0.0055575399 4278276269
0.010419969 0.044016618 -0.0059863729 4278276524
0.012455396 0.04347457 -0.0056650918 4278800803
0.017098509 0.034187086 0.0040207226 4278735268
-0.047191955 0.041887276 0.0016312432 4281029503
-0.046059087 0.046100572 -0.0031910772 4278735268
-0.044254541 0.046226844 -0.0035852212 4278603943
-0.038839594 0.046606164 -0.0047676302 4278342569
-0.035098046 0.046179585 -0.0048219254 4278342059
-0.031480961 0.046433594 -0.0056112818 4278276269
-0.026054017 0.046815243 -0.0067951996 4278341803
-0.023951553 0.045585133 -0.0057288976 4278342058
-0.021838233 0.044355832 -0.0046648504 4278342314
-0.01971411 0.043127399 -0.0036031557 4278342314
-0.017733745 0.042577948 -0.00327243 4278473384
-0.015905164 0.042706992 -0.0036710082 4278407849
-0.014076445 0.042836122 -0.0040695565 4278407849
-0.01192243 0.041610111 -0.0030141491 4278407593
-0.0099228658 0.041062362 -0.0026874188 4278473384
-0.0079178624 0.040515073 -0.0023618191 4278538918
-0.0060780235 0.040645305 -0.0027625598 4278604198
-0.0047579072 0.042806186 -0.0053371815 4278473128
-0.0025739931 0.041582681 -0.0042879907 4278538663
-0.000557933 0.041036494 -0.003964562 4278538663
0.0014635585 0.040490732 -0.0036422107 4278800549
0.003122516 0.041297711 -0.0047656856 4278800549
0.0049628355 0.041428462 -0.0051661665 4278473128
0.0069925264 0.040883519 -0.0048454236 4278735524
0.0086436346 0.041690186 -0.0059670079 4278538918
0.0108734 0.040470455 -0.0049273316 4278538663
0.013311181 0.03857645 -0.0031705694 4278800803
0.017564919 0.030608905 0.0050523132 4278735269
-0.04561273 0.041190058 -0.00059497915 4278997154
-0.043677889 0.040634193 -0.0002567973 4278734504
-0.041857213 0.040761609 -0.00065445341 4278342314
-0.040036313 0.040889118 -0.0010520983 4278276779
-0.03821522 0.041016705 -0.0014497377 4278407849
-0.036266193 0.040462118 -0.0011144411 4278276779
-0.034442015 0.04059007 -0.0015126411 4278407849
-0.032617658 0.040718101 -0.0019108336 4278342059
-0.030928843 0.041527927 -0.0030401926 4278473128
-0.029106781 0.04165595 -0.0034377705 4278473128
-0.027284548 0.041784052 -0.0038353335 4278407594
-0.025462158 0.04191225 -0.0042328704 4278472873
-0.0232004 0.039997637 -0.0024437811 4278735014
-0.021369673 0.040126573 -0.0028430205 4278735268
-0.01923535 0.038894434 -0.0017868597 4278473128
-0.017553397 0.039704308 -0.0029143225 4278800803
-0.015562505 0.039153486 -0.0025875419 4278800803
-0.013566144 0.038603134 -0.0022618938 4278669733
-0.011564318 0.038053207 -0.0019373279 4278538663
-0.0095570348 0.037503779 -0.0016139466 4278538663
-0.0077120475 0.037634276 -0.0020158803 4278538663
-0.0058669634 0.037764862 -0.0024177786 4278473384
-0.0043679625 0.039253697 -0.0042657629 4278604453
-0.0021765009 0.038026281 -0.0032214625 4278735524
-0.00015271828 0.037478417 -0.0029013762 4278473384
0.0018764883 0.036931038 -0.0025823927 4278735269
0.0035435557 0.03774073 -0.0037059616 4278538663
0.0053917877 0.037872031 -0.0041081775 4278473384
0.00742919 0.037325464 -0.0037908051 4278538918
0.0090884194 0.038134858 -0.004912477 4278538918
0.011325702 0.036911301 -0.0038777711 4278735524
0.013573717 0.035688549 -0.0028452966 4278932128
0.01823001 0.026340526 0.0067916978 4278866849
0.026605574 0.0048121214 0.02931224 4278866849
-0.045396537 0.037628505 0.00051678717 4279390874
-0.043453977 0.03707093 0.0008515995 4278997153
-0.041505851 0.03651382 0.0011852589 4278735014
-0.039796591 0.037326865 5.2772462e-05 4278866339
-0.037967585 0.037454963 -0.00034662709 4278538918
-0.036010846 0.036898673 -1.4692545e-05 4278538918
-0.034178764 0.037027135 -0.00041465089 4278604453
-0.032346494 0.037155688 -0.00081459805 4278735524
-0.030649573 0.037968226 -0.001944121 4278735524
-0.028681412 0.037413049 -0.001614444 4278407594
-0.026989467 0.03822539 -0.0027427655 4278735014
-0.025015622 0.037670754 -0.0024142209 4278538663
-0.022890083 0.036433436 -0.0013595587 4278735269
-0.021051452 0.036562882 -0.0017605545 4278669734
-0.019212663 0.036692433 -0.0021615215 4278997409
-0.017527953 0.037504658 -0.0032879673 4278800804
-0.015691556 0.037634198 -0.0036882935 4278538918
-0.013376378 0.035717115 -0.0019155135 4278604453
-0.011369504 0.035165366 -0.0015937556 4278604198
-0.0091922805 0.033932246 -0.00054994226 4278669733
-0.0076745115 0.035426572 -0.0023988225 4278735268
-0.0058268495 0.035557307 -0.0028013028 4278735524
-0.0043248907 0.037050694 -0.0046466105 4278604453
-0.0021312535 0.035819054 -0.0036061341 4278735524
-0.00010509044 0.035269164 -0.0032882066 4278538918
0.0021074116 0.034038991 -0.002251666 4278538918
0.0037799068 0.03485129 -0.0033748262 4278800804
0.005633384 0.034982946 -0.0037781941 4278735524
0.0076758415 0.034434497 -0.0034635281 4278735524
0.0095320866 0.034566514 -0.0038673738 4278538918
0.011582643 0.034018859 -0.0035543824 4278669733
0.013638571 0.033471674 -0.0032424908 4278800803
0.018294774 0.024092901 0.0063715372 4278669988
0.0268691 0.0018148012 0.029555375 4278800803
-0.045181394 0.034053974 0.0016190559 4279194268
