# .PCD v0.7 - Point Cloud Data file format
VERSION 0.7
FIELDS x y z rgba
SIZE 4 4 4 4
TYPE F F F U
COUNT 1 1 1 1
WIDTH 636
HEIGHT 1
VIEWPOINT 0 0 0 1 0 0 0
POINTS 636
DATA ascii
-0.023976235 -0.01123029 0.030986745 4289800229
-0.026111733 -0.011446662 0.028385188 4289211690
-0.024039945 -0.010696996 0.027634788 4290519839
-0.021955114 -0.010680411 0.027584244 4289539109
-0.01984904 -0.011396866 0.028233346 4289931298
-0.018120967 -0.00038299896 0.017690379 4290062624
-0.02821533 -0.013124641 0.027186666 4288556083
-0.02616697 -0.010902125 0.025041495 4289996833
-0.024119258 -0.0094149299 0.023594845 4289146408
-0.022027047 -0.01013384 0.024242591 4289211944
-0.019992981 -0.008646518 0.022796448 4290324509
-0.018257197 0.0016645715 0.0129763 4289014319
-0.028251894 -0.013310794 0.024544466 4290127393
-0.02620909 -0.011081744 0.022404302 4290258718
-0.024182674 -0.0088527491 0.020264674 4289800483
-0.022098843 -0.0095738461 0.020910952 4290650908
-0.020115469 -0.0066072373 0.018075708 4290716699
-0.018369282 0.0029967483 0.0089750327 4288095298
0.021778693 -0.013623197 0.024048913 4287706678
0.023783209 -0.012867015 0.02330545 4289866784
0.025863463 -0.012847725 0.02325708 4289735969
0.028027667 -0.01356528 0.02390359 4290453284
0.030370826 -0.0157566 0.025939558 4290714404
-0.028298585 -0.012748107 0.021214101 4290521114
-0.026251119 -0.01125238 0.019773941 4290521114
-0.024214566 -0.0097565828 0.018334094 4289473318
-0.022152076 -0.009740199 0.018284079 4290389278
-0.020237733 -0.0045458646 0.013371591 4289669924
0.021455573 -0.012324985 0.020028483 4288426289
0.023449039 -0.011566686 0.019286942 4289604899
0.025436891 -0.010808325 0.018545616 4289735714
0.027503194 -0.010789032 0.018497679 4289799973
0.029656136 -0.011508736 0.019142915 4290061093
0.032351568 -0.016662862 0.023946393 4289408294
-0.03038026 -0.015156034 0.020717595 4289337659
-0.028345138 -0.012172068 0.01789384 4289800483
-0.026293052 -0.011413957 0.017150316 4290062369
-0.024246408 -0.010655786 0.016407076 4289604389
-0.022168396 -0.011381305 0.017050195 4290323744
-0.020317487 -0.0039461348 0.010070074 4290258463
0.021208482 -0.011750466 0.016713146 4289997599
0.023115052 -0.01024866 0.015281755 4289800994
0.025173159 -0.010229516 0.015233945 4289146664
0.027231125 -0.010210286 0.015186194 4289604898
0.029549239 -0.012414827 0.017212976 4289342758
0.031973109 -0.015360378 0.019930851 4289409824
0.03441865 -0.018305589 0.022648323 4288818733
-0.030410957 -0.015319346 0.018092323 4289141053
-0.028381379 -0.012326769 0.015275214 4289799208
-0.026321976 -0.012310638 0.015225101 4290584608
-0.024262547 -0.012294414 0.015175056 4290520093
-0.022203099 -0.012278046 0.015125114 4290323233
-0.020418229 -0.0025889911 0.0060872622 4289931044
0.021037327 -0.011906113 0.014097888 4289801249
0.022938343 -0.010400015 0.012669954 4290520603
0.024909561 -0.0096374052 0.011932332 4290128414
0.027043195 -0.010361719 0.012574684 4290782233
0.029268881 -0.011829316 0.01390684 4290914324
0.031684294 -0.014783616 0.01661839 4289605663
0.03421361 -0.018481001 0.020019222 4288557614
-0.03044156 -0.015473708 0.015473854 4288750903
-0.028427685 -0.011726164 0.011973429 4290322978
-0.026389539 -0.010963799 0.01123352 4290061603
-0.024325574 -0.011693955 0.011873666 4288950058
-0.022311216 -0.010185152 0.010444272 4290323744
-0.020518789 -0.0012141801 0.002117794 4288817714
0.018959733 -0.013563169 0.012914311 4287968563
0.020866258 -0.012052777 0.011489455 4290063389
0.02284023 -0.011288069 0.010753322 4289473828
0.024889851 -0.011268973 0.010705736 4289670178
0.027023317 -0.011995449 0.011346463 4290455324
0.029162081 -0.012721734 0.011987183 4290193438
0.031574525 -0.015684742 0.014692266 4289538599
0.034008652 -0.018647417 0.017396953 4286594623
-0.030479476 -0.014870511 0.012173686 4290258463
-0.028453575 -0.012609104 0.010058377 4289473574
-0.026431173 -0.011096187 0.0086319111 4289407528
-0.024372853 -0.011828508 0.0092705227 4289342504
-0.022437455 -0.0073217936 0.0050918423 4290192673
0.018794311 -0.013705159 0.010309223 4287771703
0.02061951 -0.011442475 0.0082009472 4289605408
0.022663655 -0.011423536 0.0081533976 4289669923
0.024788888 -0.012152364 0.0087926127 4289670178
0.027003402 -0.013628861 0.010118481 4290062368
0.029228697 -0.01510513 0.011444125 4289996833
0.031554192 -0.017329009 0.013456132 4289538088
0.033988066 -0.020300357 0.0161543 4286529344
-0.032551225 -0.016521817 0.010994267 4289339954
-0.030517258 -0.014253939 0.0088835843 4289866273
-0.028509771 -0.011235474 0.0060866885 4289996833
-0.026498422 -0.0097182617 0.0046637096 4289669669
-0.02445122 -0.010452854 0.0053009428 4290585119
-0.022545109 -0.0051825782 0.00044582412 4290192673
0.01862896 -0.013838077 0.0077108778 4288949293
0.020448627 -0.011568958 0.0056076832 4290258973
0.022487162 -0.01155006 0.0055602826 4290585884
0.024606762 -0.012281071 0.0061980225 4290585628
0.026899548 -0.014511976 0.0082057379 4290258718
0.029208573 -0.016742585 0.010213111 4289865764
0.031623244 -0.019722929 0.012905087 4289276204
-0.032585207 -0.015145469 0.0070238747 4288685623
-0.030554906 -0.013624059 0.0056035481 4289407530
-0.0285355 -0.012102557 0.0041835569 4289668904
-0.026501333 -0.012086658 0.0041340329 4289146409
-0.024467142 -0.012070635 0.0040845983 4289538599
-0.022615938 -0.004526834 -0.0028138235 4290257954
0.018317765 -0.012457466 0.0037521459 4289996324
0.020277834 -0.011686387 0.0030211546 4289865508
0.022232322 -0.010915287 0.002290424 4289408038
0.024424719 -0.012400789 0.00361019 4288950058
0.026711816 -0.014638208 0.0056130998 4290323743
0.029101787 -0.017627558 0.008299049 4289800483
0.031513467 -0.020616593 0.010984581 4289276204
-0.032595962 -0.017526658 0.0064848103 4287116608
-0.03057773 -0.014490841 0.0037006438 4288033334
-0.028561175 -0.012965027 0.0022839792 4287902773
-0.026529901 -0.012949146 0.0022345297 4287968563
-0.024498602 -0.01293315 0.0021851622 4288295473
-0.022631796 -0.0061225584 -0.0040135793 4288884269
0.016192572 -0.013341134 0.0019000024 4287376964
0.0180797 -0.01181358 0.00048863515 4289799974
0.020031454 -0.01104042 -0.00024046376 4289865253
0.021977616 -0.010267167 -0.00096939877 4289146409
0.024161616 -0.011757086 0.00034729764 4289866274
0.026440294 -0.014001133 0.0023455545 4289669924
0.028821805 -0.016999187 0.0050251372 4290257443
0.031314388 -0.020751292 0.0083859228 4289079853
-0.032615926 -0.018397441 0.0045788027 4286855234
-0.030593183 -0.016110158 0.0024831295 4287706934
-0.02856669 -0.015337167 0.0017515644 4287837749
-0.026520051 -0.01607847 0.0023838505 4288033843
-0.024498967 -0.015305238 0.0016526319 4287837239
-0.022647651 -0.007717981 -0.0052131079 4288032823
0.015962949 -0.012688218 -0.0013568923 4287704129
0.017987618 -0.01266964 -0.0014041178 4290062369
0.019936515 -0.01189427 -0.0021315403 4290127393
0.02187982 -0.011118894 -0.0028587207 4289408294
0.02397977 -0.01185657 -0.0022253953 4290323998
0.02625276 -0.014107175 -0.00023190305 4290455069
0.028628567 -0.017114006 0.0024413317 4289735459
0.031115396 -0.020877013 0.0057940818 4288491824
-0.032631271 -0.02002296 0.0033566244 4286723908
-0.030594025 -0.019247886 0.0026263744 4287771703
-0.028562201 -0.018472724 0.001896359 4287640888
-0.026510278 -0.019216113 0.0025268383 4288099124
-0.024468364 -0.019200029 0.0024772175 4287510073
-0.022608791 -0.011590979 -0.0043723807 4287509564
0.015803622 -0.012780742 -0.0039250366 4288358968
0.017822674 -0.012762199 -0.0039721169 4290127393
0.019841617 -0.012743537 -0.0040191039 4289800739
0.02186043 -0.012724745 -0.0040659867 4289997089
0.023879113 -0.012705837 -0.0041127838 4290323998
0.025981484 -0.01344552 -0.0034810416 4290258208
0.028435411 -0.017219845 -0.00013572723 4289669923
0.0308272 -0.020235036 0.002530653 4288033844
-0.032646608 -0.021648146 0.0021346882 4286723908
-0.03060222 -0.021632448 0.0020847023 4287707444
-0.028547775 -0.022378113 0.0027133934 4287968564
-0.026475087 -0.023885148 0.0040205754 4287706423
-0.024437884 -0.023107536 0.0032922439 4287771958
-0.022588272 -0.014715186 -0.0042196102 4287444028
0.015784672 -0.014386331 -0.0051321201 4287640889
0.01780357 -0.014367766 -0.005179178 4288492078
0.019897955 -0.015110037 -0.004549142 4288492589
0.021919353 -0.015091212 -0.0045960806 4288885034
0.023859555 -0.01431137 -0.0053198077 4289539108
0.025877962 -0.014292332 -0.0053664967 4289604389
0.028242333 -0.017316643 -0.002706062 4289080364
0.030539161 -0.019579789 -0.00072272494 4287968054
-0.032652877 -0.024800532 0.0022671483 4286986049
-0.030603185 -0.024784803 0.0022170283 4287510073
-0.028543461 -0.025532605 0.0028439462 4287837239
-0.026478238 -0.026280243 0.0034708269 4287575864
-0.024453904 -0.02473679 0.0020672716 4287771448
-0.02260422 -0.016320549 -0.0054266118 4287575098
0.015695585 -0.015228434 -0.0070144646 4287510073
0.017784452 -0.015973035 -0.0063860156 4288099379
0.019954244 -0.017480642 -0.0050821938 4288230704
0.02197822 -0.017461784 -0.0051291846 4288034609
0.023839982 -0.015916597 -0.0065266006 4288753963
0.025858236 -0.015897546 -0.0065732747 4288753453
0.028049355 -0.017404471 -0.0052695833 4288557104
0.03034048 -0.019674132 -0.0032910444 4286921533
-0.03266824 -0.026429458 0.001042407 4286724674
-0.03061147 -0.027179619 0.0016676411 4287051583
-0.028559169 -0.027163714 0.0016175732 4287510073
-0.026506837 -0.027147701 0.0015675835 4287444793
-0.024500798 -0.024834065 -0.00050783902 4287576119
-0.022620162 -0.01792559 -0.0066333748 4287509818
0.015886893 -0.01912732 -0.0061978139 4287576629
0.017983777 -0.019874012 -0.0055711828 4288099379
0.020086003 -0.020620544 -0.0049445853 4287837493
0.022037005 -0.01983634 -0.0056653582 4288426289
0.023982422 -0.019052073 -0.006385915 4288622383
0.025922241 -0.018267699 -0.007106293 4288491314
0.028115885 -0.019778926 -0.0058059134 4288229428
0.030409528 -0.022055093 -0.0038322657 4286005828
-0.026560757 -0.026474403 -0.0016793683 4287051583
-0.024532182 -0.025690336 -0.0024025887 4287574333
-0.022599801 -0.021066293 -0.0064929314 4287182653
0.016007977 -0.022271365 -0.0060630031 4288034098
0.018110132 -0.023020174 -0.0054381192 4288361009
0.020066598 -0.022233877 -0.0061574802 4288164658
0.022095734 -0.022214929 -0.0062045641 4288230195
0.02412474 -0.022195878 -0.0062515624 4288360753
0.0260699 -0.021409305 -0.0069703721 4288556593
0.02809591 -0.021390038 -0.0070171207 4287968054
0.016198987 -0.026193541 -0.0052638613 4287772214
0.018236397 -0.026174776 -0.0053113326 4288034099
0.020198187 -0.025386237 -0.0060291626 4288360755
0.022232627 -0.025367234 -0.0060763657 4288229683
0.02418598 -0.024578501 -0.0067938752 4288033843
0.026133748 -0.023789711 -0.0075110979 4288295219
0.027989497 -0.022231326 -0.0088983327 4287510073
0.013940604 -0.025515748 -0.0084408037 4286855744
0.016109789 -0.027040944 -0.0071501881 4287314233
0.018144311 -0.027022194 -0.0071975812 4287706169
0.020178715 -0.027003322 -0.0072448812 4287771703
0.022213003 -0.026984308 -0.0072920658 4288164404
0.024166225 -0.026193369 -0.0080079176 4287969073
0.02611387 -0.025402417 -0.0087235086 4288296494
0.027969519 -0.023839675 -0.010107461 4287706168
0.013787137 -0.02558011 -0.010987867 4286267204
0.015810678 -0.025561577 -0.011035088 4286790463
0.017906832 -0.026316924 -0.010414939 4287705148
0.020083776 -0.027846077 -0.0091276169 4287836474
0.022115177 -0.027827077 -0.0091747269 4288032568
0.024065549 -0.027034029 -0.0098888241 4287772468
0.025926704 -0.025467038 -0.011269748 4287904048
0.027776783 -0.023899946 -0.01265033 4287248188
-0.0032387245 0.01365234 0.037810642 4278471089
-0.001076594 0.012256272 0.039198522 4278406828
-0.0096064759 0.014786672 0.03384966 4278539684
-0.0076233493 0.016221859 0.032365922 4278800548
-0.0056105834 0.016948085 0.0315996 4279062178
-0.0036033355 0.017674334 0.030833531 4279128224
-0.0015093926 0.016982686 0.031501669 4278669479
0.00058995932 0.016291171 0.032169793 4278408103
0.0028494764 0.013473086 0.034988437 4278736034
0.0049678441 0.012781929 0.035656262 4278933148
0.0070915949 0.012090959 0.036323998 4278998683
0.011105077 0.013544783 0.034792829 4278536113
0.013233995 0.012854125 0.035460714 4278668203
-0.01165004 0.012417402 0.033381011 4279587733
-0.0097290315 0.015279453 0.030469004 4278670499
-0.0077542011 0.016718939 0.028988738 4278603688
-0.005790364 0.018158436 0.027508829 4278407339
0.00037691928 0.017499126 0.028078157 4278538918
0.002522137 0.016094439 0.029460061 4278670243
0.0045696199 0.016112089 0.029411454 4278604963
0.006559981 0.01684089 0.028647814 4278342059
0.0085447785 0.017569736 0.027884383 4278669734
0.01064902 0.016876638 0.028551105 4278604198
0.012823878 0.015472714 0.029932681 4278866594
0.015009576 0.014068935 0.031314123 4279061924
-0.011828966 0.014341764 0.028575543 4279259803
-0.0098865684 0.016498953 0.026384447 4278342314
0.00035926886 0.015871555 0.026854496 4278539428
0.0024527665 0.015175797 0.027519543 4278277544
0.0044431128 0.015906699 0.02675749 4278473383
0.0084071122 0.017368697 0.025233965 4278341039
0.01050573 0.016673341 0.025899235 4278275504
0.017187251 0.011022706 0.031460349 4278734248
-0.011878245 0.0134257 0.026636366 4278801059
-0.010008836 0.017020658 0.023025539 4278408103
-0.0080155097 0.017753165 0.022264604 4278997664
-0.0059871282 0.017770153 0.02221607 4278538664
-0.0039154887 0.017071702 0.022879761 4278997153
-0.0017923918 0.015657917 0.024255488 4278931874
0.00024404004 0.015675299 0.024207 4278604964
0.0022288766 0.016408242 0.023446653 4278604708
0.004262425 0.016425803 0.023398388 4278539173
0.0061818995 0.017874297 0.021926586 4278473383
0.0081500653 0.018607445 0.02116682 4278341549
0.012460871 0.015781738 0.023917798 4278273974
0.014564598 0.015084468 0.024581473 4278538918
0.017097706 0.010095607 0.029514086 4278866849
-0.012056817 0.015385531 0.021857571 4278997919
-0.010130974 0.017555736 0.019676682 4278668969
-0.0060853865 0.017589539 0.019579832 4278276524
-0.0039760936 0.016171139 0.020952571 4278604453
-0.0019019302 0.015470661 0.02161466 4278801314
0.00012889877 0.015487991 0.021566305 4278670243
0.002108153 0.016223092 0.020807747 4278735778
0.0040818583 0.016958281 0.020049352 4278604709
0.0060500111 0.01769349 0.019291211 4278408103
0.0080125965 0.018428747 0.018533271 4278735524
0.010094495 0.017728962 0.019195642 4278603943
0.012181753 0.017029338 0.019857977 4278669988
0.014342291 0.015612334 0.021230217 4278408103
0.017008187 0.0091731511 0.027571309 4278473638
-0.012105921 0.014487505 0.019931946 4278473638
-0.0041664392 0.017434932 0.016902242 4278407339
-0.002103379 0.016732197 0.017562967 4278407594
-3.490597e-05 0.016029604 0.018223632 4278604454
0.0019360352 0.01676682 0.017466914 4278473638
0.0040098354 0.016064502 0.018127624 4278604709
0.012098262 0.016135532 0.017936561 4278604198
0.014323773 0.01399447 0.020013895 4278735778
0.017130559 0.0060963891 0.027756695 4278801314
-0.014121217 0.012133077 0.019473601 4279456663
-0.012251851 0.015760653 0.015887309 4278342569
-0.0103048 0.017221682 0.014424022 4278735015
-0.0082932049 0.01723846 0.014375839 4279063199
-0.0062816497 0.017255329 0.014327731 4279062688
-0.00014986657 0.015862517 0.015598137 4278800293
0.0019183829 0.015157867 0.01625726 4278472618
0.0039378479 0.015175354 0.016209375 4278734759
0.0077975504 0.017376482 0.013993297 4278406573
0.011819413 0.017412052 0.013898488 4278472619
0.014237365 0.013098761 0.018091146 4278473129
-0.014285523 0.014137514 0.014727924 4279456153
-0.012333069 0.015602842 0.013267707 4278276269
-0.0023679025 0.017135728 0.011616182 4278931363
-0.00021605566 0.014980227 0.013684873 4278865828
0.0017978717 0.014997579 0.013637047 4278735013
0.0057117119 0.0164809 0.012131084 4278865318
0.0076006651 0.017946731 0.010673229 4279062688
0.0094785783 0.019412629 0.0092156865 4279062689
0.011540746 0.018706307 0.0098737441 4278275759
0.013947474 0.014379852 0.014056835 4278342059
-0.016265398 0.011061655 0.014977526 4282471273
-0.0144201 0.015437506 0.010703143 4278670243
-0.012446442 0.016180541 0.009950716 4278276778
-0.01040832 0.015470643 0.010606807 4278800549
-0.0084401881 0.016213857 0.009854693 4278472364
-0.0065180231 0.017683633 0.0083987229 4278603690
-0.0045204647 0.017700508 0.0083510466 4278473384
-0.0024311114 0.016264655 0.0097112693 4278539173
-0.00033087283 0.014829032 0.011071254 4278342313
0.0016260464 0.015572704 0.010319818 4278538408
0.013929 0.012773775 0.012849364 4278996643
-0.016362095 0.011637583 0.011658709 4279719314
-0.014495531 0.015297763 0.008096952 4278801824
-0.012527462 0.016042948 0.0073463209 4278603943
-0.010494975 0.015330829 0.0080008991 4278603689
-0.0085324328 0.01607617 0.0072505511 4278603943
-0.0065754019 0.016821586 0.0065004192 4278734758
-0.0045807194 0.016838454 0.0064528175 4278538408
-0.0025401935 0.016126849 0.0071075447 4278735524
-0.00039697438 0.013958231 0.0091666318 4278735523
0.0015057214 0.015432652 0.0077147521 4278866594
0.003451515 0.016178533 0.0069653131 4278669478
0.005221216 0.019110002 0.0041100979 4278865829
0.0072072726 0.019127443 0.004063189 4278537899
0.0092555489 0.018416531 0.0047182776 4278603434
0.011374248 0.016977377 0.0060750581 4278865573
0.013910508 0.011167973 0.011642117 4278669223
-0.016431933 0.01149603 0.0090509839 4280243339
-0.014600332 0.015897918 0.0047965907 4278866848
-0.0086999312 0.017409183 0.0032515973 4278472109
-0.0066731479 0.016695026 0.0039048903 4278734759
-0.004640935 0.015981067 0.0045580976 4278669733
-0.0026491843 0.015998039 0.0045106634 4278538919
-0.00056026317 0.014553625 0.0058643855 4278538919
0.0013341345 0.016032308 0.0044160411 4278473128
0.0031634308 0.018241741 0.0022675805 4278996899
0.005033059 0.019720417 0.0008199811 4278865829
0.0070703272 0.019007172 0.0014735721 4278865829
0.0091752615 0.017563455 0.0028273389 4278996643
0.011356069 0.015389305 0.0048811175 4278604198
0.014027523 0.008101346 0.011835273 4278801058
0.017176529 -0.0035694018 0.022988472 4279587478
-0.016474977 0.010630319 0.0071494915 4280634509
-0.014705 0.01651147 0.0015062392 4278669733
-0.010912402 0.020209495 -0.0020851977 4278668969
-0.0069323424 0.019509524 -0.001480341 4278407084
-0.0047873519 0.016594302 0.0012687705 4278341804
-0.0027580969 0.01587826 0.0019204989 4278735524
-0.00072342157 0.015162345 0.0025722384 4278538918
0.0012140032 0.015912458 0.0018261597 4278604453
0.011272872 0.014534287 0.0029888824 4278473639
0.014008934 0.0064917821 0.010625195 4278801568
0.0171574 -0.0052137813 0.021752212 4279980944
-0.016571339 0.011239897 0.0038558915 4280242064
-0.014809533 0.017138354 -0.0017740242 4278538918
-0.012898601 0.018625148 -0.0032168441 4278996899
-0.011033523 0.020847175 -0.0053569078 4278997663
-0.0090343887 0.020128336 -0.0047063008 4278931364
-0.0029127486 0.016502578 -0.0013601705 4278866339
-0.00088644773 0.015784469 -0.00070990622 4278604453
0.0010426529 0.016536657 -0.0014541 4278342059
0.0090147927 0.015871167 -0.00094397366 4278931618
0.011254678 0.012948986 0.0017970353 4278473383
0.013922608 0.0056174714 0.008718539 4279063963
0.017067792 -0.0061229123 0.01981939 4280569994
-0.016667563 0.011862773 0.0005723685 4279389598
-0.014855145 0.016303763 -0.0036521107 4278342059
-0.0049936417 0.016386177 -0.0038881898 4278669733
-0.0030672699 0.017140303 -0.0046308413 4278669733
-0.0010493454 0.016419943 -0.003982015 4278538919
0.0028406847 0.017191406 -0.0047709793 4278931108
0.0047531109 0.017945863 -0.0055129603 4278866338
0.006897917 0.015751619 -0.0034731962 4278997153
0.0088723879 0.01576915 -0.0035196878 4278472108
0.011171518 0.012101091 -8.9842826e-05 4278341549
0.013836322 0.0047477931 0.0068153627 4279521944
0.016978225 -0.0070274165 0.017890129 4280896393
-0.016763657 0.012499072 -0.0027011372 4279193758
-0.01490071 0.015473779 -0.0055266544 4278669478
-0.012963338 0.016229607 -0.006268356 4278669479
-0.0090675009 0.017001916 -0.0070568547 4278276014
-0.0070632678 0.016278919 -0.0064096004 4278931873
-0.0050966535 0.016295597 -0.0064564981 4278669733
-0.003175877 0.017051872 -0.0071973652 4278800804
-0.0012121033 0.017068747 -0.0072440282 4278800804
0.0046220832 0.017859492 -0.0080773234 4278275759
0.011088384 0.011257894 -0.0019732714 4279062179
0.013750067 0.0038827881 0.0049157105 4279456153
0.016818287 -0.0071880212 0.01527087 4281027463
-0.016833 0.012406882 -0.0052716769 4278997408
-0.01494623 0.014648445 -0.0073977038 4278996899
-0.013043803 0.016148247 -0.008830484 4278800039
-0.011152338 0.01764803 -0.010262869 4278931364
-0.0091591775 0.016922664 -0.0096170604 4278603688
-0.0071605816 0.016197458 -0.0089712963 4278669988
-0.0051565561 0.015472371 -0.0083255246 4278473638
-0.0032843947 0.016972486 -0.0097571537 4278538918
-0.0013262387 0.016989332 -0.0098036677 4278473384
0.00063185766 0.017006289 -0.0098501071 4278603943
0.002589887 0.017023351 -0.0098964497 4278931619
0.0046045333 0.016298983 -0.009250544 4278472619
0.0066245738 0.015574712 -0.0086046457 4278538154
0.00864999 0.014850665 -0.0079588182 4278866339
0.011005288 0.0104193 -0.0038531497 4278670243
0.01379911 0.0015395023 0.0044033527 4279128988
0.016799172 -0.0088224513 0.014042091 4281093254
-0.018704459 0.0070995595 -0.0029487498 4280699788
-0.016955435 0.013811719 -0.0092179701 4279062688
-0.0091756964 0.015364554 -0.010788508 4278538664
-0.0072175376 0.015381042 -0.01083529 4278407848
-0.005259417 0.015397664 -0.010881975 4278538918
-0.0033013523 0.015414406 -0.010928564 4278735779
-0.0013918094 0.016175054 -0.011665802 4278538918
0.00051219948 0.016935762 -0.012402825 4278603688
0.0024106745 0.017696563 -0.013139606 4278800804
0.00441695 0.016969949 -0.012495134 4278931874
0.0064286217 0.016243506 -0.011850692 4278604453
0.0085078049 0.014773536 -0.010515898 4278407848
0.010987097 0.0088417195 -0.0050391927 4278604454
0.013848083 -0.00080782734 0.0038879551 4279062944
0.016780043 -0.010456602 0.012813535 4281090704
-0.018815828 0.0085026156 -0.0068967193 4279847833
-0.013268542 0.017504755 -0.015313327 4279127713
-0.0092672389 0.015298903 -0.013338409 4278669223
-0.0072744535 0.014569316 -0.01269576 4278407594
-0.0053192172 0.014585916 -0.012742374 4278670243
-0.0033640321 0.014602624 -0.012788907 4278800803
-0.0014573447 0.015365452 -0.013524417 4278735268
0.0062921811 0.016179722 -0.014397837 4278735015
0.0084278267 0.013959508 -0.012377411 4278734759
0.010968896 0.0072644204 -0.0062250197 4278931619
0.013896989 -0.0031591859 0.0033695251 4279061413
-0.018974645 0.011420138 -0.012207501 4279323809
-0.017146677 0.01517782 -0.015694682 4278800803
-0.015316783 0.018187076 -0.018493209 4278865829
-0.01338071 0.018203046 -0.018539719 4278932129
-0.011409908 0.017470829 -0.017898314 4278734759
-0.0074519888 0.016006943 -0.016615726 4278931619
-0.0055507924 0.016771656 -0.017349653 4278735524
-0.0035180449 0.015291888 -0.01602082 4278539173
-0.0015712641 0.01530866 -0.01606705 4278538919
0.0022682212 0.016090654 -0.016846567 4279193249
0.0042120684 0.016107757 -0.016892456 4278275759
0.0061558355 0.016124967 -0.016938262 4278406574
0.010950675 0.0056874305 -0.0074106157 4279127713
0.013878273 -0.0047666077 0.0021610558 4278667693
-0.019061819 0.012112375 -0.01543913 4279324573
-0.017215569 0.015130352 -0.018231597 4278276524
-0.015361943 0.017397761 -0.020337179 4278603688
-0.013460748 0.018164188 -0.021069817 4278538154
-0.007548946 0.015961427 -0.01915032 4278866339
-0.0055674799 0.015227512 -0.018510588 4278801059
-0.0035805944 0.014493767 -0.017870888 4278866594
0.00025601126 0.015277695 -0.018648863 4278931873
0.0021970496 0.01529466 -0.018694777 4278735778
0.0040814187 0.016061991 -0.019426219 4279259548
0.0083300509 0.011595141 -0.015404474 4278341549
0.011062043 0.0026103258 -0.0072250813 4279259293
0.013994617 -0.0078741182 0.0023235641 4280765833
-0.01914886 0.012818009 -0.018660758 4278932129
-0.017257867 0.014339179 -0.020077046 4278735778
-0.015377821 0.015860423 -0.021493018 4278342313
-0.009616212 0.016661242 -0.022316474 4278604454
-0.0076859891 0.016677532 -0.022362564 4278538918
-0.0057129003 0.01594137 -0.021724269 4278408103
-0.0037343893 0.015205391 -0.021085996 4278473638
0.0001366511 0.015238892 -0.021177806 4278276524
0.0020720791 0.015255809 -0.021223582 4278866339
0.0039508548 0.016025268 -0.021953262 4278276269
0.0082501527 0.010792878 -0.017257128 4278997153
0.011043752 0.0010295957 -0.0084134936 4279456154
0.013908299 -0.0087328954 0.00042851642 4280896903
-0.019117029 0.0097624548 -0.018456616 4279063199
-0.017220678 0.011288069 -0.019869797 4278998174
-0.015306054 0.012058835 -0.020599574 4278670754
-0.01346081 0.01433935 -0.02269505 4278866848
-0.011562625 0.015110206 -0.023424264 4278539173
-0.0096325167 0.015126377 -0.023470443 4278538918
-0.0076622954 0.014387917 -0.022833787 4278408103
-0.0056866426 0.01364962 -0.022197176 4278604964
-0.0037511904 0.013666201 -0.022243202 4278473638
-0.0017674323 0.012928173 -0.021606561 4278604964
0.0060437378 0.012241628 -0.021107402 4278996643
0.0083563533 0.0077315737 -0.017059635 4278931619
0.011154937 -0.0020599123 -0.0082373656 4279194014
0.013889508 -0.01034158 -0.00078089908 4280961418
-0.019085286 0.0066985637 -0.018258817 4278735779
-0.017183574 0.0082285069 -0.019668825 4278539684
-0.015292807 0.00975856 -0.021078505 4278277545
-0.013412985 0.011288594 -0.022487782 4278670754
-0.011544124 0.012818694 -0.023896761 4278539684
-0.0095740389 0.012077931 -0.02326183 4278801824
-0.0076386509 0.012094274 -0.023308039 4278867359
-0.0057032984 0.01211074 -0.023354154 4278670754
-0.0037223995 0.011370387 -0.022719167 4278932894
-0.0017844159 0.011387117 -0.02276516 4278801824
5.1386654e-05 0.012917645 -0.02417282 4278867358
0.0019299872 0.013691377 -0.024899278 4278605219
0.003859574 0.01370839 -0.024944805 4278735779
0.0059668757 0.011455193 -0.022948246 4278407848
0.0084624421 0.0046618376 -0.016868405 4278407849
0.011201287 -0.0044011008 -0.0087480657 4278866083
0.013870703 -0.011949955 -0.0019900799 4281876104
-0.020866785 -0.0017044023 -0.013260376 4282926193
-0.019053629 0.0036262684 -0.01806733 4278604708
-0.017146559 0.0051606074 -0.019474201 4278605218
-0.015250431 0.0066949986 -0.020880695 4278343333
-0.013365254 0.0082294587 -0.022286884 4278277799
-0.011421756 0.0082456302 -0.022333466 4278474403
-0.009478285 0.0082619097 -0.022379968 4278474403
-0.0075348476 0.0082783271 -0.022426359 4278343078
-0.0055914484 0.0082948562 -0.022472668 4278343078
-0.0036025252 0.0075524598 -0.021839537 4278343079
-0.001753103 0.0090873223 -0.023244273 4278343079
0.0001363717 0.0098631941 -0.023969449 4278408614
0.0020203125 0.010639187 -0.024694446 4278539684
0.0040117297 0.0098972395 -0.024060979 4278801824
0.0060677622 0.0083965864 -0.022748563 4278801824
0.0085684229 0.0015837252 -0.016683541 4278866848
0.011312278 -0.0075052688 -0.0085828789 4279325084
0.013784459 -0.012799167 -0.0038778596 4283054969
-0.020861624 -0.0040389076 -0.013764802 4282467958
-0.019022055 0.00054554641 -0.017882116 4278802078
-0.017136045 0.0028457101 -0.019964039 4278474658
-0.015208147 0.0036231056 -0.020689234 4278277799
-0.013317611 0.0051619299 -0.022092231 4278408868
-0.011334186 0.0044168122 -0.02146098 4278539938
-0.0093826698 0.0044331774 -0.021507658 4278605473
-0.0073911054 0.0036883876 -0.020876411 4278474658
-0.0055225547 0.0052274987 -0.022278525 4278409124
-0.0035283417 0.0044829771 -0.021647152 4278474403
-0.0016252752 0.0052610412 -0.022371091 4278408869
0.00027226657 0.0060392171 -0.023094855 4278474148
0.00216428 0.006817406 -0.023818366 4278474148
0.0041637123 0.006073419 -0.023186754 4278605219
0.0061685387 0.005329553 -0.022555135 4278539684
0.008612344 -0.00074166432 -0.017182291 4278932383
0.011293804 -0.0090956455 -0.0097785331 4280110993
-0.020835575 -0.0071410891 -0.013595555 4282206073
-0.018990569 -0.0025435239 -0.017703246 4278736543
-0.017072789 -0.0010003932 -0.019103829 4278605728
-0.015165953 0.00054281205 -0.020504091 4278408869
-0.013238203 0.001322506 -0.021227546 4278736288
-0.011246759 0.00057530776 -0.02059811 4278605218
-0.0092871971 0.00059172884 -0.020644989 4278605473
-0.0073276702 0.00060829148 -0.020691764 4278802078
-0.0054109674 0.001388384 -0.021414585 4278540195
-0.0034087375 0.00064175949 -0.020785037 4278736543
-0.0015458595 0.0021854267 -0.022183556 4278540193
0.0003060326 0.0037291311 -0.02358171 4278736288
0.0022543743 0.0037462078 -0.023627754 4278474404
0.0042590946 0.0030001067 -0.02299789 4278408614
0.0063283965 0.0014908891 -0.021692313 4278604453
0.0087181292 -0.0038344376 -0.017008375 4279063709
0.011275323 -0.010685749 -0.010973983 4281027719
-0.020809611 -0.010251641 -0.013432678 4281813883
-0.018959165 -0.0056410283 -0.017530642 4278670753
-0.017036036 -0.0040934607 -0.018928122 4278867613
-0.015152948 -0.0017802101 -0.021000046 4278605218
-0.013158929 -0.0025296956 -0.020372402 4278671008
-0.011228601 -0.0017476827 -0.021094199 4278539684
-0.0092291636 -0.0024968535 -0.02046648 4278605219
-0.0073043602 -0.0017146375 -0.021187954 4278539684
-0.0053422954 -0.0016979352 -0.021234695 4278671008
-0.0033347812 -0.0024466701 -0.020606901 4278539938
-0.0014665406 -0.00089855865 -0.022002306 4278605473
0.00039070845 0.00064952672 -0.02339733 4278539683
0.0022906642 0.0014321618 -0.024117734 4278539683
0.0042415131 0.0014493819 -0.024163749 4278605219
0.0063697714 -0.00082961842 -0.022187315 4278801313
0.0088238046 -0.006935535 -0.016840793 4278801313
0.011450706 -0.014571734 -0.010147225 4282010233
-0.020721084 -0.015674416 -0.011255838 4282599539
-0.018857002 -0.011050673 -0.01534434 4280439179
-0.016920326 -0.0094986521 -0.016738877 4279260569
-0.014965506 -0.0087145139 -0.017459814 4279260569
-0.012984353 -0.008698158 -0.017507393 4279063454
-0.011072311 -0.007146012 -0.018901017 4278932128
-0.0091339452 -0.0063616363 -0.019621275 4278669988
-0.0072010811 -0.0055771256 -0.02034134 4278866849
-0.0052309781 -0.0055603469 -0.020388272 4278671008
-0.0032609142 -0.0055434508 -0.020435106 4278540448
-0.0013873186 -0.0039909929 -0.021827336 4278671008
0.00047528185 -0.0024384633 -0.023219254 4278867359
0.0023805723 -0.0016536042 -0.023938149 4278474149
0.0043367296 -0.0016363189 -0.023984272 4278604709
0.006529361 -0.0046894262 -0.021340314 4278604708
0.0089912377 -0.010812642 -0.016007043 4279063709
0.011496732 -0.016935352 -0.010674711 4282009978
-0.018731466 -0.017251818 -0.012502428 4283189609
-0.016752185 -0.016465455 -0.013222434 4281550468
-0.014778377 -0.015678987 -0.013942186 4280895628
-0.012810049 -0.01489239 -0.014661755 4279783574
-0.010847203 -0.014105782 -0.015381079 4279718549
-0.008927105 -0.012549069 -0.01677151 4279259803
-0.0068980074 -0.013302227 -0.016147692 4278997918
-0.0049916394 -0.011745386 -0.017537612 4278736289
-0.0030507986 -0.010958383 -0.018256046 4278539940
-0.0011636522 -0.0094014732 -0.019645333 4278736033
0.00071250275 -0.0078445077 -0.021034244 4278670499
0.0026313215 -0.007057311 -0.021751869 4278539173
0.0045446046 -0.0062700892 -0.02246923 4278474149
0.0066887978 -0.0085620154 -0.020502921 4278473638
0.0091585089 -0.014702458 -0.01518292 4279128734
0.011671839 -0.020842444 -0.0098638199 4279521433
-0.0008439105 -0.016377462 -0.016140454 4282861934
0.0011021532 -0.01558801 -0.016857129 4281878399
0.0030426886 -0.014798509 -0.017573599 4281812608
0.00503405 -0.014780892 -0.017620537 4280569229
0.0070844218 -0.015535129 -0.016998172 4279979923
0.0093256291 -0.01860502 -0.014368307 4279979924
0.01165315 -0.022446519 -0.011069771 4280897413
0.0073615685 -0.020990096 -0.014851246 4282927214
0.0094925929 -0.022520334 -0.013563275 4282468468
0.011634449 -0.024050321 -0.012275517 4283123818
