# .PCD v0.7 - Point Cloud Data file format
VERSION 0.7
FIELDS x y z rgba
SIZE 4 4 4 4
TYPE F F F U
COUNT 1 1 1 1
WIDTH 575
HEIGHT 1
VIEWPOINT 0 0 0 1 0 0 0
POINTS 575
DATA ascii
0.013212238 -0.0055104494 0.047621474 4284704308
-0.016372591 0.011796169 0.0059697526 4284704308
-0.016507164 0.010234788 0.0048311339 4283986229
-0.015427537 0.013999783 0.00096315797 4284313904
-0.014208738 0.017037287 -0.0022092971 4284314924
-0.01233758 0.017171338 -0.0026209753 4284315433
-0.0097820759 0.014404215 -0.00027890224 4284313139
-0.016481459 0.0079454333 0.0043818806 4281566789
-0.015561245 0.012449645 -0.00016722386 4281699898
-0.01434182 0.015495911 -0.003333264 4280461364
-0.012470797 0.015629925 -0.0037449254 4280395574
-0.010087062 0.013581499 -0.0020960504 4279419944
-0.0075137094 0.01080703 0.00023560296 4281700663
-0.0054475665 0.010215625 0.00050567347 4281831733
-0.0037337616 0.011078566 -0.00059547205 4281897779
-0.001843676 0.011214517 -0.0010108978 4281832243
4.6465546e-05 0.011350587 -0.001426249 4282159663
0.0013760477 0.013665877 -0.0038914653 4282420783
0.0032582954 0.013801597 -0.0043049129 4281249314
0.0051405728 0.013937436 -0.0047182878 4281441839
0.0079972185 0.010444447 -0.0017238589 4282680119
0.012263276 0.0018743202 0.0060315654 4283072309
0.019195899 -0.016121261 0.02261788 4283071798
0.026058987 -0.033381872 0.038495239 4283071798
0.030789239 -0.042657934 0.046873361 4283398453
-0.017416231 0.0100348 -0.00019574841 4281566023
-0.016345646 0.013820939 -0.0040453272 4281373754
-0.015136268 0.016875185 -0.0072026034 4281306178
-0.013108015 0.01627849 -0.0069260551 4281372224
-0.010562308 0.013493225 -0.0045950329 4280460088
-0.0079951882 0.010709569 -0.0022685912 4281374009
-0.0057586841 0.0093861893 -0.0013148555 4281309239
-0.0040474944 0.010251179 -0.0024138179 4281243449
-0.0019788668 0.0096579343 -0.0021457295 4281308984
-0.00045689568 0.011251502 -0.003925669 4281506099
0.0008678101 0.013572946 -0.0063848374 4280270879
0.0027445816 0.013708264 -0.0067970911 4280655928
0.0051974058 0.011659212 -0.0051676957 4280395319
0.0082502961 0.0074274093 -0.001501843 4278963748
0.012716569 -0.001896441 0.0069125351 4281113399
0.019652262 -0.019946374 0.023457158 4281113399
0.026113249 -0.035804324 0.037938032 4281699133
0.030022163 -0.04219991 0.043584362 4281633599
-0.018490657 0.0039513335 0.0032067318 4282608209
-0.0185089 0.012879096 -0.0054431008 4281046588
-0.017128501 0.015210085 -0.0079104127 4280917049
-0.015598826 0.016807739 -0.0096893087 4281437758
-0.01374406 0.016940568 -0.010097414 4281502783
-0.011377729 0.014877781 -0.0084545789 4280981053
-0.0086490102 0.011352852 -0.0054491488 4280851003
-0.0065968521 0.010756053 -0.0051793093 4281046844
-0.0048962645 0.011622407 -0.0062742596 4281047609
-0.0030197911 0.011757351 -0.0066867145 4281047609
-0.0013270825 0.012623407 -0.0077798115 4280004659
-1.2610108e-05 0.014950633 -0.010231822 4281046333
0.001853358 0.015085183 -0.010641701 4281306690
0.0042948052 0.013028741 -0.0090147397 4280915519
0.0077247098 0.0073226541 -0.0039994377 4280719424
0.01316876 -0.0056800917 0.007784185 4280980289
0.020307312 -0.024514146 0.024964243 4280980289
0.02596467 -0.037501208 0.036701243 4281045569
0.029461401 -0.0424577 0.040981174 4281045058
-0.019567154 0.0067971274 -0.0020439958 4282542929
-0.019279964 0.014280289 -0.0093023498 4280916539
-0.017909799 0.016617082 -0.011762485 4279548719
-0.01639054 0.018218342 -0.01353581 4280069683
-0.014378935 0.017616101 -0.013258955 4280395319
-0.011850998 0.014812045 -0.010937138 4279808308
-0.0093016699 0.012009636 -0.008619939 4280785724
-0.0072578341 0.011410058 -0.0083499094 4280851004
-0.0055651926 0.012278005 -0.0094414847 4280981309
-0.0038778074 0.013145693 -0.010531821 4280915518
-0.0023793429 0.014746279 -0.012300032 4278700078
-0.00089146942 0.01634619 -0.014065784 4280720444
0.0013416111 0.015014432 -0.013117488 4280654908
0.0037770234 0.012950987 -0.011494079 4280589628
0.0071999244 0.0072269291 -0.0064903828 4280067898
0.012635048 -0.0058157146 0.0052656448 4279937848
0.01976312 -0.024707176 0.022405282 4279937848
0.025411535 -0.037734158 0.034114677 4280394044
0.029106392 -0.04343804 0.039059062 4280849218
-0.020170964 0.0074577332 -0.0052252091 4282085968
-0.019890018 0.014962308 -0.012465809 4280785469
-0.018365294 0.016568165 -0.014237174 4281177148
-0.016686331 0.017436747 -0.015324524 4281046589
-0.014342837 0.015359141 -0.013686668 4281111613
-0.011983238 0.013282776 -0.012052217 4280850238
-0.0096075796 0.011207655 -0.010421227 4281045823
-0.0079176202 0.012077473 -0.011510658 4281046334
-0.0065891445 0.01441849 -0.013956198 4280850238
-0.0050958283 0.01602295 -0.01572009 4280980544
-0.0032462254 0.016156062 -0.016126566 4280263739
-0.0013965741 0.016289309 -0.016532952 4280330804
0.00064190105 0.015687667 -0.016262926 4279808308
0.0030685961 0.013617076 -0.014642579 4279808054
0.0066759139 0.007140331 -0.0089747533 4279937848
0.012495656 -0.0074109957 0.0041028308 4280263739
0.019818017 -0.027093694 0.021874879 4280263739
0.024859212 -0.037958048 0.031534795 4280916538
0.028342275 -0.042946048 0.035794742 4281304904
0.030618105 -0.043529607 0.036013287 4282541908
-0.020773605 0.0081318468 -0.0083966535 4281760589
-0.020021103 0.013439976 -0.013575982 4280915009
-0.018658064 0.01578927 -0.016024681 4281176639
-0.016981717 0.016659822 -0.017109834 4281241918
-0.014808841 0.015314106 -0.016155552 4281372223
-0.012285367 0.012492254 -0.013845912 4281176893
-0.010085676 0.011148684 -0.012897364 4281176383
-0.0084009916 0.012020297 -0.013984004 4281111359
-0.0070774183 0.014367491 -0.016423553 4281045568
-0.0052280203 0.014500476 -0.016830064 4280915264
-0.0039282851 0.016846146 -0.019264154 4281045314
-0.0019008629 0.016241461 -0.018993467 4281176129
0.00013193861 0.015637264 -0.018723886 4281176385
0.0027438328 0.01282271 -0.016432969 4281111614
0.0059588142 0.0077995136 -0.012125999 4281112378
0.012356292 -0.0090059564 0.0029402478 4280981819
0.019673327 -0.028747886 0.020669159 4280981819
0.024509568 -0.038908966 0.029633284 4280916539
0.027783914 -0.043176584 0.033211503 4281239113
-0.02121865 0.0080777407 -0.01087811 4281761354
-0.020311221 0.012659386 -0.015365495 4281045314
-0.01895041 0.015015058 -0.017808776 4280003383
-0.017276689 0.015887618 -0.018891778 4279092014
-0.014939919 0.013796411 -0.017262246 4279548719
-0.01258707 0.011706449 -0.015636176 4280916283
-0.010218166 0.009617798 -0.014013601 4281176893
-0.0085334405 0.010491565 -0.015098622 4281046589
-0.0070316978 0.012105189 -0.016857844 4280850238
-0.0055405647 0.013718188 -0.018614709 4280980544
-0.0038769618 0.014590807 -0.019694816 4281045569
-0.0022186376 0.015463155 -0.020773679 4281176384
-0.00018883869 0.014856569 -0.020505074 4281306433
0.0024194904 0.01203303 -0.018219948 4281045824
0.0060177483 0.0055163875 -0.012579668 4281241665
0.013002466 -0.013555616 0.0044633099 4281241665
0.019727712 -0.031140387 0.020134471 4280915263
0.02416035 -0.03985519 0.027735263 4280980799
0.027021959 -0.042659782 0.029965259 4281369929
-0.021819122 0.0087765753 -0.014031534 4281176894
-0.020600922 0.011883482 -0.01715159 4281046079
-0.019242346 0.014245555 -0.019589517 4278699569
-0.017735448 0.015863314 -0.021347042 4280589628
-0.015571594 0.01450821 -0.020397358 4279026224
-0.012888368 0.010925353 -0.017423086 4278700843
-0.010695037 0.0095725358 -0.016479678 4281111359
-0.0088407174 0.0097056255 -0.01688746 4281242684
-0.0069863349 0.0098388344 -0.017295174 4281112378
-0.0054923035 0.011456415 -0.019049384 4281177404
-0.0045574494 0.015299063 -0.022819228 4280916538
-0.0029070787 0.016173001 -0.023894724 4279287853
-0.00088560209 0.015563637 -0.023625925 4278962219
0.0020955503 0.011248037 -0.020003513 4278635564
0.0058828034 0.0039703026 -0.013706671 4280524093
0.013254784 -0.016640656 0.004634345 4280524093
0.019582884 -0.032796144 0.018927615 4280915518
0.024013067 -0.041537277 0.026509259 4281241665
0.026465386 -0.042869933 0.027396888 4281434188
-0.022574462 0.01023487 -0.017852098 4281045824
-0.021366298 0.013349742 -0.020963408 4280459323
-0.01969523 0.014226317 -0.022042584 4281045569
-0.018193409 0.015848059 -0.023795709 4281240898
-0.015702028 0.012997672 -0.021498833 4280784703
-0.013358593 0.010893948 -0.019880548 4280850238
-0.010999095 0.0087914839 -0.018265717 4280850493
-0.0093222819 0.0096690729 -0.019345775 4281177148
-0.0074733682 0.009801887 -0.019752286 4281177148
-0.0061644129 0.012167685 -0.022173744 4280851513
-0.005054079 0.015276603 -0.025262732 4280591159
-0.0035943165 0.016896263 -0.027005915 4281372479
-0.0015811734 0.016284112 -0.026736937 4280199479
0.0059412122 0.0016811863 -0.014164707 4278830383
0.013310347 -0.018990986 0.0041310024 4278830383
0.019239413 -0.033708595 0.017053369 4280524093
0.023463158 -0.041733541 0.023949504 4281175619
0.025909593 -0.04307092 0.024835113 4281369163
-0.023484118 0.012459174 -0.022335026 4280850238
-0.021971606 0.014085792 -0.024087418 4279742264
-0.020469658 0.015711825 -0.025837429 4280654398
-0.018814422 0.016589537 -0.026911411 4280654144
-0.01666493 0.015224665 -0.025965147 4280002363
-0.014166355 0.012366146 -0.023676287 4279611704
-0.011818223 0.010256328 -0.022063874 4280784703
-0.0099775158 0.010388426 -0.022468675 4280915519
-0.008313898 0.011267319 -0.023544066 4280916029
-0.0068353675 0.01289247 -0.025288325 4279743539
-0.0055499151 0.01526323 -0.027699616 4280851003
-0.0039101094 0.016140811 -0.028769538 4281437503
-0.0018999502 0.015526216 -0.028501511 4281241663
0.00087748095 0.011929251 -0.02556365 4281176383
0.0054198578 0.0016245618 -0.016627155 4281111359
0.012973949 -0.019854732 0.0022915695 4281111359
0.019094838 -0.035361528 0.015848573 4280981309
0.023316311 -0.043410577 0.022727177 4281110594
0.025762198 -0.044752374 0.023609608 4281239113
-0.024236172 0.013955295 -0.026128013 4281110595
-0.022734083 0.015585516 -0.027874842 4280327743
-0.021081559 0.016465142 -0.028946709 4280262719
-0.019434266 0.017344452 -0.030017313 4280066879
-0.017293278 0.015974551 -0.029072434 4279676219
-0.014803592 0.013106674 -0.026788183 4280392768
-0.012292534 0.010240488 -0.024508588 4280653634
-0.0104573 0.010372169 -0.024912197 4280719168
-0.0089759193 0.012001723 -0.026653849 4280849984
-0.0078644045 0.015128039 -0.029730067 4280589628
-0.0062272549 0.016007423 -0.030797832 4279678003
-0.0044104308 0.01613827 -0.031197034 4280329528
-0.0024059415 0.015521135 -0.030929439 4280655419
0.00017477199 0.012660727 -0.0286645 4280133689
0.0052851886 8.1576407e-05 -0.017751895 4280068664
0.012637969 -0.020713784 0.00045555993 4280068664
0.018950289 -0.037014119 0.014644017 4279873844
0.022767594 -0.043592982 0.02017745 4281110338
0.025411233 -0.04568655 0.021721143 4281304393
-0.024209335 0.01170627 -0.026547216 4281500744
-0.022704333 0.013341054 -0.028291401 4281240134
-0.021049097 0.014222994 -0.029362198 4281370184
-0.019235633 0.014352635 -0.029761381 4280978759
-0.017255962 0.013730608 -0.029490676 4280848709
-0.014764518 0.010854125 -0.027213387 4280981053
-0.012594592 0.0094822347 -0.026278008 4280718659
-0.010762163 0.0096137077 -0.026681013 4280718403
-0.0094599836 0.011998497 -0.029086314 4280718658
-0.0081737414 0.014382295 -0.031488068 4280784193
-0.0065392144 0.015263684 -0.032553617 4280654654
-0.0047251992 0.015394315 -0.032952212 4281110594
-0.0027237087 0.014774792 -0.032685589 4281045569
-0.00033665448 0.012655519 -0.03109096 4280916793
0.0045722686 0.00078864396 -0.020868324 4281111358
0.012302388 -0.021568067 -0.0013770632 4281112123
0.0184096 -0.037167348 0.012114137 4281111358
0.02242044 -0.044515677 0.018296584 4281110593
0.024653835 -0.045117714 0.018512838 4281499724
-0.025090761 0.0047932565 -0.022540808 4282869584
-0.023716979 0.0071887821 -0.02495772 4281825358
-0.022359036 0.0095832646 -0.027371 4281565258
-0.020535156 0.0097135454 -0.027772557 4281369929
-0.018874459 0.010598205 -0.028842878 4281303374
-0.016887121 0.0099744722 -0.028575476 4281172048
-0.014725786 0.0085974708 -0.027641587 4281237584
-0.012724977 0.0079750195 -0.027376998 4281043018
-0.010892689 0.0081064776 -0.02777997 4281174344
-0.0094135106 0.0097445622 -0.029514596 4281174853
-0.0081241764 0.012135111 -0.031912122 4281174598
-0.0066688508 0.013771735 -0.033641312 4281240388
-0.0046704039 0.013149664 -0.033375774 4280978758
-0.0024793446 0.011775643 -0.032447793 4281109828
-8.7685883e-05 0.0096501708 -0.03085909 4281307199
0.0046308003 -0.0014992878 -0.021325495 4281307199
0.011967227 -0.022417732 -0.003206233 4281372223
0.017869703 -0.037311517 0.0095908605 4281306944
0.021472013 -0.043179058 0.014437306 4281371714
0.023897629 -0.044535421 0.015314407 4281630283
-0.024763383 0.0010084063 -0.021635938 4282673489
-0.023381181 0.0034110248 -0.024049744 4281304394
-0.021541558 0.0035423115 -0.024454854 4281238858
-0.019701853 0.0036737025 -0.024859916 4280717129
-0.018025126 0.0045616105 -0.025932107 4280977994
-0.016187888 0.0046930835 -0.026336424 4280520779
-0.014350582 0.0048246607 -0.026740693 4280650318
-0.012342118 0.0042005479 -0.026479434 4280389708
-0.010501985 0.0043325797 -0.026884131 4280652614
-0.0088381879 0.0052201748 -0.027953018 4280783174
-0.0073587187 0.0068627894 -0.029684387 4280652869
-0.005708117 0.0077496767 -0.030750185 4280587588
-0.0036940314 0.0071265772 -0.030489724 4280913989
-0.0016745627 0.0065039694 -0.030230347 4280914499
0.00053998455 0.0051273555 -0.02931067 4281175618
0.004688967 -0.003791295 -0.021785643 4281240643
0.011827521 -0.02401679 -0.0043718093 4281240643
0.017330591 -0.037446573 0.0070741624 4281371968
0.020725524 -0.042578362 0.011250079 4281371714
0.023345625 -0.04469315 0.012784161 4281891913
-0.024437085 -0.0027893186 -0.020740394 4282412368
-0.023046479 -0.00037953258 -0.023151182 4281174344
-0.021199025 -0.000247702 -0.023558035 4281239879
-0.019351467 -0.00011575967 -0.023964822 4281043784
-0.017666705 0.00077491254 -0.025037132 4281174089
-0.016152743 0.0024237111 -0.026773226 4281108299
-0.014481131 0.0033136532 -0.027842481 4280977229
-0.012302123 0.0019293427 -0.026918951 4280912459
-0.010285936 0.0013037175 -0.026660945 4281174344
-0.0082643628 0.00067861378 -0.026404034 4281239879
-0.0065951273 0.0015688762 -0.027472399 4281044548
-0.0047496408 0.0017016456 -0.027878005 4281239623
-0.0029040985 0.0018345416 -0.028283529 4281239623
-0.0012453794 0.0027244166 -0.029349308 4281174598
0.00078710169 0.0021007061 -0.029094331 4281240133
0.0051311627 -0.0076003671 -0.020930391 4281371203
0.011882681 -0.026371822 -0.0048785871 4281371203
0.016989794 -0.038328655 0.0052221231 4281698113
0.020380547 -0.043475956 0.0093874335 4281827908
0.022794422 -0.044841863 0.010260562 4281954389
-0.024263933 -0.0058383644 -0.020520575 4282020434
-0.023022301 -0.0026603043 -0.023593482 4281240898
-0.021014951 -0.0032894686 -0.023335729 4280979013
-0.019162215 -0.0031571537 -0.023743663 4281044294
-0.01730939 -0.0030247197 -0.02415153 4280913224
-0.015787218 -0.0013709366 -0.025886193 4281108809
-0.013771504 -0.0019990504 -0.025629863 4281042253
-0.011921093 -0.0018664226 -0.026036918 4281108043
-0.0098972544 -0.0024936721 -0.025782246 4281306689
-0.0082200542 -0.0016007721 -0.026850805 4281240644
-0.0061907656 -0.0022274181 -0.026597161 4281239879
-0.0045187771 -0.00133463 -0.027664382 4281174344
-0.0026680641 -0.0012013838 -0.028071061 4281108809
-0.00119064 0.00045016408 -0.02979514 4281304904
0.0010334924 -0.00093447417 -0.028884143 4281435719
0.0055722408 -0.011422314 -0.020084526 4281631813
0.012132164 -0.029489473 -0.0047313189 4281631813
0.01684672 -0.039964341 0.0040298887 4281632324
0.020235976 -0.045126967 0.0081840781 4281893189
-0.023939654 -0.009659566 -0.01964223 4281694289
-0.022689424 -0.0064721927 -0.022710484 4280979778
-0.020988785 -0.0055762976 -0.023783207 4280979268
-0.019133545 -0.0054438263 -0.024191704 4280913733
-0.017440721 -0.0045482442 -0.025262531 4280978504
-0.015587948 -0.0044156909 -0.025670294 4280978504
-0.013735097 -0.004283011 -0.026077989 4281174089
-0.011882171 -0.0041502118 -0.026485607 4281108809
-0.010029174 -0.004017286 -0.02689315 4281108809
-0.0083519369 -0.0031222031 -0.027960088 4281109064
-0.0065014698 -0.0029892027 -0.028366879 4281174089
-0.004832115 -0.0020944104 -0.029431947 4281108809
-0.0028003938 -0.0027228445 -0.02918024 4280978248
-0.0011362694 -0.0018281713 -0.030243963 4281369929
0.0010900013 -0.0032170191 -0.029336702 4281239114
0.0058203898 -0.014496177 -0.019904014 4281435463
0.011991963 -0.031094171 -0.0059010116 4281435463
0.016506562 -0.04083924 0.0021830909 4281565514
0.019891642 -0.046017386 0.0063267341 4281564239
-0.022048935 -0.011828408 -0.020511672 4281110083
-0.020334966 -0.010929406 -0.02158571 4281174344
-0.018626221 -0.010030642 -0.022658508 4280977994
-0.016922705 -0.0091321468 -0.023730062 4281108299
-0.015059434 -0.0089988336 -0.024140131 4281304138
-0.013196081 -0.008865416 -0.024550136 4281108299
-0.011502974 -0.0079672933 -0.025619123 4281173323
-0.0096421316 -0.0078338012 -0.026028391 4281173579
-0.0083081499 -0.0054075569 -0.028411277 4281043019
-0.0066334717 -0.0045103654 -0.029475927 4281108299
-0.0051450357 -0.0028495938 -0.031196073 4281108299
-0.0029326901 -0.0042440221 -0.030289214 4281173579
-0.00089594722 -0.0048741102 -0.030040201 4281369419
0.0017130114 -0.0077934042 -0.027827337 4281238859
0.0060678124 -0.01757855 -0.019729637 4281500489
0.012046058 -0.033461437 -0.0064166966 4281565513
0.016363734 -0.042472109 0.00099291257 4281565513
0.019547721 -0.046903148 0.004472788 4281759823
-0.020639516 -0.021045864 -0.01502368 4281697349
-0.018898904 -0.020142742 -0.016101992 4281371204
-0.0171635 -0.019239902 -0.017179014 4281434444
-0.015433334 -0.018337317 -0.018254798 4281107534
-0.013708394 -0.017434992 -0.019329343 4280976719
-0.01215617 -0.015765913 -0.02106072 4281173579
-0.010274265 -0.015631042 -0.021474715 4281628754
-0.0085650608 -0.014729463 -0.022545513 4281498194
-0.0070365779 -0.013061754 -0.024271343 4281433933
-0.0055186786 -0.011394635 -0.025994793 4281433933
-0.0038306005 -0.010494187 -0.027060658 4281369419
-0.0015974976 -0.011891432 -0.026161671 4281173324
0.00027410686 -0.011756554 -0.026572842 4281434699
0.0027120262 -0.013917863 -0.025023796 4281173578
0.0063144863 -0.020669341 -0.019561458 4281304138
0.01171165 -0.034302682 -0.0082397386 4281369419
0.016024202 -0.043339841 -0.00084865873 4281434699
0.019204207 -0.047784187 0.0026222756 4281889108
-0.003161069 -0.023687989 -0.017956957 4282542164
-0.0012551025 -0.023550875 -0.018375859 4282149974
0.00083414838 -0.024181664 -0.018141761 4281954643
0.0025569648 -0.023276307 -0.019213445 4281431638
0.0046516322 -0.023906417 -0.018980317 4281496408
0.0078990385 -0.029140636 -0.014841101 4281365849
0.012153212 -0.038208209 -0.0074569322 4281497428
0.01607818 -0.045736946 -0.0013867846 4281497684
0.045340862 -0.048259921 0.050201617 4282732393
0.04197704 -0.046526261 0.046021622 4282601579
-0.0060290881 0.0059504434 0.038456738 4285361699
-0.0045613013 0.0081964359 0.035901502 4285493024
-0.0025899671 0.0083379447 0.035468005 4285754398
8.4765255e-05 0.0056757852 0.03785643 4285754653
0.0031379014 0.0016137511 0.041649953 4285819934
0.0062231421 -0.0024459064 0.04543655 4285426213
0.0087889731 -0.0044019818 0.047104985 4285163818
0.011370897 -0.0063568205 0.048770022 4284901424
0.022922676 -0.010518283 0.051441863 4285294124
-0.0075113215 0.0099477321 0.031621419 4285559069
-0.0060644336 0.012198769 0.029075701 4285558303
-0.0044604801 0.01374539 0.027238037 4285492003
-0.0019889437 0.011775605 0.02892207 4285623839
0.00067697465 0.0091041401 0.031305905 4285690139
0.003545288 0.0057315752 0.034387805 4285559069
0.0058894381 0.0044687465 0.035357561 4285493789
0.0080580264 0.0039091781 0.035623543 4285493789
0.0098540634 0.0047544613 0.034486573 4285559323
0.011069898 0.0077054575 0.031249799 4285558813
0.012653053 0.0092514083 0.029417321 4285690138
0.015210435 0.007288672 0.031083062 4285820699
0.01878209 0.0018200949 0.036238343 4286017304
0.023408016 -0.0071514249 0.04487431 4286017559
0.029743183 -0.021726057 0.059074473 4285754908
-0.0097732544 0.0088989511 0.030170169 4285230374
-0.0084881335 0.011862732 0.02692404 4285690394
-0.0067139193 0.012707897 0.025792964 4285821463
-0.0052904971 0.014963888 0.023257401 4285624094
-0.0030057654 0.013692059 0.024236739 4285689883
-0.00053218752 0.011715993 0.025915403 4285755928
0.0023190342 0.0083312318 0.028992802 4285624604
0.0042797849 0.0084723756 0.02856192 4285559069
0.0064267181 0.0079090074 0.028831046 4285559068
0.0078239143 0.010163732 0.026301723 4285755929
0.0095880516 0.011009 0.025173482 4285689629
0.011152774 0.012558013 0.02334829 4285623839
0.013494011 0.011291079 0.024315834 4285623838
0.016444294 0.0079142079 0.027372029 4285689629
0.021240357 -0.0017914474 0.036690012 4285558814
0.027954238 -0.017820671 0.052253984 4285558814
0.035205767 -0.035246938 0.069181547 4285493023
-0.010899995 0.01153671 0.024776671 4285296419
-0.0094629936 0.01380001 0.022242893 4285493789
-0.0077020563 0.014646389 0.021116365 4285756183
-0.0061189458 0.016200256 0.019289792 4285821464
-0.0038453937 0.014923237 0.020268284 4285821464
-0.0012052469 0.0122324 0.022644602 4285624604
0.0014562868 0.009543255 0.025016248 4285558813
0.0034062415 0.0096835941 0.024587724 4285558814
0.0053562559 0.0098240599 0.024159279 4285558814
0.0069291517 0.011377774 0.022335462 4285624603
0.0084914342 0.012930833 0.020514064 4285953044
0.010236993 0.013777077 0.019391574 4285821464
0.012567043 0.012504973 0.020358279 4285755928
0.015704818 0.008410506 0.0241042 4285821718
0.020490058 -0.0013265386 0.033401519 4285821208
0.027600572 -0.01881782 0.050318848 4285821208
0.034637216 -0.035594061 0.06651333 4285624349
-0.011531245 0.01206965 0.021506783 4285362209
-0.01010181 0.014338948 0.018979583 4285559068
-0.0080093443 0.013766631 0.019256901 4285558558
-0.0060838461 0.013904795 0.01883344 4285558558
-0.0038081445 0.012623578 0.019808106 4285558303
-0.0015216954 0.011343248 0.020780493 4285558558
0.00077551603 0.01006376 0.021750648 4285559069
0.0025342777 0.010912672 0.020626623 4285559068
0.0042877533 0.011761352 0.019503795 4285558813
0.0058475696 0.013318487 0.017686136 4285558814
0.0075878277 0.014166385 0.016566426 4285624348
0.0097102486 0.013597228 0.016837828 4285689883
0.012427241 0.01090391 0.019191224 4285689884
0.015563734 0.0067962334 0.022927549 4285558558
0.02034615 -0.0029716045 0.03220246 4285558813
0.027247302 -0.01981023 0.048387088 4285558813
0.034276538 -0.036639489 0.064543769 4285493279
-0.011832897 0.011190616 0.019646317 4285361954
-0.010405671 0.013466299 0.017124537 4285624859
-0.0086552799 0.014316238 0.016003583 4285755674
-0.0063935071 0.013029546 0.016977943 4285755419
-0.0039461032 0.011031739 0.018647488 4285821209
-0.0014826208 0.0090352073 0.020313583 4285624093
0.00063654035 0.0084630847 0.020583652 4285558813
0.0025782213 0.0086028129 0.020156931 4285558813
0.003963355 0.010876209 0.01764496 4285558813
0.0055207536 0.01243753 0.01583112 4285624350
0.0068766549 0.014709018 0.013325729 4285558559
0.0091843009 0.013426445 0.014290691 4285558303
0.012091268 0.010013536 0.017331626 4285558559
0.015621558 0.0044720545 0.022443276 4285558814
0.020202275 -0.0046163872 0.031003606 4285493789
0.027098674 -0.021507785 0.047149811 4285493789
0.033502497 -0.036260918 0.061196782 4285427998
-0.011806089 0.0088864788 0.019185625 4285427489
-0.010375768 0.011168905 0.016668085 4285624348
-0.0086226352 0.012021221 0.015548169 4285886743
-0.0067027323 0.012158945 0.015125901 4285952533
-0.0042587034 0.010154329 0.016791243 4285952789
-0.0017985925 0.0081510395 0.018453103 4285689628
0.00049759448 0.0068627 0.019416869 4285624604
0.0024391487 0.0070024133 0.018990174 4285559068
0.0038247183 0.0092823729 0.016483027 4285690394
0.0050063357 0.012274466 0.013286562 4285690138
0.0063573569 0.014552116 0.010787216 4285887254
0.008659143 0.013264783 0.011750135 4285887254
0.01155968 0.009840481 0.014784248 4285887509
0.015082981 0.004280962 0.019884318 4285624348
0.020259768 -0.0069730654 0.030494951 4285493789
0.026950065 -0.023205042 0.045912743 4285493789
0.0333497 -0.038004354 0.059926093 4285427998
0.036721066 -0.042120785 0.063591488 4285230373
-0.012434907 0.0094466731 0.015935589 4285361953
-0.01084565 0.011018142 0.014120656 4285558813
-0.0092669576 0.012589008 0.01230809 4285492258
-0.0075270049 0.013442658 0.011192787 4285623584
-0.0049198531 0.010714337 0.013549921 4285820954
-0.0022912882 0.0079876408 0.015902415 4285689629
-9.6485019e-07 0.0066945553 0.016864143 4285624349
0.0017526373 0.0075496137 0.015746161 4285559069
0.0033158176 0.00911998 0.013937545 4285624603
0.0044927262 0.012120463 0.010748682 4285624603
0.0060293302 0.013689168 0.0089460155 4285821464
0.0081347898 0.013112165 0.0092162406 4285755673
0.011028904 0.0096764788 0.012243544 4285887253
0.014743686 0.003384389 0.018020954 4285886999
0.020316921 -0.0093338937 0.029983357 4285755674
0.026801486 -0.024901971 0.044675916 4285558558
0.03278394 -0.038319364 0.057281207 4285493024
0.035939522 -0.04173559 0.060251616 4285295654
-0.014976539 0.0098833442 0.013116644 4284967214
-0.013389815 0.011458918 0.011305417 4285493278
-0.011647329 0.0123147 0.010191026 4285821973
-0.0099100918 0.013170205 0.0090778647 4285624093
-0.0080064423 0.013306737 0.0086591588 4285624093
-0.0055798292 0.011287779 0.010318399 4285755929
-0.0029601529 0.0085517317 0.012666286 4285755928
-0.00085796416 0.0079717413 0.012935155 4285624604
0.00052042678 0.010264173 0.010439367 4285558813
0.0022528097 0.011119992 0.0093277665 4285624349
0.0036046505 0.013410725 0.0068379743 4285689883
0.0055114403 0.01354824 0.0064191511 4285558049
0.0074182674 0.01368586 0.0060003931 4285426723
0.010303281 0.010238595 0.0090214731 4285558303
0.014206497 0.0032093301 0.015473607 4285559069
0.020172741 -0.010982156 0.028781958 4285559069
0.026856571 -0.02731505 0.044125546 4285493278
0.032631584 -0.040057749 0.056014206 4285493023
0.035577074 -0.042768911 0.058291573 4285361443
-0.016237982 0.013357855 0.007108585 4285032749
-0.014669653 0.014936417 0.0053047286 4285427999
-0.012779672 0.015071735 0.0048888521 4285624858
-0.011058372 0.015928313 0.0037807869 4285953808
-0.0086565241 0.013900876 0.0054405006 4285690903
-0.0062386021 0.011874698 0.0070967628 4285690393
-0.0038046092 0.009849824 0.0087495269 4285493278
-0.0018928573 0.00998725 0.0083292751 4285558813
-0.000345245 0.011565089 0.0065305484 4285559069
0.0011917576 0.013142273 0.0047342302 4285559069
0.0025306977 0.015438624 0.0022521941 4285821208
0.0042339154 0.016294736 0.0011488136 4285821719
0.0065101497 0.014992431 0.0021074554 4285821464
0.0095788427 0.010814197 0.0058092335 4285755928
0.013670115 0.0030433387 0.012932931 4285953043
0.01942626 -0.010473646 0.025525242 4285821464
0.026504405 -0.028294891 0.04220295 4285821464
0.032273147 -0.041077383 0.054063443 4285624349
0.034797512 -0.042361081 0.054968201 4285361189
-0.015130535 0.014826514 0.002785529 4284968488
-0.013577852 0.016408425 0.00098847342 4284968488
-0.011867147 0.01726637 -0.00011558528 4285165094
-0.0093054287 0.014508478 0.0022316603 4285099558
-0.006896209 0.012475111 0.0038848938 4285230628
-0.0046474859 0.011165746 0.004845832 4285427998
-0.0027465373 0.011302382 0.0044279406 4285493789
-0.0012093596 0.012883879 0.0026347497 4285493789
0.00068638846 0.013020359 0.002218171 4285493789
0.0018331856 0.016044848 -0.00094436738 4285493789
0.0035284609 0.016902573 -0.0020443618 4285690648
0.0056035928 0.016316857 -0.0017724659 4285755929
0.0084650889 0.012846053 0.0012373338 4285690139
0.012540784 0.0050500408 0.0083463751 4285624603
0.018881556 -0.010672696 0.022961967 4285558813
0.026559159 -0.030711725 0.041649837 4285558813
0.032326944 -0.043533541 0.053480916 4285493023
0.034644857 -0.04410103 0.053700101 4285295654
-0.0072051734 0.011638731 0.0020585423 4285033769
-0.0051360354 0.011049733 0.0023296108 4285164839
-0.0032405555 0.011185966 0.001912911 4285099304
-0.0015267245 0.012046866 0.00081022526 4285297439
0.00036621094 0.012183115 0.00039424445 4285297183
0.0016980357 0.014492042 -0.0020763678 4285297184
0.0032036379 0.016075913 -0.0038590513 4285296673
0.0054681674 0.014764011 -0.0029044235 4285296419
0.0081335194 0.012005806 -0.00058573042 4285362208
0.012204289 0.0041854233 0.0065063052 4285427743
0.018538021 -0.011585809 0.021087248 4285427999
0.026004378 -0.03096354 0.039049517 4285427999
0.031557512 -0.043102503 0.050172247 4285362209
0.033867069 -0.04367274 0.05039157 4285164583
