# .PCD v0.7 - Point Cloud Data file format
VERSION 0.7
FIELDS x y z rgba
SIZE 4 4 4 4
TYPE F F F U
COUNT 1 1 1 1
WIDTH 966
HEIGHT 1
VIEWPOINT 0 0 0 1 0 0 0
POINTS 966
DATA ascii
-0.014323674 -0.030937947 0.0021699024 4287183929
-0.012878455 -0.026943952 -0.0014878996 4288296238
-0.011231221 -0.024499342 -0.0038258918 4287771958
-0.009599939 -0.022055663 -0.0061608218 4287181888
-0.014445662 -0.032541364 0.0009313887 4287182908
-0.01277677 -0.03008917 -0.0014056312 4288230448
-0.011123829 -0.027637884 -0.0037395926 4287903539
-0.0093699843 -0.025963336 -0.0054153097 4287771958
-0.007507205 -0.025065124 -0.0064341952 4287051328
-0.01467628 -0.03336592 -0.00096196029 4286855488
-0.012675703 -0.033242717 -0.0013297284 4288165168
-0.011017062 -0.030784637 -0.0036597149 4287838514
-0.0092576817 -0.029105544 -0.0053330553 4287838259
-0.0075089037 -0.027426913 -0.007004377 4287968563
-0.0056486577 -0.02652663 -0.0080210194 4287837493
-0.0040431842 -0.024071321 -0.010340847 4287968308
-0.0024536885 -0.021616951 -0.012657616 4287641144
-0.015014991 -0.033405125 -0.0035052234 4286985793
-0.012797594 -0.034843422 -0.0025661075 4287445048
-0.010910906 -0.033939749 -0.0035862224 4287575863
-0.009029448 -0.033036202 -0.0046053091 4287707188
-0.0073916689 -0.030572802 -0.0069261761 4287903794
-0.0055260696 -0.029670015 -0.0079421625 4288099633
-0.0039148778 -0.027208015 -0.010257956 4288623149
-0.0020651482 -0.026306003 -0.011270788 4287903284
-0.00035064667 -0.02462475 -0.012932062 4287182908
-0.015461355 -0.032652617 -0.0066933418 4287311938
-0.013252489 -0.034095675 -0.0057560811 4286985793
-0.011260144 -0.033972897 -0.0061222697 4287444538
-0.0092676654 -0.033849984 -0.00648838 4287575608
-0.0073941126 -0.032944739 -0.0075042071 4287510584
-0.00552582 -0.032039702 -0.0085189613 4287968563
-0.0039116144 -0.029571056 -0.010830292 4288165169
-0.0019320995 -0.029448479 -0.011193641 4288099888
-0.0002120398 -0.027762644 -0.012852517 4287969074
0.0016298294 -0.026858687 -0.013862062 4287707188
0.0030609816 -0.023611337 -0.01681105 4287706678
0.0047464184 -0.02192729 -0.018463288 4287379769
-0.011608683 -0.033997253 -0.00865144 4287573823
-0.009621717 -0.033874676 -0.0090165408 4287116608
-0.0075157359 -0.034536317 -0.0087334411 4287313723
-0.0057690106 -0.032844916 -0.010394194 4287575864
-0.0039086416 -0.031938113 -0.011405711 4287904048
-0.002053529 -0.031031519 -0.012416185 4287838003
-0.00020369887 -0.030125126 -0.013425582 4287838003
0.0015085638 -0.028435335 -0.015079595 4288361774
0.0033451766 -0.027529508 -0.016086362 4288362284
0.0051764958 -0.026623875 -0.017092064 4288165933
0.0072832294 -0.027284488 -0.016808316 4287379258
-0.0078748018 -0.034554578 -0.011255437 4287574334
-0.0061332583 -0.032859296 -0.012911827 4287444028
-0.0041541532 -0.032736853 -0.013275207 4287641909
-0.0023017153 -0.031828277 -0.014283487 4287902773
-0.00032509863 -0.031705737 -0.014646207 4287641909
0.0015194751 -0.030797414 -0.015652858 4288492334
0.0033587664 -0.029889226 -0.016658474 4288427563
0.0053302795 -0.029766619 -0.017019954 4287773489
0.0074420534 -0.030429095 -0.01673878 4287904304
0.0095592551 -0.031091042 -0.01645853 4287641399
0.011681877 -0.031752542 -0.016179182 4287248443
-0.0045232289 -0.032742687 -0.015784975 4287573823
-0.0025495328 -0.032620467 -0.016147263 4287182143
-0.00044646859 -0.033286072 -0.015866619 4287510329
0.0013981052 -0.032375626 -0.01687159 4287837493
0.0032374039 -0.031465307 -0.017875526 4287903539
0.0052087605 -0.031342715 -0.018236987 4287838514
0.0073202103 -0.032007337 -0.017957427 4287641909
0.009579774 -0.033458605 -0.017038442 4287641399
0.011850145 -0.03490904 -0.016121311 4287248954
-0.0005678162 -0.034866124 -0.017086815 4287182398
0.001408577 -0.034743495 -0.017449412 4287182908
0.0031160787 -0.03304109 -0.019092355 4287445048
0.0048129298 -0.031339295 -0.020733222 4287641653
0.0069186836 -0.032006368 -0.020454347 4287706933
0.0091723986 -0.033462308 -0.01953762 4287510329
0.01129169 -0.034128271 -0.019261029 4287249209
0.0027261265 -0.033032738 -0.021586057 4286920514
0.0045547932 -0.032118738 -0.022584535 4287051584
0.0066575333 -0.03278815 -0.022306815 4287574844
0.0087657087 -0.033457085 -0.022029981 4287117118
0.0041601621 -0.032099709 -0.02506879 4286920003
0.0062572174 -0.032771602 -0.02479171 4287508544
-0.019771725 0.010288201 0.047669008 4281953623
-0.018153556 0.013255097 0.044454955 4280198203
-0.022707775 0.014234483 0.041105568 4281369164
-0.021701887 0.021485366 0.033645704 4281176384
-0.019925512 0.023032781 0.031864375 4281240133
-0.017525606 0.020305492 0.034333505 4280523839
-0.014128663 0.011169806 0.043167099 4279871293
-0.025123842 0.014642425 0.038103148 4281434443
-0.023805425 0.019770868 0.032780111 4280981309
-0.022324115 0.023467362 0.028878858 4280589628
-0.020663805 0.025732946 0.026396381 4281241153
-0.018491805 0.024424966 0.027449017 4280849729
-0.01576785 0.01954601 0.032029293 4280067388
-0.012895204 0.013955258 0.037308164 4280394044
-0.010092989 0.0090813264 0.041874215 4281110084
-0.0071367025 0.0034959391 0.047137886 4281109573
-0.027798086 0.017217346 0.032986291 4281305668
-0.026097707 0.019491486 0.030501341 4281175618
-0.024315946 0.021047622 0.028725563 4280915518
-0.022844657 0.024754185 0.024834597 4279220788
-0.02109202 0.026308648 0.023064354 4279611958
-0.019033886 0.025712527 0.023410348 4279611704
-0.016429976 0.021534279 0.027276682 4280589629
-0.013904393 0.018074445 0.03043337 4280980288
-0.01157859 0.016048729 0.03217864 4281176639
-0.0094687194 0.01545617 0.032515422 4281111103
-0.0073532984 0.014864035 0.032851242 4280981563
-0.0048679337 0.012125269 0.035291523 4280655674
-0.0012434237 0.0029483214 0.044039607 4280589119
-0.030348569 0.019100726 0.02858982 4280912713
-0.028653391 0.021380901 0.02611077 4280133178
-0.026596308 0.020782165 0.026455013 4280524859
-0.0246308 0.0209032 0.026093686 4281111104
-0.02296453 0.023181845 0.023620153 4281176385
-0.021314189 0.025459606 0.021149615 4280981053
-0.019258998 0.024861079 0.021494469 4280980544
-0.016874649 0.022107035 0.023946078 4281045823
-0.014468625 0.019354396 0.026393829 4281176385
-0.012380674 0.018758148 0.026732864 4280850493
-0.010635003 0.020316914 0.024967572 4280916284
-0.009137176 0.02331112 0.021803079 4280981309
-0.0070541576 0.022714887 0.022143198 4281436739
-0.0039735995 0.016377725 0.028079463 4280915518
4.2259693e-05 0.0050210729 0.038900912 4279939378
-0.032438889 0.017397031 0.027729696 4281502273
-0.031091154 0.022571933 0.022436636 4280591159
-0.029139586 0.022691894 0.022077704 4280068154
-0.024944916 0.020767689 0.023468608 4280786234
-0.023084342 0.021609768 0.022405894 4281112124
-0.021126591 0.021730453 0.022046098 4280916028
-0.019168653 0.021851249 0.021686343 4281046589
-0.017102823 0.021251328 0.022027543 4281046333
-0.015031457 0.020651847 0.0223678 4281046333
-0.013067625 0.020773277 0.02200718 4280981564
-0.011450954 0.023055766 0.019548284 4278505769
-0.0098502487 0.025337402 0.017092343 4281046588
-0.0079020858 0.025458146 0.01673482 4281698114
-0.0052107722 0.021260016 0.020565128 4281307964
-0.0021075197 0.014904998 0.026482014 4281179189
0.00078583136 0.0099920407 0.03099612 4280983604
0.0033212528 0.0072395429 0.033413909 4281568573
0.0058782846 0.0044884756 0.035827816 4281961274
0.0087314658 0.00030089915 0.039628819 4283529269
-0.034528688 0.015693814 0.026869832 4281566024
-0.032989226 0.01943621 0.022991324 4280915773
-0.031565122 0.023901191 0.018415075 4281502528
-0.029715829 0.024744418 0.017355895 4281437249
-0.027683467 0.024139807 0.017701168 4281045823
-0.025355116 0.021364681 0.020149218 4280459578
-0.023204073 0.020037949 0.021191826 4281112123
-0.021348611 0.020881906 0.020131795 4281177404
-0.019393481 0.021002501 0.019772531 4280916284
-0.017545708 0.02184616 0.018714039 4280981564
-0.01559291 0.021966785 0.018355347 4281112124
-0.013752878 0.022810198 0.017298387 4281111614
-0.011918046 0.023653332 0.016242493 4280460599
-0.010325015 0.025940862 0.013793077 4278832169
-0.008264035 0.025338918 0.014133807 4279939634
-0.0058265477 0.022571448 0.016562531 4280266799
-0.0028620213 0.016918167 0.021770554 4280787254
-0.00049956143 0.014875874 0.023494208 4281373498
0.0017474107 0.013556212 0.024520108 4281635638
-0.036859594 0.01617144 0.023902586 4281957449
-0.035314284 0.01992479 0.020031376 4280850749
-0.033451945 0.020770743 0.018971318 4279676983
-0.032037698 0.025247954 0.014407022 4281045824
-0.030199111 0.026092619 0.013351465 4280654908
-0.028083801 0.024759192 0.0143971 4279612979
-0.025570989 0.020523317 0.018239077 4280851514
-0.023423068 0.019192025 0.01927889 4280981818
-0.021570243 0.020037927 0.018221006 4281047354
-0.019827306 0.021608949 0.016466018 4281177914
-0.017987557 0.022454232 0.015410684 4280786998
-0.015932865 0.021849342 0.01575055 4280787254
-0.013872638 0.021244913 0.016089484 4281112123
-0.01226864 0.023539424 0.013643039 4281112378
-0.010444351 0.024384122 0.012590831 4281177913
-0.0085044652 0.024504293 0.012234785 4281177403
-0.0060704611 0.021728039 0.014657296 4281177913
-0.0034886226 0.018229209 0.017770091 4281439289
-0.0011375397 0.016179748 0.019490724 4282684453
-0.038629048 0.011559665 0.025852179 4281631049
-0.037300222 0.017511927 0.01988223 4281174600
-0.035598829 0.019817799 0.017422039 4281046334
-0.033913285 0.022122808 0.014964845 4280198459
-0.032332078 0.025155339 0.011811247 4279938103
-0.03049878 0.0260018 0.010758337 4279938103
-0.028295487 0.023935515 0.01250004 4280524859
-0.025882937 0.020414457 0.015634624 4280981309
-0.023740828 0.019078523 0.016672045 4280982073
-0.021995179 0.020653829 0.014919896 4281047609
-0.02036462 0.022956058 0.012473296 4279484204
-0.018535562 0.023802791 0.011421587 4280201009
-0.016381979 0.0224679 0.012457246 4279092524
-0.01215741 0.020527273 0.013828222 4281178423
-0.010327704 0.021374419 0.012776699 4280916793
-0.0082619488 0.020768426 0.013113111 4280981819
-0.0060673133 0.019436553 0.014141608 4281308728
-0.0036097616 0.01665324 0.016553074 4282292263
-0.0017741509 0.017501153 0.015500773 4284444973
-0.038593575 0.0085135698 0.026028244 4282346068
-0.037258215 0.014483385 0.020070551 4281305158
-0.035551079 0.016796 0.017614353 4280981308
-0.033945359 0.019838445 0.014462976 4280654654
-0.032272659 0.022149134 0.012013257 4281045058
-0.030433938 0.022998028 0.010961009 4280980289
-0.028319523 0.021655895 0.011999963 4280849984
-0.026194155 0.02031447 0.01303702 4280981053
-0.024156868 0.019703791 0.013376357 4280917304
-0.022317372 0.020553097 0.012324255 4280851768
-0.020691805 0.022861417 0.0098836198 4280786999
-0.018868074 0.023709942 0.0088345669 4281503293
-0.016830072 0.023099672 0.0091740601 4280656949
-0.014449246 0.020302489 0.011592481 4279549994
-0.012392119 0.019693598 0.011928618 4281177914
-0.010447271 0.019813918 0.01157153 4281374009
-0.008381784 0.019205734 0.011906283 4281569593
-0.0064339489 0.019326448 0.01154881 4284320278
-0.038403958 0.0039923042 0.027593886 4282216018
-0.037056662 0.0099799633 0.021647526 4281435719
-0.035255678 0.011566564 0.019891364 4281174089
-0.033550613 0.013885498 0.01744071 4281305158
-0.031773344 0.015470833 0.015689055 4281044294
-0.030097358 0.017788157 0.013243895 4281174853
-0.028250344 0.018639751 0.012191858 4280718149
-0.026504658 0.020223431 0.010446236 4280980544
-0.02467069 0.021074399 0.0093967319 4281243449
-0.022841901 0.021925151 0.0083482601 4280201009
-0.021226704 0.024239257 0.0059146062 4281177914
-0.019413657 0.02508923 0.0048691817 4281634109
-0.017496251 0.025207538 0.0045168847 4281372733
-0.015017375 0.021669596 0.0076227188 4280591669
-0.012626439 0.01886452 0.010032553 4281114163
-0.010449126 0.017522782 0.011057204 4281570359
-0.0085015669 0.01764334 0.010699678 4281963568
-0.038369976 0.00092523545 0.027753642 4281888343
-0.036936246 0.0061949641 0.022515511 4281501254
-0.035044439 0.0070510954 0.02145656 4281304904
-0.033157758 0.0079069585 0.020398667 4281305923
-0.031364158 0.0094975084 0.018647414 4281435719
-0.029671714 0.011822276 0.016204234 4280718403
-0.028088473 0.014880739 0.013070649 4280588609
-0.026526496 0.017937988 0.0099410545 4281045313
-0.024788462 0.019525498 0.0082003139 4281178169
-0.023162335 0.021846563 0.0057696216 4280917048
-0.021552138 0.024166703 0.0033419803 4279940144
-0.019744426 0.025018498 0.0022991579 4280069683
-0.017723091 0.024402831 0.0026383381 4280266288
-0.015247852 0.020853907 0.005736338 4280918578
-0.012975164 0.018773302 0.007450521 4281374009
-0.010803685 0.017426841 0.0084728673 4281897778
-0.0091019347 0.019012928 0.0067393668 4283660848
-0.038413599 -0.0014124364 0.027212264 4282019668
-0.036896437 0.0031349212 0.022679461 4281565769
-0.034999229 0.0039934367 0.021621225 4281239113
-0.033022031 0.0041145235 0.021257216 4281305159
-0.031220198 0.0057098493 0.019507742 4281174598
-0.029428869 0.0073045939 0.017760336 4281044804
-0.027741209 0.0096355677 0.01532317 4280979268
-0.026261114 0.013438784 0.011506513 4280979524
-0.024709158 0.016504049 0.0083855819 4281175873
-0.023279667 0.020304352 0.0045783892 4281373499
-0.021565214 0.02189485 0.0028454997 4281243449
-0.019861355 0.023484834 0.0011145845 4280719168
-0.017731063 0.022131223 0.0021408638 4280719933
-0.01547794 0.020042852 0.0038534515 4280916284
-0.013208561 0.017955534 0.0055631734 4282946339
-0.038303718 -0.0052339211 0.028053863 4282803794
-0.03685724 6.6556036e-05 0.022836981 4281565769
-0.035036832 0.0016670451 0.021087347 4281566024
-0.033057094 0.0017882437 0.020722838 4281305159
-0.031252354 0.0033879578 0.018976247 4281174598
-0.029367864 0.0042481273 0.017922183 4281305669
-0.027581483 0.0058469176 0.016179124 4281305923
-0.025901325 0.0081839114 0.013748456 4281175618
-0.024335414 0.01125858 0.010631705 4280848710
-0.02279076 0.014332004 0.0075189918 4280587589
-0.021267444 0.017404258 0.0044102371 4280785214
-0.019552626 0.018999174 0.0026806686 4280849729
-0.017630212 0.019117713 0.00232739 4281045568
-0.015595883 0.018498629 0.0026607728 4281243194
-0.013670474 0.018617541 0.0023070918 4284642343
-0.036421582 -0.0067195296 0.026442504 4281757528
-0.034746386 -0.0036301836 0.023311941 4281434444
-0.033007637 -0.001283586 0.020875236 4281500489
-0.031197339 0.00032071769 0.019130973 4281501254
-0.029397555 0.0019244775 0.01738872 4281436484
-0.027608298 0.0035277307 0.01564844 4281501763
-0.025829583 0.0051304102 0.013910223 4281175618
-0.024061404 0.0067325681 0.012173982 4281175618
-0.022303782 0.0083341449 0.0104398 4280849473
-0.020763814 0.011415944 0.0073347259 4280719679
-0.019245155 0.014496543 0.0042336397 4280979778
-0.017421044 0.015355766 0.00319295 4281830204
-0.015602157 0.016214743 0.0021532811 4283660339
-0.032620363 -0.0073385611 0.023774182 4281562199
-0.031055614 -0.0034984052 0.019967033 4281697093
-0.029427506 -0.00040313601 0.016852103 4281698369
-0.027728021 0.0019477308 0.014427911 4281568319
-0.025758445 0.002068609 0.014065515 4281436228
-0.023886673 0.002932474 0.013017409 4281240899
-0.022120804 0.004538849 0.011285027 4281045313
-0.020468868 0.0068871602 0.0088699367 4280784959
-0.018832877 0.009234637 0.0064578187 4280784193
-0.017212808 0.011581197 0.0040487573 4281831479
-0.015385836 0.012442827 0.003009229 4284313393
-0.030392073 -0.011804231 0.024909792 4282018904
-0.02918832 -0.0049713477 0.018369133 4281632069
-0.027662702 -0.0011226982 0.014577793 4281437248
-0.025783062 -0.00025631487 0.013529774 4281501509
-0.02390857 0.00060981512 0.012482835 4281371203
-0.022139817 0.0022205785 0.010753328 4281305669
-0.02048485 0.0045755133 0.0083426889 4281240898
-0.018633991 0.0054405034 0.0073003359 4280981564
-0.017005526 0.00779403 0.0048947446 4281372988
-0.015059173 0.0079140514 0.0045370739 4284707113
-0.027321003 -0.0064439476 0.016771501 4281955663
-0.025617927 -0.0040799603 0.014356827 4281434954
-0.023833059 -0.0024640709 0.012627628 4281238858
-0.0221591 -0.00010165572 0.010218484 4281370439
-0.020501085 0.0022598654 0.0078123417 4281109829
-0.018647514 0.0031271353 0.0067711603 4281372478
-0.016907565 0.0047406927 0.0050505605 4281699643
-0.014955983 0.004861027 0.0046919174 4284707114
-0.025643408 -0.0064172223 0.013811551 4281102434
-0.023953177 -0.0040475875 0.011404404 4280779093
-0.022178657 -0.0024279132 0.0096805245 4281173324
-0.02051758 -5.979836e-05 0.0072788838 4281239368
-0.018661313 0.0008097589 0.0062388759 4281632579
-0.017026745 0.0031763986 0.0038423073 4281634364
-0.02063711 -0.0016323477 0.0060641877 4280712794
-0.018780783 -0.00076067448 0.0050258469 4281369418
-0.017145872 0.001612395 0.0026342776 4281697348
-0.015194558 0.0017326623 0.0022756439 4284706093
-0.017157018 -0.00070425868 0.0021019503 4281563474
-0.015203148 -0.0005838573 0.0017428305 4284705584
-0.02566915 -0.0087585002 0.013263157 4280505223
-0.024073228 -0.0056308135 0.010181405 4279064728
0.030818773 -0.0090369582 0.0063879471 4279653524
0.033337936 -0.011151299 0.008018164 4279587224
0.03674943 -0.016997695 0.012969773 4281225344
0.040559754 -0.02433417 0.019242307 4282012273
-0.025695145 -0.011103839 0.012711706 4279849873
-0.024096042 -0.0079673529 0.0096360762 4278932894
-0.02231846 -0.0063389987 0.0079183429 4279129754
-0.020756565 -0.0032045841 0.0048497301 4279590028
0.024883106 -0.0026474595 -0.0014342349 4281358199
0.026854895 -0.0025235489 -0.0017947536 4278931618
0.030798502 -0.0022753328 -0.0025154743 4278404023
0.041766349 -0.022858553 0.014945675 4278273719
0.045827784 -0.030960202 0.021850815 4280109974
-0.025815792 -0.01269719 0.011480829 4280111249
-0.024119131 -0.010307916 0.0090876352 4278735524
-0.022338659 -0.008675158 0.0073727835 4278997919
-0.020671159 -0.0062874705 0.0049851127 4278801824
-0.018914513 -0.0046559051 0.003274776 4279064218
-0.01716844 -0.0030249357 0.0015665088 4279392148
0.021980919 -0.00059127808 -0.005612405 4282014059
0.023774952 0.00028327107 -0.0066339951 4278931618
0.025897313 -0.00034525245 -0.0063285325 4278406829
0.027516473 0.0012804493 -0.0080114547 4279061669
0.02946933 0.0014034212 -0.0083683152 4279061413
0.031771988 2.4653971e-05 -0.0074020606 4278995878
0.03515093 -0.0058579221 -0.0024714712 4278273719
0.038933385 -0.013238832 0.0037724376 4279192229
0.0429525 -0.021366663 0.010666654 4279259039
0.04740198 -0.030991174 0.018869322 4278932129
0.051356263 -0.038360849 0.02508215 4281094018
-0.025936365 -0.014290243 0.010250187 4279783829
-0.024336226 -0.011136629 0.0071878545 4278998174
-0.022458695 -0.010257527 0.0061504543 4278866849
-0.020688608 -0.0086209998 0.0044409186 4278932129
-0.018929079 -0.0069850534 0.0027334476 4278801059
-0.017072521 -0.0061068684 0.001700121 4278735779
-0.015331462 -0.0044718385 -3.7737191e-06 4279522709
-0.013375059 -0.0043512061 -0.00036330335 4281619318
0.021213502 0.00085660815 -0.0094720144 4280309129
0.022996806 0.0017326176 -0.01048995 4278735269
0.028658684 0.0028528571 -0.012216644 4279455133
0.030950112 0.0014691278 -0.011251708 4279062179
0.034139391 -0.003678441 -0.0069917687 4278276014
0.040996283 -0.015471198 0.0028245123 4278473383
0.04578751 -0.026630148 0.012326334 4278669988
0.050659284 -0.037783921 0.021813584 4278932383
-0.026150934 -0.015122741 0.0083467495 4279784339
-0.024456233 -0.012720846 0.0059640575 4278866594
-0.022479281 -0.012599513 0.0056002997 4278801058
-0.020604245 -0.01171834 0.0045651179 4278735779
-0.018839166 -0.010077745 0.0028599584 4278735779
-0.016977221 -0.0091971606 0.0018273508 4278801058
-0.015120476 -0.0083167702 0.00079579744 4278866338
-0.013381772 -0.0066774637 -0.00090424437 4278734503
-0.011422671 -0.0065565854 -0.0012642061 4279783573
-0.0096997842 -0.0049180835 -0.0029611271 4280833408
0.018669534 0.0014442503 -0.012302717 4279325849
0.02076973 0.00080981106 -0.011996778 4278801313
0.022547685 0.0016876236 -0.01301205 4278735013
0.040321849 -0.014815509 -0.00038707163 4278866594
0.045287624 -0.02676177 0.0097475871 4278801059
0.050151318 -0.037948109 0.019210922 4279063964
-0.025989629 -0.019000247 0.0091321375 4279981454
-0.024383098 -0.015829176 0.0060821064 4278866594
-0.022599377 -0.014183447 0.0043767523 4278931873
-0.020520486 -0.014823914 0.0046828724 4278932128
-0.018749863 -0.013178788 0.0029800879 4278932128
-0.016882524 -0.012295693 0.0019481359 4278932128
-0.015240312 -0.0098900795 -0.00041942019 4278931873
-0.013388775 -0.0090077296 -0.0014482932 4278800038
-0.011657804 -0.007364586 -0.0031434326 4279193503
-0.0098193958 -0.0064828694 -0.0041696699 4279063708
-0.0081069469 -0.0048405826 -0.0058612623 4279587479
-0.0062817186 -0.0039594769 -0.0068849162 4282275689
0.016454227 0.00052918494 -0.013806241 4279784338
0.018073853 0.0021672919 -0.015479477 4278604453
0.020004716 0.0022884011 -0.015832687 4278407339
0.022099253 0.0016515702 -0.015527321 4278800804
0.02419918 0.0010152087 -0.015222838 4278603689
0.025628395 0.0034101605 -0.017549297 4278734503
0.027900055 0.0020164922 -0.016587613 4278996643
0.030356862 -0.00013380498 -0.014971228 4278865829
0.033538096 -0.0053117722 -0.010733521 4278669479
0.036756933 -0.010487303 -0.0065025454 4278538919
0.0405607 -0.01793094 -0.00031315908 4278735524
0.045343846 -0.029154569 0.0091394372 4278669988
0.049831882 -0.038859934 0.017269259 4279915409
-0.025454432 -0.025948487 0.012586392 4281947759
-0.023828626 -0.022767715 0.0095395558 4280243593
-0.022323154 -0.018823922 0.0058280677 4279259549
-0.020437345 -0.017937794 0.0047942195 4278867359
-0.018974453 -0.013996407 0.0010907399 4278932894
-0.017216891 -0.012347713 -0.00060619693 4279063708
-0.015469909 -0.010699496 -0.0023011183 4278604709
-0.011662215 -0.0096943974 -0.0036877198 4278866338
-0.010056809 -0.0072842985 -0.0060431683 4278735524
-0.0081057772 -0.0071637258 -0.0064014965 4278932129
-0.0064010695 -0.0055175498 -0.0080882069 4279128733
-0.0044551864 -0.005397059 -0.0084454063 4279456409
-0.0026377589 -0.0045140535 -0.0094657447 4280833919
0.014245 -0.00038082898 -0.015307115 4280177548
0.015867457 0.0012615919 -0.016977588 4278866085
0.024078101 -0.00053454936 -0.016419163 4279322278
0.02584539 0.00034712255 -0.017428903 4278407338
0.028121937 -0.0010505691 -0.016471459 4278473383
0.030583454 -0.0032069311 -0.014861038 4278604199
0.033945654 -0.0091590136 -0.0099814748 4278473128
0.0375304 -0.015867464 -0.0044557704 4278407849
0.041345753 -0.023331746 0.0017146096 4278669479
0.045769699 -0.033069089 0.0098340679 4278537644
0.049512796 -0.039767139 0.015331173 4280701318
-0.021850362 -0.025013991 0.0086003132 4282537319
-0.020151615 -0.022592396 0.0062321723 4281357689
-0.018781595 -0.017873615 0.0018690191 4279588244
-0.017229706 -0.014688388 -0.0011571115 4279194778
-0.015699118 -0.01150436 -0.0041792495 4279128989
-0.013628267 -0.0121492 -0.0038747033 4278407593
-0.011896923 -0.010497503 -0.0055631725 4279063198
-0.010058485 -0.0096115321 -0.006586059 4279063199
-0.0081049204 -0.0094908178 -0.0069448566 4278997663
-0.0063973404 -0.0078401938 -0.0086287288 4278997154
-0.004574649 -0.0069548711 -0.0096484628 4279259038
-0.0027572066 -0.0060697347 -0.010667128 4279391128
-0.00081393123 -0.0059491694 -0.011023654 4279653523
0.00099565089 -0.0050642937 -0.012040703 4282013804
0.011742052 0.0002406463 -0.018120697 4280374919
0.013514545 0.0011240616 -0.019130271 4278866849
0.015281718 0.0020072386 -0.0201388 4278668714
0.016727645 0.0044156462 -0.022458594 4279061924
0.01880005 0.003772974 -0.022152614 4279979668
0.023791052 -0.001321815 -0.018269932 4278928049
0.02589304 -0.0019622147 -0.017969118 4278538408
0.028343163 -0.0041258633 -0.016361734 4278538663
0.031331576 -0.0085734054 -0.01279756 4278407594
0.034705702 -0.014541864 -0.0079337023 4278407593
0.038302206 -0.021268815 -0.002425354 4279194524
0.041947018 -0.027992576 0.0030742837 4280504714
0.045824941 -0.035474151 0.009216452 4280373644
0.049194075 -0.040669724 0.013396641 4279193248
-0.018173248 -0.024836123 0.0052950084 4281553019
-0.016922429 -0.019337118 0.00028046221 4279457173
-0.015380606 -0.016143858 -0.0027369848 4279128989
-0.013635799 -0.014487177 -0.0044246493 4278735268
-0.011786751 -0.013598531 -0.005447953 4278932128
-0.010060452 -0.011942767 -0.0071320413 4279063199
-0.0081043467 -0.011821896 -0.0074913083 4278931873
-0.0063938946 -0.010166883 -0.0091723045 4278866083
-0.0045684986 -0.0092792138 -0.010190888 4279259038
-0.002876617 -0.0076251179 -0.011868282 4278931619
-0.00093349069 -0.0075045824 -0.012224804 4278866084
0.00087610632 -0.006617561 -0.013240158 4278931109
0.0026804283 -0.0057307705 -0.014254464 4279456153
0.0044794567 -0.0048441291 -0.015267735 4280636039
0.0061315261 -0.0031919107 -0.016937358 4282209643
0.0092566088 0.00087644905 -0.020926954 4279718804
0.011023697 0.0017615259 -0.021933965 4278670243
0.01309029 0.0011160448 -0.021628937 4278276269
0.016766366 0.0021209717 -0.022985067 4279717529
0.018680669 0.0022410452 -0.023335252 4279783319
0.021084443 6.7725778e-05 -0.021724798 4278865318
0.023338519 -0.0013401732 -0.020770194 4278603434
0.025771864 -0.0035113692 -0.01916494 4278472619
0.028392537 -0.0064454898 -0.016910477 4278472873
0.031730261 -0.012433447 -0.012053567 4278538919
0.035110936 -0.01841858 -0.0072044092 4279129498
0.038713817 -0.025164358 -0.0017124154 4281029249
0.04200111 -0.030380294 0.0024706377 4281356923
0.045879863 -0.037883192 0.0085957777 4281226108
0.048875697 -0.041567653 0.011465656 4280439688
-0.013307638 -0.019138642 -0.0029940791 4280568463
-0.011677183 -0.016707897 -0.0053391154 4279783574
-0.0098279864 -0.015817016 -0.0063606272 4279062943
-0.0079840198 -0.014926314 -0.0073811333 4278932128
-0.0062680207 -0.01326669 -0.0090597747 4279062943
-0.0048134699 -0.010069594 -0.012053902 4279194269
-0.0031240806 -0.0084113777 -0.013727463 4279390619
-0.0013145544 -0.0075223595 -0.014741219 4278669224
0.00048967451 -0.0066335201 -0.015753964 4278865573
0.002288647 -0.0057449341 -0.016765608 4279127968
0.0040823333 -0.0048565418 -0.017776174 4279652759
0.0058707185 -0.0039683729 -0.018785691 4279718294
0.0075096078 -0.0023125336 -0.020449471 4280374409
0.0091378316 -0.00065729022 -0.022111161 4279063709
0.010605812 0.0017649382 -0.024425155 4278801313
0.012362227 0.0026516095 -0.025428418 4278603943
0.016489539 0.0013563633 -0.024820387 4278273974
0.022886675 -0.0013495758 -0.023263615 4278275504
0.025650706 -0.0050602257 -0.020360539 4278603944
0.028783673 -0.010301426 -0.016161479 4278669478
0.03212795 -0.016306065 -0.011319279 4278801313
0.035338759 -0.021542042 -0.0071342699 4280570758
0.038587153 -0.026775561 -0.002955988 4281422458
0.04205488 -0.03277199 0.0018639294 4281422459
0.045565542 -0.038765617 0.0066761542 4281422458
0.048557684 -0.042461008 0.0095382575 4281685618
-0.011339217 -0.021369152 -0.0039185658 4282598008
-0.0097136572 -0.018932179 -0.006257541 4279848853
-0.0079841763 -0.017267585 -0.0079353899 4279455898
-0.0063878931 -0.014832176 -0.010268803 4279259038
-0.0046823248 -0.013168804 -0.01194205 4279128223
-0.0031153262 -0.010734975 -0.014269899 4279259549
-0.001303114 -0.0098436773 -0.015282485 4278800803
0.00050383434 -0.0089525729 -0.016293991 4278931873
0.0023054928 -0.0080616474 -0.017304489 4279193503
0.0041018762 -0.0071709454 -0.018313868 4278866849
0.0060342997 -0.007050626 -0.018668069 4278801314
0.00753472 -0.0046201944 -0.02098312 4278867359
0.0091658086 -0.0029605106 -0.022641968 4278604964
0.010487422 0.00023794174 -0.025604112 4278604709
0.012243856 0.0011267439 -0.026605703 4279128224
0.013994966 0.0020153299 -0.027606223 4279062688
0.016055636 0.001365453 -0.027303293 4278865829
0.017641306 0.003022939 -0.028953392 4278734760
0.019867543 0.0016046241 -0.028000541 4278341549
0.022601038 -0.0021187514 -0.025100425 4278538919
0.026034135 -0.0089142025 -0.019608211 4278866849
0.029344697 -0.01493822 -0.014773468 4280177548
0.032524645 -0.020191215 -0.010594737 4281357178
0.035389695 -0.023905814 -0.0077182613 4281619319
0.038639434 -0.029154211 -0.0035520429 4281749878
0.04228995 -0.035935327 0.0019009514 4281815668
0.045988757 -0.04271324 0.0073452499 4281947504
-0.0060181431 -0.019491211 -0.00885389 4282794613
-0.0045518242 -0.0162763 -0.011836669 4279718038
-0.0031068772 -0.013062589 -0.014815449 4279127968
-0.0014223978 -0.011396036 -0.016481284 4279062943
0.00038455054 -0.010502815 -0.017491117 4278997664
0.0021862276 -0.0096097589 -0.018499933 4278800803
0.0039826296 -0.008716926 -0.019507628 4278932129
0.0059149005 -0.008596614 -0.019861801 4278735524
0.0075595267 -0.0069319308 -0.021519851 4278735779
0.0091934726 -0.0052677542 -0.02317588 4278538918
0.012125507 -0.00039783865 -0.027782772 4278603943
0.013567429 0.0020358264 -0.030081676 4279128224
0.015307855 0.002925992 -0.031078454 4279062688
0.01720291 0.0030448437 -0.03142513 4279127714
0.019748583 7.9996884e-05 -0.029177502 4278800548
0.022977095 -0.0059664845 -0.024341444 4278604198
0.026416577 -0.012780778 -0.0188656 4278277033
0.030075096 -0.020362325 -0.012751404 4279980943
0.032746971 -0.023318723 -0.010526448 4281422458
0.035968527 -0.028583929 -0.0063670394 4281619319
0.038870145 -0.032306783 -0.0035055848 4281815668
0.042342912 -0.038337126 0.0012864415 4282208623
-0.0041721277 -0.020942971 -0.010430112 4281943424
-0.0027159266 -0.017720051 -0.013404217 4279389344
-0.00089026988 -0.016823649 -0.014415894 4279127204
0.00079714879 -0.015152477 -0.016078837 4278865574
0.0023382902 -0.012707137 -0.018391505 4278866083
0.0038634054 -0.010262631 -0.020701177 4278801059
0.0057955272 -0.010142311 -0.021055315 4278669989
0.0075840242 -0.0092476234 -0.022059698 4278735524
0.0093672164 -0.008353129 -0.023063011 4278473128
0.011145096 -0.0074587911 -0.024065282 4278276524
0.012765914 -0.0057909787 -0.025715314 4278407593
0.017244592 0.0007558316 -0.031947888 4278669733
0.020279579 -0.004536733 -0.027766647 4278669989
0.023517329 -0.010599747 -0.022945795 4278342313
0.027133737 -0.018205434 -0.016840894 4279062689
0.03046276 -0.024262398 -0.012036547 4280832644
0.033315085 -0.027999356 -0.0091747046 4281291643
0.036370136 -0.032506675 -0.0056732642 4281554039
0.039278802 -0.036239773 -0.0028215395 4282274414
0.0010756738 -0.019041993 -0.015330192 4282073983
0.0024897158 -0.015812777 -0.018289521 4279259294
0.0040205419 -0.013361529 -0.02059513 4279194014
0.0058170371 -0.012464285 -0.021599423 4278801058
0.0076082274 -0.011567287 -0.022602625 4278342314
0.0095403269 -0.011446752 -0.02295658 4278604709
0.01117469 -0.0097739249 -0.024605799 4278669989
0.012949944 -0.0088775083 -0.025605828 4278800804
0.014257099 -0.005654119 -0.028544832 4278473128
0.015856698 -0.0039830506 -0.030187445 4278735014
0.017924495 -0.0046387911 -0.029890802 4278538663
0.020809267 -0.0091703385 -0.026368819 4278669479
0.024221249 -0.016024917 -0.020918421 4279784084
0.027513869 -0.022101402 -0.016121045 4280243338
0.030849446 -0.028175086 -0.011331369 4279588243
0.033881862 -0.032696776 -0.0078360075 4281226364
0.036770742 -0.036441922 -0.0049892156 4281488759
0.002775833 -0.019705787 -0.017545406 4281878399
0.004315041 -0.017247587 -0.019847542 4279652503
0.0061196014 -0.016347736 -0.02085159 4278931619
0.0080622137 -0.016226679 -0.021207567 4278997918
0.010004893 -0.016105488 -0.021563463 4278932894
0.011501435 -0.013649449 -0.023857385 4278866594
0.01313334 -0.01197239 -0.025502697 4278538918
0.014446367 -0.0087400451 -0.028436068 4278735268
0.016208299 -0.0078421384 -0.029431744 4278473383
0.018283825 -0.0084995329 -0.029138204 4279128734
0.021499775 -0.014598191 -0.024340458 4279325594
0.024923515 -0.021471277 -0.018907394 4280374408
0.028228048 -0.027564079 -0.014125679 4280768129
0.031235151 -0.032100365 -0.010635891 4280833409
0.034274444 -0.03663443 -0.0071519143 4279850128
0.036819242 -0.038836733 -0.0055970824 4282012018
0.0085149035 -0.020902932 -0.019825548 4281617279
0.01032228 -0.020000532 -0.020828232 4279456409
0.01153009 -0.015976831 -0.024407376 4279260059
0.013013598 -0.013515115 -0.026693776 4278735779
0.014634993 -0.011834249 -0.028333716 4278735268
0.0164023 -0.010933869 -0.029328674 4279128223
0.018642176 -0.012372807 -0.028395295 4279194013
0.021702692 -0.017708592 -0.02425421 4279391129
0.025130138 -0.02460064 -0.018837001 4280439689
0.02843854 -0.03071034 -0.014069465 4281029758
0.031449825 -0.035259128 -0.010590595 4281291643
0.034147892 -0.038248047 -0.0083974209 4282274669
0.010930121 -0.025473565 -0.01881633 4281550978
0.012152016 -0.021438308 -0.022389613 4280241553
0.013347134 -0.017404616 -0.025957908 4279194013
0.014669221 -0.014154628 -0.028879452 4278669989
0.016595677 -0.014033943 -0.02923198 4278669733
0.018999539 -0.016258657 -0.027662162 4278997408
0.022066787 -0.021608993 -0.02353406 4279193503
0.025500607 -0.028519869 -0.018133204 4280046223
0.028648373 -0.033864871 -0.01401968 4280898434
0.031154275 -0.036082685 -0.012468067 4281946228
0.033676278 -0.038299359 -0.010919282 4282012274
0.015624717 -0.021184929 -0.025587816 4281093508
0.017100956 -0.018710621 -0.027862508 4279062943
0.01935593 -0.020157099 -0.026938673 4278997409
0.022268251 -0.024738111 -0.023462266 4279062944
0.025705764 -0.03166797 -0.018077273 4280439433
0.028690564 -0.036244199 -0.01461386 4281553528
0.018073261 -0.02576305 -0.024592269 4282143088
0.020028934 -0.025640428 -0.024950054 4279718548
0.022792023 -0.029447496 -0.022122934 4279390619
0.025746118 -0.034038566 -0.018664181 4281225854
0.028398734 -0.037056208 -0.016483141 4282339438
0.02054166 -0.030356593 -0.02361352 4282340714
-0.019755445 -0.032721594 -0.023886498 4282535789
-0.021821521 -0.034398608 -0.02473117 4282077044
0.0055884197 0.014524899 0.023097007 4285296163
0.008273907 0.011043757 0.026199674 4285558303
0.01169879 0.0039603114 0.032761753 4285623328
0.00070353225 0.017025962 0.018435817 4285296929
0.0022708364 0.019318931 0.015996598 4285493533
0.0040960126 0.020164363 0.014944762 4285492513
0.0064744167 0.018116996 0.016660698 4285426723
0.0091536678 0.014624812 0.019756103 4285820953
0.012294903 0.0089659765 0.024918741 4285952024
0.015479214 0.0033099949 0.030073533 4285492769
5.6218356e-05 0.018348828 0.014449505 4285493534
0.0016131513 0.02064757 0.012017258 4285821464
0.0031540729 0.022945363 0.0095880702 4285426723
0.005236797 0.022341114 0.0099219233 4285492259
0.0077514425 0.019561909 0.012323439 4285689119
0.010577336 0.015334234 0.016099118 4285689628
0.013435572 0.011108696 0.019868953 4285493278
0.016476355 0.0061606169 0.024321033 4285361954
0.019860633 -0.00023389608 0.030141385 4285164073
-0.004486002 0.019447267 0.01119139 4285100323
-0.0026664585 0.020296291 0.010143712 4285493788
-0.00098340586 0.021873042 0.0084072575 4285624603
0.00082292408 0.022721503 0.0073621199 4285887254
0.0026239865 0.023569681 0.0063180607 4285952789
0.0046983548 0.022962753 0.0066517368 4285821464
0.0072041377 0.020174384 0.0090480745 4285887509
0.0098761804 0.016660377 0.012127906 4285756184
0.012575172 0.013148144 0.015202878 4285559069
0.014700938 0.012544781 0.015527504 4285493788
0.016984876 0.011215314 0.016537059 4285493533
0.019124195 0.010613039 0.016859319 4285493279
0.022217616 0.0056535453 0.02129014 4285623838
0.026635092 -0.0051123202 0.031189432 4285688864
-0.0067998767 0.019225217 0.0089629367 4285035554
-0.0049831159 0.020076096 0.0079173632 4285362208
-0.0032999739 0.021657057 0.0061841365 4285624603
-0.0012342706 0.02104713 0.0065174587 4285558813
0.00056941062 0.021897495 0.0054745227 4285623838
0.0023678243 0.022747636 0.0044326298 4285689628
0.0044392198 0.022138372 0.0047651529 4285624348
0.0069415122 0.019341186 0.0071553402 4285624349
0.0094654039 0.016545467 0.0095416568 4285558813
0.012158055 0.013022125 0.012609318 4285558813
0.013828509 0.014603108 0.010879062 4285559068
0.01564084 0.015454739 0.0098351128 4285624603
0.017292589 0.017034732 0.0081084967 4285886488
0.019881308 0.014243588 0.010483352 4285885723
0.023134079 0.0085408837 0.015585324 4285951258
0.027573146 -0.0022557378 0.025455365 4285885979
-0.0074107721 0.020598419 0.005007932 4285427743
-0.0057302415 0.022183388 0.0032784808 4285886489
-0.0036756955 0.021570459 0.0036121011 4285886743
-0.0016156547 0.020957999 0.0039447397 4285689884
0.00058344752 0.019613914 0.0049624704 4285624093
0.0025208592 0.019734427 0.004607264 4285624349
0.0044583678 0.019855067 0.0042521302 4285558558
0.0068209134 0.017780989 0.0059506595 4285559069
0.0091996677 0.015708052 0.0076463073 4285559069
0.011447594 0.014367528 0.0086554959 4285558813
0.013107505 0.015952088 0.0069305971 4285755674
0.014604311 0.01826705 0.0045251511 4285755419
0.016395237 0.019119591 0.0034868885 4285492258
0.018496372 0.018510744 0.003812829 4285558048
0.021405242 0.014250256 0.00754329 4285623838
0.024509564 0.0092616081 0.011948545 4285558814
0.028149053 0.0020852238 0.01838728 4285558813
0.032347906 -0.0072774291 0.026855113 4285558814
-0.01115752 0.01733987 0.0058953688 4285168663
-0.0094609335 0.018929847 0.0041662212 4285297183
-0.0077749491 0.020519324 0.0024390593 4285624349
-0.0060995929 0.022108197 0.0007139761 4285623584
-0.0040507205 0.021492779 0.0010468755 4285952279
-0.0017348714 0.019408964 0.0027485527 4285886744
0.00073061883 0.016592011 0.0051316731 4285689883
0.0026732758 0.016712844 0.0047754981 4285558814
0.004754819 0.01609987 0.005102735 4285558814
0.006558869 0.016954824 0.0040633343 4285559069
0.0086459629 0.016342416 0.0043897331 4285559069
0.010591652 0.016463861 0.0040333308 4285558813
0.012387861 0.017318651 0.0029956251 4285690138
0.014026523 0.01890631 0.0012780372 4285887508
0.015654493 0.020493373 -0.00043746457 4285755673
0.017744586 0.019881681 -0.00011120364 4285689883
0.020320978 0.017072715 0.0022524409 4285690138
0.023244865 0.012800395 0.0059700534 4285690393
0.026532385 0.0070657209 0.011038758 4285558559
0.03104144 -0.0037905723 0.020845307 4285493024
-0.011627778 0.017999135 0.0026391447 4285231649
-0.0098192394 0.018855713 0.001599906 4285756184
-0.0082609281 0.021186151 -0.00080753677 4285558303
-0.0065934286 0.02277885 -0.0025278516 4285492259
-0.0045528933 0.022160716 -0.0021950845 4285623839
-0.0021151751 0.019333385 0.00018621236 4285689373
0.00047740713 0.015771016 0.0032463912 4285689883
0.0024172403 0.015891649 0.0028907154 4285624349
0.004495807 0.015276343 0.0032167984 4285624604
0.0060145669 0.017605096 0.00081714243 4285624603
0.0079492927 0.017725721 0.00046264753 4285558813
0.0098840967 0.01784648 0.00010823831 4285624349
0.011818968 0.017967336 -0.00024610758 4285624094
0.013145644 0.021029249 -0.003317317 4285755673
0.014915131 0.021884702 -0.0043482799 4285821463
0.016994167 0.021270171 -0.0040216949 4285756184
0.019879263 0.016982406 -0.00030718371 4285821719
0.022959448 0.011962265 0.0040787198 4285558813
0.026739303 0.0040070415 0.011164943 4285427998
0.03125108 -0.0068812966 0.020945618 4285361444
-0.013902761 0.017813273 0.00043016113 4285362208
-0.012097009 0.018671654 -0.00060693175 4285493533
-0.010296464 0.019529819 -0.0016429741 4285690393
-0.0087458566 0.021866232 -0.0040439852 4285953299
-0.0070862174 0.023462649 -0.0057594567 4285821464
-0.0050540417 0.022841893 -0.0054268967 4285886999
-0.0026251599 0.02000536 -0.0030507296 4285821718
-4.1607767e-05 0.016431749 2.5779009e-06 4285624348
0.0021615773 0.015075088 0.0010094279 4285624349
0.0042371601 0.01445739 0.0013343906 4285624604
0.0057535954 0.016792417 -0.0010597743 4285558813
0.0075416677 0.017650753 -0.0020927824 4285624349
0.009470962 0.01777114 -0.0024462007 4285624349
0.011400327 0.017891653 -0.002799537 4285558558
0.013025951 0.019487061 -0.0045079757 4285624094
0.014486305 0.021819085 -0.0068913978 4285558813
0.016874205 0.01972796 -0.0052123107 4285559068
0.019598193 0.016164169 -0.0021838956 4285493278
0.023324981 0.0081818774 0.0048933513 4285493534
0.027606919 -0.0020061955 0.013985189 4285362464
0.032468189 -0.014398515 0.025087191 4285427998
-0.013678186 0.014046088 0.0012879958 4285559323
-0.011981145 0.015648834 -0.00043124706 4285493533
-0.010533683 0.018734053 -0.0035120491 4285493278
-0.0091075748 0.021818101 -0.0065888856 4285558813
-0.0074531063 0.023418516 -0.0083000716 4285624093
-0.0052990392 0.022054151 -0.0072878152 4285624349
-0.0028736517 0.019208826 -0.0049177911 4285624349
-0.0004266724 0.016364999 -0.0025516823 4285624349
0.0016350783 0.015744165 -0.0022259727 4285624349
0.003425695 0.016604617 -0.0032579862 4285559324
0.0050700493 0.018205002 -0.0049667712 4285690393
0.0092048794 0.016964905 -0.0043169111 4285557794
0.011280477 0.016345486 -0.0039933119 4285886489
0.013058025 0.017205648 -0.0050225076 4285624349
0.014675844 0.018804915 -0.0067260079 4285559068
0.016911384 0.017446861 -0.005727787 4285493788
0.020276252 0.010916315 -1.0401942e-05 4285493789
0.024014492 0.0029111579 0.0070461165 4285427998
0.028472539 -0.0080449134 0.016785691 4285494043
0.033179082 -0.01973433 0.027183553 4285427233
-0.013340585 0.0095222443 0.0028172014 4285426723
-0.011749245 0.011873774 0.00041866954 4285558303
-0.010293208 0.014968112 -0.0026569916 4285558558
-0.0088585168 0.018061236 -0.0057286564 4285492769
-0.0071957782 0.019666411 -0.0074379314 4285493278
-0.005416289 0.02052781 -0.008466525 4285559069
-0.0031217672 0.018416911 -0.0067813564 4285559068
-0.0010765344 0.017792806 -0.006454403 4285559069
0.0011096075 0.016426496 -0.0054512252 4285558814
0.0027540699 0.018031046 -0.007156739 4285624859
0.0045286864 0.018892735 -0.0081840511 4285427488
0.0064415149 0.019011974 -0.0085345525 4285097519
0.0087929852 0.016905218 -0.006859275 4285426723
0.011011772 0.015541494 -0.0058616367 4285624348
0.013089806 0.014920175 -0.0055400995 4285689629
0.015173253 0.014299348 -0.0052195159 4285558813
0.017732944 0.01145491 -0.0028800191 4285427998
0.021112289 0.0049059838 0.0028194776 4285427998
0.024864662 -0.0031218082 0.0098547526 4285295908
0.028841175 -0.011886656 0.01755112 4285163819
-0.013118044 0.0057276934 0.003653815 4285492768
-0.01140181 0.0073401034 0.0019378206 4285558049
-0.0099345073 0.01044368 -0.0011331597 4285557793
-0.0083666965 0.012800388 -0.00352214 4285557793
-0.0068148747 0.015156157 -0.0059080594 4285624094
-0.0051518343 0.016765743 -0.0076139928 4285493533
-0.0032395981 0.016884387 -0.0079648215 4285493534
-0.0014598519 0.017748162 -0.0089915991 4285427743
0.00031461939 0.018611707 -0.010017334 4285493278
0.0019458383 0.020219751 -0.011717094 4285690648
0.0038477033 0.020338185 -0.012065683 4285689884
0.0057496578 0.020456739 -0.012414191 4285492769
0.0080897436 0.018342838 -0.010741914 4285558558
0.010594737 0.015486062 -0.0083994437 4285755929
0.012969874 0.013374567 -0.006733418 4285690394
0.015515275 0.01052054 -0.0043981643 4285559069
0.018552519 0.005437471 -5.1994808e-05 4285493534
0.022105791 -0.0018731654 0.0063007139 4285625114
0.025226414 -0.0069508106 0.010631857 4285492768
0.028384671 -0.012025952 0.01495615 4284900913
-0.013237335 0.004165493 0.0024472456 4285427233
-0.011288278 0.0042858496 0.0020892043 4285558048
-0.0094580725 0.0051543266 0.0010544108 4285557794
-0.0076330975 0.0060225949 2.067443e-05 4285492003
-0.0060621276 0.008386001 -0.0023637461 4285492259
-0.0046342015 0.011496022 -0.0054204809 4285492259
-0.0030978993 0.013857454 -0.0077983201 4285558559
-0.0015776157 0.016218051 -0.010173172 4285361444
-7.3343515e-05 0.018577747 -0.012545012 4285427743
0.0015527122 0.020189703 -0.014240405 4285493534
0.0031681024 0.021801099 -0.01593375 4285690393
0.0050591715 0.021918952 -0.01628028 4285690648
0.0072420128 0.020544276 -0.015282946 4285755929
0.010029849 0.016185716 -0.01160183 4285624858
0.012698747 0.012575284 -0.0085974587 4285493789
0.0157024 0.0074749589 -0.0042570392 4285493534
0.018900316 0.0016314462 0.00074650906 4285492768
0.022141248 -0.0042092055 0.0057422388 4285098028
-0.013356566 0.0026035756 0.0012408886 4285426723
-0.011291489 0.0019735545 0.0015585516 4285426723
-0.0093397424 0.0020941719 0.0012001004 4285492259
-0.0073878616 0.0022149235 0.00084171444 4285492258
-0.0058084726 0.0045852512 -0.0015391838 4285426979
-0.0041181929 0.0062050149 -0.0032433318 4285557794
-0.0028272569 0.01007276 -0.0069651017 4285492259
-0.0012985468 0.012440234 -0.009336398 4285624093
-5.5748969e-05 0.016305164 -0.013049122 4285690648
0.0015731752 0.017921612 -0.014741708 4285493788
0.003191445 0.019537456 -0.016432213 4285493278
0.0052280612 0.018906809 -0.016108496 4285559069
0.0072701164 0.018276632 -0.015785675 4285493533
0.010059506 0.013905272 -0.01211496 4285493534
0.012881178 0.0095360875 -0.0084501179 4285493534
0.016196385 0.0029250756 -0.0027847644 4285559069
0.019090693 -0.0014393479 0.00086696632 4285492514
0.02169903 -0.0043063313 0.0031773355 4285098283
-0.013249144 -0.00046333671 0.0013837684 4285361188
-0.011179 -0.0010951534 0.0016987678 4285492769
-0.0091033503 -0.001726523 0.0020128433 4285558559
-0.007264927 -0.00085319579 0.00097996183 4285426723
-0.0055557638 0.0007719025 -0.00072436593 4285426723
-0.004110679 0.0039000809 -0.0037707444 4285426723
-0.0024281517 0.0055237859 -0.0054700538 4285492259
-0.00062415749 0.0063954443 -0.0064962446 4285558304
0.0007702224 0.0095208064 -0.0095330561 4285558049
0.0021432079 0.012644961 -0.012565854 4285689883
0.0034947917 0.015767887 -0.01559465 4285625114
0.0053963289 0.015886374 -0.015943116 4285427488
0.0075889826 0.014503688 -0.014954304 4285361954
0.010237068 0.010870405 -0.011963143 4285230374
0.01336477 0.0049880147 -0.0069739982 4285229609
-0.011298768 -0.0026629642 0.00048787333 4285097773
-0.0092234313 -0.0032965094 0.00080030225 4285360678
-0.0075061545 -0.0016667619 -0.00090223737 4285360679
-0.0057995059 -3.7521124e-05 -0.002602784 4285360934
-0.0042300224 0.0023450702 -0.0049716174 4285426724
-0.0024180524 0.0032192394 -0.0059976741 4285426723
-0.00047941878 0.0033395737 -0.0063533052 4285492259
0.0013246909 0.0042135119 -0.0073777973 4285492258
0.0028489307 0.0065937564 -0.0097379694 4285558048
0.0043571368 0.0089731514 -0.01209516 4285689628
0.0062773265 0.0090928078 -0.01244704 4285558559
0.0084882937 0.0077070147 -0.011465021 4285361443
0.011006165 0.0048167408 -0.0091520082 4285229863
0.013696309 0.001175493 -0.0061769206 4285295398
-0.0094617978 -0.0041095838 -0.0010821801 4285097518
-0.007868059 -0.0017192662 -0.0034506246 4285360168
-0.0060428679 -0.00084239244 -0.0044776257 4285360679
-0.0043493137 0.00079037994 -0.0061722528 4285492514
-0.0022791773 0.00015480816 -0.0058602244 4285558304
-0.0004670769 0.0010312125 -0.0068845432 4285492258
0.0014741942 0.0011518076 -0.0072405841 4285558049
0.003141284 0.0027834326 -0.0089300442 4285492513
0.0047977269 0.0044144616 -0.010617433 4285558303
0.0065860152 0.0052898526 -0.011637018 4285624094
0.0088045597 0.0039002448 -0.010659775 4285492769
0.011181802 0.0017566085 -0.00901963 4285295909
0.013876334 -0.0018950701 -0.006053796 4285229353
-0.0042161271 -0.0022805333 -0.0060385969 4285032494
-0.0022698268 -0.0021598637 -0.0063957479 4285360678
-0.00058662146 -0.00052323937 -0.0080849323 4285426469
0.0013545081 -0.00040266663 -0.0084409546 4285426468
0.0031587519 0.00047560781 -0.0094619766 4285492258
0.0050973706 0.00059626997 -0.0098173451 4285558049
0.0068937242 0.0014743358 -0.010836767 4285558304
0.0089748353 0.000837937 -0.010527866 4285361189
0.011356793 -0.0013117716 -0.0088936929 4285295908
0.013604537 -0.0027036518 -0.0079249572 4285098284
-0.0023895204 -0.0037182868 -0.0075992406 4285098284
-0.00057470053 -0.0028374791 -0.008620711 4285294888
0.0012348592 -0.0019568354 -0.0096410904 4285557794
0.0030391216 -0.0010764301 -0.010660434 4285492258
0.0049775913 -0.00095581263 -0.011015801 4285492513
0.0067739561 -7.5608492e-05 -0.012033543 4285492514
0.0088547617 -0.0007141605 -0.011726269 4285360933
0.010940988 -0.0013522208 -0.011419954 4285295399
0.013182871 -0.0027487203 -0.010453572 4285098284
0.0031927936 -0.0041519254 -0.010535168 4285229353
0.0051364824 -0.0040309951 -0.010891499 4285360678
0.0067962445 -0.0023868158 -0.012569262 4285360678
0.00844533 -0.00074315071 -0.014245031 4285360168
0.010378495 -0.00062250346 -0.014599143 4285032493
0.0048772916 -0.00482288 -0.012752393 4285031983
0.006392695 -0.0024108663 -0.01508549 4285229353
0.0080365948 -0.00076331198 -0.016756902 4285163308
