# .PCD v0.7 - Point Cloud Data file format
VERSION 0.7
FIELDS x y z rgba
SIZE 4 4 4 4
TYPE F F F U
COUNT 1 1 1 1
WIDTH 883
HEIGHT 1
VIEWPOINT 0 0 0 1 0 0 0
POINTS 883
DATA ascii
-0.013665747 -0.030895531 0.0075916648 4286790973
-0.014848765 -0.037175022 0.010976121 4286201668
-0.013329316 -0.034789033 0.0084538758 4287837749
-0.012484673 -0.029426806 0.0032167714 4287052603
-0.01380359 -0.03496179 0.0059131458 4287706679
-0.012469318 -0.031824119 0.0027226675 4286791483
-0.014438737 -0.03437636 0.0027016923 4286529343
-0.012783039 -0.032728061 0.00087255053 4286595389
-0.011304818 -0.030331813 -0.0016299393 4286398018
-0.011286668 -0.032726169 -0.0021226015 4286463299
-0.0098211132 -0.030324198 -0.0046171164 4286593603
-0.0098002441 -0.032715805 -0.0051086536 4286659393
-0.0083473735 -0.03030812 -0.0075951954 4287051584
-0.0083237514 -0.032697074 -0.0080855107 4286659393
-0.0072322898 -0.0287745 -0.011902662 4286528833
-0.008472003 -0.034333117 -0.0092471493 4286528578
-0.0072055422 -0.031156309 -0.012388709 4286660158
-0.0059601776 -0.027980983 -0.015525123 4286660158
-0.0086202249 -0.035968862 -0.010408579 4286528068
-0.0071791559 -0.033542238 -0.012877683 4286987325
-0.0057538785 -0.031116672 -0.01534289 4287314489
-0.007326901 -0.035171069 -0.014034166 4286855490
-0.005901169 -0.032738887 -0.016494639 4287052604
-0.0041331276 -0.031829424 -0.017624551 4287314743
-0.0023702942 -0.030920237 -0.018753113 4287706935
-0.0060484298 -0.034360848 -0.017646194 4286463299
-0.0041014887 -0.034212179 -0.018112741 4287184183
-0.0021544583 -0.034063376 -0.018579211 4288099633
-0.0042488612 -0.035833843 -0.019264039 4287314234
-0.0024832934 -0.034920059 -0.020390034 4288361263
-0.00053898245 -0.034771331 -0.020855751 4287706678
0.00047239289 -0.030799463 -0.024612896 4287444028
-0.0045746714 -0.036687814 -0.02107377 4287116354
-0.0028116964 -0.035772026 -0.022197522 4287966779
-0.00087019429 -0.035623536 -0.022662584 4287117884
-0.0088174343 0.0094283521 0.053746209 4281368399
-0.0086380057 0.01701764 0.045239218 4281242174
-0.0071488954 0.019197479 0.04257413 4280720953
-0.0044600442 0.016648248 0.045007773 4280720699
-0.013353635 0.0087759048 0.052053824 4282020178
-0.012956519 0.015714958 0.044280268 4280977994
-0.01211587 0.020615272 0.038703986 4280327489
-0.010975964 0.02415676 0.034591686 4281177660
-0.0090085194 0.024307054 0.03412028 4281828673
-0.0066940375 0.023102175 0.03510141 4281632834
-0.0027839132 0.015801184 0.042610694 4281176894
0.0018998235 0.0057957619 0.053006038 4281177403
-0.019722451 0.016310275 0.04161327 4281042508
-0.017892059 0.017142721 0.040408161 4281043784
-0.016066778 0.017974868 0.039204352 4281175874
-0.014734495 0.020848781 0.035820127 4280914243
-0.013423275 0.023721159 0.032441001 4280394044
-0.011965189 0.025911711 0.029792991 4279548719
-0.010181721 0.026741058 0.028599411 4279873333
-0.0078836717 0.025530443 0.029581252 4279547699
-0.0046953782 0.02092243 0.03418079 4279872569
-0.00093412772 0.014278963 0.040941715 4280393024
0.002517961 0.008998163 0.04624442 4280849474
-0.024593379 0.017763808 0.037741043 4281043783
-0.02398568 0.024067324 0.030713774 4279675454
-0.021880958 0.023532171 0.030973639 4280068154
-0.01701599 0.019731037 0.034394715 4281112633
-0.015533868 0.021929886 0.031745624 4281046588
-0.014067482 0.024127569 0.029100407 4281177149
-0.012616877 0.026324168 0.02645899 4280655929
-0.010500498 0.025790486 0.026716419 4280330293
-0.0082056262 0.02457517 0.027695745 4280720954
-0.0051972233 0.02063325 0.031562418 4280981054
-0.0026918501 0.018738903 0.033256002 4280915008
-0.00035141781 0.017527394 0.034224577 4280915008
0.0031017214 0.012229085 0.039514065 4281241409
-0.027827818 0.011692524 0.041885991 4282020943
-0.027447771 0.019393303 0.033401787 4281176639
-0.026083212 0.022286791 0.030022439 4281045313
-0.02458806 0.024492804 0.027374852 4281371459
-0.022491615 0.023954827 0.027635016 4281436994
-0.020232771 0.022731829 0.028619263 4281046588
-0.017643992 0.020139061 0.031050432 4280656439
-0.015682694 0.020288512 0.030580215 4281047099
-0.013721202 0.020438075 0.030110039 4281112379
-0.012262117 0.022641879 0.027471494 4281046588
-0.010308277 0.022791032 0.02700327 4281046333
-0.0081814565 0.022255994 0.027256608 4281111869
-0.0056981854 0.020353258 0.028950483 4281112379
-0.0037332885 0.020503536 0.028479815 4281047099
-0.0023106672 0.022705019 0.025850348 4280070704
0.00038035959 0.020120889 0.028257627 4280526643
0.0053260885 0.0093389452 0.03928009 4280721464
-0.028695222 0.013471141 0.037068687 4281565259
-0.027888048 0.019129604 0.030783974 4281045823
-0.026528094 0.022031512 0.027412195 4279676983
-0.025037777 0.024243779 0.024770569 4280263993
-0.023101006 0.02439107 0.024306018 4280069683
-0.020850617 0.023162927 0.025289055 4279548719
-0.018111367 0.01987309 0.028438963 4280591414
-0.016155463 0.020022102 0.027970027 4281112379
-0.014199402 0.02017121 0.027501114 4281242430
-0.012410488 0.021007366 0.026311018 4281046588
-0.010286789 0.020469762 0.026563387 4280916028
-0.008330252 0.020619184 0.026094567 4281047609
-0.006548848 0.02145505 0.024906471 4281047354
-0.0051285289 0.023662876 0.022282287 4280982838
-0.0035434067 0.025183685 0.020380002 4280722483
-0.001235757 0.023960847 0.02135 4281047608
0.0027558282 0.016569294 0.028768446 4279680044
0.0081259049 0.0043850988 0.04118596 4279159079
-0.028128099 0.0083624572 0.039521106 4281629774
-0.027452063 0.014730409 0.032521088 4281502528
-0.02637792 0.01902312 0.027704824 4280915263
-0.025184203 0.022623129 0.02361973 4280719678
-0.023401383 0.023460526 0.022432342 4280785724
-0.021154184 0.022227742 0.023412827 4280916284
-0.018737022 0.020306066 0.025112376 4281112379
-0.016627375 0.019764878 0.025366269 4281241918
-0.014841203 0.020602882 0.024178345 4281176638
-0.012893062 0.020751461 0.02371138 4281177148
-0.010944754 0.020900153 0.023244444 4281242684
-0.0091687255 0.021737665 0.022059165 4281177403
-0.0075729489 0.023263488 0.020157423 4281113144
-0.0059876628 0.024788547 0.0182583 4280006698
-0.0044128709 0.02631291 0.016361766 4281243703
-0.0021163635 0.02508482 0.01733112 4281634109
0.00093371049 0.021106698 0.021158788 4281568829
0.0051459409 0.013005838 0.029266272 4280785979
0.0099950619 0.002848044 0.039500326 4280524093
-0.026990715 0.00045906752 0.044853158 4281890384
-0.026580524 0.0082347542 0.036415234 4281433678
-0.026228461 0.016006067 0.027991362 4280979524
-0.025330555 0.021002747 0.022469062 4280652869
-0.023547661 0.021842312 0.02128325 4280914499
-0.021457266 0.021297231 0.021539968 4280915519
-0.019202422 0.020060629 0.022515453 4280980543
-0.017583255 0.02159214 0.020610984 4280068664
-0.015810262 0.022431325 0.019427828 4279808819
-0.013875511 0.022578839 0.018964045 4279092524
-0.011771012 0.022035293 0.019217722 4280916793
-0.0096610561 0.021492265 0.019470166 4281242939
-0.0078954287 0.02233126 0.018289048 4281243194
-0.0063125119 0.023860533 0.016393725 4280527409
-0.0047400855 0.025389131 0.014500938 4280005679
-0.0024467483 0.024156321 0.01546783 4280266799
0.0004138276 0.020854592 0.018573072 4280330804
0.0034892261 0.016865246 0.022384975 4280720954
0.006405782 0.013567999 0.025476966 4281438013
0.010122873 0.0075154901 0.031409517 4281765433
0.015064623 -0.0026681125 0.041597158 4281702193
-0.026428241 -0.0047023147 0.04726813 4282150738
-0.025711697 0.001708284 0.040287547 4281694798
-0.025487144 0.010200426 0.031155571 4281825868
-0.025024425 0.017298192 0.023479544 4280914499
-0.023386937 0.01883518 0.021573689 4280849219
-0.021447662 0.018982634 0.021108519 4280719424
-0.01982573 0.020518586 0.01920658 4280654654
-0.018214237 0.022053842 0.017307218 4280002874
-0.016449127 0.022894643 0.016127508 4281176383
-0.014355708 0.022347875 0.016382165 4279353389
-0.012087468 0.021108285 0.0173514 4280721209
-0.0099805035 0.020562783 0.017602909 4281112634
-0.008042749 0.020710789 0.017138604 4281047353
-0.0062822066 0.021551684 0.015960384 4280720189
-0.0047068335 0.023084853 0.014070172 4280719933
-0.0024113767 0.021847818 0.015033245 4281308474
0.00026541576 0.019227318 0.017417938 4281308218
0.0027756095 0.017300539 0.019086197 4281504313
0.0047299899 0.0174504 0.018618342 4283075879
0.0070709996 0.016217262 0.019570798 4284379438
-0.025867682 -0.0098856091 0.0496675 4282151248
-0.024990905 -0.0041515082 0.043417938 4281695053
-0.024600204 0.0036711395 0.035020459 4281565769
-0.024267633 0.011489518 0.026636951 4281501509
-0.023380209 0.016516224 0.02113995 4281043784
-0.022217926 0.020146973 0.017086804 4280718658
-0.020764869 0.022382971 0.014473699 4279872059
-0.019327585 0.024617851 0.011864431 4281371968
-0.017414439 0.024763573 0.011405718 4281697858
-0.015168097 0.023517724 0.012376899 4281372734
-0.012572642 0.020881586 0.014774136 4280591668
-0.010127638 0.018942624 0.01645264 4280721208
-0.0081900172 0.019090593 0.015988339 4280916538
-0.0064293928 0.019933663 0.01481171 4281046843
-0.0046739504 0.020776451 0.013636399 4281178424
-0.0023763739 0.019535147 0.014595691 4282356779
0.00030215085 0.016905941 0.016973458 4283862809
-0.025736373 -0.012991205 0.049894102 4282411603
-0.024852823 -0.0072390214 0.043655843 4282217803
-0.023715984 -0.0028888583 0.038863435 4281566024
-0.023212362 0.0042560101 0.031210013 4281370694
-0.022914652 0.012095995 0.022852823 4281564749
-0.022363704 0.018533982 0.015941419 4280913734
-0.021226879 0.02217387 0.011902545 4280198969
-0.0199554 0.025113415 0.0085846782 4279677748
-0.018050347 0.025258474 0.00812787 4280069174
-0.015812505 0.024007585 0.0090977773 4280527919
-0.012887988 0.019966267 0.012916028 4280526388
-0.010446358 0.018020362 0.014590491 4280917304
-0.00868579 0.018865518 0.013415404 4281112378
-0.0069303997 0.019710369 0.012241632 4281376559
-0.005000595 0.019857913 0.01177934 4282356269
-0.02471545 -0.010335162 0.043887682 4282151503
-0.023424689 -0.0066729933 0.039819676 4281827399
-0.022310439 -0.0023112223 0.035042424 4281500999
-0.021992061 0.0055545345 0.026698105 4282153289
-0.021887373 0.014117055 0.017653458 4281370183
-0.021371704 0.020572223 0.010765227 4280784703
-0.020260375 0.024221268 0.0067405719 4280785468
-0.018358078 0.024366099 0.0062844176 4280981818
-0.015957277 0.022410247 0.0079636257 4281047609
-0.013202865 0.019055627 0.011061311 4281701429
-0.011107471 0.018502541 0.011310656 4283010089
-0.022987168 -0.011174008 0.041481309 4281629008
-0.022011232 -0.0060945004 0.035996951 4281370438
-0.02107222 -0.0010177493 0.030521572 4281891913
-0.020636078 0.0061662272 0.022916853 4281891403
-0.020410758 0.014049307 0.014612827 4281109064
-0.019440573 0.018413655 0.0098801907 4280980544
-0.017849002 0.019965045 0.0079985298 4281242685
-0.015438329 0.0180033 0.0096704736 4281700918
-0.013517272 0.018149719 0.0092099383 4283600414
-0.022992622 -0.013574153 0.040991277 4281627478
-0.02186295 -0.0091849044 0.036229789 4281499979
-0.020460006 -0.0062093437 0.032899551 4281761609
-0.019543421 -0.0011187643 0.02744092 4281957449
-0.019294802 0.0067902803 0.019149136 4281826379
-0.018623132 0.012579747 0.013001047 4281305158
-0.017504554 0.016251378 0.0089909676 4282485299
-0.01558378 0.016397655 0.0085304044 4284183853
-0.021416221 -0.013700068 0.037878193 4281367634
-0.020306502 -0.0092990473 0.033131279 4281695564
-0.019073498 -0.0056080371 0.029101621 4282022729
-0.018339541 0.00020364672 0.022951465 4281891404
-0.017647821 0.0060121641 0.016811565 4282286144
-0.020305764 -0.011687174 0.032648277 4282216274
-0.018914547 -0.0086948425 0.029333875 4282087499
-0.017859083 -0.0042845756 0.024609827 4282153543
-0.017155293 0.0015425012 0.018479947 4282416703
-0.016493756 0.0073664114 0.012360318 4284115258
-0.019219834 -0.0096538141 0.027440697 4281954644
-0.01769447 -0.0073663443 0.024844196 4282218568
-0.016504478 -0.0036564246 0.020841181 4282349895
-0.015665766 0.001474686 0.015435457 4284115258
-0.017687563 -0.0097424537 0.024368212 4281891148
-0.016334441 -0.0067352578 0.021076031 4282219080
-0.015164625 -0.0030158088 0.017086014 4284246839
-0.016165141 -0.0098226592 0.021304786 4281627990
-0.014989164 -0.0060917661 0.017321382 4284312374
-0.014814425 -0.0091763139 0.017550703 4284246074
0.0080073774 0.0027209744 -0.017466014 4284705583
0.010315109 0.001406379 -0.016563646 4284573239
-0.004938446 0.0015191808 -0.022182394 4284507958
-0.020457204 -0.013367102 0.031455249 4281555569
-0.020456929 -0.015761316 0.030967966 4281029503
-0.020608444 -0.017442845 0.029773775 4280374154
-0.0193667 -0.013707235 0.0257743 4279784594
-0.020608637 -0.019843042 0.029282156 4280963968
-0.01936337 -0.016096242 0.02528996 4279784339
-0.017987873 -0.01306992 0.022005253 4280507264
-0.021062341 -0.020083718 0.026685201 4281029248
-0.019667801 -0.017047279 0.023402303 4279980944
-0.018294286 -0.014012374 0.020124584 4280374663
-0.016464788 -0.013140701 0.01894857 4280638588
-0.021213483 -0.021762095 0.025493216 4280832388
-0.019971769 -0.017993622 0.021518044 4279521689
-0.018600252 -0.014950059 0.018247224 4279915153
-0.016773339 -0.014076456 0.017073471 4280112013
-0.021213863 -0.024165832 0.024999116 4280831878
-0.019968677 -0.020386077 0.021031152 4278669478
-0.018593829 -0.01733353 0.017766044 4279914898
-0.017081443 -0.015007459 0.01520174 4279980688
-0.015584778 -0.012682468 0.0126413 4280636294
-0.019659694 -0.024237998 0.021932203 4279128224
-0.018431995 -0.020448543 0.01797666 4279652759
-0.017230649 -0.016660981 0.014027506 4279587223
-0.01557247 -0.015056454 0.012165366 4279849364
-0.013924766 -0.01345256 0.010305775 4279980943
-0.019351844 -0.028102852 0.022824075 4281291643
-0.018426482 -0.02284243 0.017487995 4279980433
-0.017221611 -0.019043617 0.013546087 4279718293
-0.015721392 -0.016705252 0.010994516 4279980178
-0.01390991 -0.015826024 0.009829402 4279980433
-0.012435887 -0.013489418 0.007284293 4280963968
0.030602295 -0.022794887 0.00940031 4280439689
0.035941526 -0.033508047 0.019080196 4280636293
0.039788701 -0.039144203 0.024004087 4282143854
-0.018110562 -0.0267042 0.018379737 4282471273
-0.017212931 -0.021430396 0.013061725 4280177548
-0.01570959 -0.019085214 0.010514256 4279980433
-0.014058698 -0.017472334 0.0086603519 4279980433
-0.012418266 -0.015860185 0.0068090819 4280112014
-0.01078831 -0.014248677 0.0049603619 4280112013
0.017027657 0.00052790344 -0.014089499 4281685873
0.019373218 -0.00077885389 -0.013192633 4280045459
0.022378495 -0.0042662844 -0.01026703 4279520413
0.02694338 -0.012840614 -0.0026127752 4279847833
0.032680266 -0.025043845 0.0084052812 4279716508
0.038058717 -0.035786763 0.018051576 4281618554
-0.01688895 -0.025289066 0.013953369 4281291389
-0.015858579 -0.020735614 0.0093422495 4280112013
-0.014044326 -0.019851863 0.0081797261 4280243339
-0.012566756 -0.017501794 0.0056434087 4280046479
-0.01093654 -0.015885882 0.0037978627 4279128733
-0.0094878487 -0.013537817 0.0012686942 4280701829
0.012633484 9.2767179e-05 -0.015663782 4280964224
0.014337935 0.00097017735 -0.016798493 4279587733
0.016037125 0.0018473044 -0.017931851 4278996134
0.020284243 0.00068304688 -0.017492637 4278337979
0.040180515 -0.038069047 0.017018955 4280634509
-0.01552676 -0.024593346 0.010232195 4282666603
-0.014030311 -0.022235438 0.0076961406 4280439690
-0.012384083 -0.02061405 0.0058498904 4279718549
-0.010916509 -0.018258087 0.0033209529 4278801059
-0.009293858 -0.016638272 0.0014805235 4279849619
-0.0078551956 -0.014284268 -0.0010413118 4280177549
0.0055655651 0.0024546385 -0.019493531 4282340714
0.0074620061 0.0026003942 -0.019947268 4279850639
0.009966556 0.00054831058 -0.018369671 4279128988
0.011665709 0.0014274195 -0.019501636 4278603943
0.0135676 0.0015739724 -0.019956402 4278407084
0.015258875 0.002452679 -0.021086259 4278733739
0.016944882 0.0033311099 -0.022214759 4278537899
0.019057494 0.0027459934 -0.021994108 4278536879
0.032144427 -0.02093666 -0.0011789482 4278733994
0.037529707 -0.031744882 0.0084172804 4278669223
0.042306907 -0.0403549 0.015982337 4279784083
-0.014179353 -0.023885243 0.0065245982 4281225088
-0.012698237 -0.021521755 0.0039971173 4279521433
-0.011064835 -0.019896895 0.002157297 4279718294
-0.0094419383 -0.018272661 0.00032004528 4280046224
-0.0080028288 -0.015912049 -0.0021970458 4280373899
-0.0065795071 -0.013552494 -0.0047103176 4281749879
0.0029410161 0.0029339269 -0.022194529 4282407014
0.0050264858 0.0023436323 -0.021969596 4279784339
0.0069174804 0.0024889708 -0.022422032 4279260059
0.0090110041 0.0018995926 -0.02219888 4278801569
0.010904744 0.0020453706 -0.022651805 4278538664
0.016159993 0.0039516464 -0.025356026 4278995880
0.018480048 0.002629824 -0.024462635 4278603689
0.021247519 -0.00015832484 -0.022228297 4278930598
0.0249204 -0.0058783963 -0.017314684 4278406574
0.029083159 -0.01306159 -0.011070163 4278472364
0.034204364 -0.023172617 -0.002159046 4278931618
0.039628837 -0.034010567 0.0074035935 4279062944
0.043974571 -0.041179128 0.013604674 4280111758
-0.013840828 -0.027755029 0.0074036662 4283057519
-0.012681622 -0.02390454 0.0035133529 4279718039
-0.011380952 -0.020795621 0.00031164661 4279849619
-0.0095899813 -0.019906737 -0.00084020942 4279849364
-0.0083235167 -0.016800188 -0.0040335348 4280045968
-0.006902393 -0.014434248 -0.0065413872 4280571015
-0.0065675639 -0.0076359361 -0.01312333 4281357178
-0.0032396242 0.0024017394 -0.023311645 4282341224
-0.001357004 0.0025459453 -0.023762444 4279785358
0.00052568316 0.002690278 -0.024213159 4279259549
0.0084616505 0.0017947182 -0.024667462 4278865318
0.010349941 0.001940079 -0.025119083 4278538408
0.012653444 0.00061221421 -0.024225248 4278472873
0.023667905 -0.0038058534 -0.021801461 4278276014
0.026921211 -0.0080704391 -0.01824493 4278669479
0.031337075 -0.016008548 -0.011354754 4278801059
0.03672649 -0.026882134 -0.0018079858 4278801313
0.042195458 -0.037749432 0.0077198744 4278932894
0.045871124 -0.042733483 0.011898179 4281554039
-0.031293388 -0.033739515 0.013265755 4282012018
-0.012830313 -0.0255493 0.0023454148 4282926194
-0.011696603 -0.021689646 -0.0015306063 4281290369
-0.010078494 -0.02005709 -0.0033602342 4279849364
-0.0084708594 -0.018425129 -0.0051872749 4279849618
-0.0072248578 -0.015311249 -0.0083691487 4279980433
-0.006534569 -0.0099755079 -0.013580107 4280243338
-0.0050815567 -5.2817166e-05 -0.023298364 4282209898
-0.0037550181 0.0023129955 -0.025778392 4279456918
-0.0018778481 0.0024567768 -0.026227888 4278735268
-0.00019207969 0.0033407733 -0.027352218 4278603944
0.0039508604 0.0021491349 -0.026902277 4278798509
0.008115232 0.00095967948 -0.026457142 4278340274
0.010205451 0.00036575645 -0.026236365 4278538153
0.012301017 -0.00022767484 -0.026016729 4278472873
0.014191885 -8.1852078e-05 -0.026468767 4278669223
0.015444718 0.0022794977 -0.028930275 4278931109
0.017327677 0.0024249703 -0.029380238 4279062178
0.019864624 0.00035634637 -0.027824407 4278865828
0.023079403 -0.0039244741 -0.024268508 4278997409
0.026102725 -0.0074650422 -0.021387413 4278603943
0.03050823 -0.015428118 -0.014512563 4278407848
0.035657868 -0.02559828 -0.0056534279 4278736033
0.041113008 -0.036499612 0.0038535148 4279325593
0.044776455 -0.041499935 0.0080233812 4281947249
-0.01150959 -0.024811402 -0.0013323296 4282926448
-0.010226037 -0.021686107 -0.0045169089 4280439179
-0.0086181648 -0.020049788 -0.0063407999 4280111248
-0.0071961246 -0.017670631 -0.0088391844 4279718293
-0.0061459132 -0.013805866 -0.012686738 4280111503
-0.0054834485 -0.0084567368 -0.017879665 4279849619
-0.0048579834 -0.0031103492 -0.023063587 4279522199
-0.0037116595 5.1781535e-06 -0.026214754 4278670499
-0.00052604452 0.0025201812 -0.029134937 4278603944
0.001151897 0.0034059063 -0.030255677 4279062689
0.0034143105 0.0020656362 -0.029358899 4278669478
0.005687397 0.0007262677 -0.028464533 4278668714
0.0081730001 -0.001353614 -0.02690188 4278275249
0.010060992 -0.0012082532 -0.027353423 4278472109
0.011949021 -0.0010627881 -0.027804883 4278734759
0.013627257 -0.00017633289 -0.028925173 4278669478
0.015300218 0.00070986897 -0.030044092 4278800804
0.017398156 0.00011484325 -0.029826399 4278866339
0.019936994 -0.0019602254 -0.028275879 4278669733
0.023153048 -0.0062541217 -0.024729997 4278604454
0.026177848 -0.0098055527 -0.021857336 4278670244
0.030583616 -0.017792761 -0.015000278 4279260313
0.035504483 -0.027254201 -0.0068281982 4279588244
0.040725335 -0.037449427 0.0019913912 4280046223
0.044150852 -0.041726463 0.0054877922 4282668134
-0.010203674 -0.024060979 -0.0049965438 4282665074
-0.0087654181 -0.021674104 -0.0074941088 4281093509
-0.0073429234 -0.019288354 -0.0099877585 4279979924
-0.0059362464 -0.016903639 -0.012477571 4279259549
-0.0050867386 -0.012284018 -0.016986409 4278931874
-0.0042689666 -0.0076666549 -0.021487597 4279062944
-0.0038544312 -0.0015618056 -0.027327135 4278736288
-0.00254016 0.00081634521 -0.029794436 4278604453
0.0024858676 0.0034794882 -0.033150028 4278537899
0.0049468167 0.0013909638 -0.031586375 4278537644
0.0095079243 -0.0012949929 -0.029807465 4278734504
0.0113905 -0.0011499524 -0.030257633 4278603943
0.013692353 -0.0024909601 -0.029373063 4278604198
0.015580293 -0.0023452565 -0.029824326 4278735268
0.018327978 -0.005170159 -0.027611228 4278538664
0.020661725 -0.0065083802 -0.026733968 4278604709
0.023666788 -0.010072447 -0.023864772 4278866848
0.026252586 -0.012150146 -0.022330169 4278997663
0.030658605 -0.02016151 -0.015490973 4279391383
0.035579316 -0.029651515 -0.0073398231 4279522709
0.04033811 -0.038394548 0.00013266131 4280242573
-0.0087403096 -0.024046324 -0.0079725254 4282534004
-0.007489685 -0.020905763 -0.011136113 4279848344
-0.0057273358 -0.020009927 -0.012274453 4279259294
-0.0043306947 -0.017619334 -0.014756886 4279718548
-0.0036815181 -0.012240373 -0.019923899 4279390363
-0.0034404881 -0.0053698793 -0.026424902 4279062943
-0.0026824437 -0.00074372441 -0.030901872 4278997153
-0.001383543 0.0016399398 -0.033360556 4278866084
0.0068771318 -0.00077114254 -0.03247378 4278407084
0.0091598108 -0.0021182969 -0.031587999 4278669223
0.011246353 -0.0027189776 -0.031371109 4278538663
0.013757091 -0.004809767 -0.029823853 4278473129
0.016071673 -0.0061540306 -0.028945453 4278669479
0.021167472 -0.010329194 -0.025868282 4278604964
0.023959285 -0.013159208 -0.023672003 4278997663
0.026772317 -0.015987486 -0.021480722 4279260059
0.030507883 -0.021790296 -0.016646536 4279260568
0.03519778 -0.030565135 -0.0091770878 4279457428
0.039490055 -0.037847616 -0.0030440688 4280702339
0.043135457 -0.042895429 0.0010961406 4282537319
-0.0072868988 -0.024023168 -0.010939384 4282206074
-0.0058740079 -0.021624841 -0.013420993 4280963204
-0.0044769123 -0.019227631 -0.015898688 4280177039
-0.003095638 -0.01683148 -0.018372549 4279980178
-0.0028423406 -0.009940289 -0.024861936 4279456663
-0.0022606514 -0.0045509487 -0.030001253 4279062943
-0.0017159954 0.00083573163 -0.035131656 4278932384
-0.00024180487 0.0024759322 -0.036913067 4278931619
0.0012218282 0.0041154996 -0.038691904 4278997408
0.0038666204 0.0012643337 -0.036467694 4278931618
0.0063314028 -0.00083694607 -0.034914576 4279062688
0.0092199743 -0.004432708 -0.03203427 4278800548
0.011721957 -0.0065308586 -0.030489855 4278800804
0.01444909 -0.0093751326 -0.028285012 4278801058
0.016773727 -0.010723077 -0.027412217 4279194013
0.01953803 -0.013564274 -0.025216039 4278997153
0.021672033 -0.01416298 -0.025011741 4278604709
0.023811357 -0.014761128 -0.024808599 4279195034
0.026623413 -0.017598242 -0.022623537 4279326103
0.030582312 -0.024165012 -0.017141467 4279391639
0.035044476 -0.032220088 -0.010351176 4280111759
0.039104097 -0.038778789 -0.0048929602 4282274924
-0.0058434196 -0.023991674 -0.013897067 4282337909
-0.0046231002 -0.02083566 -0.017040299 4280438923
-0.0030588619 -0.019184642 -0.018840453 4280045713
-0.0020606183 -0.015279643 -0.022642976 4279980178
-0.0014644116 -0.0098738298 -0.027774468 4279783828
-0.00071478263 -0.0052218214 -0.032229964 4278866083
0.00058245286 -0.002825059 -0.034678437 4279062688
0.0020595938 -0.00118009 -0.036457285 4278931874
0.0045182742 -0.0032885447 -0.034907639 4278669733
0.007193964 -0.0061459988 -0.032697208 4278538664
0.01009462 -0.0097517669 -0.029827863 4278866339
0.012402717 -0.011105619 -0.028954599 4279063199
0.014721468 -0.012458518 -0.028083723 4279259548
0.017262515 -0.014559992 -0.026553314 4279194268
0.019819478 -0.016660072 -0.025026659 4279521943
0.022175407 -0.018009722 -0.024164388 4279194268
0.024541937 -0.019358397 -0.023304602 4279063198
0.027363624 -0.02220352 -0.021128295 4279456663
0.031106211 -0.028040871 -0.016321642 4279719060
0.035118777 -0.034623109 -0.010866842 4279718294
0.038718589 -0.039705269 -0.0067384578 4282536808
-0.0045895837 -0.023197517 -0.017513642 4282141304
-0.0030224435 -0.021541938 -0.019311225 4280242574
-0.0016507767 -0.019133225 -0.02177299 4279915153
-0.00067015365 -0.015218481 -0.025563123 4279652758
9.3784183e-05 -0.010552295 -0.030012336 4278472873
0.0012118183 -0.0073947087 -0.033124141 4278735014
0.0028953739 -0.0064974502 -0.034238119 4278997663
0.0049701259 -0.0071060359 -0.03402349 4278997663
0.0078536607 -0.010724269 -0.031158254 4278866593
0.010560248 -0.013587967 -0.028961569 4279194013
0.012875743 -0.014945619 -0.028093301 4279194268
0.014993057 -0.015550368 -0.027888518 4279587734
0.017327182 -0.016906358 -0.027024463 4279521943
0.020100148 -0.019764423 -0.024843274 4279587735
0.022677569 -0.021869369 -0.023326257 4279521943
0.025490325 -0.024724104 -0.021154391 4279325594
0.028546359 -0.028327964 -0.018329596 4280373388
0.032078344 -0.033431076 -0.014196496 4281881969
-0.0029864013 -0.02390331 -0.019784963 4281748094
-0.0014268793 -0.022243761 -0.021577438 4279259803
-0.00025268272 -0.019073404 -0.024696382 4279128989
0.00090037659 -0.015904501 -0.027810212 4279063454
0.0018395968 -0.011981718 -0.031582169 4278997663
0.0037291683 -0.01183667 -0.032034401 4279456409
0.0058168136 -0.012446411 -0.031824518 4279325339
0.008511778 -0.015319929 -0.02963163 4279259804
0.010618065 -0.015928 -0.029426023 4279325338
0.01293565 -0.017289855 -0.028561471 4279653013
0.014846653 -0.017142497 -0.029018348 4279653014
0.017602723 -0.020010777 -0.026839683 4279653014
0.020593936 -0.023630999 -0.024007773 4279587479
0.023828238 -0.02800262 -0.020524489 4279784083
0.026875138 -0.031618275 -0.017705692 4280374154
0.030392267 -0.036737971 -0.013580486 4280046989
0.033048451 -0.038843043 -0.012086794 4281880438
-0.0012037456 -0.025362894 -0.021387918 4279980433
-2.3614615e-05 -0.022183269 -0.024501866 4280111503
0.00075569376 -0.017489597 -0.028935371 4279980178
0.0016957708 -0.013555795 -0.032699458 4279653014
0.0035851859 -0.01341074 -0.033151645 4279521943
0.0058702789 -0.014779881 -0.032282848 4279325338
0.0083664767 -0.016905062 -0.030756634 4279194268
0.010675512 -0.018272117 -0.029893382 4279259803
0.01320095 -0.020394787 -0.02837397 4279718294
0.015742309 -0.022516064 -0.02685832 4279849364
0.018721718 -0.026148282 -0.02403176 4280112014
0.021941377 -0.030534334 -0.020554772 4281030014
1.7691404e-05 -0.024541475 -0.024974825 4280701064
0.00061104074 -0.01907438 -0.030060312 4280111504
0.0015519671 -0.015129581 -0.03381655 4279587733
0.0036361925 -0.015744112 -0.033609174 4279521944
0.0061209723 -0.017876826 -0.032085218 4279325339
0.0088219605 -0.020767428 -0.029906692 4279522198
0.011341296 -0.022897288 -0.028390782 4279784084
0.013671003 -0.024266981 -0.027535586 4280111758
0.016635958 -0.027911432 -0.024713764 4280308619
0.019838316 -0.032312065 -0.021242402 4280502418
0.023072477 -0.036710091 -0.017778609 4282403953
0.00043223426 -0.028428614 -0.024130953 4283319914
0.00084532797 -0.022183277 -0.029866615 4280504203
0.0017924048 -0.018227026 -0.033616245 4279391128
0.003686823 -0.018081605 -0.034069628 4279194013
0.0065682977 -0.021743946 -0.031236285 4279521688
0.0094763227 -0.025404125 -0.028409204 4279980434
0.012613587 -0.029823311 -0.024932323 4280177294
0.015166644 -0.031957008 -0.023429219 4280832644
0.01815163 -0.035610862 -0.020620238 4282077553
0.0016465969 -0.027593881 -0.027705956 4282338164
0.002607774 -0.023625612 -0.03145089 4280111248
0.0049043894 -0.025007188 -0.0305946 4279914899
0.007606037 -0.027915336 -0.028429281 4280307599
0.010528792 -0.031585343 -0.025613796 4281027974
0.0039962679 -0.031345181 -0.027334578 4282077043
0.0059247985 -0.03119716 -0.027796153 4281291644
0.0082473941 -0.032580934 -0.026949234 4282405229
-0.023138989 -0.035008937 -0.022005081 4282338928
0.010402355 0.011528179 0.024068348 4284967979
0.01595534 -0.00076064467 0.036354568 4285033004
0.0022509992 0.017055273 0.016506847 4284970784
0.0038191341 0.018592678 0.014621895 4285427998
0.0057628565 0.018741809 0.014156651 4285821208
0.0082938336 0.016810335 0.015815228 4285885978
0.012427855 0.0093330964 0.023128465 4285951514
0.018228624 -0.0036849529 0.036081024 4285951513
-0.00021615252 0.016670242 0.014399372 4285100578
0.0019148104 0.016122736 0.014642302 4285428254
0.0031001419 0.01905679 0.011345873 4285558814
0.0048429221 0.019901298 0.010175575 4285623583
0.0069715083 0.019353904 0.010419285 4285754654
0.010096345 0.015329026 0.014190387 4285820443
0.014257289 0.0078297034 0.021479391 4285689374
0.019697618 -0.0038361177 0.032981113 4285492769
-0.0093547814 0.019349277 0.010139069 4285166113
-0.0074305423 0.019496277 0.0096780192 4285296164
-0.0053267889 0.018944152 0.0099255871 4285427488
-0.0030355528 0.017693467 0.010879932 4285559068
-0.0011029989 0.017841406 0.010417113 4285559069
0.00082967058 0.017989457 0.0099543389 4285690394
0.0020024106 0.020931341 0.0066674054 4285953044
0.0037319846 0.021777019 0.0055018757 4285820953
0.0058469661 0.021226369 0.0057472158 4285689628
0.008957196 0.017187148 0.0095120724 4285689883
0.012500606 0.011755221 0.014676396 4285886488
0.016086575 0.0063266978 0.019830629 4285558813
0.021362573 -0.0046761036 0.030592635 4285493278
-0.0098486282 0.019144766 0.0075807143 4285755163
-0.0079298131 0.019291312 0.007120939 4285820443
-0.0060108863 0.019437976 0.0066612083 4285886488
-0.003728155 0.018182255 0.007614281 4285755418
-0.0019881725 0.019030608 0.0064476412 4285558814
-6.6254288e-05 0.019177809 0.0059874281 4285558814
0.0012863502 0.021427102 0.0034138318 4285755929
0.0030080378 0.02227436 0.002251802 4285755929
0.005114723 0.021720849 0.0024974924 4285755673
0.0080178678 0.018367715 0.0055522677 4285624603
0.011148069 0.014316857 0.0093027074 4285558813
0.013904031 0.011667855 0.011642972 4285559069
0.017504223 0.0062229186 0.016780838 4285493534
0.023439236 -0.0069100782 0.029608969 4285427489
-0.013999593 0.017953001 0.0066539198 4285231648
-0.012254864 0.01880341 0.0054873265 4285427998
-0.010688964 0.020357579 0.0036153849 4285754908
-0.0086045712 0.019799419 0.003864238 4285689118
-0.006514743 0.019241787 0.0041118767 4285886998
-0.0046011209 0.019388117 0.0036534797 4285689883
-0.0025030933 0.018831275 0.0038993452 4285558813
-0.00096051022 0.020384207 0.0020333175 4285558813
0.0011403561 0.019827835 0.0022786185 4285558814
0.0028621219 0.020677283 0.0011181813 4285559069
0.0053583048 0.018716596 0.0027656052 4285558814
0.0080680512 0.016054995 0.0051102694 4285558813
0.010598879 0.014097221 0.0067495164 4285624349
0.012537088 0.014246315 0.0062858704 4285690139
0.01488642 0.012992196 0.0072204899 4285754908
0.019120075 0.0054261163 0.014438704 4285819933
0.025731448 -0.0098489672 0.029319074 4285819933
-0.016998392 0.011817612 0.010681838 4284902189
-0.0158947 0.015499197 0.0066834912 4285296674
-0.014481056 0.0177655 0.0041043665 4285493533
-0.012912367 0.019324139 0.0022348985 4285755673
-0.011354167 0.020882137 0.00036797859 4285492513
-0.0094541796 0.021027207 -8.7315217e-05 4285558049
-0.0073752999 0.020466499 0.00016129576 4285623838
-0.0051095597 0.019200601 0.0011119638 4285755928
-0.0032012574 0.019346625 0.00065491535 4285558813
-0.0011061318 0.018787481 0.00089986809 4285558814
0.001183819 0.017523743 0.0018449631 4285559068
0.0032924078 0.016965829 0.0020868517 4285493533
0.0056010969 0.015703805 0.00302759 4285558814
0.0079204924 0.014442645 0.0039658714 4285558813
0.0096505173 0.015295289 0.0028052777 4285690139
0.01117263 0.016851641 0.00094790198 4285821209
0.013300154 0.016295739 0.0011856649 4285886234
0.016680937 0.011518396 0.0056035426 4285885723
0.021994654 0.00041301548 0.016278792 4285951003
0.028459843 -0.014202014 0.030411884 4286016793
-0.015874531 0.013187245 0.006250862 4285296163
-0.014793683 0.01687818 0.0022661686 4285493533
-0.013568621 0.019858509 -0.0010079276 4285821719
-0.012191374 0.022128806 -0.003573332 4285952789
-0.0101262 0.021564685 -0.0033231042 4285821463
-0.0076984577 0.019584917 -0.0016695652 4285887253
-0.0054358877 0.018314339 -0.00072140247 4285690138
-0.0033464916 0.017752439 -0.00047677942 4285558813
-0.0014382377 0.017898545 -0.00093376078 4285558814
0.0010377169 0.015922852 0.00070858933 4285559068
0.0031459704 0.015362717 0.00094893388 4285624604
0.0052596219 0.014803089 0.0011880491 4285624604
0.0071814992 0.014950685 0.00072813593 4285624604
0.0087038241 0.016511343 -0.0011261273 4285755929
0.010215592 0.018071353 -0.0029778127 4285755164
0.012127038 0.018218473 -0.0034349952 4285623583
0.014869649 0.015542202 -0.0011108704 4285689119
0.018685706 0.0093393326 0.0046816096 4285754908
0.023615023 -0.00038705766 0.013932925 4285820444
0.029265944 -0.012223385 0.025246777 4285558814
0.035007149 -0.024052575 0.036539096 4285558814
-0.015029144 0.0073144361 0.009334797 4285228588
-0.014434796 0.013151042 0.0032443944 4285361953
-0.013541933 0.01756271 -0.0014305823 4285559069
-0.012334634 0.020550542 -0.0046938751 4285559323
-0.010445524 0.020694733 -0.005146604 4285558813
-0.0081995279 0.019418374 -0.0041977996 4285558813
-0.0057617873 0.017432846 -0.0025514625 4285558813
-0.0040427484 0.018288329 -0.0037066452 4285624349
-0.0019562431 0.017724089 -0.0034628967 4285689629
0.00032467023 0.016450815 -0.0025221426 4285689628
0.0024246238 0.015887819 -0.0022814516 4285689629
0.0041413866 0.016743578 -0.0034357589 4285624349
0.0058528967 0.017599009 -0.004588753 4285558558
0.0075591728 0.018454224 -0.0057404339 4285887253
0.0094624646 0.018600591 -0.0061957557 4285821463
0.011365816 0.018747084 -0.0066510029 4285623838
0.013684373 0.017477483 -0.0057186838 4285558304
0.016854491 0.013377286 -0.0020164829 4285624093
0.020482283 0.007864289 0.0030631348 4285690393
0.024583653 0.00093975663 0.0095163248 4285493533
0.030265499 -0.010931499 0.020795297 4285493279
0.037362717 -0.02703803 0.036196142 4285427743
-0.014351014 0.0021288916 0.01169773 4285163308
-0.0139095 0.0086975768 0.0049150195 4285426469
-0.013175163 0.013836406 -0.00045405142 4285427489
-0.012132093 0.017546646 -0.004413357 4285493534
-0.010237798 0.017691217 -0.0048673321 4285559323
-0.0079870485 0.016410835 -0.0039229766 4285559069
-0.0060872249 0.016556047 -0.0043781213 4285624603
-0.0045542493 0.018125646 -0.0062289471 4285690139
-0.002659522 0.018270679 -0.0066827144 4285886998
-0.00038711727 0.016992398 -0.0057432204 4285886998
0.0017045438 0.016426556 -0.00550217 4285952789
0.0036074966 0.016572557 -0.0059576575 4285624348
0.0049202777 0.018852025 -0.0084971599 4285624349
0.0068154186 0.018997662 -0.0089506097 4285558813
0.0083064847 0.020564854 -0.010790884 4285821974
0.010401156 0.01999975 -0.010550104 4285821463
0.012501165 0.019435227 -0.01031056 4285821719
0.015656665 0.015320711 -0.0066145863 4285690394
0.018418688 0.012628533 -0.0043079285 4285558814
0.022278652 0.0063896552 0.0014450252 4285493534
0.027712343 -0.0048118159 0.012013974 4285427999
0.03543745 -0.02309949 0.029452626 4285427743
-0.013674829 -0.0030785277 0.014045127 4284901423
-0.013051022 0.0027954653 0.0079735629 4285163308
-0.012299497 0.0079510361 0.0026116595 4285294634
-0.011412304 0.012388691 -0.0020424128 4285427489
-0.010030854 0.014679171 -0.0045941994 4285493788
-0.0081312768 0.014824234 -0.0050493767 4285493789
-0.0064122044 0.015683971 -0.0062014367 4285624858
-0.005064901 0.017972179 -0.0087447912 4285689884
-0.00317562 0.01811678 -0.0091972668 4285623584
-0.0010976382 0.017547518 -0.0089546144 4285689118
0.0011769682 0.016265087 -0.0080188252 4285886743
0.0030744858 0.016410664 -0.0084730182 4285689884
0.0045789741 0.017983012 -0.010313386 4285624349
0.0062721074 0.018841602 -0.011458699 4285558814
0.0079600029 0.019699834 -0.01260264 4285558814
0.010051671 0.019132324 -0.012362819 4285559068
0.012355871 0.017852806 -0.011433562 4285493533
0.015510004 0.013724975 -0.0077469973 4285559069
0.018483553 0.01031182 -0.0047572842 4285493534
0.021698803 0.0061889365 -0.0010851622 4285361443
0.027341571 -0.0057601556 0.010148013 4285426979
0.034617674 -0.022682644 0.026171595 4285426979
-0.013165105 -0.0075898021 0.015677832 4284901168
-0.012194902 -0.0031328723 0.0110134 4285163564
-0.011426196 0.0020393804 0.0056587048 4285294378
-0.010694474 0.0072088912 0.0003130082 4285493024
-0.0096495263 0.010941342 -0.0036304789 4285427743
-0.0080976784 0.012520969 -0.0054795789 4285493534
-0.0069171675 0.015533395 -0.0087167528 4285690649
-0.0057577752 0.018544376 -0.011948824 4285755928
-0.004062321 0.019404754 -0.013093496 4285492258
-0.0018069036 0.018116288 -0.012156401 4285557793
0.0006502457 0.016112797 -0.010528969 4285689374
0.0025423206 0.016257949 -0.010981862 4285755929
0.0042380989 0.017118797 -0.012126286 4285558813
0.0059286579 0.017979316 -0.013269329 4285559324
0.0078156218 0.018124402 -0.013720766 4285559068
0.010111269 0.016839705 -0.012792794 4285493533
0.01241757 0.015555978 -0.011867335 4285493789
0.015782624 0.010700472 -0.0075024022 4285625113
0.01876032 0.0072766319 -0.0045217825 4285558813
0.022409363 0.0017125979 0.00051387027 4285426978
0.027841562 -0.0095594376 0.011031345 4285360678
0.034459867 -0.02439335 0.024957761 4285360934
-0.013149854 -0.0099579021 0.015205368 4284901168
-0.012008976 -0.0062074736 0.011246661 4285228588
-0.010724846 -0.0031788126 0.0079907924 4285294633
-0.0099785961 0.0020072386 0.0026529096 4285294634
-0.0092693605 0.0071905106 -0.0026760008 4285426723
-0.0085971467 0.012371123 -0.0079959864 4285427488
-0.0077817254 0.01682999 -0.012613183 4285493788
-0.0066322722 0.019848987 -0.01583641 4285756183
-0.0049473643 0.020710699 -0.016976906 4285821718
-0.0027031042 0.019417003 -0.016040435 4285821974
-0.00025730953 0.017406039 -0.014415147 4285821718
0.0018175021 0.016832381 -0.014174873 4285690394
0.0040938295 0.015541479 -0.013245836 4285624604
0.0059832521 0.015686646 -0.013697937 4285493279
0.0084770955 0.01367981 -0.012083819 4285361444
0.010782797 0.012391515 -0.011161553 4285558559
0.013512693 0.0096702278 -0.0088668345 4285426979
0.016263869 0.0069506839 -0.0065771258 4285360678
0.019248364 0.0035163686 -0.0036062486 4285294634
0.02268889 -0.0013484731 0.00072948262 4285163053
0.027905596 -0.011939414 0.010535618 4285163054
0.034302097 -0.026103713 0.023744173 4285163053
-0.011823792 -0.0092906728 0.011473894 4285228589
-0.010533705 -0.0062527284 0.0082230195 4285294634
-0.0092646852 -0.0032162592 0.0049772896 4285229353
-0.0088903494 0.0034267455 -0.001730781 4285492513
-0.0085636564 0.010066234 -0.0084273489 4285624348
-0.0082845762 0.016702212 -0.015112411 4285493534
-0.0073224492 0.020450614 -0.019019634 4285559069
-0.0056454204 0.021313913 -0.020156628 4285558559
-0.0032216758 0.019294538 -0.018531019 4285558559
-0.00059130788 0.016556136 -0.016219532 4285493278
0.0016738065 0.015259817 -0.015291095 4285493278
0.0041455515 0.01324445 -0.013676723 4285559069
0.0062360726 0.012670025 -0.013441667 4285624603
0.0087344646 0.010656975 -0.011833555 4285623838
0.011248846 0.0086452439 -0.010229125 4285623584
0.013985746 0.0059156865 -0.007942575 4285557793
0.01653472 0.0039068386 -0.0063462555 4285360678
0.019311488 0.0011806414 -0.0040691029 4285163308
0.022967614 -0.0044180825 0.00093896687 4285097774
-0.012139052 -0.010209091 0.0096135568 4284966449
-0.010343309 -0.0093351752 0.0084491763 4285097518
-0.009068314 -0.0062895566 0.0052085053 4285229609
-0.0083379932 -0.0010738596 -0.00010282919 4285426979
-0.0079989955 0.0055863485 -0.0067877611 4285426979
-0.0080672838 0.013689846 -0.014842494 4285624858
-0.0070989802 0.017449714 -0.018743098 4285493534
-0.0054165907 0.018315651 -0.019879814 4285493533
-0.0029882826 0.016290009 -0.018260164 4285493534
-0.00054397061 0.014265694 -0.016644271 4285493789
0.0019163266 0.012242772 -0.01503216 4285558558
0.0041968897 0.010943346 -0.014110583 4285558049
0.0064881146 0.0096449032 -0.013191511 4285426213
0.0089910775 0.0076255649 -0.011589303 4285491749
0.011306301 0.0063291788 -0.010675813 4285492004
0.013632201 0.005033724 -0.0097647207 4285492259
0.016177747 0.0030180439 -0.0081725009 4285295143
0.01916258 -0.0004382357 -0.0052179005 4285164074
0.022816934 -0.0060546771 -0.00022236258 4284966958
0.028032532 -0.016711682 0.0095354151 4284900913
0.034206264 -0.030243866 0.021998841 4284900913
-0.0088727027 -0.0093713179 0.0054336265 4285033003
-0.0079614855 -0.0048658475 0.00082240999 4285229863
-0.0070819817 -0.00036262721 -0.0037811548 4285229609
-0.0069526546 0.0070407987 -0.011133306 4285294633
-0.006147176 0.011538558 -0.015718907 4285229608
-0.0046337396 0.013133116 -0.017545639 4285230118
-0.0023804829 0.011826836 -0.016621027 4285427234
7.3682517e-05 0.0097966716 -0.015012366 4285493023
0.0023509674 0.0084925219 -0.014093372 4285426468
0.0044433922 0.0079137087 -0.01386211 4285425958
0.0065411963 0.007335417 -0.013632054 4285491749
0.008644376 0.0067576095 -0.013403155 4285426468
0.010752905 0.0061804056 -0.013175476 4285426979
0.013279095 0.0041564628 -0.011583537 4285492259
0.016030036 0.0014105737 -0.0093132518 4285426979
0.018802252 -0.0013336316 -0.0070479382 4285164073
0.022238059 -0.006245032 -0.0027451217 4285032494
-0.0091922469 -0.01027631 0.0035844482 4284967213
-0.0077602714 -0.0079425052 0.0010496341 4285229353
-0.0066976212 -0.0041537061 -0.0028575696 4285163563
-0.006020207 0.0010888577 -0.0081333704 4285294889
-0.0053798296 0.006328769 -0.013400238 4285426468
-0.0040375851 0.0086561888 -0.0159132 4285361188
-0.0021490268 0.0088007823 -0.016365472 4285558304
0.00049972907 0.0060373321 -0.014077811 4285492514
0.0025917478 0.005456157 -0.013848161 4285360424
0.0044937991 0.0056021437 -0.014303401 4285294378
0.0063959211 0.0057482347 -0.014758574 4285360678
0.0084987544 0.005168207 -0.01453121 4285361443
0.010810226 0.0038627461 -0.013623301 4285361953
0.013338316 0.0018323734 -0.012036663 4285361698
0.015882358 -0.00019661337 -0.010453798 4285426469
0.018231109 -0.0014988706 -0.009554483 4285098284
-0.0063144155 -0.0079577863 -0.0019432195 4285098029
-0.0054485835 -0.0034291372 -0.006524004 4285295144
-0.0049781837 0.002556853 -0.012467645 4285360169
-0.0039965622 0.0063507929 -0.01634709 4285294633
-0.0022926815 0.0072250292 -0.017484045 4285491749
0.00035513192 0.0044527277 -0.015202628 4285360678
0.0026392899 0.0031402484 -0.01429173 4285360934
0.0043487065 0.0040152743 -0.015429739 4285098539
0.0060529001 0.0048899874 -0.01656636 4285098538
0.0081527233 0.0043075755 -0.016339947 4285099049
0.010664094 0.0022691935 -0.014754258 4284967723
-0.0064614825 -0.0095773712 -0.0030930862 4284966449
-0.0054155551 -0.0057677701 -0.0069800206 4285229098
-0.0047593862 -0.00049594045 -0.012228044 4285360424
-0.0037715957 0.003309451 -0.01610087 4285294633
-0.0024362914 0.0056496188 -0.018602384 4285426469
-0.00016868114 0.004331328 -0.017690871 4285426979
0.0021096058 0.0030140206 -0.016781865 4285164584
0.0040087216 0.0031597838 -0.017236402 4285164329
0.0059079006 0.0033056214 -0.017690891 4285098284
-0.0049042776 -0.0020887032 -0.013358783 4285229353
-0.0039156266 0.0017277226 -0.017223738 4285492004
-0.0023930855 0.003340587 -0.019039599 4285558049
-0.00050222501 0.0034854263 -0.019492367 4285230629
-0.0054116659 -0.0022082031 -0.015850492 4285229354
-0.0044274591 0.0016188473 -0.019706296 4285360933
-0.0027233958 0.0024996772 -0.020838443 4285164584
-0.0010245517 0.0033801869 -0.021969214 4284967724
