# .PCD v0.7 - Point Cloud Data file format
VERSION 0.7
FIELDS x y z rgba
SIZE 4 4 4 4
TYPE F F F U
COUNT 1 1 1 1
WIDTH 952
HEIGHT 1
VIEWPOINT 0 0 0 1 0 0 0
POINTS 952
DATA ascii
0.011488054 -0.026775412 -0.0025452357 4287051073
0.014810866 -0.03104379 0.00093570538 4286594368
0.0063011982 -0.0250476 -0.0060141664 4287183164
0.0091366507 -0.027850114 -0.0038622497 4287968308
0.012216367 -0.031392097 -0.0010508206 4288099123
0.015322488 -0.034931734 0.0017537922 4286987324
0.0020195693 -0.026270233 -0.0068164077 4286920514
0.0041851699 -0.026851103 -0.0066609289 4287313468
0.0070089959 -0.029663496 -0.0045125326 4287445559
0.0094134137 -0.030986317 -0.003697711 4288100398
0.012274243 -0.033795342 -0.0015587956 4288361519
0.015156206 -0.036602467 0.00057469308 4286660158
-0.0069516189 -0.024821781 -0.0092680734 4286397763
-0.0048104227 -0.025407396 -0.0091082137 4287772214
-0.0024570078 -0.02673953 -0.0082837697 4287641399
-0.00030246377 -0.027323715 -0.0081272479 4287903029
0.0022816956 -0.029400788 -0.0066428995 4287706678
0.0044521838 -0.029983394 -0.00649036 4287838003
0.00706283 -0.032057971 -0.0050127311 4287641908
0.0092492402 -0.032638974 -0.0048641665 4288034099
0.012331717 -0.036202677 -0.0020696474 4287837493
-0.010985378 -0.026770569 -0.0094020758 4286854979
-0.0086512528 -0.028109141 -0.0085760755 4287837494
-0.0065078959 -0.028696872 -0.0084185479 4288099123
-0.0043591633 -0.029284008 -0.0082623241 4287772979
-0.0019984208 -0.030619971 -0.0074430024 4287707443
0.00016364455 -0.031205729 -0.0072900644 4287641908
0.0025429726 -0.03253983 -0.0064754514 4287576374
0.0045037866 -0.032375559 -0.0069881259 4287641909
0.0066818781 -0.032959618 -0.0068390546 4287576629
0.0090851039 -0.034291334 -0.0060304021 4287445048
0.011721391 -0.036370069 -0.0045641242 4286987324
-0.017142236 -0.028126381 -0.0096962964 4287116609
-0.015208706 -0.027965553 -0.010202685 4288426033
-0.013081815 -0.028557219 -0.010042736 4288622893
-0.010557763 -0.030653261 -0.0085529527 4288099633
-0.0084148571 -0.031243347 -0.0083970157 4287903284
-0.0064677522 -0.031080849 -0.0089065759 4288099634
-0.0045205653 -0.030918233 -0.0094160689 4287903283
-0.0021604151 -0.03225863 -0.0085998243 4287576373
1.2740493e-06 -0.032846652 -0.0084484359 4287576374
0.0021683052 -0.033434071 -0.0082983328 4287445048
0.0039120018 -0.032519102 -0.0094709983 4287052604
0.0063013956 -0.033856489 -0.0086620627 4286921789
0.0087013952 -0.035192907 -0.007855772 4286789954
-0.01867941 -0.032176435 -0.0083354888 4286790719
-0.016926028 -0.031259783 -0.0095100394 4287706169
-0.015177805 -0.030343398 -0.010683204 4288229683
-0.013048641 -0.030937128 -0.010525434 4288688939
-0.010718442 -0.032284908 -0.0097050359 4288491823
-0.0083776079 -0.033631667 -0.0088873198 4288230449
-0.0062270686 -0.034223229 -0.0087348586 4287641399
-0.0042747557 -0.03406018 -0.0092456928 4287772214
-0.0021161586 -0.034650773 -0.0090952059 4287510328
-0.0001610592 -0.03448724 -0.0096065765 4287117883
0.002005592 -0.035076894 -0.0094580008 4286922554
0.0035352297 -0.033406653 -0.011288266 4286267459
0.0057046488 -0.0339958 -0.0111402 4286266948
-0.020415545 -0.035482608 -0.0076456433 4286464319
-0.018654317 -0.034563251 -0.0088207303 4286333504
-0.017085783 -0.032886676 -0.0106589 4287445049
-0.015337486 -0.03196808 -0.011830456 4288033589
-0.013015877 -0.033321135 -0.011011093 4288033844
-0.010488171 -0.035429969 -0.0095320111 4288229938
-0.0083407313 -0.036024131 -0.0093804738 4288229938
-0.0063886791 -0.035861254 -0.0098913461 4287771959
-0.00463989 -0.034941994 -0.011062562 4287444538
-0.0024842918 -0.035535067 -0.010912861 4286658883
-0.018999003 -0.035434261 -0.010636172 4286267204
-0.017245494 -0.034513243 -0.011807541 4287052349
-0.015307151 -0.034352027 -0.012315205 4287379513
-0.01317611 -0.034949951 -0.012161224 4287510328
-0.010844447 -0.036306374 -0.01134767 4287640889
-0.0088978931 -0.036144085 -0.0118572 4287836728
-0.0067507662 -0.036740296 -0.011707157 4286724163
-0.017779402 -0.034615584 -0.014278802 4286855488
-0.015656736 -0.035216577 -0.014124359 4287182909
-0.01352869 -0.03581699 -0.013971175 4286986303
-0.011590295 -0.035655521 -0.01447866 4287247679
0.032376722 0.013991281 0.033625711 4279938613
0.036128692 0.0094332397 0.038038302 4280784704
0.027176257 0.0090901554 0.036826897 4281045313
0.026516382 0.01671914 0.02854412 4280394043
0.027269343 0.020275734 0.024504442 4281241919
0.028491486 0.022474758 0.021879658 4281567809
0.031951718 0.018575281 0.025588397 4280982329
0.037721366 0.0085832477 0.035612065 4280461364
0.016915264 0.012856692 0.031366151 4279936828
0.018667333 0.013704836 0.030141469 4279938613
0.020882884 0.013190582 0.030329876 4280654908
0.02239272 0.014719337 0.028401535 4281111104
0.023173073 0.018289089 0.024362713 4280784703
0.024169303 0.021176331 0.021034598 4278960433
0.025634287 0.022701558 0.019118235 4279873844
0.027583847 0.022866163 0.018609442 4280981309
0.030534271 0.020312056 0.020907495 4280851259
0.035022963 0.013682947 0.027406108 4280395319
0.011019222 0.010002054 0.032449879 4282410838
0.011440322 0.01495789 0.026981752 4281957450
0.012050714 0.019226842 0.022229619 4281046589
0.013087198 0.022125799 0.018897142 4280981564
0.015491616 0.020922132 0.019799959 4280395574
0.018140774 0.019036226 0.021404281 4280199733
0.020569043 0.01783476 0.022301026 4281111104
0.021810737 0.02004841 0.01968063 4280980544
0.02303661 0.022260789 0.017064501 4280915518
0.024491342 0.023789618 0.015154023 4279611959
0.026677568 0.023271184 0.015348829 4279676983
0.029619057 0.020707496 0.017642707 4280002874
0.033086941 0.016782254 0.021330029 4280458813
0.037607603 0.0101339 0.027804114 4280980034
0.0073406473 0.012970969 0.026840921 4282881568
0.0079838149 0.017255701 0.022089835 4281897013
0.0088187158 0.020851471 0.018052578 4280656949
0.010079261 0.023072813 0.015431769 4281568574
0.011781309 0.023921054 0.01422333 4281698368
0.014171958 0.022711787 0.015126482 4281176893
0.017041061 0.020132579 0.017432306 4280850493
0.019694746 0.018240549 0.019030642 4281111359
0.021407479 0.019090079 0.017819706 4281046334
0.022631243 0.021308936 0.015208952 4280850238
0.023839187 0.023526531 0.012602462 4280980288
0.026266916 0.022321049 0.01349633 4281111104
0.028705217 0.021116532 0.014387581 4280980033
0.031658869 0.018545188 0.016671795 4280980033
0.034123547 0.017343096 0.017556306 4280980034
0.038402624 0.011357643 0.023313519 4280979523
0.0064976625 0.019745655 0.016702801 4281831478
0.0073177144 0.023351189 0.012677552 4280917558
0.0087887309 0.024889488 0.010768807 4280201010
0.010934513 0.024362471 0.010970427 4280265524
0.01331667 0.023148146 0.011872506 4279678259
0.016410535 0.019871652 0.014875259 4279223084
0.01905816 0.01797244 0.016470339 4281307199
0.020765714 0.018823735 0.015262377 4281176384
0.022467989 0.019674748 0.014055829 4281111104
0.024165003 0.020525374 0.012850782 4281045313
0.026103633 0.020689063 0.012344845 4281045569
0.028541369 0.019480079 0.01323298 4281045313
0.030233063 0.020330615 0.012029508 4280980033
0.031919464 0.021180749 0.010827523 4279677238
0.034630451 0.019287728 0.012406683 4279874099
0.040478602 0.0091703683 0.0223125 4280460598
0.0058953129 0.01949843 0.014146768 4283733524
0.0069339834 0.022423755 0.010833109 4281308218
0.0088538043 0.022585031 0.01033148 4280915518
0.010773674 0.022746418 0.0098299067 4280589884
0.013386101 0.020837471 0.011429099 4280850748
0.015547451 0.020309798 0.011625135 4281307198
0.017714124 0.019782662 0.011819912 4281307199
0.019647334 0.019945569 0.011315156 4281306944
0.021821957 0.019419342 0.011507956 4281111104
0.023757827 0.019582711 0.011002677 4281111104
0.025693696 0.019746169 0.010497464 4281111104
0.027878882 0.019221149 0.010687741 4280980289
0.029061466 0.021450169 0.0080978069 4280850494
0.030737408 0.022301648 0.0069001932 4280460088
0.03317979 0.021088965 0.0077840947 4280981309
0.037451923 0.015063368 0.013513926 4279743284
0.044659387 0.0014796257 0.026843119 4279093288
0.006996125 0.020114981 0.010393465 4283206694
0.0084677786 0.021662138 0.0084910449 4281112379
0.010840848 0.020438053 0.0093889404 4281111358
0.013455123 0.018522635 0.010982767 4281046334
0.015152261 0.019377261 0.0097806249 4281046078
0.016608242 0.020923473 0.0078826454 4280720188
0.018292222 0.021777194 0.0066841003 4280264248
0.02069447 0.020556137 0.0075747166 4280654398
0.023351125 0.018644787 0.0091579203 4281110594
0.025284231 0.018808015 0.008653434 4281241665
0.027217329 0.018971346 0.0081490222 4281111104
0.027891688 0.022587765 0.0041789077 4278960944
0.02955715 0.023440614 0.0029856171 4281046334
0.031988397 0.022222586 0.003869174 4281632578
0.035728499 0.017555967 0.0082054827 4280979524
0.040817071 0.0094440356 0.015984293 4280914243
0.047823604 -0.0034887791 0.028574653 4281045313
0.0087575987 0.018658765 0.0087494496 4282421294
0.010679856 0.018820338 0.008247247 4281374774
0.012832558 0.018287428 0.0084422044 4280785214
0.014291469 0.019838184 0.0065466408 4281047354
0.015504161 0.022082355 0.0039581414 4278766889
0.017177671 0.022937391 0.0027639437 4279809073
0.019809745 0.021017291 0.0043485593 4278374699
0.022457683 0.019098595 0.0059291553 4279220788
0.024382738 0.019261137 0.0054267682 4281111104
0.025810031 0.020809859 0.003539918 4281242174
0.026723694 0.023743477 0.00027271546 4280263993
0.028378708 0.024597593 -0.00091618113 4279417139
0.031055609 0.022681907 0.00065720081 4279807288
0.034267217 0.019383341 0.0036056079 4279807034
0.038291447 0.014011331 0.0086137485 4279806524
0.043152034 0.0065679103 0.015675362 4281045314
0.050744321 -0.0077852756 0.029596578 4281045314
0.0081469789 0.018435933 0.0062140804 4283729443
0.010063834 0.018597044 0.0057132896 4282029103
0.011750557 0.019455083 0.0045170356 4280916283
0.013432035 0.020312786 0.0033222269 4280591924
0.01463734 0.022562928 0.00074053369 4281372224
0.016541116 0.022723369 0.00024346821 4281697859
0.018926397 0.021492012 0.0011320505 4280589628
0.021565605 0.019566022 0.0027100053 4280849984
0.023728639 0.019032381 0.0029011611 4281111103
0.02539961 0.019889884 0.0017095283 4281046844
0.026562706 0.022137076 -0.00086062588 4281045824
0.027963862 0.023688257 -0.0027372874 4280980798
0.030380771 0.022460233 -0.0018564723 4280915008
0.033585854 0.019150101 0.0010855068 4280980034
0.037079155 0.015148185 0.0047079679 4280717894
0.041133109 0.0097611919 0.0096954368 4280913734
0.047633521 -0.0018654242 0.020845018 4281044038
0.056381866 -0.019032083 0.037452914 4281044038
0.0094487369 0.018382877 0.0031858403 4283075879
0.010900319 0.019941717 0.0012986045 4281832754
0.012108769 0.022198625 -0.0012791175 4280333864
0.013771888 0.023057088 -0.0024674255 4280657714
0.015667621 0.023216851 -0.0029623955 4280525368
0.018284902 0.021282278 -0.0013836715 4280133943
0.020674899 0.020047031 -0.00049948506 4280394809
0.023075437 0.018812828 0.00038198568 4281111613
0.025238104 0.018277101 0.00057164207 4281177404
0.02715496 0.018439189 7.1562827e-05 4281177913
0.028818084 0.019298419 -0.0011161827 4281308474
0.031244976 0.018066823 -0.00024122745 4281241153
0.034200374 0.015443124 0.0020037964 4281175363
0.036915228 0.013517626 0.0035577435 4280979269
0.040174421 0.010201313 0.006477667 4280913988
0.045595307 0.0013199523 0.014865413 4281239879
0.054858577 -0.017295234 0.032806288 4281239879
0.0090616494 0.017476402 0.0013579484 4284316198
0.010281168 0.01974076 -0.0012178626 4282487084
0.011484869 0.022003859 -0.0037894826 4281308218
0.012907786 0.023564897 -0.0056658257 4280917558
0.015033122 0.023023397 -0.0054683592 4280591158
0.017644338 0.021081649 -0.003892893 4280720444
0.020271413 0.019141369 -0.0023214854 4281111359
0.022914307 0.017202571 -0.00075415894 4281306433
0.025573056 0.015265174 0.00080914609 4281307708
0.027996767 0.01402875 0.0016814843 4281308474
0.030177528 0.013492577 0.0018649641 4280981054
0.032363553 0.012956917 0.0020472016 4280654399
0.035331141 0.010325409 0.0042825975 4280654398
0.037535559 0.0097915754 0.0044601541 4280849218
0.040537376 0.0071631745 0.0066867806 4281109574
0.045693796 -0.0010484233 0.014370043 4281305414
0.054684199 -0.01902543 0.031585921 4281305414
0.0096629411 0.019548923 -0.0037278142 4283926558
0.011094049 0.021114983 -0.0056031812 4281308474
0.01298422 0.021274172 -0.0060967728 4280980288
0.015111838 0.020730644 -0.0059015341 4281372224
0.017724903 0.018782459 -0.0043314211 4281371969
0.020596525 0.016133353 -0.0020779874 4281306688
0.023489267 0.013486154 0.00017002039 4281371969
0.026155122 0.011542805 0.001726564 4281240644
0.02858619 0.010302559 0.0025937874 4280978248
0.031027783 0.0090633556 0.003458295 4281108043
0.033479922 0.0078251138 0.00432018 4280847178
0.035942573 0.0065879226 0.005179368 4280979524
0.037893366 0.0067533478 0.0046707839 4281109573
0.040635612 0.0048170984 0.0062079411 4281370439
0.045791853 -0.0034209266 0.013871759 4281631559
0.053971607 -0.019355029 0.029004734 4281631559
0.011631429 0.017408893 -0.0046592243 4282550323
0.013763951 0.016863473 -0.0044669751 4281305923
0.015901778 0.016318604 -0.004276026 4280978758
0.018524604 0.014364652 -0.0027133292 4281175874
0.021405764 0.011707552 -0.0004688818 4281241154
0.024308044 0.0090523362 0.0017701387 4281306179
0.026735891 0.0078073516 0.0026348289 4281239879
0.028923877 0.0072672889 0.0028131045 4281238858
0.031117138 0.0067277327 0.0029901192 4281305414
0.033571325 0.0054853261 0.0038481951 4281109573
0.036036033 0.0042439029 0.0047035944 4280979524
0.038250312 0.003706485 0.0048753954 4280913733
0.040997013 0.0017640665 0.006406486 4281304903
0.046688221 -0.0079053417 0.015409458 4281565769
0.054604366 -0.02318725 0.029824786 4281565769
0.014541944 0.012435324 -0.0028494922 4281437758
0.016689973 0.011889122 -0.0026628291 4281110084
0.01980181 0.0085153207 0.00026230887 4281240644
0.022455521 0.0065574795 0.0018121563 4281371203
0.025369976 0.003894493 0.0040415041 4281370948
0.027315348 0.00405889 0.003533911 4281436484
0.029260714 0.0042234138 0.0030264203 4281566279
0.031206056 0.0043880343 0.0025189985 4281501254
0.033662301 0.0031414106 0.0033732913 4281044038
0.036129083 0.0018957257 0.0042249598 4281174599
0.038606368 0.00065111369 0.0050739404 4281239878
0.0421477 -0.0034126267 0.008635249 4280912968
0.048114873 -0.013816811 0.018291008 4281238858
0.054967143 -0.026327878 0.029958308 4281564494
0.015318204 0.007989727 -0.0012443289 4281632324
0.017713197 0.0067327023 -0.0003779009 4281173579
0.020358175 0.004767403 0.0011692643 4281566534
0.022776943 0.0035126209 0.0020296574 4281566023
0.025450965 0.0015500039 0.0035694148 4281697094
0.027398841 0.0017146096 0.0030611698 4281567043
0.029596671 0.0011710003 0.0032336451 4281696839
0.031547155 0.0013360754 0.0027248971 4281566023
0.03426335 -0.00062251836 0.0042539984 4281500233
0.03725322 -0.0032873228 0.0064576119 4281173834
0.040524688 -0.0066576973 0.0093336795 4280716873
0.044875141 -0.012854703 0.014911719 4281239369
0.050602041 -0.022582673 0.023859918 4281631049
-0.022350013 -0.00042009354 0.011148077 4284507704
0.015624907 0.0049505457 -0.0010178853 4282811698
0.018024605 0.0036894754 -0.00015588105 4281304138
0.020434858 0.0024294481 0.00070338696 4281500999
0.022613868 0.0018816963 0.00087889656 4281500489
0.025287082 -8.7581575e-05 0.0024139937 4281566534
0.027976133 -0.002055414 0.0039450452 4281631558
0.030930744 -0.0047323555 0.0061511062 4281697094
0.033654056 -0.0066970065 0.0076733548 4281435463
0.036903225 -0.010080509 0.010546945 4281303883
0.040436428 -0.014171578 0.014090788 4281369418
0.04426153 -0.018969513 0.018302713 4281304138
0.048386484 -0.02447366 0.023180775 4281499724
0.052819185 -0.030683368 0.02872286 4282085714
0.016164448 0.0011886209 -0.000115823 4282222393
0.01857147 -7.6197088e-05 0.00074096583 4281173834
0.020750113 -0.00062634796 0.00091489218 4281369418
0.022934027 -0.0011758879 0.0010874774 4281434699
0.025367465 -0.0024381131 0.001937639 4281500234
0.029045869 -0.0072645023 0.006176075 4281499979
0.033260234 -0.013513215 0.011759939 4281695309
0.037017763 -0.018332608 0.015977874 4281563729
0.040302623 -0.021724075 0.018834051 4281953878
0.013837263 0.00011648983 -0.0014387611 4284247858
0.016235759 -0.0011535659 -0.00058308989 4282285633
0.018408734 -0.0017064735 -0.00040943548 4281304138
0.020587012 -0.0022588521 -0.0002370365 4281107788
0.022770565 -0.0028106347 -6.5978616e-05 4281173069
0.025935477 -0.0062237158 0.0028130226 4281171538
0.030606719 -0.013925903 0.0097449105 4281039704
0.035834603 -0.023053117 0.018013615 4281039704
0.040123336 -0.029315211 0.023563571 4282083163
0.013906118 -0.0022255927 -0.0019051544 4283659064
0.016306665 -0.0034998581 -0.0010532439 4281956683
0.01397456 -0.004571788 -0.0023744479 4282607443
-0.019229323 -0.00079606473 -0.0029796641 4284704564
-0.028383337 -0.005870305 0.020634055 4282601833
-0.026947699 -0.0035638735 0.018019427 4281488248
-0.024647251 -0.0048314556 0.018908706 4282341734
-0.032951415 -0.0056868717 0.018393721 4282077808
-0.032347508 0.00021371245 0.012279438 4279453603
-0.030932583 0.0025248528 0.0096750576 4279388834
-0.029013626 0.0026838556 0.0091720168 4279979924
-0.036686026 -0.0090880916 0.019659575 4282668134
-0.036033474 -0.0031661317 0.013545331 4280307853
-0.033680022 0.0036301762 0.0062422976 4278272189
-0.029863596 0.0039462373 0.0052417442 4278995878
-0.02760385 0.0026664808 0.0061351135 4280242574
-0.039740033 -0.0065555945 0.014810719 4279259549
-0.038761541 -0.0020606816 0.010106405 4278669223
-0.037489958 0.00098717958 0.0068077967 4278668204
-0.036074363 0.0033112988 0.0042127743 4279127204
-0.03450688 0.0049124211 0.0023191944 4279258273
-0.032609418 0.0050694793 0.0018216781 4278601903
-0.030366205 0.0037837699 0.0027160775 4278471853
-0.028463133 0.0039415136 0.0022172481 4278931618
-0.026381843 0.0033783987 0.0024130158 4279260569
-0.040839203 -0.0038350448 0.0094687436 4278931619
-0.039875351 0.00067183375 0.0047779866 4278603434
-0.036559828 0.0031594783 0.001689354 4278536623
-0.034829989 0.0040404573 0.00049608573 4278798763
-0.031040438 0.0043541715 -0.00049750693 4278406063
-0.029320642 0.0052346364 -0.0016879067 4278866085
-0.027250238 0.0046683922 -0.0014909394 4280440198
0.023089446 -0.0058808476 0.00013363175 4279918723
0.026258377 -0.0093046054 0.0030034594 4279523984
0.031425186 -0.018465675 0.011266926 4279392913
0.037158735 -0.02905529 0.020861305 4278999703
-0.040299647 -0.017974429 0.020691138 4282340713
-0.040839836 -0.0061777383 0.0090243611 4280504969
-0.040349752 0.00052347034 0.002253538 4278800548
-0.03893593 0.0028604716 -0.00033139624 4278340529
-0.031540968 0.0042123124 -0.0030087158 4278734760
-0.029826351 0.0050945207 -0.0041961474 4278472619
-0.027939215 0.0052509978 -0.0046907542 4278669988
-0.025511093 0.003231965 -0.0031131282 4279260314
-0.022884108 0.00048942119 -0.00084956177 4282341734
0.018554691 -0.0064072534 -0.0013570711 4279523728
0.020499203 -0.0062432811 -0.0018647015 4279523218
0.022443727 -0.0060791746 -0.0023722276 4279456663
0.026093272 -0.010954253 0.0018395334 4279129499
0.03150326 -0.020863838 0.010756182 4278998428
0.037484825 -0.032205977 0.020999279 4279063964
-0.040059105 -0.012171499 0.012054006 4280635783
-0.040187322 -0.00253243 0.0025143642 4278997408
-0.039414153 0.0027274564 -0.0028432868 4278537898
-0.037856475 0.0043407232 -0.0047246637 4279061669
-0.035808511 0.0037677437 -0.00452541 4279127204
-0.033924617 0.0039236024 -0.0050194263 4278930343
-0.032040574 0.0040795803 -0.0055134036 4278800294
-0.030331135 0.0049635246 -0.006697881 4278537899
-0.0286268 0.0058471784 -0.0078809308 4278538154
-0.026567504 0.0052756593 -0.0076842634 4279063199
0.014042601 -0.0069221109 -0.0028466517 4280441984
0.016680056 -0.0089278892 -0.0013269186 4279523729
0.018391605 -0.0080410391 -0.0025099451 4279063963
0.02057405 -0.0085996315 -0.0023435475 4278997153
0.022521066 -0.0084353089 -0.0028517293 4279194014
0.026414916 -0.014047824 0.0020210873 4278931874
0.031826921 -0.023988016 0.010914499 4278866338
0.037312783 -0.033921845 0.019788731 4279652759
-0.039124794 -0.018923111 0.015758824 4280963713
-0.039549403 -0.0077910125 0.004848469 4280046734
-0.039407276 0.00041007251 -0.003271414 4278865828
-0.038174704 0.0034898296 -0.0065338016 4278472363
-0.03629639 0.0036450922 -0.0070264544 4278603435
-0.03441789 0.0038004965 -0.0075190645 4278799529
-0.031009562 0.0055718049 -0.0098821651 4278271169
-0.027082197 0.0051529408 -0.010176774 4279322789
-0.024658136 0.0031204671 -0.0086077526 4279390364
-0.021847919 -0.0003689453 -0.0056704152 4282013293
0.007841751 -0.0083140209 -0.0031532804 4281357433
0.0093285814 -0.0066996068 -0.0050108964 4279522708
0.011941414 -0.0087142587 -0.0034898324 4279391383
0.01388029 -0.0085511133 -0.0039962502 4278997919
0.016982086 -0.012013979 -0.0011335853 4278801059
0.01869899 -0.011124484 -0.002316379 4279062944
0.020886339 -0.011684857 -0.0021528946 4278931874
0.022597991 -0.010795571 -0.0033341395 4279128734
0.026735684 -0.017149933 0.0021965522 4278866339
0.031903937 -0.02639661 0.010396389 4278866084
0.036892369 -0.03491348 0.017908767 4279194269
-0.038596496 -0.014538601 0.0085502397 4280701574
-0.038917221 -0.0041115656 -0.001629835 4279325083
-0.038164817 0.0011773631 -0.0069592725 4278472363
-0.036450438 0.002065748 -0.0081420764 4278340784
-0.034741171 0.0029538646 -0.0093234982 4278865064
-0.031512283 0.0054613426 -0.012369419 4279258018
-0.02759593 0.0050393268 -0.01266278 4278930088
-0.025177933 0.0029997453 -0.011097051 4278931109
-0.022744 0.00096162409 -0.0095354728 4280112269
0.0010168552 -0.0075116083 -0.0054914011 4282472038
0.0027256161 -0.0066214874 -0.0066711055 4280767363
0.0050866678 -0.007917285 -0.0058223186 4280111504
0.0072365366 -0.0084837973 -0.0056511639 4279128478
0.0093917102 -0.0090497062 -0.005481354 4279128733
0.011779286 -0.010342918 -0.0046392353 4278997919
0.013947748 -0.010907486 -0.0044726552 4278997919
0.016586207 -0.012926325 -0.0029629702 4278866594
0.018770527 -0.013489269 -0.0028003948 4279063199
0.021435415 -0.015505664 -0.0012973677 4278931874
0.023395324 -0.015340261 -0.0018089134 4278931109
0.026812688 -0.019534014 0.0016965289 4278603944
0.031735003 -0.028082974 0.0092066061 4278931619
0.036224231 -0.035174228 0.015364025 4281029503
-0.037804872 -0.020581134 0.01154037 4280767109
-0.038106911 -0.010121837 0.0013780575 4280504969
-0.037828125 -0.0026099458 -0.0060104523 4278867104
-0.036770687 0.0012218952 -0.0099454373 4278733993
-0.03523282 0.0028468594 -0.011811778 4278405809
-0.033533819 0.0037363619 -0.012988778 4279323809
-0.032014094 0.0053601041 -0.014850235 4278996643
-0.029974446 0.0047801882 -0.014653414 4278996389
-0.025696829 0.002888225 -0.013579927 4278472364
-0.023453631 0.0015765801 -0.012704665 4278866084
-0.02082514 -0.0012008101 -0.010467367 4279521434
-0.0082651228 -0.0046482757 -0.0093667954 4282340969
-0.006358739 -0.0044889823 -0.0098655485 4281095549
-0.0036186688 -0.00725618 -0.0076567279 4279588244
-0.0012794957 -0.0085585788 -0.0068057375 4279326104
0.00085661188 -0.0091287941 -0.0066329436 4279326104
0.0027817525 -0.0089674443 -0.0071362453 4279128733
0.005144868 -0.010267518 -0.0062912041 4278866848
0.0075185746 -0.011566542 -0.0054488955 4278735268
0.0094544366 -0.011403926 -0.005954721 4278735524
0.011617195 -0.011971265 -0.0057884166 4278932129
0.013785284 -0.012538068 -0.0056233676 4278997664
0.016422927 -0.014563553 -0.0041183243 4278997919
0.019076439 -0.016587637 -0.0026172893 4279063454
0.021508364 -0.017880991 -0.001789609 4278997664
0.023710817 -0.018444411 -0.0016331766 4278866338
0.027131977 -0.022651024 0.0018615518 4278866338
0.031811409 -0.030497558 0.0086842794 4279194268
0.036052942 -0.036882438 0.014158882 4281946738
-0.037173897 -0.025911897 0.01382345 4280898178
-0.037299134 -0.016158342 0.0043673366 4280570759
-0.037492663 -0.0064102858 -0.0050707674 4279784084
-0.036924422 -0.00035464019 -0.011059094 4278735013
-0.032341056 0.0045312345 -0.016640296 4278340783
-0.026032977 0.0020497814 -0.015374091 4278668969
-0.024161898 0.0022051558 -0.015864318 4278604199
-0.021355234 -0.0013174266 -0.012950316 4280046223
-0.01184012 -0.0080371723 -0.008143534 4282208113
-0.010129072 -0.0071432069 -0.0093211392 4280439689
-0.008017391 -0.0077181533 -0.0091439309 4279587988
-0.0061058775 -0.0075584427 -0.0096440399 4279914898
-0.0035697371 -0.0096002072 -0.0081181144 4279521944
-0.0014393404 -0.010173224 -0.0079455385 4278932894
0.0011233278 -0.012212537 -0.0064263726 4279129499
0.0030535944 -0.01205077 -0.0069310209 4279194524
0.0054213852 -0.013354801 -0.0060905004 4279259804
0.0071356781 -0.012459569 -0.0072682211 4278735268
0.0095167533 -0.013762265 -0.0064309919 4278931873
0.011681791 -0.014331646 -0.0062668594 4278800804
0.014539961 -0.017096683 -0.0040946994 4278866594
0.016955441 -0.018396117 -0.0032661166 4278932384
0.019616049 -0.020426176 -0.0017717872 4279456409
0.022055293 -0.021723323 -0.00094927661 4279390874
0.024744932 -0.023750678 0.00053765811 4279521434
0.027935334 -0.027238503 0.003353266 4280569993
0.031642303 -0.032185487 0.0074933935 4282077808
-0.037018716 -0.029043771 0.014030486 4281291389
-0.03665442 -0.021481089 0.0066518951 4280766853
-0.036832117 -0.011703216 -0.0027693259 4280112269
-0.036580704 -0.0041496456 -0.010118147 4279062688
-0.035708055 0.00044222921 -0.014716687 4278734759
-0.02859477 0.0025380626 -0.018038072 4278800549
-0.02636864 0.001216054 -0.017164929 4278669224
-0.024131864 -0.00010491163 -0.016294532 4278604199
-0.021323778 -0.0036383644 -0.013389016 4279390364
-0.018868238 -0.0056943148 -0.011847487 4280635273
-0.016396772 -0.007748805 -0.010310052 4281486973
-0.014298931 -0.0083274841 -0.010131123 4281290113
-0.011998303 -0.009642534 -0.0092770075 4279259293
-0.010487236 -0.0080096498 -0.011128835 4279193503
-0.0081758648 -0.0093235597 -0.010277354 4279127968
-0.0060591772 -0.0099001601 -0.010102999 4279259804
-0.0035211965 -0.011948369 -0.0085824216 4279128989
-0.0013885349 -0.012523398 -0.0084120678 4278997919
0.00074947998 -0.013097838 -0.0082430029 4278997919
0.0033245832 -0.015142567 -0.006731865 4278932894
0.0054785423 -0.01571545 -0.0065667974 4279259549
0.0078589916 -0.017022729 -0.0057326909 4278800293
0.010026239 -0.017594226 -0.0055709053 4279193503
0.012651663 -0.019634232 -0.0040725376 4279456154
0.015521992 -0.022407062 -0.0019099843 4279522709
0.01771836 -0.022975728 -0.0017555263 4281226364
0.020388681 -0.025011517 -0.00026864745 4282274159
0.02307486 -0.027045868 0.0012142453 4282732904
-0.036011793 -0.026825689 0.0089210067 4281094784
-0.036173657 -0.01701799 -0.00048332475 4280767109
-0.036238216 -0.0079576299 -0.0091863712 4279784084
-0.035524733 -0.0026102439 -0.014460165 4278473384
-0.034335442 0.0005101338 -0.017678663 4278473383
-0.032646589 0.0014054328 -0.018848108 4278931364
-0.030434504 7.7679753e-05 -0.017974742 4278931618
-0.028569244 0.00023231655 -0.018463636 4279062433
-0.026159674 -0.0018343851 -0.016915187 4278931364
-0.023918189 -0.0031593964 -0.016049234 4278275504
-0.021292724 -0.0059634447 -0.013830628 4278471853
-0.019213922 -0.0065461993 -0.013648486 4278931109
-0.016937815 -0.0078679174 -0.012791369 4278931618
-0.014651049 -0.0091886893 -0.011936924 4278866849
-0.012550831 -0.009769246 -0.011760156 4278997919
-0.010645084 -0.0096102878 -0.012258948 4278735779
-0.0085367635 -0.010189928 -0.012084126 4278538919
-0.0060128607 -0.012246042 -0.010564831 4279194268
-0.0036808029 -0.013562359 -0.0097218128 4279063198
-0.0013381317 -0.014877699 -0.0088815028 4278932894
0.0010151677 -0.016192034 -0.0080438228 4278932894
0.0033790842 -0.017505325 -0.007208867 4279194524
0.0053170174 -0.017342806 -0.0077154394 4279652759
0.0079177991 -0.019391708 -0.0062156785 4279259038
0.010534447 -0.02143918 -0.0047199856 4279782553
0.013619356 -0.02495864 -0.0018936191 4280961928
0.016730679 -0.028475739 0.00092594512 4282011254
-0.035851575 -0.029958792 0.0091255773 4281225853
-0.035680041 -0.021610342 0.0011049174 4280767364
-0.035731636 -0.012522615 -0.007582129 4280177293
-0.035174236 -0.0064150915 -0.013528669 4279718294
-0.034317575 -0.0017980859 -0.018103581 4278474148
-0.027829938 -0.005049251 -0.016179187 4278407339
-0.025770344 -0.0056361109 -0.015993945 4278538408
-0.023153916 -0.0084498748 -0.013779513 4278669733
-0.01899191 -0.0096194223 -0.013419789 4278669479
-0.017286245 -0.0087197348 -0.014591427 4278866339
-0.014808346 -0.010786764 -0.013065315 4278735524
-0.012708485 -0.011369541 -0.012890073 4278866849
-0.010603271 -0.011951782 -0.012716164 4278866849
-0.0084926859 -0.012533419 -0.012543549 4278735524
-0.0059669502 -0.014595978 -0.011029599 4278801314
-0.0034253225 -0.016657025 -0.0095197493 4278932128
-0.0010779537 -0.017976403 -0.0086838696 4279195034
0.00085442886 -0.017814592 -0.009189168 4279063963
0.0032177493 -0.019132331 -0.0083573032 4279325594
0.0055916794 -0.020449087 -0.0075280722 4280176273
-0.035188109 -0.026220135 0.0026808437 4281553529
-0.03522671 -0.017104961 -0.0059902221 4280963714
-0.034992762 -0.0094869211 -0.013285828 4280504713
-0.03378883 -0.0063478053 -0.016495226 4278866339
-0.032086648 -0.0054470375 -0.017664945 4278538663
-0.029862523 -0.0067826435 -0.016801197 4278407594
-0.027806051 -0.0073720887 -0.016616844 4278800549
-0.025382288 -0.0094507709 -0.015081911 4278931618
-0.022942543 -0.01152806 -0.013551039 4278866339
-0.021045551 -0.01137045 -0.014047994 4278931874
-0.019148432 -0.011212721 -0.014544911 4278473128
-0.017442685 -0.010310844 -0.015714958 4278801059
-0.01496559 -0.012384526 -0.014193502 4278801569
-0.01286611 -0.012969568 -0.014019796 4278604708
-0.010362454 -0.015040755 -0.012505161 4278735524
-0.008246962 -0.015624262 -0.012335429 4279324828
-0.0059214309 -0.016950049 -0.011497291 4279390619
-0.0033779703 -0.019017585 -0.0099927504 4279718804
-0.0010285676 -0.020341136 -0.0091606844 4281486464
0.0015440434 -0.022405989 -0.0076635759 4282926449
-0.034860134 -0.030098662 0.0035652462 4282274669
-0.034888394 -0.020956323 -0.0050891154 4280832643
-0.034644529 -0.013315529 -0.012371133 4280308108
-0.033602171 -0.0094189569 -0.016253484 4278931873
-0.031894647 -0.0085155591 -0.017423 4278997664
-0.029665835 -0.0098551512 -0.016563773 4278669734
-0.027604453 -0.010446377 -0.016382331 4278342059
-0.025537662 -0.011037052 -0.016202223 4278735269
-0.023282096 -0.012374118 -0.015349708 4278931874
-0.021201879 -0.012963429 -0.015172943 4278735524
-0.018738978 -0.015045159 -0.013652824 4278801314
-0.016833991 -0.014886662 -0.014151712 4278669989
-0.014541067 -0.01622007 -0.013308654 4278669989
-0.01243405 -0.016806677 -0.013138553 4278932128
-0.0099232867 -0.018883921 -0.011630604 4279390874
-0.0075984448 -0.020214289 -0.010795621 4279980179
-0.005262956 -0.021543704 -0.0099633057 4281681794
-0.0027097575 -0.023617022 -0.0084661748 4283120504
-0.03488078 -0.023319341 -0.0055511557 4281553273
-0.034632266 -0.015656233 -0.012818217 4280439178
-0.033416331 -0.01249861 -0.016017837 4279128479
-0.031703465 -0.011592597 -0.017187141 4278735268
-0.029645212 -0.01218643 -0.0170066 4278735524
-0.027581565 -0.012779698 -0.016827386 4278801059
-0.025512487 -0.013372429 -0.016649462 4278801314
-0.023438022 -0.013964549 -0.016472904 4278734503
-0.021172382 -0.015304998 -0.015626224 4278865829
-0.018519223 -0.018141828 -0.013440689 4279127968
-0.016226981 -0.019479871 -0.012600755 4279652758
-0.013924107 -0.020816833 -0.011763541 4280568973
-0.011610582 -0.022152811 -0.010929042 4282074238
-0.03487353 -0.02568648 -0.0060161185 4282470764
-0.034453236 -0.018753745 -0.012593465 4280374154
-0.033231311 -0.015586868 -0.015788186 4278932638
-0.031685516 -0.013925992 -0.017630663 4278736289
-0.029624991 -0.014521845 -0.017452348 4278538663
-0.027203716 -0.016620673 -0.015931401 4278735524
-0.025127098 -0.017214939 -0.015757117 4278669989
-0.022679217 -0.019311339 -0.014242975 4279456154
-0.02058655 -0.019904025 -0.014072722 4279390109
-0.017923869 -0.022748858 -0.011896169 4280175253
-0.03427501 -0.021859758 -0.012374794 4280701574
-0.033047125 -0.018683635 -0.015564626 4278997153
-0.031151384 -0.01852677 -0.016061736 4278800803
-0.029255494 -0.018369786 -0.016558796 4278931873
-0.026472203 -0.021982573 -0.013703791 4279259804
-0.024022609 -0.024085529 -0.012195041 4279456409
-0.033764213 -0.026488476 -0.010818938 4281750389
-0.032355733 -0.024059497 -0.013334362 4279980178
-0.030446962 -0.023901574 -0.013834884 4280111504
-0.028014243 -0.026012771 -0.012326768 4281028484
-0.02538833 -0.028878689 -0.010153884 4282076024
-0.031497322 -0.03021621 -0.010450149 4282208369
-0.029229395 -0.031574704 -0.0096174544 4282535533
0.016072638 -0.039479338 -0.013401784 4282929254
0.018270498 -0.040069707 -0.013263822 4282076023
-0.039349295 -0.034846425 -0.010044257 4282733159
0.020073952 -0.041554593 -0.01494256 4281748858
0.021805022 -0.040630735 -0.016104586 4282863974
-0.028437383 -0.037971914 -0.017162431 4282601069
-0.030859686 -0.038200974 -0.019116629 4282798694
-0.033437781 -0.037645355 -0.021725651 4282667623
-0.0077880733 -0.038667724 -0.025635537 4282928743
-0.038224541 -0.035677515 -0.025146794 4282143089
-0.035998322 -0.037074797 -0.02432923 4282667879
-0.0085520186 -0.037957504 -0.028716877 4282601068
-0.022654578 -0.038344853 -0.028296083 4282405229
-0.0089118406 -0.038785905 -0.03049605 4282470253
-0.02507665 -0.03854049 -0.030225694 4282601834
0.0042570904 0.0098920837 0.030702334 4285425448
0.0062349811 0.010057837 0.030185234 4285163818
-0.0040918291 0.015322044 0.023282658 4284901424
-0.002972573 0.018244751 0.019940931 4285558049
-0.0012445338 0.01909665 0.018726792 4285951003
0.0015411973 0.016500793 0.02104729 4285951259
0.0041329153 0.014596097 0.022656322 4285820189
-0.0089191347 0.0090353787 0.027909059 4285295398
-0.0081502721 0.013356186 0.023144037 4285493279
-0.007412944 0.017674454 0.01838734 4285559068
-0.006298326 0.020605467 0.01505325 4285624604
-0.0047905743 0.022150535 0.013137618 4285623583
-0.0024544075 0.020927057 0.014047887 4285623584
0.00010475889 0.019012913 0.015660472 4285754908
0.0028948523 0.016408689 0.017973378 4285689628
0.0044003315 0.01795394 0.016058691 4285427744
-0.018235724 0.011600606 0.023824867 4285164583
-0.017609727 0.016633943 0.018347617 4285623839
-0.015683409 0.016794413 0.017843295 4285819933
-0.012982301 0.014173113 0.020172361 4285951514
-0.010848854 0.013639443 0.020372991 4285558558
-0.0095057376 0.015886448 0.0177445 4285558813
-0.0083799139 0.018827088 0.014413889 4285558558
-0.0072750971 0.021766063 0.011088852 4285886998
-0.0057775714 0.023314632 0.0091791805 4285820953
-0.0036620349 0.022779979 0.0093848724 4285820444
-0.0006925799 0.019470155 0.012403248 4285886233
0.0018738024 0.017550081 0.014009122 4285886744
0.0038038678 0.0177119 0.013504578 4285493279
0.0052938983 0.019260347 0.011597244 4284969509
-0.021255463 0.013294481 0.019630309 4285164839
-0.020622946 0.018343657 0.014162637 4285558814
-0.019274555 0.020597272 0.011537317 4285623584
-0.016987868 0.01936014 0.012453433 4285689374
-0.01411017 0.016030885 0.015487146 4285886743
-0.011794187 0.014796406 0.016395744 4285624093
-0.010461085 0.017049156 0.013774727 4285624093
-0.0093450621 0.019997768 0.010453178 4285558813
-0.0080460608 0.022247922 0.0078411959 4285624093
-0.006349504 0.023103643 0.0066400506 4285821464
-0.0040303059 0.02186989 0.0075482298 4285821208
-0.0014885589 0.019941039 0.0091555864 4285755674
0.0010691285 0.018013582 0.010758894 4285624349
0.0029911473 0.018174715 0.010256441 4285624859
0.0046934001 0.019031435 0.009054197 4285493534
0.0068353899 0.018497311 0.0092517231 4285429529
-0.023886144 0.013611227 0.016862024 4285296163
-0.02269382 0.016574271 0.013526455 4285624859
-0.021337129 0.01883506 0.010903744 4285689628
-0.019808203 0.020394348 0.0089917574 4285557794
-0.017717913 0.019852422 0.009200247 4285558049
-0.015235782 0.017911203 0.01081782 4285689374
-0.012541838 0.015271701 0.013135787 4285755419
-0.011017635 0.016830996 0.011225333 4285624093
-0.0093027279 0.017690234 0.010020852 4285624604
-0.0080005415 0.019947194 0.0074129365 4285558813
-0.0058884323 0.019407712 0.0076161716 4285558558
-0.0041890405 0.020265974 0.0064159799 4285624094
-0.0016480833 0.018330418 0.0080186557 4285623839
0.00026581436 0.018490747 0.0075182356 4285623838
0.0021797791 0.018651195 0.0070178863 4285689884
0.0038742125 0.019509457 0.0058192965 4285558558
0.0062301792 0.018274933 0.0067149457 4285034278
-0.024584413 0.014102131 0.013597542 4285361189
-0.023581699 0.01777637 0.0095639396 4285559069
-0.022049941 0.01934012 0.0076544117 4285952788
-0.020340882 0.020200521 0.0064526815 4285886998
-0.018065877 0.018953554 0.0073653143 4285952279
-0.015587159 0.017005414 0.0089788903 4285887254
-0.013288133 0.015760653 0.0098853912 4285624093
-0.011374973 0.015920289 0.0093846973 4285624603
-0.0096626058 0.016781479 0.0081824772 4285559068
-0.0075483099 0.016239867 0.0083834324 4285558813
-0.0058410168 0.017100848 0.0071826968 4285559068
-0.0041388981 0.01796151 0.0059834067 4285558813
-0.0022305027 0.018121265 0.005484337 4285690139
-0.00032202154 0.018281125 0.0049853269 4285755673
0.0015865453 0.018441103 0.0044863764 4286083093
0.0034951754 0.018601187 0.0039874818 4286016793
0.0056259036 0.01806169 0.0041846819 4285951769
0.007986635 0.016823262 0.0050759073 4285295908
-0.024103306 0.017586015 0.0070238467 4285427489
-0.022761397 0.01985877 0.0044146683 4285624348
-0.020872645 0.020015933 0.0039200392 4285689884
-0.018603459 0.018764004 0.0048309732 4285624093
-0.016323596 0.017513119 0.005739145 4285624094
-0.014033038 0.016263187 0.0066446401 4285623839
-0.01192987 0.015718192 0.0068466961 4285624093
-0.0098213106 0.015173763 0.007047426 4285624093
-0.0077073574 0.014629908 0.0072468314 4285624348
-0.0057939962 0.014789827 0.006746294 4285558813
-0.0045063719 0.017058969 0.0041520689 4285559069
-0.0028120093 0.017921314 0.0029564481 4285689883
-0.0013367161 0.019485891 0.0010657851 4285820699
0.00077768415 0.018942595 0.001265455 4285754653
0.0026782677 0.019102 0.0007686615 4285754909
0.0052443594 0.017155699 0.0023553539 4285885979
0.0071529821 0.017315991 0.0018566158 4285492768
-0.023713939 0.01386755 0.008006515 4285361443
-0.022917524 0.018269323 0.0032922626 4285493533
-0.021028899 0.018426433 0.002797639 4285559069
-0.018570356 0.016463257 0.0044066384 4285558813
-0.016673539 0.016621254 0.0039100256 4285624093
-0.014971785 0.017485723 0.0027136616 4285755419
-0.012681685 0.016231477 0.0036160368 4285886744
-0.010581389 0.015684135 0.0038172938 4285821208
-0.0084756874 0.015137315 0.0040172562 4285624093
-0.0067761466 0.016002066 0.0028217379 4285558814
-0.0054985508 0.01827696 0.00023500621 4285558814
-0.0040256828 0.019845657 -0.0016519148 4285821463
-0.0025632828 0.021413527 -0.0035359859 4285820954
-0.00046242774 0.020866878 -0.0033343965 4285623329
0.0016437769 0.020320795 -0.0031341342 4285623584
0.0044201091 0.017662801 -0.00085645355 4285623838
0.0065449066 0.017118476 -0.00066088699 4285624349
0.0082212985 0.017982125 -0.0018496644 4285099814
-0.022335872 0.013842322 0.0049740598 4285427744
-0.020998023 0.016128011 0.0023757443 4285493788
-0.018917032 0.015576385 0.0025801472 4285624348
-0.017407671 0.017151751 0.0006863568 4285624349
-0.015713766 0.018017739 -0.00050635822 4285886743
-0.014024992 0.018883422 -0.0016976334 4285886743
-0.011540357 0.016916245 -0.00010009483 4286018068
-0.0096484758 0.017074242 -0.00059511326 4285886999
-0.0075509474 0.01652462 -0.0003945753 4285624094
-0.00628075 0.018805526 -0.002974553 4285558814
-0.0046046749 0.019670673 -0.0041621216 4285624349
-0.0033607036 0.021949612 -0.0067350715 4285953043
-0.0014842078 0.022106852 -0.0072256746 4285887253
0.00061108917 0.021557644 -0.0070241839 4285887254
0.0035972185 0.018183492 -0.0040586628 4285887763
0.0057137571 0.017636232 -0.0038625225 4285690139
0.0076089688 0.017795503 -0.0043576788 4285493533
0.0095042177 0.017954871 -0.0048527792 4285231138
-0.022124313 0.010821208 0.0052446704 4285228844
-0.021341227 0.015248351 0.00055344589 4285362208
-0.019642204 0.016116731 -0.00063915178 4285624604
-0.018332582 0.018406861 -0.0032250676 4285755673
-0.016843893 0.019984961 -0.0051100887 4285623584
-0.014970832 0.020141155 -0.0056003537 4285557794
-0.012697574 0.018876761 -0.0047000125 4285689374
-0.010210969 0.016903199 -0.0031077452 4285689628
-0.0081190765 0.016350932 -0.0029074121 4285689884
-0.0064377114 0.017218612 -0.0040948186 4285624349
-0.0049721412 0.018795423 -0.0059733158 4285558813
-0.0037302822 0.02108077 -0.0085408576 4285624349
-0.0020724311 0.021946803 -0.0097218789 4285624349
0.00045425817 0.019977294 -0.0081396494 4285558558
0.002996847 0.018009178 -0.0065614618 4285493278
0.0053315312 0.016750932 -0.0056764446 4285493789
0.0074504092 0.016201772 -0.0054824613 4285427998
0.010032728 0.014237389 -0.003914441 4285296163
0.012167521 0.013689794 -0.0037244549 4285165859
-0.021729596 0.0070776567 0.0062070247 4285031984
-0.020366028 0.016670689 -0.0038488433 4285427744
-0.019063771 0.018966742 -0.0064279344 4285821974
-0.017582696 0.020548634 -0.0083077643 4285755928
-0.015717674 0.020704135 -0.008795945 4285689628
-0.013652727 0.020147189 -0.0085903574 4285755673
-0.010975 0.017453723 -0.0063069724 4285821974
-0.0086862706 0.016186364 -0.0054137409 4285624348
-0.0068023689 0.016343892 -0.0059065316 4285558814
-0.0049183778 0.016501524 -0.0063992757 4285559069
-0.0034603439 0.018082254 -0.0082725137 4285559068
-0.0015814751 0.018239677 -0.0087637473 4285559068
0.00073405355 0.016975142 -0.0078771021 4285493278
0.0032811202 0.01500085 -0.0063050017 4285493279
0.0056205168 0.01373852 -0.0054244353 4285559068
0.0077443048 0.013187632 -0.0052334024 4285492514
0.010331109 0.011216961 -0.00367139 4285360678
0.012933783 0.0092477873 -0.0021134811 4285230628
-0.021519892 0.0040371642 0.0064639393 4285098029
-0.021280512 0.010639608 -0.00029870868 4285294378
-0.020710349 0.015806891 -0.0056590699 4285427489
-0.01941023 0.018109396 -0.0082327873 4285558814
-0.018320125 0.021125883 -0.011495797 4285755673
-0.01626619 0.020565689 -0.011289045 4285755928
-0.014206864 0.020006053 -0.011083622 4285755929
-0.01133319 0.016588666 -0.0081136432 4285558558
-0.009047661 0.015316643 -0.0072228238 4285558813
-0.0065439828 0.01333154 -0.0056446726 4285559068
-0.0044447035 0.012775682 -0.0054493742 4285559068
-0.0025528483 0.012934081 -0.0059440853 4285625114
-0.00087635219 0.01380606 -0.0071267476 4285690904
0.0018852949 0.011111461 -0.0048713321 4285756183
0.0042266995 0.00984478 -0.0039946353 4285624348
0.0068020448 0.0078663751 -0.0024347054 4285558813
0.0087153167 0.0080271438 -0.0029345965 4285493023
0.011085901 0.0067632645 -0.002065259 4285164074
0.0132358 0.0062125847 -0.0018825084 4284969508
-0.023052193 0.00010992587 0.0079137217 4284900914
-0.02112744 0.00026981533 0.0074094702 4285097518
-0.020692118 0.006174691 0.0013529323 4285294889
-0.020110026 0.011358351 -0.0039992006 4285493278
-0.019373238 0.015821353 -0.0086489171 4285361954
-0.018279761 0.018846937 -0.011906389 4285493534
-0.01642029 0.019001953 -0.012393136 4285493278
-0.014161918 0.017723069 -0.011498667 4285558814
-0.011286844 0.014294781 -0.0085371947 4285559069
-0.0089992546 0.013018511 -0.0076501714 4285493024
-0.0062864311 0.010310553 -0.0053888308 4285492514
-0.0041822232 0.0097529143 -0.00519644 4285558558
-0.0020726547 0.0091958269 -0.0050053848 4285492258
4.2255968e-05 0.0086392835 -0.0048156371 4285426468
0.0023803785 0.0073678195 -0.0039414102 4285426468
0.0049495995 0.0053821653 -0.0023848498 4285426213
0.00731159 0.0041129366 -0.0015166886 4285361189
0.0092326365 0.0042743459 -0.0020186193 4285361189
0.01138214 0.0037213117 -0.0018374734 4285098793
-0.019145392 0.012809336 -0.0083769402 4285098283
-0.017852016 0.015124537 -0.010939101 4285427744
-0.015984759 0.015280172 -0.011427905 4285427743
-0.013519876 0.013278224 -0.0098495558 4285493024
-0.010837279 0.010558702 -0.0075869774 4285624348
-0.0083379149 0.0085598528 -0.0060174922 4285492514
-0.0056155473 0.0058438852 -0.0037651481 4285426468
-0.0032914355 0.0045665354 -0.0028908057 4285426469
-0.0011690408 0.0040083006 -0.0027047358 4285360679
0.00095871463 0.0034506544 -0.0025199689 4285360679
0.0033094473 0.0021758303 -0.0016522948 4285426468
0.005230248 0.0023369789 -0.0021543354 4285426724
0.0075969249 0.0010637864 -0.0012906902 4285426468
0.0095231161 0.0012256131 -0.0017939731 4285361189
0.011677526 0.00067079812 -0.0016157329 4285098283
-0.018727325 0.0090665966 -0.0074214553 4285098284
-0.017231841 0.010667212 -0.0092921285 4285427233
-0.015354175 0.010823697 -0.0097836675 4285559069
-0.012879543 0.0088159367 -0.0082127647 4285558558
-0.010388985 0.0068096295 -0.0066459375 4285492259
-0.0078825094 0.0048048049 -0.0050832378 4285492259
-0.0057738163 0.0042429492 -0.0048953407 4285426724
-0.0034502819 0.0029611439 -0.0040240996 4285360933
-0.0013282448 0.0024006739 -0.0038395673 4285426724
0.0010139234 0.0011206195 -0.002972981 4285426723
0.0031492971 0.00056149811 -0.0027917624 4285361188
0.0050699562 0.00072265416 -0.0032937601 4285492769
0.0074360482 -0.000555031 -0.0024332292 4285557794
0.0093620904 -0.00039319694 -0.0029364675 4285360679
0.011744116 -0.0016693249 -0.0020798631 4285163563
-0.018310513 0.005310908 -0.0064751944 4285229609
-0.016806819 0.0069165379 -0.0083447499 4285427234
-0.014725283 0.0063497797 -0.0081517668 4285558559
-0.012439623 0.0050598979 -0.0072741648 4285492513
-0.010143317 0.0037710518 -0.0063993149 4285426724
-0.0076323599 0.0017599389 -0.0048426278 4285361188
-0.0057254061 0.0019193217 -0.0053415 4285361188
-0.0031905323 -8.9511275e-05 -0.0037909392 4285426724
-0.00085165724 -0.0013743639 -0.0029268339 4285426723
0.0014978349 -0.0026581809 -0.0020654686 4285426978
0.0038579553 -0.0039410144 -0.001206737 4285426723
0.0055691861 -0.003057085 -0.0023918841 4285492259
0.0079426169 -0.004338555 -0.001536455 4285557794
0.0096513256 -0.0034546629 -0.0027207322 4285294634
0.011810288 -0.0040135086 -0.0025469437 4285031984
-0.018085565 0.0022687167 -0.0062244646 4285164329
-0.016576301 0.0038792342 -0.0080922898 4285229609
-0.014489844 0.0033106357 -0.0079021771 4285493023
-0.012199499 0.002016753 -0.007029118 4285426723
-0.010300785 0.002175197 -0.0075260215 4285361189
-0.0079943947 0.000882864 -0.0066569299 4285361188
-0.0060902238 0.0010420009 -0.0071550868 4285361188
-0.0035587922 -0.00097371638 -0.0056084879 4285426979
-0.0012231283 -0.002263248 -0.004746791 4285361188
0.0011231378 -0.0035517365 -0.0038878359 4285426723
0.0036970042 -0.005563587 -0.0023520254 4285360679
0.0056279302 -0.0054016188 -0.0028567426 4285360679
0.0080033988 -0.0066872835 -0.002005144 4285229098
-0.017861433 -0.00078199059 -0.0059798304 4285164584
-0.0163466 0.00083331764 -0.0078458469 4285294634
-0.014450889 0.0009912625 -0.0083421394 4285426724
-0.012158476 -0.00030684471 -0.0074728709 4285426979
-0.010257274 -0.00014820695 -0.00797043 4285492003
-0.0083559677 1.0564923e-05 -0.0084679276 4285360933
-0.0062483586 -0.00055802613 -0.0082846507 4285360678
-0.0035088882 -0.0033076257 -0.0060627237 4285163564
-0.00095970184 -0.0053283721 -0.004525505 4285163309
-0.018208623 -0.0016483814 -0.0077910479 4284901423
-0.016310528 -0.0014903769 -0.0082880687 4285163564
-0.014412314 -0.0013322309 -0.0087850243 4285426469
-0.011919759 -0.0033649132 -0.0072383042 4285360933
-0.010214139 -0.0024757907 -0.008417733 4285426468
-0.0083103366 -0.0023168102 -0.0089158826 4285360424
-0.014374137 -0.0036598518 -0.0092308242 4284901424
