# .PCD v0.7 - Point Cloud Data file format
VERSION 0.7
FIELDS x y z rgba
SIZE 4 4 4 4
TYPE F F F U
COUNT 1 1 1 1
WIDTH 832
HEIGHT 1
VIEWPOINT 0 0 0 1 0 0 0
POINTS 832
DATA ascii
-0.023484789 -0.030306369 0.020739753 4287837493
-0.023624308 -0.031960472 0.019517241 4287576118
-0.022036612 -0.029567413 0.017061736 4286463809
-0.023763791 -0.033614293 0.018294958 4287707699
-0.022175685 -0.031214692 0.015844319 4287053878
-0.020750511 -0.028063282 0.012724668 4286398273
-0.02404476 -0.03451249 0.016400924 4287248954
-0.02231472 -0.032861665 0.014627116 4286790973
-0.020888951 -0.029701568 0.01151393 4286660158
-0.019484397 -0.02654282 0.0084053688 4286528578
-0.024325326 -0.035406008 0.014510343 4286528068
-0.02245371 -0.03450834 0.013410134 4286397763
-0.020587303 -0.033610865 0.012311099 4286529343
-0.019174151 -0.030442908 0.0092073418 4287052603
-0.017782234 -0.027276248 0.006108176 4286528834
-0.02101922 -0.033736475 0.0097607616 4287117118
-0.019312479 -0.0320784 0.0079986993 4287118139
-0.017616306 -0.03042087 0.0062389486 4286790973
-0.016239684 -0.027246505 0.003149732 4286462788
-0.021450348 -0.033853054 0.0072170962 4286528068
-0.019450776 -0.033713579 0.0067902822 4286463809
-0.017602734 -0.032812804 0.0056986455 4286595134
-0.016068548 -0.030390516 0.0032796627 4286660158
-0.014707245 -0.027208447 0.00020038988 4286593604
-0.017892424 -0.033682242 0.0038288413 4286528834
-0.016052235 -0.03277979 0.0027406542 4286725183
-0.01468768 -0.029588826 -0.00033270288 4286986814
-0.018332981 -0.033781543 0.0013008406 4286528324
-0.016498104 -0.032877326 0.00021542143 4286594114
-0.015138306 -0.029678032 -0.0028503323 4286528833
-0.013321899 -0.028774798 -0.0039316569 4286463299
-0.013617948 -0.029620245 -0.005781495 4286398019
-0.011971179 -0.027948424 -0.0075171078 4286987069
-0.010006137 -0.027810633 -0.007935998 4286855998
-0.011946127 -0.030323207 -0.008047414 4286724163
-0.0098143369 -0.030954123 -0.0078112604 4287052859
-0.011921413 -0.032702073 -0.0085807228 4286921024
-0.0094591826 -0.034877151 -0.0070387358 4287576118
-0.0074810609 -0.034738302 -0.007460312 4287248953
-0.012219444 -0.033538118 -0.010422879 4287246403
-0.0097606033 -0.035719946 -0.0088851238 4287116608
0.032926962 -0.033420995 0.053441957 4284574768
0.012746897 0.013978243 0.0062588453 4282616878
0.016895805 0.0062115639 0.013372226 4282423079
0.02374324 -0.010890186 0.029361093 4281636149
0.030101705 -0.025828093 0.043273486 4281571124
0.034488332 -0.033577546 0.050336622 4281242683
0.0069909059 0.018602312 -0.00024959259 4284187168
0.0087165255 0.019459441 -0.0013417527 4282159664
0.01023927 0.02103731 -0.0031159278 4280724524
0.013352942 0.016848177 0.00057338364 4280590903
0.018933073 0.0040142983 0.012440713 4280655673
0.026048152 -0.013855539 0.029058283 4280395319
0.032047495 -0.027394451 0.041561916 4280199478
0.036461249 -0.035165787 0.048601158 4279414333
0.03943887 -0.037893951 0.050869465 4282476629
0.0047459751 0.017617516 -0.0016860366 4282616879
0.0064716078 0.01847674 -0.0027766754 4281832754
0.0074132606 0.022229098 -0.006594684 4281570103
0.0087229051 0.024533309 -0.0090437364 4281502273
0.011016563 0.023221672 -0.008084232 4281567553
0.015347708 0.014682993 -0.00032236893 4281047353
0.021591097 -0.00035434961 0.013544895 4280135728
0.02794666 -0.015383631 0.027388467 4280135728
0.033571601 -0.027515978 0.038493268 4281568574
0.038007133 -0.035309531 0.045509793 4281826889
0.041205183 -0.038767777 0.048448242 4281826378
-0.0020469204 0.019273505 -0.0050387066 4283204909
4.0922314e-05 0.018681586 -0.0047611524 4282354228
0.0019476824 0.01881624 -0.0051668924 4281961529
0.0040436089 0.018225104 -0.0048908875 4281242173
0.0051858649 0.021263108 -0.0080214776 4280721209
0.0063067712 0.024299711 -0.011147443 4279873844
0.0076034963 0.026609529 -0.013588782 4281437248
0.0098832846 0.025292553 -0.012629649 4281567554
0.013388708 0.019626573 -0.00759965 4281176638
0.018167827 0.0096150637 0.0014909646 4281177403
0.023021709 -0.00039102137 0.010565789 4280981563
0.028792366 -0.013289288 0.022333374 4281437759
0.034659132 -0.026180603 0.034080625 4281501508
0.039542764 -0.035444804 0.042427517 4281434953
0.04318472 -0.040360972 0.046707228 4282280788
-0.0066905506 0.020362474 -0.0081112348 4284645403
-0.0049757026 0.021224715 -0.0091967136 4282753814
-0.0030851848 0.021358006 -0.0095991641 4280526643
-0.00082740933 0.020034418 -0.0086391196 4279941164
0.0014410838 0.018711731 -0.0076813269 4281372479
0.003342405 0.018846117 -0.008085819 4280980289
0.0046688877 0.021164335 -0.0105287 4280980034
0.005590789 0.024937015 -0.014325958 4279089973
0.0070768669 0.026525319 -0.016082419 4279676983
0.0091511775 0.025930937 -0.015803123 4280590394
0.012444643 0.02097404 -0.011461524 4279351603
0.016185433 0.014565989 -0.0057744836 4280459833
0.019974276 0.0081614777 -9.7568147e-05 4281175874
0.024021482 0.0010339171 0.0062447395 4281240388
0.029825941 -0.011900954 0.017975442 4281109318
0.035942148 -0.025555044 0.030360209 4281174599
0.04172314 -0.03774979 0.041375913 4281238858
0.044942927 -0.041227922 0.044293411 4281889108
-0.01283646 0.019876942 -0.0094125494 4284577318
-0.010949004 0.020009555 -0.0098147001 4283207203
-0.0087159872 0.018679403 -0.0088530574 4282029104
-0.0071738884 0.020275116 -0.010618802 4281439799
-0.0058204755 0.022601195 -0.013062872 4280199989
-0.0043022968 0.024195448 -0.014823359 4280718914
-0.0018776245 0.022135675 -0.013183542 4279742773
0.00074919686 0.019346684 -0.010868052 4279937593
0.0028311163 0.018750198 -0.01059239 4280914498
0.0043441132 0.02034454 -0.01235142 4280718403
0.0056523532 0.022668093 -0.014785366 4280326469
0.0069445744 0.024990678 -0.017215861 4280849729
0.0092180055 0.023664515 -0.016261956 4280915519
0.011906333 0.020880595 -0.013959071 4281046079
0.015230378 0.015910782 -0.0096354624 4281111614
0.017761981 0.013859615 -0.0080176024 4281307709
0.020309571 0.011809736 -0.0064031007 4281110593
0.024149932 0.0053895712 -0.00075183064 4281175619
0.030192964 -0.0083110183 0.011617033 4281436484
0.038518775 -0.02928634 0.030686559 4281436484
0.043466505 -0.038602196 0.038977034 4281436228
0.046472341 -0.041362569 0.041213281 4282216529
-0.012299277 0.01539588 -0.0078286137 4284512549
-0.010910943 0.017730623 -0.010275474 4281897013
-0.0090208873 0.017863527 -0.010678098 4281176893
-0.0078316554 0.020930186 -0.013799312 4280720954
-0.0068416297 0.024728704 -0.017595053 4281371713
-0.005155988 0.025593344 -0.018670909 4281436739
-0.0029259361 0.024259102 -0.017711597 4281045313
-0.00031334907 0.021460406 -0.015399698 4280784704
0.0017548911 0.020860784 -0.015122779 4280914753
0.0040197447 0.019529372 -0.014170662 4280913988
0.0055196546 0.021127202 -0.01592347 4280718659
0.0072054788 0.021992482 -0.016998813 4280849473
0.009284474 0.021394074 -0.016723834 4280915774
0.011772655 0.019333124 -0.015101921 4280981053
0.014481453 0.016542047 -0.012809871 4281046844
0.016175276 0.017408341 -0.013886573 4281111613
0.017653808 0.019005336 -0.015634326 4278766889
0.020397257 0.01621706 -0.013349378 4280004149
0.025530051 0.0053940415 -0.0036861389 4280653888
0.033358246 -0.014187843 0.014007322 4280653888
0.040227473 -0.030108288 0.028320117 4280328254
0.044758014 -0.037990212 0.0352441 4278891328
0.047765538 -0.040759027 0.037473455 4281888344
-0.011262454 0.0086891353 -0.0042180615 4283596843
-0.010703515 0.014711626 -0.010060008 4281829694
-0.0096700974 0.018523842 -0.013856888 4281371969
-0.0086633153 0.022334293 -0.017648011 4280133689
-0.0075054616 0.025407583 -0.020755889 4279873078
-0.0058277771 0.026273757 -0.021828378 4279937848
-0.0036062524 0.024934616 -0.020870592 4279611449
-0.00081685558 0.021391749 -0.01788765 4280132668
0.0014341176 0.020054862 -0.016935926 4281045314
0.003695786 0.018718883 -0.015986435 4280979268
0.0055807084 0.018852323 -0.016387286 4281110083
0.0072692521 0.019719973 -0.017461544 4280915263
0.0093505904 0.019119568 -0.017188709 4280980799
0.011638999 0.017785929 -0.016244564 4281111104
0.013733692 0.017186671 -0.015974345 4281111869
0.014798321 0.020254612 -0.019061441 4281112124
0.016051318 0.022588007 -0.021473242 4281176383
0.01813793 0.021988548 -0.021201091 4281372733
0.022380715 0.014061868 -0.014234501 4281047353
0.028859721 -0.0011862069 -0.00059054233 4279939124
0.0361121 -0.018623382 0.015035011 4279939124
0.042153977 -0.031658053 0.026626332 4280002619
0.046711572 -0.039561778 0.033526495 4280980034
0.049957216 -0.043070242 0.036413997 4282021963
-0.01039505 0.0026904866 -0.0013080742 4283071033
-0.010157768 0.010207862 -0.0084956503 4281828418
-0.0099737942 0.017721616 -0.015671775 4281567299
-0.0093185902 0.02301839 -0.020807147 4280198969
-0.0083456598 0.026837423 -0.024582716 4280070704
-0.0063182302 0.026230231 -0.024300672 4280002873
-0.003736835 0.023411822 -0.021995474 4280588863
-0.00094851106 0.019858047 -0.019020554 4280980034
0.00073733926 0.020727322 -0.020092865 4281110339
0.002799619 0.020123042 -0.019817902 4281110083
0.0046737231 0.020255722 -0.020216443 4281110083
0.0069402605 0.018915929 -0.019271076 4281176128
0.0090185963 0.01831314 -0.018999256 4281306944
0.011102278 0.017710835 -0.018728493 4281371713
0.012578646 0.019316137 -0.020469336 4281046078
0.013423661 0.023127384 -0.02421673 4279873844
0.014870621 0.024730861 -0.025951207 4281045824
0.016943555 0.024128251 -0.025677808 4281633088
0.020526074 0.018381469 -0.020729899 4281437248
0.025239088 0.0089640394 -0.012454138 4281176383
0.031342864 -0.0048557371 -0.00019223057 4281176383
0.037993841 -0.020136945 0.013380729 4281046334
0.044305712 -0.033941597 0.025598684 4280849474
0.048893005 -0.041866884 0.032474414 4281435718
0.051691666 -0.043917432 0.034021556 4281826124
-0.0096964911 -0.0025935397 0.00090624206 4284575534
-0.0092748255 0.00420627 -0.0055920458 4282089028
-0.0090731159 0.011742957 -0.012755434 4281501509
-0.0090993866 0.020015977 -0.020582194 4280913988
-0.0081203282 0.023846328 -0.024350848 4280851003
-0.0060878731 0.023237277 -0.024071487 4281111359
-0.0035020337 0.020410515 -0.021773841 4280980799
-0.00089479983 0.017585412 -0.019480698 4280915264
0.00041775405 0.019935094 -0.021895899 4280914753
0.0017143115 0.022283807 -0.024307646 4280719679
0.0033815764 0.023154169 -0.025374176 4279872569
0.0058275945 0.021070413 -0.023758324 4279416374
0.008289624 0.018987954 -0.022145821 4280654398
0.010364966 0.018382907 -0.021874921 4281306434
0.011833562 0.019991986 -0.023610817 4281176385
0.012878064 0.023075879 -0.026680406 4280198459
0.014110561 0.025420856 -0.029077921 4280069174
0.016387207 0.024078146 -0.028137473 4279808308
0.019748012 0.019050658 -0.023867665 4280068664
0.023580907 0.01255203 -0.018274155 4280264248
0.027901903 0.0045834333 -0.011360342 4280914498
0.034063261 -0.0092733651 0.00085801724 4281110083
0.0414529 -0.026804626 0.016375255 4281110083
0.047602281 -0.039909527 0.027884508 4280979013
0.051309735 -0.044911519 0.032081336 4281239879
0.053420752 -0.044760108 0.031633899 4282411603
-0.0093326941 -0.0064136907 0.0017548064 4284182833
-0.0083940774 -0.0018212497 -0.0027075969 4281760588
-0.0083464459 0.0064807236 -0.010532015 4281826633
-0.0080085099 0.013294399 -0.016997423 4281761863
-0.0075414106 0.019362852 -0.022779886 4281306434
-0.0058582537 0.020235926 -0.023848578 4281177148
-0.0036329255 0.018883958 -0.022901503 4280916284
-0.0012117401 0.016791493 -0.021285729 4280785723
-8.9265406e-05 0.019888788 -0.024365894 4280980543
0.0026711896 0.023856662 -0.028504614 4280003638
0.0051084906 0.021765761 -0.026891876 4279286834
0.0073633119 0.020416617 -0.025950585 4280394554
0.0096288212 0.019068301 -0.025011433 4281045313
0.011089629 0.020681225 -0.026742406 4281111104
0.012333259 0.023033366 -0.02913736 4280915518
0.013770018 0.024644814 -0.030863047 4281241919
0.016467161 0.021818534 -0.028594699 4281241664
0.019614657 0.017515257 -0.025001397 4281307964
0.02301134 0.012475207 -0.020750646 4281307964
0.026225481 0.0081769302 -0.017171305 4281437759
0.031696837 -0.0035064667 -0.0069685634 4281175363
0.039280258 -0.021830633 0.0091780871 4281175363
0.046085622 -0.037191674 0.022649093 4281045058
0.050467171 -0.044424608 0.028822033 4280913988
0.052803218 -0.045011774 0.029037045 4282019669
-0.0096351393 -0.0072669685 -9.9365599e-05 4283658808
-0.0081913434 -0.004895851 -0.0025332263 4281760079
-0.0072783604 -0.00029213727 -0.0069801379 4281760843
-0.0067459159 0.005798161 -0.012763388 4281695309
-0.0062561184 0.011885568 -0.018537462 4280977738
-0.0052700788 0.015738189 -0.022290945 4281372224
-0.0039460883 0.018101498 -0.024698887 4281046843
-0.0020831749 0.018233038 -0.025095321 4280982328
-0.00059549138 0.019851469 -0.026829187 4280590139
0.00050092861 0.022955693 -0.029897124 4281110848
0.0019619688 0.024572477 -0.031625144 4281306688
0.003999263 0.023960147 -0.031349648 4280394043
0.0068351552 0.02037774 -0.028409211 4280654398
0.0088938177 0.019767165 -0.028138079 4281045569
0.010957809 0.019157082 -0.027867988 4280980289
0.012201861 0.021515734 -0.030258091 4280980544
0.014265828 0.020905875 -0.029987825 4281176128
0.016758427 0.018813126 -0.028391242 4281503548
0.019909978 0.014497124 -0.024808712 4281503804
0.023310512 0.0094422176 -0.020570371 4281503293
0.026309047 0.0058723167 -0.017663766 4281306178
0.031779885 -0.0058458224 -0.0074873404 4281434444
0.039136067 -0.023483641 0.0079576671 4281434444
0.045709595 -0.038149968 0.02073455 4281434188
0.049856074 -0.044664592 0.026232285 4281498958
-0.0099371597 -0.0081156045 -0.0019500433 4281821024
-0.008158084 -0.0072319135 -0.0030362257 4281628754
-0.0070700347 -0.0033616424 -0.0068034586 4281630283
-0.0060085952 0.00050688535 -0.010564925 4281499724
-0.0055041052 0.0066126883 -0.016328907 4281173578
-0.0048628151 0.011969402 -0.021414842 4281172814
-0.004258845 0.017323673 -0.026492774 4281240133
-0.002768293 0.018946528 -0.028224038 4281176128
-0.0016632937 0.022059932 -0.031287275 4279808308
-9.2536211e-06 0.022935748 -0.032346122 4280850494
0.0016394518 0.023811363 -0.033403788 4281240898
0.0038692206 0.022451609 -0.032463819 4281111104
0.0065059029 0.019603066 -0.0301963 4280197949
0.0085615609 0.018990099 -0.029926186 4281045569
0.010826012 0.0176332 -0.028993368 4281045313
0.01289501 0.01702138 -0.028725863 4281308218
0.015178114 0.015666038 -0.027796829 4281504059
0.01789481 0.012823805 -0.025545843 4281503803
0.020846961 0.0092395172 -0.022637833 4281371203
0.024042565 0.0049137771 -0.01907447 4281369929
0.027270164 0.00059038401 -0.015517766 4281369164
0.032751143 -0.0111617 -0.0053699752 4281369164
0.039441522 -0.026622221 0.0080559254 4281630794
0.045333982 -0.03910362 0.018823525 4281630794
0.04901563 -0.04415302 0.022991193 4281955918
-0.0082937479 -0.008822985 -0.004211749 4281431638
-0.0068624169 -0.0064395815 -0.0066330088 4281499214
-0.0057948641 -0.0025597811 -0.010387523 4281369674
-0.0045773424 0.0005697459 -0.01346847 4281434699
-0.0040981285 0.00669121 -0.019213721 4281107533
-0.0038435012 0.013557926 -0.025616523 4280913224
-0.0032676868 0.018925503 -0.030676816 4281241409
-0.0023546703 0.022795007 -0.034397975 4280784703
-0.0010884516 0.025167566 -0.036783405 4280068664
0.0011247545 0.023802232 -0.035843346 4280068664
0.0035439283 0.021690518 -0.03424162 4279286068
0.0067708455 0.01659207 -0.029990155 4280523583
0.0088315103 0.015977293 -0.02972275 4280784194
0.011304056 0.013869718 -0.028132098 4280783939
0.01358665 0.01250989 -0.027206356 4281373498
0.016297136 0.0096584186 -0.024960749 4281570359
0.019028941 0.0068085864 -0.022719577 4281438269
0.021782067 0.003960371 -0.020482857 4281305924
0.024556503 0.0011138245 -0.018250549 4281435209
0.027790803 -0.0032220557 -0.014705217 4281630794
0.03305465 -0.014263205 -0.0052430364 4281630283
0.039746217 -0.029769167 0.0081479475 4281761098
0.044958759 -0.040052578 0.016915957 4281761098
0.048406284 -0.044372693 0.020416455 4281890384
-0.005581826 -0.0056349114 -0.010216302 4281433423
-0.0041819774 -0.0032469854 -0.012625718 4281499468
-0.0029771589 -0.00010954589 -0.015697263 4281564749
-0.0027023107 0.006778121 -0.022089504 4281238094
-0.002659861 0.014412656 -0.029135916 4281304649
-0.0026707426 0.022043563 -0.036170889 4280848963
-0.0015965179 0.025172252 -0.039214283 4280718913
0.00080324709 0.023052543 -0.037613474 4280979779
0.0038042665 0.018685997 -0.034029316 4281175363
0.0070350692 0.013572574 -0.029790215 4281110338
0.0097019766 0.010709018 -0.027542271 4281436738
0.012187153 0.0085958466 -0.025959246 4281371714
0.014688328 0.0064839497 -0.024379529 4281306433
0.016997071 0.0051217452 -0.023462554 4281958979
0.019527558 0.0030121654 -0.021888878 4281761098
0.022074018 0.00090390444 -0.020318534 4281694798
0.024852883 -0.0019510165 -0.018093789 4281694800
0.028091246 -0.0062996447 -0.014559174 4281760334
0.033800945 -0.018868104 -0.0038091578 4281759823
0.039601311 -0.031429976 0.0069217756 4281694034
0.044811029 -0.041743934 0.015667284 4281628498
0.047797725 -0.044583336 0.017848449 4281691483
-0.0055430606 -0.0079653636 -0.010716497 4281236819
-0.0037877001 -0.0070765093 -0.01179242 4281564494
-0.0022165254 -0.0054351687 -0.013531173 4281564493
-0.0015637018 -3.1962991e-05 -0.018584788 4281499724
-0.0016850717 0.0083780438 -0.026281945 4281238349
-0.0018651001 0.01678399 -0.033966493 4281174598
-0.00096648932 0.020674266 -0.03766799 4280782664
0.0012510195 0.019300565 -0.036735453 4280782664
0.0040638782 0.015673012 -0.033823259 4280652360
0.0074961111 0.0097933337 -0.028936494 4281044804
0.010170132 0.006921567 -0.026696621 4280849473
0.012865493 0.004051432 -0.024461195 4281045313
0.014965493 0.0034353584 -0.024205266 4281110593
0.017279057 0.002069138 -0.02329256 4281371713
0.019603256 0.00070385635 -0.022382062 4281696328
0.022365239 -0.0021610558 -0.020160416 4281695053
0.024932303 -0.0042742789 -0.018599266 4281760334
0.028828733 -0.010885298 -0.013108372 4281694288
0.034324162 -0.022740483 -0.003042873 4281628498
0.040129147 -0.035338894 0.0076590125 4281628754
0.044436418 -0.042685702 0.013765031 4281693779
0.047189932 -0.044784918 0.015287066 4281886303
-0.0039225966 -0.008653596 -0.012957497 4281367123
-0.0021724924 -0.0077628344 -0.014030571 4281499468
-0.0011531375 -0.0038534999 -0.017749812 4281564493
-0.00052846596 0.0015630275 -0.022785779 4281761609
-0.00068790838 0.009994261 -0.03045656 4281827654
0.00023016334 0.013896815 -0.034153964 4281827654
0.0022738054 0.013273925 -0.033888124 4281565768
0.0051015876 0.0096365958 -0.030987352 4281435464
0.0081534311 0.0052477196 -0.027433744 4281370439
0.011037249 0.0016146153 -0.024544695 4281500743
0.013542347 -0.00051012635 -0.022975802 4281370439
0.015652679 -0.0011276454 -0.022723719 4281435464
0.017768335 -0.001744628 -0.022472668 4281565769
0.019889299 -0.0023611411 -0.022222657 4281826633
0.022869103 -0.0059868544 -0.019353487 4281826633
0.02630762 -0.011114918 -0.015180985 4281891659
0.030658301 -0.019248337 -0.0084006861 4281695054
0.035953168 -0.030384853 0.00098068174 4281760078
0.04065584 -0.039260529 0.0083867926 4281889618
0.044515617 -0.045125678 0.01317065 4282149208
-0.0024858415 -0.0085803717 -0.015854631 4281301843
-0.0011060014 -0.0061741471 -0.018244699 4281565514
7.4017793e-05 -0.0030121952 -0.021290965 4281631049
0.00067318976 0.0024178475 -0.026309909 4281369928
0.0018025786 0.0055764616 -0.029345222 4281174343
0.00348619 0.0064653382 -0.030402005 4281565258
0.0059425384 0.0043302402 -0.028828004 4281434698
0.0084148906 0.0021964461 -0.027257347 4281499978
0.010903262 6.3881278e-05 -0.025689946 4281565514
0.013610156 -0.0028227717 -0.023470178 4281434954
0.015927996 -0.0041974261 -0.022565115 4281435208
0.018880073 -0.0078362077 -0.019698504 4281696839
0.021648258 -0.010718085 -0.017491505 4281566533
0.02529053 -0.016616747 -0.012675192 4281761353
0.0291913 -0.023266636 -0.0072149821 4281891659
0.033358566 -0.030667201 -0.0011125812 4281825613
0.037136756 -0.036555767 0.0036751954 4282608974
-0.0026204549 -0.010152534 -0.017016031 4280971363
-0.0012402087 -0.0077397674 -0.019401234 4281369418
-5.9597194e-05 -0.0045691133 -0.02244103 4281240134
0.00091338903 -0.00064119697 -0.026133683 4281304904
0.0024266914 0.0010095686 -0.027849829 4281500233
0.0041210093 0.0019013584 -0.028907252 4281826379
0.0063929781 0.00051860511 -0.027996121 4281630283
0.0086756367 -0.00086329132 -0.027087122 4281630539
0.011168627 -0.003002055 -0.02552567 4281565004
0.0142846 -0.0074121132 -0.022005305 4281695053
0.017227577 -0.011062443 -0.019145131 4281565259
0.020612538 -0.01622504 -0.014984645 4281435209
0.024034835 -0.021384895 -0.010831963 4280909398
0.028133437 -0.028812267 -0.0047316742 4281170774
-9.7118318e-06 -0.0068867654 -0.022934426 4281302098
0.0011528581 -0.003708601 -0.025963699 4281565003
0.0024829134 -0.0012924522 -0.028333029 4281696329
0.0045628846 -0.001919277 -0.028079875 4281760844
0.0066481866 -0.0025455728 -0.027827807 4281760589
0.0093292594 -0.0054516345 -0.025615934 4281694544
0.012630083 -0.010635756 -0.021449421 4281694544
0.016170401 -0.016576871 -0.016638245 4281629263
0.019548573 -0.021755286 -0.012487929 4281629263
0.022964068 -0.026930876 -0.008345481 4281432914
0.026627032 -0.032862864 -0.0035600634 4281300058
0.00058967248 -0.011498153 -0.021466337 4281167458
0.001205653 -0.0060214177 -0.026454205 4281564494
0.0025388002 -0.0035986081 -0.0288192 4281500233
0.005003646 -0.0057526827 -0.027261985 4281890893
0.0078724138 -0.0094304383 -0.024402928 4281694544
0.011357721 -0.015393041 -0.01959347 4281694034
0.014885705 -0.02135247 -0.01479296 4281759059
0.018456357 -0.027308747 -0.010001422 4281824593
0.021865051 -0.032500125 -0.0058691921 4281955154
0.024689216 -0.035404161 -0.0036939248 4282410839
0.0041017532 -0.012028947 -0.024091706 4281694289
0.0067809895 -0.014952749 -0.021892842 4281694288
0.010256611 -0.020933434 -0.017094646 4281694289
0.013578504 -0.026146576 -0.012955766 4281693779
0.016738631 -0.03059262 -0.009474569 4281758039
0.0089364089 -0.025730073 -0.015255913 4281824339
0.012442388 -0.031725988 -0.010477324 4281889873
0.015206076 -0.034652188 -0.0083028087 4282412368
-0.021685824 0.00070787221 0.038739525 4282601833
-0.02383852 -0.0010832325 0.037949353 4279979924
-0.027045295 -0.0080299005 0.042508431 4279455388
-0.025432631 -0.0057392791 0.03996817 4278537898
-0.030853465 -0.012135096 0.044252053 4281749879
-0.030556701 -0.0026473776 0.034694344 4278800293
-0.028962471 -0.0003516376 0.03216289 4278668969
-0.026687384 -0.0016496778 0.033137783 4278930344
-0.024969511 -7.3365867e-05 0.031310394 4280308109
-0.03164991 -0.010200061 0.039513379 4281028484
-0.0310966 -0.0021270514 0.031379715 4278801058
-0.02937346 -0.00054632127 0.02955438 4278472874
-0.031396754 -0.01403062 0.040383443 4280897414
-0.03083355 -0.005933091 0.032265894 4279063198
-0.029511057 -0.0021781176 0.028348355 4278801058
-0.027242325 -0.0034853145 0.02931788 4278996644
-0.024821125 -0.0055144057 0.030981986 4279586968
-0.031013869 -0.018599711 0.041941464 4282668134
-0.030304641 -0.011202894 0.034536265 4280243338
-0.029104128 -0.0067108124 0.029927684 4279653013
-0.027241573 -0.0058463365 0.028804539 4279259804
-0.024818398 -0.0078818351 0.030463235 4280177548
-0.030893572 -0.021730259 0.042095125 4282274669
-0.030044027 -0.01503893 0.035400242 4280112268
-0.028834559 -0.010533169 0.030799611 4280046224
-0.027102537 -0.0089387521 0.028982325 4279718803
-0.02495724 -0.0095262378 0.029247945 4280243848
-0.030773953 -0.024869293 0.042242572 4282339694
-0.029917561 -0.018157922 0.035561055 4280177040
-0.028430283 -0.015098058 0.032355145 4280242573
-0.026964188 -0.012039579 0.029153811 4279915153
-0.02495496 -0.011899635 0.028724773 4280242828
-0.022945568 -0.011759572 0.028295791 4282274413
-0.030785225 -0.027284496 0.041691184 4282012274
-0.029658854 -0.022017397 0.036407687 4280242573
-0.028298542 -0.018216446 0.032515086 4280242574
-0.026688285 -0.015880525 0.030009961 4280308364
-0.024952978 -0.014277078 0.028198602 4280373643
-0.023228191 -0.012674302 0.026389612 4279980689
-0.029401205 -0.025889635 0.037244797 4280242574
-0.028167479 -0.021343209 0.032668754 4280177294
-0.026551485 -0.019000411 0.030167347 4280242573
-0.024951316 -0.016658634 0.027669458 4279980433
-0.0235104 -0.013584368 0.024486868 4278997663
-0.021944631 -0.011244722 0.021996444 4282078829
-0.020097297 -0.010372296 0.020883491 4282537318
-0.028037108 -0.024478413 0.032816187 4281094529
-0.026691072 -0.020656675 0.028943224 4280046224
-0.025090501 -0.018308386 0.026450189 4279653269
-0.023648985 -0.015225396 0.023274077 4278670243
-0.022082802 -0.01287923 0.020788511 4279981199
-0.020383954 -0.011269376 0.018991821 4280505733
-0.026555255 -0.023789078 0.029091416 4280308620
-0.025089286 -0.020695835 0.025916597 4279784338
-0.023644514 -0.017603949 0.022746397 4279390873
-0.022075251 -0.015251063 0.020265121 4279849873
-0.020373512 -0.013636708 0.018471094 4279915153
-0.018833343 -0.011285618 0.015996212 4282274923
-0.026420124 -0.02692987 0.029233316 4282733158
-0.025368705 -0.021606907 0.024012337 4280111504
-0.023925997 -0.018506512 0.020849174 4279455899
-0.022358995 -0.016147308 0.018373318 4279653268
-0.020659693 -0.014528774 0.01658312 4279653014
-0.018970955 -0.012910821 0.014795218 4280045968
-0.025087804 -0.025482893 0.024840409 4282732903
-0.024064429 -0.020146601 0.019637059 4279520923
-0.022351705 -0.018522896 0.017847143 4279522198
-0.020649526 -0.016899839 0.016059618 4279849618
-0.018957876 -0.015277401 0.014274431 4280111248
-0.017276786 -0.013655528 0.012491554 4280177039
-0.015762247 -0.011293024 0.010032199 4282406248
-0.022634994 -0.019414142 0.015959021 4280242064
-0.020935245 -0.017786935 0.014175307 4279849619
-0.019246053 -0.016160294 0.012393903 4280045968
-0.017720535 -0.013790682 0.0099371076 4280242063
-0.016055129 -0.012165472 0.0081609525 4279717784
-0.022338089 -0.02328629 0.016785819 4281682560
-0.020777736 -0.020907946 0.014326308 4280504715
-0.019233257 -0.018530637 0.011870325 4279587733
-0.01755172 -0.016900085 0.010093942 4279784083
-0.016191974 -0.01377888 0.0069687366 4279193758
-0.014695179 -0.011404544 0.0045232 4280571268
-0.019220777 -0.020904958 0.011343727 4280636295
-0.017689124 -0.018521897 0.0088954717 4279391129
-0.016173348 -0.016139798 0.0064507052 4279259549
-0.014673483 -0.013758734 0.0040094787 4279980178
-0.013350282 -0.010631174 0.00089885015 4280177294
-0.011558034 -0.0097468197 -0.00019033905 4281751664
-0.019208644 -0.023283355 0.010814119 4281158533
-0.01782649 -0.020143382 0.0076972358 4279586968
-0.016155057 -0.018504828 0.0059297197 4279652504
-0.014652126 -0.016117007 0.0034927353 4279914899
-0.013325658 -0.012980551 0.00038801599 4279653269
-0.011693958 -0.011344388 -0.0013707383 4280112524
-0.0099069402 -0.010458082 -0.0024571149 4280506753
-0.019496255 -0.024160683 0.0089377537 4283318638
-0.018116176 -0.021012187 0.0058279186 4280699533
-0.016447216 -0.019369423 0.00406418 4280438413
-0.014788814 -0.017727315 0.0023028329 4279980433
-0.012980577 -0.016837642 0.0012134388 4279652759
-0.011503719 -0.014444917 -0.0012128567 4279914899
-0.0098770484 -0.012804657 -0.0029671518 4279849364
-0.008260984 -0.011164993 -0.0047191447 4280245634
-0.016738959 -0.020229384 0.0022021271 4281355393
-0.015082996 -0.018583134 0.0004445985 4280110994
-0.013117198 -0.018445507 2.5384128e-05 4279783318
-0.011639938 -0.016046256 -0.0023960508 4279783573
-0.010013048 -0.014401637 -0.0041470858 4279193758
-0.0085649639 -0.012004204 -0.0065621166 4279784083
-0.0071328208 -0.0096077323 -0.008973646 4280376958
-0.016566217 -0.023354381 0.0023461208 4283253613
-0.015062071 -0.020947009 -7.6297671e-05 4280503949
-0.013413798 -0.01929684 -0.0018287972 4280111248
-0.011776116 -0.017647251 -0.003578994 4279324573
-0.010314368 -0.015242442 -0.0059920656 4279062689
-0.0087005161 -0.013594337 -0.0077369614 4279849363
-0.0072679669 -0.011191338 -0.010143622 4280178059
-0.013550159 -0.020901889 -0.0030147806 4281093509
-0.012074761 -0.018489793 -0.0054259337 4279324829
-0.010450102 -0.016836643 -0.0071699428 4279914898
-0.0091717094 -0.013668559 -0.010237697 4279783828
-0.007573586 -0.012017041 -0.011975876 4280111503
-0.0058128834 -0.011123605 -0.013049743 4280178314
-0.0040574595 -0.010230415 -0.014122377 4280638843
-0.013367176 -0.024027705 -0.0028742296 4282795633
-0.011886045 -0.02160871 -0.0052816495 4280242063
-0.010420818 -0.019190736 -0.0076855421 4280045713
-0.0091391727 -0.016013727 -0.010747433 4279718293
-0.0077084824 -0.013597876 -0.013143807 4279914898
-0.0059477463 -0.012702271 -0.014216031 4280112013
-0.0041922964 -0.011806913 -0.015287026 4280112524
-0.011860166 -0.023973554 -0.005804528 4282599283
-0.010391872 -0.02154883 -0.0082041658 4280897670
-0.0091069713 -0.018362917 -0.011260141 4279914898
-0.0078433491 -0.01517839 -0.014311507 4279784339
-0.0066009872 -0.011995234 -0.017358243 4279456154
-0.004678037 -0.011859879 -0.017767768 4279849873
-0.0027550384 -0.011724375 -0.0181772 4280309384
-0.00083198771 -0.011588752 -0.018586546 4280508538
-0.01019866 -0.024675503 -0.0080669932 4282599538
-0.0090751164 -0.020716175 -0.011775862 4279652503
-0.0076382756 -0.018286943 -0.014163621 4279391129
-0.0067352317 -0.013566762 -0.01851926 4279521689
-0.0048124343 -0.0134314 -0.018928744 4279980434
-0.0027116314 -0.014059573 -0.018682156 4279915664
-0.00042484701 -0.015450552 -0.01778125 4280178569
-0.0087094009 -0.024606586 -0.010981325 4281814393
-0.0074339285 -0.021403901 -0.014022004 4280570504
-0.0066970028 -0.015904143 -0.01902451 4279718294
-0.0051218942 -0.014236674 -0.020744413 4280111249
-0.0030241162 -0.014867179 -0.020498883 4280111249
-0.00037966669 -0.017793931 -0.018293001 4280242828
0.0015537739 -0.017657444 -0.018704463 4280506243
0.0025584437 -0.013694793 -0.022379111 4281098608
-0.0070607141 -0.025297806 -0.013232127 4281879928
-0.0063146539 -0.01978223 -0.018225089 4279849108
-0.0047313161 -0.018109888 -0.019943397 4279849108
-0.0024483092 -0.019509964 -0.0190484 4280176783
0.00020590425 -0.022444695 -0.016851202 4280504969
0.0026985817 -0.024610214 -0.015310053 4280701828
0.0042794086 -0.022937492 -0.017027475 4282209644
-0.0057613254 -0.024443604 -0.016782772 4281748349
-0.0041671097 -0.022766165 -0.018500112 4280569228
-0.0018739663 -0.024169847 -0.017610561 4281160064
0.00097005814 -0.027882501 -0.014771488 4282143599
-0.0032552965 -0.028984562 -0.015769307 4282536299
-0.014479563 -0.036097318 -0.023333661 4282339183
-0.015094087 -0.035316989 -0.026430381 4282470509
-0.001072485 0.017277226 0.030443987 4285820189
0.0023346916 0.011812165 0.035653196 4285754143
-0.0069922693 0.014529467 0.031214381 4285098539
-0.0060260259 0.018889099 0.02656739 4285558813
-0.0047467612 0.021840274 0.023334155 4285689373
-0.0026129186 0.021275207 0.023619907 4285558559
0.00041556358 0.0171967 0.027416101 4285755164
0.0047398023 0.0082023516 0.036117703 4285886488
-0.011747509 0.015447482 0.028041428 4285099049
-0.010101885 0.016997874 0.026213637 4285361953
-0.0084668547 0.018547639 0.024388129 4285493023
-0.0070120506 0.020802274 0.021862624 4285755673
-0.0055732056 0.023055919 0.019340545 4285689373
-0.0034503713 0.022487879 0.019626968 4285558049
-0.00096679851 0.020510331 0.021313695 4285624094
0.0026148558 0.014305338 0.027197795 4285689884
0.006610658 0.0066946447 0.034470782 4285558813
-0.016769718 0.017804191 0.023465456 4285754909
-0.014653113 0.01723291 0.023751071 4285885978
-0.012853924 0.018078685 0.022630652 4285820443
-0.01105997 0.018924199 0.021511434 4285624348
-0.0092712678 0.01976949 0.020393364 4285624349
-0.0076572672 0.021322183 0.018575769 4285690138
-0.0063981228 0.024289336 0.015360063 4285887509
-0.0042862892 0.023718338 0.015647164 4285821463
-0.0018140823 0.021733463 0.017331339 4285821718
0.0015749261 0.016214937 0.022504663 4285756183
0.0042754784 0.0135267 0.02487723 4285624604
0.0077394042 0.0080137029 0.030034719 4285558813
0.012375077 -0.0017346591 0.03936398 4285493278
-0.020821135 0.015925117 0.023114445 4285164583
-0.019476645 0.018906251 0.019886632 4285558303
-0.017997466 0.021175146 0.017365418 4285689119
-0.015582696 0.019178979 0.019056311 4285820189
-0.013474297 0.018605039 0.019342085 4285886233
-0.011360455 0.018031582 0.019626778 4285689628
-0.0095743574 0.018878803 0.018510947 4285624349
-0.0077935085 0.019725755 0.017396318 4285624349
-0.006533742 0.022701636 0.014187098 4285558558
-0.0045968257 0.022837952 0.013774576 4285558558
-0.0023052618 0.021555655 0.014757048 4285558814
0.00089680776 0.016728401 0.019221671 4285624350
0.0028579682 0.016866758 0.018804237 4285690139
0.0051897727 0.015587583 0.019778375 4285624349
0.0084721521 0.010766327 0.02422615 4285624094
0.013317121 0.00028049201 0.034222908 4285426979
-0.023209851 0.015610829 0.020941971 4285361953
-0.021859512 0.018600903 0.017719489 4285821208
-0.020377368 0.020876423 0.015202526 4285755163
-0.01875538 0.022437848 0.013389446 4285557539
-0.01666877 0.021860078 0.013678115 4285623583
-0.014254577 0.019857466 0.015364178 4285755163
-0.011824246 0.017856047 0.017046921 4285755673
-0.0097106174 0.017280474 0.017330062 4285624348
-0.0077606328 0.01741749 0.016914591 4285624604
-0.0064975694 0.020402312 0.013711294 4285559068
-0.0043836758 0.019827031 0.013994657 4285559068
-0.0022643767 0.01925227 0.014276912 4285559069
0.00039963052 0.016543925 0.016643902 4285624603
0.002172865 0.01739306 0.015532885 4285624348
0.0039408207 0.018241897 0.014423124 4285821463
0.0062668249 0.016958058 0.01539525 4285885978
0.009936722 0.010700911 0.021216104 4285886233
0.014620373 0.00089520216 0.030488903 4285951768
0.019574657 -0.0096153319 0.040437698 4285754909
-0.023640409 0.015442409 0.018358678 4285492769
-0.022595208 0.019872077 0.013743972 4285690394
-0.020970434 0.02143795 0.011933463 4285887253
-0.019511759 0.023718383 0.0094265714 4285952789
-0.01727793 0.022422612 0.010414105 4285886999
-0.014550671 0.018983096 0.01349232 4285886999
-0.011960149 0.016260229 0.015867848 4285689883
-0.010179274 0.017111406 0.014756424 4285624348
-0.0080658682 0.016533725 0.015038021 4285559068
-0.0062901564 0.017384738 0.013927851 4285624604
-0.0041712448 0.016807683 0.014208447 4285559324
-0.0025776401 0.018372267 0.012405332 4285558813
-0.00027634203 0.017082058 0.013379123 4285624604
0.0011244342 0.019359499 0.010885317 4285755418
0.0028790869 0.020209566 0.0097800381 4285623584
0.0048160329 0.020346388 0.0093678981 4285426723
0.0078946054 0.016206592 0.013104059 4285689119
0.01119821 0.011356518 0.017524308 4285689374
0.01532167 0.0036595911 0.024697592 4285427489
0.020297064 -0.0068820193 0.034617178 4285164328
0.028165944 -0.027386256 0.054167196 4285164328
-0.023480814 0.012411088 0.018577434 4285689374
-0.022729304 0.018289812 0.012574742 4285558813
-0.021409657 0.021295249 0.0093720611 4285624349
-0.019645184 0.022147022 0.0082654618 4285689884
-0.017411854 0.020846836 0.0092497654 4285624349
-0.014685646 0.017396361 0.012319915 4285624093
-0.012422733 0.016098402 0.013298105 4285624093
-0.01081318 0.017668076 0.011494543 4285624349
-0.0088768117 0.017804101 0.011081951 4285689628
-0.0067689791 0.017223954 0.011363152 4285689628
-0.0046557188 0.016644254 0.011643322 4285624348
-0.0028905049 0.017496951 0.010537155 4285558558
-0.0011305511 0.018349349 0.0094322376 4285624093
0.00044204667 0.019917004 0.0076370705 4285887253
0.0020039976 0.021484062 0.0058442056 4285755674
0.0037427172 0.022335283 0.0047440529 4285624348
0.0062364489 0.020326294 0.0064041354 4285690393
0.0095172189 0.015459418 0.010817602 4285822229
0.012835428 0.010595262 0.015223227 4285493278
0.017379602 0.0014474094 0.02374929 4285427744
0.024402408 -0.016266093 0.040510446 4285362208
0.030541619 -0.030399822 0.053808726 4285362209
-0.022586085 0.0057704374 0.022276198 4285229098
-0.022114202 0.013107926 0.014889088 4285294633
-0.021085586 0.017562598 0.01029785 4285427743
-0.019623395 0.019856326 0.007800065 4285493788
-0.017387889 0.018551923 0.0087805856 4285559069
-0.014981091 0.016529128 0.010453321 4285559069
-0.012884527 0.015945673 0.010735009 4285624604
-0.011611782 0.018957019 0.0075493306 4285821209
-0.0098547414 0.01981093 0.0064463448 4285886998
-0.0077605844 0.019227646 0.0067288 4285952534
-0.0054871328 0.017926499 0.0077017564 4285755419
-0.0035560019 0.018062472 0.0072905198 4285689629
-0.0019832291 0.019634426 0.0054984912 4285624094
-0.00042106956 0.021205686 0.0037088543 4285624349
0.00094589218 0.023493886 0.0012322534 4285755928
0.0026713237 0.024346348 0.00013658963 4285690393
0.0051509887 0.02232983 0.001794681 4285624603
0.0080318414 0.018880628 0.004824575 4285493278
0.011134658 0.014716648 0.0085358657 4285427998
0.015061155 0.0076886117 0.014986148 4285362208
0.021046855 -0.006499663 0.028283877 4285427999
0.027952386 -0.023545109 0.044300146 4285164839
-0.0216939 -0.00090055168 0.025952542 4285229098
-0.021201618 0.0064601302 0.018577578 4285228843
-0.02061028 0.01309517 0.011908583 4285361954
-0.019446924 0.016839758 0.0080255643 4285427998
-0.017521895 0.016974546 0.0076150447 4285493788
-0.01543643 0.016387984 0.0078973994 4285624859
-0.013508521 0.016523167 0.0074864253 4285690138
-0.012243167 0.019542694 0.0043089427 4285755419
-0.010494094 0.020398259 0.0032092687 4285689374
-0.0084082559 0.019812129 0.0034918524 4285886998
-0.006143339 0.01850608 0.0044632647 4285952534
-0.0040440112 0.017921172 0.0047431067 4285689884
-0.0024763234 0.019497074 0.0029555261 4285558813
-0.00091927871 0.021072358 0.0011702385 4285558814
0.0006271489 0.022646964 -0.00061265938 4285493534
0.0025369823 0.022781849 -0.0010190457 4285427743
0.0050159544 0.02075877 0.00063422881 4285427743
0.0077033602 0.018017769 0.0029701237 4285231139
0.010022061 0.016716376 0.0039307456 4284971293
-0.021097831 -0.0061527491 0.02821842 4285097774
-0.020291559 -0.00021804124 0.022243692 4285097518
-0.019832134 0.0071621165 0.014892388 4285229098
-0.019116372 0.013090722 0.0089371428 4285361953
-0.017813329 0.016121231 0.0057579875 4285427744
-0.016211264 0.017703123 0.0039657988 4285559324
-0.01445698 0.018560991 0.0028664898 4285756183
-0.013204362 0.021588258 -0.00030162372 4285558303
-0.011468589 0.022445045 -0.0013968274 4285426723
-0.0092255957 0.021132946 -0.00042409636 4285492768
-0.0067983828 0.019099057 0.0012346748 4285690138
-0.0047073737 0.018511355 0.0015146807 4285624604
-0.0027898103 0.018646449 0.0011063907 4285493789
-0.0012351945 0.020225912 -0.00067506917 4285493788
0.00030880049 0.021804698 -0.0024541356 4285428254
0.0022158287 0.021939375 -0.0028599352 4285231138
-0.02108999 -0.008519575 0.027698761 4285032238
-0.019981153 -0.0040203333 0.023120077 4285097518
-0.019360047 0.0026558787 0.016474502 4285163053
-0.018632255 0.0086026937 0.010529915 4285294634
-0.017789781 0.013820648 0.0052845925 4285295654
-0.016504716 0.016858697 0.0021159668 4285427744
-0.015403531 0.020620957 -0.0017370228 4285690393
-0.014163651 0.023656055 -0.0048958492 4285821974
-0.012273207 0.023788802 -0.0052986965 4285756183
-0.0098707825 0.021746494 -0.0036396496 4285887764
-0.0072789602 0.018980585 -0.0012972485 4285888273
-0.0051936284 0.018390328 -0.0010177549 4285493788
-0.0032815337 0.018525027 -0.0014248844 4285494043
-0.0015506968 0.019384138 -0.0025169235 4285428509
0.00054280832 0.018794797 -0.0022389088 4285232158
0.0024550445 0.018929847 -0.0026458115 4285366034
-0.018585883 -0.0033246428 0.019423159 4285163309
-0.017686315 0.0019124001 0.014177145 4285163054
-0.017138168 0.0086032748 0.0075621847 4285228843
-0.016478203 0.01456289 0.0016455045 4285427233
-0.015698429 0.019791871 -0.0035747103 4285493534
-0.014625713 0.023563102 -0.0074132755 4285559324
-0.012908515 0.024422862 -0.008501187 4285624858
-0.010685246 0.023100689 -0.0075309463 4285559324
-0.0081049912 0.020325258 -0.0051927157 4285427998
-0.0060306638 0.019732043 -0.0049125291 4285296674
-0.0039509162 0.019139275 -0.004633382 4285167134
-0.018420193 -0.0064081475 0.019600542 4285097518
-0.017051391 -0.0033471137 0.016427094 4285097519
-0.01648837 0.0033643395 0.009823842 4285228588
-0.015813712 0.0093423501 0.003917248 4285228844
-0.01550616 0.016777478 -0.0033516944 4285361698
-0.014592241 0.021289825 -0.0078685172 4285427998
-0.013039906 0.022881553 -0.0096399561 4285427998
-0.010987397 0.022284396 -0.0093569569 4285362463
-0.0084106959 0.01950001 -0.0070245992 4285691414
-0.01688043 -0.006430015 0.016603611 4285031983
-0.01584037 -0.0018961951 0.0120696 4285163309
-0.014832247 0.0026355535 0.0075424444 4285360423
-0.014504287 0.010093816 0.00028568041 4285492003
-0.013900168 0.016084515 -0.0055925217 4285295654
-0.017017923 -0.0080514997 0.015405418 4285032239
-0.015820343 -0.0042393133 0.011564756 4285097773
-0.01433095 -0.001897946 0.0090960041 4285360933
-0.013666853 0.0041142106 0.0032181609 4285557794
-0.012880813 0.0093892962 -0.0019685375 4285032494
-0.015644304 -0.0073233992 0.011738939 4285032494
-0.01399013 -0.0057118908 0.0099554211 4285360679
-0.012831599 -0.0018913597 0.0061315242 4285361188
-0.011864029 0.002663821 0.0016330238 4285229098
-0.014126878 -0.0073218644 0.0087657962 4285295143
-0.012644563 -0.0049678758 0.0063085388 4285360423
-0.011342328 -0.0018763542 0.003176067 4285032748
-0.014263596 -0.0089315474 0.0075763781 4284900914
-0.012619548 -0.0073119253 0.0058016572 4285229099
-0.011150047 -0.0049522519 0.0033522276 4285098283
