# .PCD v0.7 - Point Cloud Data file format
VERSION 0.7
FIELDS x y z rgba
SIZE 4 4 4 4
TYPE F F F U
COUNT 1 1 1 1
WIDTH 927
HEIGHT 1
VIEWPOINT 0 0 0 1 0 0 0
POINTS 927
DATA ascii
-0.0089575574 -0.029805087 -0.0046661524 4286529089
-0.0092542395 -0.030649856 -0.0065087141 4286528833
-0.0071413927 -0.031271406 -0.0062892386 4286594623
-0.0050230995 -0.031892419 -0.0060708886 4286398274
-0.0032236986 -0.030983157 -0.0071748891 4286528323
-0.011049598 -0.033936873 -0.0059218621 4286201668
-0.0092425272 -0.03302525 -0.0070262356 4286529089
-0.0072840042 -0.032881334 -0.0074691316 4286660159
-0.0051660612 -0.033504575 -0.0072523607 4286659904
-0.0033666156 -0.032593139 -0.0083547337 4286790209
-0.011343203 -0.034778625 -0.007763016 4286790973
-0.0093849525 -0.034634888 -0.0082059568 4286921789
-0.0074265786 -0.034491003 -0.0086488305 4286725438
-0.0054680966 -0.034346968 -0.0090916296 4286856253
-0.0038330406 -0.032664284 -0.010849218 4286724674
-0.01178734 -0.034843475 -0.010259009 4287638849
-0.0095273405 -0.036244206 -0.0093854507 4287050818
-0.0075691305 -0.036100358 -0.0098283095 4287182399
-0.0057697073 -0.035184711 -0.010927483 4287443774
-0.0039755031 -0.034269303 -0.012025426 4287247423
-0.0020222813 -0.034125417 -0.012466851 4286658628
-0.0063883476 -0.034470148 -0.014069579 4287312193
-0.0046020746 -0.033553198 -0.015164058 4287900733
-0.002328895 -0.034956753 -0.014296434 4287050818
-0.00021170825 -0.035586178 -0.014084152 4287573568
0.002080258 -0.036988169 -0.013220559 4287311683
0.0038669109 -0.03607066 -0.014314721 4287639104
0.0053306594 -0.035983078 -0.017232873 4288030273
0.0072813332 -0.035838753 -0.017673243 4287965248
0.0094118565 -0.036468729 -0.017465133 4286985283
0.011365321 -0.03632392 -0.017905924 4286985538
0.013133742 -0.035404958 -0.01899384 4287312449
0.010492682 -0.034822524 -0.021666117 4286920003
0.012435414 -0.034678385 -0.022104383 4287377218
0.014565762 -0.035310194 -0.021897539 4287703618
-0.028232038 0.01226712 0.035222195 4281699389
-0.026918836 0.015931502 0.031199224 4279809328
-0.02483286 0.015370622 0.031472255 4280525369
-0.021382809 0.0077730939 0.038888063 4279938103
-0.0074954927 -0.00048488379 0.045433816 4282283593
-0.030465513 0.011207581 0.033762697 4281631558
-0.029779427 0.018416017 0.026172396 4281178169
-0.028755322 0.023501799 0.020736098 4281828163
-0.026704222 0.022936095 0.02101538 4281632579
-0.023969308 0.018841416 0.024857353 4281307709
-0.020648971 0.011926301 0.031540852 4281176893
-0.017980136 0.008542791 0.034654442 4281242428
-0.015571788 0.0065719709 0.03634011 4281306943
-0.013586208 0.0067178085 0.035891049 4281307199
-0.012494273 0.011093371 0.031183358 4281567808
-0.011434093 0.015466645 0.026482966 4279680044
-0.008862786 0.012792289 0.028875515 4280394554
-0.0043865591 0.0016675666 0.03975888 4280264249
-0.031731494 0.015967526 0.026152916 4281371968
-0.030940033 0.022487435 0.019297101 4280200244
-0.029675663 0.026169959 0.015301643 4280720188
-0.027640834 0.025600895 0.015582886 4280785468
-0.024923146 0.021491781 0.019418858 4279547699
-0.021758966 0.015261449 0.025379259 4280199224
-0.019532211 0.013988659 0.026359145 4281111103
-0.017724976 0.014839321 0.025208525 4281111359
-0.01606901 0.016397044 0.023350339 4280785468
-0.014869824 0.020075433 0.019370127 4280916283
-0.013242796 0.021631178 0.017518675 4281112123
-0.011009857 0.020359352 0.018497471 4281111613
-0.0076687932 0.014142632 0.024418417 4279744303
-0.0039608255 0.0065168515 0.031740133 4280918069
-0.00068037212 0.0010139868 0.036933113 4281373498
0.0019838065 -0.0016618669 0.039298344 4281503804
0.0036649667 -0.00010154396 0.037435111 4282875448
-0.034054652 0.015648536 0.02399395 4280914499
-0.032744624 0.019345105 0.019996278 4280980544
-0.031206414 0.021618064 0.017427348 4280589118
-0.029943846 0.02531134 0.013440546 4280198969
-0.027779371 0.024029341 0.014430925 4280198969
-0.025333509 0.021327626 0.016838087 4280459323
-0.022176489 0.015077077 0.022785265 4280850494
-0.02023676 0.015219286 0.022346381 4281046078
-0.018583357 0.01678101 0.020492021 4281046078
-0.017086335 0.019051619 0.017932922 4280199733
-0.015456527 0.020611804 0.016084056 4280004404
-0.013988458 0.022880461 0.013531635 4281372734
-0.011766687 0.021603413 0.014509616 4281438015
-0.0092209727 0.018909782 0.016894761 4281047354
-0.0060169138 0.013383672 0.022091728 4280721974
-0.0032557771 0.0099858418 0.02516846 4281373499
-0.0011260919 0.0094226748 0.025427435 4281244214
-0.034803703 0.017620608 0.01926966 4281110340
-0.03350614 0.021327153 0.015282985 4280980034
-0.031726532 0.022179529 0.014141452 4281240898
-0.029822275 0.022318743 0.01371029 4281110338
-0.027520567 0.020319991 0.015404843 4281241153
-0.025067613 0.017610028 0.017803757 4281110848
-0.022730932 0.015614063 0.019490492 4281045823
-0.020939685 0.01646775 0.018346671 4281045823
-0.019296661 0.018033035 0.016497938 4281112124
-0.017809831 0.020309396 0.013946075 4280851514
-0.016338795 0.022584684 0.011397842 4279548719
-0.014430419 0.022724953 0.010966323 4279678768
-0.012214474 0.02144305 0.011942342 4280265523
-0.0096749887 0.018740207 0.014322257 4280394554
-0.0071140677 0.016039036 0.016697403 4281176384
-0.0046934001 0.014050111 0.018365808 4281439288
-0.036267601 0.012317367 0.022093084 4282478669
-0.035307564 0.018183626 0.015980355 4280718658
-0.03389287 0.021185014 0.012712309 4279024183
-0.029571854 0.01860255 0.014681378 4280654398
-0.026998408 0.015168004 0.017783184 4280914498
-0.025207475 0.016023621 0.016640913 4281045824
-0.02328413 0.016164467 0.016205607 4281046589
-0.021781214 0.018448316 0.013654884 4280981053
-0.020008348 0.019302905 0.012516925 4281177148
-0.01838617 0.020871125 0.010676224 4281307708
-0.016478077 0.021011237 0.010244662 4281046588
-0.014720686 0.021864969 0.0091104154 4281046588
-0.012354389 0.01986514 0.010785948 4280981309
-0.010128155 0.018579751 0.011756355 4280850238
-0.0075734705 0.015869379 0.01412628 4281111869
-0.0054818317 0.015298881 0.014390431 4283011364
-0.037238643 0.015749075 0.015965529 4281436483
-0.03581021 0.018760055 0.012700876 4280654654
-0.034278758 0.021051895 0.010148244 4280718658
-0.03238292 0.02119033 0.009718867 4280067644
-0.029969387 0.018459842 0.012113249 4279872314
-0.027534381 0.015730962 0.014502879 4280980289
-0.025481954 0.015154347 0.014773522 4280915264
-0.023698747 0.016011678 0.013634654 4280850238
-0.022200704 0.018301636 0.011090001 4280916284
-0.02071844 0.020590577 0.0085489582 4281112123
-0.019106612 0.022162333 0.0067139212 4281047354
-0.017061301 0.02158574 0.0069865044 4280916793
-0.01485984 0.020293936 0.0079590287 4281046588
-0.012494251 0.018287495 0.0096297525 4280915773
-0.010268554 0.016997665 0.010596942 4280916284
-0.0080320314 0.0157087 0.011561813 4281177658
-0.0061073452 0.015850514 0.011126863 4283795233
-0.038827218 0.01114893 0.018070966 4282412624
-0.037969813 0.017771259 0.011274174 4280786489
-0.036190413 0.018629842 0.010137405 4281045058
-0.034787685 0.021647729 0.0068852324 4281435974
-0.03277342 0.021065872 0.0071625747 4280979268
-0.030753635 0.020484526 0.0074387472 4280588098
-0.028200954 0.017026603 0.010528689 4280393024
-0.026294 0.017166078 0.010096967 4280915264
-0.02438686 0.017305672 0.0096652787 4280850238
-0.022898979 0.019601397 0.0071278643 4280981564
-0.021284401 0.021177631 0.0052953716 4278505769
-0.019680314 0.022753149 0.0034653656 4279287853
-0.017347686 0.020737514 0.005138414 4278961708
-0.014998928 0.018723197 0.0068078432 4278636074
-0.012634061 0.016710125 0.008473739 4281112378
-0.01056464 0.016133398 0.0087394323 4281374010
-0.0083313137 0.014839813 0.0097017027 4281702194
-0.039891817 0.015342489 0.011261171 4281694798
-0.038580656 0.01909323 0.007304227 4280523583
-0.036811799 0.019953184 0.0061714686 4279676219
-0.03529539 0.022256982 0.0036320519 4280263229
-0.033415727 0.022394154 0.0032062754 4279675708
-0.031277888 0.021088101 0.0041860044 4279741243
-0.028865911 0.018340036 0.0065675955 4280719168
-0.026701108 0.017036185 0.0075413175 4280915263
-0.024936371 0.017896406 0.0064099226 4280720189
-0.023316391 0.019477263 0.0045794081 4280525623
-0.021991462 0.022498809 0.0013519321 4280654908
-0.020252794 0.023357399 0.00022665225 4281567809
-0.017928846 0.021334566 0.0018966906 4280915263
-0.015288249 0.017872833 0.0049589593 4280395064
-0.01292675 0.015852943 0.0066206492 4280916283
-0.011015907 0.015993491 0.0061886348 4281308474
-0.0089466721 0.015414633 0.0064527672 4281572654
-0.040144756 0.014497668 0.0094062351 4280914243
-0.038717233 0.017534524 0.0061614513 4280653378
-0.037069105 0.019121058 0.0043273848 4280914753
-0.035678364 0.022155412 0.0010910705 4280784448
-0.033551879 0.020844076 0.0020699222 4280784704
-0.031414546 0.019533597 0.00304644 4280784704
-0.029134922 0.017500401 0.0047210436 4280654398
-0.027375624 0.018362284 0.0035924353 4280915518
-0.025484674 0.018500626 0.0031643659 4280981053
-0.024011835 0.020808302 0.00064017437 4280002873
-0.022270605 0.021669149 -0.00048412383 4279807799
-0.020824037 0.023975041 -0.0030021872 4281176384
-0.018508784 0.021945052 -0.0013351981 4280980799
-0.016177408 0.019916289 0.00032825395 4280330038
-0.013371713 0.015722573 0.0040752329 4280720954
-0.011466324 0.015862681 0.003644431 4281177913
-0.041280493 0.0069746971 0.014312945 4282346579
-0.040051281 0.011476532 0.0096622668 4281828164
-0.03849981 0.013795637 0.0071246512 4281371968
-0.037084721 0.016840354 0.0038893241 4281175619
-0.035444096 0.018430784 0.0020602532 4281305923
-0.033310115 0.017115571 0.0030341279 4281110595
-0.031165317 0.015801288 0.004005583 4280980289
-0.029272199 0.015939564 0.0035768524 4280981564
-0.027646743 0.017529234 0.0017515495 4280915519
-0.025895156 0.018392794 0.00062638894 4280915518
-0.024287947 0.019981369 -0.0011946745 4280850238
-0.022691213 0.021569222 -0.0030132532 4280068664
-0.021249518 0.023881331 -0.0055253147 4280068664
-0.019087493 0.022568956 -0.0045571867 4280330803
-0.016614944 0.019808568 -0.0022020955 4280655929
-0.013968386 0.016325496 0.00084240548 4281112124
-0.011915907 0.015740901 0.001106903 4281440309
-0.041306525 0.004660964 0.013852792 4282216019
-0.03984338 0.0077176616 0.010613002 4281762373
-0.038283497 0.010043919 0.0080783609 4281046079
-0.03649845 0.010911487 0.0069468077 4280915519
-0.034841627 0.012507379 0.0051173791 4280654654
-0.032692201 0.011188947 0.00608439 4280719678
-0.030917183 0.01205606 0.0049553197 4280915264
-0.029016212 0.012194894 0.0045247953 4281111104
-0.027649969 0.015245184 0.001307467 4281176384
-0.02575928 0.015383452 0.00087940879 4281176128
-0.024146475 0.016976722 -0.00093960017 4281175618
-0.02254416 0.01856935 -0.0027562082 4281240898
-0.020952314 0.020161279 -0.004570324 4281175618
-0.019076891 0.020298846 -0.0049946122 4281306433
-0.016901933 0.01898317 -0.004032705 4280981819
-0.014411509 0.016215421 -0.001688147 4281309494
-0.01251968 0.016354486 -0.002115922 4281508649
-0.041332886 0.0023431331 0.013389615 4282150483
-0.039636567 0.0039459318 0.011554299 4281631048
-0.037950665 0.0055481195 0.0097213667 4281305668
-0.036034673 0.0056876093 0.0092871115 4281110593
-0.034487173 0.0080196112 0.0067603923 4280849473
-0.032453187 0.0074281394 0.0070248879 4280980034
-0.030670136 0.0082979798 0.0058956202 4280980033
-0.028892189 0.0091676116 0.0047675632 4280784193
-0.027386449 0.011496961 0.0022505904 4280849729
-0.025624081 0.012365595 0.00112624 4280980034
-0.02386687 0.013234004 3.0947849e-06 4281045314
-0.022114791 0.014102086 -0.0011187736 4281175618
-0.020512044 0.015699141 -0.0029320773 4281306179
-0.018626116 0.015837438 -0.0033587683 4281371714
-0.016590528 0.015246995 -0.0030939411 4281175874
-0.014701627 0.015385717 -0.0035211444 4281569594
-0.039660305 0.0016285256 0.011090713 4281434953
-0.037854075 0.002501823 0.0099575333 4281370693
-0.035932899 0.0026416481 0.0095220692 4281110084
-0.034256935 0.0042476207 0.0076948125 4281045569
-0.032340661 0.0043873042 0.0072606131 4281175618
-0.030424178 0.0045270771 0.0068264417 4281175618
-0.028638199 0.0053993911 0.0056982227 4281175619
-0.026990674 0.0070036501 0.0038777553 4281175363
-0.025217623 0.0078752488 0.0027525695 4281175363
-0.023449689 0.0087465495 0.0016286643 4281175109
-0.021545596 0.0088859499 0.0011976892 4280979524
-0.01992929 0.010488324 -0.00061540212 4281110084
-0.018030189 0.010627568 -0.0010450901 4281174854
-0.016280219 0.011497959 -0.0021646144 4280979013
-0.014383473 0.011637233 -0.0025936095 4281894975
-0.012795836 0.013237976 -0.0043999413 4283790899
-0.039798915 4.2781234e-05 0.0099280179 4281500998
-0.037875414 0.00018265098 0.0094919335 4281175364
-0.035951696 0.00032263994 0.0090558734 4281175874
-0.034150288 0.0011979192 0.0079255532 4281110339
-0.032353997 0.0020729154 0.006796468 4281306434
-0.030434988 0.0022128522 0.006361695 4281371458
-0.028907254 0.0045567602 0.0038494878 4281370693
-0.026862688 0.0039619505 0.0041084774 4281109318
-0.025220051 0.0055702776 0.0022924701 4281044039
-0.023310937 0.0057099015 0.0018602544 4281108808
-0.02154278 0.0065835118 0.00073796418 4281043784
-0.01963599 0.0067231804 0.000306434 4281370184
-0.017729044 0.0068629682 -0.00012504403 4281566023
-0.015971027 0.0077361017 -0.001244762 4281827144
-0.014066435 0.0078759342 -0.0016755452 4282416703
-0.012470551 0.0094815716 -0.0034804149 4284116279
-0.039594382 -0.0037565529 0.010849036 4281631558
-0.037897058 -0.002140604 0.0090233274 4281306434
-0.0359708 -0.0020004511 0.0085866749 4281240388
-0.034044348 -0.0018602014 0.0081500448 4281370949
-0.032242671 -0.00098266453 0.007021362 4281240898
-0.030446112 -0.00010538846 0.0058939215 4281175874
-0.028915279 0.0022452474 0.0033859406 4281175364
-0.027001336 0.002384983 0.0029524453 4281044294
-0.0250872 0.0025248528 0.0025189947 4281109574
-0.0231729 0.0026648194 0.0020855796 4281109064
-0.021399356 0.0035409406 0.00096374843 4281043528
-0.019630969 0.0044167861 -0.00015683379 4281239624
-0.017867751 0.0052924007 -0.0012762053 4281696583
-0.015960768 0.0054322779 -0.0017076405 4282022984
-0.013902076 0.0048369914 -0.00145292 4282546753
-0.012146398 0.005712375 -0.0025703432 4284049979
-0.036867633 -0.011127554 0.014782302 4281694543
-0.035153896 -0.009506017 0.012956273 4281631049
-0.033450574 -0.0078850985 0.01113263 4281434443
-0.031882465 -0.0055254996 0.0086210147 4280978503
-0.030330114 -0.003166914 0.0061129984 4280783174
-0.028923631 -7.0378184e-05 0.0029193629 4280978759
-0.026874378 -0.00066930056 0.003173992 4281174599
-0.024955064 -0.00052909553 0.0027393419 4281174599
-0.02317366 0.0003496781 0.0016172305 4281174344
-0.021397397 0.0012281388 0.0004964117 4281239368
-0.019626282 0.0021063462 -0.00062315352 4281239368
-0.017860346 0.002984263 -0.0017414717 4281304649
-0.015950851 0.0031242967 -0.0021734918 4281760843
-0.0140412 0.0032644719 -0.002605441 4282612288
-0.012131423 0.0034047365 -0.0030373586 4284115769
-0.030651547 -0.015276492 0.015030142 4282281808
-0.029324017 -0.011426523 0.011143796 4281304138
-0.028282709 -0.0060960203 0.0058881845 4281240134
-0.026748143 -0.0037320256 0.0033892766 4281109574
-0.024958879 -0.0028506666 0.0022669844 4281305159
-0.023312643 -0.0012289509 0.0004600361 4281239879
-0.021536306 -0.00034832954 -0.00065916404 4281435974
-0.019765154 0.00053201616 -0.0017771199 4281304904
-0.017853267 0.00067210943 -0.002209764 4281369164
-0.015941255 0.0008122921 -0.0026423782 4281434444
-0.014029086 0.00095262378 -0.0030749217 4282677823
-0.012116775 0.0010930672 -0.0035074204 4284115513
-0.027384616 -0.013634324 0.010210013 4282672723
-0.02153483 -0.0026671067 -0.0011308994 4280646239
-0.019760944 -0.0017844066 -0.0022478346 4281104730
-0.017846547 -0.0016441569 -0.0026810709 4281235798
-0.016080327 -0.00076179951 -0.0037961099 4281236309
-0.014168292 -0.00062149763 -0.0042286366 4282809658
-0.012102477 -0.0012226924 -0.0039804745 4284442678
0.03151907 -0.0115292 0.015780766 4282275178
0.033310756 -0.010655388 0.014652077 4280504715
0.035097118 -0.009781763 0.013524661 4280568973
0.03730493 -0.010356784 0.013752721 4279191208
0.04081431 -0.015274808 0.018038439 4278731954
0.045235783 -0.023084864 0.025019336 4278731954
0.049273089 -0.029443353 0.030636631 4281486719
0.029523758 -0.0066331327 0.0084796976 4280570759
0.031083671 -0.0050321519 0.0066813603 4278668969
0.032632947 -0.0034319013 0.0048855562 4278471853
0.034597941 -0.0032849461 0.0044431388 4278273719
0.045579769 -0.019535035 0.018610772 4279125163
0.049844258 -0.02663824 0.024885617 4279323808
0.054614957 -0.035188027 0.032493543 4279128224
0.027942028 -0.0031554848 0.0025590565 4278866339
0.031435098 -0.0014057457 0.00032872707 4279389344
0.033386629 -0.0012597889 -0.00011064671 4279128479
0.035553806 -0.0018420219 0.00012331828 4278930598
0.03881783 -0.0060643405 0.0037194565 4278536879
0.042997688 -0.013195828 0.0099968035 4278668968
0.048348919 -0.023961738 0.019619536 4278800294
0.054006279 -0.03544905 0.02989525 4279062944
0.025840003 -0.0049119443 0.0018203165 4280964988
0.0271823 -0.0025721192 -0.00064263865 4278669733
0.03239011 5.6877732e-05 -0.0039759241 4278274739
0.047973167 -0.024908118 0.017722247 4278734759
0.054076731 -0.037890121 0.029311471 4278931874
0.025089037 -0.0043210983 -0.0013781711 4280440453
0.026423782 -0.0019752309 -0.0038345009 4278473383
0.028571632 -0.002563633 -0.0035997666 4278407593
0.029885115 -0.00021916628 -0.0060510952 4278406829
0.03203297 -0.00080730766 -0.0058161691 4278275503
0.04203761 -0.01428543 0.0055836346 4278734758
0.048267532 -0.028046094 0.017833116 4278931619
0.053920887 -0.03960336 0.028057016 4278866594
0.057145223 -0.043105379 0.030924238 4282143343
0.024541009 -0.0044526011 -0.003895402 4280112269
0.026279692 -0.0035719723 -0.005003985 4278538408
0.027806005 -0.0019561425 -0.0067815185 4278669734
0.029531389 -0.001076214 -0.0078869686 4278735268
0.031463854 -0.0009316802 -0.0083220452 4278603943
0.034256518 -0.0037265867 -0.0060832463 4278538664
0.037723612 -0.008723855 -0.0018455954 4278407594
0.042550191 -0.018125132 0.0063872468 4278669478
0.048561119 -0.031192474 0.01793783 4278735013
0.05376507 -0.041316226 0.02680283 4278669733
0.056759879 -0.044095308 0.028996579 4282537063
-0.026490234 -0.00754641 0.0042838491 4280705654
-0.025098041 -0.0044333637 0.0011067558 4279984768
0.022453986 -0.0061960369 -0.0046284869 4281948523
0.023993813 -0.0045750961 -0.006405957 4278603944
0.025318807 -0.0022169054 -0.008850202 4278603434
0.034541383 -0.0067994297 -0.0059202653 4278800549
0.038447279 -0.013285369 -0.00036252756 4278538664
0.043061588 -0.021977603 0.0071814414 4278342058
0.049076781 -0.035083823 0.018701438 4278538408
0.053609274 -0.043028802 0.025548872 4279653013
-0.026497796 -0.0098828748 0.0038012546 4281226364
-0.025372013 -0.0052706152 -0.00073650852 4278999193
-0.023590416 -0.0043853521 -0.0018537566 4279457684
-0.021673813 -0.0042451918 -0.0022876747 4279720844
-0.01989989 -0.0033603236 -0.0034029856 4279851914
0.021912687 -0.0063134283 -0.0071368408 4281031033
0.023044739 -0.0032079592 -0.010246355 4278669224
0.02456354 -0.0015841126 -0.0120157 4278340784
0.025865039 0.00077896565 -0.014449622 4278534329
0.028406572 -0.0012970492 -0.012881204 4278534329
0.03439616 -0.0084021538 -0.007093959 4278276014
0.038300119 -0.014907822 -0.0015506232 4278603943
0.043351855 -0.025104091 0.0073022414 4278407338
0.049145989 -0.037510611 0.018128753 4278603943
0.053904086 -0.046217948 0.025620833 4280176528
-0.026241705 -0.013718501 0.0046801604 4281225854
-0.025241584 -0.0083452016 -0.00053140614 4278932638
-0.023454607 -0.00745745 -0.0016482025 4279325593
-0.021532826 -0.0073169321 -0.0020833109 4279457174
-0.019753508 -0.0064295232 -0.0031982139 4279260569
-0.017979383 -0.0055423528 -0.0043119062 4279522708
-0.016062453 -0.0054018348 -0.0047456529 4279719568
-0.014145374 -0.0052612126 -0.0051793535 4279981709
-0.012074895 -0.0058664829 -0.0049355272 4280767364
-0.010154895 -0.0057254136 -0.005369714 4281618553
0.020776734 -0.0041937828 -0.011640258 4280308618
0.022298414 -0.0025654435 -0.013407085 4278406063
0.023809483 -0.00093782693 -0.01517139 4278537133
0.025516395 -5.2928925e-05 -0.01626778 4278997154
0.027845383 -0.0013938248 -0.015368402 4278734758
0.034036495 -0.0092630833 -0.0089311013 4278734760
0.038152985 -0.016529933 -0.0027384805 4278735269
0.043421559 -0.027497917 0.0067544039 4278931874
0.049214825 -0.039941519 0.017553139 4278866339
0.053072624 -0.045712233 0.022380427 4280963203
-0.02625031 -0.016067535 0.0041884203 4281160319
-0.025246322 -0.010678723 -0.0010125572 4279914898
-0.02331952 -0.010537967 -0.001448906 4279128989
-0.021532349 -0.0096479356 -0.0025640307 4279128989
-0.019750312 -0.0087581873 -0.0036779223 4279129499
-0.017973453 -0.0078686923 -0.0047905473 4279522708
-0.016054004 -0.0077280253 -0.0052248877 4279916174
-0.013833597 -0.009083949 -0.0043063005 4279850639
-0.012061626 -0.0081944764 -0.0054175616 4280243083
-0.010450572 -0.0065572411 -0.0072028344 4281028739
0.019642785 -0.0020519495 -0.016127422 4278931618
0.024343068 0.0020968392 -0.020737838 4278864808
0.027076075 -0.00073750317 -0.018512188 4278996390
0.038222786 -0.018895209 -0.0032646973 4278931108
0.043930054 -0.031382322 0.0075252894 4278997408
0.049061045 -0.041633382 0.016314298 4279259804
0.052242391 -0.045193121 0.019149907 4282340459
-0.026259258 -0.018420629 0.0036936235 4280767109
-0.024982862 -0.014519818 -0.00013979431 4279849364
-0.023048215 -0.014378496 -0.0005779257 4279587735
-0.021392606 -0.012734354 -0.002370513 4279063454
-0.019747458 -0.011090912 -0.0041606138 4279129499
-0.017822981 -0.010950014 -0.0045961952 4279457174
-0.016045906 -0.010058224 -0.0057071433 4279784338
-0.013973586 -0.010667808 -0.0054671755 4280046733
-0.012048692 -0.01052653 -0.0059025874 4280242829
-0.010279194 -0.0096349642 -0.0070115686 4280177039
-0.0030870214 -0.0068206415 -0.010763641 4282469998
-0.0011720657 -0.006679371 -0.011196267 4280571014
0.0007430017 -0.0065379888 -0.011628821 4280374153
0.0024840012 -0.0056476668 -0.012730718 4280439689
0.0045733787 -0.006254822 -0.012493715 4280701829
0.0064886883 -0.0061130449 -0.012926046 4280701574
0.0080398098 -0.0044747293 -0.014693536 4281422458
0.009580344 -0.0028370544 -0.016458597 4282143599
0.017200075 -0.0022708401 -0.018176913 4281161339
0.018907022 -0.0013819486 -0.019270288 4278539173
0.020407911 0.00025346875 -0.021025814 4278473128
0.033532508 -0.01171679 -0.011934576 4278472873
0.038942382 -0.023501411 -0.0018143523 4278669478
0.044437371 -0.035279483 0.008286763 4278669478
0.049129322 -0.044070154 0.015734334 4279784338
-0.026268534 -0.020777784 0.0031958409 4280700809
-0.024988651 -0.016865864 -0.00063013751 4279783574
-0.023051508 -0.0167244 -0.0010688612 4279718293
-0.021392971 -0.015075751 -0.0028587924 4279653013
-0.019744925 -0.013427719 -0.0046463097 4279128989
-0.017817929 -0.01328665 -0.0050824648 4279456663
-0.016038157 -0.012392513 -0.0061924001 4279849873
-0.013963506 -0.013004124 -0.0059546167 4279980944
-0.012188777 -0.012110122 -0.0070632314 4280177039
-0.010419227 -0.01121638 -0.0081705833 4280308363
-0.0032270625 -0.0083955899 -0.011917752 4282600813
-0.0013122484 -0.0082543418 -0.012350344 4280505478
0.00060266256 -0.0081129894 -0.012782884 4280177549
0.0021697544 -0.0064695328 -0.014550976 4279850129
0.004079517 -0.0063282847 -0.014982149 4279719059
0.0061686262 -0.0069375262 -0.014746651 4279980688
0.0080811977 -0.006795831 -0.015178274 4279849618
0.0096246377 -0.0051535964 -0.016940692 4279980943
0.011532009 -0.0050120503 -0.017370971 4280439944
0.013629358 -0.0056202114 -0.017136905 4280964479
0.0153469 -0.0047285706 -0.018231263 4280964734
0.017059177 -0.0038372427 -0.019324299 4280767619
0.01856827 -0.0021969825 -0.021078466 4280374408
0.020066734 -0.00055735558 -0.022830192 4279653268
0.021757811 0.00033278763 -0.023918159 4279456408
0.02344358 0.0012226328 -0.025004843 4278735523
0.025749646 -0.00013303012 -0.024110198 4278604199
0.02848877 -0.0029842257 -0.021898963 4278538664
0.033173919 -0.012565896 -0.013762978 4278407848
0.039227359 -0.026629165 -0.0016930979 4278276778
0.045162708 -0.039937124 0.0096965134 4278276524
0.048753545 -0.045016125 0.013837352 4280899198
-0.026015684 -0.024651639 0.0040467698 4282863718
-0.024593145 -0.021484345 0.00090223923 4280045970
-0.022918575 -0.019830257 -0.0008881595 4279784339
-0.021254495 -0.018176906 -0.00267608 4279784339
-0.019600876 -0.016524158 -0.0044615204 4279129499
-0.017668709 -0.016382724 -0.0048988676 4279587478
-0.01588358 -0.015485995 -0.0060084136 4279849618
-0.014103606 -0.014589578 -0.0071166651 4279915409
-0.012023851 -0.01520288 -0.0068816217 4279915409
-0.010248929 -0.01430659 -0.007988547 4280112014
-0.0084792152 -0.013410561 -0.0090942094 4281879673
-0.0030354895 -0.011477798 -0.011735567 4281749624
-0.0011155047 -0.011336192 -0.012169351 4280636039
0.00063346699 -0.010441035 -0.013269906 4280112524
0.002377212 -0.009546198 -0.01436915 4279980943
0.0044685639 -0.010157555 -0.014135887 4279980944
0.0063862316 -0.010015637 -0.014568781 4279915153
0.0083039738 -0.0098735541 -0.01500157 4279980178
0.010037377 -0.0089789852 -0.016098104 4279849618
0.011578467 -0.0073325038 -0.017856576 4279587989
0.013298668 -0.0064386278 -0.018949987 4279784849
0.015205987 -0.0062968433 -0.019380061 4279522199
0.01711335 -0.0061549246 -0.019810045 4279194523
0.018625338 -0.0045101121 -0.021561584 4279391384
0.02032708 -0.0036171451 -0.022650408 4279981199
0.021820497 -0.0019734204 -0.0243976 4281815668
0.023508966 -0.0010811836 -0.025483251 4279849363
0.025400473 -0.00093984604 -0.025909204 4279325339
0.028346989 -0.0045503899 -0.023045924 4278932128
0.033029415 -0.014160499 -0.014930722 4278932383
0.039511584 -0.029765397 -0.0015779687 4279128988
0.045010544 -0.04161267 0.0084695816 4279391383
0.04793489 -0.044458181 0.010632925 4282602088
-0.022240967 -0.02597703 0.0019785166 4282732649
-0.020560697 -0.024318099 0.00019018166 4281487738
-0.018890887 -0.022659853 -0.0015956517 4280635783
-0.017087243 -0.021759763 -0.0027078036 4280242573
-0.015288763 -0.020859912 -0.0038187411 4280045968
-0.013645113 -0.019203246 -0.0055983937 4280111759
-0.01185964 -0.018304124 -0.006706161 4280111759
-0.010079354 -0.017405279 -0.0078126658 4280112014
-0.008146666 -0.017263226 -0.008249687 4280308619
-0.0063741356 -0.016364671 -0.0093543017 4280701318
-0.004443869 -0.016222537 -0.0097905817 4280177039
-0.0026790723 -0.015324354 -0.010893219 4281095039
-0.0010877624 -0.013670675 -0.012660396 4280373899
0.00049300864 -0.012017623 -0.014425145 4279718804
0.0027575083 -0.013386726 -0.013528884 4279653269
0.0048564933 -0.013999686 -0.013298989 4279784338
0.0066031031 -0.013102226 -0.01439706 4279653268
0.0081629157 -0.011450216 -0.016156688 4279587734
0.0097121596 -0.0097989291 -0.017913811 4279063199
0.011437688 -0.0089026242 -0.019006819 4279391128
0.013347466 -0.0087608099 -0.019437555 4279456663
0.015449479 -0.009372808 -0.019207787 4279128988
0.017362006 -0.0092305094 -0.019638941 4278932383
0.019077066 -0.0083345175 -0.020729225 4279522199
0.020586658 -0.0066853613 -0.022476867 4279587734
0.022288468 -0.0057900846 -0.023563957 4279390873
0.023779484 -0.0041421205 -0.025307197 4279325339
0.025884293 -0.0047531575 -0.02507749 4278997153
0.028626852 -0.007621482 -0.022880208 4278866593
0.033311859 -0.017259583 -0.014787024 4278669988
0.039362781 -0.031405628 -0.0027790843 4278735523
0.044858407 -0.043287933 0.0072428733 4279390874
-0.016363531 -0.027918071 0.00013707392 4282732393
-0.014549054 -0.027014919 -0.0009758044 4282208369
-0.012889214 -0.025352672 -0.002755871 4281290624
-0.01108776 -0.024450243 -0.0038656276 4280963204
-0.0096010119 -0.022030205 -0.006308591 4280831623
-0.0078152642 -0.021128677 -0.0074146036 4280635528
-0.0061947666 -0.019468874 -0.0091853607 4280570504
-0.0040965974 -0.020084709 -0.0089574065 4280439178
-0.0024891868 -0.018425643 -0.010725038 4280636039
-0.00089231879 -0.016767189 -0.012490225 4280242829
0.00052331015 -0.014351681 -0.014916492 4279849618
0.0027899183 -0.015724935 -0.014024061 4279653269
0.0048912093 -0.016339928 -0.013796349 4279718804
0.0068192184 -0.016197234 -0.014231578 4279653269
0.008203242 -0.013783574 -0.016650341 4279325338
0.0099393874 -0.012884423 -0.017744251 4279259803
0.011856943 -0.012742132 -0.018176831 4279522199
0.013774548 -0.012599722 -0.018609326 4279260059
0.015692201 -0.012457177 -0.019041736 4278998174
0.017609894 -0.012314498 -0.019474063 4278997918
0.019330312 -0.011415929 -0.020563904 4279063453
0.021045446 -0.01051762 -0.021652456 4279325339
0.022755276 -0.0096195936 -0.022739731 4279325339
0.024459789 -0.0087217838 -0.023825739 4279128478
0.026366951 -0.0085792392 -0.024255197 4278932128
0.029116541 -0.01145573 -0.02206609 4278604453
0.033593543 -0.02036716 -0.014649464 4278735778
0.039214008 -0.033045575 -0.0039799837 4279718548
0.043831944 -0.041946113 0.0034050867 4281357689
0.046301253 -0.04330197 0.0042536668 4282340459
-0.002300024 -0.02153533 -0.010563066 4283059049
-0.00069759786 -0.019872159 -0.012326187 4281749624
0.0010647997 -0.018969536 -0.01342486 4280832388
0.0029951483 -0.018826932 -0.013860812 4280767109
0.0049255751 -0.018684201 -0.014296683 4280373899
0.0063206144 -0.016263328 -0.016713088 4280045969
0.0080620609 -0.015361786 -0.017806605 4279193758
0.0097982399 -0.014460489 -0.018898889 4279521433
0.012088593 -0.01583574 -0.018014589 4279587735
0.014011364 -0.015692934 -0.018448247 4279456408
0.015742395 -0.014791667 -0.019539032 4279391129
0.017662592 -0.014648795 -0.019971915 4279390618
0.019582819 -0.014505818 -0.020404723 4279259804
0.021303304 -0.013604894 -0.021492876 4279128988
0.023018498 -0.01270429 -0.022579707 4278997918
0.024728386 -0.01180397 -0.023665257 4278997918
0.027056202 -0.013175368 -0.022788655 4278866849
0.029815486 -0.016059786 -0.020608295 4278736288
0.033874452 -0.023483098 -0.014518106 4278801823
0.039065257 -0.03468518 -0.0051806374 4279129499
0.043243881 -0.042099252 0.00088282675 4281881714
0.0033726245 -0.022699341 -0.013043901 4283254888
0.0051352344 -0.021794319 -0.014140757 4282797418
0.0067143068 -0.020127989 -0.015894959 4282012019
0.0084637702 -0.01922369 -0.016988652 4280504714
0.010207985 -0.018319659 -0.01808106 4280111503
0.012133211 -0.018176816 -0.018515376 4280046478
0.01386955 -0.017273121 -0.019605825 4279718294
0.015792213 -0.017130189 -0.020039355 4279586968
0.017714914 -0.01698716 -0.020472819 4279456664
0.019637652 -0.016843982 -0.02090618 4279456663
0.021360837 -0.015940741 -0.021993261 4279194268
0.023078721 -0.015037715 -0.023079094 4279259804
0.024996202 -0.014894545 -0.023510978 4278998174
0.026913691 -0.014751256 -0.02394278 4279587988
0.029672028 -0.017644435 -0.021768793 4279522708
0.033728857 -0.025089607 -0.015694572 4279195289
0.038700983 -0.035565704 -0.007031328 4279719314
0.042656619 -0.042243287 -0.0016328469 4282602598
0.014482722 -0.021904677 -0.018144699 4283320679
0.016798664 -0.02328641 -0.017272582 4282534768
0.018737163 -0.023142204 -0.017709607 4281552509
0.020872407 -0.02376017 -0.01749373 4280700808
0.022215508 -0.021329127 -0.019887792 4280045968
0.023946725 -0.020422928 -0.020974977 4279587478
0.025263272 -0.017993607 -0.023362856 4279194779
0.027600622 -0.01937297 -0.022494996 4279129243
0.029948628 -0.020751461 -0.021629388 4279391639
0.03422131 -0.028979242 -0.014923124 4279915663
0.038552482 -0.037202492 -0.0082299188 4281292409
0.022497486 -0.032235697 -0.012801017 4283320678
0.023864953 -0.029796332 -0.015195632 4282077044
0.025620144 -0.028886184 -0.01628658 4281815158
0.027165543 -0.027212456 -0.018025612 4280177548
0.02911463 -0.02706679 -0.018464511 4279588244
0.031273529 -0.02768451 -0.018255109 4279653778
0.034712598 -0.03288167 -0.014161053 4279981454
0.038404003 -0.038838983 -0.0094282925 4281357943
-0.019347832 -0.035437107 -0.018865999 4282601069
-0.021417812 -0.037164308 -0.019591585 4282601069
-0.023760371 -0.037318483 -0.021620259 4282798438
-0.012794107 -0.038055792 -0.02784152 4282601068
0.0041450821 0.0063970014 0.030650839 4285099048
0.005268313 0.010070696 0.02668846 4285623073
0.0079436339 0.0073960721 0.029051486 4285753888
0.011886828 -0.00021159649 0.036320556 4285688099
0.00050739571 0.010983817 0.023578253 4284968234
0.0014508292 0.015375331 0.018924508 4285624094
0.0028800555 0.01764188 0.016381513 4285885978
0.0053446367 0.015663281 0.018045364 4285819933
0.0088925213 0.0094429776 0.023905315 4285885978
0.012127377 0.0046402439 0.028355848 4285689373
0.014666826 0.0026674345 0.030003071 4285361444
0.016850613 0.002109088 0.030250456 4285164329
-0.0013069287 0.01646734 0.01538541 4285296928
-0.00021937862 0.020160057 0.01144751 4285689629
0.001531031 0.021011956 0.010313774 4285557794
0.0039762557 0.019025311 0.011977056 4285557538
0.0069705807 0.01491192 0.01573175 4285689373
0.010177296 0.010091819 0.020177048 4285689629
0.012323387 0.0095283836 0.020431202 4285559069
0.014289215 0.0096741989 0.019987695 4285493789
0.015878469 0.011237249 0.018152421 4285427998
0.01745712 0.012799665 0.016319577 4285427744
0.019412488 0.012945011 0.015878664 4285820443
0.022153191 0.0102586 0.018214332 4285819933
0.026308127 0.0026194975 0.025399897 4285951004
0.030723374 -0.0057227463 0.033265289 4285951259
-0.00211633 0.017721049 0.011419682 4285493278
-0.00069960952 0.019999661 0.0088892784 4285953044
0.0010455474 0.020853281 0.0077584013 4285886999
0.0034847334 0.018859632 0.0094180796 4285820953
0.006649904 0.014021121 0.013861062 4285886998
0.0096723102 0.0098968148 0.01759957 4285952789
0.011812754 0.0093307197 0.01785337 4285558814
0.013216726 0.011609018 0.01532633 4285558813
0.014604777 0.013886228 0.012802938 4285624348
0.016167719 0.015451781 0.010976972 4285624348
0.017720055 0.017016679 0.009153435 4285689373
0.020046279 0.015740201 0.010102483 4285623583
0.023178346 0.011624791 0.013816828 4285885979
0.027148217 0.0046727806 0.020289298 4285885978
0.031783737 -0.0044038743 0.028822001 4285623838
-0.0045104735 0.017421916 0.0092956945 4284969253
-0.0027574897 0.018278085 0.0081645418 4285559069
-0.0011789985 0.01984828 0.006337719 4285624604
0.00090480596 0.019275427 0.0066022892 4285755928
0.0033432767 0.017275155 0.0082571525 4285820953
0.0063296668 0.013134994 0.011993788 4285821209
0.0089882202 0.010424368 0.014334258 4285624349
0.010572504 0.011995569 0.012506487 4285624349
0.011960961 0.014279202 0.0099879298 4285624349
0.013333499 0.016561799 0.0074729975 4285755929
0.015071318 0.017417774 0.0063459706 4285952534
0.016803868 0.018273473 0.0052202139 4285689629
0.018922981 0.017704189 0.0054775346 4285623839
0.021841824 0.014286757 0.0084949639 4285624094
0.025391104 0.0087355003 0.013575591 4285690139
0.03061435 -0.0025065541 0.024159513 4285690138
0.036955781 -0.017300017 0.038166877 4285558814
-0.0049787164 0.017273858 0.0067435149 4285362464
-0.0033974275 0.018848538 0.0049192291 4285559069
-0.0014884844 0.018989481 0.0044880528 4285558559
0.00076410919 0.017697848 0.0054463726 4285624094
0.0035507083 0.01425872 0.0084846299 4285558559
0.0060098618 0.012253538 0.010129942 4285558558
0.0081255883 0.011681147 0.010385863 4285558814
0.0095170811 0.013971478 0.0078714471 4285559068
0.011262819 0.014830001 0.0067441184 4285624349
0.012815569 0.016403377 0.0049269665 4285624348
0.014357716 0.017976128 0.0031122398 4285821208
0.016275398 0.018118657 0.0026798099 4285886999
0.018584598 0.016832173 0.0036260784 4285821463
0.021102868 0.014832303 0.0052586757 4285755929
0.025044546 0.0078345686 0.011704445 4285690139
0.030669279 -0.0048707351 0.023638308 4285558558
0.037834607 -0.022565134 0.040358968 4285493024
-0.0073547214 0.016994238 0.004629204 4284969253
-0.0057732798 0.018573128 0.0028081415 4285624603
-0.0042023696 0.020151347 0.00098953675 4285755928
-0.0019663982 0.018854044 0.0019481629 4285821463
0.00062346458 0.01612056 0.0042906627 4285821464
0.0034089461 0.012670442 0.007320907 4285690139
0.0055136085 0.012094945 0.0075775925 4285558813
0.0072645806 0.012955815 0.0064505674 4285559069
0.0086458698 0.015251875 0.0039433707 4285559068
0.010381021 0.016111791 0.0028200839 4285624349
0.012110919 0.016971417 0.0016980525 4285558558
0.013835553 0.017830774 0.00057729892 4285558558
0.016133506 0.016539015 0.0015226696 4285689884
0.01824664 0.015964895 0.0017780159 4285624349
0.021157909 0.012525097 0.0047806185 4285624349
0.025301009 0.0047892332 0.011896279 4285493278
0.031537924 -0.010103613 0.025857694 4285559069
-0.009402737 0.01528123 0.0039081741 4284904994
-0.0076551214 0.016143247 0.0027829744 4285427743
-0.00607609 0.017726287 0.00096572842 4285689628
-0.0045075975 0.019308716 -0.00084908213 4285689883
-0.0022747964 0.018006749 0.00010698568 4285755674
0.00014011562 0.015985027 0.0017521512 4285952789
0.0027451403 0.013244033 0.0040846877 4285689883
0.0048414879 0.012665674 0.0043416321 4285624093
0.0067638829 0.012807995 0.0039077122 4285624604
0.0081403106 0.015110254 0.0014065821 4285624604
0.0098702051 0.015971929 0.00028610788 4285624348
0.011594824 0.016833387 -0.0008331202 4285689629
0.013314195 0.017694503 -0.0019510556 4285689628
0.01560631 0.016397908 -0.0010076314 4285689629
0.018104445 0.014383331 0.00061949715 4285624349
0.0212126 0.010213755 0.0042996053 4285559068
0.025958028 0.0002983436 0.013451647 4285559069
0.032607958 -0.016076505 0.028745554 4285559069
-0.01001583 0.015880704 0.00067736488 4284903463
-0.008115612 0.016020611 0.00024786964 4285559579
-0.0065416507 0.017607674 -0.0015649768 4285689883
-0.0046465211 0.017747417 -0.001993156 4285492258
-0.0027512647 0.017887294 -0.0024212841 4285557794
-0.00051355362 0.016581424 -0.0014695562 4285558303
0.0019087195 0.014553785 0.0001690574 4285755674
0.0041705891 0.013249934 0.0011154944 4285624349
0.0062640198 0.012669317 0.001371474 4285624604
0.0076355711 0.014977731 -0.0011236183 4285690139
0.0088067502 0.018006951 -0.0043018758 4285690138
0.010892425 0.017426103 -0.0040438883 4285886743
0.012793671 0.017567277 -0.0044727176 4285952789
0.015272394 0.015544601 -0.0028462522 4285952788
0.017572016 0.014244311 -0.0019077454 4285755929
0.021266919 0.0078983903 0.0038155671 4285559068
0.026212558 -0.0027682781 0.01362782 4285559069
0.032660007 -0.018472672 0.028200928 4285493534
0.038607284 -0.032007165 0.040701464 4285493534
-0.010943055 0.017945819 -0.0039262017 4285296673
-0.0090562776 0.01808472 -0.004352673 4285559578
-0.007006377 0.017498069 -0.0040890053 4285887508
-0.0051166937 0.017637394 -0.004515972 4285887254
-0.00305859 0.017051548 -0.0042540114 4285821464
-0.00099505112 0.016466215 -0.0039931852 4285887254
0.0014211982 0.014431544 -0.0023581311 4285755929
0.0035009012 0.013847619 -0.0021007936 4285624604
0.0054070577 0.013988711 -0.0025310684 4285558813
0.0069500469 0.015578538 -0.0043330081 4285690139
0.0084824413 0.017167732 -0.0061325263 4285689883
0.010004282 0.018756211 -0.0079295188 4285623584
0.012084354 0.018172868 -0.0076718517 4285557793
0.01474664 0.015419431 -0.0053648823 4285886744
0.017430283 0.012667716 -0.0030626291 4285755418
0.021123271 0.0063020438 0.002646259 4285624093
0.026065815 -0.0043975264 0.012434445 4285624094
0.031291209 -0.015813783 0.022885822 4285427489
0.035162687 -0.02216576 0.028554711 4284900914
-0.011238374 0.017120093 -0.0057547968 4285362464
-0.0095145181 0.017986834 -0.0068697222 4285493533
-0.0076330826 0.018125445 -0.0072949156 4285558558
-0.0055860542 0.017536469 -0.0070321932 4285558558
-0.0037017129 0.017675497 -0.007457884 4285689884
-0.0014757067 0.01636003 -0.0065101385 4285624093
0.00076104328 0.015045501 -0.0055647832 4285558813
0.0028324462 0.014458731 -0.0053071924 4285558814
0.0045516975 0.015325949 -0.006420542 4285558814
0.0062657222 0.016192853 -0.007532584 4285624603
0.007974498 0.017059468 -0.0086433534 4285953299
0.0096780136 0.017925814 -0.0097528566 4285689374
0.011755094 0.017340042 -0.0094961822 4285558049
0.014413793 0.01457765 -0.0071949908 4285624093
0.017288581 0.011091426 -0.0042172829 4285820953
0.021177057 0.0039806888 0.0021578362 4285624093
0.025719037 -0.0053013414 0.010561254 4285558303
0.029316613 -0.010953486 0.015551805 4285230374
-0.011061415 0.014107548 -0.0055156988 4285427744
-0.0094921291 0.01570718 -0.0073177055 4285361189
-0.0076081567 0.015845932 -0.0077434969 4285361698
-0.0058893263 0.016714692 -0.0088554807 4285361953
-0.0038398467 0.016123831 -0.0085948873 4285427489
-0.0016143695 0.014803939 -0.0076503423 4285427743
0.00027536601 0.01494357 -0.0080770925 4285493534
0.0021651872 0.015083313 -0.0085037835 4285559068
0.0038765334 0.015952073 -0.0096136611 4285559068
0.0057638586 0.016091861 -0.010039618 4285559323
0.0074673556 0.016960293 -0.011147607 4285756183
0.0089790486 0.018556714 -0.01293573 4285821718
0.01104781 0.017968163 -0.012678821 4285821718
0.013697598 0.015196368 -0.010382239 4285756183
0.017146915 0.0095154271 -0.0053717298 4285690139
0.021033283 0.0023827627 0.00098736957 4285427489
0.02537268 -0.0062004924 0.0086914748 4285427489
-0.010728084 0.010353908 -0.0045963554 4285294889
-0.0089908168 0.011225998 -0.0057110828 4285229353
-0.007258743 0.012097791 -0.0068245144 4285097519
-0.0055318698 0.012969285 -0.00793669 4285097773
-0.0038102008 0.013840526 -0.0090475921 4285163819
-0.0019233711 0.013979815 -0.0094737913 4285295399
-3.6437064e-05 0.014119223 -0.0098999199 4285427234
0.0020262972 0.013527475 -0.0096437335 4285427234
0.0037376992 0.014398396 -0.010751992 4285493533
0.0054438412 0.015269086 -0.011859015 4285493534
0.0071447492 0.016139463 -0.012964725 4285493534
0.0086540319 0.017740048 -0.014749009 4285493278
0.010719795 0.017149076 -0.014493089 4285493024
0.013174318 0.015098408 -0.012880942 4285493278
0.016810939 0.0086696297 -0.007203999 4285493278
0.021086548 5.543232e-05 0.00049456209 4285427489
-0.010395885 0.0065874457 -0.0036864756 4285229098
-0.0088101253 0.0081968978 -0.0054855989 4285229608
-0.0050106719 0.0084768012 -0.0063442467 4285163053
-0.0034458376 0.010085076 -0.0081384396 4285229354
-0.0017213672 0.010958791 -0.0092482632 4285229608
0.00017075613 0.011098579 -0.0096755726 4285229608
0.002238486 0.010505006 -0.0094221709 4285360934
0.0039552562 0.011378497 -0.010529994 4285493024
0.0056667961 0.012251705 -0.011636552 4285295144
0.0073730797 0.013124645 -0.012741837 4285229353
0.0087017715 0.015462704 -0.015202379 4285361443
0.010581035 0.015602224 -0.015626265 4285361443
0.012651838 0.015009552 -0.015373053 4285427489
0.016087078 0.0092927366 -0.01038576 4285361953
0.02054901 -8.0287457e-05 -0.0020287503 4285098284
-0.010378204 0.0042822063 -0.0041525131 4285295144
-0.0086301565 0.0051593855 -0.0052663567 4285360424
-0.006563291 0.0045629814 -0.0050148624 4285294633
-0.0049850233 0.0061764419 -0.0068088369 4285163818
-0.0030825995 0.0063167438 -0.0072386554 4285097773
-0.001350075 0.0071932152 -0.0083486559 4285163564
0.00072254241 0.0065977052 -0.0080981078 4285098028
0.0026252568 0.0067383647 -0.0085277362 4285229353
0.0045280568 0.006879136 -0.008957305 4285294889
0.0060696453 0.0084905773 -0.010742466 4285229098
0.0079672784 0.0086312145 -0.011170684 4285360424
0.0094930269 0.010241762 -0.012952144 4285426723
0.011385459 0.010382235 -0.013379018 4285492768
0.013469238 0.0097883642 -0.01313037 4285426978
0.016528167 0.0055235177 -0.009508579 4285427234
0.020405527 -0.0016751066 -0.0031969398 4284901679
-0.010047838 0.00049441308 -0.0032582134 4284901679
-0.0082917586 0.0013743192 -0.0043722503 4285294888
-0.0065408982 0.0022539571 -0.0054850201 4285229099
-0.0049597099 0.003872022 -0.0072764042 4285163563
-0.0028876364 0.0032740384 -0.0070275678 4285097773
-0.00097993016 0.0034148246 -0.0074585057 4285097773
0.0011003464 0.0028176606 -0.007211301 4285097773
0.0030109063 0.0029588863 -0.0076427083 4285163819
0.0049215443 0.0031002313 -0.0080740545 4285294889
0.0064713582 0.0047166795 -0.0098578213 4285294889
0.0085599348 0.0041206181 -0.0096121822 4285360424
0.01028236 0.004999198 -0.010717743 4285426468
0.012187961 0.0051406547 -0.011147582 4285492258
0.013902515 0.0060188919 -0.012251184 4285426724
0.016968094 0.0017415434 -0.0086408295 4285360678
-0.0098748952 -0.0025648326 -0.0030533858 4284900913
-0.0079544708 -0.0024235845 -0.0034875534 4285228844
-0.0065188333 -5.9105456e-05 -0.0059582219 4285163308
-0.0047704689 0.0008226186 -0.0070687062 4285032239
-0.0028603412 0.00096346438 -0.0075002848 4285032239
-0.00078050792 0.00036399066 -0.0072547714 4285097774
0.0009601973 0.0012455136 -0.0083632506 4285098029
0.0028706081 0.001386717 -0.008794643 4285229354
0.0049586967 0.00078821927 -0.0085507184 4285229098
0.0066916868 0.0016695186 -0.0096571855 4285360679
0.0087852478 0.0010716468 -0.009414332 4285426723
0.010513049 0.0019527972 -0.010519452 4285361189
0.012423821 0.0020946264 -0.010950465 4285360933
0.014525548 0.0014977232 -0.010709178 4285426213
0.017213322 -0.0013146773 -0.0084540788 4285360679
-0.008094646 -0.0040040463 -0.0046458058 4285097519
-0.0063357018 -0.0031194538 -0.0057571828 4285163563
-0.0045819506 -0.0022351667 -0.0068672355 4285098028
-0.0030001588 -0.00060831755 -0.0086520556 4285032493
-0.0010900833 -0.00046739727 -0.0090835616 4285032494
0.00082008913 -0.00032632053 -0.0095149837 4285032494
0.0027303658 -0.00018513203 -0.0099463463 4285163564
0.0049954988 -0.0015278906 -0.0090303756 4285229098
0.0067311972 -0.00064422935 -0.010135824 4285361189
0.0088270791 -0.0012440979 -0.009895131 4285360933
0.010557592 -0.00036058575 -0.010999233 4285361189
0.012470886 -0.00021857768 -0.011430822 4285360933
0.014193524 0.00066460669 -0.012532949 4285426469
0.016877707 -0.0021567494 -0.010283627 4285295143
0.0027646944 -0.0025011078 -0.010425206 4284900913
0.0048547536 -0.0031038374 -0.010185044 4285097773
0.0069502257 -0.003706038 -0.0099459998 4285163563
0.008503519 -0.0020762533 -0.011720568 4285361189
0.010231417 -0.0011907592 -0.012822425 4285360933
0.011954047 -0.00030550361 -0.013923058 4285295398
0.014242932 -0.0016502962 -0.013015252 4285360679
0.016542509 -0.0029941201 -0.012109801 4284901168
0.008362703 -0.0036497563 -0.012873359 4285163564
0.0099056587 -0.0020162389 -0.014642252 4285229353
0.012000993 -0.0026203096 -0.014404517 4285294888
0.013911378 -0.0024784058 -0.014835365 4285294634
