# .PCD v0.7 - Point Cloud Data file format
VERSION 0.7
FIELDS x y z rgba
SIZE 4 4 4 4
TYPE F F F U
COUNT 1 1 1 1
WIDTH 764
HEIGHT 1
VIEWPOINT 0 0 0 1 0 0 0
POINTS 764
DATA ascii
-0.014885038 -0.036166437 -0.018176323 4287115844
-0.014123652 -0.029098541 -0.024535146 4287050563
-0.015512533 -0.034666695 -0.021972137 4287704638
-0.014105499 -0.03145308 -0.024993367 4287900733
0.0063412562 0.0037151948 0.061249115 4281109063
-0.0023230985 0.0028688833 0.060125962 4281436993
-0.0012459904 0.007747151 0.054617837 4281177404
-0.00063603371 0.014660664 0.046923965 4281438014
0.00079568103 0.017497256 0.0436229 4279680044
0.0029489212 0.016938642 0.043975603 4280265524
0.0061665475 0.011629894 0.049433373 4278963494
0.010966856 -0.00046100467 0.062172361 4278703139
-0.015657753 0.0052046701 0.056109343 4282217549
-0.014486454 0.010103509 0.050594255 4280522563
-0.01297183 0.012953237 0.047283515 4280066878
-0.010441579 0.010344528 0.049832053 4280524349
-0.0085512213 0.011147186 0.048719633 4280654399
-0.0065311082 0.011267796 0.048339151 4281307198
-0.0051992573 0.014796868 0.044306807 4281046843
-0.0036134385 0.016961433 0.041739304 4280917048
-0.002329722 0.02048783 0.037716169 4280917814
-0.00063556433 0.021969113 0.035884738 4281764414
0.001641646 0.020725776 0.036968768 4281503294
0.0046852641 0.016078785 0.041690119 4281307708
0.008996971 0.0059885234 0.052223179 4281242174
-0.019125111 0.01092913 0.047237936 4281305158
-0.018206537 0.017212451 0.040272247 4281306689
-0.016591616 0.019384757 0.037703704 4280981053
-0.014865875 0.020871725 0.035869006 4281502273
-0.012373969 0.018251855 0.038418315 4280134963
-0.010256886 0.017686024 0.038774163 4281176894
-0.0079994649 0.01643654 0.039858378 4281178169
-0.0064187646 0.018607322 0.037296589 4281177404
-0.0045736581 0.019409753 0.036194492 4280981564
-0.0031624921 0.022262689 0.032910064 4279352368
-0.0013359785 0.023064189 0.031811602 4279613744
0.00093004107 0.021815717 0.0328945 4279612979
0.0038107187 0.017835587 0.036880571 4279548719
0.0077991784 0.0090770274 0.045940921 4280526643
0.013577182 -0.0071877837 0.062966116 4280851513
-0.020559587 0.0050206184 0.05082202 4282083163
-0.020310953 0.015449651 0.039478287 4281241409
-0.01917275 0.020377308 0.033991899 4279938104
-0.017328389 0.021181304 0.032891117 4280719679
-0.01536265 0.02129833 0.032520622 4281306688
-0.013008855 0.019355688 0.034336362 4280459578
-0.010770794 0.018100493 0.035420921 4280526133
-0.0085218772 0.016846091 0.036503464 4281046843
-0.0068115108 0.01833687 0.034675185 4280916284
-0.0051117837 0.019827154 0.032848928 4280916284
-0.0035654157 0.022002652 0.030298591 4280460089
-0.0015988126 0.02212039 0.02992842 4280199733
0.00051597506 0.021552768 0.030283485 4280525623
0.003239397 0.018244289 0.033536371 4280722229
0.006603688 0.012196913 0.039681014 4281047353
0.011734225 -0.0013823807 0.053777084 4281047353
-0.020563453 0.0026533306 0.050359629 4281886813
-0.020665072 0.015184171 0.036851544 4281175365
-0.019652329 0.020816352 0.030648503 4280524093
-0.017939769 0.022311192 0.02882266 4279873333
-0.015858419 0.02173857 0.029181849 4279874354
-0.013642419 0.020477567 0.030267224 4280135474
-0.011151887 0.017839946 0.032803938 4280916538
-0.0087742433 0.0158922 0.034610514 4280981564
-0.0069291778 0.016698904 0.033511531 4281047099
-0.0050893538 0.017505385 0.032413617 4280981053
-0.0035399497 0.019687716 0.029867467 4281046333
-0.0015707836 0.019805599 0.0294968 4281307709
0.00039847568 0.019923579 0.02912619 4281176893
0.0026690811 0.018666599 0.030201834 4281243449
0.0055637881 0.01466082 0.034166001 4281242683
0.0098948479 0.0044721663 0.044623036 4281176384
0.016210889 -0.013956219 0.06372416 4281176384
-0.020427287 0.011469446 0.037869338 4281957448
-0.019647181 0.018502917 0.03022318 4280719423
-0.01805535 0.020693675 0.027673401 4281046843
-0.016100571 0.020809993 0.027304936 4281046589
-0.014016677 0.020235371 0.02766208 4281111358
-0.011663932 0.018279385 0.029468436 4281307199
-0.0091606192 0.01563374 0.031996351 4281242428
-0.0070467927 0.015061207 0.032348074 4281177149
-0.0050672106 0.015179493 0.031975288 4281046844
-0.0033723488 0.016678385 0.030156422 4281177148
-0.0013979301 0.016796567 0.029784758 4281177659
0.00028101727 0.018294666 0.027969077 4281112123
0.0020997711 0.019102473 0.026877005 4279159334
0.0045258515 0.017151713 0.02867008 4279614763
0.008370731 0.0089970231 0.036944944 4279419434
0.014182523 -0.0074249804 0.053847946 4279419434
-0.019718058 0.0049660802 0.041781913 4282216784
-0.019159235 0.01341027 0.032697011 4281176383
-0.017923974 0.01768928 0.027974345 4280917049
-0.016342364 0.019886129 0.025431365 4280720698
-0.014647901 0.021388914 0.023615418 4279353898
-0.012438014 0.020118695 0.024695581 4278832169
-0.0098146759 0.016770393 0.027942702 4279678768
-0.0074381158 0.014809407 0.029739827 4280982074
-0.0053244643 0.014234677 0.030090068 4281242428
-0.0037743375 0.016430296 0.027553413 4281242939
-0.0019503534 0.017240413 0.026461806 4280851768
-0.00013165548 0.018050358 0.025371227 4280982073
0.0016817637 0.018860053 0.024281755 4281048119
0.0037958734 0.018285904 0.02463224 4281372989
0.0068495385 0.01356218 0.029295467 4279940143
0.012158066 -0.00084015727 0.044009861 4278963494
0.018545808 -0.019383565 0.063010648 4279419434
-0.018914036 0.0096876994 0.033707302 4281109573
-0.017793179 0.014676228 0.02826919 4280719678
-0.016583785 0.018967029 0.023561092 4280851768
-0.015020475 0.021169502 0.021026446 4279876394
-0.013210442 0.021980479 0.019938694 4279810604
-0.0081022047 0.015956767 0.025696285 4280787254
-0.0061389916 0.016074024 0.02532655 4281177403
-0.0047440231 0.018970106 0.022077324 4281242939
-0.0027913377 0.019086946 0.02170972 4280786743
-0.00098602846 0.019898288 0.020623256 4279875373
0.00096414238 0.020015173 0.020256268 4281308219
0.0029143877 0.020132177 0.019889349 4281569084
0.0056423172 0.01677987 0.023109315 4281504060
0.0098210722 0.0071857497 0.032776102 4280721973
0.016005835 -0.010726377 0.051025033 4280721973
0.021839615 -0.026549831 0.067100234 4280526643
-0.018790171 0.0066502243 0.03398601 4282346578
-0.018278651 0.015144765 0.024948606 4280981564
-0.017202288 0.020146191 0.01953019 4280655674
-0.015520856 0.021656994 0.017723093 4281503294
-0.013718855 0.022469677 0.016638441 4281568829
-0.011252709 0.019795213 0.019154025 4281243193
-0.0087649599 0.017122142 0.021665616 4280982839
-0.0068126097 0.017238736 0.021297909 4281242939
-0.0052859448 0.019446176 0.018775294 4281112634
-0.0033414476 0.019562509 0.018409217 4281112378
-0.0015441552 0.020375524 0.017325899 4280331824
0.0003978312 0.020491902 0.01696044 4280071978
0.0023398921 0.020608384 0.016595041 4280332589
0.0050588362 0.017244481 0.019808659 4280528173
0.008752998 0.0097066388 0.027308974 4280657459
0.013792191 -0.0033937767 0.040516503 4281047864
0.019750632 -0.019966081 0.057276309 4281242684
-0.01878719 0.0043045953 0.033537779 4282542164
-0.018763117 0.015626892 0.021637665 4280915008
-0.017819487 0.021343436 0.015512047 4279744814
-0.015891902 0.021458127 0.015148703 4280134198
-0.014095232 0.022272736 0.014066612 4280593198
-0.011635222 0.019589029 0.016576903 4280528683
-0.0092900023 0.017606169 0.018365456 4280656694
-0.0070676543 0.016323693 0.01943375 4280981308
-0.0054015554 0.017838441 0.017633153 4280982074
-0.0036016367 0.018653702 0.016550861 4280852023
-0.0019541495 0.020167593 0.014753874 4281375539
-1.7661601e-05 0.020283636 0.014389442 4281571378
0.0019189045 0.020399787 0.014025075 4281898034
0.0043211468 0.01842105 0.015803421 4281898543
0.0072132275 0.014348947 0.019719901 4282096169
0.011261612 0.005392842 0.028622802 4282617133
0.017012496 -0.010537326 0.044639628 4282617133
0.02288699 -0.026459947 0.060633287 4282684199
-0.018303923 -0.00085569173 0.035963446 4282541653
-0.018755279 0.013312735 0.02121127 4281044803
-0.017933346 0.019749507 0.01437954 4280524858
-0.016005881 0.019864164 0.014016198 4280525624
-0.014078293 0.019978926 0.013652897 4280721718
-0.01201703 0.019391976 0.014006326 4281310259
-0.0099502802 0.018805467 0.014358796 4281375793
-0.0077391155 0.017517842 0.015426012 4281505079
-0.0055171177 0.016231 0.016491216 4281505845
-0.0035728738 0.016347289 0.016125163 4281375794
-0.0017755143 0.017164692 0.015045026 4281832754
0.000166215 0.017281033 0.014679598 4282095148
0.0022603795 0.016696796 0.015027368 4283140903
0.0042049438 0.016813517 0.01466156 4284379183
-0.018379755 0.0088804066 0.022933211 4282020433
-0.017921798 0.017451309 0.013963815 4281242430
-0.016119815 0.018270463 0.012883874 4281373243
-0.014323071 0.019089445 0.011804944 4281896759
-0.012398168 0.01920414 0.011442224 4282354739
-0.010473154 0.019318923 0.01107954 4282679608
-0.0078541897 0.015915155 0.014287421 4283139119
-0.0056326389 0.014623851 0.015349481 4283140394
-0.0035443828 0.014036708 0.015696509 4283466284
-0.017882906 0.0037236437 0.025358364 4282542929
-0.017409779 0.012321986 0.016405331 4283530289
-0.017509975 -0.00074581802 0.027053908 4282869838
-0.017399415 0.010006636 0.015977403 4284443700
-0.017016038 -0.0059441477 0.029449519 4283066189
-0.0027756467 0.00032450259 -0.019609576 4284705584
-0.00088476017 0.00043784827 -0.019965401 4284640049
0.0011608601 -0.00019115955 -0.019638935 4284574259
-0.015421718 -0.022388205 0.037250612 4281949033
-0.014112324 -0.025153354 0.031162925 4281619320
-0.013613146 -0.030466199 0.033473987 4281750134
-0.013733532 -0.032156266 0.032273095 4281553783
-0.013977319 -0.033114903 0.030374702 4281684599
-0.013194885 -0.025683887 0.023017125 4282340714
-0.014220737 -0.034068771 0.028479688 4281881203
-0.01306165 -0.028815337 0.023225253 4282012783
-0.014463797 -0.0350179 0.026588049 4282405229
-0.013306439 -0.029749162 0.021345137 4281881204
-0.013676535 -0.029940635 0.018775912 4280897923
-0.013920456 -0.030862756 0.016904103 4280307343
-0.014716234 -0.016823255 0.00088003976 4282602854
-0.015086986 -0.016947739 -0.0016403389 4282078573
0.0032118931 -0.00081974268 -0.019313401 4279654798
0.0052683391 -0.001447849 -0.018988783 4279196054
0.007004723 -0.00059152395 -0.020026496 4279848343
0.0085703731 0.0010064319 -0.021743318 4278864044
0.011133879 -0.0018462017 -0.019379836 4278930088
0.014914293 -0.0098880529 -0.012265965 4279454623
0.020314861 -0.024598457 0.00094513455 4279651993
0.025646614 -0.038561098 0.01345804 4279651993
0.028934401 -0.043624915 0.01781965 4280504968
-0.015329383 -0.017809331 -0.0034685663 4281291134
-0.0071007013 0.00077488273 -0.02205351 4282012784
-0.0053646192 0.0016326308 -0.023090113 4281225853
-0.0033355132 0.0010001808 -0.022762317 4279457429
-0.001452826 0.0011130273 -0.023116607 4279260824
0.00073897094 -0.00026343018 -0.022109488 4279063963
0.0027843341 -0.00089456141 -0.021784497 4278933148
0.0046752132 -0.00078083575 -0.022140047 4278932894
0.019155692 -0.021773972 -0.0042800689 4278404789
0.024116151 -0.034292772 0.0068527884 4278930854
0.028274495 -0.043089636 0.014588021 4279389854
-0.015443861 -0.019414745 -0.004609284 4281290879
-0.015581317 -0.0073254034 -0.015914194 4282143343
-0.014741153 -0.0012266114 -0.021737982 4281946993
-0.013130251 0.00038150698 -0.023457903 4279785103
-0.01152999 0.0019891709 -0.025175765 4279522198
-0.0076431893 0.0014650598 -0.025199659 4278666164
-0.0054761916 8.238107e-05 -0.024191394 4278666928
-0.0035963953 0.00019493699 -0.024545223 4278801058
-0.0017165355 0.00030759722 -0.024898987 4278539684
0.00016337633 0.00042040646 -0.025252651 4278474148
0.0040830672 -0.00010020286 -0.025281701 4278472619
0.0059657916 1.3127923e-05 -0.025635645 4278602923
0.0080136321 -0.00061967969 -0.025312446 4279520668
0.010570183 -0.0034903437 -0.022960464 4278862768
0.017652199 -0.017431036 -0.010837324 4278797744
0.022236669 -0.028497525 -0.0010771807 4279324063
0.027080085 -0.040304407 0.0093424413 4279914644
0.030197505 -0.044653006 0.01300567 4281226108
0.032243907 -0.04452873 0.012621757 4282274158
-0.015176129 -0.023272038 -0.0037020866 4281684598
-0.01543323 -0.010396264 -0.015665449 4281160318
-0.01471936 -0.0035290793 -0.022159189 4279129244
-0.013241034 -0.0011661425 -0.024557475 4278538918
-0.00400576 0.00014384836 -0.027003281 4278274994
-0.0021314137 0.00025617331 -0.02735601 4278604198
-0.00025701895 0.00036864728 -0.02770865 4278866594
0.0017743148 -0.00026773661 -0.027384218 4278604199
0.0055286922 -4.183501e-05 -0.028090093 4278930343
0.0075708553 -0.00067717582 -0.027767424 4279454878
0.010121249 -0.0035570338 -0.025420697 4278996133
0.013033692 -0.0079317689 -0.021728978 4278799783
0.015978333 -0.01230444 -0.018043211 4278603434
0.020536087 -0.023405544 -0.0083020525 4278997409
0.025709307 -0.036744647 0.0034429817 4279062943
0.029711917 -0.044845171 0.01046269 4280636294
-0.014782075 -0.02789522 -0.0021231337 4282797674
-0.015155848 -0.014228486 -0.014742268 4281160829
-0.014830448 -0.0050830841 -0.023263309 4279128734
-0.013487067 -0.0019610822 -0.026336327 4278931618
-0.011889149 -0.00034479052 -0.028047364 4278276014
-0.010161221 0.00051882863 -0.02907782 4278866339
-0.0082952678 0.00063028932 -0.029429235 4278407338
-0.0061372481 -0.00076172501 -0.028425675 4278668203
-0.0041171052 -0.0014013946 -0.028100971 4278537899
-0.0023942851 -0.00053755939 -0.029130157 4278800294
-0.00067675486 0.00032606721 -0.030158192 4278669733
0.0013488978 -0.00031285733 -0.029834304 4278931619
0.014825843 -0.00938835 -0.023203354 4278865318
0.019013926 -0.019023515 -0.014826547 4278866084
0.024162624 -0.032403715 -0.0031057205 4278866084
0.028503563 -0.042029336 0.0052426015 4278931874
-0.014619857 -0.019583628 -0.012470496 4281291388
-0.014676623 -0.0081464723 -0.02301039 4279260568
-0.013867881 -0.0019965991 -0.028789759 4278604198
-0.0086921342 0.00060040504 -0.031874843 4278734248
-0.0026567914 -0.0013265833 -0.030900892 4278734758
-0.00078805909 -0.0012144744 -0.031252474 4278669478
0.0010807216 -0.0011022538 -0.031603988 4278669733
0.0031087846 -0.0017430931 -0.031282052 4278866339
0.004818406 -0.00087738037 -0.032306734 4278538153
0.0068518966 -0.0015176311 -0.031985633 4278734503
0.008890789 -0.0021574944 -0.031665418 4278668968
0.011274993 -0.0043020025 -0.030003492 4278669223
0.014193255 -0.0087026581 -0.026331963 4278603944
0.018020382 -0.016862564 -0.019314684 4278604199
0.022974588 -0.029531293 -0.0082893763 4278735524
0.027839255 -0.041442402 0.0020495406 4278735524
-0.014344625 -0.02344621 -0.01156888 4281290878
-0.014655687 -0.010461323 -0.023440404 4280308108
-0.014248021 -0.0020230487 -0.031236675 4278801059
-0.012935761 0.0011148602 -0.034290984 4278275759
-0.0047848076 -0.002222769 -0.032317184 4278800293
-0.0027679205 -0.0028668717 -0.031995028 4278669479
-0.00089933723 -0.0027547628 -0.032346576 4278538919
0.0011256933 -0.003398113 -0.032025769 4278932129
0.0028379597 -0.0025301799 -0.033049442 4278735524
0.0048684292 -0.0031729341 -0.032729462 4278866593
0.0067398474 -0.0030601621 -0.033081189 4278997153
0.0089455582 -0.0044571832 -0.03209224 4278800548
0.010992181 -0.0050986037 -0.031775028 4278800803
0.013561666 -0.0080034733 -0.029450914 4278277034
0.017028464 -0.014679231 -0.023786908 4278538664
0.021788504 -0.026631996 -0.013454026 4278473129
0.026814874 -0.039333634 -0.0024693746 4278407848
0.030466665 -0.045997761 0.0031602089 4282470508
-0.013940848 -0.028081127 -0.010000711 4282142578
-0.014106538 -0.015817299 -0.021172285 4281029249
-0.014088299 -0.0050766543 -0.030978087 4278670243
-0.013045155 -0.00041177869 -0.035375603 4278668969
-0.011193123 -0.00030130148 -0.035724506 4278996643
-0.0089125 -0.0024664849 -0.034053609 4278997154
-0.0069067553 -0.0031137317 -0.033731088 4278997154
-0.0047473982 -0.0045187846 -0.032737315 4279128479
-0.0028790198 -0.0044068247 -0.033088926 4278800803
-0.00070345774 -0.0058106929 -0.03209798 4278932129
0.0011703856 -0.005698137 -0.032450426 4278735523
0.0030442625 -0.0055854693 -0.032802802 4278342314
0.0047565624 -0.0047151521 -0.033824831 4278539174
0.0069564059 -0.0061170533 -0.032838084 4278473639
0.0090000145 -0.0067609847 -0.032521993 4278604708
0.011049017 -0.007404469 -0.032206833 4278866848
0.01327572 -0.0088043734 -0.031224849 4279128988
0.016738238 -0.015500166 -0.02557442 4279195034
0.021670539 -0.028244987 -0.014599437 4279195034
0.026874371 -0.041740522 -0.0029752431 4279521944
-0.01382288 -0.0196722 -0.020267038 4281750134
-0.01379453 -0.0089001581 -0.030052356 4279325338
-0.01274256 -0.0042215213 -0.034441993 4278932384
-0.011022639 -0.0033496022 -0.035464555 4279194014
-0.0087372735 -0.0055211484 -0.033799309 4278669733
-0.0068718493 -0.0054096133 -0.034150548 4278669479
-0.0048583262 -0.006058462 -0.03383106 4278473129
-0.00066160411 -0.0081149563 -0.032525141 4278408103
0.0013708435 -0.0087622702 -0.032208931 4278473638
0.0032499284 -0.0086493045 -0.032562289 4278473894
0.0049676076 -0.0077764913 -0.033583682 4278866848
0.0071723275 -0.0091824606 -0.032601096 4278736289
0.0093878061 -0.010587692 -0.03162038 4278998174
0.011275038 -0.010473728 -0.031974904 4279194779
0.013162285 -0.0103596 -0.032329313 4279129498
0.016798044 -0.017834172 -0.026027363 4279195033
0.021907665 -0.03137514 -0.014414361 4279457174
0.026573144 -0.042634435 -0.0048132604 4280569483
-0.013408329 -0.024303712 -0.018698895 4281815669
-0.01336721 -0.013500132 -0.028464234 4281291389
-0.012303721 -0.0088076219 -0.032846458 4278932894
-0.01071291 -0.0071696788 -0.034540035 4278408104
-0.0046734475 -0.0091232657 -0.033586368 4278408104
-0.0029505864 -0.0082484186 -0.034607556 4278342569
-0.00062004477 -0.010423362 -0.032955252 4278932128
0.0015706904 -0.011834957 -0.031973507 4278997663
0.0037722029 -0.013245799 -0.030993646 4278997663
0.0053393096 -0.011608243 -0.032682087 4278997663
0.0073876418 -0.012256458 -0.032370131 4278998174
0.0096079931 -0.013665743 -0.03139358 4278998174
0.011669762 -0.014312856 -0.031084007 4279260314
0.013564892 -0.014198273 -0.031439915 4279391384
0.017032238 -0.020933367 -0.025819179 4279326103
0.021789417 -0.032991946 -0.015562488 4279457428
0.026632354 -0.045045115 -0.0053218263 4281619318
-0.013653271 -0.025123194 -0.020495914 4282207095
-0.013209775 -0.016586013 -0.028228581 4280439178
-0.01200312 -0.012645543 -0.031932794 4278998429
-0.010404103 -0.011002719 -0.033624727 4278801568
-0.0083886497 -0.011656098 -0.033308975 4278801058
-0.006512817 -0.011543952 -0.033662181 4278539429
-0.0044891946 -0.012196586 -0.033347793 4278801568
-0.0026105531 -0.012084007 -0.03370133 4278867104
-0.000578776 -0.012735881 -0.033388283 4279063709
0.0017699376 -0.014916211 -0.0317441 4279390873
0.0038178749 -0.015566878 -0.031433918 4279194268
0.0057100877 -0.015452974 -0.031789649 4279128988
0.0076023303 -0.01533895 -0.032145288 4279194523
0.0096610785 -0.015988566 -0.031836841 4279260059
0.01172521 -0.016637728 -0.031529315 4279391384
0.013966564 -0.01804994 -0.030559679 4279522710
0.017265815 -0.024041146 -0.02561702 4279719058
0.021671187 -0.034608439 -0.016710391 4279850130
0.025971722 -0.044408076 -0.0084792217 4281750899
-0.013897847 -0.025938012 -0.022289556 4282993769
-0.013187125 -0.018912569 -0.028667498 4280374153
-0.011977144 -0.014960885 -0.032364331 4278998174
-0.010235772 -0.014081113 -0.033386152 4279063453
-0.0082152635 -0.014736377 -0.033072945 4278670498
-0.0064791068 -0.013856657 -0.034093592 4278605219
-0.0043055527 -0.015278444 -0.033115286 4278736033
-0.0025719479 -0.014398627 -0.034135271 4278867104
-0.00038488209 -0.015819401 -0.033159282 4278866848
0.0016573444 -0.016472742 -0.032849714 4279259548
0.0038632527 -0.017892078 -0.031877123 4279194268
0.0057579875 -0.017778032 -0.032233328 4279325593
0.0076527521 -0.017663844 -0.032589432 4279391129
0.0098801963 -0.019081548 -0.031620566 4279522198
0.012287375 -0.021264248 -0.029991744 4279456664
0.014882337 -0.024211556 -0.027704388 4279587734
0.01784749 -0.028688453 -0.024099084 4279719060
0.021730024 -0.036989965 -0.01719767 4279980944
0.025491789 -0.044522606 -0.010967135 4281487739
0.028030314 -0.04669673 -0.0093624406 4282536298
-0.013298772 -0.020473115 -0.029776245 4281291388
-0.012088157 -0.016510412 -0.033465218 4278671008
-0.010207403 -0.016398244 -0.033819541 4278605728
-0.0083265826 -0.016285926 -0.034173772 4278604963
-0.0063009635 -0.016942963 -0.033863049 4278867103
-0.0044173338 -0.016830236 -0.034217641 4279063708
-0.0023835488 -0.01748658 -0.033908222 4278932893
-0.00049713627 -0.017373413 -0.034263141 4279128478
0.0015447736 -0.01802896 -0.033955101 4279194013
0.003750205 -0.019452721 -0.032985616 4279456664
0.0059663989 -0.020875767 -0.032018028 4279784339
0.0083568171 -0.023066334 -0.030391036 4279915408
0.010597184 -0.024487652 -0.029427797 4279784338
0.013185974 -0.027444251 -0.027145768 4280046734
0.016139258 -0.031935163 -0.023547972 4280112013
0.018950511 -0.035656281 -0.020615457 4281290369
0.021965444 -0.040143177 -0.017029034 4282209133
-0.013410397 -0.022033393 -0.030884806 4281487483
-0.012062617 -0.018831842 -0.033901073 4278932638
-0.01017933 -0.018719502 -0.034255862 4278801569
-0.0080121979 -0.020150788 -0.033282902 4278866593
-0.0062679984 -0.019266188 -0.034301866 4279259548
-0.0042345896 -0.019924834 -0.033994108 4279063453
-0.0021957718 -0.020583011 -0.033687275 4279390873
0.00015367195 -0.022783212 -0.032057717 4279718294
0.0023639463 -0.024211206 -0.03109243 4279783828
0.0047429539 -0.026409365 -0.029468238 4279980943
0.0068167709 -0.027064942 -0.029167619 4279784084
0.0095492788 -0.030802339 -0.026228698 4281093508
0.011810604 -0.032226779 -0.02527258 4282405738
-0.012987215 -0.026691578 -0.029338049 4282666604
-0.011491861 -0.024254933 -0.031686764 4279980688
-0.009595342 -0.024141818 -0.032044057 4279653268
-0.0075570196 -0.024802677 -0.031738974 4279784338
-0.005368866 -0.026236899 -0.030773094 4281029248
-0.0031699277 -0.027670421 -0.029809125 4281750388
-0.00081046298 -0.029876694 -0.028186377 4282142578
0.0011077933 -0.029761627 -0.028547287 4283059559
-0.010650236 -0.031253017 -0.028164491 4282273904
-0.0088740103 -0.030362375 -0.029186483 4282208369
-0.0068199374 -0.031024441 -0.028886009 4282733159
-0.023925908 -0.037549071 -0.025891636 4282470509
-0.033761092 -0.036354266 -0.040354285 4281945719
-0.033975966 -0.037106916 -0.042109679 4282405483
0.0066227503 0.014829181 0.016432224 4285034024
0.0096983723 0.010045074 0.021046387 4285165348
0.014931943 -0.003837429 0.034898125 4285165348
0.020936154 -0.020513013 0.051572245 4285165348
0.026226968 -0.033681989 0.064671621 4285034278
-0.0017443188 0.014856473 0.014617454 4285232158
0.00034947693 0.014269873 0.014963597 4285363228
0.0021443367 0.015089549 0.013885688 4285493534
0.003779009 0.016611762 0.012097795 4285755673
0.0057181306 0.016728252 0.011733083 4285820699
0.0086188205 0.012630217 0.015628716 4285951769
0.013018232 0.0022137165 0.025904246 4285952024
0.018823259 -0.013814777 0.041837037 4285952024
0.024583563 -0.029133782 0.057038136 4285886233
-0.016105816 0.015970476 0.012466274 4285037083
-0.014567476 0.018204644 0.0099603813 4285362464
-0.01291186 0.019731656 0.00817113 4285624604
-0.010995042 0.019845951 0.0078099896 4285820699
-0.0083850585 0.016430624 0.011011472 4285755164
-0.0057481229 0.013016991 0.01420795 4285493023
-0.0036601573 0.012427606 0.014553411 4285427999
-0.0020067245 0.013955019 0.012764955 4285428254
-6.5252185e-05 0.014071323 0.012399564 4285559324
0.0018762946 0.014187731 0.012034228 4285689883
0.0033537485 0.016419224 0.0095405001 4285623838
0.0052873641 0.016535379 0.0091768149 4285492258
0.0077013187 0.01453764 0.010938631 4285689118
0.011433639 0.0069050193 0.018361187 4285754908
0.016383339 -0.0056542978 0.030724976 4285558303
0.022606792 -0.023136914 0.048019327 4285558303
0.0275979 -0.034979217 0.05963695 4285558303
-0.016347535 0.015083946 0.01061983 4285297184
-0.014811505 0.017324589 0.0081191808 4285558813
-0.013291489 0.019564372 0.00562162 4285689373
-0.011244379 0.018969961 0.0059729735 4285754654
-0.0087764636 0.016251542 0.0084561147 4285886489
-0.0061458237 0.012826435 0.011645777 4285690139
-0.0042073429 0.012942322 0.011280773 4285493533
-0.0024152808 0.013766043 0.010206381 4285427998
-0.00062850118 0.014589496 0.0091330893 4285493533
0.0010011084 0.016120121 0.0073524904 4285821718
0.0024654828 0.018357448 0.0048660343 4285689373
0.0043855421 0.018472783 0.0045049009 4285623584
0.0067854486 0.016467564 0.0062645287 4285624094
0.010014594 0.01092989 0.011553107 4285689883
0.014278561 0.0011555329 0.021069027 4285624603
0.020297637 -0.015678175 0.037624732 4285624603
0.026274979 -0.031797692 0.053451385 4285493279
0.03046893 -0.040142842 0.0615068 4285361699
-0.016588859 0.014202192 0.0087766983 4285559069
-0.015185416 0.017160095 0.0055704569 4285821719
-0.013537493 0.018695503 0.0037890174 4285558304
-0.011628982 0.018809259 0.003429404 4285557794
-0.0091671906 0.016081572 0.0059073051 4285558303
-0.0065428615 0.012645073 0.009090066 4285689883
-0.0047535412 0.013470672 0.0080177449 4285624604
-0.0029694997 0.014296055 0.0069464953 4285559069
-0.0014888085 0.016540773 0.0044616316 4285558813
0.00027927384 0.017365418 0.0033935388 4285690394
0.0017332546 0.019608743 0.00091385748 4285821718
0.0039566122 0.018304858 0.0019664248 4285821463
0.0061907582 0.017001793 0.0030170088 4285755928
0.0092479736 0.012154743 0.007589756 4285690393
0.012838244 0.0051837638 0.014268395 4285493788
0.018160515 -0.0088699833 0.027975075 4285493788
0.024442794 -0.026459381 0.045178153 4285493789
0.029646991 -0.039082564 0.057436526 4285427998
0.032485522 -0.041785963 0.059844777 4285099303
-0.016957231 0.014038354 0.0062271548 4285361954
-0.01568874 0.017717913 0.0023189136 4285690138
-0.013915904 0.018544286 0.0012509734 4285821718
-0.011877447 0.017944939 0.001600672 4285821463
-0.0095572472 0.015920796 0.0033650142 4285821719
-0.0072208457 0.013897769 0.0051263352 4285821974
-0.0054422319 0.014724925 0.0040576314 4285624604
-0.0035227276 0.014839761 0.0036962559 4285558813
-0.0019008741 0.016378611 0.0019234405 4285558813
-0.00013813749 0.017205186 0.00085791806 4285558814
0.001619298 0.018031515 -0.00020648306 4285493023
0.0036852732 0.017434694 0.00013867253 4285558558
0.0060758889 0.015415654 0.001890399 4285493023
0.0086449571 0.012686558 0.0043424093 4285493278
0.011730481 0.0078259036 0.0088986233 4285559324
0.016194964 -0.0027190894 0.019065734 4285559324
0.022102827 -0.01894442 0.034831565 4285493534
0.028134238 -0.035162181 0.050574265 4285493533
0.031829093 -0.041427523 0.056483835 4285295908
-0.016815975 0.011021867 0.0065170149 4285098538
-0.015931211 0.016858697 0.00049250061 4285493534
-0.014293656 0.01840226 -0.0012806016 4285559068
-0.012125552 0.017085344 -0.00022470905 4285690139
-0.0099466257 0.015769221 0.00082918862 4285624348
-0.0076161958 0.013739146 0.0025868458 4285624350
-0.0058429316 0.014568172 0.0015207385 4285624348
-0.0037828982 0.013968334 0.0018650745 4285558813
-0.0020148456 0.014797278 0.00080011273 4285559068
-0.00010068715 0.014912002 0.00043989578 4285559069
0.0016594492 0.015740737 -0.00062345108 4285558814
0.0035710484 0.015855521 -0.00098302355 4285624348
0.005482696 0.015970431 -0.0013425215 4285689883
0.0080429316 0.013231955 0.0011047199 4285755419
0.010789506 0.0097816959 0.0042491457 4285624094
0.014400475 0.0027678981 0.010891862 4285689374
0.019596888 -0.010658562 0.023825973 4285689374
0.025932588 -0.028355055 0.040938806 4285558304
0.030822521 -0.039630234 0.051734239 4285492513
-0.016929455 0.0094321594 0.0053874901 4284901423
-0.016043559 0.015286691 -0.00062441593 4285493789
-0.014273379 0.016117327 -0.0016887146 4285559068
-0.012238175 0.015513286 -0.0013415976 4285624349
-0.010335319 0.015626773 -0.0017000935 4285624349
-0.0082918741 0.015023492 -0.0013544126 4285689629
-0.006242957 0.014420651 -0.001009678 4285689628
-0.0040427297 0.01310166 3.7260354e-05 4285624348
-0.0021287799 0.01321625 -0.00032299384 4285624604
-6.352365e-05 0.012614727 1.8909574e-05 4285624604
0.0016993284 0.01344578 -0.0010433123 4285624604
0.0034568571 0.014276654 -0.0021045036 4285690138
0.0050498024 0.015823044 -0.0038651428 4285886998
0.0072799362 0.014506571 -0.0028233731 4285952534
0.0098501667 0.011759967 -0.00038436428 4285820954
0.013111286 0.0061537176 0.0048470232 4285951768
0.01794563 -0.0058858022 0.01635758 4285951513
0.024252981 -0.023639202 0.033435609 4285885979
0.029642211 -0.037095703 0.04630312 4285492514
-0.01576706 0.011555798 0.00037257187 4285362464
-0.014385659 0.01454781 -0.0028038395 4285493789
-0.012620695 0.015380397 -0.0038654318 4285624603
-0.010998651 0.016932018 -0.00562901 4285821719
-0.0089662336 0.016325854 -0.005282871 4285952534
-0.0069283582 0.015720129 -0.0049376744 4285952789
-0.0043021962 0.012239762 -0.0017872322 4285887253
-0.0023910739 0.012354165 -0.0021469705 4285624348
-0.00032880157 0.011750191 -0.0018060841 4285558814
0.0011238679 0.014019892 -0.0042662825 4285624604
0.0030298233 0.014134333 -0.0046248045 4285755928
0.0046175681 0.015684851 -0.0063813101 4285689628
0.0068418793 0.014363565 -0.0053416155 4285492258
0.0092414618 0.012325399 -0.0036058687 4285558049
0.012325905 0.0074184164 0.00091691269 4285624094
0.016297303 -0.001072824 0.0089177527 4285624094
0.022403756 -0.018165968 0.025264498 4285427233
0.028288625 -0.033817232 0.040195156 4285427233
0.032512415 -0.042292818 0.048148803 4285295908
-0.015750349 0.009255752 -4.5619905e-05 4285296163
-0.014365762 0.012256756 -0.003216235 4285493534
-0.012732923 0.013813362 -0.0049787648 4285624348
-0.011248183 0.016090855 -0.0074406597 4285689373
-0.0093589202 0.016203605 -0.0077965367 4285623328
-0.0071838498 0.014874183 -0.0067514214 4285755163
-0.0048523992 0.012824498 -0.0050082598 4285821463
-0.0029494688 0.012938395 -0.0053664688 4285689883
-0.0010464601 0.013052426 -0.0057245977 4285624349
0.00070300326 0.013887122 -0.0067811422 4285558814
0.0026034452 0.014001213 -0.0071386397 4285756184
0.0043449774 0.014835611 -0.0081934854 4285887253
0.006242834 0.014949791 -0.0085503161 4285689628
0.0086337402 0.01290448 -0.0068177525 4285624094
0.011374827 0.0094208717 -0.0036962966 4285624348
0.014991306 0.0023413002 0.0028973161 4285625114
0.020213 -0.011209302 0.015735235 4285559323
0.02641209 -0.028349698 0.032026149 4285559323
0.031495742 -0.04044883 0.043435592 4285427489
0.033964023 -0.04175894 0.044426866 4285032493
-0.014874041 0.012857668 -0.00643529 4285362208
-0.013249051 0.014418155 -0.0081931092 4285821719
-0.0116347 0.015978158 -0.0099488813 4285558049
-0.0097509436 0.016090564 -0.010303734 4285492259
-0.0075816885 0.014756329 -0.0092606954 4285558049
-0.0052562356 0.012699701 -0.007521268 4285624093
-0.0035068728 0.013536297 -0.0085763261 4285624603
-0.0016120635 0.013649829 -0.008932922 4285558813
0.00012937933 0.014486179 -0.0099863298 4285559069
0.0020216256 0.014599793 -0.010342274 4285559069
0.0034375042 0.016880721 -0.012785787 4285690393
0.0054832958 0.016271859 -0.012444705 4285756184
0.0078628361 0.014219232 -0.010714827 4285690393
0.010425378 0.011445791 -0.0082935486 4285624604
0.01351805 0.0065085292 -0.0037946929 4285558813
0.018198382 -0.0049207434 0.0069373534 4285493278
0.02436392 -0.022116117 0.02319607 4285493278
0.030303113 -0.037861072 0.038046021 4285493278
0.033836495 -0.04350324 0.043188199 4285427743
-0.014985889 0.011293463 -0.0075466521 4285230374
-0.013898697 0.015762627 -0.012096675 4285756439
-0.0122949 0.017326422 -0.013847254 4285887508
-0.010282144 0.016712375 -0.01350221 4285690138
-0.0081214048 0.015373245 -0.012460833 4285755928
-0.0059498511 0.014034875 -0.011421407 4285887508
-0.0039153807 0.013422489 -0.011080191 4285624604
-0.0021766759 0.014260806 -0.012131607 4285559069
-0.00028998777 0.014373958 -0.012486598 4285559069
0.001440797 0.015211985 -0.013536312 4285493278
0.0031662583 0.016049832 -0.014584932 4285493279
0.0050477237 0.016162992 -0.014938703 4285559069
0.0074212849 0.014103405 -0.013212498 4285493278
0.0096442699 0.012769051 -0.012182072 4285559069
0.012555551 0.0085395798 -0.0083844587 4285493534
0.0163594 0.00069308281 -0.0011339048 4285493279
0.022319317 -0.015833475 0.014400845 4285427233
0.028757578 -0.033799388 0.031294025 4285427233
0.033168621 -0.043077216 0.039878968 4285229608
-0.015229337 0.010458015 -0.0093555506 4285362208
-0.014412697 0.016396865 -0.015290175 4285427998
-0.012953792 0.018692683 -0.01773284 4285624604
-0.011091772 0.018803757 -0.018083617 4285624603
-0.0089448914 0.017459348 -0.017042793 4285624859
-0.0064970702 0.014660411 -0.014613457 4285558814
-0.004470963 0.014045365 -0.014272319 4285559069
-0.0022889823 0.012703434 -0.013237895 4285559069
-0.00070867687 0.01427085 -0.014980322 4285493533
0.0011725575 0.014383778 -0.015334213 4285493534
0.0028953589 0.015223652 -0.016380729 4285493789
0.0050963424 0.013883322 -0.015349552 4285493533
0.0071442425 0.013270274 -0.015012005 4285559323
0.0091975518 0.01265762 -0.014675351 4285624859
0.011763908 0.0098669156 -0.012267578 4285427233
0.015555099 0.0019953921 -0.0050322963 4285558558
0.021151233 -0.013131045 0.0090888962 4285360424
0.028101018 -0.033330433 0.02801339 4285360424
0.03250175 -0.042637542 0.036579438 4285228589
-0.014388997 0.014122687 -0.015691254 4285362208
-0.012927063 0.016425245 -0.018129641 4285493534
-0.011202052 0.017266691 -0.019175619 4285493279
-0.0090556331 0.0159178 -0.018137936 4285493278
-0.0066085868 0.013110004 -0.015714865 4285493278
-0.0045827813 0.012492724 -0.015375283 4285493278
-0.002551537 0.011875853 -0.015036648 4285493279
-0.00066781789 0.011988811 -0.015391093 4285558814
0.0013715923 0.011372678 -0.015053818 4285624348
0.0034164339 0.010756955 -0.014717437 4285689883
0.0054666772 0.010141708 -0.014382031 4285624093
0.0075223222 0.0095269084 -0.014047552 4285558049
0.0094169974 0.0096411183 -0.014403621 4285492258
0.011818878 0.007570222 -0.012692207 4285294889
0.015439086 0.00040276349 -0.0061633578 4285360423
0.021031685 -0.014770195 0.007924825 4285360424
0.027622569 -0.03357581 0.02543008 4285360424
-0.014533158 0.0022054985 -0.0067117093 4285163308
-0.013963521 0.0096462518 -0.014012886 4285296164
-0.012490522 0.011956058 -0.016448567 4285624859
-0.010754764 0.012800343 -0.017494965 4285756184
-0.0088822097 0.012912139 -0.017847661 4285558303
-0.0065753274 0.010827839 -0.016123971 4285558048
-0.004547134 0.010208473 -0.01578645 4285558303
-0.0023633912 0.0088577792 -0.01475874 4285558048
-0.00047444925 0.008971028 -0.015114177 4285558048
0.001725506 0.0076215789 -0.014089392 4285623838
0.0036199205 0.0077354088 -0.014445677 4285623839
0.0056752264 0.0071182624 -0.014112826 4285689629
0.007572405 0.0072324872 -0.014469465 4285623839
0.0096358284 0.0066160709 -0.014137965 4285492003
0.011873551 0.0052694455 -0.0131198 4285360678
0.015837852 -0.0033809468 -0.005233034 4285426213
0.021434959 -0.018599927 0.0088206455 4285294888
0.027675634 -0.036002353 0.024911406 4285294888
-0.013673127 0.0058873072 -0.01303944 4285360934
-0.012055211 0.00746952 -0.01477989 4285623838
-0.010308705 0.0083165839 -0.015826685 4285624093
-0.0082836524 0.0076945722 -0.015490359 4285558048
-0.0062531568 0.0070729554 -0.015154935 4285492004
-0.0040699504 0.005717732 -0.014130462 4285492004
-0.0021758564 0.0058311746 -0.014486957 4285492004
-0.00028169528 0.0059447363 -0.014843378 4285492003
0.001767844 0.0053247884 -0.014511228 4285557794
0.0038227923 0.0047052875 -0.014180008 4285558048
0.0057224706 0.0048195496 -0.014537204 4285557793
0.0077855699 0.0042007491 -0.014207287 4285492514
0.0098540485 0.0035824254 -0.013878344 4285426723
0.012434147 0.0007660538 -0.011492346 4285360933
0.016407084 -0.0079102442 -0.0036264805 4285360933
0.02183729 -0.022442609 0.0097072665 4285360933
0.027374823 -0.036968343 0.02302089 4285294379
-0.013517365 0.0028525516 -0.012766224 4285295144
-0.012030292 0.0051764175 -0.015194943 4285492258
-0.010142017 0.0052890182 -0.015550699 4285558049
-0.0082536526 0.0054017529 -0.015906379 4285492513
-0.0060763508 0.0040416345 -0.014884098 4285426724
-0.0041824691 0.0041549131 -0.015240662 4285360934
-0.0021387301 0.0035321787 -0.014909193 4285361189
-0.00039450824 0.0043818876 -0.01595353 4285361188
0.0014995635 0.0044955537 -0.016309857 4285492514
0.0035515241 0.003873691 -0.015979663 4285492769
0.0056088977 0.003252238 -0.015650425 4285558814
0.007671684 0.0026312023 -0.015322054 4285492514
0.0099057518 0.0012754574 -0.014309751 4285426979
0.012656305 -0.0022846535 -0.011246121 4285295398
0.016632538 -0.01098723 -0.0034000464 4285360679
0.021890782 -0.024828814 0.0092178266 4285295143
0.027250983 -0.03866411 0.021816656 4285294379
-0.013762832 0.0020272657 -0.014567271 4285360679
-0.012278102 0.004357636 -0.016990788 4285426979
-0.010253746 0.0037309974 -0.016657595 4285426724
-0.0080823489 0.002365984 -0.015637502 4285361188
-0.0060444213 0.0017404407 -0.01530673 4285295654
-0.0041480064 0.0018538907 -0.015663758 4285229863
-0.0024011545 0.0027058348 -0.016707081 4285098794
-0.00050728768 0.0028193593 -0.017063461 4285098794
0.0013866313 0.0029330179 -0.017419759 4285164584
0.0034382865 0.0023089126 -0.017091122 4285296418
0.0056557246 0.00094745308 -0.016079044 4285296673
0.007883925 -0.0004131794 -0.01506893 4285164328
0.0097914264 -0.00029818714 -0.015427407 4284967213
-0.013874553 0.0004651472 -0.015677141 4285360423
-0.012389496 0.002802141 -0.018095924 4285492769
-0.010365441 0.0021732524 -0.017764296 4285361444
-0.0083359405 0.0015448853 -0.017433625 4285295909
-0.0061568916 0.00017604232 -0.01641809 4285295653
-0.0047009997 0.0025117174 -0.018830996 4285164583
-0.0025137588 0.001143612 -0.01781683 4285032749
-0.00077220052 0.0019975528 -0.018857475 4285033003
0.0012737326 0.0013707653 -0.018529456 4284967469
0.0033250712 0.00074441731 -0.018202377 4284903719
-0.014252689 0.00039087236 -0.018159298 4285360424
-0.012636766 0.0019905493 -0.019886604 4285558304
-0.010615699 0.0013593286 -0.01955604 4285426979
-0.0085891858 0.00072851032 -0.019226389 4285361189
-0.0065572262 9.8206103e-05 -0.018897692 4285230374
-0.0048131049 0.00095423311 -0.019937407 4284902699
