# .PCD v0.7 - Point Cloud Data file format
VERSION 0.7
FIELDS x y z rgba
SIZE 4 4 4 4
TYPE F F F U
COUNT 1 1 1 1
WIDTH 921
HEIGHT 1
VIEWPOINT 0 0 0 1 0 0 0
POINTS 921
DATA ascii
-0.026602127 -0.030591726 0.013199056 4286202179
-0.025297895 -0.026680022 0.0094186915 4287510328
-0.023877498 -0.02352488 0.0063157594 4287575609
-0.026874371 -0.031472504 0.011317241 4286398274
-0.025292285 -0.029064573 0.0088869808 4287510584
-0.023583528 -0.027414694 0.0071303686 4287903539
-0.021885335 -0.025765382 0.0053759879 4287773234
-0.019901901 -0.025630079 0.0049620932 4287182908
-0.027146213 -0.032348573 0.0094388379 4286332738
-0.025426701 -0.030693747 0.0076831644 4287314233
-0.023575358 -0.029798776 0.0065983487 4287445558
-0.021729227 -0.028904043 0.0055147093 4287969838
-0.019888338 -0.028009489 0.0044322331 4287773234
-0.018203046 -0.026356518 0.0026840745 4287314489
-0.027554512 -0.032458216 0.0068958597 4286463553
-0.025700599 -0.031561032 0.0058120545 4287511603
-0.0237097 -0.031425506 0.0053963717 4288100398
-0.021718681 -0.031289846 0.0049807746 4287838003
-0.019875091 -0.030392975 0.003899416 4287772978
-0.018036727 -0.029496312 0.0028191861 4287510839
-0.016356472 -0.027839258 0.0010754559 4287968563
-0.01484235 -0.025422201 -0.0013301568 4287902263
-0.013185926 -0.023766518 -0.0030687237 4286854724
-0.025695406 -0.033951201 0.0052761827 4286463044
-0.023701984 -0.033815496 0.0048599895 4287249208
-0.021853141 -0.032916263 0.003779063 4287706933
-0.020009514 -0.032017238 0.002699336 4287510584
-0.018321157 -0.030355372 0.00095707364 4287510839
-0.016337976 -0.03021986 0.00054339506 4287772214
-0.014510076 -0.029321566 -0.00053278543 4287838003
-0.012845449 -0.027660921 -0.0022698021 4287772469
-0.011191413 -0.026000932 -0.0040044687 4287706679
-0.0097113512 -0.023579344 -0.0063977512 4288033588
-0.022276569 -0.033011138 0.0012511853 4287314233
-0.020438261 -0.032110341 0.00017419644 4287314234
-0.018455341 -0.031975001 -0.00023953803 4287706678
-0.016167302 -0.033369668 0.00066984631 4287706678
-0.014334042 -0.032468781 -0.00040584244 4287641653
-0.01266386 -0.030803472 -0.0021406729 4287445048
-0.011004295 -0.029138729 -0.0038732565 4287968563
-0.009192124 -0.028238937 -0.0049441955 4287902773
-0.0077169351 -0.025811113 -0.0073313913 4287378238
-0.0060891956 -0.024148181 -0.0090570534 4286854724
-0.018589504 -0.033594318 -0.0014359299 4286659138
-0.016301971 -0.034993358 -0.00052973069 4287313724
-0.014468681 -0.034090295 -0.0016037691 4287510329
-0.012798306 -0.032420665 -0.0033353623 4287641399
-0.010978192 -0.031518295 -0.0044064242 4287445048
-0.0093263425 -0.029849634 -0.006134009 4287641399
-0.0073537529 -0.029714227 -0.0065450091 4287314234
-0.0055494383 -0.028812543 -0.0076124757 4287575863
-0.0034083761 -0.029443011 -0.0073667448 4287641654
-0.0016092956 -0.028541453 -0.0084329452 4286201668
-0.016588774 -0.035847306 -0.0023874179 4286789698
-0.014758125 -0.034942314 -0.0034592245 4286986814
-0.012932722 -0.034037545 -0.0045298394 4286921789
-0.011272747 -0.03236413 -0.0062559228 4287379769
-0.0092977099 -0.032228693 -0.0066675413 4287314489
-0.007488098 -0.031324625 -0.0077345651 4286987068
-0.0051792674 -0.032725781 -0.0068355184 4286987834
-0.002688881 -0.034894124 -0.0052842554 4287249463
-0.00052942336 -0.035525411 -0.0050438703 4286857274
0.00075455755 -0.032317296 -0.0080709811 4286333758
-0.01338172 -0.034111664 -0.0070352647 4286398274
-0.011246942 -0.034747452 -0.0067918766 4286790720
-0.0092693977 -0.034611851 -0.0072040167 4286986814
-0.0071264766 -0.035246775 -0.0069621745 4286398273
-0.0049781501 -0.035881206 -0.0067213569 4286006339
-0.0026537739 -0.037285484 -0.005828748 4286398529
-0.0095663518 -0.035452902 -0.0090492535 4286724418
0.014328867 0.013060279 0.012633591 4284512039
0.017086368 0.010339998 0.014978641 4282616113
0.020269172 0.0061935931 0.018694416 4281635384
0.024711885 -0.0022326112 0.026525624 4280722228
0.012622023 0.017187215 0.0059523964 4282813228
0.014162645 0.018754162 0.0041765207 4281438014
0.015894335 0.019604407 0.0030888701 4280981053
0.019460708 0.014011577 0.0081708124 4280720444
0.025141116 0.0012649074 0.020092241 4280329019
0.010355864 0.016184993 0.0044977581 4281963059
0.011310656 0.019912243 0.00066818763 4281243958
0.012636539 0.022200897 -0.0017860131 4281175619
0.014147973 0.023770273 -0.0035524354 4281436739
0.016874287 0.02103065 -0.0012139706 4281633088
0.021277485 0.012549654 0.0065857871 4281176894
0.026164064 0.0026378036 0.015737634 4281046588
0.030913189 -0.006551221 0.024191938 4281176893
0.039314039 -0.020611577 0.036971603 4281437248
0.042272735 -0.023334347 0.039262328 4281371713
0.045921709 -0.02820579 0.043588381 4282087754
0.0075235739 0.017351463 0.00099067111 4282159409
0.0090619847 0.01892674 -0.00077829603 4281439289
0.010393636 0.021222204 -0.0032288162 4280524093
0.011709245 0.02351667 -0.0056759203 4279220788
0.013411624 0.024369262 -0.0067541553 4280198969
0.015516801 0.023781091 -0.0064669168 4280263994
0.019074587 0.018152907 -0.0014095353 4279808819
0.022884551 0.011807963 0.0043200944 4280134453
0.026742609 0.0054664835 0.01003982 4281372734
0.029789645 0.0020064861 0.013029932 4281307453
0.032211028 0.00070638955 0.013976491 4281175874
0.033982664 0.001564607 0.012884418 4281240643
0.037085671 -0.0018911511 0.015863173 4281566279
0.043371912 -0.015407532 0.028324436 4281826379
0.050444096 -0.03107246 0.042796213 4281696074
0.0050901733 0.017090224 -0.0011399323 4284384538
0.007009849 0.017223038 -0.0015391181 4281700154
0.0085431412 0.018802345 -0.0033037579 4281438524
0.0098698717 0.021103971 -0.0057482393 4281242174
0.011180557 0.023404621 -0.008189355 4280459834
0.012877639 0.024258997 -0.0092648463 4279677748
0.014977146 0.023668267 -0.0089780828 4280004150
0.018114824 0.01946675 -0.0052924557 4280199224
0.021703053 0.013823427 -0.00025452487 4281111869
0.024910178 0.0096269697 0.0034168586 4281372989
0.026861813 0.0097630173 0.0030118059 4281046078
0.027944345 0.012785181 -0.00010420755 4281242428
0.029005444 0.015805945 -0.0032156347 4279352623
0.031380739 0.014498562 -0.0022626813 4280589374
0.036695331 0.003819719 0.0074773962 4280328508
0.04414165 -0.013340242 0.02328084 4280459578
0.051024303 -0.028329425 0.037032846 4280329273
0.055686094 -0.03610675 0.044017322 4280720443
0.0026685148 0.016838945 -0.0032660956 4282944809
0.0040196925 0.019148454 -0.0057109548 4281636148
0.0055451728 0.020731457 -0.0074707521 4280722228
0.0074460115 0.020863071 -0.0078659346 4280656948
0.009542549 0.020269617 -0.0075804656 4281111869
0.011247708 0.021126628 -0.0086560631 4281242174
0.012947515 0.021983378 -0.0097304611 4281307709
0.015049374 0.021390647 -0.0094458321 4281177149
0.017775718 0.018625051 -0.0071271239 4281177149
0.020941529 0.014412567 -0.0034571658 4281177149
0.023504205 0.012374602 -0.0018255152 4281307199
0.025225259 0.013233386 -0.0029039006 4281176384
0.025855523 0.017710432 -0.0073618395 4280915519
0.026893174 0.020738252 -0.010461786 4280850238
0.029021483 0.020148121 -0.010182065 4280328764
0.033180937 0.013050281 -0.0038330122 4279481908
0.03921593 0.00017268956 0.0078964727 4279809074
0.045807935 -0.014143564 0.020952847 4280720954
0.052273642 -0.027729645 0.033314351 4281436738
0.057661872 -0.037696585 0.042293604 4281697348
0.001982484 0.017457493 -0.006465978 4281832498
0.0031385571 0.020500928 -0.0095849792 4279875119
0.0046535768 0.022087559 -0.011339293 4280459834
0.006929256 0.020763278 -0.010373159 4278962219
0.0094111282 0.018712558 -0.0087302243 4279092779
0.011710877 0.017390177 -0.0077689136 4281177148
0.0136196 0.017522685 -0.0081654796 4281242939
0.015528308 0.017655298 -0.0085619604 4281177404
0.017849393 0.016334787 -0.0076048686 4281176638
0.020181149 0.015015081 -0.0066498681 4281111360
0.022312015 0.014422536 -0.0063726543 4281110848
0.023805525 0.016008675 -0.0081217382 4280654398
0.02463763 0.019771807 -0.011892053 4279742264
0.02588209 0.022081755 -0.01430877 4281436739
0.027777152 0.022214204 -0.014701818 4281240898
0.031246504 0.017269522 -0.010384724 4280914753
0.036118709 0.007976748 -0.002041379 4280980034
0.041520823 -0.0027609318 0.0076311575 4280914243
0.049099363 -0.020015717 0.023328051 4280783938
0.05586369 -0.034363158 0.036315873 4280914243
-0.0024980567 0.017827444 -0.008866298 4283926048
-0.00078221411 0.018688865 -0.0099413199 4281374263
0.0007436797 0.020280354 -0.011694771 4280917558
0.0022589192 0.021871194 -0.013445868 4281371968
0.0039534643 0.022731479 -0.014516207 4281567554
0.0062206052 0.021402314 -0.013551638 4280785724
0.008889094 0.018614866 -0.011234476 4280785723
0.011776963 0.015099667 -0.008244874 4281177404
0.014089551 0.013773993 -0.0072894935 4281307709
0.015802804 0.014636137 -0.0083632879 4281372989
0.01751069 0.015498035 -0.0094358828 4281242428
0.019213201 0.016359672 -0.010507268 4281175874
0.020910339 0.017221048 -0.011577456 4281175363
0.022388045 0.018810444 -0.013319938 4280914753
0.02342161 0.021855325 -0.016405925 4279416374
0.025091877 0.022715166 -0.017470274 4279481398
0.027422879 0.02139169 -0.016518023 4280133179
0.030663416 0.017158985 -0.012882837 4280002619
0.03484552 0.010019377 -0.0065714512 4280328509
0.040231325 -0.0007520318 0.0030796947 4280849729
0.047791876 -0.018060222 0.018740654 4280849729
0.054774363 -0.03317906 0.032368056 4281174853
0.059488118 -0.041024163 0.039287455 4281239368
-0.004525844 0.016144581 -0.0096176164 4284384028
-0.0029864274 0.017741129 -0.011370744 4282485809
-0.0016394258 0.020069674 -0.013800037 4281242683
-0.00012399256 0.021664783 -0.015548005 4279808819
0.0015678965 0.022526935 -0.016616233 4280850494
0.0034442544 0.022656754 -0.017006408 4280915263
0.005705554 0.021322794 -0.01604389 4280654909
0.0083678178 0.018526271 -0.013732084 4280003383
0.011249283 0.014999717 -0.010749372 4281176384
0.013756495 0.012937933 -0.0091214478 4281307199
0.015467117 0.013802081 -0.010193044 4281242174
0.016554888 0.016858973 -0.013284015 4281111104
0.01782975 0.019183695 -0.015697494 4281240899
0.019722067 0.019315518 -0.0160903 4281306179
0.021614343 0.019447461 -0.016483005 4281175363
0.022857023 0.021770246 -0.018889498 4280849983
0.024521995 0.022631895 -0.019951098 4281046079
0.02729087 0.019843921 -0.017660566 4280915264
0.030979216 0.014138728 -0.012695765 4281110848
0.035164662 0.0069776475 -0.0064015705 4281176129
0.040782761 -0.0045555308 0.0038928585 4281305923
0.04881179 -0.023373857 0.020849418 4281305923
0.055097882 -0.036350794 0.032437932 4281370693
0.05910109 -0.042033345 0.037337922 4281695563
-0.0044795908 0.013857655 -0.010085672 4282288438
-0.0031161942 0.01619377 -0.012513556 4281567808
-0.0021319687 0.019998565 -0.016291831 4281242430
-0.0008058995 0.022332292 -0.018711731 4280981564
0.0008780174 0.023196079 -0.019776639 4280589628
0.002746217 0.023325302 -0.020165134 4280459833
0.004998982 0.021986462 -0.019204181 4279742774
0.0080422498 0.017712757 -0.015548848 4281046334
0.010722352 0.01490885 -0.013247229 4281241408
0.013023237 0.013573639 -0.012295976 4281176639
0.014116975 0.016639538 -0.015381653 4280980799
0.014778018 0.021170452 -0.01980665 4278960944
0.016240239 0.02276722 -0.02153942 4279481398
0.018746678 0.02069927 -0.019915905 4278765103
0.021055436 0.019365229 -0.018965892 4280523328
0.023158515 0.018764481 -0.018687677 4281309239
0.025047882 0.018896446 -0.019079611 4281440563
0.027823903 0.01610025 -0.016797114 4281243959
0.031742983 0.0096462667 -0.011178823 4281111870
0.036391161 0.0010006651 -0.0035679853 4281110849
0.042481545 -0.012029342 0.0080311736 4281305414
0.049597479 -0.02797772 0.022275921 4281305413
0.054950587 -0.038068727 0.031169981 4282020688
0.058239013 -0.041575894 0.034061335 4282476118
-0.0040815473 0.010091826 -0.0092039015 4282287163
-0.0027097277 0.012435004 -0.011628605 4281110084
-0.0013538972 0.014777236 -0.014049869 4280849473
-0.00038222596 0.018592142 -0.017817184 4281371203
0.00093626231 0.020931974 -0.020230465 4281372989
0.0026175715 0.021797866 -0.021293089 4281241153
0.0050619133 0.019718342 -0.019662283 4281111104
0.0077170841 0.016903907 -0.01736217 4281176639
0.010393631 0.014091052 -0.015066426 4281306944
0.012090992 0.014958531 -0.016132031 4281111104
0.012971852 0.018767968 -0.01987984 4280784703
0.013825972 0.022575654 -0.023622025 4280459323
0.015485849 0.023440894 -0.024679637 4281175874
0.017983574 0.021365851 -0.02305926 4279612469
0.023675431 0.015015595 -0.017823998 4280915008
0.026010308 0.013679251 -0.016882539 4281374008
0.029020293 0.010141023 -0.013942258 4281504313
0.033177759 0.0029343963 -0.0076753297 4281438524
0.037615418 -0.0050021857 -0.00075356942 4281371203
0.043718319 -0.018070415 0.010813273 4281305923
0.049917318 -0.031131759 0.022360295 4281695053
0.054803293 -0.039786324 0.029902283 4282346833
0.057615597 -0.041838184 0.031458341 4282541654
-0.0038604625 0.0070527866 -0.0090064351 4283465008
-0.0021257848 0.007924065 -0.010078875 4281239369
-0.00057763234 0.0095342994 -0.011823794 4281043019
0.00040816888 0.013361089 -0.015585827 4280783428
0.0015538596 0.016447224 -0.018669583 4280915773
0.0032458901 0.017316066 -0.019732837 4281305923
0.0051245093 0.017446153 -0.020123396 4281305923
0.0077814683 0.01462315 -0.017830262 4281306434
0.0098680407 0.014016099 -0.017552538 4281241153
0.011360168 0.015623279 -0.01928518 4281176385
0.012031199 0.020180807 -0.023692459 4279221553
0.012875414 0.023998674 -0.027424317 4281110338
0.014732601 0.024127964 -0.027809896 4281371203
0.017432228 0.021308623 -0.025525101 4281110594
0.020579759 0.017016917 -0.021910623 4280980289
0.023759317 0.012727551 -0.018302705 4280784703
0.026533628 0.0099137574 -0.016033145 4281240898
0.03021447 0.0041558295 -0.01110649 4281306178
0.034385949 -0.0030714571 -0.0048590107 4281893954
0.039064094 -0.01176706 0.0027060062 4281828673
0.044723548 -0.023401499 0.012912578 4281695563
0.050004419 -0.033558503 0.021775272 4281955665
0.054421347 -0.040768117 0.027972259 4282542674
0.056992941 -0.042091399 0.028862052 4282738259
-0.003464371 0.0032635182 -0.0081419768 4283137844
-0.0017216429 0.004137516 -0.0092144469 4281370438
-0.00016526133 0.0057526976 -0.01095782 4281370438
0.001013048 0.0088497102 -0.014041878 4280913733
0.0023563989 0.011204273 -0.016450431 4280914243
0.003872782 0.01281707 -0.018185208 4280849219
0.00576194 0.012947857 -0.018577976 4281045058
0.0074567124 0.013819262 -0.019639926 4281371204
0.0091461465 0.014690414 -0.020700669 4281241153
0.010230998 0.017781638 -0.02376477 4281110593
0.011092046 0.02161143 -0.027491946 4279481653
0.012336524 0.023960017 -0.029879358 4279872569
0.014395984 0.023349375 -0.029597301 4280263484
0.017092053 0.020521104 -0.027318366 4280394044
0.020448772 0.015476875 -0.023047553 4279937593
0.023842843 0.010435417 -0.01878443 4280654398
0.027492724 0.0046578646 -0.013864635 4281436739
0.031406414 -0.0018552244 -0.0082898876 4281306179
0.035815697 -0.0098416656 -0.0013986453 4281176384
0.040057242 -0.017085686 0.0048179468 4281630284
0.045497783 -0.02801612 0.014333907 4282085458
0.050322957 -0.03672716 0.021848794 4282150739
0.054039788 -0.041745201 0.026045695 4282216018
-0.0053439401 0.00081691146 -0.0082296757 4284705583
-0.0034203716 0.00094939023 -0.0086301295 4282746163
-0.0016749352 0.001825735 -0.0097015155 4281305159
-0.00011566281 0.0034454688 -0.011442187 4281370693
0.0016164854 0.0043211505 -0.012510618 4281044294
0.0029709339 0.0066829994 -0.01491653 4281044804
0.0044982173 0.0083008781 -0.016650274 4280849473
0.0060148425 0.0099180937 -0.018381666 4280718148
0.0077149905 0.010792084 -0.019443126 4280850494
0.009016037 0.013150707 -0.021837572 4281110594
0.01010148 0.016250677 -0.02489518 4281175618
0.010761082 0.020833462 -0.029280271 4280915264
0.012003306 0.023188412 -0.031662263 4280524603
0.013852196 0.023317143 -0.032046109 4280133434
0.016542038 0.020479746 -0.02977249 4280329274
0.020104885 0.014678508 -0.024848027 4280655163
0.0243572 0.0066568553 -0.017942654 4280980544
0.028668232 -0.0013605654 -0.011049359 4281306179
0.033038002 -0.0093738288 -0.0041681305 4281501254
0.037466459 -0.017382793 0.0027009947 4281499213
0.041953631 -0.025387578 0.0095580807 4282150483
0.046957359 -0.034868553 0.01772397 4282542164
-0.0053028055 -0.0015014261 -0.008720289 4283788859
-0.0033767112 -0.0013688058 -0.0091212867 4282286144
-0.0016285665 -0.00049009919 -0.010191585 4281305413
-6.6399574e-05 0.0011341199 -0.011929524 4281305669
0.0014851093 0.0027577803 -0.013665186 4281174599
0.0030259714 0.0043807849 -0.015398497 4280848453
0.0045561492 0.0060031861 -0.017129555 4281109829
0.0062670242 0.0068799406 -0.018191632 4281044804
0.0079725645 0.007756412 -0.019252524 4281175363
0.0094760507 0.0093773454 -0.020977745 4280980034
0.010370728 0.013231061 -0.02469549 4280915009
0.011238683 0.017083041 -0.028407592 4281045058
0.012079906 0.020933285 -0.032114044 4281306179
0.013931323 0.02106218 -0.032498423 4281044804
0.016833013 0.01747252 -0.029569037 4281110849
0.021250501 0.008679986 -0.02200982 4281307453
0.025947466 -0.00085130334 -0.013802185 4281437248
0.030713834 -0.010377638 -0.0056088604 4281437248
0.03466662 -0.016927049 -7.1925111e-05 4281893954
0.039114248 -0.024958551 0.0067750728 4282282573
0.043394484 -0.032243207 0.012950606 4282412114
0.047728062 -0.039524004 0.019115165 4282476629
-0.0036836676 -0.0021944121 -0.010952096 4281627989
-0.0017603487 -0.0020618737 -0.011352438 4281107788
-1.7475337e-05 -0.0011812374 -0.012419893 4281042763
0.0015369207 0.00044695288 -0.014152869 4280913479
0.0032664947 0.0013269037 -0.015217378 4281108808
0.0048022494 0.0029540211 -0.016946236 4281305159
0.0065185037 0.0038332865 -0.018007796 4281305414
0.0082294103 0.0047123656 -0.019068178 4281305668
0.0097384751 0.0063379854 -0.020791218 4281110083
0.011236832 0.0079630166 -0.022511991 4280979778
0.012118921 0.011826828 -0.026218772 4280654144
0.013178822 0.014942586 -0.029257651 4280784959
0.014838912 0.015818745 -0.030307021 4280849218
0.017962772 0.011473127 -0.026727293 4281175619
0.022393905 0.0026555583 -0.01919074 4281306944
0.027534761 -0.0083940774 -0.0096873343 4281306944
0.032102048 -0.017201953 -0.0021788147 4281828163
0.035851143 -0.023024529 0.0026808968 4282348363
0.040089369 -0.030333959 0.0088485321 4282608209
0.044155046 -0.036894716 0.014347428 4282607444
0.04781156 -0.041962758 0.018521957 4282541909
0.0012224428 -0.00036803633 -0.015973646 4280910929
0.0029493794 0.00051389635 -0.017035961 4281238604
0.0048593134 0.00064601004 -0.01743314 4281305158
0.0067692604 0.0007782653 -0.017830212 4281305414
0.0082918983 0.0024090335 -0.019552868 4281239878
0.010196509 0.0025411546 -0.019948654 4281370949
0.011504106 0.0049199536 -0.022329539 4281306179
0.012795657 0.0072977543 -0.024707006 4281371714
0.014071178 0.0096745044 -0.02708102 4281110848
0.016158709 0.0090571642 -0.026811369 4281111104
0.019299995 0.0046998188 -0.023245174 4281307454
0.023959823 -0.0048906207 -0.015072837 4281111614
0.028689057 -0.014476061 -0.0069147758 4281826634
0.033052273 -0.022561446 -8.6766668e-05 4282477904
0.036592711 -0.027653188 0.0041000415 4282607444
0.0030035824 -0.0017983466 -0.017525341 4280844629
0.0049160346 -0.0016660392 -0.017923024 4281239114
0.0066377055 -0.00078203529 -0.018982399 4281174599
0.0085475054 -0.00064969808 -0.01937937 4281304393
0.010065017 0.00098519772 -0.021097556 4281304904
0.01157183 0.0026194975 -0.022813473 4281305923
0.01286646 0.0050040334 -0.025186628 4281567298
0.014553377 0.005886212 -0.026238326 4281372224
0.016648587 0.005267255 -0.025971912 4281307199
0.020215642 -0.00060324371 -0.021101203 4281568318
0.024461916 -0.0087209195 -0.014267191 4281828928
0.029411435 -0.019084081 -0.0054749334 4282088009
0.033783134 -0.027192719 0.0013331827 4282673744
0.007268656 -0.005357109 -0.017493673 4280777054
0.0089956969 -0.0044704601 -0.01855243 4281106768
0.010521431 -0.0028306097 -0.020269066 4281369673
0.011639209 0.00031501055 -0.023300387 4281436993
0.013138231 0.0019531995 -0.025011256 4281569339
0.01462654 0.0035908148 -0.026719842 4281502783
0.017344031 0.00071185827 -0.024485029 4281698879
0.020920135 -0.0051753297 -0.019629378 4281959744
0.025386885 -0.014068574 -0.012159564 4282090048
0.03013235 -0.023709252 -0.0040477486 4282413644
0.034729861 -0.032593034 0.0033951048 4282543949
0.038731407 -0.039217107 0.0088625634 4282541908
0.011172552 -0.0074148253 -0.018792555 4281368908
0.012103153 -0.0035043657 -0.022476509 4281435208
0.013208153 -0.00035082549 -0.025498483 4281634109
0.014699364 0.001291275 -0.027204335 4281438014
0.017212162 -0.00084134936 -0.025631737 4281633598
0.021414034 -0.0090099573 -0.018824894 4281828928
0.026310023 -0.019437701 -0.010067788 4281894209
0.031280734 -0.029860109 -0.0013261046 4282088774
0.035674736 -0.038014874 0.0054411301 4282543439
0.039467994 -0.043903738 0.010238924 4282607188
0.014548659 -0.014912225 -0.015109211 4281755234
0.015287096 -0.010232821 -0.019441377 4282085714
0.015789857 -0.0047982633 -0.024420977 4281697348
0.018111698 -0.0061793178 -0.023510121 4281567043
0.02232473 -0.014371 -0.01672373 4281502019
0.028077785 -0.027854919 -0.0053818389 4281500998
0.032855492 -0.037549734 0.002680419 4281825868
0.036400817 -0.042701945 0.0068199085 4282541909
0.020039873 -0.015334822 -0.018144287 4281891914
0.024068639 -0.022789583 -0.012032595 4281500488
0.028996501 -0.033275798 -0.0033282544 4281500234
0.033356775 -0.04148075 0.0034096139 4281759314
0.029490884 -0.03719613 -0.0025891461 4281693524
0.033215225 -0.04314208 0.0021831924 4282280023
-0.023041602 -0.0044031963 0.04116632 4279390108
-0.021733139 -0.00069726259 0.037228394 4278602923
-0.020305097 0.002293624 0.03399856 4278930344
-0.025342494 -0.0054845288 0.039660577 4279193504
-0.024304021 -0.00033526868 0.034324531 4278603688
-0.021900903 0.0078093931 0.025778521 4281554293
-0.027772345 -0.0058422014 0.037455715 4282273904
-0.026995115 0.0007597357 0.030726302 4278800293
-0.025984906 0.0059223175 0.025407672 4278865829
-0.025155097 0.011800379 0.019397117 4281619318
-0.030322582 -0.0054690465 0.034554895 4281290624
-0.029258087 -0.00028780103 0.02923638 4278863533
-0.027955644 0.003450118 0.025324263 4279191464
-0.026960313 0.0086268708 0.020020362 4280176529
-0.032725789 -0.0058043897 0.032360066 4280569483
-0.030066378 0.0016965121 0.024540763 4278401219
-0.027092889 0.007023111 0.018835388 4282207603
-0.035243653 -0.0054041743 0.029471371 4281029249
-0.034153223 -0.00019095093 0.024170354 4278472109
-0.032440454 0.0013937801 0.022363145 4278405808
-0.030603632 0.0022528544 0.021254823 4279192739
-0.028772004 0.0031116977 0.020147666 4279061923
-0.027085491 0.0046949834 0.018346131 4282339693
-0.03786765 -0.0042613298 0.02589206 4280570249
-0.036768235 0.0009675622 0.020600684 4278669223
-0.033100337 0.0026893765 0.01838823 4278405808
-0.031139746 0.0028226823 0.017978761 4278930854
-0.028904878 0.0015020072 0.018958267 4278799019
-0.038742281 -0.0015050918 0.020517785 4279653268
-0.037152939 0.00081822276 0.0180213 4278735524
-0.035321698 0.0016810149 0.016917247 4278668713
-0.0387512 -0.0038484931 0.020021155 4279522198
-0.037158795 -0.0015184879 0.017528966 4278669989
-0.035324819 -0.00065337121 0.016425978 4278931618
-0.033496022 0.00021152198 0.015324154 4278669223
-0.031538382 0.00034457445 0.014915262 4278734759
-0.029443875 -0.00025365502 0.015197628 4279324573
-0.038267717 -0.0091339946 0.022291083 4279521943
-0.036787383 -0.0060622394 0.01910913 4278604453
-0.035071217 -0.0044601113 0.017314266 4278407849
-0.033365563 -0.0028585494 0.015521635 4278407848
-0.031670421 -0.0012576282 0.013731333 4278604198
-0.029712752 -0.0011244863 0.013322507 4279127968
-0.03815496 -0.012231007 0.022472765 4279259039
-0.036543041 -0.0098866969 0.019986369 4278866849
-0.034946971 -0.0075433254 0.017503377 4278801059
-0.033366755 -0.0052009672 0.015023819 4278604198
-0.03166873 -0.0035955012 0.013236153 4278866338
-0.029708527 -0.0034622028 0.012826779 4279652504
-0.038165674 -0.014597565 0.021958996 4278996898
-0.036550686 -0.012246542 0.019476902 4278931873
-0.034823388 -0.010635003 0.017686293 4278800803
-0.033106603 -0.0090240389 0.015897915 4278866594
-0.031533837 -0.0066755936 0.013424934 4278866594
-0.029704601 -0.0058039799 0.012328043 4278800803
-0.027602889 -0.0064082295 0.012604021 4279783828
-0.0381767 -0.016968176 0.021442227 4279127714
-0.036433324 -0.01535137 0.019651446 4279324573
-0.034700461 -0.013735093 0.01786292 4278997663
-0.033108763 -0.011378929 0.015390792 4278997663
-0.031399608 -0.0097640902 0.013607423 4278932383
-0.029700987 -0.0081498623 0.011826341 4278932384
-0.027735583 -0.0080161542 0.011415922 4278932384
-0.025770038 -0.0078823194 0.011005563 4279259803
-0.023948353 -0.0070087016 0.0099121584 4279784083
-0.03782063 -0.021572575 0.022980284 4278799784
-0.036316626 -0.018464565 0.019819725 4279259294
-0.034706011 -0.016100749 0.017348498 4279063453
-0.032980762 -0.014480598 0.015564972 4278998429
-0.031266056 -0.012861028 0.013783679 4278867359
-0.029697686 -0.010499775 0.011321579 4278866849
-0.027868219 -0.0096237585 0.010228048 4278801059
-0.025902823 -0.0094899535 0.0098177036 4278735524
-0.024081107 -0.0086141974 0.0087259179 4278866338
-0.0222646 -0.0077387244 0.0076353559 4279522199
-0.020602487 -0.0061220676 0.0058656223 4280375173
-0.035950683 -0.023076713 0.021349303 4282406248
-0.034584239 -0.019215539 0.017514311 4280046479
-0.032983743 -0.0168458 0.015050218 4279456663
-0.031266131 -0.015221745 0.013271653 4278998429
-0.029694691 -0.012853742 0.010813809 4278932894
-0.028000817 -0.011231072 0.0090403808 4278866593
-0.02603557 -0.011097297 0.008630055 4278669733
-0.024213817 -0.010219373 0.0075399103 4278800293
-0.022250962 -0.010085523 0.0071302662 4278931618
-0.020585973 -0.0084643662 0.0053632073 4278866338
-0.018931538 -0.0068437457 0.0035984181 4279521943
-0.017287679 -0.0052237809 0.0018359581 4280046479
-0.034208253 -0.023833252 0.019037046 4282733159
-0.032596685 -0.021456257 0.016575575 4281291389
-0.031133734 -0.018333353 0.013437047 4279129499
-0.029421106 -0.0167052 0.0116629 4278932894
-0.027857147 -0.014331102 0.009211638 4278997153
-0.025886677 -0.014196962 0.00880023 4279259549
-0.024203006 -0.012570433 0.0070323935 4278734758
-0.02223764 -0.012436435 0.0066222055 4278865828
-0.020569757 -0.010810703 0.0048578009 4278800804
-0.018912427 -0.0091855824 0.0030957498 4279128734
-0.017265704 -0.0075610727 0.0013359245 4279194524
-0.015315924 -0.0074276477 0.00092936866 4279325593
-0.01368501 -0.0058039948 -0.000826912 4281357943
-0.029148549 -0.020569384 0.012502502 4281880183
-0.027576178 -0.018188268 0.010054466 4280307598
-0.025879078 -0.016556561 0.0082869856 4279782809
-0.024192519 -0.01492551 0.0065218294 4278931364
-0.022370581 -0.014043204 0.0054350458 4278735014
-0.020702481 -0.012413129 0.0036738887 4278801059
-0.018742368 -0.012279257 0.0032649748 4278735524
-0.017090067 -0.010650039 0.0015073493 4278997919
-0.014978465 -0.011263691 0.0017735325 4278932894
-0.013339341 -0.0096351132 1.8786639e-05 4279129243
-0.01154884 -0.0087542385 -0.0010609031 4278998173
-0.010257527 -0.005632937 -0.0041559297 4279850638
-0.027158514 -0.022809118 0.011563948 4282664563
-0.025590934 -0.020421654 0.0091219088 4281419909
-0.024039272 -0.018035159 0.0066832853 4279061923
-0.022357702 -0.016399994 0.0049225576 4278997153
-0.020835161 -0.01401525 0.0024901927 4278538663
-0.019026306 -0.013131432 0.0014079623 4278735779
-0.017222688 -0.012247846 0.0003269203 4278801314
-0.01511142 -0.012863696 0.00059151649 4278867359
-0.01347208 -0.011230774 -0.0011599809 4278997919
-0.011681538 -0.010347724 -0.0022380203 4278670244
-0.010554112 -0.0064686835 -0.0059971544 4278670499
-0.0091190524 -0.0040891171 -0.0084105907 4279719059
-0.007530164 -0.0024591684 -0.01015121 4281422713
-0.024029598 -0.020400524 0.0061651049 4280436883
-0.022345155 -0.018760838 0.0044070734 4279586458
-0.020523034 -0.017874077 0.0033236248 4279193758
-0.018706139 -0.01698757 0.0022413498 4279128989
-0.017201666 -0.014597312 -0.00018211454 4278736289
-0.015400596 -0.013711616 -0.0012608916 4278932383
-0.013604775 -0.012826122 -0.0023385249 4278473128
-0.011975814 -0.011189505 -0.0040844344 4278801059
-0.010686018 -0.0080509707 -0.0071659684 4278866594
-0.0089166686 -0.0071669593 -0.0082377605 4278997663
-0.0073222108 -0.0055323392 -0.0099762008 4278932128
-0.0057383887 -0.0038982928 -0.011712375 4279522198
-0.0041651912 -0.0022648796 -0.013446205 4279522198
-0.0022473633 -0.0021327138 -0.013845393 4279985024
-0.020508103 -0.020236656 0.0028062044 4282402679
-0.018688507 -0.019347787 0.0017250134 4280635783
-0.017180972 -0.016950816 -0.00069414172 4279194524
-0.015533291 -0.015308842 -0.0024408628 4278931873
-0.013896197 -0.013667405 -0.004185304 4278604454
-0.012108266 -0.012780197 -0.0052595027 4278735524
-0.010489702 -0.011139847 -0.0069998614 4278538918
-0.0087149851 -0.010253266 -0.008071173 4278866593
-0.0072844066 -0.0078608841 -0.010473698 4279063198
-0.0060419179 -0.0047165602 -0.013538502 4278997409
-0.0044711791 -0.0030789301 -0.015268556 4278735268
-0.0027336255 -0.0021944642 -0.016331717 4279456918
-0.00064113364 -0.0028148592 -0.016065679 4279392913
-0.01685413 -0.020821095 0.00012675952 4280176274
-0.015354134 -0.018418014 -0.0022857939 4279521433
-0.013870068 -0.01601591 -0.0046949391 4278735014
-0.012079433 -0.015126362 -0.0057680611 4278931618
-0.010294072 -0.014237091 -0.0068400241 4278997664
-0.0085139796 -0.013347998 -0.0079107583 4278997664
-0.007077679 -0.010948673 -0.010309566 4278997664
-0.0060011931 -0.007040225 -0.014033057 4278407848
-0.0042529739 -0.0061530024 -0.015096895 4279128734
-0.002510041 -0.005265981 -0.016159518 4278931363
-0.00041254237 -0.0058881938 -0.015896171 4279062433
0.0011424981 -0.0042469725 -0.017619397 4279260059
0.0030574463 -0.0041146129 -0.018017698 4279457174
-0.013527475 -0.019884832 -0.0038771192 4281158788
-0.011889864 -0.018234611 -0.0056149373 4280307344
-0.010262877 -0.016584948 -0.0073504974 4279325083
-0.0086464882 -0.014935948 -0.0090837143 4278931619
-0.0072097927 -0.012530096 -0.011477672 4278604454
-0.0057890564 -0.010125257 -0.013868157 4278538919
-0.0038610511 -0.009992525 -0.014269572 4278931619
-0.0021100901 -0.0091027617 -0.015332259 4278866084
-0.0003644228 -0.0082132667 -0.016393714 4278865574
0.0010110773 -0.0058109909 -0.018774454 4278997408
0.0029258728 -0.0056786686 -0.019172732 4279259548
0.0050284714 -0.0063023642 -0.018911762 4279325338
0.0075172819 -0.00843741 -0.017334759 4280050304
-0.01006845 -0.019696921 -0.0072014602 4280045204
-0.0086127371 -0.017283365 -0.0095945084 4279128479
-0.0070040897 -0.015630454 -0.011322737 4278735268
-0.0054060593 -0.013978072 -0.013048679 4278800803
-0.0032959729 -0.014604032 -0.012791459 4278997408
-0.0015342906 -0.013711385 -0.013854686 4278735014
0.00022208318 -0.012819 -0.014916729 4278669989
0.0012441762 -0.0088921264 -0.018612042 4278800548
0.0029792525 -0.0080009401 -0.019669442 4278931873
0.0052717477 -0.0093849152 -0.018753164 4279128479
0.0085262228 -0.01455871 -0.014554221 4279391128
0.011432242 -0.018213838 -0.011675761 4280441473
0.013386983 -0.018078253 -0.012081967 4280836468
-0.0067990869 -0.018739149 -0.01117405 4281028228
-0.0051954985 -0.017082117 -0.012897823 4280044948
-0.0032544583 -0.016948476 -0.01330195 4279259549
-0.0016668066 -0.015292235 -0.015022255 4279194523
8.9596957e-05 -0.014397681 -0.016082648 4278670754
0.0014765635 -0.011981606 -0.018455874 4278932128
0.0032170042 -0.011087887 -0.019512746 4278932128
0.0058891289 -0.013996884 -0.017288957 4278866593
0.0089627616 -0.018424869 -0.013758849 4279587733
0.012646671 -0.025130853 -0.008270924 4279981453
0.015206188 -0.027273789 -0.006718257 4281291388
0.017583631 -0.028655693 -0.0058225412 4282078063
-0.0044720583 -0.022485867 -0.01078035 4282859893
-0.0026916936 -0.021587722 -0.011844334 4280896648
-0.0012696832 -0.019163013 -0.014220049 4279652759
0.00031553209 -0.017502502 -0.015936468 4278670244
0.0017082505 -0.015079573 -0.018305905 4278736289
0.0036386028 -0.014946163 -0.018707417 4278735268
0.0063178483 -0.017863341 -0.016491696 4278407593
0.0097780041 -0.02382879 -0.011665423 4279128989
0.013473447 -0.030553505 -0.0061947349 4280439944
0.016631283 -0.034988433 -0.0026917662 4281029249
0.019227449 -0.037135139 -0.0011516083 4281881203
-0.00034457073 -0.025343336 -0.01146263 4283188079
0.00089883432 -0.022146553 -0.014487782 4281158534
0.0019392222 -0.018185906 -0.01816218 4278931874
0.0038747564 -0.018052138 -0.018564772 4278800549
0.0065584518 -0.020977668 -0.016356565 4278866083
0.010212028 -0.027724907 -0.010892102 4279783829
0.013913665 -0.034468696 -0.0054375324 4280767363
0.016883191 -0.03815183 -0.0025968985 4281947504
0.0027140304 -0.023602858 -0.016068123 4281618809
0.0044785738 -0.022701003 -0.017125085 4279652249
0.0069852062 -0.02486749 -0.015576562 4279193503
0.010644972 -0.031633809 -0.010128213 4280504713
0.013968423 -0.036863312 -0.005989688 4281554294
0.010425601 -0.037249982 -0.013058649 4281815924
-0.016347542 -0.035164915 -0.02374245 4282731883
-0.002756726 0.0080907568 0.040249519 4285229609
-0.0090466216 0.015306726 0.030696403 4285426723
-0.007727135 0.018256105 0.027463306 4285623328
-0.0054192059 0.016985357 0.028461657 4285754398
-0.0017327294 0.010091864 0.035089344 4285885979
-0.011644036 0.015664823 0.027796417 4285098539
-0.01032136 0.018623024 0.024569198 4285755163
-0.0086891092 0.020168841 0.02275338 4285492004
-0.0065631494 0.019598082 0.023048438 4285492003
-0.0035778321 0.01550211 0.02685402 4285623584
-0.00021341443 0.0099985152 0.032056514 4285623838
0.0033700019 0.0037932172 0.037951369 4285558304
-0.014695585 0.018162325 0.022792604 4285362208
-0.013057955 0.019712687 0.020978775 4285559069
-0.011593483 0.02197025 0.018464901 4285887254
-0.0098144747 0.02281148 0.01735799 4285886743
-0.0075369328 0.021529861 0.018356074 4285755419
-0.0047368072 0.018127136 0.021454062 4285755418
-0.0017365925 0.014019199 0.025246661 4285821208
0.00094388053 0.01132749 0.027633507 4285558813
0.003645815 0.0086373687 0.030015957 4285559068
0.0063691977 0.0059488267 0.032394029 4285493278
0.0091140233 0.0032618642 0.034767717 4285427744
-0.017094981 0.017846324 0.020611431 4285361699
-0.015457202 0.019400887 0.018800821 4285493023
-0.01351057 0.019534335 0.018395104 4285558813
-0.012051038 0.021798111 0.015887167 4285624094
-0.010277309 0.022641104 0.014783044 4285821209
-0.008173354 0.02206444 0.015079346 4285821209
-0.0053822994 0.018650174 0.01817093 4285755674
-0.0025644265 0.01523786 0.021257006 4285624604
-0.00042280927 0.014664061 0.021545745 4285558813
0.0015457608 0.014799744 0.021136004 4285624603
0.003514383 0.014935523 0.020726327 4285624604
0.0054830424 0.015071422 0.020316724 4285820953
0.0081976056 0.012373805 0.022690114 4285885724
0.011690177 0.0068448186 0.02783991 4285819934
0.016376467 -0.0029293522 0.037148643 4285819934
-0.019634038 0.018253192 0.017733403 4285295398
-0.017998815 0.019811861 0.015926506 4285951769
-0.016060442 0.019944631 0.015522414 4286017048
-0.013962422 0.019365057 0.015818056 4285755419
-0.012670014 0.022347219 0.012617015 4285558558
-0.010739367 0.022479761 0.012214766 4285493023
-0.008305952 0.020476758 0.013906606 4285558814
-0.0056861714 0.017763212 0.016292661 4285559069
-0.0032178387 0.015762776 0.017977431 4285558813
-0.0010845661 0.015186273 0.018266216 4285558813
0.00034106523 0.017454848 0.015770763 4285755418
0.0021125786 0.018300474 0.014669222 4285689628
0.0036951751 0.019856617 0.012874196 4285623328
0.0060122348 0.018569753 0.013857919 4285558048
0.0089069009 0.015152469 0.016920209 4285689628
0.012211606 0.010316655 0.02136305 4285689374
0.016330995 0.002643384 0.028567974 4285426978
-0.021263573 0.014382631 0.019063745 4285229863
-0.020220209 0.018807136 0.0144583 4285820444
-0.018438756 0.019654572 0.013355545 4285689119
-0.01634917 0.01907213 0.013651199 4285754909
-0.014094777 0.017775536 0.014643854 4285952533
-0.012477707 0.019337565 0.012844319 4285689629
-0.010377139 0.018756181 0.013137921 4285558814
-0.0081037432 0.017461166 0.0141269 4285559069
-0.005989641 0.016880944 0.014417852 4285559069
-0.0040428452 0.017014876 0.014012459 4285559069
-0.0020959824 0.017148942 0.01360714 4285558813
-0.00050523132 0.018709823 0.011813513 4285689884
0.0012556389 0.019556887 0.010715841 4285952788
0.0028277785 0.021116659 0.0089262975 4285558049
0.0047614463 0.021250233 0.0085240444 4285557793
0.0072614551 0.019246101 0.010197683 4285623839
0.010351893 0.015105881 0.013942304 4285755419
0.013280313 0.011680253 0.016989455 4285426979
0.017219473 0.0046963394 0.023482535 4285296164
-0.023784652 0.014804654 0.016192552 4285229864
-0.022435464 0.01780761 0.012992452 4285624093
-0.020805236 0.019374505 0.011193112 4285623583
-0.01887792 0.019506358 0.010791215 4285557794
-0.016950492 0.019638337 0.010389376 4285623584
-0.014863778 0.019053556 0.010684076 4285689628
-0.012771625 0.018469304 0.010977685 4285755419
-0.010345001 0.01645264 0.012660907 4285558813
-0.0082366243 0.015869677 0.01295134 4285558813
-0.0064625852 0.016719431 0.011852204 4285624604
-0.0048663504 0.018284783 0.010060626 4285624348
-0.0031055361 0.019133791 0.0089644482 4285623839
-0.0011721253 0.019267023 0.0085619977 4285624094
0.00040020049 0.020831078 0.0067755962 4285755673
0.0019618757 0.022394486 0.0049915416 4285821463
0.0038847141 0.0225273 0.0045915367 4285821464
0.0067505352 0.019086242 0.0076432629 4285887254
0.0094518512 0.016361751 0.0099997474 4285558814
0.011980634 0.014353313 0.011662609 4285427488
-0.024935849 0.018253155 0.010133683 4285493023
-0.02330818 0.01982405 0.0083381282 4285821463
-0.02169108 0.021394365 0.0065448089 4285821208
-0.019777257 0.021525286 0.0061457148 4285689883
-0.017863322 0.021656327 0.0057466766 4285755673
-0.015313305 0.018911421 0.0081270626 4285887509
-0.012903478 0.016886905 0.0098087685 4285690138
-0.010641865 0.015582278 0.010793435 4285558813
-0.008870516 0.016433872 0.0096964715 4285558813
-0.0072741173 0.018003464 0.0079080733 4285624348
-0.0056883544 0.019572482 0.0061219381 4285624094
-0.0037631541 0.01970502 0.0057211099 4285755419
-0.0018378943 0.019837677 0.0053203525 4285624093
-9.2968345e-05 0.020687982 0.0042292951 4285558559
0.0014635846 0.022255421 0.0024495674 4285493023
0.0035666861 0.02167064 0.0027399966 4285493278
0.0060519576 0.019652449 0.0044067791 4285493534
0.008744387 0.016918637 0.0067584878 4285427998
0.010876954 0.016336262 0.0070429957 4284970784
-0.026276484 0.01293502 0.012854063 4285229609
-0.025211781 0.017399885 0.0082737496 4285493278
-0.024030901 0.021140747 0.0043956218 4285558813
-0.022273455 0.021992907 0.0033027111 4285689883
-0.020521253 0.022844844 0.0022109291 4285755929
-0.018149726 0.020810962 0.0038954858 4285755673
-0.015762057 0.018778279 0.0055767586 4285624349
-0.013358258 0.016746864 0.0072547151 4285558813
-0.011102479 0.015437439 0.0082373256 4285624604
-0.0093364269 0.016290799 0.0071430923 4285690394
-0.0079146586 0.018584885 0.004668043 4285755419
-0.0059923194 0.018717118 0.004267727 4285623838
-0.0040699206 0.018849477 0.0038674856 4285821208
-0.0021474697 0.018981926 0.0034673018 4285689884
-0.00058537349 0.020553976 0.001689638 4285558814
0.0013318211 0.020686284 0.001290719 4285493279
0.003620144 0.019379966 0.0022672145 4285493788
0.0061074197 0.017355338 0.003928653 4285362719
0.0084198527 0.016050935 0.0049002534 4285299479
-0.025837302 0.0084511042 0.014462062 4285360423
-0.024906214 0.013654068 0.0091948388 4285623838
-0.023716561 0.017406419 0.0053230813 4285426724
-0.022402871 0.020433068 0.0021503223 4285493278
-0.020497326 0.020563379 0.0017529158 4285558813
-0.018123817 0.018523127 0.0034320457 4285559068
-0.015734147 0.016484044 0.0051079253 4285624604
-0.01348966 0.015169412 0.0060894471 4285558813
-0.011562336 0.015301645 0.0056878272 4285558813
-0.0098015741 0.016156837 0.0045963647 4285690139
-0.0082154125 0.017734393 0.0028166929 4285492004
-0.00646789 0.018588938 0.0017281054 4285294633
-0.0043762922 0.017998569 0.0020172847 4285623839
-0.0024566539 0.018130831 0.0016176896 4285690139
-0.00053695589 0.018263206 0.0012181709 4285493788
0.0012000762 0.019117437 0.00013208296 4285428254
0.0034879074 0.017806731 0.0011053709 4285428253
0.0055984072 0.017218277 0.0013910001 4285363483
-0.025399506 0.0039499551 0.016057327 4285294888
-0.024166446 0.0077159852 0.01218474 4285558048
-0.02295997 0.011480302 0.0083177788 4285558049
-0.021629672 0.014516808 0.0051481072 4285624603
-0.01970822 0.014648184 0.004747374 4285559068
-0.01763089 0.014053941 0.0050372463 4285559068
-0.015706562 0.014185734 0.0046360753 4285559068
-0.013943251 0.015043043 0.0035455544 4285559069
-0.012348998 0.016625322 0.0017672917 4285624349
-0.01059889 0.017481938 0.00067968201 4285821464
-0.0088540539 0.018338293 -0.00040674675 4285558049
-0.0071144849 0.019194409 -0.0014919927 4285360933
-0.0052057281 0.019325785 -0.0018894197 4285492513
-0.0029425956 0.018008731 -0.00091460068 4285690138
-0.0008485578 0.017416626 -0.0006274553 4285559324
0.0010683686 0.017548911 -0.0010263221 4285428253
0.0031705126 0.016957529 -0.00074066315 4285363229
-0.025247596 0.000889346 0.016256426 4285360424
-0.023718596 0.0032092705 0.01377315 4285426469
-0.022205517 0.0055282712 0.011293252 4285426213
-0.020708345 0.0078462809 0.0088167461 4285426213
-0.019074161 0.009435147 0.0070331665 4285426469
-0.01745056 0.011023417 0.0052518826 4285492513
-0.015679292 0.011883348 0.004161207 4285360933
-0.014396083 0.014925741 0.0010082852 4285493279
-0.013134163 0.017966732 -0.0021400745 4285493279
-0.01156098 0.01955203 -0.0039105611 4285624349
-0.0098294653 0.020409629 -0.0049925735 4285821719
-0.0079315864 0.020540163 -0.0053878119 4285821718
-0.006033659 0.020670794 -0.005782987 4285756183
-0.0039586946 0.020075068 -0.0054936269 4285625114
-0.0015190393 0.018027231 -0.0038374229 4285493534
0.00075436756 0.01670675 -0.0028678863 4285427999
-0.025238395 -0.0014486909 0.015759218 4285360169
-0.023416888 -0.00058372319 0.014659292 4285425959
-0.02174798 0.0010116398 0.012871596 4285426213
-0.020089649 0.0026064217 0.011086144 4285426214
-0.018594619 0.0049308538 0.0086151557 4285426213
-0.017115511 0.0072543621 0.006147543 4285426214
-0.015494261 0.0088469088 0.0043701176 4285426213
-0.014205109 0.011898383 0.0012225639 4285624348
-0.013100684 0.015678093 -0.0026061083 4285493023
-0.011856802 0.018726699 -0.0057440596 4285493278
-0.010465465 0.021044739 -0.0081929667 4285559069
-0.0085757487 0.021174699 -0.0085865157 4285558814
-0.0066859685 0.021304742 -0.0089800106 4285493023
-0.0042657591 0.019248933 -0.0073248101 4285493533
-0.001829464 0.017194331 -0.005672873 4285625624
0.000258632 0.016597569 -0.0053877267 4285628683
-0.025371388 -0.0030575693 0.014570472 4285360169
-0.023549821 -0.0021904185 0.013472184 4285491749
-0.021880697 -0.00059072673 0.011687723 4285425958
-0.020222142 0.0010084063 0.0099055218 4285425959
-0.018574148 0.0026068836 0.0081256526 4285425958
-0.017091975 0.0049370974 0.0056623332 4285491749
-0.015309922 0.0058020502 0.0045727398 4285492258
-0.013854258 0.0081306249 0.0021151621 4285558049
-0.012577798 0.011190049 -0.001023056 4285558303
-0.011654474 0.015711308 -0.0055237277 4285492513
-0.010257371 0.018036194 -0.0079688495 4285426978
-0.008704979 0.019628957 -0.0097282371 4285558814
-0.0068153404 0.019759014 -0.010121693 4285493278
-0.004572425 0.018427446 -0.0091525605 4285099814
-0.023682717 -0.0037968308 0.012285286 4285229098
-0.022013362 -0.0021927804 0.010504079 4285360423
-0.020354591 -0.00058931112 0.0087251132 4285360424
-0.018706374 0.0010135099 0.0069484888 4285425959
-0.017068736 0.0026157275 0.0051741553 4285426213
-0.015126251 0.0027487129 0.0047691623 4285492259
-0.01350446 0.0043501183 0.0029982636 4285558049
-0.012056325 0.006684795 0.00054729171 4285558303
-0.010955632 0.010486111 -0.0032640584 4285558049
-0.0098815709 0.014285684 -0.0070697139 4285624094
-0.0083209276 0.015883304 -0.008827473 4285624604
-0.006597165 0.016747087 -0.0099027669 4285296418
-0.022292845 -0.0030573159 0.0086365053 4285228843
-0.020486988 -0.0021867156 0.0075449394 4285360423
-0.018534169 -0.0020532757 0.0071375938 4285360678
-0.016890973 -0.00044634938 0.005365395 4285360424
-0.015100818 0.0004234761 0.0042773979 4285492259
-0.013636343 0.00276573 0.0018278407 4285558049
-0.01202492 0.0043708235 6.2531792e-05 4285558303
-0.01058967 0.0067112893 -0.0023807664 4285493023
-0.0091703795 0.0090507865 -0.0048206393 4285558304
-0.0077670515 0.011389256 -0.0072570648 4285492768
-0.0060325451 0.012255959 -0.0083329324 4285295908
-0.018666662 -0.0036504045 0.0059576454 4285229099
-0.016868565 -0.0027779862 0.0048695514 4285360679
-0.015075713 -0.0019058287 0.0037826234 4285557793
-0.013448119 -0.00029540807 0.002017145 4285558049
-0.011668447 0.0005761236 0.00093310419 4285493023
-0.010059398 0.0021855161 -0.00082832109 4285492769
-0.0089650974 0.006008178 -0.0046216906 4285492768
-0.0075560249 0.008353591 -0.0070544016 4285492769
-0.0059895292 0.009960413 -0.0088067036 4285230374
-0.015365262 -0.0027574599 0.0019274848 4285294889
-0.013580285 -0.0018835515 0.00084394682 4285426468
-0.011638045 -0.0017503947 0.00043915119 4285492768
-0.010191306 0.00060388446 -0.0019966392 4285558558
-0.0087605231 0.0029571876 -0.0044290093 4285492513
-0.0073456913 0.0053094551 -0.0068579339 4285623584
-0.0056004375 0.0061812624 -0.0079328008 4284967978
-0.011770323 -0.0033382699 -0.00073381979 4285426214
-0.010158174 -0.0017199516 -0.0024893442 4285492258
-0.0087243058 0.00064000487 -0.0049173804 4285426723
-0.0071360618 0.002256915 -0.0066677472 4285492513
-0.0055584349 0.0038731769 -0.0084157633 4284967724
-0.008520931 -0.0024256632 -0.0047355508 4285360934
-0.0070972927 -5.9723854e-05 -0.0071564531 4285426724
