# .PCD v0.7 - Point Cloud Data file format
VERSION 0.7
FIELDS x y z rgba
SIZE 4 4 4 4
TYPE F F F U
COUNT 1 1 1 1
WIDTH 859
HEIGHT 1
VIEWPOINT 0 0 0 1 0 0 0
POINTS 859
DATA ascii
-0.028519075 -0.02742286 -0.0022797743 4286659394
-0.026740618 -0.0257762 -0.0039263638 4286724929
-0.024757601 -0.025670357 -0.004245528 4286659903
-0.030214313 -0.032213889 -0.00052130362 4286659393
-0.028521772 -0.029789522 -0.0028293557 4286986558
-0.026635718 -0.028910875 -0.0038114651 4287052604
-0.024647463 -0.028804779 -0.0041314857 4286987068
-0.022659112 -0.028698519 -0.0044514174 4286201923
-0.028524738 -0.032160178 -0.0033819953 4287052093
-0.026635986 -0.031279266 -0.0043628863 4286856253
-0.024645198 -0.031173036 -0.0046833283 4286790974
-0.022544287 -0.03184104 -0.0043445844 4286790463
-0.028527942 -0.034534901 -0.0039376449 4286593603
-0.026532017 -0.034428529 -0.0042590033 4286594369
-0.024536006 -0.034322031 -0.004580291 4286659649
-0.022429999 -0.034991913 -0.0042440314 4286790209
0.015392601 0.001953721 0.025642622 4282416958
0.016442437 0.0063828304 0.0211743 4281437248
0.01844839 0.0064923614 0.020853348 4279807544
0.022128873 -0.00059308857 0.027431671 4280262973
0.026884254 -0.01199168 0.038138397 4279479869
0.011225965 0.0096081644 0.015761975 4283596334
0.012257665 0.014049187 0.011306464 4281308473
0.013580769 0.017044589 0.0082345186 4281112634
0.015540695 0.017151602 0.0079209274 4281436994
0.018504452 0.01292862 0.011737085 4280132669
0.022520602 0.0043783933 0.019675128 4279220534
0.026083373 -0.0020040572 0.025540721 4280654144
0.029519275 -0.0076625198 0.030711658 4281501764
0.032820188 -0.012597382 0.035189219 4281501254
0.035073992 -0.013204508 0.035544202 4281304650
0.036048565 -0.0087656379 0.031098567 4281628499
0.036618274 -0.0028872192 0.025287773 4282151504
0.039789338 -0.0070979297 0.02907142 4282152524
0.045100309 -0.019230559 0.040378325 4282283338
0.0080555826 0.012975767 0.010045826 4284313903
0.0098671652 0.013807341 0.0090423701 4282418233
0.010878023 0.018260151 0.0046002632 4279418158
0.012503508 0.019814774 0.0029133456 4280851259
0.014447108 0.019920915 0.0026023844 4281502529
0.017059321 0.017131746 0.005037996 4281502784
0.02037254 0.011449084 0.010215032 4280589628
0.023383774 0.0072160065 0.014013696 4280850238
0.026076827 0.0044315904 0.016436636 4281241408
0.028791415 0.0016484708 0.018856216 4281306179
0.030082259 0.0046514943 0.015796699 4281175364
0.030984726 0.0090993345 0.011372671 4280851514
0.032040767 0.012822747 0.0076374663 4280395573
0.03514605 0.0085954294 0.011421648 4280265014
0.040006682 -0.0021325722 0.021345407 4279937339
0.046501379 -0.01863493 0.036714863 4279937339
0.051938996 -0.030797057 0.047973335 4279415354
0.0073347986 0.014301926 0.006096215 4284054824
0.0088231638 0.016588263 0.0037227748 4281503039
0.010295315 0.018873855 0.0013519628 4280849984
0.011912869 0.020432375 -0.00033033686 4279352114
0.013848236 0.020538062 -0.00063998485 4279873078
0.016284619 0.018465795 0.0011054007 4279873333
0.019416017 0.013491049 0.0055864705 4280004150
0.022240326 0.0099699348 0.0086933458 4281111104
0.024566231 0.0086271316 0.0097449264 4281176385
0.026547255 0.0087358579 0.0094283959 4281175874
0.027625665 0.012471057 0.0056978604 4280784703
0.028493805 0.016929984 0.0012893463 4281110339
0.030073104 0.018487364 -0.00038610492 4281501764
0.032961763 0.014970422 0.0027109748 4281045313
0.037216447 0.0063822865 0.010571542 4280197948
0.043281808 -0.0087229759 0.024547871 4280458558
0.050050471 -0.025994986 0.040546902 4280458558
0.006921947 0.014187872 0.0035310304 4283008814
0.008249145 0.01720921 0.00047831889 4281503549
0.0097135045 0.019500878 -0.0018862216 4281176128
0.011323132 0.021063238 -0.0035638667 4281306179
0.013414435 0.020440172 -0.0031884355 4281175874
0.016178576 0.016904749 -8.0465339e-05 4281241664
0.019139234 0.01264289 0.0037061712 4281241663
0.021787707 0.0098386705 0.0061228108 4281111360
0.023582902 0.010674432 0.0051259082 4281110849
0.025017304 0.012965202 0.0027667405 4281110593
0.026435465 0.015255153 0.00041028392 4279546934
0.027471226 0.018998936 -0.0033049835 4279221553
0.029408721 0.019105591 -0.0036143109 4280589374
0.031911489 0.017031401 -0.0018839194 4280784703
0.035959613 0.0091433525 0.005279636 4280524349
0.041811664 -0.005281575 0.018544946 4280002619
0.049147382 -0.024786316 0.036543306 4280002619
0.05483542 -0.03774529 0.048415087 4280588863
0.0050153304 0.011783272 0.0033371206 4284185384
0.0066629313 0.013351701 0.0016564829 4282485043
0.0076760203 0.017843455 -0.002756034 4281504314
0.0091325976 0.02014114 -0.0051142713 4280590648
0.011056926 0.020246129 -0.0054222224 4280849984
0.013637306 0.017429255 -0.0030016759 4281110594
0.016572706 0.01315292 0.00077894609 4281306433
0.019371022 0.0096086934 0.0038731955 4281306944
0.021163579 0.01044637 0.0028783064 4281176639
0.022775864 0.012013793 0.0012039617 4281111104
0.024022272 0.015040249 -0.0018284558 4281046079
0.025607459 0.016606353 -0.0034982646 4281045824
0.026633039 0.020360388 -0.0072035445 4280263484
0.02855961 0.020466454 -0.0075111212 4278894388
0.031239327 0.017655984 -0.0051056417 4279481144
0.035468582 0.009014681 0.0027188789 4280198203
0.041893236 -0.0076404959 0.017984301 4280198203
0.049620297 -0.028661065 0.037291717 4280915009
0.055114493 -0.040929981 0.048456084 4281240899
0.0047591627 0.01094754 0.001462331 4283665438
0.0062511321 0.01325345 -0.0008967719 4282158899
0.0072595757 0.017757863 -0.0052984813 4280071214
0.0085525736 0.020794738 -0.008332259 4279287599
0.010629846 0.020166483 -0.0079579977 4279156273
0.013367988 0.016607948 -0.0048626484 4279155764
0.016632808 0.01085344 0.0002686088 4281111104
0.019263685 0.0080308914 0.0026746262 4281306688
0.021056252 0.0088707358 0.0016814228 4281241918
0.022319362 0.011906631 -0.0013470701 4281306944
0.023383463 0.015673369 -0.0050503137 4281306433
0.024780646 0.017975196 -0.0073934114 4281241408
0.026344333 0.019544568 -0.009056353 4281306433
0.028453534 0.018919036 -0.008686441 4281045313
0.031508841 0.014637247 -0.0049343584 4281110083
0.035741583 0.0059702098 0.0028696191 4280848963
0.042748731 -0.012927584 0.020123519 4280848963
0.050092302 -0.032548435 0.038030479 4280848963
0.054995067 -0.04266157 0.047141019 4280717894
0.0019648001 0.012953445 -0.0028224527 4284250663
0.0040526018 0.012323156 -0.0024518943 4282423079
0.0055340752 0.014634967 -0.004804316 4281439289
0.0066880938 0.018416531 -0.0085142786 4281047609
0.008131776 0.020726506 -0.010860479 4281372223
0.010203373 0.020095743 -0.010486933 4280134198
0.012935249 0.016526088 -0.0073989118 4280133688
0.016026925 0.011488676 -0.0029583569 4281176384
0.018818097 0.0079224706 0.00012034923 4281241408
0.020605277 0.0087641925 -0.00087032467 4281307199
0.021863448 0.01180847 -0.0038913316 4281241664
0.022745539 0.016319834 -0.0082621137 4281176384
0.024134934 0.018627703 -0.01059896 4280655419
0.026055917 0.018733412 -0.010905686 4279221553
0.02853277 0.016638249 -0.0091861906 4280785213
0.031777769 0.011610083 -0.0047694086 4281110339
0.036586098 0.000717327 0.0050375024 4281045058
0.043602724 -0.018236056 0.022246491 4281045058
0.050367311 -0.035715528 0.038085975 4281110083
0.055074424 -0.045125723 0.046499435 4280848709
0.00097572058 0.015825242 -0.008082944 4283993878
0.0028969608 0.015929617 -0.0083907498 4282550323
0.0043598525 0.018246867 -0.010735131 4280201264
0.0061175115 0.019088507 -0.011719967 4281047353
0.0078697708 0.019929916 -0.012703807 4281371968
0.0099383742 0.019296881 -0.012331496 4281372224
0.012339523 0.017190218 -0.010605582 4280719933
0.015255658 0.01287403 -0.0068519688 4280850494
0.018204145 0.0085596815 -0.0031033885 4281306433
0.020154916 0.008666575 -0.0034152174 4281306688
0.021233767 0.012455627 -0.0071041915 4281111104
0.022108505 0.016979583 -0.011463818 4280590138
0.023490127 0.019293487 -0.013794352 4279092269
0.025767811 0.017926827 -0.012751463 4278961708
0.028796872 0.013617612 -0.0090152854 4278504239
0.032421809 0.0071032792 -0.0032642726 4279807288
0.037619684 -0.0052924156 0.0078620361 4281045569
0.044455223 -0.023565859 0.024353273 4281175363
0.050641708 -0.038890898 0.038135134 4281567554
0.054756187 -0.046123758 0.044511672 4281436739
0.00057739764 0.015763089 -0.010610932 4283009834
0.0021932125 0.017346993 -0.012273245 4281373755
0.0037982501 0.018930383 -0.013933702 4280525369
0.0055478271 0.019773703 -0.014915531 4279156019
0.007450033 0.019877389 -0.015220019 4279677239
0.009512959 0.019241884 -0.014848466 4279611704
0.012234991 0.015650116 -0.011775556 4279285559
0.014983978 0.012059942 -0.0087068751 4280915009
0.017591082 0.0092102066 -0.006317066 4281045313
0.019190563 0.010794088 -0.0079760272 4281241153
0.020604972 0.013116099 -0.010306999 4280850494
0.021649297 0.016914159 -0.013982021 4281176893
0.023205437 0.018496051 -0.015633833 4281633088
0.025297686 0.01786299 -0.015266231 4281502783
0.028505338 0.012802511 -0.010866966 4279483439
0.032501537 0.0047928542 -0.0037869646 4280851768
0.03808026 -0.009114854 0.008653407 4281372478
0.044920024 -0.027441993 0.025102254 4281437504
0.050719701 -0.041337274 0.037507571 4281437248
0.054438237 -0.047117174 0.042527422 4281371203
0.00076806918 0.012741074 -0.010426242 4282484789
0.0022396445 0.015071608 -0.012762103 4281502529
0.0035425331 0.018143333 -0.015770931 4281175363
0.0054446105 0.018246911 -0.016075481 4281110083
0.0073466785 0.018350601 -0.016379938 4281045314
0.009569902 0.016971439 -0.015335704 4280849474
0.01196719 0.014851637 -0.013619183 4280979780
0.014546622 0.011991657 -0.011231707 4281044548
0.016641546 0.011356086 -0.010866676 4280979524
0.018227696 0.012943566 -0.012520153 4281241154
0.019628922 0.015271336 -0.014844001 4280264248
0.021013903 0.017598316 -0.017165184 4280068664
0.022741592 0.018443607 -0.018141054 4281176639
0.024828151 0.017808139 -0.01777425 4281436993
0.028029243 0.012732171 -0.013385555 4281045824
0.032393396 0.0032184198 -0.0049827639 4280851769
0.038539927 -0.012949951 0.0094350921 4280786489
0.045769833 -0.032810166 0.027179908 4280786489
0.050797395 -0.043787643 0.036876976 4281241408
0.053922229 -0.04736653 0.039878458 4281305923
0.00095817819 0.0097106472 -0.010247873 4282220099
0.0025850832 0.011303797 -0.011905283 4281696838
0.0040488727 0.013640508 -0.014234796 4281370694
0.0056514982 0.015232541 -0.015888155 4281631559
0.0075588208 0.015336521 -0.016193449 4281304903
0.0097870156 0.013953306 -0.015153292 4281239113
0.012025973 0.012570828 -0.014114812 4281239624
0.014275698 0.011189006 -0.013077918 4281174343
0.016030567 0.012037545 -0.014056854 4281174598
0.017266307 0.015115038 -0.017047647 4281370948
0.018828282 0.016705632 -0.018693823 4281176384
0.020202778 0.019038513 -0.021008313 4280329528
0.022278341 0.01840014 -0.020641454 4280133179
0.024541238 0.017019771 -0.019606184 4279741498
0.02792317 0.01118619 -0.014559766 4280133179
0.032472666 0.0009021461 -0.00550996 4280067133
0.038998712 -0.016797751 0.010207205 4280067133
0.046039734 -0.035974145 0.027238861 4280653633
0.050288267 -0.044016883 0.034242164 4280979268
0.053010404 -0.046123743 0.035903011 4281631304
0.0012945347 0.0059253946 -0.0094027054 4282089028
0.0029296838 0.0075232387 -0.011058066 4281631559
0.0042496454 0.010613158 -0.014056277 4281435463
0.0060127228 0.011463687 -0.015035262 4281370438
0.007927997 0.011568107 -0.015341824 4281435719
0.01016384 0.010181025 -0.01430627 4281370438
0.011921482 0.011031605 -0.01528411 4280913223
0.014005074 0.010390997 -0.014920685 4280912968
0.015588872 0.011986874 -0.016567187 4281239879
0.017161831 0.013582319 -0.01821192 4281435209
0.018376403 0.016667359 -0.021192506 4281500998
0.020098763 0.017516613 -0.022164315 4281566023
0.022174036 0.016876094 -0.021799058 4281305158
0.024436498 0.015491381 -0.020767059 4281239878
0.027632542 0.010384969 -0.016400892 4280848964
0.032926172 -0.0029068068 -0.0047068102 4280653124
0.039836522 -0.022146583 0.012302249 4280653124
0.046501674 -0.039890416 0.027957305 4280783684
0.049975097 -0.044981048 0.032279581 4281109829
0.0014833696 0.0028760731 -0.0092386883 4283462969
0.0031240601 0.0044785962 -0.010891637 4281434444
0.0047539733 0.0060806051 -0.012542728 4281304138
0.0063730925 0.0076821521 -0.014191989 4281369419
0.0082963109 0.0077869818 -0.014499847 4281369673
0.010379663 0.0071439818 -0.014138216 4281369929
0.012142701 0.0079970211 -0.015115246 4281174089
0.014065856 0.0081022233 -0.015422802 4281174088
0.015820732 0.0089550912 -0.016398389 4281174598
0.017399242 0.010555111 -0.018040625 4280913733
0.018966913 0.012154698 -0.019681077 4281044804
0.020523749 0.013753749 -0.021319676 4281110084
0.02242779 0.013858475 -0.021623731 4281434698
0.024695206 0.012469746 -0.020595841 4281695309
0.02789546 0.0073484778 -0.016242016 4282217039
0.033565912 -0.0074749514 -0.0032481696 4282282063
0.04067285 -0.027516745 0.014381087 4282282063
0.046577722 -0.042327031 0.02733776 4282347853
0.049271807 -0.04444842 0.028992955 4282283339
-0.00041681156 0.00046393275 -0.0094397273 4284311098
0.0015251301 0.00056932122 -0.009750938 4282677568
0.0030194465 0.0029270127 -0.012070471 4281434444
0.0048014075 0.003782779 -0.013049226 4281369164
0.0064233784 0.0053887889 -0.014695613 4281369164
0.0085064471 0.0047434866 -0.014335707 4281303883
0.010594901 0.004098624 -0.013976552 4281304138
0.012363333 0.0049541295 -0.014952771 4281304138
0.014126346 0.0058094338 -0.015928043 4280978248
0.016052023 0.0059148967 -0.016235905 4280913223
0.017977653 0.0060204491 -0.016543685 4281044294
0.019556262 0.007624954 -0.018182546 4281109574
0.021300217 0.0084797144 -0.019154385 4281109574
0.022859845 0.01008334 -0.020790011 4281174344
0.025134919 0.0086907446 -0.019766659 4281238348
0.028157799 0.0043036267 -0.016089482 4281368653
0.034204472 -0.012060136 -0.0018024705 4281368653
0.041318029 -0.032159746 0.015780736 4281368653
0.046461102 -0.044019267 0.026052576 4281500234
0.048959527 -0.045398936 0.02704075 4281696329
-0.00052153692 -0.0010938197 -0.010623313 4284377399
0.0012738891 -0.00023540854 -0.011602746 4282547010
0.0027657934 0.0021286309 -0.01391688 4281434188
0.0046968199 0.0022336692 -0.014226157 4281434444
0.0066278465 0.0023388267 -0.01453533 4281369164
0.0087160189 0.0016916692 -0.014177894 4281303883
0.010489862 0.0025494918 -0.015153416 4281304138
0.012583395 0.0019028485 -0.014796661 4281369929
0.0143518 0.0027606338 -0.015771106 4281174344
0.016282722 0.0028663799 -0.01607981 4281239879
0.018213604 0.0029722452 -0.016388413 4281174598
0.020144433 0.0030782074 -0.016696926 4281175109
0.021899182 0.0039357245 -0.017668817 4281239623
0.02346975 0.0055442899 -0.019302838 4281369929
0.025392316 0.0056501627 -0.019609753 4281630283
0.028787797 -0.0002515614 -0.014618846 4281564238
0.035028663 -0.01741311 0.00029211072 4281564238
0.041582972 -0.035318367 0.015844747 4281564238
0.046152264 -0.044960633 0.024106663 4281694544
0.048452642 -0.045594469 0.024431568 4281953879
-0.00048272312 -0.0034065843 -0.011139623 4283524933
0.0011691712 -0.0017906949 -0.012784424 4282020944
0.0028102919 -0.00017520785 -0.014427433 4281236819
0.0045922436 0.00068484247 -0.015402866 4281171538
0.0065231211 0.00078999996 -0.015712015 4281107024
0.0084539875 0.00089526922 -0.016021077 4281172814
0.010384843 0.0010006577 -0.016330037 4281173833
0.012640491 -0.00040249527 -0.015310849 4281304138
0.014411582 0.00045763701 -0.016284101 4281369928
0.016345048 0.00056353211 -0.016593203 4281369928
0.018107988 0.0014234036 -0.017564926 4281239879
0.020038676 0.0015293807 -0.017873399 4281304904
0.021969307 0.0016354769 -0.018181771 4281304649
0.023721304 0.00249511 -0.019151475 4281304138
0.025830394 0.0018479973 -0.018798232 4281434444
0.029232645 -0.0040706247 -0.01382169 4281630284
0.035478026 -0.021281481 0.0010502255 4281629774
0.041468598 -0.036979675 0.014583022 4281629774
0.045651674 -0.045144692 0.021505065 4281759824
0.047946345 -0.045780927 0.021829195 4282476374
0.0030032955 -0.0032403544 -0.0142765 4281104218
0.0047906432 -0.002377823 -0.015251103 4281105748
0.0067267586 -0.0022723824 -0.015561095 4281106514
0.0086628664 -0.0021668375 -0.015871003 4281237328
0.010439394 -0.0013044998 -0.01684365 4281303883
0.012697296 -0.0027118325 -0.01582814 4281239368
0.014636043 -0.0026057512 -0.016138174 4281370184
0.016574759 -0.0024995804 -0.016448122 4281500489
0.01817273 -0.00088118017 -0.018080149 4281370184
0.019759882 0.00073670596 -0.019710314 4281369929
0.021687672 0.00084264576 -0.020018227 4281435209
0.023793839 0.00019313395 -0.019666251 4281173578
0.02590533 -0.00045597553 -0.019315042 4281303883
0.029676605 -0.0079023615 -0.013034161 4281564748
0.035553455 -0.023652203 0.00048169028 4281564494
0.041354224 -0.038640663 0.013321538 4281564494
0.04515167 -0.045319766 0.01891024 4281302608
0.015848771 -0.010228448 -0.012036774 4281234013
0.018143903 -0.011637747 -0.011030402 4281694034
0.019768992 -0.010013603 -0.012663394 4281694289
0.021037456 -0.006873779 -0.015612586 4281434698
0.022635479 -0.0052508414 -0.017241117 4281369673
0.024400953 -0.0043861344 -0.018209614 4281434443
0.026522931 -0.0050368011 -0.017861731 4281695563
0.030119669 -0.011746734 -0.012256283 4281564238
0.036001347 -0.027541563 0.0012238724 4281564238
0.041050792 -0.039544202 0.011403874 4281629775
0.04484405 -0.046242908 0.016978264 4281759568
0.024212901 -0.022880889 -0.0043098787 4282280789
0.02533596 -0.018970631 -0.0079140551 4281890128
0.026432008 -0.015061729 -0.011513807 4281565258
0.028224364 -0.014193229 -0.012484886 4281695563
0.031479515 -0.019401908 -0.0082097612 4281826380
0.036448345 -0.031443566 0.0019563679 4281826380
0.041125499 -0.041961722 0.010799293 4281956429
0.044345111 -0.046402231 0.014395476 4282215764
-0.030340131 -0.008706741 0.038168535 4281028738
-0.028594751 -0.0064217523 0.035742071 4282077808
-0.026147701 -0.0092137456 0.038208906 4281881459
-0.023994628 -0.0098293573 0.038577609 4282602599
-0.033058565 -0.0060925931 0.033058569 4279520923
-0.029699419 -0.0007840097 0.027523194 4278272188
-0.025469493 -0.0020237565 0.028269432 4279519904
-0.035193767 -0.0078307688 0.032146059 4282011509
-0.033918839 -0.0018832982 0.026245974 4278603434
-0.03229953 0.001142785 0.02313786 4278405808
-0.030203935 0.00051947683 0.023512319 4279258529
-0.028000552 -0.0008328855 0.024581283 4278339764
-0.026206017 0.00073288381 0.022868879 4279454624
-0.036031138 -0.0036026388 0.025343407 4279390109
-0.032695081 0.0017346516 0.019834902 4278537134
-0.030607846 0.0011087731 0.020208985 4278800039
-0.027359955 0.0064420551 0.014715129 4279781024
-0.037966009 -0.0067906678 0.025829613 4281750133
-0.036592659 -0.0015428364 0.020648759 4278472873
-0.034881454 0.00076593459 0.018247612 4278472109
-0.038601767 -0.0039865375 0.020445336 4279128479
-0.037061688 -0.00019764155 0.016662974 4278341803
-0.03526726 0.0013805926 0.014960219 4278996644
-0.033290628 0.001485765 0.014641835 4278996133
-0.031313848 0.0015910566 0.014323507 4278865319
-0.030151438 0.0075846091 0.0084818183 4279652503
-0.039059389 -0.0026340038 0.016462997 4278866084
-0.037438657 0.00042637438 0.013381121 4278406063
-0.035558578 0.0012699217 0.012372994 4278796469
-0.033683758 0.0021132305 0.011365843 4279059374
-0.031616222 0.0014797598 0.011738033 4278865829
-0.030356538 0.0067521036 0.0065992028 4280242064
-0.041062322 -0.0050744712 0.016260821 4280766599
-0.039691951 0.00021836162 0.011115377 4278275503
-0.035942722 0.0019089431 0.0091041969 4278665398
-0.031720322 -0.00010359287 0.010534522 4278799528
-0.030358244 0.0044435561 0.0060943533 4280637059
-0.041592579 -0.0029534996 0.011607169 4278603434
-0.039971132 0.00012403727 0.0085384129 4278472108
-0.038280468 0.0024574623 0.0061604045 4278930344
-0.036325958 0.0025612935 0.005845448 4279585948
-0.034275312 0.0019224286 0.006216893 4278536623
-0.03202175 -0.00020135194 0.0079594022 4278799273
-0.043421712 -0.0068797469 0.012781211 4281553528
-0.042206455 -6.5013766e-05 0.0062837051 4278865573
-0.038654599 0.0031235069 0.0029104762 4278930853
-0.036708299 0.0032268763 0.0025968272 4279258529
-0.034666013 0.0025853962 0.0029679351 4278470833
-0.032421108 0.00045471638 0.0047067897 4278732973
-0.044265497 -0.0017400458 0.0054046297 4279653014
-0.042733666 0.0021020323 0.0016650613 4278472873
-0.032721173 0.00037704408 0.0021469304 4279126693
-0.044449974 -0.002561219 0.0035266029 4279522199
-0.04283547 0.00054165721 0.00047885394 4278604453
-0.040979926 0.0013943091 -0.00051718066 4279062943
-0.039219793 0.0029963553 -0.0021945783 4278801314
-0.037284542 0.0030991137 -0.0025064652 4278473384
-0.035158049 0.0017033815 -0.0014554937 4278538408
-0.032922354 -0.00044082105 0.00027484028 4278603944
0.059297614 -0.047482625 0.033580601 4282667114
-0.044470225 -0.0048820823 0.0030159811 4279325338
-0.042852584 -0.0017704964 -2.5584362e-05 4278866849
-0.040994342 -0.00091551244 -0.0010204436 4278342059
-0.039141338 -6.0766935e-05 -0.0020143487 4278538664
-0.037200857 4.2244792e-05 -0.0023271018 4278800803
-0.035069365 -0.0013575926 -0.0012802305 4278604453
-0.032926988 -0.0027566701 -0.00023506302 4279128733
-0.044163454 -0.010224342 0.0052234903 4279783828
-0.042531934 -0.0071034133 0.0021863384 4279194013
-0.040660214 -0.0062455982 0.0011909502 4279128478
-0.038883623 -0.0046340823 -0.00048245396 4278669988
-0.036839906 -0.0052842945 -0.00011839252 4279194524
-0.034790661 -0.0059340969 0.00024487544 4279521944
-0.032833871 -0.0058300272 -7.0354901e-05 4279325338
-0.03107829 -0.0042191744 -0.0017400207 4280112269
-0.029230002 -0.0033619702 -0.0027310709 4280833409
-0.027174875 -0.0040110052 -0.0023684045 4281881459
-0.044266392 -0.011805445 0.0040214919 4279915154
-0.04246572 -0.01018858 0.0023473464 4279390873
-0.040414501 -0.010840803 0.0027083438 4279128478
-0.038447488 -0.010736547 0.0023911931 4278866848
-0.036480334 -0.010632172 0.0020741038 4278997663
-0.034608182 -0.0097718984 0.001080595 4279587733
-0.032741275 -0.0089117885 8.8036526e-05 4279849618
-0.030980173 -0.007296294 -0.0015792358 4279784339
-0.029126506 -0.0064366758 -0.0025695036 4280177803
-0.027278095 -0.0055771992 -0.0035588176 4280243339
-0.025326364 -0.0054729432 -0.0038728819 4282274414
-0.044369292 -0.013386227 0.0028197207 4279783573
-0.042400036 -0.013282105 0.0025020093 4279521944
-0.040343713 -0.013936266 0.0028605424 4279521943
-0.03837144 -0.01383175 0.0025425293 4279456664
-0.036583658 -0.012210906 0.00087400526 4278997919
-0.034711506 -0.011348501 -0.00011784537 4279522198
-0.032844599 -0.01048623 -0.0011087465 4279587733
-0.030982953 -0.0096241608 -0.0020987312 4279784338
-0.029229689 -0.0080046803 -0.003761332 4280112013
-0.027275521 -0.0079004467 -0.0040759067 4280308364
-0.025321234 -0.007796064 -0.0043903883 4281160064
-0.02325568 -0.0084486455 -0.004032563 4282798184
-0.019224677 -0.008995831 -0.0039906311 4281946738
-0.0173839 -0.0081339926 -0.0049766558 4280505988
-0.015548427 -0.0072723478 -0.0059616822 4282471273
-0.044227984 -0.017249241 0.0036442727 4279652248
-0.042418953 -0.015623361 0.0019754209 4279194014
-0.040360209 -0.016279519 0.0023318492 4279718038
-0.038474869 -0.015414499 0.0013393462 4279587734
-0.036686931 -0.013789356 -0.00032588094 4279128989
-0.03490964 -0.012164682 -0.0019892566 4279194524
-0.032947887 -0.012060404 -0.0023053251 4279522199
-0.031086255 -0.011196189 -0.0032936442 4279587734
-0.029229898 -0.010332078 -0.0042810552 4279849874
-0.027484454 -0.0087086558 -0.0059389542 4279587479
-0.025316354 -0.010123223 -0.0049109603 4280046223
-0.023359422 -0.010018595 -0.0052257846 4280439434
-0.021288667 -0.010672994 -0.0048703514 4281553019
-0.019328859 -0.010567978 -0.0051854625 4280898433
-0.017607205 -0.0089451745 -0.0068391035 4280112523
-0.015652627 -0.0088402107 -0.0071531902 4280963713
-0.013946991 -0.0072180778 -0.0088040372 4282666604
-0.010308105 -0.005491592 -0.010765201 4282535788
-0.0061494038 -0.0067976117 -0.010055735 4281947249
-0.0041998923 -0.0066921711 -0.010368436 4282339949
-0.0025317259 -0.0050712898 -0.012012742 4282405484
-0.00058755279 -0.0049659014 -0.012324399 4281359218
-0.04400624 -0.021887869 0.0051329313 4279914389
-0.042270232 -0.01949425 0.0027923062 4279783573
-0.040376958 -0.018626779 0.0018000938 4279718293
-0.038399588 -0.018522039 0.0014812313 4279653014
-0.036698151 -0.016129889 -0.00085354596 4279128988
-0.034823317 -0.015263066 -0.0018425174 4278932893
-0.032953728 -0.014396384 -0.0028305538 4279390873
-0.031189498 -0.012767904 -0.0044883303 4279456665
-0.029333156 -0.011901654 -0.0054740869 4279718548
-0.027482089 -0.011035621 -0.0064588743 4279456153
-0.025528092 -0.010931291 -0.0067733373 4279784339
-0.023574013 -0.010826834 -0.007087722 4280111758
-0.021506254 -0.011483505 -0.0067335144 4280963713
-0.019316733 -0.012900919 -0.0057119839 4280505224
-0.01759224 -0.011273675 -0.0073627527 4280243849
-0.015635122 -0.011168569 -0.0076772491 4280243338
-0.01405102 -0.0087813139 -0.009991996 4280504968
-0.012101859 -0.0086763948 -0.010305036 4280111758
-0.010282386 -0.0078109726 -0.011283901 4279849874
-0.0082033575 -0.0084661841 -0.010930844 4280504969
-0.0062540397 -0.0083609074 -0.011243623 4280570504
-0.0044425242 -0.0074955374 -0.012220919 4280177294
-0.0026363805 -0.0066302642 -0.013197288 4280242829
-0.00069236383 -0.0065248907 -0.013508927 4280504969
0.0011057518 -0.0056598857 -0.014483794 4280767109
0.0030470993 -0.0055544004 -0.014794807 4280177548
0.0051397868 -0.0062080249 -0.014443285 4280178059
0.0070838369 -0.0061021596 -0.014754548 4280047499
0.0090278871 -0.0059961528 -0.01506571 4280179334
-0.039961483 -0.024802402 0.0046213372 4282798694
-0.038057286 -0.023932114 0.0036291024 4281553783
-0.036158334 -0.023061961 0.0026378175 4280701828
-0.034548368 -0.019898668 -0.00036228495 4279390618
-0.032668006 -0.019029289 -0.001350407 4279719060
-0.031092804 -0.015867621 -0.0043447316 4279981199
-0.029333722 -0.014234982 -0.0059982575 4279849109
-0.027585316 -0.012602769 -0.0076500289 4279718039
-0.025631476 -0.012498446 -0.0079644695 4279784339
-0.023677547 -0.012394011 -0.0082788356 4280046478
-0.021610077 -0.013052881 -0.0079262704 4280570504
-0.019653264 -0.012948044 -0.0082409084 4280439689
-0.017696369 -0.012843065 -0.0085554607 4280439944
-0.015617874 -0.013501026 -0.0082043484 4280308618
-0.013906587 -0.011869937 -0.0098494813 4279915408
-0.012206011 -0.010239363 -0.011492766 4279718804
-0.010386549 -0.0093717799 -0.012469959 4279849874
-0.008307822 -0.010029167 -0.012118533 4280046479
-0.0063586533 -0.0099238902 -0.012431279 4279850129
-0.0045471452 -0.0090563744 -0.013406914 4279850129
-0.0027410127 -0.0081889629 -0.014381625 4280046733
-0.00094023719 -0.0073217824 -0.015355344 4280177293
0.001000952 -0.0072164312 -0.015666436 4280111758
0.0027936697 -0.0063494295 -0.01663867 4279850129
0.0048833583 -0.0070053861 -0.016288336 4279784594
0.0069784373 -0.0076608881 -0.015938755 4279588244
0.0090789124 -0.0083160475 -0.015589914 4279719059
0.011184756 -0.0089707226 -0.015241869 4279784848
0.014105789 -0.013429016 -0.011599135 4279785613
0.017717788 -0.02092801 -0.005326808 4279785613
-0.033896778 -0.027617663 0.0037781065 4282142323
-0.032092016 -0.025978521 0.0021203039 4281487483
-0.030697163 -0.021274596 -0.0022052419 4280570248
-0.029027004 -0.018870749 -0.0045246487 4280569739
-0.027372874 -0.016467676 -0.006841328 4280241809
-0.02551901 -0.015597075 -0.0078231469 4279718038
-0.023449235 -0.016258106 -0.00747272 4279915154
-0.021487281 -0.016153127 -0.0077882819 4280242829
-0.01952523 -0.016048029 -0.0081037767 4280242829
-0.017563097 -0.015942782 -0.0084191896 4280046733
-0.015600894 -0.015837446 -0.008734528 4280112269
-0.013762694 -0.014966942 -0.0097132586 4280112269
-0.012056597 -0.013331704 -0.011354133 4279718803
-0.010231756 -0.012461692 -0.012330532 4279980943
-0.0081479326 -0.013120979 -0.011981592 4279784339
-0.006328389 -0.01225099 -0.012956943 4279849873
-0.0045141988 -0.011381164 -0.013931338 4279849873
-0.0025651157 -0.011275664 -0.014243901 4279980943
-0.00075895712 -0.010406032 -0.015216812 4279849873
0.0011874698 -0.01030039 -0.015528738 4279784339
0.0028372221 -0.0086672083 -0.017159805 4279325338
0.0049293041 -0.0093251765 -0.016811524 4279456664
0.0068730563 -0.0092193112 -0.017122727 4279063198
0.0091296509 -0.010639876 -0.016117193 4279325593
0.011556128 -0.012822792 -0.014455456 4278997663
0.014807854 -0.018819556 -0.0095089115 4278867104
0.019254275 -0.030153543 2.9953662e-05 4278867103
0.022945501 -0.037669659 0.0062730964 4280898688
-0.021251872 -0.020029433 -0.0069931191 4282993004
-0.019397739 -0.019156337 -0.0079730526 4282012018
-0.017430373 -0.019050792 -0.0082892925 4281618553
-0.015462931 -0.018945172 -0.0086054727 4280570504
-0.013619356 -0.018072248 -0.0095834136 4280177804
-0.01190773 -0.016432472 -0.011221815 4279850129
-0.010206833 -0.014793091 -0.012858436 4280177804
-0.0082526356 -0.014687665 -0.013172101 4279849619
-0.0062983893 -0.01458212 -0.013485674 4280046223
-0.0044815131 -0.013710015 -0.014458843 4280046479
-0.0026699975 -0.012838066 -0.015431054 4280112014
-0.00086384639 -0.011966288 -0.016402304 4279915409
0.0010824241 -0.011860654 -0.0167142 4279456664
0.0027323179 -0.010223173 -0.018341973 4279456664
0.0046732146 -0.01011759 -0.018652819 4279390873
0.0066141095 -0.010011896 -0.018963575 4279128733
0.0088675618 -0.011436924 -0.017960861 4279194268
0.011767674 -0.015922308 -0.014334854 4279456410
0.015346799 -0.023466319 -0.0080906833 4279063198
0.020130375 -0.036362097 0.0027326439 4279128988
-0.013352767 -0.021955274 -0.0087996731 4282011254
-0.011506453 -0.021079883 -0.0097763399 4281095039
-0.0097946376 -0.019435659 -0.011411339 4280439433
-0.007961683 -0.018560782 -0.012385625 4280308108
-0.0061340742 -0.017686069 -0.013358943 4280111504
-0.004174564 -0.017580114 -0.013673272 4279784339
-0.0022150092 -0.017474048 -0.013987508 4280046479
-0.00054075569 -0.01583115 -0.015616026 4279914644
0.0014134422 -0.015725106 -0.015929207 4279653013
0.0030715652 -0.014082909 -0.01755492 4279718548
0.0051711332 -0.014744751 -0.01721115 4279587479
0.0068157874 -0.013103053 -0.018834516 4279259548
0.0089180432 -0.013764516 -0.018490992 4279259548
0.011819817 -0.018262699 -0.014875229 4279194268
0.015561534 -0.026595443 -0.0079937028 4279325338
0.019855183 -0.037226245 0.00083965249 4280112014
-0.0016213469 -0.022897564 -0.011900862 4281552509
0.00020902231 -0.022020124 -0.012872711 4280700299
0.0020340346 -0.021142885 -0.013843559 4280438414
0.0037057698 -0.019495651 -0.015468128 4280110738
0.0056679137 -0.019388899 -0.015782375 4279456408
0.0071701817 -0.016972356 -0.018057998 4279587733
0.0089682508 -0.016096078 -0.019024137 4279259548
0.011713006 -0.019837514 -0.016071588 4279260059
0.015614334 -0.028963521 -0.0085555436 4279391639
0.019744381 -0.038855091 -0.00039769197 4280767364
0.0015265495 -0.031325296 -0.007533194 4282991729
0.0032334309 -0.029671937 -0.0091602113 4281945465
0.0050773025 -0.028791383 -0.01013231 4280832644
0.0066148862 -0.026366606 -0.012408708 4280636294
0.0079831555 -0.023170508 -0.015334574 4279980944
0.009641543 -0.021519303 -0.016953368 4279390874
0.012081815 -0.023727335 -0.015313772 4279195034
0.015666846 -0.031335555 -0.0091204587 4279522453
0.019141827 -0.03816928 -0.0035861304 4281029759
0.012924928 -0.029951498 -0.012616554 4282601578
0.015880164 -0.034485385 -0.0090392027 4282405228
0.0054224133 -0.041455314 -0.012314903 4279786379
0.0068695918 -0.040595978 -0.015783651 4282471273
-0.01343099 0.00039241463 0.041786309 4284966448
-0.011506651 0.0012157857 0.040753715 4285031983
-0.017218973 0.0086580664 0.031021476 4285032748
-0.015687689 0.011628501 0.027888127 4285754654
-0.013811927 0.01245141 0.026865002 4285754654
-0.011317998 0.0096974298 0.029351745 4285819933
-0.0082928203 0.0040839314 0.034640521 4285820188
-0.004964184 -0.0029572472 0.041324239 4285688864
-0.02001692 0.011244215 0.025905948 4284966959
-0.018723581 0.015658796 0.02137715 4285755418
-0.016985938 0.017200567 0.019657612 4285623583
-0.015137158 0.018024176 0.018640473 4285558049
-0.012920037 0.016695082 0.01972466 4285623838
-0.010183036 0.012497164 0.023606058 4285689884
-0.0072836243 0.0075839311 0.028181531 4285558558
-0.0048769452 0.0055411011 0.029955696 4285493023
-0.0025893636 0.004216224 0.031028889 4285427744
-0.0004289709 0.0036087558 0.031402498 4285427488
0.0013145991 0.0051516667 0.029682636 4285426724
0.0034777634 0.0045446083 0.030055922 4285820444
0.0063771065 0.00035618246 0.033911828 4285754398
-0.021031957 0.015405051 0.019087177 4285164073
-0.019410547 0.017671101 0.016671136 4285821208
-0.017686244 0.019216452 0.014957069 4285755673
-0.015729226 0.019321669 0.014642677 4285689373
-0.013523314 0.017987587 0.015725344 4285755418
-0.010798123 0.013776086 0.019598544 4285886999
-0.0084298588 0.011724591 0.021373771 4285624603
-0.0063103512 0.011112578 0.021752052 4285559069
-0.0044557974 0.011939161 0.020736054 4285559068
-0.0026066005 0.012765586 0.019720946 4285558813
-0.00090335682 0.014310598 0.018010937 4285886234
0.001075726 0.014417805 0.017693631 4285820188
0.0037848465 0.010932565 0.020851534 4285820188
0.0069671068 0.0052937716 0.026088975 4285820188
0.010192571 -0.00034254044 0.031319533 4285623329
0.013769459 -0.0074125975 0.037930787 4285229608
-0.022996254 0.012993246 0.018899359 4285032749
-0.021817707 0.018155985 0.013692166 4285493023
-0.019979868 0.018983088 0.012679947 4285624604
-0.018266197 0.020532187 0.010970923 4285821208
-0.016076982 0.019192766 0.012052841 4285821208
-0.013876893 0.017854087 0.013133056 4285821209
-0.01115809 0.013629258 0.016997244 4285690139
-0.0090551116 0.013014041 0.017376464 4285624348
-0.0070790313 0.013120681 0.017059322 4285558813
-0.0053730272 0.01466997 0.015351995 4285624348
-0.003677763 0.016218767 0.013646527 4285886998
-0.0021337233 0.018488072 0.011248582 4285689374
-3.3210963e-05 0.017873295 0.011628565 4285557794
0.0023644418 0.015817508 0.013394532 4285558304
0.0050754249 0.012321651 0.01654385 4285624093
0.0079646781 0.0081069916 0.020381432 4285624603
0.010886336 0.0038941503 0.02421394 4285427489
0.013683725 0.00040331483 0.027349666 4285230884
-0.023433052 0.013581961 0.015602301 4285229864
-0.022148412 0.018034823 0.011104866 4285624349
-0.02019994 0.018139333 0.010791658 4285689884
-0.018370088 0.018968299 0.0097824233 4285558303
-0.016059875 0.016900368 0.011556677 4285558303
-0.013857502 0.015557468 0.01263317 4285623838
-0.011517439 0.013491362 0.014402797 4285624349
-0.0096791685 0.014321148 0.013392563 4285558813
-0.0078462325 0.015150756 0.012383276 4285558813
-0.00628848 0.017427079 0.0099879829 4285624349
-0.004471641 0.018256031 0.008981443 4285821463
-0.0029407926 0.02053111 0.0065906299 4285952533
-0.00071103871 0.019190378 0.0076633384 4285886998
0.0015295334 0.017850377 0.0087343426 4285887254
0.0042261556 0.014342934 0.011877607 4285755929
0.0067986753 0.01155962 0.014325767 4285493023
0.0092389919 0.0094999894 0.01608013 4284968233
-0.024200398 0.016364716 0.010228175 4285230628
-0.02259168 0.018649429 0.0078290636 4285624604
-0.020651441 0.018753469 0.0075171562 4285821209
-0.018355362 0.016678184 0.0092885857 4285821208
-0.016164288 0.015330233 0.010363451 4285821209
-0.01396234 0.013982981 0.011436659 4285558558
-0.011876177 0.013362415 0.011815143 4285558813
-0.010043304 0.014194101 0.010807405 4285559068
-0.0083478242 0.015751317 0.0091084065 4285558814
-0.006663084 0.017308049 0.0074112145 4285624350
-0.0048516393 0.0181389 0.0064071594 4285558303
-0.0030455403 0.018969543 0.005404097 4285558558
-0.00095909089 0.018349655 0.005782974 4285624093
0.0014239326 0.016280107 0.0075412532 4285624604
0.003823163 0.01421155 0.0092970142 4285559069
0.0059366748 0.013593465 0.0096718175 4285231138
-0.024303962 0.014799297 0.0090384269 4285361698
-0.022807982 0.01781942 0.0059506437 4285821209
-0.020986296 0.018652134 0.0049459534 4285821209
-0.018696185 0.016570017 0.0067133037 4285952788
-0.016389798 0.014488876 0.0084781135 4285952789
-0.014067132 0.012408786 0.010240375 4285624349
-0.012234312 0.013242468 0.009234258 4285559069
-0.010277592 0.013347924 0.0089201136 4285559068
-0.008848507 0.01636517 0.0058436347 4285624348
-0.007037092 0.017198026 0.0048412094 4285624349
-0.0053683408 0.018758312 0.0031500021 4285689629
-0.0032902956 0.018135726 0.003528486 4285623838
-0.0010640956 0.016786188 0.0045950199 4285558303
0.0011729337 0.015437305 0.0056599537 4285559069
0.0035688858 0.013362132 0.007411194 4285493788
0.0053777806 0.014195487 0.0064096628 4285099558
-0.026247866 0.012398571 0.0088550551 4285033005
-0.024738066 0.015427947 0.0057716286 4285624604
-0.02313685 0.01772517 0.0033837156 4285623584
-0.02120496 0.017828748 0.0030731307 4285557538
-0.019036386 0.016470775 0.00414488 4285623583
-0.01685695 0.015113533 0.0052149193 4285755419
-0.014666632 0.013756931 0.0062833214 4285624348
-0.012591831 0.013131455 0.0066602277 4285559068
-0.010640644 0.013236597 0.0063469587 4285559068
-0.0090847276 0.015532143 0.003966908 4285689883
-0.0075449608 0.017826915 0.0015895171 4285755928
-0.0056098066 0.017931513 0.0012790719 4285952789
-0.0035347268 0.017306536 0.0016563879 4285952534
-0.0013116561 0.015952513 0.0027200868 4285689884
0.00092225149 0.014599144 0.0037821783 4285559069
0.0033149347 0.012517296 0.0055289185 4285493789
0.0052718073 0.012623623 0.0052154167 4285034788
-0.026995469 0.015232995 0.0035168203 4285296163
-0.025061216 0.015336461 0.0032056822 4285755929
-0.023465089 0.017639838 0.0008236235 4285887253
-0.021654174 0.018476211 -0.00017597619 4285689883
-0.019612268 0.017846465 0.00020428281 4285690138
-0.017202359 0.015018582 0.0026508635 4285821973
-0.015141401 0.014390089 0.0030282354 4285624604
-0.013074975 0.013761967 0.0034048008 4285559068
-0.011260957 0.014599063 0.0024051229 4285624603
-0.0095839091 0.016168252 0.00071904343 4285624348
-0.0080519319 0.018469036 -0.0016520424 4285755163
-0.0062620342 0.019305144 -0.0026476001 4285689374
-0.0040583089 0.017945632 -0.0015842309 4285820953
-0.0015588962 0.015123449 0.00084865559 4285755929
0.00081701204 0.013034075 0.0025930395 4285493788
0.003061289 0.011677094 0.0036501661 4285428254
-0.027526889 0.016622186 -0.00042224955 4285427489
-0.025603559 0.016725048 -0.00073164422 4285558559
-0.023905329 0.018298939 -0.0024183737 4285690139
-0.021871898 0.017666452 -0.0020385263 4285690138
-0.019832961 0.017034337 -0.0016594222 4285690393
-0.017547168 0.014932662 9.3594659e-05 4285558813
-0.015491888 0.01430168 0.00047019357 4285558813
-0.013683319 0.015140504 -0.00052703265 4285559069
-0.011880077 0.015979156 -0.0015233224 4285624349
-0.010213669 0.017552041 -0.0032043187 4285887254
-0.0085580014 0.019124508 -0.0048835417 4285623583
-0.0067761987 0.019962329 -0.005876136 4285492258
-0.0044414066 0.017864019 -0.0041303439 4285558304
-0.0019481145 0.015032902 -0.001703206 4285558814
0.0004218109 0.012936719 3.7121121e-05 4285493534
0.0026602782 0.011575066 0.0010918807 4285427998
-0.027521804 0.014339566 -0.00090842461 4285229864
-0.025595911 0.014442556 -0.0012182402 4285230118
-0.023894835 0.016020902 -0.0029020971 4285230119
-0.021974131 0.016123824 -0.0032109199 4285230118
-0.019935481 0.015489504 -0.0028334567 4285361953
-0.017770801 0.014118478 -0.0017710994 4285427999
-0.015841745 0.014222182 -0.0020810082 4285493788
-0.014164515 0.015799731 -0.0037605793 4285559068
-0.012498017 0.017376885 -0.0054383734 4285558814
-0.010842249 0.018953502 -0.0071143257 4285756184
-0.0090631843 0.019793253 -0.008104953 4285953043
-0.0072894655 0.020632803 -0.0090945782 4285755928
-0.0049633421 0.018527538 -0.0073524127 4285821974
-0.0024788603 0.015687265 -0.0049304971 4285821463
-0.00011760369 0.013584174 -0.0031938343 4285493279
-0.027303118 0.010572806 -2.5148969e-05 4285098028
-0.02536926 0.010676205 -0.00033626473 4285098284
-0.019684829 0.011726558 -0.0019537057 4284966704
-0.017873704 0.012569606 -0.0029481868 4285230373
-0.016067896 0.013412476 -0.0039417311 4285427744
-0.014393222 0.014994241 -0.0056176065 4285493534
-0.012729261 0.016575515 -0.0072916234 4285559069
-0.011076048 0.018156335 -0.0089638894 4285493533
-0.0094335638 0.01973667 -0.010634282 4285558558
-0.0075286366 0.019839615 -0.010939893 4285624093
-0.0053450875 0.01846604 -0.0098833153 4285493278
-0.0031507015 0.017093152 -0.0088283373 4285493279
-0.00080081075 0.014982902 -0.0070948335 4285493534
-0.027085248 0.0067932978 0.00084850006 4284966448
-0.015924841 0.010383323 -0.0037529354 4285229864
-0.014244616 0.011969656 -0.0054263319 4285295398
-0.012575116 0.013555571 -0.0070979479 4285360933
-0.010916349 0.015140973 -0.0087677175 4285361443
-0.0092683248 0.01672595 -0.010435718 4285295398
-0.0073581412 0.016829178 -0.010742175 4285295398
-0.0053087659 0.016191989 -0.010369106 4285361953
-0.0031121224 0.014814921 -0.0093178814 4285361953
-0.0010492057 0.014178745 -0.0089468462 4285230628
-0.027081471 0.0044898987 0.00034652278 4285097774
-0.025027771 0.0038495436 0.00071626715 4284966449
-0.013971046 0.0081933811 -0.0045615193 4285230119
-0.012036875 0.0082975551 -0.004872093 4285295144
-0.010364473 0.0098879933 -0.006540725 4285360934
-0.0085691996 0.010735042 -0.0075289062 4285360934
-0.0069155879 0.012324743 -0.0091943834 4285426723
-0.0048557036 0.011685967 -0.008824667 4285361444
-0.0029321015 0.011790141 -0.009133108 4285295654
-0.00086407363 0.011152066 -0.0087645706 4285098794
-0.027077924 0.0021824241 -0.0001584799 4285163564
-0.025021821 0.0015400648 0.00020915037 4285032238
-0.011756185 0.0045089573 -0.004018167 4285097773
-0.0099447779 0.0053589195 -0.0050073657 4285229354
-0.0081387088 0.006208688 -0.0059956312 4285163563
-0.0064741634 0.007803306 -0.0076595172 4285163563
-0.0045426451 0.007907778 -0.0079693273 4285163819
-0.0026110932 0.0080123693 -0.0082790423 4285163308
-0.00067951158 0.0081170946 -0.0085886717 4284901168
-0.011732187 0.0022028238 -0.0045263567 4285097774
-0.010048699 0.0038024858 -0.0061900932 4285097773
-0.0081093162 0.003907159 -0.0065013398 4285097773
-0.0063059032 0.0047590435 -0.0074874219 4285098028
-0.0042304173 0.0041168556 -0.0071235844 4285032239
-0.0024323277 0.0049686953 -0.0081086289 4284966449
-0.00035139546 0.0043270141 -0.0077454913 4285033259
-0.011964004 0.0013921112 -0.0063867145 4285031984
-0.010152593 0.00224635 -0.0073725977 4285098029
-0.0083465315 0.0031004399 -0.0083575193 4285098029
-0.0064099431 0.003205061 -0.0086682346 4285032494
-0.00045602396 0.0027708262 -0.0089278873 4285033259
-0.010517132 0.0021940544 -0.0098998677 4285163818
-0.0084504001 0.0015467703 -0.0095381197 4285164329
-0.0063782372 0.00089993328 -0.0091771958 4284966703
-0.010360304 -0.00086500496 -0.0097369133 4285098029
-0.0082884766 -0.0015141293 -0.0093776872 4285163819
-0.00621121 -0.0021628439 -0.0090192547 4285031983
-0.0042667948 -0.0020576715 -0.0093311286 4284966449
