# .PCD v0.7 - Point Cloud Data file format
VERSION 0.7
FIELDS x y z rgba
SIZE 4 4 4 4
TYPE F F F U
COUNT 1 1 1 1
WIDTH 750
HEIGHT 1
VIEWPOINT 0 0 0 1 0 0 0
POINTS 750
DATA ascii
0.018818658 0.00087948143 0.061281614 4281108299
0.011734709 0.0097701997 0.049395956 4281565003
0.012358528 0.01536224 0.043192588 4280461363
0.014372993 0.015503898 0.042757973 4280590393
0.018024057 0.0095189139 0.048797615 4280327998
0.02301483 -0.0012265071 0.059858426 4278893114
0.0085309222 0.012047082 0.044295479 4281564493
0.0091613792 0.017657049 0.038103729 4280524093
0.010278102 0.021214116 0.034077991 4281372224
0.012263071 0.021353666 0.033649717 4281631303
0.015156351 0.018078543 0.036810283 4280979014
0.018813688 0.012074336 0.042833861 4280652614
0.022893161 0.0047084764 0.050280318 4280456774
0.026652146 -0.0012883916 0.056282125 4280782153
0.029882275 -0.0052351877 0.060127288 4280849219
0.032559462 -0.0071335211 0.061820932 4281240388
0.034857366 -0.0076670423 0.062082626 4281888599
0.0065112188 0.017923258 0.035182759 4281174853
0.0081543475 0.019434456 0.033317454 4280589884
0.0092585348 0.023001578 0.029302608 4279481398
0.011230037 0.023140181 0.02887724 4279742264
0.013564523 0.021908563 0.029884208 4279350583
0.01738283 0.015197955 0.036613636 4279350329
0.020507401 0.011230387 0.04047152 4280914498
0.023095665 0.0093189627 0.042179301 4281176893
0.025123565 0.0094619915 0.041742116 4280916284
0.026761848 0.010973603 0.039878421 4281307198
0.028784469 0.011116453 0.039442517 4280200244
0.032208253 0.0064724833 0.043991573 4280460598
0.037900634 -0.0056889281 0.056359656 4280198203
0.0040464774 0.017515995 0.032985535 4281500999
0.0053485967 0.020407695 0.029689681 4281112379
0.0073224828 0.020546254 0.029263642 4281242683
0.0089446008 0.022060398 0.027406257 4280980798
0.010913316 0.022198785 0.026981477 4280589629
0.013425913 0.020275187 0.028700393 4280719424
0.016874336 0.014916867 0.033985846 4280784448
0.019805711 0.011622652 0.037121907 4280980289
0.021628127 0.012451239 0.035975315 4281045824
0.022869367 0.015339419 0.03269317 4280654908
0.023894642 0.018912617 0.028704032 4281112888
0.025682434 0.019739039 0.027565118 4281829439
0.028664755 0.016448908 0.030690566 4281502528
0.033294968 0.0076738521 0.039489925 4280851258
0.038199972 -0.0017818585 0.04898376 4280980033
0.044219732 -0.014659591 0.062005542 4281501508
0.0024188608 0.013665192 0.034374733 4282410583
0.0029015504 0.020019464 0.027502012 4280915773
0.0045290738 0.021538202 0.025646538 4280004659
0.0068383105 0.02029568 0.026652209 4279612979
0.0088068284 0.020433951 0.026227396 4281111358
0.010953836 0.019882556 0.026516151 4281046079
0.013468441 0.017952472 0.028229747 4281046079
0.016734157 0.013266072 0.032789424 4280850238
0.018918753 0.01271762 0.033070289 4280980799
0.020541457 0.014236636 0.031216398 4281046078
0.021578208 0.017821521 0.027232915 4280264248
0.022782706 0.020715963 0.02396531 4279483439
0.024754331 0.020855214 0.023540393 4280655419
0.027325332 0.018929776 0.025242336 4280720189
0.031127118 0.012877159 0.03119098 4280720189
0.035592381 0.0047644302 0.039252624 4280720189
0.042407576 -0.010908276 0.055079766 4280654909
0.0011258014 0.016869657 0.028177887 4281502783
0.0022615343 0.020471565 0.02418058 4279616039
0.0040515214 0.021301549 0.023043737 4279418414
0.0063549131 0.020054262 0.024047337 4278897194
0.0088446438 0.018115625 0.025761221 4280981564
0.011172254 0.016870245 0.026759744 4280851004
0.013691515 0.014933869 0.028467398 4280980799
0.015859723 0.014381953 0.028750077 4280980799
0.017847098 0.014521934 0.028321475 4281111358
0.018889956 0.018118083 0.02434478 4281241664
0.020480905 0.019639347 0.022501085 4281045823
0.02206119 0.021160003 0.020659719 4280720444
0.024221616 0.020607989 0.020944487 4280133688
0.026786581 0.018675584 0.022642773 4280133179
0.03058121 0.012602724 0.028578199 4280654398
0.035448633 0.003082931 0.038034208 4280980289
0.042882197 -0.01471024 0.055941418 4281110338
-0.00049896166 0.013015345 0.02956371 4281891914
0.00016477704 0.01871502 0.023430079 4281438778
0.0016226768 0.020937141 0.020868909 4281698369
0.0034047328 0.021768752 0.019735415 4281502783
0.0058723316 0.019821882 0.021449082 4280785978
0.0087067708 0.016487524 0.024581142 4280720954
0.011033878 0.015237689 0.02557648 4280981309
0.013371751 0.013988674 0.026569612 4281177149
0.01517022 0.014821932 0.025432937 4281046334
0.01640524 0.017735764 0.022171639 4281307199
0.01780767 0.019954789 0.019623034 4281111103
0.019385513 0.02147951 0.017785441 4281241665
0.021534903 0.02092446 0.018070824 4281111103
0.023886403 0.01967705 0.019061428 4281306688
0.02684683 0.016352445 0.022166975 4281177403
0.031046487 0.008874923 0.029497799 4281177658
0.036942922 -0.0041366443 0.042452618 4281111869
0.044185393 -0.021293543 0.059609644 4281046588
-0.0027770959 0.011937931 0.028092533 4281631048
-0.0019315854 0.016958907 0.022679795 4281438779
-0.00062983856 0.019885391 0.019410059 4280724779
0.0011521727 0.020719077 0.018278118 4280788529
0.0029289499 0.021552499 0.017147388 4280917558
0.0053905137 0.019598644 0.018857375 4279678514
0.0082185715 0.016252816 0.021982644 4279938103
0.010539837 0.014998183 0.022975959 4280850494
0.012691345 0.014440581 0.023258872 4280850238
0.014298674 0.015971459 0.021417968 4281046588
0.015895367 0.017501727 0.019579392 4279939889
0.016915828 0.02111822 0.015623909 4279679278
0.018865652 0.021255709 0.015203523 4278377249
0.021203276 0.020002786 0.016193803 4280851513
0.024141259 0.016665548 0.019295931 4281176893
0.02730519 0.012635425 0.023096487 4281242939
0.032116327 0.003050141 0.032518655 4281308474
0.038434215 -0.011391237 0.04684566 4281306688
-0.0046634488 0.01800286 0.019085061 4282287164
-0.0030378923 0.019538578 0.017242886 4282027574
-0.0012585968 0.020374145 0.016113084 4281897778
0.00068245456 0.020510118 0.015693918 4281179698
0.0026236102 0.020646196 0.015274803 4280852788
0.0049095042 0.01938447 0.016272306 4280460599
0.0077311546 0.016027272 0.019390713 4280785468
0.010046601 0.014767781 0.020382039 4280915773
0.012012109 0.014905959 0.01995796 4280720443
0.013428666 0.017138921 0.017415997 4280720954
0.015014924 0.018672828 0.015582935 4280721208
0.016778909 0.019508217 0.014457106 4281568319
0.018919632 0.01894806 0.014740997 4279615019
0.021646807 0.016296007 0.017134875 4279419944
0.024591736 0.012948275 0.020227298 4281308474
0.02835953 0.0068142191 0.026124176 4281569594
0.033990748 -0.0055883899 0.038328376 4281373244
0.040331259 -0.020074204 0.052616097 4281307708
0.00071392953 0.01820565 0.015239808 4283075623
0.0026576258 0.018341891 0.01482013 4282094639
0.004601419 0.018478245 0.014400513 4280918068
0.0068949088 0.017212749 0.015393156 4280524858
0.008844208 0.01734969 0.014972511 4280654654
0.010973718 0.016786136 0.015256862 4280653633
0.012560185 0.018324293 0.013427 4280068663
0.014321513 0.019161578 0.012303307 4280591669
0.016265709 0.019298557 0.011884051 4281633598
0.018782433 0.01733613 0.013572822 4281503804
0.02170225 0.013975523 0.016662437 4281112634
0.025433483 0.0078190565 0.022552371 4280982838
0.029610494 0.0002674982 0.029833857 4281372733
0.035659909 -0.013571657 0.043405995 4281503294
0.041203626 -0.025306433 0.054855876 4281567808
0.0030298792 0.014626369 0.015773788 4284578339
0.0048096031 0.015466616 0.014647373 4282291244
0.0065840669 0.016306587 0.013522158 4281375538
0.008353278 0.017146304 0.01239816 4281046333
0.010117222 0.017985754 0.011275384 4281112124
0.011875868 0.018824968 0.010153775 4281177913
0.013629247 0.019663889 0.0090334294 4280658479
0.015565306 0.019800294 0.0086159287 4280460599
0.018263988 0.017128572 0.011002748 4280331314
0.02156402 0.012352839 0.015486508 4280460599
0.025881384 0.004071489 0.023461789 4280981308
0.030858839 -0.0063097253 0.033521354 4281241918
0.037124388 -0.020893 0.047756325 4281437759
0.041870132 -0.029859297 0.056381732 4281761863
0.011375174 0.018634316 0.0075915707 4284707623
0.01367861 0.017361149 0.0085758073 4283335979
0.015241645 0.018906612 0.0067576906 4281635129
0.017936777 0.016225867 0.009138721 4281242939
0.021618947 0.010026373 0.015009663 4280981309
0.026915584 -0.0018006712 0.026456784 4281176639
0.032699995 -0.015028663 0.03927996 4281371714
0.038183592 -0.026842274 0.050686978 4281631303
0.042127535 -0.033022828 0.056501836 4282282318
0.015668783 0.015191004 0.0076966425 4283990053
0.018180773 0.013208494 0.0093716802 4281637424
0.022252347 0.0055769384 0.01662172 4281439289
0.027947567 -0.0076990351 0.029432874 4281439033
0.034140833 -0.02237951 0.04361451 4281567553
0.03883867 -0.031406291 0.052207559 4281567553
0.041976966 -0.034783833 0.055225812 4282151759
0.029563587 -0.015748389 0.034475353 4284640049
0.038889967 -0.033863842 0.051633693 4283526209
0.038539782 -0.034905285 0.049672119 4283786819
-0.022640578 0.00081388652 -0.0080963019 4284639794
-0.012231983 0.0021759495 -0.016256014 4284639284
-0.0030297451 -0.00028256327 -0.020562928 4284442169
-0.00046303496 -0.0031307489 -0.018272612 4284639794
0.033802979 -0.041485563 0.035807788 4282668134
0.033655427 -0.043214656 0.034554821 4282471273
0.030443015 -0.04144007 0.030358169 4282602598
0.033115484 -0.043483183 0.031944931 4282602598
0.041275986 -0.042161286 0.029466514 4282733159
0.030296614 -0.043157481 0.029113621 4282602599
0.027114255 -0.041347191 0.024935614 4282536809
0.029957082 -0.044139862 0.027193334 4282863974
-0.024676926 -0.00088939071 -0.0088231862 4281749624
0.026588395 -0.04157877 0.022349562 4282471018
-0.026581325 -0.0033355653 -0.0088638114 4281160319
-0.025612518 0.0019989014 -0.014075203 4279192995
-0.02386006 0.0028728545 -0.015169185 4279060138
-0.02169437 0.001518026 -0.014208954 4279978393
-0.019802153 0.0016493648 -0.014618475 4280504204
-0.018054597 0.0025232807 -0.015711101 4281356923
0.023816708 -0.041206956 0.019540068 4281946739
-0.027368538 -0.0011804402 -0.01342669 4279259039
-0.020216271 0.0015793666 -0.017113796 4279519394
-0.018184781 0.00096574426 -0.016840491 4279586714
-0.016147822 0.00035264343 -0.016568337 4279588498
-0.014255352 0.00048432499 -0.016977668 4280441218
0.020877933 -0.040078476 0.016064029 4282798694
0.023485353 -0.042159364 0.017639998 4282077554
-0.028750151 -0.0066127256 -0.010731691 4282339184
-0.028153904 0.00099694729 -0.017973432 4278668714
-0.026406825 0.0018747076 -0.01906305 4278536369
-0.024937801 0.0042470768 -0.021514893 4279323299
-0.022789098 0.0028822944 -0.02055754 4278600374
-0.020913146 0.0030124784 -0.020963563 4279191974
-0.018748209 0.0016490817 -0.020009615 4278735523
-0.016719572 0.0010332093 -0.019737294 4278997918
-0.014835246 0.0011643171 -0.020144872 4279128989
-0.0129508 0.0012955442 -0.020552399 4279981964
-0.011066236 0.0014268979 -0.020959863 4281096568
-0.009181574 0.0015583634 -0.021367263 4280636803
-0.0072968155 0.0016899705 -0.021774586 4281948523
0.017598875 -0.037441969 0.011252579 4282602089
0.020919207 -0.042507477 0.015514192 4282536044
0.02334149 -0.043850943 0.016414087 4282797419
-0.030913331 -0.007566303 -0.012141136 4282143344
-0.029906787 -0.0021836013 -0.017326672 4278734248
-0.026669212 0.0010764301 -0.020866401 4278602414
-0.025066204 0.002705574 -0.022632772 4279192483
-0.023334756 0.0035846382 -0.023717215 4278668204
-0.019166239 0.001596801 -0.022490554 4278603689
-0.016996346 0.00022949278 -0.021540852 4278734758
-0.015264414 0.0011090562 -0.022625066 4278472873
-0.013385437 0.0012398958 -0.023031414 4278669734
-0.011661246 0.0021191388 -0.024113778 4279061159
-0.0096271597 0.0015019402 -0.023843916 4278732718
-0.0077478699 0.0016331449 -0.02425007 4280110484
-0.0057056025 0.0010167211 -0.023981825 4280374919
-0.0036578961 0.00040082633 -0.02371465 4281947249
0.014712255 -0.036269605 0.0077953571 4282406248
0.017638613 -0.039859824 0.010711485 4282405484
0.02077591 -0.044194311 0.014291675 4282536044
-0.032172263 -0.0023631155 -0.019407034 4279718294
-0.030548133 -0.00072853267 -0.021174917 4278472363
-0.019439451 0.00080240518 -0.024288177 4278996644
-0.017566197 0.00093258917 -0.024693482 4278800293
-0.015842192 0.0018137991 -0.025774337 4278603689
-0.012255132 0.0028249323 -0.027257938 4278470068
-0.010071985 0.001454629 -0.026314033 4278403768
-0.0059988238 0.00021646917 -0.02577839 4279192739
-0.0039541237 -0.00040183961 -0.025512204 4279653014
-0.00089569762 -0.0055171251 -0.021217439 4279587989
0.0030537024 -0.014376558 -0.013575573 4280571269
0.0077606961 -0.026228212 -0.0032655643 4282143854
0.011672821 -0.034328654 0.0036766669 4282340203
0.014571369 -0.037931889 0.0065905387 4281094528
0.017678007 -0.042281762 0.010167447 4281290623
-0.032425977 -0.0031579882 -0.021210171 4278735013
-0.030804299 -0.0015191957 -0.022974327 4278997154
-0.028932013 -0.0013897642 -0.023379933 4278800038
-0.027192779 -0.00050603598 -0.024462987 4278865573
-0.025458731 0.00037743896 -0.025544837 4278996389
-0.023729876 0.001260668 -0.026625477 4278800039
-0.021582581 -0.00011720508 -0.02567761 4278734758
-0.019712232 1.2651086e-05 -0.026082374 4278735014
-0.017695241 -0.00061060488 -0.025812455 4278734758
-0.014252387 0.0011558533 -0.02796975 4278603179
-0.012693323 0.0027914271 -0.029719444 4278734760
-0.01051601 0.0014163405 -0.028777543 4278800804
-0.0059665889 -0.002083391 -0.026229259 4278668969
-0.003919553 -0.0027037337 -0.025965221 4278604199
-0.00069203973 -0.0085859448 -0.021012129 4278735524
0.0037719198 -0.019726127 -0.011382151 4278997919
0.0083159208 -0.030860625 -0.001769321 4279063454
0.011708908 -0.036730841 0.0031482624 4280767618
0.014430504 -0.039593875 0.0053859288 4282339948
0.017535873 -0.043956935 0.0089533264 4282208879
-0.032179095 -0.0069758743 -0.020299386 4279520159
-0.030421488 -0.0060889423 -0.021384973 4278407083
-0.0289298 -0.0036891475 -0.023822315 4278407084
-0.027187869 -0.0028030202 -0.024904374 4278603434
-0.025586814 -0.0011610165 -0.026660521 4278865829
-0.023719549 -0.0010315999 -0.027064789 4278734758
-0.021852143 -0.0009020716 -0.027469013 4278669478
-0.020128317 -1.6793609e-05 -0.028546773 4278669479
-0.018263325 0.00011280179 -0.028950293 4278800293
-0.016547248 0.0009977743 -0.030026205 4278537899
-0.012976401 0.0020121634 -0.031503111 4278733739
-0.010802254 0.00063242018 -0.030563761 4278930598
-0.003555268 -0.0065180287 -0.025083173 4278734758
0.0001816377 -0.014679149 -0.018139295 4278604198
0.0048290081 -0.026604965 -0.0078687267 4278800803
0.0088696852 -0.035510242 -0.00028561987 4280112014
0.011920348 -0.039890558 0.0032836208 4281553784
0.014646374 -0.042762011 0.0055138068 4282405483
-0.03155864 -0.013084039 -0.017369723 4279127969
-0.03004007 -0.010675922 -0.019808132 4278538408
-0.028537326 -0.0082687959 -0.022243027 4278734758
-0.027183264 -0.0051041394 -0.025348693 4278276524
-0.02544383 -0.0042159036 -0.026428506 4278341804
-0.023709558 -0.0033279732 -0.027507085 4278341804
-0.021839626 -0.0031982586 -0.027911849 4278735013
-0.020256609 -0.0015528053 -0.029660579 4279128479
-0.018537939 -0.00066560507 -0.030735523 4278997409
-0.016824484 0.0002214089 -0.03180927 4278931363
-0.0063895993 -0.0044258162 -0.029143825 4278472874
-0.0030272491 -0.011101536 -0.023543073 4278866339
0.0012206286 -0.021554552 -0.014618446 4278866339
0.0055432059 -0.032002211 -0.0057098586 4279587734
0.0090763569 -0.038665593 -0.00014571287 4281619063
0.011780091 -0.041547492 0.0020826394 4282339693
-0.032857165 -0.019350454 -0.01404354 4282471274
-0.031439073 -0.016172953 -0.017156854 4279258784
-0.029787429 -0.014519073 -0.018917708 4278800293
-0.028146289 -0.012865782 -0.020676242 4278735014
-0.026913665 -0.0089308098 -0.024450578 4278735524
-0.025166184 -0.0080399215 -0.025530495 4278603943
-0.023147859 -0.0086700171 -0.025266036 4278473129
-0.021546096 -0.0070190057 -0.027015645 4278276524
-0.018228166 -0.0044786409 -0.029837992 4278407339
-0.016506664 -0.0035889521 -0.030911822 4278931618
-0.015093043 -0.001180537 -0.03332185 4279062689
-0.01338733 -0.00029171258 -0.0343921 4279193504
-0.011530191 -0.00016221404 -0.034793589 4279062433
-0.0093543231 -0.001550436 -0.033861052 4278800549
-0.0061958283 -0.0074900985 -0.02893246 4278669989
-0.0023360215 -0.016460828 -0.021349669 4278669989
0.0022570491 -0.028460339 -0.011119706 4278997919
0.0060856193 -0.036662951 -0.0042313505 4280702594
0.0091096684 -0.0410714 -0.00067607127 4282077808
0.011990469 -0.044719681 0.0022088783 4282471018
-0.031444713 -0.01850684 -0.017623 4279062433
-0.029917344 -0.016085088 -0.020053504 4278866339
-0.028146133 -0.015190609 -0.021137098 4278800549
-0.026645102 -0.012770422 -0.023561778 4278735268
-0.025024734 -0.011113964 -0.025312385 4278669733
-0.023139246 -0.010983348 -0.025720643 4278538663
-0.021253623 -0.010852583 -0.026128827 4278604453
-0.019511037 -0.0099594891 -0.02720578 4278669988
-0.017919458 -0.0083046108 -0.028949764 4278801059
-0.016338408 -0.0066503286 -0.030691437 4278342314
-0.013054162 -0.0041050911 -0.033501025 4278407339
-0.01118917 -0.0039750636 -0.033904225 4278931618
-0.0091649592 -0.0046059936 -0.033641975 4278800803
-0.0058409572 -0.01132378 -0.028062379 4278800803
-0.0016466081 -0.02184175 -0.019171953 4278669733
0.0027895495 -0.03311491 -0.0096339267 4279654288
0.0062869862 -0.039820194 -0.004091518 4280046989
0.0091426484 -0.043481283 -0.0012093922 4281553275
0.011849906 -0.046380371 0.0010051699 4282797674
-0.031575009 -0.020079136 -0.018763393 4279063454
-0.029920235 -0.01841636 -0.020518428 4278932383
-0.028275974 -0.016754195 -0.022271102 4278997409
-0.026509911 -0.015857726 -0.023351902 4278931874
-0.024883993 -0.014196597 -0.025100427 4278866084
-0.022993326 -0.014065601 -0.025509791 4278997408
-0.02124282 -0.0131699 -0.026586924 4278800549
-0.019354552 -0.013038859 -0.026995614 4278866338
-0.017757431 -0.011379197 -0.028737582 4278735268
-0.015874259 -0.011248253 -0.02914498 4278735523
-0.014141925 -0.010353357 -0.030217826 4278473384
-0.012568437 -0.0086950213 -0.031954367 4278538408
-0.0083405152 -0.010723241 -0.030773912 4278340783
-0.0048407353 -0.018222764 -0.02454884 4278537898
-0.00063047558 -0.028770156 -0.015684677 4279586968
0.002986718 -0.036261275 -0.0094847512 4281291644
0.0061484501 -0.041460812 -0.0052807722 4281946993
0.0090030171 -0.045132875 -0.0024065552 4282470763
-0.031208672 -0.024722725 -0.017224826 4279194524
-0.02979666 -0.021519408 -0.020317208 4279325339
-0.028146848 -0.019852504 -0.022067828 4278997408
-0.026507534 -0.018186219 -0.023816084 4278997408
-0.024743959 -0.017287642 -0.024894645 4278931618
-0.023123004 -0.015622377 -0.026638748 4278931618
-0.021372467 -0.014724508 -0.027714267 4278931618
-0.019769907 -0.013060242 -0.029454254 4278997408
-0.018032447 -0.012163043 -0.030526757 4278866338
-0.016152084 -0.0120323 -0.030933555 4278669733
-0.013970062 -0.013433516 -0.030012447 4278800803
-0.012237601 -0.01253631 -0.031083614 4278473129
-0.010354258 -0.012404993 -0.031490773 4278407084
-0.0079945326 -0.01457005 -0.029911261 4278407084
-0.0043273307 -0.02285628 -0.023042198 4278734504
-0.00043733418 -0.031903416 -0.015524635 4280373133
0.0030164197 -0.038651139 -0.010002228 4282012274
0.0056711026 -0.041571647 -0.0077895732 4282536298
-0.027759828 -0.024498776 -0.020536806 4281683069
-0.026109658 -0.022827342 -0.02228421 4280569229
-0.024604596 -0.02038721 -0.024694987 4279455644
-0.022840835 -0.019486375 -0.025771828 4279586713
-0.021362133 -0.017047778 -0.028176757 4279062689
-0.019756697 -0.015378974 -0.029914126 4278800549
-0.017871268 -0.015248008 -0.030322112 4278997153
-0.016133651 -0.014348522 -0.031392939 4278866084
-0.014100075 -0.01498571 -0.031137891 4278997153
-0.01252082 -0.01331827 -0.032869175 4278800549
-0.010328475 -0.014722884 -0.031953391 4278668714
-0.0078082122 -0.017662019 -0.029718598 4278603689
-0.0039766133 -0.026739538 -0.022208065 4279127968
-0.00024490058 -0.035045095 -0.015370758 4280962949
0.0025460646 -0.038743705 -0.012499319 4282077808
0.0051945262 -0.04167334 -0.010291824 4282863719
0.023809317 -0.043478593 -0.011527783 4282863209
-0.025581427 -0.028257534 -0.020099996 4282731883
-0.023793802 -0.027352944 -0.021180514 4282010998
-0.022285551 -0.024905942 -0.023587018 4280569738
-0.020653382 -0.023231044 -0.025326993 4279652758
-0.019174151 -0.020785816 -0.02772703 4279390109
-0.01756572 -0.019112304 -0.029461687 4278931618
-0.016115561 -0.016668804 -0.031855293 4278735268
-0.014380462 -0.015767202 -0.032923866 4278997408
-0.012650594 -0.014865816 -0.03399121 4278866084
-0.010458749 -0.016274817 -0.03307857 4278800549
-0.0077809803 -0.01999265 -0.030191053 4279062178
-0.0042712055 -0.027556911 -0.024017058 4279521179
-0.00087178871 -0.034347795 -0.01851234 4280897669
0.0019101053 -0.038057923 -0.015647078 4282142578
0.025662486 -0.044977441 -0.013145457 4282273393
-0.018166728 -0.028533742 -0.023573026 4282600814
-0.016826563 -0.02530843 -0.026629698 4281421949
-0.015507564 -0.022084527 -0.029681657 4279717529
-0.014209785 -0.018861905 -0.032728966 4278734758
-0.012474559 -0.017957926 -0.033795889 4278538408
-0.01043345 -0.01859878 -0.033545516 4278735014
-0.0075958893 -0.023099393 -0.030009102 4278931109
-0.0044045262 -0.029141463 -0.0251658 4279980179
-0.0011704713 -0.035180353 -0.020331657 4281946739
-0.014901392 -0.027521797 -0.027523737 4281815924
-0.013289638 -0.025839128 -0.029252429 4280373134
-0.011688426 -0.024157107 -0.030978713 4279390618
-0.0099424087 -0.023250125 -0.032046199 4279062688
-0.007411506 -0.026214644 -0.029833309 4279389853
-0.0043771341 -0.031499788 -0.025659075 4280634764
-0.0014687516 -0.036008313 -0.022147572 4282993514
-0.0069121383 -0.030891269 -0.028355127 4282600558
-0.0041895732 -0.034638472 -0.025501663 4282993513
-0.0029542074 -0.040077999 -0.031176403 4282928489
-0.005629532 -0.041018471 -0.03499265 4282666348
0.00097314268 -0.04455924 -0.03302595 4282733159
-0.0059216656 -0.041806743 -0.036780629 4280502163
0.00050443038 -0.044568017 -0.035460867 4282733159
-0.0063724294 -0.041796684 -0.039206181 4281683068
-0.0066635981 -0.042573556 -0.040985826 4282733159
-0.0071130395 -0.042547613 -0.043399934 4282339438
-0.0072447807 -0.044113427 -0.044535089 4282273903
-0.0065914541 0.015554935 0.019049458 4285229863
-0.0054341331 0.019201811 0.015079978 4285623329
-0.0034960955 0.019337345 0.014661296 4285427234
-0.0013938025 0.018771242 0.014951124 4285165603
-0.0071947873 0.016057037 0.015755646 4285689373
-0.0057274625 0.018305756 0.013211831 4285820444
-0.0037922189 0.018441081 0.012793739 4285885979
-0.0015289634 0.017168626 0.013789373 4285754908
0.00091168284 0.015193328 0.015488948 4285035298
-0.010463297 0.010646068 0.018972863 4284901169
-0.0092725903 0.014316939 0.01501236 4285493279
-0.0077969655 0.016572699 0.012471576 4285689373
-0.0061787926 0.018120885 0.010640702 4285557794
-0.0042490028 0.018255815 0.010223775 4285558048
-0.001827836 0.016272463 0.011922556 4285689629
0.00044303387 0.014996238 0.012913327 4285624603
0.0027246736 0.013720915 0.013901803 4285493534
0.004673548 0.013857573 0.013481057 4285428254
0.0062736496 0.015405118 0.011654555 4285362718
0.0076860264 0.017657258 0.0091280369 4285297694
0.0096217878 0.01779332 0.0087103611 4285035044
-0.011349969 0.01257734 0.014269327 4285164074
-0.0097131357 0.014131024 0.012437481 4285755674
-0.0080868378 0.015684038 0.010608035 4285886233
-0.0066293292 0.017945163 0.0080761248 4285755419
-0.0048659109 0.018788204 0.0069561685 4285755163
-0.0027805753 0.018214315 0.0072446531 4285821974
-0.00019107386 0.01551643 0.0096412143 4285690394
0.0022509769 0.013528123 0.011330758 4285559068
0.0047091208 0.011541076 0.013016849 4285493788
0.0063121319 0.013093188 0.011192976 4285559323
0.00737378 0.016766906 0.0072692288 4285624603
0.0089475662 0.018317178 0.0054518161 4285690139
0.011239767 0.017038718 0.0064351289 4285624349
0.013727643 0.015054256 0.008115246 4285165348
-0.013721652 0.012261517 0.012115489 4284900914
-0.012384787 0.015242368 0.0088770343 4285427489
-0.010458298 0.015376717 0.0084605617 4285559069
-0.0089978129 0.017644502 0.0059328331 4285755928
-0.007237114 0.01848942 0.0048150113 4285952534
-0.0056423619 0.020044833 0.0029957471 4285886743
-0.003241241 0.018046856 0.004689048 4285755673
-0.0009900704 0.016760483 0.0056774439 4285558814
0.0014406145 0.014764786 0.007364518 4285558813
0.0037160069 0.013480335 0.0083478494 4285624603
0.0056540295 0.013616323 0.0079295067 4285624603
0.006708473 0.017300472 0.004015482 4285689883
0.0086332932 0.017435744 0.0036001457 4285624348
0.010922331 0.016152635 0.004580901 4285820954
0.013776325 0.012743272 0.0076516522 4285821209
0.015907418 0.012171358 0.0079293316 4285493534
0.018994302 0.0080565736 0.011687282 4285362208
0.023655275 -0.0017237067 0.021003958 4285033768
-0.014738806 0.014945626 0.00673272 4285361954
-0.012967773 0.015793115 0.0056140451 4285558559
-0.011201933 0.01664035 0.0044965735 4285623839
-0.0091309175 0.016060732 0.0047846204 4285623839
-0.007370159 0.016907819 0.0036684005 4285624093
-0.0054541007 0.01704172 0.0032543959 4285558558
-0.003374733 0.016463004 0.0035408763 4285558558
-0.0012899227 0.015884764 0.0038262503 4285558814
0.00080032274 0.015307017 0.004110531 4285558813
0.0030672066 0.014017522 0.0050924523 4285690139
0.0048232228 0.014864922 0.0039777448 4285887254
0.0062208697 0.017135702 0.001469112 4285623583
0.0081402287 0.017270587 0.0010549566 4285557794
0.010423411 0.01598271 0.0020336369 4285623584
0.013270997 0.01256194 0.0050975801 4285689629
0.01614533 0.0091431662 0.0081558404 4285624348
0.019995883 0.0021720007 0.014681832 4285493024
0.025247807 -0.0097700432 0.026054993 4285361699
0.030590542 -0.02170559 0.037408728 4285361699
0.035232462 -0.030793376 0.045971174 4284967978
-0.015312672 0.015508264 0.0034761736 4285755673
-0.013699263 0.017073251 0.0016591297 4285886489
-0.011639364 0.016490541 0.0019478453 4285952279
-0.0095739923 0.015908316 0.0022354601 4285755419
-0.0073454827 0.014611207 0.0032219915 4285624348
-0.005266536 0.014030151 0.0035068309 4285558814
-0.0031821392 0.013449579 0.0037905676 4285559069
-0.0015893616 0.015013739 0.0019784523 4285559068
0.00049789995 0.014433578 0.0022617308 4285558813
0.0020775236 0.015997052 0.00045262929 4285558813
0.0038202293 0.016845711 -0.00065764692 4285887254
0.0055576898 0.017694093 -0.0017666453 4285887253
0.0076479279 0.017114572 -0.0014836853 4285755674
0.010106981 0.015108243 0.00018782448 4285821209
0.012950826 0.011676252 0.0032443879 4285821464
0.016569573 0.0053932071 0.0090698758 4285689883
0.020995246 -0.0037386566 0.017657403 4285493024
0.026259866 -0.015717074 0.029000044 4285493024
0.031225191 -0.026263528 0.038939334 4285163308
-0.017069109 0.012359567 0.0041477745 4285493278
-0.015885383 0.016084373 0.00022945274 4285689884
-0.014130242 0.016935095 -0.00088253431 4285557794
-0.011923827 0.015631892 0.00010528602 4285886489
-0.0095517933 0.013611786 0.0017898483 4285821209
-0.0073211156 0.01231049 0.0027725874 4285624349
-0.0053999834 0.012444705 0.0023574522 4285558813
-0.0034787394 0.012579039 0.0019423803 4285559068
-0.0018883832 0.014147401 0.00013404991 4285624604
2.772361e-05 0.014281593 -0.00027975533 4285558558
0.0017730705 0.015132517 -0.0013890425 4285624094
0.0033396743 0.01669956 -0.0031919898 4285623838
0.0050718486 0.017549731 -0.0042982316 4285689628
0.0071564354 0.016967624 -0.0040156888 4285755419
0.009790957 0.01423844 -0.0016546017 4285755674
0.012999423 0.0093639567 0.002779833 4285624859
0.017366424 0.00019939244 0.011358646 4285493279
0.022181902 -0.010390721 0.021305501 4285493279
0.027077507 -0.020975105 0.031235229 4285361189
-0.019542992 0.012806043 0.0013141939 4285164074
-0.018209323 0.015821427 -0.0018976601 4285756183
-0.016603559 0.017394476 -0.0037066182 4285558304
-0.014859036 0.018246621 -0.0048147021 4285557793
-0.012359843 0.015498012 -0.0024318248 4285558048
-0.0099938288 0.01347097 -0.00075091701 4285755673
-0.0077689961 0.012164816 0.00022983458 4285690138
-0.0060133152 0.013018206 -0.00088038389 4285558813
-0.0041002072 0.013151959 -0.0012937123 4285624603
-0.002517622 0.014724135 -0.0030971048 4285624604
-0.00060965121 0.014857747 -0.0035091555 4285755164
0.0012983978 0.01499147 -0.0039211521 4285820699
0.0032065362 0.015125304 -0.0043330835 4285755164
0.0051147416 0.015259266 -0.0047449386 4285689375
0.0070230253 0.015393332 -0.0051567378 4285558558
0.0096566677 0.012655333 -0.0028020078 4285558813
0.013599664 0.0048939809 0.0043854276 4285558813
0.018721431 -0.0071691573 0.015703071 4285558813
0.023744641 -0.018508255 0.026311301 4285493024
0.027509296 -0.024820231 0.032076035 4285164074
-0.022276215 0.014713749 -0.0029115072 4285099303
-0.020662524 0.016291484 -0.0047190906 4285559069
-0.018915556 0.017145805 -0.0058262805 4285756439
-0.017027318 0.017277151 -0.0062347297 4285887508
-0.015138954 0.017408617 -0.0066431249 4285821719
-0.012946866 0.016095579 -0.0056587374 4285821974
-0.010589544 0.014061294 -0.0039808294 4285756184
-0.0085303448 0.01347211 -0.0036967611 4285558813
-0.0064656958 0.012883425 -0.003413788 4285558814
-0.0047205128 0.013738334 -0.0045199795 4285624604
-0.0029805638 0.01459296 -0.0056249714 4285689883
-0.0012458712 0.015447393 -0.0067287842 4285952534
0.00082450733 0.014859498 -0.0064466828 4285886488
0.0032465681 0.012830548 -0.0047822269 4286018323
0.0051573068 0.012964666 -0.0051946482 4285755419
0.0072465837 0.012378491 -0.0049164025 4285558813
0.010065831 0.0089117587 -0.0018791389 4285493533
0.014749873 -0.001753509 0.0080468068 4285493534
0.02044642 -0.016012341 0.021399893 4285361954
0.025114898 -0.025945477 0.030600298 4285033004
-0.022821635 0.015325546 -0.0061389422 4285230118
-0.021356612 0.017632343 -0.0086386474 4285559069
-0.01947666 0.017762981 -0.0090454007 4285493278
-0.017450288 0.017168887 -0.0087562026 4285558814
-0.01541844 0.016575277 -0.008468111 4285558559
-0.013381138 0.015982151 -0.008181111 4285558814
-0.011184104 0.014665164 -0.0072009964 4285558813
-0.0091332234 0.014073201 -0.0069167814 4285558813
-0.0069172867 0.012757756 -0.0059405891 4285624349
-0.0050151162 0.012890711 -0.0063515762 4285821464
-0.0034427382 0.014470942 -0.0081462851 4285689628
-0.0018809251 0.016050503 -0.0099385837 4285557793
0.00018112361 0.015459865 -0.009656365 4285623329
0.0025944822 0.013423696 -0.0079949051 4285754908
0.005023919 0.011388794 -0.0063368846 4285689629
0.0078260191 0.0079098493 -0.0033042226 4285624093
0.011378653 0.0015430897 0.0024764324 4285558813
0.016631972 -0.011320479 0.014437436 4285427743
0.021795129 -0.023455098 0.025690529 4285427743
0.025537401 -0.029808149 0.03143055 4285230883
-0.022537343 0.011585042 -0.0051802751 4285558559
-0.021063924 0.013898998 -0.0076769604 4285624603
-0.019176096 0.014030173 -0.0080854297 4285493278
-0.01743421 0.01488851 -0.0091881687 4285559069
-0.015400022 0.014292859 -0.0089022312 4285558814
-0.013511777 0.014424391 -0.0093105473 4285493278
-0.011469334 0.01382947 -0.009026194 4285559324
-0.0097349472 0.014687791 -0.010127018 4285559068
-0.0075275078 0.013367362 -0.0091522746 4285559069
-0.0054713972 0.012773782 -0.0088706668 4285624603
-0.0039041154 0.014357962 -0.010660975 4285953044
-0.0025148429 0.016667143 -0.013138653 4285689883
-0.00063120574 0.016799122 -0.013545395 4285689374
0.001943551 0.014030375 -0.011197853 4285755418
0.0047151446 0.010538213 -0.0081668906 4285755673
0.008225888 0.0041487217 -0.0023919884 4285558813
0.012507778 -0.0051358789 0.0061199376 4285427744
0.017959699 -0.018762216 0.018734455 4285427488
0.022396471 -0.028035671 0.027213152 4285230373
-0.022254132 0.0078316182 -0.004230978 4285360934
-0.020772286 0.010152683 -0.0067246049 4285558303
-0.01916305 0.011743292 -0.0085213762 4285689374
-0.017418452 0.012604035 -0.0096231196 4285689629
-0.01538191 0.012006298 -0.0093392972 4285624349
-0.013642371 0.012866914 -0.01043978 4285426979
-0.011754148 0.012998529 -0.010848027 4285493533
-0.010178946 0.014587298 -0.012637035 4285493533
-0.0084550567 0.015447117 -0.013733846 4285559068
-0.0065745004 0.015578523 -0.01414019 4285559324
-0.0048584193 0.016438007 -0.015235153 4285624603
-0.0031475946 0.01729729 -0.016328935 4285886998
-0.0012720972 0.017428674 -0.016733937 4285887254
0.0012937672 0.014650539 -0.014391028 4285690139
0.0045820214 0.0089651346 -0.0093071107 4285493023
0.008802589 -0.00035233051 -0.00080330204 4285493279
0.013814896 -0.012572199 0.010426545 4285427743
0.018917974 -0.024785511 0.021636855 4285362208
0.022438603 -0.030454114 0.026670989 4285098538
-0.02210968 0.0047973692 -0.0039839279 4285425958
-0.020622067 0.0071253404 -0.0064738635 4285426723
-0.018721178 0.0072573721 -0.0068852007 4285755164
-0.016965866 0.0081210285 -0.0079876445 4285689629
-0.014918968 0.0075218081 -0.0077077076 4285755419
-0.013470814 0.0098475143 -0.010188827 4285689628
-0.011731111 0.010710381 -0.011287602 4285690393
-0.01015301 0.012303762 -0.013074018 4285690394
-0.0085854568 0.013896458 -0.014858034 4285624604
-0.0068667568 0.014758199 -0.015952017 4285559068
-0.0051533058 0.015619718 -0.017044829 4285559069
-0.0034450814 0.016480945 -0.018136378 4285558559
-0.0014026761 0.015882336 -0.017854851 4285558559
0.0011623055 0.013095386 -0.015518294 4285493789
0.0049741082 0.005204089 -0.0083927196 4285493789
0.0095555484 -0.0055998862 0.0014570607 4285362464
0.014577888 -0.017856218 0.012656952 4285427999
0.019141808 -0.027919471 0.021788139 4285098284
-0.022240967 0.0032230467 -0.0051255655 4285294378
-0.020752952 0.0055575743 -0.0076107159 4285360678
-0.018852174 0.0056895912 -0.0080220234 4285492514
-0.016951285 0.0058217049 -0.0084332991 4285558303
-0.015050255 0.0059539601 -0.008844506 4285623838
-0.013450809 0.007552959 -0.01063245 4285624093
-0.011708394 0.00841818 -0.011730189 4285557794
-0.010127407 0.010016106 -0.013513986 4285558049
-0.0083980784 0.010880634 -0.014608724 4285557794
-0.0066740066 0.011744924 -0.015702246 4285426469
-0.0049551614 0.012608945 -0.016794557 4285493023
-0.0030746907 0.012740552 -0.017200733 4285427489
-0.0011941418 0.012872264 -0.017606845 4285427998
0.001547493 0.009345077 -0.014594026 4285427998
0.0057148449 -3.3095479e-05 -0.006121329 4285362464
0.01083931 -0.013063453 0.0057495693 4285362464
0.015519254 -0.023893178 0.015553675 4285230374
0.019182056 -0.030330807 0.02125179 4284966448
-0.022372209 0.0016490296 -0.0062669944 4285099049
-0.020883776 0.0039901137 -0.0087473486 4285230629
-0.018983148 0.0041220859 -0.0091586541 4285492768
-0.017082386 0.0042541921 -0.0095698982 4285558304
-0.015181489 0.0043864176 -0.0099810958 4285558303
-0.01358182 0.0059897751 -0.011765838 4285558303
-0.011686012 0.006121859 -0.012175769 4285623583
-0.010102108 0.0077243149 -0.01395688 4285558048
-0.0080527216 0.0071213543 -0.013680486 4285492514
-0.0063205957 0.007988371 -0.014774119 4285558049
-0.0045937188 0.0088551715 -0.015866585 4285558304
-0.0030387491 0.010456063 -0.017641105 4285689629
-0.00081697479 0.0091195852 -0.016682282 4285624604
0.002103623 0.0048478916 -0.012996931 4285624859
0.0068031251 -0.006759569 -0.0025024535 4285493279
0.011765413 -0.019094594 0.0086547332 4285361954
0.015738338 -0.027022414 0.015709694 4285229099
-0.021154404 0.0031614155 -0.01057131 4285098794
-0.019399062 0.0040314347 -0.011668932 4285361444
-0.01779411 0.0056392401 -0.01345169 4285427234
-0.015608348 0.0042949468 -0.012489043 4285296163
-0.013863288 0.005164586 -0.013584193 4285295908
-0.011970274 0.0052964613 -0.013993528 4285295908
-0.010077149 0.0054284707 -0.014402797 4285361443
-0.0078669302 0.004086338 -0.013445098 4285426723
-0.006129425 0.0049559027 -0.014538273 4285492768
-0.0045609921 0.0065619648 -0.016312538 4285623839
-0.0028366409 0.0074308813 -0.01740275 4285558303
-0.00061003864 0.0060903206 -0.01644819 4285624094
0.0030019507 -0.0011389777 -0.01005123 4285558558
0.0075398386 -0.012044519 -0.00026568212 4285361699
0.012334991 -0.023680165 0.010182145 4285098283
-0.019529566 0.0024689287 -0.012801947 4285032749
-0.017779395 0.0033408478 -0.013896763 4285164073
-0.01559148 0.00199233 -0.012937855 4285164074
-0.013843708 0.0028643236 -0.014031969 4285098539
-0.012101151 0.0037360489 -0.015124884 4285230628
-0.010363817 0.0046075433 -0.016216574 4285230373
-0.0081567727 0.0032608137 -0.015261456 4285427233
-0.0062609129 0.0033932179 -0.01567116 4285427233
-0.004528597 0.0042647198 -0.0167615 4285558559
-0.0026352182 0.0043971986 -0.017170481 4285558303
-0.00040381402 0.0030526072 -0.016220303 4285492769
0.0032115206 -0.0041983575 -0.0098403608 4285493023
0.0077518076 -0.015136503 -7.9825521e-05 4285361954
0.012372173 -0.026068911 0.0096635027 4284966704
-0.0084461868 0.0024399757 -0.017074417 4285230374
-0.006392356 0.0018308535 -0.016803825 4285362208
-0.0044965409 0.0019633695 -0.01721343 4285427743
-0.0024345182 0.0013550371 -0.016944438 4285427489
-2.9496849e-05 -0.00073439628 -0.015320559 4285427488
0.0034203678 -0.0072661564 -0.0096356645 4285296163
0.0077889301 -0.017496511 -0.00057697296 4285361189
-0.0068449676 0.0017558485 -0.019292479 4285165604
-0.0047913641 0.0011446178 -0.01902339 4285427744
-0.0024004467 -0.00095246732 -0.01740144 4285427233
6.5341592e-06 -0.0030482709 -0.015782921 4285493023
0.0032859668 -0.0088568926 -0.010788735 4285492769
0.0074778423 -0.018375412 -0.0024275295 4285361444
