# .PCD v0.7 - Point Cloud Data file format
VERSION 0.7
FIELDS x y z rgba
SIZE 4 4 4 4
TYPE F F F U
COUNT 1 1 1 1
WIDTH 964
HEIGHT 1
VIEWPOINT 0 0 0 1 0 0 0
POINTS 964
DATA ascii
-0.030482404 0.013793096 0.013088272 4290655243
-0.02834177 0.012488857 0.014132815 4289539364
-0.026415125 0.012612037 0.013757492 4289734948
-0.024718568 0.014161609 0.011965443 4290323488
-0.022914723 0.014997598 0.010883394 4289799974
-0.020875104 0.014407802 0.011217068 4290258209
-0.018583618 0.012393195 0.012963372 4290323488
-0.016527601 0.011804622 0.013293988 4289473319
-0.014337525 0.010504205 0.014329403 4289408038
-0.01239901 0.010628786 0.013952264 4289669668
-0.010594234 0.011465397 0.012870467 4289800228
-0.0089312792 0.013013553 0.011085524 4289669413
-0.0068611428 0.012426365 0.011413767 4289473064
-0.004643593 0.011128183 0.012444201 4289341993
-0.0024152175 0.0098308362 0.013472558 4289603623
-0.00032329187 0.0092453472 0.013796783 4289865508
0.0017741024 0.0086602643 0.014120067 4289996580
0.0035716072 0.0094971284 0.013040158 4289800229
0.005208496 0.011044238 0.011260848 4289538598
0.0069927573 0.011880402 0.01018371 4289866020
0.009093143 0.011295933 0.010506659 4290389023
0.011035576 0.011421952 0.010129671 4290258463
0.013144132 0.010838229 0.0104512 4290389279
0.015089344 0.01096461 0.01007381 4289342504
0.017377499 0.0096720867 0.011091367 4289473319
0.019676408 0.0083804093 0.01210688 4289473319
0.021455642 0.0092169344 0.011031241 4289015084
0.023229536 0.010053214 0.0099567221 4289080108
0.024815887 0.011598077 0.0081879394 4289473064
0.026761241 0.011725076 0.0078109922 4289473064
0.028706592 0.011852175 0.0074341139 4290061858
0.031032398 0.0105628 0.0084449155 4289735204
0.0333689 0.0092742853 0.0094536813 4289538853
0.035324939 0.0094023757 0.0090749664 4289343014
0.036487825 0.012361556 0.0059274277 4288951588
-0.030497275 0.011515066 0.012624855 4288558634
-0.028464012 0.01092229 0.012957796 4288884524
-0.026649766 0.011760902 0.011875221 4289145644
-0.02495563 0.013314616 0.010086949 4289341993
-0.023154423 0.014152583 0.0090070581 4289015084
-0.021238089 0.014275339 0.0086339274 4289211434
-0.019075602 0.012968637 0.0096711675 4289865253
-0.017027892 0.012377296 0.010001759 4289472808
-0.014846332 0.011071999 0.011035427 4289407783
-0.012784936 0.010481771 0.011363453 4289604134
-0.010985479 0.011320185 0.010284341 4289931043
-0.0093276501 0.012872279 0.0085037565 4290519328
-0.0074022636 0.012996282 0.008129376 4289407529
-0.005193226 0.011693235 0.0091580702 4289734438
-0.0031178072 0.011104394 0.0094837407 4290323234
-0.0010368973 0.010515962 0.0098084705 4290257698
0.0010494627 0.0099280141 0.010132167 4289538599
0.0031412765 0.0093405321 0.01045489 4289800229
0.004928194 0.010178912 0.0093788048 4289604134
0.0065519661 0.01172965 0.0076054102 4289538853
0.0086467005 0.011142604 0.0079278322 4290192673
0.010746859 0.010556053 0.0082492353 4290192673
0.01301834 0.0092579387 0.0092664892 4290519838
0.014963429 0.0093843117 0.008889121 4289604134
0.01690856 0.0095107928 0.0085118292 4289276713
0.019027676 0.0089258738 0.0088298609 4289407528
0.02079891 0.0097640529 0.0077574486 4289407274
0.022385489 0.011313118 0.0059919162 4289341738
0.023961326 0.012861636 0.004228509 4289276713
0.025895828 0.012987934 0.0038536703 4289211434
0.028205067 0.011693038 0.0048642615 4289081129
0.030715071 0.0096885599 0.0065649664 4289081129
0.032855701 0.0091057122 0.0068794219 4289211944
0.03421998 0.011363782 0.0044284305 4289343269
-0.028695606 0.010073829 0.011076833 4288492333
-0.026771873 0.010196757 0.010702026 4288687918
-0.025077522 0.011754781 0.0089170216 4288557359
-0.023158789 0.011877574 0.0085433302 4288753453
-0.02136004 0.012717612 0.0074656336 4288753453
-0.019198015 0.011406507 0.0084995991 4288818733
-0.017150603 0.010812942 0.0088285552 4289015083
-0.015225872 0.010936495 0.0084539847 4289407783
-0.013431877 0.011776645 0.0073774559 4289538598
-0.011776634 0.013332784 0.0056006191 4289538343
-0.009723302 0.012740035 0.0059286775 4290257954
-0.0079423115 0.0135796 0.0048549538 4290126883
-0.0057417825 0.01227165 0.0058819493 4290126883
-0.0038189702 0.012395665 0.005508204 4290388513
-0.0016021319 0.01108893 0.0065322341 4289799974
0.00047588348 0.010498263 0.0068558743 4289407528
0.0025593564 0.0099080503 0.0071785254 4289996580
0.0044932738 0.010033175 0.0068029305 4289865764
0.0061119013 0.011587843 0.0050338907 4289669925
0.007880237 0.01242739 0.0039632386 4289015594
0.0098063163 0.012552314 0.0035893945 4289081129
0.012063913 0.011248961 0.0046060039 4289865764
0.014332306 0.0099463612 0.0056206407 4289865763
0.016440354 0.0093584508 0.0059390673 4289603879
0.018553805 0.0087710023 0.0062565347 4289342249
0.020143267 0.010324486 0.004493705 4289342249
0.021721998 0.011877425 0.0027329931 4289341738
0.023471856 0.01271658 0.0016665477 4290323233
0.025585374 0.012129545 0.0019843224 4290454048
0.028265841 0.0094045289 0.0043742536 4290258463
0.030588001 0.0081062876 0.0053790426 4290062369
0.032343201 0.008946199 0.004311881 4289146664
0.033507276 0.011922725 0.0011773892 4289147174
-0.028489783 0.0063499883 0.012017344 4288165168
-0.026558116 0.0064733922 0.011640967 4288099888
-0.024855502 0.0080361962 0.0098577002 4288557359
-0.023163453 0.0095984787 0.0080765253 4288884524
-0.021361977 0.010440812 0.0069999313 4288818988
-0.01919771 0.0091254562 0.0080301585 4288818989
-0.017398588 0.0099678785 0.0069541289 4288688429
-0.015348643 0.0093723796 0.0072809765 4288753964
-0.013685286 0.010933299 0.0055057527 4288491823
-0.011765759 0.011056684 0.0051323241 4288622639
-0.0099821538 0.011898465 0.0040596714 4288557104
-0.0080650523 0.012021892 0.0036868667 4288818478
-0.0062892474 0.01286336 0.0026158718 4289145388
-0.0042305067 0.012269072 0.002941425 4289668649
-0.0021662936 0.011675231 0.0032659872 4289341738
5.2854419e-05 0.010364383 0.004286292 4289734438
0.0018263608 0.01120615 0.0032160087 4289407529
0.0039042644 0.010613449 0.0035381904 4289734949
0.0053575449 0.012888879 0.0010788413 4290454559
0.0071152002 0.013729878 1.1913478e-05 4289407783
0.0090304203 0.013854101 -0.0003598202 4289669413
0.011442371 0.011829287 0.001349166 4290258208
0.013870478 0.0098055974 0.0030551543 4289996579
0.01597286 0.0092151463 0.0033730129 4289342504
0.017907038 0.0093410015 0.0029979115 4289407528
0.01966496 0.010182649 0.0019314131 4289407528
0.021238565 0.011739533 0.00017506443 4289603879
0.023164757 0.011865187 -0.00019824505 4289734694
0.025275288 0.011275779 0.00011843443 4289930788
0.027765229 0.0092568398 0.0018129824 4290323488
0.030081546 0.0079538971 0.0028155809 4289996834
0.031831428 0.0087956339 0.0017511165 4288950569
0.032990709 0.011780512 -0.0013757758 4289213474
-0.030117869 0.0017672181 0.014029681 4288299554
-0.028393984 0.0033354983 0.012245427 4288230959
-0.026680619 0.004903242 0.010463252 4288296495
-0.024863347 0.0057485476 0.0093850894 4288034353
-0.023168378 0.0073152706 0.0076066991 4288361774
-0.021124549 0.0067169368 0.007932785 4288492078
-0.019197695 0.006840378 0.007557611 4288361263
-0.017145507 0.0062427744 0.0078822197 4288753963
-0.015471354 0.0078085586 0.0061081806 4288753964
-0.013807774 0.009373799 0.0043362295 4288622894
-0.011755176 0.0087765232 0.0046609854 4288687919
-0.0099688433 0.0096206143 0.0035894392 4288491569
-0.0081877485 0.010464467 0.0025189845 4288818479
-0.0064118989 0.011308096 0.001449639 4288752688
-0.0043534525 0.010711588 0.0017735632 4288425779
-0.0021429323 0.0093957745 0.0027920706 4288753199
-0.00022016466 0.0095199607 0.0024184706 4289014829
0.0013987459 0.011083089 0.00065586809 4289015083
0.0033163205 0.011207126 0.00028342009 4289407528
0.0049192905 0.012769438 -0.0014759172 4289734694
0.0066716187 0.013612293 -0.0025401982 4289341738
0.0085813515 0.013736136 -0.0029108813 4289538343
0.010656532 0.013141498 -0.0025895275 4289799974
0.013073243 0.0111106 -0.00088638626 4289800228
0.015164595 0.010517266 -0.00056805182 4289407783
0.01726136 0.0099243373 -0.0002506515 4289407783
0.0193635 0.0093319044 6.5744855e-05 4289276713
0.020934634 0.010893013 -0.0016868263 4289864998
0.022495054 0.012453474 -0.0034372061 4288884014
0.024597239 0.011861376 -0.0031205676 4288622383
0.026891634 0.010552522 -0.0021170927 4289080363
0.029386271 0.0085275397 -0.00042841304 4289407528
0.030743733 0.01080453 -0.0028630998 4289147174
-0.030028269 -0.0012603775 0.014249197 4288234274
-0.02818989 -0.00041174144 0.013168368 4288165168
-0.026468262 0.0011607781 0.01138793 4288165423
-0.024642915 0.0020087287 0.010309828 4288165168
-0.023056649 0.0043041632 0.0078334222 4288165168
-0.021127388 0.0044276416 0.0074576875 4288165169
-0.019075654 0.0038277134 0.007780618 4288295984
-0.017143399 0.0039515719 0.0074044494 4288361774
-0.015210994 0.0040755272 0.0070283217 4288492333
-0.01340881 0.0049225837 0.0059551885 4288557614
-0.011345766 0.0043237954 0.0062762303 4288622639
-0.0096843876 0.005893372 0.0045082243 4288687663
-0.0080336034 0.0074624047 0.0027423156 4288687408
-0.0063934326 0.0090307966 0.00097857788 4288687408
-0.0041888431 0.0077101588 0.0019948222 4288687408
-0.0021198615 0.0071122013 0.0023151366 4288687919
-0.0004927814 0.0086801201 0.00055415183 4288556848
0.0011236556 0.010247402 -0.0012046499 4288360754
0.0028839372 0.011092681 -0.00226893 4288229939
0.0046389215 0.011937767 -0.0033321381 4288099123
0.0065484643 0.012061484 -0.0037028752 4288426034
0.008295536 0.012906224 -0.0047643483 4288426034
0.010367725 0.012309253 -0.0044441335 4288818478
0.012445331 0.011712704 -0.0041248426 4289014829
0.014357764 0.011837039 -0.004495807 4289276459
0.016270224 0.011961468 -0.0048667099 4289341994
0.018534593 0.010645941 -0.0038611125 4289210923
0.019916588 0.01293055 -0.006296013 4289734183
0.021645119 0.01377482 -0.0073533189 4290192164
0.023552282 0.01389933 -0.0077228658 4289799973
0.026019461 0.011865906 -0.0060339016 4290061858
0.028124008 0.011271983 -0.0057192356 4289604134
0.029657807 0.012835477 -0.0074607921 4288885034
-0.030151419 -0.0028429404 0.013062092 4288037414
-0.028204255 -0.0027187541 0.012682534 4288034863
-0.026479721 -0.0011416972 0.010904807 4288295983
-0.024537534 -0.0010176226 0.010526379 4288164914
-0.023062311 0.0020106658 0.0073557878 4288164914
-0.021130495 0.0021342635 0.0069795242 4288230450
-0.019320667 0.0029836446 0.0059063146 4288099378
-0.017141566 0.0016562492 0.0069236597 4288230194
-0.015206605 0.0017803609 0.0065470254 4288099378
-0.013271511 0.0019045696 0.0061704339 4288230194
-0.011469141 0.0027539209 0.0050989399 4288360753
-0.0096720085 0.0036030039 0.0040285951 4288295474
-0.0078801028 0.0044518486 0.0029593436 4288164659
-0.0059525408 0.0045759901 0.0025845421 4288426289
-0.0040248632 0.0047002509 0.0022097966 4288426289
-0.0018045604 0.0033763647 0.0032197116 4288426289
-0.00031817332 0.0056730285 0.00076869596 4288426288
0.0013038367 0.0072450303 -0.00098791253 4288491568
0.0029152147 0.008816421 -0.0027423156 4288491569
0.0048299246 0.0089403614 -0.0031141462 4288426289
0.0065850317 0.0097876713 -0.0041755969 4288098869
0.0083348155 0.01063478 -0.0052359849 4288556593
0.010244347 0.010758698 -0.0056065661 4288426033
0.011986196 0.011605464 -0.0066652042 4288426289
0.013893135 0.011729442 -0.0070351032 4288491569
0.015627019 0.012575887 -0.0080920421 4288360754
0.017531324 0.012699895 -0.0084612798 4288818479
0.019257214 0.013546057 -0.0095164888 4289014573
0.020977732 0.014391992 -0.010570634 4288949293
0.023060538 0.013794236 -0.010253543 4288884268
0.025521686 0.011753969 -0.0085684415 4289473319
0.027431389 0.011878856 -0.0089383181 4289015849
0.028573634 0.014888529 -0.012041982 4289735969
-0.028436035 -0.0035723224 0.010797619 4288296239
-0.026491456 -0.0034482256 0.010418626 4288295473
-0.024546713 -0.0033240169 0.010039679 4288360498
-0.022835031 -0.001743339 0.0082679419 4288361008
-0.021014594 -0.00089122355 0.0071942424 4287968563
-0.01932133 0.0006885305 0.0054262159 4288034099
-0.017264679 8.4586442e-05 0.0057449332 4288034099
-0.015075184 -0.0012463555 0.0067569381 4287968563
-0.013134852 -0.0011218265 0.0063793128 4288099378
-0.011327069 -0.00027002394 0.0053084632 4288295473
-0.0095245242 0.00058154762 0.0042387145 4288164658
-0.0075891763 0.00070606172 0.0038622981 4288230193
-0.0056536943 0.00083070248 0.0034859432 4288230194
-0.0035747029 0.00022897124 0.0038008345 4288034099
-0.0017824322 0.0010803044 0.0027334047 4287968563
-0.00014420599 0.0026575699 0.00097689126 4288426799
0.0011804663 0.0056861714 -0.0021567298 4288295729
0.0031003281 0.0058103129 -0.0025296574 4288229938
0.0050202645 0.0059345812 -0.002902505 4288164659
0.0069402717 0.0060589686 -0.0032752836 4288033589
0.0086981617 0.0069087222 -0.004335531 4288360499
0.010615602 0.0070331469 -0.004707654 4288491569
0.012030438 0.0093324557 -0.0071392548 4288753454
0.013769701 0.010181323 -0.0081956442 4288753199
0.015503619 0.011029936 -0.0092509259 4288426033
0.017407797 0.011153936 -0.0096201357 4288687663
0.018777169 0.013450727 -0.012042586 4288426033
0.020854291 0.01285037 -0.011726178 4288099123
0.022936791 0.012250438 -0.011410683 4288099633
0.025397284 0.010203622 -0.009730462 4288427054
0.026739854 0.012499049 -0.012147341 4288362284
-0.024783716 -0.0041734278 0.0081593124 4287250483
-0.02295804 -0.0033189729 0.0070861382 4287838768
-0.021137565 -0.0024647191 0.0060140742 4287642418
-0.019322284 -0.0016107112 0.0049430905 4287707443
-0.017387733 -0.0014867857 0.0045664152 4287773234
-0.015325874 -0.0020924285 0.0048824726 4288034864
-0.013388343 -0.0019681007 0.0045053801 4288165423
-0.011450689 -0.0018436611 0.0041283378 4288034353
-0.009512905 -0.0017191246 0.0037513403 4287968563
-0.0074371174 -0.0023234561 0.0040650209 4288034099
-0.00549642 -0.0021985024 0.0036876304 4288099378
-0.0035556033 -0.002073437 0.0033102995 4287968563
-0.0017606169 -0.0012197867 0.0022439938 4287838259
2.9109418e-05 -0.0003663674 0.0011787955 4287968818
0.0015109815 0.0019431338 -0.0012613283 4288034353
0.0034387596 0.0020677969 -0.0016357796 4288034099
0.0055232495 0.0014647767 -0.0013232278 4288164914
0.0074538514 0.0015898347 -0.0016980702 4287968563
0.0092225038 0.0024424344 -0.0027587609 4288164658
0.010821145 0.004022114 -0.0045037614 4287837748
0.012409125 0.0056011677 -0.0062465696 4288230194
0.014156457 0.006452702 -0.0073028738 4288164914
0.015725724 0.0080307946 -0.0090419296 4288426289
0.017459713 0.008881703 -0.010095467 4288426289
0.019188363 0.0097323582 -0.01114789 4288491568
0.021092443 0.0098565668 -0.011516915 4288491824
0.023179987 0.0092548318 -0.011204116 4288230449
0.025086755 0.0093794204 -0.011573504 4288230703
0.026427021 0.011681251 -0.013984974 4288493098
-0.01932352 -0.0039139614 0.0044568768 4286923573
-0.017510727 -0.0030578598 0.0033881096 4287250229
-0.015322179 -0.0043975785 0.0043935971 4287707698
-0.013382114 -0.0042731166 0.0040159849 4287904049
-0.011441901 -0.0041485354 0.0036384305 4288100399
-0.0093665458 -0.0047551915 0.0039504236 4288034609
-0.0074234121 -0.004630208 0.0035724668 4287968563
-0.0054801665 -0.0045051053 0.0031945677 4287903028
-0.0035368092 -0.0043798983 0.0028167302 4287903284
-0.0017391033 -0.0035239235 0.001751544 4287969074
0.00020177662 -0.0033986494 0.0013743602 4287772979
0.0018405132 -0.0018126518 -0.00037548691 4287707188
0.0037761964 -0.0016874969 -0.00075149722 4287838003
0.0055554658 -0.0008322224 -0.001812797 4288165169
0.0074886158 -0.00070700794 -0.0021881405 4288099378
0.0092599839 0.00014791638 -0.0032477016 4287837748
0.011190556 0.00027318299 -0.0036223782 4287903284
0.012786787 0.0018570945 -0.0053634597 4287968818
0.014542196 0.002711378 -0.0064197043 4288034099
0.01611973 0.0042942911 -0.0081569953 4287837748
0.018037047 0.0044191331 -0.0085287625 4288034099
0.01959854 0.0060012266 -0.010262768 4288230195
0.021510527 0.0061259419 -0.010633332 4288099123
0.023422524 0.0062507838 -0.011003803 4287968563
0.025148535 0.0071037933 -0.01205385 4287642164
0.026114572 0.010868043 -0.015819091 4288427819
-0.0076850802 -0.0054743364 0.0017021764 4288429349
-0.005744651 -0.0053494349 0.001324812 4287773998
-0.0038041025 -0.0052244142 0.00094751082 4287708463
-0.0018634647 -0.0050992891 0.0005702693 4288100399
7.7269971e-05 -0.0049740449 0.00019310229 4288165423
0.0021690354 -0.0055811629 0.00050073117 4287641653
0.0041126274 -0.0054555163 0.00012318045 4287445814
0.0058999844 -0.0045976117 -0.00093799829 4287380533
0.0073640794 -0.0022759512 -0.0033644345 4287773234
0.0092971474 -0.0021506548 -0.0037396904 4287707444
0.011230268 -0.0020252317 -0.0041148718 4287903538
0.013163432 -0.0018996969 -0.0044899695 4287969074
0.014757227 -0.00031150877 -0.0062271706 4287903283
0.016340323 0.0012761354 -0.0079622511 4287968563
0.018087797 0.0021322444 -0.0090150815 4287968563
0.019829933 0.0029881075 -0.010066788 4287772468
0.021566715 0.0038437396 -0.01111737 4287707189
0.023664366 0.0032383353 -0.010809853 4287576373
0.025209997 0.0048240572 -0.012537205 4287641653
0.026367929 0.0078693032 -0.015617336 4288035374
-0.0024240166 -0.0044692978 -0.0026632491 4287774508
-0.00019527227 -0.005814299 -0.0016715564 4287773998
0.0017427318 -0.0056891367 -0.0020481218 4287249973
0.0035273768 -0.0048293546 -0.0031071901 4287118648
0.0053067133 -0.0039697737 -0.0041651949 4286660669
0.0073983967 -0.0045787767 -0.0038589183 4287903283
0.0093340054 -0.0044533312 -0.0042346809 4287576883
0.011433844 -0.0050615296 -0.0039298553 4287445814
0.013038516 -0.0034683794 -0.005665971 4287969328
0.014971584 -0.0033427477 -0.006040968 4287968819
0.016560264 -0.0017504469 -0.0077737547 4287903283
0.018138226 -0.00015870482 -0.0095044393 4287707189
0.019883074 0.00069949776 -0.01055501 4287641653
0.021622576 0.0015574619 -0.011604461 4287445559
0.023722596 0.00095007569 -0.011299051 4287773234
0.025456738 0.0018079132 -0.012347291 4287838514
0.026432294 0.0055944398 -0.016097724 4287839023
0.012913629 -0.0050367862 -0.0068417545 4287511859
0.014846556 -0.0049111545 -0.0072167274 4287577139
0.016435437 -0.0033145323 -0.0089462381 4287445304
0.018013608 -0.0017184392 -0.010673622 4287575608
0.019581087 -0.00012297183 -0.012398805 4287510838
0.021317944 0.00073698908 -0.013446079 4287576628
0.023780499 -0.0013422742 -0.011791309 4287773234
0.025331911 0.00025249273 -0.013513112 4287773233
0.026496325 0.003315486 -0.01658118 4287840043
0.016138773 -0.00414069 -0.01079417 4286465083
0.017714474 -0.0025404468 -0.012517754 4286987324
0.019279476 -0.00094080716 -0.014239127 4287380024
0.021373503 -0.0015530437 -0.013935983 4287707698
0.023290303 -0.0014278963 -0.014307391 4287773489
0.025021829 -0.0005658865 -0.015351785 4287969584
0.026184125 0.0025056377 -0.01841278 4288298789
-0.015675738 -0.03953094 -0.005837121 4287314234
-0.013830081 -0.038638219 -0.0068857418 4287444539
-0.011730406 -0.039278276 -0.0066053765 4286593603
-0.015676551 -0.041898347 -0.0063727773 4287706423
-0.013828196 -0.041003294 -0.0074202768 4288033589
-0.011726156 -0.04164537 -0.0071420274 4287445048
-0.0097507834 -0.041518681 -0.0075265518 4287641654
-0.0079100989 -0.040623762 -0.0085722562 4287641654
-0.0059371851 -0.040496998 -0.0089561101 4287641399
-0.0042444915 -0.038834505 -0.010660374 4287182654
-0.0021338984 -0.039475463 -0.010383283 4286658883
-0.015801594 -0.043498822 -0.0075732074 4287575608
-0.013826609 -0.043372415 -0.0079578403 4288033589
-0.011722215 -0.044016503 -0.0076817176 4287968563
-0.009876281 -0.043119229 -0.0087269079 4287772469
-0.008035589 -0.042222165 -0.0097709727 4287838513
-0.0059255138 -0.042865507 -0.0094956663 4288034608
-0.0038099885 -0.043508388 -0.0092213396 4287706933
-0.0016890168 -0.044150792 -0.0089479629 4287117373
0.00014671683 -0.043253511 -0.0099906679 4286790464
0.0018291436 -0.041587062 -0.011689303 4286463044
0.0035009421 -0.039921127 -0.013385807 4286528068
0.0053154752 -0.03902486 -0.014424105 4286920004
-0.015802838 -0.045872129 -0.0081132967 4287444283
-0.013825327 -0.045745574 -0.0084984358 4287837748
-0.011976816 -0.04484611 -0.0095425714 4288164914
-0.010001741 -0.044719465 -0.0099270362 4287706933
-0.0081610344 -0.043820255 -0.010969454 4287771958
-0.0060512871 -0.044465788 -0.010695761 4287641399
-0.0039360821 -0.045110837 -0.010423021 4287575608
-0.0018154383 -0.045755409 -0.010151235 4287117628
0.0001654774 -0.045627765 -0.010536363 4286921278
0.0021464676 -0.045499973 -0.010921402 4286921534
0.0038264841 -0.043829255 -0.012616163 4287182908
0.0058022738 -0.043701537 -0.012999987 4287903284
0.0073104613 -0.041260459 -0.015345336 4287903283
0.0095954612 -0.042674817 -0.014420709 4287772468
0.012052447 -0.044859059 -0.012845313 4286987324
0.014525551 -0.047042117 -0.011272883 4286332993
-0.015927963 -0.047474198 -0.0093149189 4287247679
-0.013950616 -0.047347657 -0.0097000282 4287706170
-0.011973135 -0.04722099 -0.010085071 4287837238
-0.010127164 -0.046319403 -0.011126949 4287706423
-0.0080178529 -0.046967261 -0.010854924 4287444793
-0.0061770231 -0.04606577 -0.011895629 4287706679
-0.0039225072 -0.047487281 -0.010969138 4287641143
-0.0020841584 -0.046585672 -0.012009146 4287052093
-0.00010608137 -0.046458215 -0.012393719 4287117629
0.0017243922 -0.045556866 -0.013432009 4287117629
0.0036999509 -0.045429312 -0.013815893 4287641143
0.0056755766 -0.045301609 -0.014199691 4287641144
0.0074955523 -0.044400565 -0.015235646 4287575863
0.0097853914 -0.04581888 -0.01431532 4287183418
0.012247063 -0.048009314 -0.01274577 4286725694
0.014888588 -0.050971262 -0.010528548 4286333504
-0.016423345 -0.046743564 -0.012486862 4287181634
-0.014201976 -0.048172154 -0.01155773 4287770428
-0.012227327 -0.048045672 -0.011942232 4287182398
-0.010121122 -0.048695996 -0.011671348 4286855488
-0.008143574 -0.048569106 -0.012056233 4286986558
-0.0061659217 -0.048442043 -0.012441015 4287509819
-0.0041881874 -0.048314862 -0.012825726 4287248444
-0.0024946667 -0.046635039 -0.014516773 4286790464
-0.00052209944 -0.046507947 -0.014900291 4286594369
0.0014505461 -0.046380691 -0.015283713 4286986814
0.0034232624 -0.046253331 -0.015667049 4287510074
0.0053960532 -0.046125807 -0.016050296 4287510328
0.0075244382 -0.046773575 -0.015782861 4286987068
0.0098164529 -0.04819607 -0.014866287 4286855743
0.012119234 -0.04961779 -0.013951654 4286725184
0.0011770651 -0.047199897 -0.017131945 4286986303
0.0034469813 -0.048628516 -0.016214689 4287182654
0.0054222792 -0.048500873 -0.016598443 4286986813
0.0075530112 -0.049150623 -0.016333105 4286724928
0.0096891522 -0.049799897 -0.016068721 4286593858
0.0030208454 -0.04866755 -0.018710556 4286593604
0.00727088 -0.049972259 -0.018181102 4286463044
-0.045636863 -0.0045606568 0.016804025 4284573493
-0.045674697 -0.0068749785 0.016318213 4283133764
-0.043985434 -0.0045611039 0.013830866 4283595568
-0.042222165 -0.002978079 0.012048344 4284576299
-0.045712776 -0.0091933757 0.015829336 4282477903
-0.044107452 -0.0061406195 0.012645829 4281828163
-0.042254299 -0.0052853599 0.011566571 4281893698
-0.040406272 -0.0044303387 0.010488373 4281763904
-0.03865841 -0.0028438196 0.0087123076 4281699134
-0.036725655 -0.0027210042 0.0083352095 4281960253
-0.034893073 -0.0018666387 0.0072602024 4282483769
-0.032756485 -0.003206268 0.0082785087 4283201084
-0.030926183 -0.0023519024 0.0072041405 4283529778
-0.045919426 -0.010046676 0.013938569 4282216784
-0.044316217 -0.0069854185 0.010762113 4281697094
-0.04237619 -0.0068624541 0.010383363 4281828419
-0.040435955 -0.0067393854 0.010004637 4281632578
-0.038495481 -0.006616205 0.0096259462 4281370693
-0.036554828 -0.0064929351 0.0092472741 4281370949
-0.034814365 -0.0049024001 0.0074760979 4281632834
-0.032878637 -0.0047792345 0.0070985528 4281894464
-0.031153858 -0.0031894594 0.0053305337 4282155584
-0.02900663 -0.0045325682 0.0063435705 4282284358
-0.02718126 -0.0036761835 0.0052719573 4282873409
-0.025133893 -0.0042854622 0.0055887559 4284049979
-0.045957707 -0.012368873 0.013446826 4282282575
-0.044351265 -0.009298794 0.010276367 4281566789
-0.042498022 -0.0084392801 0.0092003504 4281566789
-0.040465884 -0.0090525076 0.0095178289 4281370948
-0.038617566 -0.0081931278 0.008442915 4281436738
-0.036774367 -0.0073339716 0.0073690834 4281306434
-0.0348363 -0.0072107837 0.0069909776 4281371459
-0.03279531 -0.0078230575 0.0073070386 4281632324
-0.03106495 -0.0062286779 0.005541279 4281501764
-0.029128984 -0.0061053336 0.0051638084 4281696838
-0.027303569 -0.0052468106 0.0040938323 4281632579
-0.025369912 -0.0051234066 0.0037169708 4281567554
-0.023552209 -0.0042651296 0.0026485985 4281698113
-0.021739684 -0.0034071133 0.0015813727 4281958469
-0.019689433 -0.0040180907 0.0018961597 4282219333
-0.017633684 -0.0046286583 0.0022100024 4283201594
-0.045912445 -0.015434109 0.013648211 4282218314
-0.044300109 -0.012355037 0.010483227 4281370439
-0.042441443 -0.01149305 0.0094077894 4281370694
-0.040496103 -0.011369742 0.0090280129 4281240644
-0.038550518 -0.011246301 0.0086482698 4281436484
-0.03660474 -0.011122756 0.0082685566 4281436738
-0.034758635 -0.010261156 0.0071958164 4281371459
-0.032815121 -0.010137551 0.0068167085 4281174853
-0.030976668 -0.0092762634 0.0057456689 4281109829
-0.029143363 -0.0084152147 0.0046757041 4281175618
-0.027425811 -0.0068171322 0.0029159198 4281045569
-0.025605552 -0.0059566647 0.0018486157 4281175874
-0.023790471 -0.0050964504 0.00078244694 4281175364
-0.021861985 -0.0049731955 0.00040673278 4281566789
-0.019812033 -0.0055863857 0.00071990304 4281893698
-0.017880552 -0.0054627359 0.00034376048 4282809913
-0.045616843 -0.020731099 0.015926808 4282086734
-0.044163227 -0.0161606 0.011377706 4281239368
-0.042385489 -0.014555201 0.009608862 4281370439
-0.040434912 -0.014431588 0.009228033 4281501508
-0.03867279 -0.012826987 0.0074623963 4281436228
-0.036824174 -0.011963181 0.0063907346 4281436738
-0.034980685 -0.011099644 0.0053202035 4281436738
-0.033039987 -0.010976262 0.0049416097 4281175109
-0.031099096 -0.010852754 0.0045630606 4281109829
-0.029158026 -0.010729149 0.0041845487 4280914244
-0.02743759 -0.0091265962 0.0024274932 4280980034
-0.025614604 -0.0082638413 0.0013613589 4281306434
-0.023681045 -0.0081404001 0.00098455511 4280980289
-0.021747321 -0.0080168396 0.0006078016 4281240898
-0.019813448 -0.00789316 0.00023109652 4281632834
-0.018003225 -0.0070307553 -0.00083227642 4282614074
-0.04351037 -0.024437718 0.016416855 4282151759
-0.041797154 -0.022083543 0.01395472 4281630283
-0.0400998 -0.019730218 0.01149574 4281631049
-0.03832411 -0.018120475 0.009730733 4281566788
-0.036655769 -0.015768804 0.0072775567 4281567553
-0.034804218 -0.014902636 0.0062070815 4281632578
-0.032855608 -0.014778771 0.0058269231 4281435973
-0.031011701 -0.013912857 0.0047581112 4281174344
-0.029172979 -0.013047136 0.0036903387 4280978503
-0.027339414 -0.012181692 0.0026236968 4281044294
-0.025623962 -0.010575056 0.00087100081 4281175109
-0.023687847 -0.010451473 0.00049367361 4281109828
-0.021633312 -0.011068843 0.00080251042 4281044548
-0.019815162 -0.010203958 -0.00026080944 4281239879
-0.018125854 -0.008598499 -0.0020081084 4283004479
-0.037318952 -0.028648913 0.016807172 4282347344
-0.035811491 -0.024799503 0.012975329 4281761609
-0.034330606 -0.020951681 0.0091487532 4281762374
-0.032774225 -0.017849691 0.0060150446 4281632324
-0.031029649 -0.016237214 0.0042597419 4281108299
-0.029295601 -0.014625259 0.0025065271 4281173324
-0.027462006 -0.013757668 0.0014415169 4281174089
-0.025520846 -0.013633899 0.0010631131 4281239623
-0.023579508 -0.013509996 0.00068475772 4281239879
-0.021638021 -0.013385989 0.00030645821 4281370694
-0.01993794 -0.011775695 -0.0014396822 4281762119
-0.018001504 -0.011651807 -0.0018168418 4283266363
0.011832271 -0.0044719204 -0.012568124 4284180793
0.013751507 -0.0043471977 -0.012940457 4283524934
0.01567078 -0.0042223558 -0.013312697 4282741319
0.017241329 -0.0026181489 -0.01503191 4282611013
0.018978234 -0.0017539859 -0.016075956 4283198789
0.020889528 -0.0016293004 -0.016446376 4283985719
-0.027364723 -0.016825274 0.0016283924 4280713558
-0.025530927 -0.015955381 0.00056503061 4280975953
-0.023587048 -0.015831344 0.00018616486 4281107023
-0.021760955 -0.014961772 -0.00087549072 4281238093
-0.020060666 -0.013347164 -0.0026183547 4281827653
-0.018124372 -0.01322329 -0.0029954957 4283266363
0.011542175 -0.0052862465 -0.014408557 4283853883
0.013458591 -0.0051616952 -0.014780324 4283002183
0.01537504 -0.0050370395 -0.01515203 4282153034
0.017291516 -0.0049122721 -0.015523646 4281891913
0.018854249 -0.0033041239 -0.017237917 4281892679
0.020765394 -0.0031794682 -0.017608328 4281892934
0.022312054 -0.0015721098 -0.019319354 4282677313
0.024217846 -0.0014475659 -0.019688545 4282938179
0.025748428 0.00015893579 -0.021396231 4283789623
0.027839124 -0.00045736879 -0.021095406 4284574003
-0.021766067 -0.017284848 -0.0013760021 4280712793
-0.019942462 -0.016413189 -0.002435443 4281237584
-0.018124066 -0.01554174 -0.0034937812 4283198533
0.011418447 -0.0068403929 -0.015573662 4283788094
0.01350338 -0.0074601769 -0.015274104 4282545223
0.015422367 -0.0073353574 -0.015646301 4281891914
0.017341379 -0.007210426 -0.016018409 4281434698
0.018906992 -0.0055977777 -0.017729925 4281566023
0.02064129 -0.004729338 -0.018770045 4281566023
0.022370221 -0.0038610771 -0.01980908 4281435973
0.024278549 -0.003736347 -0.020178741 4281239879
0.025999444 -0.0028684214 -0.021215996 4281566534
0.027905075 -0.0027436614 -0.021584971 4281763394
0.029617898 -0.0018760264 -0.022620477 4282156349
0.031520803 -0.0017511919 -0.022988737 4282156858
0.033423677 -0.0016262531 -0.023356907 4283137078
0.035326503 -0.0015011951 -0.023724977 4283658043
0.037025787 -0.0006339848 -0.024757501 4284508978
0.039132029 -0.0012507588 -0.024460826 4284640304
0.01162637 -0.0098875687 -0.015398147 4283201339
0.013716355 -0.010509245 -0.015101206 4282350659
0.015298199 -0.0088914037 -0.01681276 4281304649
0.017217066 -0.0087664872 -0.017184846 4281565769
0.018606346 -0.0064035282 -0.019561185 4281435463
0.020517208 -0.0062788874 -0.019931534 4281435973
0.022246165 -0.0054084733 -0.020968912 4281370438
0.024154348 -0.0052837655 -0.021338558 4281305669
0.026062526 -0.005158931 -0.021708103 4281371203
0.02797069 -0.0050339922 -0.022077562 4281567554
0.029878838 -0.0049089193 -0.022446917 4281698113
0.031591665 -0.0040390119 -0.023480674 4281828928
0.033497073 -0.0039139017 -0.023849329 4282025279
0.035603099 -0.0045330599 -0.023554442 4281893953
0.037307769 -0.0036633313 -0.024586344 4282155584
0.040037103 -0.0065140352 -0.022304993 4283137079
0.043205205 -0.010850951 -0.018703921 4283660339
0.046405409 -0.015185662 -0.015108897 4284115003
0.011833645 -0.012943171 -0.015228889 4283201083
0.01359202 -0.012069307 -0.016270716 4282154564
0.015174061 -0.010447152 -0.017978992 4281304649
0.016919099 -0.0095739216 -0.019018058 4281370184
0.018658791 -0.0087009221 -0.020055993 4281305158
0.020393144 -0.0078281537 -0.0210928 4281305669
0.02248558 -0.0084511787 -0.020797567 4281240389
0.024398979 -0.0083261281 -0.021168223 4281370694
0.02631237 -0.0082009584 -0.021538781 4281305414
0.028035991 -0.0073284134 -0.022573145 4281501254
0.02994667 -0.0072031915 -0.022942999 4281501763
0.031662196 -0.006330885 -0.023975646 4281698113
0.033570141 -0.0062055886 -0.024344781 4281763393
0.035678536 -0.0068267956 -0.024051962 4281762884
0.037589073 -0.0067011043 -0.024421422 4281698369
0.041352116 -0.013291217 -0.018843619 4281371459
0.01170931 -0.014505111 -0.016399836 4282417214
0.013635855 -0.014379919 -0.016773587 4281761353
0.015220772 -0.012753256 -0.018479107 4281500234
0.017142024 -0.012628175 -0.018851647 4281303883
0.018887106 -0.011752658 -0.019888964 4281240133
0.020805705 -0.011627503 -0.0202608 4281239879
0.022542767 -0.010752283 -0.021296389 4281240133
0.024274472 -0.0098772794 -0.022330837 4281240133
0.026187714 -0.0097521245 -0.022701362 4281435973
0.028100949 -0.0096268356 -0.023071794 4281370693
0.030014157 -0.0095014349 -0.023442136 4281305923
0.031927347 -0.0093759075 -0.02381237 4281305923
0.033840504 -0.0092502758 -0.024182511 4281305923
0.035753623 -0.0091245249 -0.024552556 4281175618
0.038072661 -0.01049576 -0.023603141 4281436484
0.042664662 -0.020098463 -0.01540485 4281240643
0.011585008 -0.016066737 -0.017570559 4281498449
0.013847351 -0.017447576 -0.016614698 4281040469
0.015437834 -0.015816279 -0.018317934 4281106768
0.017190956 -0.014938198 -0.019355241 4281107023
0.018938731 -0.014060311 -0.020391461 4281043784
0.021038562 -0.014687352 -0.020101041 4281044039
0.022781 -0.013809554 -0.021136038 4281043019
0.024702139 -0.01368399 -0.021508183 4281304903
0.026436541 -0.012806542 -0.022541407 4281501508
0.028165573 -0.011929318 -0.023573488 4281370949
0.02988923 -0.01105231 -0.024604432 4281435973
0.031997036 -0.011678047 -0.024315029 4281370949
0.033912726 -0.011552244 -0.024685666 4281240899
0.035628248 -0.010675408 -0.025714749 4281110083
0.037946787 -0.012050994 -0.024768561 4281436739
0.042947322 -0.02318304 -0.015276343 4281240643
0.023018567 -0.016875274 -0.020981941 4280906849
0.025312668 -0.018257618 -0.020034995 4280975189
0.027430937 -0.01888524 -0.019749518 4281564494
0.029365301 -0.018758558 -0.020124033 4281566534
0.030723896 -0.01637093 -0.022473991 4281370694
0.032650184 -0.016244538 -0.022846751 4281501763
0.034181885 -0.014611475 -0.024534367 4281371203
0.036102742 -0.014485218 -0.024905905 4281305414
0.038428828 -0.015864648 -0.023964442 4281566533
0.043434616 -0.027028754 -0.014498156 4281305159
0.031886026 -0.03090962 -0.012095422 4281626968
0.033282503 -0.028513022 -0.014447715 4281760079
0.034857295 -0.026872925 -0.016140431 4281697348
0.036224257 -0.024478056 -0.018486783 4281631048
0.037575096 -0.022084057 -0.02082995 4281566278
0.039719649 -0.022711329 -0.020550694 4281305158
0.043920867 -0.030887179 -0.013729494 4281370439
-0.031066388 -0.020898089 0.0032538502 4279654288
-0.029219516 -0.020025484 0.0021894583 4279589264
-0.027707011 -0.016908728 -0.00092218909 4279525004
-0.03098096 -0.023985274 0.0034285551 4279521433
-0.029235587 -0.022359692 0.0016830526 4279390109
-0.027500734 -0.020734727 -6.0268678e-05 4279128478
-0.025888667 -0.01836016 -0.0024821134 4278932129
-0.023832835 -0.0189863 -0.0021803482 4278932894
-0.021889076 -0.01886221 -0.0025591431 4279129753
-0.019824892 -0.019487642 -0.0022587953 4278933148
-0.018124074 -0.017864242 -0.0039950991 4280440454
-0.031104252 -0.025575221 0.0022358056 4279652249
-0.029358663 -0.023945332 0.0004935693 4279258784
-0.027514219 -0.023068495 -0.00056697428 4279063199
-0.026011184 -0.01993499 -0.0036634197 4278932129
-0.024070397 -0.01981122 -0.0040417435 4279128479
-0.02201204 -0.020439282 -0.0037420681 4278932128
-0.019948155 -0.021066912 -0.0034433333 4278735269
-0.018001564 -0.020942427 -0.0038225157 4279128733
-0.016054839 -0.020817839 -0.0042016534 4279719314
-0.014236107 -0.019941799 -0.0052566146 4279850639
-0.012422606 -0.019066043 -0.0063104383 4281487994
-0.032275379 -0.034085609 0.0075405529 4282798438
-0.031123601 -0.027919821 0.0017222054 4279259549
-0.029375143 -0.026285447 -1.7283484e-05 4278997153
-0.027309537 -0.026915602 0.00027909316 4278997408
-0.025909834 -0.023018479 -0.0034897607 4279194014
-0.024192989 -0.021385781 -0.0052228272 4278800803
-0.022252202 -0.02126193 -0.0056010853 4278997153
-0.01995144 -0.023399808 -0.0039518513 4278735268
-0.018124916 -0.022521406 -0.0050068125 4278997408
-0.016178325 -0.022396848 -0.0053859428 4279128733
-0.01448755 -0.020765238 -0.0071134879 4279325593
-0.012546048 -0.020640768 -0.0074914391 4279653269
-0.010737769 -0.019763082 -0.0085425097 4279522709
-0.0087987185 -0.019638546 -0.0089198127 4279588498
-0.0069982223 -0.018761113 -0.0099691739 4280046734
-0.0050616451 -0.01863648 -0.010345793 4280177549
-0.0031249672 -0.018511727 -0.010722357 4280767364
-0.0011881962 -0.018386841 -0.011098838 4281881203
-0.032197893 -0.037209079 0.0076892106 4282601834
-0.031246945 -0.02951134 0.00052826665 4278736033
-0.029498301 -0.027872674 -0.0012079645 4279194014
-0.027432986 -0.028505012 -0.00091320276 4278997153
-0.025809117 -0.026110306 -0.0033224393 4278997153
-0.02420114 -0.023716517 -0.0057284939 4279062944
-0.022374883 -0.022836223 -0.006781939 4279193759
-0.020194545 -0.024224527 -0.0058117434 4278669733
-0.018248238 -0.02410011 -0.0061909072 4278735268
-0.016301788 -0.023975559 -0.0065700035 4278997408
-0.014610812 -0.022339642 -0.0082942881 4279128733
-0.012799926 -0.021459766 -0.0093443021 4279260569
-0.010994289 -0.020580105 -0.010393199 4279260569
-0.0087864213 -0.021965921 -0.009427879 4279456919
-0.0068447255 -0.021841086 -0.0098056048 4279456409
-0.0051852949 -0.020206645 -0.011523242 4279390873
-0.0033926293 -0.01932735 -0.012569259 4279915153
-0.0017517731 -0.017693818 -0.014283146 4279981198
0.00032610446 -0.018323578 -0.013989544 4280506243
0.0022575334 -0.018198818 -0.014364812 4280899453
0.0041890293 -0.018073924 -0.014740004 4281684853
0.005963333 -0.017195217 -0.015781987 4282339694
-0.032120995 -0.04034096 0.0078316247 4282471273
-0.03105963 -0.033380538 0.0013615778 4279850384
-0.029515184 -0.030218758 -0.0017232355 4278800803
-0.027338624 -0.031612054 -0.00075602718 4279128478
-0.025709026 -0.029210515 -0.0031614024 4278997408
-0.023866847 -0.028327197 -0.0042164102 4278931618
-0.022146769 -0.026685625 -0.0059433579 4279128479
-0.02019807 -0.026561171 -0.0063230768 4278800803
-0.018249229 -0.026436605 -0.0067027509 4278538663
-0.0164252 -0.025553972 -0.007753849 4278931873
-0.01473403 -0.023913734 -0.0094748586 4279063198
-0.012792826 -0.023789302 -0.0098527707 4279128988
-0.010984488 -0.022907339 -0.010900557 4279063453
-0.0089100711 -0.02354008 -0.010608397 4279194779
-0.0068301931 -0.024172343 -0.01031721 4278866848
-0.0051678941 -0.022533424 -0.012032107 4279128988
-0.0032288358 -0.022408538 -0.012409139 4279128988
-0.0015824214 -0.020770393 -0.014120757 4279521943
0.00035144761 -0.020645581 -0.01449659 4279587478
0.0021336675 -0.019764401 -0.015538684 4279653014
0.004065007 -0.019639529 -0.015913848 4279587478
0.0061535165 -0.020270437 -0.015623644 4279522199
0.0076083578 -0.017878018 -0.017993394 4279456663
0.0093720779 -0.016997583 -0.019031469 4279456918
0.011295605 -0.016872726 -0.019404743 4279522963
0.013554774 -0.018258087 -0.018451594 4279588755
0.015313257 -0.017377622 -0.019488372 4279786379
0.017239559 -0.017252229 -0.019861903 4280180608
-0.029214211 -0.034852803 -0.00022098143 4280832898
-0.027136147 -0.035488658 6.7885034e-05 4280504968
-0.025498167 -0.033080138 -0.0023341598 4279980944
-0.023647927 -0.032194145 -0.0033890801 4279652759
-0.021919645 -0.030547701 -0.0051143616 4279128223
-0.020082466 -0.029662326 -0.0061665592 4278997664
-0.018250525 -0.028777137 -0.0072176307 4278800803
-0.016673356 -0.026371934 -0.0096073933 4278669733
-0.014729753 -0.026247479 -0.0099858679 4279063198
-0.012786023 -0.02612289 -0.010364283 4279390873
-0.01097497 -0.025238596 -0.011410937 4278997918
-0.0090336986 -0.025113948 -0.011788696 4279259804
-0.0069541335 -0.025748394 -0.011499114 4279063453
-0.0051508062 -0.024864234 -0.012543984 4278801058
-0.0030656904 -0.025498115 -0.012255315 4278997918
-0.001413729 -0.023855291 -0.013964687 4279325338
0.00037647411 -0.0229716 -0.015006721 4279325338
0.0020098314 -0.021329708 -0.016712345 4279194268
0.0040952712 -0.021963105 -0.016423304 4279325338
0.006029211 -0.02183795 -0.016798887 4278867103
0.0079632029 -0.021712661 -0.017174382 4278997919
0.0095726922 -0.020071812 -0.018874988 4278997919
0.011501431 -0.01994662 -0.019249272 4279063198
0.013597831 -0.020578653 -0.018961933 4279390874
0.015359014 -0.019695848 -0.019997571 4279391129
0.016941868 -0.018056303 -0.0216926 4279391638
0.018689688 -0.017174073 -0.022725496 4279523219
0.020788871 -0.017805479 -0.022438273 4279654544
0.023255451 -0.019949324 -0.020834163 4279719824
0.026289236 -0.024360955 -0.017257705 4279786123
-0.028491057 -0.042557843 0.0039560078 4282733159
-0.026608989 -0.041667901 0.0028963638 4282272628
-0.025065817 -0.038488746 -0.00017477293 4281946739
-0.023202173 -0.03759975 -0.0012306506 4281291388
-0.021343723 -0.036710985 -0.0022854256 4280307599
-0.019609734 -0.035059743 -0.0040084245 4280242573
-0.017886318 -0.033409141 -0.0057292324 4279587734
-0.016298078 -0.030996747 -0.0081161745 4278996898
-0.014471196 -0.030109525 -0.0091644451 4279521688
-0.012519591 -0.029984452 -0.0095443986 4279390873
-0.010833129 -0.02833572 -0.011257641 4279390619
-0.0088866279 -0.028210722 -0.011636406 4278866849
-0.0070780292 -0.027324133 -0.012680784 4278932383
-0.0049933344 -0.027960375 -0.01239375 4278997663
-0.003046535 -0.027835011 -0.012772307 4279194013
-0.0010996535 -0.027709521 -0.013150789 4279456409
0.00054989383 -0.026062369 -0.01485632 4279390874
0.0020374246 -0.023655303 -0.017222703 4279259548
0.0039711446 -0.023530275 -0.017598327 4279128478
0.0059049316 -0.023405135 -0.017973892 4278932128
0.0078387745 -0.023279861 -0.018349357 4278801059
0.0096105561 -0.022394568 -0.01938574 4278997663
0.011541821 -0.022269197 -0.019760508 4278801313
0.013473116 -0.022143722 -0.020135198 4278866593
0.015234314 -0.021258779 -0.021169197 4278932128
0.016990174 -0.020374052 -0.022202056 4279128988
0.018916197 -0.02024854 -0.022575427 4279063453
0.020842226 -0.020122908 -0.022948716 4279194013
0.023310825 -0.022273138 -0.021349929 4278931873
0.026896665 -0.028972991 -0.015813373 4279062943
0.031275559 -0.038702846 -0.0076608816 4279980688
-0.012124315 -0.034622826 -0.008068487 4282534004
-0.010294501 -0.033733033 -0.0091154911 4280961673
-0.0086050704 -0.032079622 -0.010825936 4280241809
-0.0069262423 -0.03042683 -0.012534197 4279325084
-0.0049770139 -0.030301452 -0.012913331 4279586713
-0.0028845221 -0.030939162 -0.012629416 4279718293
-0.001078289 -0.030050278 -0.013671361 4279586968
0.00072266534 -0.029161587 -0.014712177 4279390364
0.0022159107 -0.026747622 -0.017074727 4279259804
0.0041548312 -0.026622273 -0.017451383 4278735778
0.005780682 -0.024972036 -0.019148685 4278735268
0.0077143721 -0.024846777 -0.01952412 4278604198
0.009648107 -0.024721391 -0.019899476 4278800803
0.011746496 -0.025357746 -0.019615941 4278735523
0.013682999 -0.025231935 -0.019991647 4278801059
0.015449569 -0.024344482 -0.021025024 4278932383
0.017210804 -0.023457199 -0.022057306 4279063453
0.019142024 -0.023331337 -0.022431683 4278866593
0.020895263 -0.022444382 -0.023462191 4278867103
0.023546539 -0.025361769 -0.021213081 4278538918
0.027502727 -0.033602141 -0.014381801 4278801059
0.032448024 -0.045640968 -0.0042885076 4279980944
-0.0045400076 -0.034943365 -0.011450333 4281419908
-0.0025801323 -0.034817174 -0.011831445 4280962439
-0.00091154873 -0.033160314 -0.013534156 4280045713
0.00089477748 -0.032269135 -0.014574368 4279980178
0.0023937374 -0.02984833 -0.016933039 4279652760
0.0043378621 -0.029722638 -0.017310709 4279259548
0.0058128573 -0.027303196 -0.019664504 4278800803
0.0079081468 -0.027942143 -0.019382223 4278997663
0.0098470859 -0.027816437 -0.019758604 4278670243
0.012114935 -0.029218651 -0.01882052 4278735268
0.013725094 -0.027564608 -0.020511068 4278866848
0.015324578 -0.025911145 -0.022199452 4278801313
0.017258305 -0.025785252 -0.02257441 4279063453
0.019192051 -0.025659248 -0.022949293 4278866848
0.020947972 -0.02476991 -0.023978699 4278539428
0.023601077 -0.027695782 -0.021736566 4278473894
0.02774106 -0.036722742 -0.014270102 4278998173
0.032502897 -0.04803326 -0.0048568975 4279063708
0.0046737939 -0.033598334 -0.016518645 4282664563
0.0061571747 -0.031171806 -0.018869128 4280831879
0.0084190816 -0.032579027 -0.017933384 4280438413
0.010368574 -0.032452643 -0.018311806 4279651739
0.012482375 -0.033092305 -0.018034585 4279586713
0.01410076 -0.031433411 -0.0197234 4279063198
0.015708454 -0.029775053 -0.0214101 4278866848
0.017305475 -0.028117292 -0.02309458 4279194268
0.018891789 -0.026460066 -0.024776936 4278670498
0.020822713 -0.026334122 -0.025151175 4278539173
0.023835629 -0.030799054 -0.021610618 4278736033
0.027978716 -0.039851636 -0.014164691 4279194523
0.013341065 -0.03928379 -0.015296408 4280569228
0.015142467 -0.038387738 -0.016331669 4280111758
0.016599655 -0.035955809 -0.018671606 4279259804
0.018040806 -0.033524834 -0.021008283 4279259804
0.019465905 -0.03109473 -0.023341801 4278931874
0.021584865 -0.031735577 -0.02306674 4278670243
0.024429804 -0.03544531 -0.020189367 4279063454
0.028215699 -0.042988986 -0.014065539 4279522453
0.022699911 -0.038697802 -0.019698903 4281749879
0.025202606 -0.040878177 -0.018131627 4280963713
0.028452005 -0.046134636 -0.01397269 4280767109
0.026333299 -0.04787571 -0.014794832 4282601579
0.020965083 -0.055368744 -0.012823361 4282273649
0.024663486 -0.055950277 -0.01545786 4282012528
-0.048393629 0.016041867 0.047456186 4285361444
-0.046744317 0.018924788 0.04413132 4285755673
-0.044521056 0.0169833 0.045950506 4285951258
-0.051035054 0.01914531 0.041493036 4285295654
-0.04939346 0.022036288 0.038176253 4285493023
-0.047608674 0.02354328 0.036329929 4285689629
-0.045410112 0.021593649 0.038148876 4285623838
-0.04293263 0.017572071 0.042160977 4285820444
-0.040332571 0.01286174 0.046898436 4285689373
-0.031573147 0.0078487247 0.051185258 4285098029
-0.029873908 0.01004741 0.048606884 4284901168
-0.051618971 0.021711778 0.035899747 4285427233
-0.049834199 0.023222931 0.034056704 4285821209
-0.048141874 0.02542707 0.031484205 4285623328
-0.046126634 0.024856705 0.031838857 4285754909
-0.043843739 0.022207219 0.034383804 4285886744
-0.04144913 0.018866111 0.03765456 4285886999
-0.039305598 0.017605375 0.038731847 4285624349
-0.037055738 0.015652712 0.040535953 4285624348
-0.03518185 0.016471315 0.039423361 4285624349
-0.033514567 0.018674307 0.036856167 4285689628
-0.031759724 0.020184223 0.035019398 4285755418
-0.029484823 0.018233463 0.036818858 4285820699
-0.026540898 0.012132805 0.042972945 4285886234
-0.023325555 0.0046520382 0.050569192 4285951513
-0.052124292 0.02360855 0.031057209 4285558813
-0.0502735 0.024427254 0.029950406 4285952788
-0.048509628 0.02594142 0.028114785 4285952533
-0.046502694 0.025368351 0.028469298 4285952534
-0.044402942 0.024100319 0.029551584 4285952789
-0.041932799 0.020052128 0.033545084 4285689883
-0.039800435 0.018786322 0.034621123 4285624349
-0.037847556 0.018911023 0.03424057 4285624349
-0.036090232 0.0204252 0.032406554 4285755419
-0.034544557 0.023327872 0.029122163 4285754909
-0.032710321 0.024146158 0.028019086 4285557793
-0.030563422 0.022881649 0.029092573 4285557793
-0.028079733 0.019535843 0.032337982 4285689374
-0.025457725 0.015498005 0.036302313 4285820699
-0.022461399 0.0093812756 0.042431258 4285689374
-0.019183278 0.0018807054 0.049997039 4285492259
-0.05424951 0.022611845 0.029524241 4285493278
-0.052475199 0.024130825 0.02768977 4285559069
-0.050553374 0.024253067 0.027314901 4285623838
-0.048794612 0.02577123 0.025483523 4285623838
-0.046708956 0.024497796 0.026565164 4285689373
-0.044699334 0.02392273 0.026917491 4285624094
-0.042235658 0.019861091 0.030902147 4285624093
-0.04020144 0.019287746 0.031249795 4285624349
-0.038351744 0.02010892 0.030145161 4285624349
-0.036702625 0.022323593 0.027591381 4285755673
-0.034968942 0.02384067 0.025765285 4285886744
-0.033142678 0.024660572 0.024665393 4285754909
-0.031110018 0.024087492 0.025013622 4285952279
-0.028854899 0.022122424 0.026806898 4286018069
-0.026361227 0.018766433 0.030042045 4285820699
-0.023726732 0.014716398 0.033993945 4285623584
-0.056085341 0.018817198 0.030908491 4285032493
-0.054518081 0.022443064 0.026890133 4285689628
-0.052748874 0.02396604 0.025059905 4285820444
-0.05083248 0.024087872 0.02468605 4285886743
-0.048834361 0.023509704 0.02503879 4285624093
-0.046746433 0.022232018 0.026116613 4285558303
-0.044734418 0.021654878 0.026466757 4285624349
-0.042448208 0.018979408 0.028990991 4285624348
-0.040416941 0.018403646 0.029337499 4285624349
-0.038759604 0.020625237 0.026787035 4285558558
-0.037118115 0.022845924 0.024239667 4285624094
-0.035392225 0.024366792 0.022418391 4285886743
-0.033471003 0.024489596 0.0220441 4285886743
-0.031443991 0.02391389 0.022391763 4285886743
-0.029194832 0.021941923 0.024181113 4285886489
-0.026818439 0.01927283 0.026688248 4285623838
