# .PCD v0.7 - Point Cloud Data file format
VERSION 0.7
FIELDS x y z rgba
SIZE 4 4 4 4
TYPE F F F U
COUNT 1 1 1 1
WIDTH 963
HEIGHT 1
VIEWPOINT 0 0 0 1 0 0 0
POINTS 963
DATA ascii
0.031996176 0.0065650791 -0.0032774853 4288361774
0.032772806 0.010256208 -0.0071410188 4288036138
-0.028608654 0.0055527985 0.0042958269 4288492588
-0.026565146 0.0049757361 0.0045613823 4288557868
-0.024961416 0.0065511316 0.0027209064 4288753963
-0.023368154 0.008125931 0.00088288728 4288688684
-0.021324154 0.0075491816 0.0011485377 4288950314
-0.019118283 0.0062561408 0.0021128235 4288884778
-0.016901631 0.0049640685 0.0030746693 4288884778
-0.01515935 0.0058219358 0.0019384688 4288753709
-0.013257872 0.0059633702 0.001501468 4288622894
-0.011523303 0.006820865 0.00036719069 4289015339
-0.0092848651 0.0055308267 0.0013243435 4289015339
-0.0072080083 0.0049572438 0.0015829904 4288753963
-0.0051257201 0.0043841302 0.0018405179 4288819499
-0.0030380227 0.003811568 0.0020968309 4288950314
-0.00094490126 0.0032395273 0.002351989 4288884778
0.00078763813 0.0040975139 0.0012186607 4288884778
0.0027005933 0.0042406321 0.00077965017 4288688173
0.0048019402 0.0036695376 0.0010331674 4288753963
0.007099662 0.0023847297 0.0019773887 4288819499
0.0088271685 0.003242828 0.00084550586 4288818988
0.010942016 0.0026730075 0.001096203 4288687918
0.012863263 0.0028173104 0.00065570977 4288818733
0.01478456 0.0029617324 0.00021529477 4288426288
0.016705886 0.0031062514 -0.00022505317 4288819244
0.018627241 0.0032509044 -0.0006653117 4288557614
0.020339005 0.0041084588 -0.0017931042 4288557614
0.02225773 0.0042531267 -0.0022326009 4288230959
0.023961544 0.0051102638 -0.0033583613 4288361774
0.026530396 0.0031184256 -0.0017398531 4288361519
0.028674696 0.0025518686 -0.0014951909 4288230704
0.030824304 0.0019858256 -0.0012516668 4288099124
0.032302506 0.0035549551 -0.0030609937 4288033589
0.033313558 0.0065461248 -0.0062344363 4288167974
-0.028319295 0.0018224269 0.0052589076 4288167719
-0.026268113 0.0012436435 0.0055210618 4288492588
-0.024656158 0.0028240457 0.0036819195 4288558125
-0.023054648 0.0044037551 0.0018453104 4288688684
-0.020849448 0.0031062216 0.0028063273 4288623148
-0.01878966 0.0025285333 0.0030667679 4288623403
-0.016406689 0.00051383674 0.0047212066 4288558124
-0.014653701 0.0013746619 0.0035841679 4288754474
-0.012741718 0.0015168488 0.0031447345 4288557868
-0.010996442 0.002377294 0.0020096181 4288558125
-0.0090868808 0.002519533 0.0015709093 4288753963
-0.0068328716 0.0012263581 0.0025212606 4288819499
-0.0049177594 0.0013692081 0.0020814342 4288688939
-0.0028250776 0.00079482049 0.0023349496 4288950569
-0.0010872371 0.0016552657 0.0012019491 4288754475
0.0010109544 0.0010814965 0.0014543599 4288753963
0.0031145737 0.000508219 0.0017056717 4288819499
0.0052235685 -6.4522028e-05 0.0019557653 4288754220
0.0071471781 7.9631805e-05 0.001514486 4288688684
0.0088774152 0.0009400472 0.00038364157 4288557614
0.010994576 0.0003682673 0.00063212402 4288622893
0.012719601 0.0012285113 -0.00049735326 4288688175
0.014842179 0.00065734982 -0.0002499558 4288557103
0.016766034 0.00080206245 -0.00069088116 4288426544
0.018896654 0.00023173541 -0.0004451517 4288492078
0.020823222 0.00037688017 -0.00088652782 4288622893
0.0227498 0.00052214414 -0.0013278183 4288230703
0.024461661 0.0013820678 -0.0024537826 4288361774
0.026385587 0.0015273392 -0.0028943112 4288361519
0.028529551 0.00095858425 -0.0026512109 4288230194
0.030678827 0.00039033592 -0.0024092477 4288165168
0.032382663 0.0012500957 -0.0035330439 4287969074
-0.02845918 0.00024551153 0.0041136919 4288429604
-0.026553694 0.00038646162 0.0036751935 4288361774
-0.024796087 0.0012492687 0.0025383225 4288492589
-0.022892941 0.0013902634 0.002100517 4288754219
-0.020682942 8.8647008e-05 0.0030571679 4288623404
-0.018462155 -0.0012120157 0.0040113805 4288623403
-0.016547915 -0.0010698885 0.0035712561 4288296494
-0.014472228 -0.0016483963 0.0038265372 4288492589
-0.012555052 -0.0015058368 0.0033858968 4288230703
-0.010637756 -0.0013631657 0.0029453086 4288361774
-0.0088896416 -0.00050023198 0.0018112557 4288754219
-0.0068028085 -0.0010774732 0.0020642942 4288623404
-0.0048851706 -0.00093445182 0.0016238773 4288688939
-0.0031447075 -7.1763992e-05 0.00049181655 4288819754
-0.0012295246 7.1309507e-05 5.2133575e-05 4288558124
0.00086833909 -0.00050467253 0.00030297227 4288623148
0.0031568743 -0.0017991439 0.0012425557 4288950314
0.0050802827 -0.001655139 0.00080122426 4288753963
0.0071943365 -0.0022295713 0.0010486003 4288623148
0.0089272931 -0.0013667792 -8.1231818e-05 4288557614
0.011046786 -0.0019405857 0.00016506575 4288688429
0.012973089 -0.0017959103 -0.00027659349 4288622893
0.015100654 -0.0023688823 -3.1974167e-05 4288491823
0.016825814 -0.0015062243 -0.0011596829 4288295729
0.018752217 -0.0013612062 -0.0016011093 4288492078
0.020678643 -0.0012160689 -0.0020424556 4288557614
0.022816956 -0.0017877817 -0.0017999597 4288361519
0.024746064 -0.0016422197 -0.0022417493 4288165169
0.026675176 -0.0014965534 -0.0026834626 4288165169
0.028384432 -0.00063440949 -0.0038070139 4288165168
0.03053337 -0.0012048632 -0.0035666078 4288295983
0.032012105 0.00037305057 -0.0053694863 4288165423
-0.029026557 0.00084184855 0.00087455474 4288100399
-0.026984002 0.00025805086 0.0011353251 4288361774
-0.025231648 0.0011226162 1.2787059e-06 4288492588
-0.023032952 -0.00018427521 0.00095712021 4288296493
-0.02082346 -0.0014903322 0.0019105831 4288296493
-0.018603202 -0.002795428 0.0028616143 4288231214
-0.016689103 -0.0026533455 0.0024215011 4288361773
-0.014452603 -0.003957063 0.0033690007 4288165678
-0.012532901 -0.0038143396 0.0029277643 4288100654
-0.010446627 -0.0043940395 0.0031791227 4288296238
-0.0088622458 -0.002806142 0.0013534883 4288361774
-0.0069448538 -0.0026632622 0.00091302767 4288427309
-0.0050273426 -0.0025202557 0.00047262758 4288623403
-0.0032868162 -0.0016553923 -0.00065781176 4288688939
-0.0011920296 -0.002233915 -0.00040799938 4288558124
0.00090817362 -0.0028119683 -0.00015931018 4288558124
0.0030137636 -0.0033894628 8.819066e-05 4288623403
0.0049370341 -0.0032454729 -0.0003531184 4288688429
0.0066699907 -0.0023806021 -0.0014813878 4288558125
0.0083976761 -0.0015159845 -0.0026084241 4288623403
0.010511525 -0.0020924583 -0.0023624431 4288492589
0.012630731 -0.0026683584 -0.0021176375 4288427309
0.014956318 -0.0039637089 -0.001189379 4288492844
0.016681541 -0.0030988529 -0.002315456 4288427563
0.01860781 -0.0029538497 -0.0027568564 4288426544
0.020325094 -0.0020893663 -0.0038809385 4288099378
0.022460405 -0.0026634857 -0.0036393981 4288100143
0.024386715 -0.0025181398 -0.0040805507 4287969584
0.025879055 -0.00093515962 -0.0058835093 4287904048
0.02758038 -7.1384013e-05 -0.0070036422 4287903794
0.029498693 7.3708594e-05 -0.0074426974 4287904304
0.030967053 0.001655221 -0.0092399027 4287773744
-0.029735032 0.0021782443 -0.0030512782 4287904303
-0.027703431 0.0015914217 -0.002789651 4287904303
-0.025666345 0.0010051131 -0.0025292095 4288231724
-0.02347349 -0.0003066659 -0.0015752912 4288362029
-0.0214228 -0.00089175999 -0.0013178159 4288100398
-0.018899802 -0.0036529973 0.0010186713 4288231213
-0.016830225 -0.0042364746 0.0012719641 4288165678
-0.014755186 -0.0048194379 0.0015240787 4288100399
-0.013165455 -0.0032270551 -0.00029963441 4288101163
-0.011253748 -0.0030848384 -0.00073896535 4288427818
-0.0093419217 -0.0029425025 -0.001178246 4288427563
-0.0074299686 -0.0028000474 -0.0016174689 4288428073
-0.0055179186 -0.0026574656 -0.0020566266 4288624170
-0.0036057681 -0.0025147721 -0.0024957266 4288623914
-0.0013344325 -0.0038194731 -0.0015589949 4288558378
0.00040101632 -0.0029525906 -0.0026864652 4288100398
0.0025009625 -0.0035326928 -0.0024393145 4288819753
0.0042312443 -0.0026659742 -0.0035654381 4289016614
0.006336648 -0.0032454431 -0.0033193696 4289213474
0.0078689046 -0.00165613 -0.0051289741 4289147938
0.0099770837 -0.0022351593 -0.0048833732 4288952099
0.012090627 -0.002813682 -0.0046389177 4288755493
0.014410373 -0.0041138977 -0.0037125666 4288886309
0.016130332 -0.0032472461 -0.00483579 4288363048
0.01805114 -0.0031026676 -0.005275948 4287970349
0.019971967 -0.002957955 -0.0057160091 4287315763
0.021892812 -0.0028131381 -0.0061560031 4286857784
0.023599532 -0.0019469783 -0.0072758868 4286858038
-0.028131668 0.0014855787 -0.0053131478 4287185713
-0.026100222 0.00089664012 -0.0050530657 4287185714
-0.023763087 -0.0011480898 -0.0034080967 4287119668
-0.022020917 -0.0002796948 -0.0045364369 4287119413
-0.019662227 -0.0023226142 -0.0028962679 4287120434
-0.0078624412 -0.034053132 -0.012151563 4286789188
-0.0054121464 -0.036180228 -0.010600832 4286985539
-0.0034676343 -0.036035307 -0.011047502 4287247424
-0.0015230253 -0.035890244 -0.011494097 4287378749
0.00024240091 -0.034988493 -0.012604007 4287182908
0.0023664273 -0.035599686 -0.012387031 4287379513
0.0044958182 -0.036210313 -0.01217124 4287837494
0.0068177991 -0.037576318 -0.011295051 4287706679
0.0087707266 -0.037429996 -0.011743066 4287444028
0.010916244 -0.038039058 -0.011530635 4287771449
0.013067115 -0.038647562 -0.011319381 4287771958
0.015816879 -0.041520871 -0.009131914 4287771958
0.018788438 -0.045147359 -0.0062907394 4286725184
-0.015118275 -0.039267868 -0.0088650342 4287314234
-0.013332233 -0.038363352 -0.0099786753 4287903029
-0.011388287 -0.038218975 -0.010425595 4287903284
-0.009278439 -0.038834125 -0.010207617 4287838003
-0.0073316172 -0.038689286 -0.010655009 4287969074
-0.0050425455 -0.040062867 -0.0097751152 4288557358
-0.0032639429 -0.039158285 -0.010886584 4288818989
-0.0011377856 -0.039771706 -0.010671967 4288426543
0.00081471354 -0.039625935 -0.011120279 4288099124
0.0031307153 -0.040997028 -0.010246126 4288295728
0.0050886683 -0.04085058 -0.010695504 4288884778
0.0072337128 -0.041462108 -0.01048485 4288426799
0.0091944598 -0.041315183 -0.010934656 4288295219
0.011155244 -0.041168146 -0.011384396 4288033589
0.013506059 -0.042535931 -0.010517782 4288164913
0.016262844 -0.045417443 -0.0083384868 4288099889
0.019241216 -0.049054317 -0.005507065 4286006339
-0.015261296 -0.040874451 -0.010031646 4288164404
-0.013475209 -0.03996776 -0.01114367 4288491313
-0.011368491 -0.040585458 -0.010926707 4288034098
-0.009256348 -0.041202635 -0.010710912 4288426799
-0.0071387962 -0.041819282 -0.010496261 4288099633
-0.005015824 -0.042435437 -0.010282705 4288557869
-0.0032345355 -0.041528411 -0.011393188 4289081129
-0.0011060648 -0.042143911 -0.011180716 4289015338
0.0012066327 -0.043519713 -0.010309236 4288623148
0.0033485256 -0.044133909 -0.010099692 4288688684
0.0053116493 -0.04398708 -0.010550251 4288753709
0.0070880093 -0.043079816 -0.011659073 4288164913
0.0090485923 -0.04293292 -0.012108846 4288492333
0.011201356 -0.043545797 -0.011901418 4288230449
0.013359483 -0.044158116 -0.011695107 4288818989
0.016115312 -0.047048375 -0.0095221195 4287968054
-0.016033914 -0.03942208 -0.013851983 4288164403
-0.013938274 -0.040042907 -0.01363421 4288753454
-0.011511773 -0.042191774 -0.01209305 4288230449
-0.0092346072 -0.043575212 -0.011217164 4288099379
-0.007114742 -0.044193923 -0.011004647 4288034098
-0.0049894713 -0.044812053 -0.010793315 4288099634
-0.0032054819 -0.04390271 -0.011902744 4289015338
-0.0010747202 -0.044520169 -0.011692477 4289146154
0.0012400933 -0.045900159 -0.010824753 4288753709
0.0033842884 -0.046516374 -0.010617385 4288426799
0.0053499006 -0.046369359 -0.011068514 4288818988
0.0071289577 -0.045459747 -0.012176329 4287968819
0.0090920366 -0.045312658 -0.012626683 4288295983
0.010671292 -0.043641299 -0.014388053 4288426799
0.012629155 -0.043494344 -0.01483701 4288294964
0.015573312 -0.047155678 -0.012014193 4286987068
-0.013920914 -0.042408973 -0.014134323 4288491569
-0.011655018 -0.043797791 -0.013259178 4288491823
-0.0095435753 -0.044419378 -0.013046497 4288295728
-0.0072588809 -0.045806542 -0.012175476 4288164914
-0.0051339678 -0.046426877 -0.011965701 4287968563
-0.0030036457 -0.047046691 -0.011757074 4288426544
-0.0010437258 -0.046900496 -0.012207193 4288622638
0.001094725 -0.047519445 -0.012000242 4288098868
0.0032385699 -0.048137829 -0.011794416 4287510329
0.0052040257 -0.047990859 -0.012245519 4288098868
0.0067966916 -0.046314389 -0.014006881 4287902774
0.0087569542 -0.046167523 -0.014456598 4287706423
0.010525536 -0.045256257 -0.015560174 4287771959
0.012288842 -0.044345245 -0.016662447 4286790973
-0.01438294 -0.042472638 -0.016616454 4287902774
-0.012122899 -0.043866187 -0.015743276 4288359988
-0.0098521262 -0.045258865 -0.01487243 4287902008
-0.0075706393 -0.046650574 -0.01400399 4287052094
-0.0054487176 -0.047273368 -0.013795128 4287052094
-0.003321413 -0.047895595 -0.013587454 4287248188
-0.0015399121 -0.046981961 -0.014692953 4288032568
0.00041462108 -0.046836048 -0.015141746 4287378749
0.0025501437 -0.047457248 -0.014935648 4286986559
0.0045074634 -0.047310889 -0.015384896 4287640123
0.0066510849 -0.047931209 -0.015180456 4287182398
0.0082334168 -0.046251029 -0.016936073 4286463554
0.010188255 -0.046104461 -0.01738446 4286397763
-0.014684651 -0.043298237 -0.018433908 4286854978
-0.012589961 -0.043925583 -0.018220766 4286659139
0.017701231 -0.0039663017 -0.0071082879 4283857453
0.019827876 -0.0045456141 -0.0068680979 4282417469
0.021326039 -0.0029536337 -0.0086660292 4281959998
0.022813577 -0.0013623983 -0.010461405 4281960508
0.024507055 -0.00049494207 -0.011576539 4282025789
0.026633717 -0.0010737926 -0.011336001 4281829183
0.028543774 -0.00092931837 -0.011773165 4281828928
0.030453809 -0.00078473985 -0.012210244 4281828674
0.032363817 -0.00064003468 -0.012647221 4281829949
0.034043893 0.00022697449 -0.013758861 4281895738
0.03618373 -0.0003502965 -0.013520902 4281633088
0.038799241 -0.0023704991 -0.011937117 4281697859
0.041192804 -0.003667891 -0.011029733 4281763138
0.043356407 -0.0042429566 -0.010796988 4281829693
0.046254836 -0.0069809854 -0.0085503217 4281763904
0.051878795 -0.017647669 0.0010733465 4281501763
-0.046744633 -0.0036579147 -1.128763e-05 4283334193
-0.044854682 -0.0035191178 -0.00044698082 4283268658
-0.042964492 -0.0033801943 -0.00088263676 4283006264
-0.040948097 -0.0039733052 -0.00062132068 4282810168
-0.039054859 -0.0038339794 -0.001057541 4282875704
-0.037161436 -0.0036945418 -0.001493739 4282744634
-0.035267811 -0.00355497 -0.0019298922 4282614840
-0.033373993 -0.0034152865 -0.0023660231 4282549558
-0.032037128 -0.00035099685 -0.0055776034 4282156604
-0.030295525 0.0005190894 -0.0067044995 4281698113
-0.028414477 0.00065811723 -0.0071374676 4281698113
-0.026238758 -0.00066380948 -0.0061862879 4281829694
-0.024052259 -0.0019847825 -0.0052375458 4281829949
-0.022160102 -0.0018446147 -0.005672833 4281699133
-0.019957352 -0.0031642169 -0.0047276262 4281765179
-0.017743845 -0.0044828877 -0.0037848689 4282287418
0.017557506 -0.00555145 -0.0082585942 4282944043
0.019683812 -0.0061329678 -0.0080199633 4281765178
0.021182235 -0.0045365989 -0.009814674 4281240899
0.022883758 -0.0036665276 -0.010930059 4281371458
0.024796348 -0.0035220832 -0.011367969 4281371203
0.027147027 -0.0048278421 -0.010454696 4281436484
0.029064918 -0.0046827868 -0.010893665 4281502274
0.030758433 -0.0038128495 -0.012006857 4281436993
0.03267362 -0.0036677495 -0.012445023 4281503804
0.034588777 -0.0035225302 -0.012883086 4281569594
0.036503892 -0.0033772066 -0.013321055 4281371459
0.03865397 -0.0039557144 -0.013087029 4281370438
0.041046996 -0.0052574873 -0.012182793 4281632833
0.043450583 -0.0065583065 -0.01128093 4281763393
0.046836693 -0.010751605 -0.0077010565 4281436228
-0.046528589 -0.007426694 0.00094395503 4282415173
-0.044751275 -0.0065526813 -0.00019012205 4281700409
-0.042855907 -0.0064134076 -0.00062700175 4281568573
-0.040960345 -0.0062740445 -0.0010638628 4282026044
-0.039193038 -0.0054004639 -0.0021954048 4281895483
-0.037168611 -0.0059949532 -0.00193749 4281437503
-0.035138685 -0.0065889359 -0.0016807653 4281567298
-0.033512551 -0.0049818829 -0.003503859 4281634108
-0.031757776 -0.0041087717 -0.0046322495 4281699389
-0.030008134 -0.0032359883 -0.005759351 4281372478
-0.02797484 -0.0038293004 -0.0055030789 4281241663
-0.02608313 -0.003689386 -0.0059384275 4281045569
-0.024041537 -0.0042819232 -0.0056838766 4281045313
-0.021994498 -0.0048739091 -0.0054305438 4281045313
-0.019786965 -0.0061975121 -0.0044897851 4281046333
-0.017726343 -0.0067882687 -0.0042394064 4281634874
-0.015980955 -0.0059150383 -0.0053649507 4284641068
0.017619368 -0.0078646764 -0.0087316334 4282681393
0.01974798 -0.0084481686 -0.0084952209 4281502274
0.02124932 -0.0068472102 -0.010287309 4281436228
0.023167085 -0.0067025051 -0.0107265 4281240644
0.025301054 -0.007285282 -0.010491006 4281305924
0.027440324 -0.0078674853 -0.010256667 4281175619
0.029141888 -0.0069948509 -0.011370147 4281175619
0.030838104 -0.0061224848 -0.01248236 4281175619
0.032982651 -0.0067039803 -0.012248928 4281045058
0.035132475 -0.0072849169 -0.012016656 4281045569
0.036823284 -0.0064126477 -0.013127325 4281175874
0.038978338 -0.0069929361 -0.012896063 4281371458
0.04113866 -0.0075727254 -0.012665929 4281371714
0.043544367 -0.0088777319 -0.011767814 4281569084
0.04717458 -0.013809592 -0.0075295595 4281371968
-0.046313647 -0.011208385 0.0018898072 4281694289
-0.044648621 -0.0095947161 6.0504302e-05 4281239879
-0.04274806 -0.0094550997 -0.00037760101 4281306179
-0.040847313 -0.009315379 -0.00081568025 4281306433
-0.039074618 -0.0084392428 -0.0019468386 4281241919
-0.037176121 -0.0082994699 -0.0023842379 4281241664
-0.035277437 -0.0081595927 -0.0028216057 4281046079
-0.033242334 -0.0087553114 -0.0025676638 4281176638
-0.031340647 -0.008615002 -0.0030055679 4281371968
-0.02943876 -0.0084745735 -0.0034434386 4281437248
-0.027680907 -0.0075989217 -0.0045707226 4281241918
-0.02578136 -0.007458441 -0.0050078873 4281176128
-0.023881663 -0.007317856 -0.0054450128 4281175618
-0.021677453 -0.0086461976 -0.0045068711 4280914498
-0.019617286 -0.0092393309 -0.004258072 4281110339
-0.01770917 -0.0090977997 -0.0046968907 4281306689
-0.015961085 -0.0082221627 -0.0058214758 4284706349
0.017886203 -0.010912515 -0.0085322764 4282549814
0.019811783 -0.010767445 -0.0089734271 4281632834
0.021526713 -0.0098921135 -0.010088691 4281371459
0.023449656 -0.0097470134 -0.010529066 4281240644
0.025588583 -0.010331541 -0.010296384 4281240644
0.027514186 -0.010186002 -0.01073719 4281110339
0.029439773 -0.010040335 -0.011177892 4281045058
0.031141382 -0.0091654211 -0.012289653 4281045058
0.033290885 -0.0097486824 -0.012059046 4280979778
0.035216399 -0.0096026585 -0.012499465 4281240644
0.037373815 -0.010185063 -0.012270464 4281240899
0.038832702 -0.0085819438 -0.014048724 4281436739
0.040992681 -0.0091639459 -0.013820151 4281371458
0.04315792 -0.0097453892 -0.01359267 4281568573
0.047511656 -0.016876042 -0.0073642647 4281568829
-0.046334725 -0.013524398 0.0014383057 4281759314
-0.044666771 -0.011906162 -0.00038841274 4281239879
-0.042640921 -0.0125053 -0.00013432186 4281110339
-0.040860396 -0.011626519 -0.0012658061 4281045823
-0.039084982 -0.010748029 -0.0023959717 4280916284
-0.037314687 -0.0098698139 -0.0035248874 4280980799
-0.035149354 -0.011206165 -0.002581655 4281045823
-0.033245321 -0.011065811 -0.0030201962 4281110848
-0.031341095 -0.010925338 -0.0034587001 4281306943
-0.029578041 -0.010047235 -0.0045856321 4281306433
-0.027676132 -0.0099067315 -0.0050234525 4281241664
-0.025920715 -0.0090289861 -0.0061484631 4281306689
-0.023871813 -0.0096253306 -0.0058989413 4281305923
-0.021817457 -0.010221198 -0.0056506088 4281110339
-0.019603003 -0.011553086 -0.0047179861 4281240899
-0.017692368 -0.011411384 -0.0051573953 4281306433
-0.015781585 -0.011269554 -0.0055967523 4283071544
0.018152263 -0.013968833 -0.0083390763 4282419254
0.020290829 -0.014555983 -0.0081081791 4281502273
0.021803319 -0.012945458 -0.00989627 4281239369
0.023731437 -0.012799956 -0.010337825 4281108809
0.025659557 -0.012654334 -0.010779287 4281175363
0.027587671 -0.012508608 -0.01122067 4281045313
0.029515769 -0.012362763 -0.011661953 4280979778
0.03166762 -0.012948133 -0.011433597 4281109064
0.033824772 -0.013533026 -0.011206313 4281240644
0.035987202 -0.014117345 -0.010980188 4281371459
0.037923168 -0.01397042 -0.011422909 4281435973
0.039624691 -0.013092823 -0.012532639 4281435209
0.041794963 -0.013676211 -0.012308053 4281173833
0.043970495 -0.01425907 -0.012084573 4281173323
0.048332706 -0.02141086 -0.0058744773 4281239879
-0.046356123 -0.015844502 0.00098381471 4281628753
-0.044685233 -0.014221765 -0.00084027182 4281240644
-0.042779621 -0.014081851 -0.001279599 4281175619
-0.040748585 -0.014682673 -0.0010283338 4281110594
-0.039095689 -0.01306092 -0.0028481008 4281175874
-0.037192132 -0.012920842 -0.0032867091 4281110594
-0.035155188 -0.013520986 -0.0030365409 4281175363
-0.033112776 -0.014120556 -0.002787591 4281240899
-0.031203363 -0.013979726 -0.0032273093 4281240644
-0.029434938 -0.013099074 -0.0043538539 4281306433
-0.027671669 -0.012218654 -0.0054791803 4281175364
-0.025620591 -0.012817219 -0.005231862 4281175363
-0.023713183 -0.01267609 -0.0056707924 4281241919
-0.021502059 -0.014012694 -0.0047408314 4281372734
-0.019589048 -0.01387094 -0.0051808814 4281437759
-0.017832976 -0.012990549 -0.0063040918 4281502273
-0.015922349 -0.012848742 -0.0067434283 4283528248
0.018007662 -0.015563734 -0.0094964607 4282286398
0.020145886 -0.016153082 -0.0092671206 4281501254
0.022079166 -0.016007327 -0.0097099533 4281239624
0.023799516 -0.015127055 -0.010823133 4281043274
0.025298983 -0.013512954 -0.012604731 4280913479
0.027224291 -0.013367429 -0.013045463 4281044804
0.029812306 -0.015423052 -0.011480368 4280717894
0.032639813 -0.018210858 -0.0092509203 4281042763
0.03571482 -0.021730348 -0.0063588172 4281174344
0.038129713 -0.023048207 -0.0054729916 4281371203
0.040323667 -0.023632206 -0.0052556284 4281371459
0.042288691 -0.023482934 -0.0057048909 4281500743
0.04425367 -0.023333535 -0.0061540529 4281369419
0.046697635 -0.024648756 -0.0052744672 4281566023
-0.046260763 -0.018912427 0.0012171445 4282087754
-0.044704046 -0.016541436 -0.0012951763 4281240644
-0.042428751 -0.01863119 0.00033361744 4281370949
-0.040387411 -0.01923348 0.00058083329 4281501509
-0.038595941 -0.018349513 -0.00054980908 4281436228
-0.03680959 -0.017465755 -0.0016792128 4281501508
-0.034895364 -0.017324813 -0.0021202257 4281371714
-0.03298096 -0.017183758 -0.0025612032 4281371203
-0.031342987 -0.015558377 -0.0043739015 4281240644
-0.029715467 -0.013933606 -0.0061841449 4281240899
-0.028098393 -0.012309551 -0.0079918699 4281109828
-0.026345525 -0.011427678 -0.0091130529 4281043529
-0.024002094 -0.013511315 -0.0074992115 4281174598
-0.021945719 -0.014111459 -0.0072545977 4281175364
-0.019729663 -0.015451953 -0.0063289693 4281240644
-0.017973553 -0.014569402 -0.0074505666 4281305668
-0.015743945 -0.015908651 -0.006527883 4283658043
0.015730567 -0.016566284 -0.010882488 4284704818
0.017658345 -0.016421176 -0.011324245 4281498704
0.019793548 -0.017012894 -0.011095895 4280910928
0.021724023 -0.016867347 -0.011538087 4280583763
0.023867242 -0.017458268 -0.011311355 4280518228
0.025369603 -0.015839539 -0.013090382 4280582999
0.027297422 -0.015693814 -0.013531676 4280517208
0.030108053 -0.018491775 -0.011304974 4280189788
0.034280125 -0.025702499 -0.0050848424 4280712284
0.038279328 -0.032173514 0.00045747589 4281365849
0.041411638 -0.035699405 0.0033283262 4282020434
0.043413788 -0.035547435 0.002870488 4282347343
0.045649886 -0.036130279 0.0030766716 4282281809
-0.043527868 -0.026321858 0.0051327487 4281696838
-0.041346271 -0.027670637 0.0060620783 4281500743
-0.039278705 -0.02827321 0.0063015921 4281370949
-0.03733312 -0.028130203 0.0058531752 4281501763
-0.035647664 -0.02649726 0.0040325178 4281501254
-0.034105416 -0.024120346 0.0015288582 4281435719
-0.032714393 -0.020999953 -0.001656035 4281173833
-0.03134444 -0.017881006 -0.0048359847 4280912968
-0.029713999 -0.016251735 -0.0066436091 4281174089
-0.028094027 -0.014623076 -0.0084487749 4280780879
-0.018114079 -0.016147941 -0.008596818 4279788418
-0.016044367 -0.016748905 -0.0083567156 4280573054
-0.014131237 -0.016606838 -0.0087965643 4282275944
-0.012053292 -0.017206952 -0.0085581718 4282471784
-0.010137271 -0.017064445 -0.008998516 4282471529
-0.0082211234 -0.016921788 -0.0094387913 4282601834
-0.0064775385 -0.016037285 -0.010555341 4282275434
-0.0045638569 -0.015894577 -0.010994867 4282013549
-0.0024721175 -0.016493082 -0.010759207 4281882734
-0.00037496909 -0.017091118 -0.010524659 4281685363
0.0017275624 -0.017688558 -0.010291282 4281487993
0.0036495365 -0.017544761 -0.010732361 4281094784
0.0053829886 -0.016660281 -0.011846039 4280833408
0.0074936934 -0.017256767 -0.011614277 4280178824
0.0096097663 -0.017852724 -0.011383652 4279654543
0.011731207 -0.018448159 -0.011154163 4279916428
0.013658773 -0.01830332 -0.011596053 4279784849
0.01538448 -0.017418809 -0.012707504 4279916175
0.017514002 -0.018013269 -0.012479587 4278999193
0.019441653 -0.017868042 -0.012921221 4279064728
0.021789059 -0.01920063 -0.012027103 4278998683
0.023509517 -0.018315986 -0.013137023 4279063964
0.025224663 -0.017431669 -0.014245591 4279063964
0.027152333 -0.017285958 -0.014686859 4279063964
0.030623537 -0.022307172 -0.010470323 4278998938
0.035247751 -0.031015113 -0.0029383646 4279260824
-0.031346228 -0.020207733 -0.0053010536 4279786379
-0.029994037 -0.017081276 -0.0084702959 4279065238
-0.027946774 -0.017686844 -0.0082271546 4279064984
-0.026477594 -0.015308194 -0.010708707 4279064984
-0.024281476 -0.016659155 -0.0097852526 4278999449
-0.022376988 -0.016518205 -0.010223466 4279195544
-0.020010781 -0.018613085 -0.0086245015 4278933149
-0.018254559 -0.017726183 -0.0097428672 4278671518
-0.016185176 -0.018329367 -0.009504335 4278540448
-0.014272187 -0.018187329 -0.009944167 4279129753
-0.012030106 -0.019534238 -0.0090307184 4278867358
-0.010111567 -0.019391552 -0.0094716512 4279064218
-0.0083627142 -0.01850456 -0.010587915 4278998683
-0.006446626 -0.018361799 -0.011028095 4279194524
-0.0045304261 -0.01821892 -0.011468208 4279129499
-0.002614148 -0.018075913 -0.011908255 4278998683
-0.00051734596 -0.018676154 -0.011675266 4279129499
0.0015848391 -0.019275829 -0.01144347 4278998683
0.0035066754 -0.019132048 -0.011884514 4278933149
0.0052401721 -0.018245399 -0.01299658 4278998684
0.0075415857 -0.019586623 -0.012095891 4278932894
0.0096599758 -0.020184577 -0.011867426 4278932384
0.011587348 -0.020039894 -0.012309387 4278866594
0.013514761 -0.019895062 -0.012751244 4278867359
0.015442211 -0.019750133 -0.013193026 4278801824
0.017574042 -0.020346582 -0.012967277 4278539429
0.019090179 -0.018718496 -0.014743133 4278473893
0.021224704 -0.01931452 -0.014517828 4278867359
0.023152228 -0.019169062 -0.014959241 4278866848
0.02507975 -0.019023471 -0.015400562 4278735779
0.027442567 -0.020358898 -0.014512982 4278604453
0.031358145 -0.026875749 -0.0089812092 4278801313
0.036436372 -0.037089556 -0.00014437828 4279195034
-0.03121062 -0.023287281 -0.0050879624 4279457174
-0.0297121 -0.020900175 -0.0075715459 4278604709
-0.027800243 -0.020759031 -0.0080117267 4278932129
-0.025888223 -0.020617768 -0.0084518623 4278998174
-0.023976054 -0.020476371 -0.0088919438 4278670753
-0.022063721 -0.02033484 -0.0093319714 4278735778
-0.019997608 -0.020940699 -0.009094514 4278539173
-0.018238682 -0.020051435 -0.010211876 4278474149
-0.016166989 -0.020656645 -0.0099755283 4278604963
-0.014089834 -0.021261394 -0.0097403079 4278867103
-0.012171555 -0.021118842 -0.010181271 4278604708
-0.010253157 -0.020976178 -0.010622172 4278604453
-0.0085042678 -0.020087004 -0.011736814 4278538918
-0.0064160489 -0.020690456 -0.011503782 4278604198
-0.0044973455 -0.020547397 -0.011944478 4278604198
-0.0024009831 -0.021149918 -0.011713162 4278604453
-0.00029921904 -0.021751933 -0.011482999 4278932128
0.0019908249 -0.023098752 -0.010583263 4278866593
0.0037349313 -0.022209257 -0.011696219 4278604453
0.0056619979 -0.022064961 -0.012138378 4278538918
0.0075891204 -0.021920547 -0.012580462 4278538918
0.0097098164 -0.022520527 -0.01235418 4278473384
0.011247341 -0.020886987 -0.014132049 4278538918
0.013370782 -0.021486521 -0.013906211 4278604453
0.015298083 -0.02134157 -0.014347944 4278669988
0.017837875 -0.02342774 -0.012792036 4278538918
0.019359563 -0.021794863 -0.014565945 4278407849
0.021289591 -0.021649338 -0.015008025 4278538918
0.022795361 -0.02001743 -0.016778052 4278604453
0.025149647 -0.021357939 -0.015891925 4278539429
0.027732018 -0.023440257 -0.014345285 4278538918
0.032091159 -0.031461522 -0.0075046462 4278866849
0.036954302 -0.040962949 0.0006459048 4278801314
-0.031213272 -0.02562438 -0.0055605825 4279260314
-0.029851843 -0.022479847 -0.0087188762 4278408103
-0.027654421 -0.023839742 -0.007802425 4278604453
-0.023819905 -0.023556367 -0.0086850543 4278538918
-0.022053231 -0.022664547 -0.0098027922 4278473894
-0.020291712 -0.021773025 -0.010919191 4278604964
-0.018223148 -0.022380784 -0.010683864 4278736033
-0.016149115 -0.022988059 -0.010449655 4278604964
-0.013908241 -0.024343885 -0.009542644 4278735778
-0.011984792 -0.024200961 -0.009984808 4278669988
-0.010394711 -0.0225605 -0.01177248 4278473128
-0.0084763505 -0.022417724 -0.01221329 4278538663
-0.006557893 -0.022274815 -0.012654029 4278735268
-0.0044646226 -0.022879899 -0.012423754 4278407849
-0.0023659505 -0.023484454 -0.012194619 4278604453
-8.1848353e-05 -0.024836197 -0.011296887 4278473384
0.0020302832 -0.025439546 -0.01107062 4278604453
0.0057066604 -0.024403162 -0.012625344 4278538918
0.00763629 -0.024258561 -0.013068009 4278735523
0.0097592995 -0.024860598 -0.012843851 4278604453
0.011691689 -0.02471552 -0.013286948 4278604453
0.013624117 -0.024570338 -0.013729967 4278735523
0.01595917 -0.025917269 -0.01284318 4278735523
0.017896973 -0.025771432 -0.01328725 4278538918
0.019421577 -0.024133988 -0.015058491 4278538918
0.021354105 -0.023988269 -0.015501145 4278801058
0.023074705 -0.023097098 -0.016606189 4278801058
0.025433768 -0.024441615 -0.015724376 4278604453
0.028020691 -0.026530117 -0.014183745 4278801568
0.032162905 -0.033830442 -0.0080223577 4278670498
0.037248507 -0.044104718 0.00076691248 4279063453
-0.031216282 -0.02796559 -0.0060361885 4280897924
-0.029711541 -0.025565028 -0.0085113551 4278670243
-0.027794648 -0.025423564 -0.0089527331 4278866593
-0.025732305 -0.02603443 -0.0087179579 4278604708
-0.024108376 -0.024387874 -0.010510815 4278342314
-0.022193667 -0.024246223 -0.010951424 4278670498
-0.020278845 -0.024104431 -0.011391969 4278604964
-0.01805203 -0.02546595 -0.010485144 4278473383
-0.016131621 -0.025323525 -0.010926798 4278539429
-0.014049847 -0.025932252 -0.010695975 4278735523
-0.011962663 -0.026540451 -0.0104663 4278669988
-0.010203127 -0.025646329 -0.011580177 4278342314
-0.008279603 -0.025503166 -0.012022179 4278342059
-0.0063559823 -0.025359906 -0.012464125 4278735268
-0.0042577423 -0.025966793 -0.012236621 4278473128
-0.0023312755 -0.025823057 -0.012679029 4278473384
-0.00022489578 -0.026429094 -0.01245321 4278473384
0.0017043836 -0.026284911 -0.012896087 4278669988
0.0057509728 -0.026745483 -0.013115223 4278604453
0.0078735724 -0.027349807 -0.012892753 4278473384
0.0096152984 -0.026455775 -0.014001615 4278866339
0.011547528 -0.026310712 -0.014444675 4278931618
0.013876677 -0.027662575 -0.013559908 4278866339
0.016015399 -0.028265208 -0.013340767 4278866339
0.017955709 -0.028119162 -0.013785399 4278669734
0.019689631 -0.027225077 -0.014891986 4278801568
0.021627322 -0.027078986 -0.015335828 4278736033
0.023141559 -0.025437735 -0.017101251 4278997664
0.025502719 -0.026786417 -0.016223237 4279193759
0.028091565 -0.028881319 -0.0146879 4278866084
0.032453965 -0.03695029 -0.0078840563 4278997153
0.037097201 -0.045761466 -0.00043503754 4279062944
-0.031219605 -0.030310884 -0.006514769 4280701573
-0.029851582 -0.027148522 -0.0096614696 4278998174
-0.027934823 -0.027007051 -0.01010281 4279063454
-0.026017915 -0.026865482 -0.01054411 4278801314
-0.024248626 -0.025969252 -0.011659276 4278735269
-0.0224845 -0.025073335 -0.012773121 4278735779
-0.020419393 -0.025685854 -0.01254038 4278604963
-0.018193107 -0.027051777 -0.011636719 4278866849
-0.016114462 -0.027663037 -0.011406902 4278866848
-0.014030371 -0.028273799 -0.011178255 4278408359
-0.012104567 -0.02813074 -0.011620987 4278801314
-0.010178644 -0.027987532 -0.012063637 4278604709
-0.0082526095 -0.027844205 -0.012506228 4278538408
-0.006326478 -0.027700752 -0.012948751 4278800804
-0.0042259358 -0.028309673 -0.012723431 4278736289
-0.0024739429 -0.02741345 -0.013833582 4278866849
-0.00036790594 -0.028021693 -0.013609324 4278866594
0.0015612207 -0.027877517 -0.014052156 4278931874
0.0036753826 -0.028484963 -0.013829544 4278997409
0.0057949163 -0.029091842 -0.013608113 4278866339
0.0081100874 -0.030449495 -0.012723699 4279062689
0.0098571666 -0.029552877 -0.013832152 4278931619
0.011990149 -0.030158356 -0.013613515 4278997154
0.014128476 -0.030763298 -0.013396014 4278997153
0.01647307 -0.032118291 -0.012517923 4278735014
0.018624753 -0.032721981 -0.012303286 4278931874
0.020369351 -0.031824902 -0.013410677 4279062944
0.022317518 -0.031678021 -0.01385693 4278997664
0.024054162 -0.030781306 -0.014962316 4279390108
0.02599968 -0.030634359 -0.015407756 4279455644
0.028595727 -0.032735229 -0.013879039 4279324319
0.032524746 -0.039329499 -0.0084093008 4279259294
-0.031360243 -0.03190282 -0.0076710605 4280636548
-0.029851969 -0.029488951 -0.010137239 4279194524
-0.027790446 -0.030104391 -0.0099056717 4278604708
-0.025723446 -0.03071931 -0.0096752793 4278866339
-0.023946133 -0.029820375 -0.010790624 4278931874
-0.022173982 -0.028921694 -0.011904683 4278735269
-0.020101253 -0.029535837 -0.011675339 4278800293
-0.017867539 -0.030905545 -0.010776717 4279521944
-0.015623074 -0.032274365 -0.0098804235 4279324829
-0.013689566 -0.032130875 -0.010325022 4279128224
-0.011919424 -0.031231739 -0.011438172 4279258784
-0.010154504 -0.030332834 -0.012550067 4279259038
-0.0082259662 -0.030189328 -0.012993243 4279127968
-0.0057829097 -0.032310426 -0.011435942 4279325084
-0.0038462132 -0.032166056 -0.011880796 4279391128
-0.0022629909 -0.030512571 -0.013656728 4279390873
-0.00051088631 -0.029614002 -0.014765225 4279848854
0.0016001984 -0.030223988 -0.014543638 4279783574
0.0040861666 -0.032341197 -0.012995751 4279586713
0.0064007416 -0.033703446 -0.012114548 4279783319
0.0085359253 -0.034311175 -0.011898232 4279848089
0.010483745 -0.034165114 -0.012344991 4279913624
0.012431614 -0.034018889 -0.012791646 4280175763
0.014775611 -0.035378359 -0.011916836 4279979413
0.017330971 -0.037489653 -0.010384251 4279979669
0.019902315 -0.039599605 -0.0088552218 4279455899
0.021665541 -0.038698912 -0.0099652978 4280242063
0.023840837 -0.039302789 -0.0097574759 4280177549
0.025598777 -0.038402215 -0.010866133 4280177549
0.027565399 -0.038253695 -0.011316416 4280701319
0.029965322 -0.039608084 -0.010453688 4282994534
0.033691686 -0.045469403 -0.0056583192 4282994278
-0.029713292 -0.032592937 -0.0099434629 4282208115
-0.027504716 -0.033969507 -0.0090427371 4282142579
-0.025430094 -0.03458605 -0.008815744 4282403699
-0.023350019 -0.035202079 -0.0085899131 4282272883
-0.021564547 -0.03430026 -0.0097054252 4282273394
-0.019326191 -0.035674095 -0.0088112326 4282403698
-0.017232422 -0.036288753 -0.0085882852 4283123053
-0.028879251 -0.039513707 -0.0064011076 4282667878
0.020636169 -0.055470392 -0.010727863 4282993004
0.043423355 0.016776029 0.021662593 4285097519
0.045147136 0.017604735 0.020509757 4285688609
0.048315749 0.014354911 0.02357772 4285819678
0.059711672 0.011032548 0.025523573 4285164329
0.059381403 0.017290372 0.018772718 4285295908
0.061085828 0.018118314 0.017624844 4285886233
0.064362839 0.014877446 0.020668566 4285951514
0.038887501 0.016218256 0.019973002 4285556774
0.039210409 0.021144081 0.014600786 4285820443
0.040440675 0.023337957 0.012048622 4285623583
0.042132594 0.02416645 0.010904734 4285557794
0.044785127 0.022266988 0.012568762 4285754908
0.048430223 0.017642021 0.01703335 4286017813
0.051618863 0.01438297 0.020088654 4285624348
0.05433508 0.0124886 0.021738317 4285558814
0.055554252 0.014682177 0.019189104 4285559069
0.056757364 0.016874578 0.016643662 4285690394
0.056914471 0.021788672 0.011309926 4285689373
0.058855176 0.02193654 0.010866554 4285558049
0.061321355 0.02072392 0.011816823 4285623583
0.065656304 0.014751572 0.017638005 4285755419
-0.05646443 0.016623538 0.030840829 4285559069
-0.05475891 0.01815309 0.028936733 4285886234
-0.052305985 0.014823537 0.032149263 4285951769
-0.050048042 0.012883727 0.033895712 4285951769
-0.046180915 0.013168763 0.033005007 4285493024
-0.044009227 0.011924889 0.034015931 4285427743
-0.042677362 0.015533429 0.029931676 4285558814
-0.041247647 0.018447232 0.026580464 4285689374
-0.039965805 0.022052232 0.022507846 4285820698
-0.037933286 0.021500431 0.022795532 4285885723
-0.035366599 0.018179905 0.025982413 4286017303
-0.032503475 0.013477314 0.030612089 4285820188
-0.029602919 0.008777529 0.035233252 4285623583
0.037897214 0.022961941 0.009926443 4286345999
0.039350629 0.024476912 0.0080834227 4285886488
0.041270621 0.024622507 0.0076442612 4285623074
0.043673158 0.02339993 0.0086053042 4285623584
0.047062118 0.019442629 0.012361732 4285755164
0.049989708 0.016855251 0.014713294 4285755419
0.052689232 0.014953073 0.016361859 4285558558
0.053640977 0.01783536 0.013123521 4285558814
0.054825943 0.020033009 0.010587144 4285624348
0.05522301 0.024278224 0.0059653418 4285952788
0.057407573 0.023742199 0.0062214443 4285754909
0.059597336 0.023206659 0.0064764256 4285689374
0.063914388 0.017213259 0.012286904 4285689374
-0.059221562 0.019770041 0.025011268 4285559323
-0.057632025 0.021999519 0.022383209 4285624093
-0.055741947 0.022138517 0.021947641 4285558048
-0.053635497 0.020885069 0.02297008 4285558559
-0.051407453 0.018936485 0.0247184 4285689628
-0.049389955 0.018380832 0.025007561 4285689884
-0.047482904 0.018521383 0.024568304 4285559068
-0.04557563 0.018662009 0.024129048 4285559324
-0.044032101 0.020888615 0.021511976 4285689883
-0.042380292 0.022419009 0.019623935 4285755164
-0.040738899 0.023948755 0.017738301 4285623839
-0.03897858 0.024783086 0.016579259 4285557539
-0.036695492 0.022839133 0.018315408 4285689374
-0.034127016 0.019507866 0.021493636 4285886489
-0.031257171 0.014790475 0.026110262 4285623839
-0.028629784 0.011463743 0.029275067 4285228843
0.036056723 0.020534527 0.0099110613 4285492003
0.037052255 0.023428269 0.0066688275 4285689883
0.038733758 0.024260305 0.0055305744 4286083858
0.040648311 0.024405487 0.005092659 4286018069
0.043044992 0.023178153 0.006051722 4285886998
0.046427321 0.019207183 0.0097998502 4285821719
0.048855811 0.017982442 0.010751777 4285558558
0.051294874 0.016758595 0.011701356 4285624349
0.052485768 0.018963169 0.0091685625 4285624349
0.053914987 0.020481344 0.0073348554 4285624349
0.054562245 0.024054084 0.0034193052 4285755673
0.056221712 0.024885267 0.0022867108 4285886999
0.058662929 0.023661997 0.0032361811 4285886998
0.062439937 0.019017179 0.0076481597 4285755674
0.068395823 0.0089009218 0.017590687 4285690394
-0.061257567 0.018055864 0.024304658 4285230118
-0.059959549 0.02238949 0.019491889 4285755929
-0.058180336 0.023226637 0.018329486 4285887253
-0.056300972 0.023364801 0.017896347 4285755418
-0.054205623 0.022106104 0.018918011 4285821464
-0.052099396 0.020848311 0.01993718 4285887253
-0.049982283 0.019591365 0.020953946 4285690138
-0.048085969 0.019731063 0.020517118 4285624349
-0.046189401 0.019870859 0.020080291 4285624349
-0.044777166 0.022800703 0.016746126 4285624348
-0.043014552 0.023637179 0.015588037 4285953299
-0.041383486 0.025170494 0.013708041 4285886743
-0.03937548 0.024612416 0.013998016 4285820953
-0.037230175 0.023358092 0.015008698 4286018324
-0.034939598 0.021408159 0.016738214 4285952534
-0.032084528 0.01667431 0.021346696 4285558559
-0.029611271 0.014031608 0.023786493 4285558048
0.035450537 0.020316787 0.0073543126 4285491748
0.03644143 0.023218948 0.0041197306 4285558814
0.038353264 0.023363851 0.0036823796 4285623838
0.040265046 0.023508854 0.0032451199 4285623839
0.042658553 0.022276904 0.0042016255 4285558303
0.045793317 0.018980868 0.0072445283 4285558303
0.04870842 0.016375061 0.009585808 4285558559
0.050898086 0.015834723 0.0098372074 4285624349
0.052086815 0.01804572 0.0073098605 4285558813
0.053005259 0.020943128 0.0040924037 4285624349
0.054159172 0.023151703 0.0015731072 4285624094
0.055816066 0.023984894 0.00044275913 4285623838
0.058254093 0.022757079 0.0013896478 4285623839
0.061232362 0.020156723 0.0037169745 4285558559
0.066906929 0.010693096 0.012947242 4285558814
-0.06168713 0.018585689 0.020976074 4285230119
-0.06039599 0.022931878 0.016174715 4285624603
-0.058624651 0.023770537 0.015015771 4285887509
-0.056753326 0.023908045 0.01458444 4285886999
-0.054666433 0.02264433 0.015604676 4285755673
-0.052568663 0.021381449 0.016622506 4285689884
-0.050572988 0.02081975 0.01691328 4285624349
-0.048803013 0.021658689 0.015754942 4285624348
-0.046919841 0.021797452 0.015321163 4285624349
-0.045157347 0.02263603 0.014164611 4285558558
-0.043276373 0.022774775 0.013731449 4285558558
-0.041395139 0.022913631 0.013298304 4285755419
-0.039642613 0.023751661 0.012144263 4285755164
-0.03763203 0.023191627 0.01243203 4285689629
-0.035615932 0.022632029 0.012718623 4285624349
-0.032909859 0.018580433 0.016599294 4285624348
-0.030171689 0.014531281 0.020472631 4285492513
0.03629683 0.021636035 0.0029713539 4285493024
0.037502438 0.02385436 0.00044461526 4285624349
0.039406117 0.023998752 9.2126429e-06 4285624348
0.042031825 0.022071041 0.0016596736 4285820953
0.044916794 0.019454107 0.0040011993 4285755673
0.048068997 0.016148563 0.0070319762 4285689628
0.050253022 0.015605625 0.0072830329 4285558558
0.051939603 0.016443022 0.0061473576 4285624348
0.053112745 0.018659562 0.003628551 4285559069
0.054526493 0.020185415 0.0018051164 4285624348
0.055670142 0.02239988 -0.00070681889 4285689884
0.057845667 0.021856774 -0.00045346096 4285886744
0.060291063 0.020625222 0.00048859417 4285820954
0.065152749 0.013196271 0.0076308185 4285755163
-0.0622123 0.019832615 0.016930617 4285230119
-0.060731683 0.022784237 0.013593365 4285493533
-0.058863368 0.022921402 0.013162632 4285558559
-0.057204444 0.024464805 0.011282259 4285623838
-0.055018526 0.022493135 0.013025339 4285624094
-0.053036664 0.021928098 0.013317556 4285624094
-0.050823677 0.019958574 0.015054514 4285624349
-0.049287152 0.022204045 0.012453626 4285558813
-0.04729395 0.021640081 0.012743401 4285559069
-0.04565743 0.023182251 0.010868584 4285624349
-0.043907914 0.024022054 0.0097167334 4285558559
-0.042037416 0.024160065 0.0092860153 4285624094
-0.040037986 0.023596879 0.0095745986 4285623838
-0.037770275 0.021631997 0.011299339 4285623839
-0.035754476 0.021070141 0.011584322 4285624349
-0.033323068 0.018406674 0.014020468 4285624348
0.035919726 0.020746961 0.0011276603 4285558048
0.036888011 0.023664989 -0.0020884564 4285689884
0.038548406 0.024502166 -0.0032168915 4285952534
0.040924914 0.023260161 -0.0022630077 4285886744
0.044041462 0.019940887 0.00076763146 4285952533
0.047430374 0.0159312 0.0044846972 4286083859
0.049608756 0.015385672 0.0047354223 4285624348
0.051541235 0.015532758 0.0042938134 4285624349
0.052712224 0.017755672 0.0017804904 4285558813
0.054123588 0.019285791 -3.9130449e-05 4285690139
0.055265091 0.021506645 -0.0025455784 4285689884
0.056914061 0.022343799 -0.0036707642 4285886489
0.059350953 0.021107249 -0.0027300362 4285821208
0.063668102 0.015035264 0.0030213473 4286017304
-0.062252518 0.017568108 0.016523372 4285098538
-0.060967196 0.021940045 0.01174295 4285493278
-0.05930559 0.023487847 0.0098651918 4285624348
-0.05765431 0.025034975 0.0079898769 4285689883
-0.055584308 0.023761157 0.0090073468 4285755418
-0.053393479 0.021783318 0.01074439 4285689883
-0.051186506 0.019806772 0.012477717 4285624349
-0.049424317 0.020649407 0.011324375 4285624349
-0.047549304 0.020787466 0.0108924 4285624604
-0.045794602 0.021629702 0.0097409068 4285690139
-0.04404499 0.022471648 0.0085906396 4285624093
-0.042300466 0.023313347 0.0074415719 4285755418
-0.040432524 0.023451213 0.0070114704 4285952533
-0.038301986 0.022182535 0.0080155851 4286018069
-0.036026787 0.020211678 0.0097336927 4285689628
-0.033598933 0.017539158 0.012164048 4285624093
0.035310749 0.020558275 -0.0014064526 4285622819
0.036039416 0.024180301 -0.0053082192 4285886744
0.037691928 0.02501902 -0.0064331647 4285623329
0.039819632 0.024467185 -0.0061726989 4285558048
0.042924404 0.02113609 -0.0031475797 4285623583
0.046055723 0.017807119 -0.00012844801 4285820954
0.048468765 0.016563818 0.00081401691 4285689883
0.050390482 0.016710103 0.00037488341 4285558558
0.052058496 0.01755064 -0.00075319782 4285624349
0.05320859 0.019778639 -0.003256727 4285690138
0.05434259 0.022005551 -0.0057565551 4285821208
0.055722103 0.023537792 -0.0075654048 4285492003
0.058147814 0.022296082 -0.0066254395 4285492259
0.061651655 0.018282823 -0.0029438958 4285689884
0.068691649 0.0052642822 0.0096402438 4285689884
-0.062582433 0.017423667 0.013942699 4285098029
-0.061202232 0.021100469 0.009895944 4285559324
-0.059441205 0.021944761 0.0087441811 4285756184
-0.057789657 0.023496222 0.0068720439 4285886999
-0.055720117 0.022217955 0.0078863064 4285952788
-0.053639721 0.020940557 0.0088981157 4285952788
-0.051548447 0.019663993 0.0099075204 4285690139
-0.049676429 0.019801699 0.0094761355 4285624349
-0.047804181 0.019939497 0.0090447599 4285558813
-0.045931686 0.020077415 0.0086133974 4285690139
-0.044428017 0.022333737 0.0060300501 4285755419
-0.0428144 0.023883041 0.0041671311 4285952534
-0.040826198 0.023314558 0.0044549452 4285820953
-0.038701471 0.022041086 0.005457039 4286018069
-0.036298629 0.019357819 0.0078864666 4285820698
-0.03401063 0.017381355 0.0095967771 4285623839
-0.031289596 0.013291437 0.013444371 4285294123
0.034238376 0.021774586 -0.0053185653 4285623583
0.034957282 0.02540683 -0.0092098685 4286280719
0.03659923 0.026246946 -0.010330741 4285820699
0.038715966 0.025692098 -0.010069407 4285557794
0.041566219 0.023046318 -0.0077396422 4285755164
0.044683099 0.019705318 -0.0047254246 4285821464
0.047330383 0.017759878 -0.0030944515 4285624348
0.049241334 0.017905362 -0.0035311114 4285558559
0.050645396 0.019443624 -0.0053425319 4285624349
0.051782671 0.021677248 -0.0078381747 4285690139
0.052645147 0.024605688 -0.01101631 4285953043
0.054270346 0.025445458 -0.012132737 4285821208
0.056946293 0.023502789 -0.010507872 4285821209
0.060438164 0.01947552 -0.0068334341 4285821209
0.06692481 0.0078045316 0.0043553011 4285821464
-0.063007772 0.017998487 0.010646801 4285032239
-0.061436798 0.020265542 0.008052296 4285624604
-0.059678305 0.021111798 0.0069027329 4285558559
-0.057820659 0.021248087 0.0064743897 4285557794
-0.055962738 0.021384474 0.0060460446 4285623839
-0.053775925 0.019393157 0.0077740336 4285755419
-0.05202176 0.020239394 0.0066256905 4285755418
-0.050042953 0.019667584 0.0069136834 4285624348
-0.048293617 0.020513631 0.0057665827 4285624349
-0.046429198 0.02065089 0.0053370362 4285689883
-0.044810195 0.022204839 0.0034760693 4285820954
-0.043201614 0.023758151 0.001617522 4285623583
-0.041475285 0.024602842 0.00047598034 4285557539
-0.039492492 0.024031818 0.00076342374 4285689118
-0.037103821 0.021338735 0.0031895256 4285689884
-0.034421477 0.01723269 0.0070360554 4285558558
-0.031845797 0.013836186 0.010163267 4285294633
0.033399522 0.022308666 -0.008527007 4285623329
0.034345906 0.025251333 -0.01171835 4285886489
0.035982601 0.0260933 -0.012836407 4285952533
0.037853807 0.02623539 -0.013264266 4286018324
0.040452603 0.024279524 -0.011627275 4285821718
0.043067295 0.022324964 -0.0099938437 4285755929
0.045697868 0.020371765 -0.008364005 4285558814
0.047592733 0.020516053 -0.0087969676 4285558814
0.049234319 0.021358937 -0.0099156592 4285558813
0.050358769 0.023598205 -0.012403473 4285493023
0.051467165 0.025836304 -0.014887498 4285624603
0.052820638 0.027375389 -0.016683843 4285755929
0.055746388 0.024727408 -0.014377301 4285690393
0.058959793 0.021383628 -0.011392754 4285690138
0.06435293 0.012463465 -0.0029567741 4285559069
