# .PCD v0.7 - Point Cloud Data file format
VERSION 0.7
FIELDS x y z rgba
SIZE 4 4 4 4
TYPE F F F U
COUNT 1 1 1 1
WIDTH 974
HEIGHT 1
VIEWPOINT 0 0 0 1 0 0 0
POINTS 974
DATA ascii
0.003334064 0.011577558 0.04417567 4290461188
0.0063647106 0.0076379888 0.04809209 4290784019
0.0099494904 0.0016630366 0.054165117 4290978583
-0.0079002753 0.014032669 0.039965399 4289478674
-0.0056012496 0.012802765 0.041001305 4290133259
-0.003291402 0.011573631 0.042035088 4290721289
-0.0012968853 0.011709642 0.041623384 4290262544
0.0010292232 0.010481823 0.042653888 4289344799
0.0033661351 0.0092548281 0.043682232 4289801758
0.0060560592 0.0066654347 0.046148412 4290389788
0.0094626173 0.0013519377 0.051487967 4290062113
0.014853194 -0.011452056 0.064726435 4290062114
-0.018091761 0.012419343 0.040086858 4289868568
-0.01611162 0.01255377 0.039677665 4288950823
-0.014131337 0.01268829 0.039268501 4289669668
-0.012001388 0.012137607 0.039582185 4290258464
-0.010018155 0.012272492 0.039172545 4289800739
-0.0077250712 0.011037704 0.040206276 4290127648
-0.0055786967 0.010488436 0.040516719 4289407529
-0.0032666363 0.0092550702 0.041546702 4289603878
-0.0014324449 0.010075551 0.04041443 4289472808
0.00056206062 0.010211628 0.040002786 4290258463
0.0027248971 0.0096638165 0.040310085 4289800483
0.0050641 0.0084326826 0.041334681 4289669925
0.0084557086 0.0031006932 0.046664022 4289277223
0.013300467 -0.0076956302 0.057722643 4289342759
-0.017377712 0.0066688024 0.043223165 4288885544
-0.016101509 0.0102433 0.0391993 4289670179
-0.014411949 0.011753235 0.037346125 4288949804
-0.012434304 0.011887621 0.036937542 4288884268
-0.010304533 0.011334844 0.037249602 4289538853
-0.0080145821 0.010095414 0.038280688 4289604389
-0.006028533 0.010230631 0.037870571 4290127393
-0.0038823262 0.0096792392 0.038179435 4289734949
-0.0018933788 0.00981481 0.037768841 4289342503
-6.9729984e-05 0.010636833 0.036640465 4289866020
0.0020847879 0.010086253 0.036947802 4290650908
0.0042447411 0.0095361434 0.037254095 4290258463
0.0072772391 0.0055574365 0.041140318 4290323999
0.011398509 -0.0025326163 0.049313754 4290454558
-0.017230254 0.0036529601 0.043455325 4288295984
-0.016379297 0.0093087591 0.037276506 4289669413
-0.014985099 0.012202431 0.033987001 4290389024
-0.013015591 0.012336228 0.033580072 4290061858
-0.01089412 0.011780683 0.03389217 4290127394
-0.0086126775 0.010536339 0.034921631 4290257954
-0.0066347644 0.010670971 0.034513168 4289931043
-0.0043370277 0.0094278567 0.035539433 4289604134
-0.002516076 0.010251813 0.034413151 4289277224
-0.0005351752 0.01038691 0.034004278 4289146408
0.0016137064 0.0098337047 0.034311153 4289604389
0.0037680194 0.0092810132 0.034616932 4289342759
0.0064474717 0.0066647828 0.037065387 4289146408
0.01002799 0.00061105937 0.04307954 4289408038
0.015442686 -0.012315556 0.056218438 4289604134
-0.017365333 0.0020133406 0.042242035 4286529599
-0.016943879 0.0097631775 0.033919148 4289603623
-0.015410811 0.011973079 0.031356201 4289996580
-0.013595726 0.012798306 0.030232484 4289669413
-0.011634219 0.012931615 0.029827254 4289931043
-0.0092096254 0.010990631 0.031572528 4289669413
-0.0070828572 0.010433409 0.031881981 4289604133
-0.0049506277 0.0098766498 0.032190382 4289342504
-0.0029752813 0.010011259 0.031782568 4289342759
-0.0008348152 0.009455245 0.03208939 4289342759
0.0014787912 0.0082091056 0.033109255 4289342759
0.0034624338 0.0083445497 0.032699935 4289211688
0.0059653036 0.0064095594 0.034429476 4289146408
0.0090115219 0.0024057031 0.038293004 4289604389
0.013695609 -0.0078042075 0.048556492 4289800484
-0.016933594 0.0074535124 0.033441275 4289341483
-0.015689638 0.011058509 0.029448958 4289603369
-0.013877138 0.01188571 0.028327407 4289341993
-0.011918426 0.012018815 0.027922744 4289341993
-0.0094971806 0.010071073 0.029663661 4289407783
-0.0073733628 0.0095114112 0.029972101 4289734949
-0.0049251243 0.0075656846 0.031707585 4289211689
-0.0031093843 0.0083935447 0.030585701 4289408038
-0.00080437213 0.0071423948 0.031603888 4289342503
0.0011763982 0.0072775371 0.03119508 4289342759
0.0031572431 0.0074127875 0.03078633 4289473574
0.0053110495 0.0068557113 0.031088984 4290062113
0.0081724674 0.0035303533 0.034233645 4290519839
0.012130078 -0.0039451346 0.04163415 4290519839
0.018317502 -0.019718461 0.057538606 4290323233
-0.016637087 0.0037465468 0.034391925 4287445049
-0.015530258 0.0080594271 0.029690793 4289341483
-0.013860952 0.009585347 0.027855093 4289341993
-0.012202229 0.011110689 0.026021609 4290257954
-0.010092206 0.010547791 0.026331143 4290389024
-0.0078200996 0.0092897415 0.027352585 4290454303
-0.0053778626 0.0073370077 0.029084364 4290585118
-0.003405422 0.0074713752 0.028677115 4289866018
-0.0011035651 0.0062156357 0.029692622 4289538853
0.00087441504 0.0063505732 0.029284379 4289407783
0.0023424327 0.0085698403 0.026745448 4290127394
0.0043125302 0.0087044276 0.026338974 4289800228
0.0071595386 0.0053671859 0.029478306 4289211434
0.010745559 -0.00074496865 0.035446569 4289211434
0.016006295 -0.013099864 0.047777347 4289211434
-0.016341634 2.6725233e-05 0.035332978 4285940804
-0.015663028 0.006448999 0.028499132 4289145388
-0.014141902 0.0086776577 0.02595363 4289145898
-0.01263671 0.010905366 0.023411451 4290257954
-0.010532349 0.010339927 0.023720438 4290061858
-0.0084225126 0.0097749643 0.024028363 4290258208
-0.0059889629 0.0078150667 0.025756935 4290585118
-0.0040246621 0.0079488717 0.025351362 4289931299
-0.0015668273 0.0059908144 0.027075058 4289538598
0.00023852289 0.0068224929 0.02595876 4289342503
0.0018687695 0.0083508715 0.024134947 4289800228
0.0036608912 0.0091818199 0.02302151 4290454049
0.006148465 0.0072261766 0.02473936 4289930789
0.0093636103 0.0024861991 0.029281838 4289799973
0.013880055 -0.00712464 0.038761646 4289996579
0.019937238 -0.022298463 0.053873084 4289996579
-0.015650176 0.0041380376 0.028019687 4288622129
-0.014570698 0.0084752478 0.023344142 4289538343
-0.013070412 0.010709096 0.020807983 4289080619
-0.011432484 0.012241777 0.018985452 4289407783
-0.0093363225 0.01167367 0.019294525 4289342759
-0.0069168098 0.0097062737 0.02102101 4289866020
-0.0046427697 0.008439783 0.022035526 4289735459
-0.002522219 0.0078735724 0.022339815 4289277479
-0.00056320801 0.0080071799 0.021935457 4289342504
0.0012262166 0.0088400729 0.020824121 4289604134
0.0031827018 0.0089736879 0.020420423 4290192419
0.0056642666 0.0070111006 0.022134544 4290061349
0.0085173026 0.0036525577 0.025256103 4290061604
0.012118585 -0.0024976954 0.031191422 4289996579
0.017232355 -0.014230311 0.042750902 4289865763
-0.016073801 0.0039319098 0.025406035 4287771958
-0.015146755 0.0089845918 0.020031558 4289211179
-0.013503343 0.010521881 0.018211126 4290323488
-0.011870511 0.0120585 0.016392993 4290454303
-0.0097800009 0.011487816 0.016701557 4290454558
-0.0073665082 0.0095134377 0.018424287 4290650909
-0.0050982982 0.0082421862 0.019436682 4289539108
-0.0029834025 0.0076734461 0.019740434 4289800484
-0.0010298714 0.0078066662 0.019337194 4289669669
0.0010932088 0.0072386749 0.019639397 4289800484
0.0030495748 0.0073722862 0.019235725 4289996068
0.0053556524 0.0061040483 0.020240711 4289145644
0.0078499913 0.0041358769 0.021947274 4289145643
0.010900952 6.7152083e-05 0.02576012 4289604134
0.015264036 -0.0089021698 0.034484856 4289538598
0.022108588 -0.026969545 0.052322328 4289146154
-0.016351443 0.0030296147 0.023507817 4286071619
-0.01572169 0.0095073879 0.016728841 4289407018
-0.013784949 0.0096388645 0.016328614 4289865253
-0.012001313 0.010475051 0.015221363 4289146154
-0.0099111013 0.0099021457 0.015528316 4289734948
-0.0078154393 0.009329699 0.015834212 4289408039
-0.0055530518 0.0080536343 0.016844526 4289342504
-0.0034438185 0.0074823052 0.017147765 4289277224
-0.0011625402 0.0062077492 0.018154271 4289473319
0.00096024573 0.0056375526 0.018454874 4289473063
0.0030884594 0.0050677769 0.018754469 4289734438
0.0050474443 0.0052016564 0.018350322 4289341994
0.0070064813 0.0053356253 0.017946236 4289341993
0.0096855462 0.0026585683 0.020348476 4289669413
0.013847396 -0.0056377202 0.028354431 4289473063
0.020297654 -0.022358514 0.044752762 4289800228
-0.015704684 0.0072149448 0.016262345 4289014318
-0.013915759 0.0080535524 0.015155569 4289669159
-0.012132056 0.0088918991 0.01404994 4289276714
-0.010197878 0.0090233646 0.013650371 4289669669
-0.0081051886 0.00844853 0.013955213 4289734948
-0.0056848861 0.0064616278 0.015666649 4289996578
-0.0035759546 0.0058880858 0.015968282 4289669669
-0.0016280115 0.0060208999 0.015566176 4289473319
0.00065821409 0.0047424212 0.016568419 4289407783
0.0026116557 0.0048758015 0.016165322 4289538344
0.0045651682 0.0050092973 0.015762305 4289734438
0.0063416027 0.0058480352 0.014658853 4289669159
0.0088319704 0.0038666055 0.016356345 4290454303
0.012250856 -0.0016375184 0.021547524 4290323488
0.017934551 -0.015593968 0.035116091 4290323744
0.024852343 -0.033769466 0.052852333 4290323744
-0.015540443 0.0042090118 0.016497785 4288229684
-0.014046516 0.0064685009 0.013982702 4289341483
-0.012415633 0.0080179758 0.012174863 4289603368
-0.010639794 0.0088580884 0.011072535 4290192418
-0.0085527524 0.0082806237 0.011376917 4290323233
-0.0061384737 0.0062868036 0.013084561 4290519839
-0.0040351972 0.0057106875 0.013385694 4290454049
-0.0019264743 0.005134996 0.013685826 4289669159
1.8745661e-05 0.0052677132 0.013284355 4289407783
0.0021356344 0.0046928227 0.013582902 4289538598
0.0035608374 0.0069485344 0.011082701 4290192673
0.0053239502 0.0077885278 0.0099836476 4289800228
0.0074410066 0.0072139539 0.010282399 4289538599
0.010839585 0.0016909689 0.015464544 4289473319
0.015390882 -0.0080697536 0.024821235 4289473319
0.021706041 -0.024184771 0.040432587 4289603879
0.028334647 -0.040997647 0.056714743 4289603879
-0.015082221 -0.00022842735 0.018133545 4286267714
-0.014027216 0.0041723773 0.013512813 4289407018
-0.012546107 0.0064375587 0.011005457 4289472553
-0.010925572 0.0079908147 0.0092030894 4289276713
-0.0089995489 0.0081218071 0.0088052601 4289276713
-0.0067519993 0.006831605 0.0098086484 4289407783
-0.0046570599 0.0062527321 0.010109834 4290192419
-0.0027227402 0.0063845702 0.0097105149 4289865510
-0.00078835338 0.0065165274 0.0093112551 4289538598
0.0011461154 0.0066486038 0.0089120716 4289538598
0.0027324483 0.0082002357 0.0071173012 4289538598
0.0043081529 0.0097512081 0.0053248554 4290585118
0.0065909624 0.0084641688 0.00632146 4290323488
0.0094308853 0.0050504394 0.0094043985 4290061858
0.013406388 -0.0026153028 0.016655531 4290126883
0.018003196 -0.01240328 0.025979718 4290126628
0.024196142 -0.027854979 0.040844545 4290126628
-0.014757395 0.0054398961 0.009534087 4288818224
-0.013286561 0.007710889 0.0070338044 4289538089
-0.011831678 0.0099809542 0.004536856 4290192418
-0.010077015 0.010823987 0.0034423042 4290061858
-0.0076854788 0.008815527 0.0051446781 4289669413
-0.0054409988 0.0075208507 0.0061454512 4290257953
-0.0035175085 0.0076519512 0.0057483613 4290258208
-0.0017625019 0.0084954165 0.0046540443 4289734948
0.00015845895 0.0086265542 0.0042576324 4289342504
0.0019055642 0.0094697401 0.00316507 4289407783
0.0036473796 0.010312609 0.0020737052 4289734949
0.0059216842 0.0090205893 0.0030687936 4289734949
0.008570604 0.0063067079 0.0054507889 4289538599
0.011794798 0.0014608949 0.0099103656 4289669159
0.015618352 -0.0055152327 0.016442603 4289472553
0.020635242 -0.016752467 0.027121181 4289341739
0.028242091 -0.037221797 0.046782441 4289341739
-0.015037112 0.0045779794 0.0076671503 4288229684
-0.013873205 0.0082864687 0.0037742965 4289996068
-0.012580927 0.011277877 0.00058544427 4290258209
-0.010836914 0.012122348 -0.00050526299 4289996578
-0.008777447 0.011536576 -0.00020016171 4290323488
-0.0062234513 0.0088067725 0.0021942342 4290454304
-0.0041450895 0.0082224831 0.0024955831 4289538598
-0.0023980513 0.0090675801 0.0014045695 4289473318
-0.00048524514 0.0091981366 0.0010098265 4289276968
0.0016013533 0.0086147189 0.0013097124 4289407784
0.0036933497 0.008031778 0.0016085654 4289538599
0.0057907626 0.0074492767 0.0019064322 4289146153
0.0078935549 0.0068672821 0.0022032186 4289342504
0.010923885 0.0027189404 0.0059607849 4289276713
0.014173467 -0.0021402985 0.010403652 4289473064
0.018978773 -0.012700811 0.020368928 4289145644
0.025788937 -0.030383848 0.037224822 4289145644
0.033318296 -0.050195448 0.056123748 4288883504
-0.015166946 0.0030028224 0.0065015797 4287052348
-0.014458712 0.0088754483 0.00052469969 4289669159
-0.013173863 0.011875045 -0.0026560007 4289603878
-0.011437822 0.012721125 -0.0037434278 4289211689
-0.0093866736 0.012132596 -0.0034382772 4289473319
-0.0070044063 0.010110468 -0.0017438326 4289407784
-0.0046060048 0.0080895573 -5.2633695e-05 4289277224
-0.0026960745 0.0082198158 -0.00044686347 4289342503
-0.00078607351 0.0083501711 -0.00084103644 4289604133
0.0016446263 0.0063318163 0.00084368885 4289277223
0.0035627708 0.0064629391 0.00044799969 4289211433
0.0054809637 0.0065941811 5.2386895e-05 4289342504
0.0073992014 0.0067255348 -0.00034315512 4289276713
0.010238718 0.0032791868 0.0027151313 4290192164
0.013478849 -0.0015958995 0.0071483087 4289734183
0.018083658 -0.011474624 0.016401349 4289995813
0.024686132 -0.028498091 0.03252995 4290061093
0.031417038 -0.045512624 0.048632167 4290061093
-0.014131285 0.0051582232 0.0014595538 4289014829
-0.012992457 0.008886829 -0.0024115099 4289538344
-0.011408329 0.010455042 -0.0041930834 4289538598
-0.0096748061 0.01130322 -0.0052782628 4289669159
-0.0072958842 0.0092743263 -0.0035881065 4289342249
-0.0050661713 0.0079657137 -0.0025942083 4289342504
-0.0028256848 0.0066578686 -0.0016024299 4289081129
-0.00091581047 0.006788224 -0.0019965731 4289277223
0.0013408512 0.0054817423 -0.0010080151 4289408038
0.0032561831 0.0056126714 -0.0014031306 4289342503
0.0049928613 0.0064617991 -0.0024883952 4289473063
0.0069056153 0.0065927878 -0.0028828029 4289407783
0.0095546618 0.0038528815 -0.00052064285 4290061603
0.012785358 -0.0010380745 0.0039028861 4289930788
0.017190034 -0.010230616 0.012446947 4289799719
0.023393093 -0.025872976 0.027164007 4289799719
0.03010341 -0.042941153 0.04323072 4289995813
0.03457284 -0.051398523 0.051034667 4290126629
-0.013956677 0.002150327 0.0016907435 4287314234
-0.012811732 0.0058901981 -0.0021733232 4289538089
-0.011536293 0.008906614 -0.0053387876 4290127394
-0.009802714 0.0097569637 -0.0064223274 4290126883
-0.0079119205 0.0098856799 -0.0068127862 4290257954
-0.0055255666 0.0078508481 -0.0051290686 4290323488
-0.0034587607 0.0072593167 -0.0048302482 4290520093
-0.0012160204 0.0059473887 -0.0038421638 4289604389
0.00069111213 0.0060776472 -0.0042356662 4289408038
0.0024224222 0.0069285221 -0.0053183003 4289735204
0.0043269768 0.0070588104 -0.0057111192 4289538598
0.0060503669 0.0079093128 -0.0067919097 4289734694
0.0085039698 0.0058798417 -0.0051214881 4289473064
0.011533324 0.0016923845 -0.0013934486 4289080363
0.015540961 -0.0060905591 0.0057600811 4289276713
0.021334648 -0.020343795 0.019074293 4289342249
0.028208254 -0.038185485 0.035793029 4289080108
0.033440292 -0.049546808 0.046321549 4288884013
0.036958523 -0.054432653 0.050674699 4288622128
-0.013631135 -0.0015903711 0.0026082061 4286398273
-0.012940239 0.0043333322 -0.0033253133 4289407275
-0.011821169 0.0080823936 -0.0071756891 4289538598
-0.010249838 0.0096584707 -0.0089478996 4289473319
-0.0083645284 0.0097867884 -0.0093372446 4289734949
-0.0061491802 0.0084684715 -0.0083470214 4289604389
-0.0042583607 0.008597374 -0.0087373443 4290585374
-0.002026815 0.0072803274 -0.0077502611 4289473318
-0.00013051927 0.0074098259 -0.0081415512 4289538598
0.0017658286 0.0075394511 -0.0085327551 4289473318
0.0034838729 0.008391697 -0.00961091 4289473319
0.0051966086 0.0092436261 -0.010687865 4290454049
0.0076388344 0.0072068498 -0.009020064 4289930788
0.010283511 0.0044493675 -0.0066701584 4289799973
0.0140839 -0.0026370063 -0.0002158666 4289538343
0.019088153 -0.014048956 0.010332894 4289472808
0.025927622 -0.031947397 0.027017308 4289472808
0.031915449 -0.046230502 0.040258557 4289930534
0.036212534 -0.054017037 0.047334656 4289275948
0.038949028 -0.056032725 0.048942417 4288556338
-0.013912339 -0.0024379343 0.00075259339 4285940804
-0.013531011 0.0049556494 -0.0065480918 4288556849
-0.012419183 0.0087150782 -0.010388713 4289996579
-0.01069621 0.0095690787 -0.011466813 4289800228
-0.0091406181 0.01114852 -0.013232394 4289211688
-0.0071012601 0.010550641 -0.012931314 4289473574
-0.0052239373 0.010678619 -0.013318851 4289604133
-0.0028361194 0.0086310543 -0.011645207 4289996578
-0.00095065311 0.0087598041 -0.012034263 4289669669
0.00093485788 0.008888673 -0.012423243 4289277224
0.0026422627 0.0097423159 -0.013497514 4289604134
0.0045251884 0.0098712258 -0.013885793 4290061858
0.0065916702 0.0092759505 -0.01358974 4290127138
0.008849714 0.0079570487 -0.012610991 4289800228
0.01187396 0.0037432089 -0.0089016352 4289669159
0.015888013 -0.0040870234 -0.0017857673 4289734184
0.022291524 -0.020595893 0.013502924 4289734184
0.029408755 -0.03926637 0.030810909 4289734184
0.034868948 -0.051418327 0.041961603 4289276203
0.038599912 -0.0570568 0.046969965 4288687664
0.040939238 -0.057632387 0.047210529 4289014318
-0.013966743 0.0048629344 -0.0090722796 4287706424
-0.012859486 0.0086329058 -0.012903696 4289734694
-0.011301074 0.01021678 -0.014666633 4290258208
-0.0097532831 0.011800066 -0.016427346 4290127393
-0.007886868 0.011927187 -0.016812719 4290127648
-0.0058530867 0.011326805 -0.016512031 4290127904
-0.0038138963 0.010726951 -0.016212409 4289407783
-0.0019419417 0.010854773 -0.016598685 4289342758
-6.9931149e-05 0.0109827 -0.016984891 4289800739
0.001980111 0.010383919 -0.016687257 4289473829
0.003854882 0.010512263 -0.017073862 4289342759
0.0057296902 0.010640711 -0.017460391 4288819243
0.007418517 0.011495583 -0.018528933 4289343013
-0.014401693 0.0047792196 -0.011589747 4286528833
-0.013455436 0.0092902184 -0.016098503 4289277223
-0.011904817 0.01087793 -0.017856579 4289800484
-0.010364816 0.012464985 -0.019612335 4288885034
-0.0089998618 0.014781415 -0.022050748 4290455578
-0.0071495548 0.014907531 -0.022432728 4289998108
-0.0051294006 0.014304195 -0.022130843 4289867804
-0.0031038411 0.013701312 -0.021830004 4290194714
-0.0012480095 0.013828147 -0.022212863 4289541148
0.00078568235 0.013226014 -0.021913482 4288887073
0.0028247461 0.012624402 -0.02161517 4287775274
-0.014835898 0.0047045648 -0.014100587 4286398783
-0.014050268 0.0099609569 -0.019283453 4288689958
-0.016934339 -0.046368949 -0.016513057 4287115843
-0.017354291 -0.046406433 -0.018999189 4286789443
-0.017484594 -0.047992885 -0.02017324 4286724163
-0.011020947 -0.026884466 -0.00064167287 4283197004
-0.010391276 -0.032224625 0.0015457282 4282741064
-0.0097633637 -0.037586302 0.0037171841 4282414153
-0.0095930286 -0.040711991 0.003859885 4282607444
-0.0092591047 -0.037015796 -0.0049601868 4282738259
-0.0087751597 -0.041655697 -0.0034851991 4282085204
-0.010560516 -0.023312964 -0.019853873 4283656514
-0.0090620592 -0.042507529 -0.0053425957 4282084183
-0.0097499825 -0.029438779 -0.017028179 4282804559
-0.0093849376 -0.035646059 -0.016715664 4282541653
-0.01013957 -0.034157939 -0.020520058 4282280279
-0.0112269 -0.019449636 -0.033420585 4283329348
-0.011048589 -0.03188245 -0.024968378 4282215509
-0.011987478 -0.017903171 -0.03717903 4282872388
-0.011955779 -0.029584937 -0.029400337 4282280023
-0.01242993 -0.017882101 -0.039614856 4282218313
-0.013029791 -0.017078273 -0.042697199 4282022729
-0.012206767 -0.023244567 -0.039905529 4281957194
-0.011302058 -0.018462919 -0.044197597 4283004479
-0.010754704 -0.032549053 -0.034533169 4282607189
-0.0093409829 -0.030086361 -0.036872834 4283131469
-0.014131207 -0.050105996 0.050486505 4282012529
-0.012452994 -0.047788866 0.047967769 4282275943
-0.01441022 -0.051096775 0.048521295 4282077553
-0.012734286 -0.048773311 0.046007968 4282209133
-0.014550939 -0.05281245 0.047251567 4281881203
-0.01301517 -0.049753018 0.044051588 4281946994
-0.014967013 -0.053064264 0.044601247 4282012018
-0.013295643 -0.050728075 0.042098723 4281881458
-0.015244789 -0.054040991 0.042646408 4282077808
-0.013715889 -0.050964683 0.039461069 4281881458
-0.015659496 -0.054276831 0.04000783 4282863974
-0.014135368 -0.051192187 0.036830068 4282078064
-0.012204401 -0.050316192 0.035715058 4282209388
-0.014554076 -0.051410675 0.034205809 4282012273
-0.012913458 -0.04905697 0.031724565 4282078318
-0.01497202 -0.051620081 0.031588189 4281881969
-0.013336342 -0.049260229 0.029112967 4281422968
-0.015528675 -0.051077962 0.028295541 4282012784
-0.013758484 -0.049454406 0.026508028 4280243084
-0.011998832 -0.047831491 0.024722824 4282340203
-0.014179848 -0.049639575 0.023909813 4281683578
-0.012425348 -0.048012644 0.022128934 4282143344
-0.014600448 -0.049815662 0.021318251 4281815669
-0.012851082 -0.048184805 0.019541753 4281815924
-0.029123083 -0.051691562 0.022358762 4282863974
-0.027088627 -0.051554814 0.021937298 4282732394
-0.014878679 -0.050731584 0.019409815 4282012273
-0.013276052 -0.048347898 0.016961284 4281750388
-0.011542398 -0.046713606 0.015191387 4282406248
-0.025061563 -0.053832054 0.020963127 4282667114
-0.015439365 -0.050140768 0.016155282 4282601834
-0.013556167 -0.049252756 0.015061684 4281815923
-0.011824965 -0.047614358 0.013295624 4282143088
-0.013979793 -0.049399965 0.012492962 4282077809
-0.012107134 -0.048510447 0.011403318 4281553784
-0.010388982 -0.046868414 0.0096433088 4281095293
-0.01440268 -0.049538076 0.0099308975 4282534769
-0.012681749 -0.047891721 0.0081735514 4281028739
-0.010971393 -0.046245933 0.0064184926 4281882989
-0.014824796 -0.049667194 0.0073755533 4281945463
-0.013109002 -0.048016846 0.0056225695 4281749624
-0.011701599 -0.044852957 0.0025352715 4281815923
-0.015246149 -0.049787283 0.0048268829 4282797164
-0.013535503 -0.048132911 0.0030782074 4282207603
-0.011835419 -0.046479195 0.0013318537 4281881204
-0.0098431185 -0.046344131 0.00092000049 4281949034
-0.013961241 -0.048239991 0.00054058712 4282076788
-0.012414854 -0.045820847 -0.0018665129 4280702339
-0.010430727 -0.045686364 -0.0022767009 4281226874
-0.014240522 -0.049101807 -0.0013263905 4282732139
-0.012844793 -0.045912743 -0.0043915035 4281488759
-0.011017203 -0.045015179 -0.0054634591 4281619573
-0.013274007 -0.045995593 -0.0069098626 4281815669
-0.01175344 -0.043565139 -0.0093015954 4281881969
-0.013702437 -0.046069458 -0.009421506 4282207858
-0.012337532 -0.04286503 -0.01246696 4281488249
-0.010993872 -0.039661914 -0.015507918 4281554039
-0.014573634 -0.043823898 -0.013902318 4282272883
-0.013221513 -0.040611707 -0.016938552 4281029248
-0.012043819 -0.03663104 -0.020627767 4281688169
-0.015295353 -0.042328566 -0.017709807 4281749623
-0.013953339 -0.039108388 -0.020737354 4280767108
-0.013091583 -0.033573695 -0.025728099 4281359219
-0.015868127 -0.041590005 -0.020848818 4282797164
-0.014683701 -0.037587389 -0.024523061 4281290879
-0.013525896 -0.033586457 -0.028191717 4281094529
-0.015997902 -0.04316809 -0.022016626 4283058538
-0.01466278 -0.039931066 -0.025029574 4281290878
-0.013501555 -0.035919085 -0.028690699 4280635784
-0.014642172 -0.042278841 -0.025539044 4282535023
-0.013020173 -0.040591195 -0.02723949 4280767108
-0.011563886 -0.038125843 -0.029588126 4281161084
-0.024911001 -0.053144254 -0.029874695 4282405228
-0.001557529 0.020209774 0.066124447 4285689119
0.0006377697 0.019690428 0.06644503 4285820188
0.0039941072 0.014565546 0.07194107 4285819934
-0.019172519 0.01332362 0.073131092 4285033769
-0.017953698 0.017434951 0.068247676 4285361698
-0.016203631 0.018896844 0.066342302 4285951514
-0.013890196 0.01771142 0.06740842 4285951514
-0.011419725 0.015865371 0.069214053 4285885978
-0.0092307106 0.015343055 0.069533996 4285558303
-0.0073391981 0.016143382 0.068371572 4285427743
-0.0056070909 0.017604332 0.066470183 4285559068
-0.0045130104 0.021707643 0.061612815 4285820954
-0.0028127804 0.023166552 0.059718117 4285689119
-0.00063648447 0.022643693 0.060040928 4285623583
0.0023697689 0.018820252 0.064052127 4285689373
0.006581299 0.010379069 0.073217981 4285754654
-0.02093444 0.019616641 0.062980093 4285559324
-0.019332908 0.021746252 0.060338415 4285623583
-0.017606657 0.02321085 0.058441244 4285557539
-0.015317742 0.022019342 0.059509076 4285754909
-0.012726031 0.019501366 0.062054917 4285754908
-0.010261398 0.017648358 0.063856825 4285689628
-0.008385852 0.018449746 0.062699333 4285689883
-0.0066695288 0.01991399 0.060804464 4285624349
-0.0051204637 0.022040471 0.058173962 4285887253
-0.0035873465 0.024165981 0.055546768 4286018069
-0.001422029 0.023640163 0.055870168 4285886489
0.0012429059 0.021127593 0.058401279 4285886488
0.0051011294 0.013981085 0.066077985 4285952023
-0.022688806 0.015826236 0.064397015 4285296163
-0.021611281 0.020629805 0.058793955 4285559578
-0.019882225 0.022098813 0.056899495 4285821463
-0.018023275 0.022900958 0.055746868 4285755418
-0.015740167 0.021704696 0.056812502 4285886743
-0.013008844 0.018511619 0.060091473 4285886998
-0.010844447 0.017983191 0.060413115 4285689628
-0.0091279782 0.019451674 0.058521509 4285624349
-0.0071144365 0.019588888 0.058105819 4285624349
-0.0055702701 0.021721609 0.055481248 4285624093
-0.0038828626 0.023188308 0.053595789 4285755163
-0.0018823519 0.02332484 0.053182937 4285820954
0.00077641383 0.020803094 0.055708662 4285755164
0.0036239028 0.017618485 0.058964066 4285624093
0.0080272891 0.0084577911 0.068815753 4285624349
-0.021746986 0.018985569 0.057577312 4285427744
-0.020155229 0.021127522 0.054947563 4285624348
-0.018158607 0.021263208 0.054535069 4285821209
-0.016018882 0.020730741 0.054860018 4285755418
-0.013582435 0.018862572 0.056657672 4285689628
-0.011574615 0.018999226 0.056243025 4285624093
-0.009415701 0.018468276 0.056564167 4285624349
-0.0074049234 0.018605266 0.056149013 4285624348
-0.0055503435 0.019409664 0.054999232 4285558558
-0.0038599819 0.020880956 0.053116433 4285558558
-0.0020185485 0.021684594 0.051969461 4285624093
0.00014634058 0.021154393 0.052289642 4285689373
0.0026507415 0.019291412 0.054073684 4285755674
0.0061895549 0.013431124 0.060245872 4285624348
0.011845287 -0.00042058527 0.07518436 4285624348
-0.021747902 0.016670525 0.057098322 4285361954
-0.020153016 0.018819228 0.054472819 4285559069
-0.018153794 0.018955063 0.054059766 4285624604
-0.016154416 0.019090962 0.053646728 4285623838
-0.014154874 0.019226957 0.053233713 4285689629
-0.012007091 0.018692952 0.053555414 4285689628
-0.0095522255 0.016819596 0.055344358 4285689628
-0.0072346218 0.015617147 0.056396373 4285624348
-0.0055307224 0.017093584 0.054514065 4285558813
-0.0039962269 0.019238755 0.051901482 4285624348
-0.0023161881 0.020713713 0.050024204 4285689884
-0.00048258528 0.021519039 0.048880555 4285952279
0.0016794503 0.02098652 0.0491997 4285886489
0.0050336011 0.015774153 0.054629706 4285951514
0.009980537 0.0045489073 0.066618539 4286017049
-0.021345489 0.012331828 0.058823667 4285229864
-0.020151101 0.016506769 0.053994983 4285493788
-0.018429071 0.017988335 0.052111901 4285690394
-0.016717598 0.019469313 0.050231017 4285821464
-0.01501666 0.020949595 0.048352405 4285952278
-0.012734599 0.01974019 0.049408302 4285952278
-0.01014049 0.017187398 0.051927097 4285821209
-0.0078313611 0.015979938 0.052977562 4285689883
-0.0058233254 0.016116757 0.052562989 4285624349
-0.0041324235 0.017596766 0.050686672 4285624348
-0.0026134178 0.019747425 0.048082344 4285820953
-0.00094639137 0.021225944 0.046211071 4285688865
0.0012100078 0.020690825 0.046529695 4285557029
0.0040492304 0.017472927 0.049761891 4285754654
0.0081194714 0.0095625259 0.058085352 4285754399
-0.020697594 0.016890872 0.050579414 4285493789
-0.019262761 0.01972628 0.047234982 4285689884
-0.017564394 0.021210682 0.045360088 4285623583
-0.01573151 0.022019766 0.044219486 4285557284
-0.013312869 0.020130709 0.04600583 4285754909
-0.010727603 0.017568555 0.048519775 4285754908
-0.0085800737 0.017030254 0.048838273 4285623838
-0.0068943724 0.01851416 0.046966277 4285623838
-0.0052192658 0.019997384 0.045096576 4285624093
-0.0037158802 0.022153549 0.042500392 4286018323
-0.0019008331 0.022961929 0.041363865 4286149139
0.00024190545 0.022423681 0.041683622 4286017559
0.0030667298 0.01919385 0.044910461 4286017558
0.006433934 0.013947465 0.050311275 4286279443
0.011763744 0.0013050959 0.063688494 4285820189
-0.021242954 0.017288394 0.047173701 4285427489
-0.020094573 0.021486375 0.04237444 4285821208
-0.018409319 0.022974219 0.040505558 4285754909
-0.016444847 0.023107711 0.040099703 4285557539
-0.014037542 0.0212113 0.041883379 4285689118
-0.011764288 0.019992582 0.042934462 4285952534
-0.0094801784 0.018774625 0.0439834 4285623838
-0.007652007 0.019585874 0.042845584 4285624094
-0.0056708045 0.01972089 0.042436562 4285623838
-0.004172314 0.021883201 0.039846405 4285689374
-0.0023625344 0.022693384 0.038712606 4285885469
-5.9138983e-05 0.021477167 0.039757803 4286081564
0.002593033 0.018911351 0.042251684 4285885214
0.0059533231 0.013647016 0.047640622 4285688608
0.010053866 0.0056863949 0.055917941 4285557283
-0.021787167 0.017699305 0.043777876 4285230118
-0.020924516 0.023268681 0.037530251 4285755674
-0.019110337 0.024080712 0.036396712 4286018069
-0.017011974 0.023534421 0.036721826 4286083858
-0.014465965 0.02095199 0.039230481 4286215183
-0.012348562 0.020407096 0.039551809 4285754909
-0.010072943 0.019184221 0.040599123 4285689628
-0.0082527176 0.019997038 0.039464623 4285755419
-0.0061215572 0.019453358 0.039783254 4285689884
-0.0043064468 0.020265985 0.038649932 4285624093
-0.0024965927 0.021078333 0.037517756 4285623328
-2.7529895e-05 0.019180145 0.03928405 4285425194
-0.021784246 0.01539652 0.043307148 4285098028
-0.021056734 0.02166516 0.036343701 4285558559
-0.01924248 0.022479344 0.035211794 4285623584
-0.016999863 0.021249555 0.036262438 4285557538
-0.014599197 0.01933958 0.038037434 4285557028
-0.012482077 0.018792447 0.038357131 4285556519
-0.010359466 0.01824582 0.038675718 4285556518
-0.0082313828 0.01769964 0.038993239 4285425448
-0.020632945 0.017326735 0.038063809 4285360934
-0.018949565 0.018827386 0.036205247 4285623328
-0.016699389 0.017593756 0.037250936 4285819679
0.0070892014 0.018105488 -0.027525745 4285884449
0.0096965432 0.01531956 -0.025187846 4285819168
0.014069937 0.0059837922 -0.016744737 4285884703
0.021264214 -0.013535649 0.0011801068 4285884703
0.029200489 -0.035227716 0.021108476 4285884703
0.035884101 -0.05181694 0.036263645 4285884703
0.039622501 -0.057489537 0.041244112 4285491493
-0.0086103715 0.019251071 -0.029013319 4285818403
-0.0066119134 0.018644027 -0.028708573 4285818404
-0.0042635165 0.016574338 -0.027041666 4285688354
-0.0022489205 0.015968654 -0.026740134 4285557538
-5.1297247e-05 0.014632192 -0.025759064 4285557793
0.0019767582 0.014027648 -0.025460137 4285623838
0.0034612864 0.015616119 -0.027200487 4285689629
0.0045638494 0.018665366 -0.030296301 4285689373
0.0058333576 0.020982753 -0.03270933 4285820698
0.0082328022 0.018917285 -0.031052319 4285820699
0.012003954 0.011742186 -0.024658017 4286017303
0.017792005 -0.0027285069 -0.011507974 4286083093
0.025478169 -0.023759581 0.0077052284 4286017303
0.033319406 -0.044779792 0.026886562 4286017303
0.038863353 -0.057036527 0.037935853 4286149139
0.041599669 -0.059078082 0.039524041 4285558304
0.044352002 -0.061118424 0.041109025 4285296418
-0.012875713 0.019711077 -0.031410418 4285491748
-0.011547375 0.02203802 -0.033831373 4286016538
-0.009734761 0.022161562 -0.034205578 4286081818
-0.0072444044 0.019349374 -0.03185745 4286147354
-0.0049047023 0.017272517 -0.030193679 4285951769
-0.0028984435 0.016664088 -0.029892076 4285689374
-0.0010642223 0.016789533 -0.030270411 4285624348
0.00077003241 0.016915098 -0.030648664 4285689628
0.0024215281 0.0177738 -0.031704642 4285886488
0.0035113171 0.02083084 -0.034791224 4285689119
0.0049560033 0.022421204 -0.036519915 4285557539
0.0073440596 0.020348433 -0.034865525 4285557794
0.010522101 0.015347674 -0.030511977 4285754654
0.015306851 0.004492566 -0.020765577 4285689373
0.021961294 -0.012944326 -0.0049651316 4285689373
0.030356124 -0.036226347 0.01620058 4285689373
0.037492797 -0.054375403 0.032617368 4285689373
0.040832922 -0.058618754 0.03622257 4285623839
0.043366995 -0.059935004 0.037132107 4285361444
-0.01570417 0.013553768 -0.027668711 4285294123
-0.014977682 0.018836692 -0.032816179 4285623838
-0.013643656 0.021170378 -0.035233393 4285558558
-0.012489486 0.02423963 -0.038327314 4285623839
-0.010357253 0.02288961 -0.037339754 4285557794
-0.0080450214 0.020804249 -0.035675358 4285755164
-0.0055447705 0.017984156 -0.033335801 4285952279
-0.0035468526 0.017372966 -0.03303415 4285755163
-0.0018980466 0.018233445 -0.034088083 4285624349
-7.4628741e-05 0.018358253 -0.034464113 4285624349
0.0015662275 0.019218396 -0.035516247 4285755418
0.0028311871 0.021548405 -0.037918493 4286018578
0.0044560432 0.022407662 -0.038967166 4285886488
0.006456811 0.021797348 -0.038665585 4285755163
0.0094294399 0.017515048 -0.034995086 4285886744
0.01302208 0.011032108 -0.029310804 4285886743
0.018450681 -0.0020545051 -0.017580349 4285821209
0.026794031 -0.025409549 0.0035430733 4285886743
0.035512477 -0.049486414 0.02530315 4285886743
0.039860636 -0.057412438 0.032259874 4285689628
0.042592824 -0.059467137 0.03383904 4285361954
-0.015828017 0.012053534 -0.028778793 4285294123
-0.015417129 0.018829811 -0.035273992 4285558814
-0.014249086 0.021908566 -0.038364261 4285820953
-0.012938637 0.024247311 -0.040771607 4285623584
-0.011145011 0.02436953 -0.041141912 4285623584
-0.0088441372 0.022276886 -0.039480127 4285623583
-0.0061837249 0.018709164 -0.03646804 4285820954
-0.0041941404 0.018095244 -0.036166318 4285755418
-0.0025533102 0.018957321 -0.037216969 4285624349
-0.00091779605 0.019819163 -0.038266428 4285624094
0.00034755096 0.02215559 -0.040663891 4285624093
0.0019670874 0.023016561 -0.041709889 4285820953
0.0035812967 0.023877271 -0.042754702 4285886744
0.0059519485 0.02179027 -0.041106649 4285821209
0.0085317492 0.018967867 -0.038789481 4285689884
0.011524547 0.014673982 -0.035132937 4285624349
0.015938664 0.0052282959 -0.026784023 4285558558
0.023640495 -0.015990466 -0.0077178311 4285558558
0.033127867 -0.043085955 0.016677912 4285624349
0.039509282 -0.058395535 0.030319111 4285558558
0.042238098 -0.060457021 0.031894073 4285427998
0.04477106 -0.061781824 0.032797299 4284966959
-0.015855815 0.01883195 -0.037725136 4285427744
-0.014692526 0.021919057 -0.040807817 4285887253
-0.013387017 0.024263974 -0.043209188 4285887254
-0.01159887 0.024385814 -0.043578371 4285821209
-0.0094729103 0.023026764 -0.042596061 4285886999
-0.0068215467 0.01944752 -0.039590336 4285887253
-0.0046660863 0.018090721 -0.038613938 4285624349
-0.0026767701 0.017474707 -0.038313735 4285624349
-0.0012207739 0.019078482 -0.040035062 4285558558
0.00022454932 0.020681683 -0.041754149 4285624349
0.0016592219 0.022284225 -0.043470904 4285624094
0.0034583881 0.022407703 -0.043841682 4285689373
0.0056380779 0.021053225 -0.042869776 4285624094
0.008021418 0.018960696 -0.041229203 4285623839
0.010420803 0.0168694 -0.039591834 4285624094
0.014224185 0.0096098743 -0.033270132 4285558558
0.020894386 -0.0079821646 -0.017591864 4285558558
0.030340064 -0.03516084 0.0067513287 4285624094
0.037714224 -0.054208413 0.023705868 4285558558
0.0414658 -0.059966654 0.02861766 4285558814
0.043990236 -0.061296433 0.029519377 4285427233
-0.015143611 0.0045923293 -0.026937168 4285294123
-0.015977737 0.017356269 -0.038817022 4285361699
-0.015295897 0.022681832 -0.043920502 4285559069
-0.013507947 0.022803545 -0.044289723 4285690139
-0.011885956 0.02366823 -0.045333527 4285755418
-0.0097631738 0.022304624 -0.044353865 4285689883
-0.0074582547 0.020199317 -0.042702764 4285624093
-0.0051372647 0.018095218 -0.04105489 4285624349
-0.002976913 0.016734511 -0.04008273 4285624349
-0.0011645965 0.01685854 -0.040456489 4285559069
0.00010157749 0.019208059 -0.042844191 4285559069
0.0017212033 0.020073365 -0.043886915 4285624349
0.0033354983 0.020938426 -0.044928439 4285624349
0.005324617 0.020320784 -0.044629432 4285689629
0.0073190853 0.019703634 -0.044331424 4285689629
0.0095143355 0.01834606 -0.043365818 4285689374
0.012908861 0.012545306 -0.038394079 4285623583
0.018956164 -0.0028787404 -0.024753705 4285623583
0.035716001 -0.049245894 0.016452264 4285820698
0.04090343 -0.060202837 0.026017034 4285820954
0.043421976 -0.061537325 0.026916625 4285492769
-0.015941806 0.015135311 -0.03923399 4285361699
-0.015256166 0.020476289 -0.044326715 4285493533
-0.013628848 0.021343395 -0.045370042 4285559069
-0.011675134 0.020720161 -0.045066141 4285558303
-0.0098845214 0.020842258 -0.045435764 4285624094
-0.0077514797 0.019475076 -0.044461399 4285624093
-0.0056077018 0.018108781 -0.04348921 4285624093
-0.0031001307 0.015254639 -0.041177467 4285624349
-0.0012879483 0.015378673 -0.041551188 4285624348
0.00034238398 0.016246777 -0.042594545 4285624604
0.0017828457 0.017858431 -0.044305936 4285624348
0.0033998601 0.018725846 -0.045346372 4285690139
0.0046317391 0.021079842 -0.047721818 4285755419
0.0064253062 0.021203164 -0.048091263 4285952533
0.0086093619 0.019840486 -0.047126651 4286018069
0.011793662 0.014764413 -0.042832054 4285886233
0.016620092 0.0037495717 -0.033218019 4286017303
0.024372328 -0.017654426 -0.014305858 4285951768
0.033103302 -0.042016804 0.0072336234 4285951768
0.03971599 -0.058203578 0.021430423 4286017303
0.042854488 -0.061769187 0.024320619 4285820443
-0.015056442 0.017519038 -0.044063374 4285427998
-0.013423737 0.01838873 -0.045106217 4285559324
-0.01196197 0.020005327 -0.04681927 4285689884
-0.010342497 0.020874288 -0.047859162 4285886744
-0.0083863176 0.020249259 -0.047557265 4285886744
-0.0059037022 0.017384626 -0.04524707 4285952278
-0.0037523657 0.016014609 -0.044279665 4285821209
-0.0017693117 0.015391722 -0.043982998 4285689884
-0.00014429912 0.016261663 -0.045023657 4285624093
0.001659777 0.016385373 -0.045395531 4285624349
0.0030898042 0.018000718 -0.047101334 4285755419
0.0043194219 0.020361073 -0.049471356 4285755164
0.0057254061 0.021974996 -0.05117204 4285689374
0.0080959834 0.01986222 -0.049543664 4285557538
0.010878071 0.016260508 -0.046588801 4285754908
0.015290087 0.006701991 -0.038325325 4285820698
0.02139621 -0.0088090599 -0.0247663 4285886488
0.030083548 -0.033246055 -0.0032723462 4285820698
0.038113557 -0.054693542 0.01553495 4285820698
0.042287752 -0.061991975 0.021731319 4285886489
0.044591434 -0.06259115 0.021963136 4285296163
0.046683967 -0.062446088 0.021533018 4285098794
-0.014376994 0.01230403 -0.04179357 4284966448
-0.013544932 0.01692478 -0.04618936 4285559324
-0.012082942 0.018545736 -0.047899157 4285689883
-0.010799732 0.020915356 -0.050275959 4285952533
-0.0088492073 0.02028773 -0.049974501 4285755163
-0.0065462999 0.018162902 -0.048337817 4285952534
-0.0042273141 0.016039222 -0.04670433 4286149649
-0.0026076175 0.016910825 -0.04774227 4285755419
-0.00081172585 0.01703383 -0.048112564 4285624093
0.00098419562 0.017156985 -0.048482753 4285558558
0.002593264 0.018028233 -0.049518295 4285689883
0.0038179606 0.020394705 -0.051882304 4285952534
0.0050266162 0.022760253 -0.054242954 4285623329
0.0071936212 0.021387722 -0.053281434 4285557794
0.0097663961 0.018521659 -0.050995693 4285623839
0.013361651 0.011921942 -0.045400985 4285558303
0.018019462 0.0015914142 -0.036505569 4285559068
0.025630008 -0.019187249 -0.018363735 4285624093
0.035264313 -0.046673797 0.0056963526 4285558303
0.041299947 -0.060713097 0.017827796 4285559068
0.043592595 -0.061315209 0.018060232 4285427488
0.045890532 -0.061916813 0.018291676 4285032748
-0.013828713 0.016212903 -0.047941022 4285427489
-0.01286507 0.020092841 -0.051651612 4285820954
-0.011256203 0.020965401 -0.052686036 4285623328
-0.0094819888 0.02108648 -0.053052194 4285557538
-0.0071877763 0.018954493 -0.051418632 4285623329
-0.0050534829 0.017574634 -0.050454326 4285755164
-0.0032657795 0.017696969 -0.050823011 4285755163
-0.001659371 0.018569939 -0.051856481 4285558558
0.00030971691 0.017942019 -0.051560119 4285624349
0.0017241463 0.019564971 -0.053256102 4285558558
0.0033172444 0.020437408 -0.054286622 4285821719
0.0045209713 0.022809062 -0.056641273 4285887253
0.0064874254 0.022181418 -0.056344017 4285821463
0.0088539608 0.020055436 -0.054724567 4285821718
0.012036655 0.014933825 -0.050464228 4285756184
0.015864879 0.0075677708 -0.044230036 4285493534
0.022211112 -0.0087806955 -0.030087488 4285493534
0.032003749 -0.037099563 -0.0054188706 4285625113
0.039892174 -0.057919443 0.012619721 4285625113
0.043022037 -0.061518013 0.015487054 4285427744
0.045098215 -0.061374098 0.015060281 4285361953
-0.01459945 0.01776756 -0.051690683 4285361699
-0.013480604 0.020903856 -0.054724358 4285886999
-0.012047503 0.022531673 -0.056421548 4285886998
-0.010284111 0.022652008 -0.056785472 4285754909
-0.0081744008 0.021265961 -0.055819444 4285755163
-0.0057023689 0.018374715 -0.053526849 4285886998
-0.0037443414 0.017743595 -0.05322998 4285755419
-0.0021432452 0.018618409 -0.054260753 4285624349
-0.00054746121 0.019492913 -0.055290312 4285624349
0.00085650757 0.021119494 -0.056980833 4285558558
0.0022497848 0.02274549 -0.058669128 4285558558
0.0038242377 0.023618877 -0.059694022 4285624093
0.0057823509 0.022988506 -0.059396692 4285624093
0.0083373599 0.020103823 -0.05712045 4285558559
0.01091373 0.017220739 -0.054848522 4285493024
0.014321569 0.011334352 -0.049945407 4285427743
0.02002931 -0.0028102696 -0.037809439 4285427743
0.038486645 -0.055099353 0.0074312855 4285493024
0.042452253 -0.061711848 0.012920586 4285427744
0.044738807 -0.062318563 0.013151089 4285361954
-0.014583614 0.0071183816 -0.04440479 4285097774
-0.015206426 0.018583778 -0.054761663 4285427743
-0.014589839 0.023996197 -0.05978217 4285821464
-0.012837328 0.024115663 -0.060143948 4285952534
-0.011084761 0.024235267 -0.060505636 4285952533
-0.0088132955 0.022088692 -0.058877304 4285821464
-0.0063501298 0.019188147 -0.056589425 4285755929
-0.004400447 0.018554326 -0.056292534 4285558558
-0.0029882789 0.020185549 -0.05798164 4285558814
-0.0012195073 0.020306826 -0.058346242 4285558814
0.00036296621 0.021182764 -0.059371352 4285559068
0.0021291003 0.021304086 -0.059735239 4285559068
0.0040869005 0.02067133 -0.059439555 4285493278
0.0060500428 0.020039145 -0.059144907 4285493279
0.0084125102 0.017899912 -0.057534568 4285559069
0.010791015 0.015761841 -0.055927418 4285361698
0.013994902 0.010611419 -0.051694416 4285295653
0.019286299 -0.0020684078 -0.040901963 4285361444
0.037504055 -0.053758413 0.0035736505 4285427234
0.042309273 -0.063401937 0.011670934 4285361444
0.044595487 -0.064010829 0.011899864 4285361188
-0.015326053 0.01713841 -0.055831067 4285296164
-0.014873091 0.023324195 -0.061503612 4285493533
-0.013290815 0.024201427 -0.062527604 4285624604
-0.011203539 0.022805106 -0.061563678 4285558558
-0.0089327544 0.020651985 -0.059940159 4285624348
-0.0066458955 0.018500097 -0.058319852 4285558813
-0.0046992078 0.017863911 -0.058023989 4285559069
-0.0029279292 0.017985228 -0.058389209 4285559068
-0.0011566244 0.018106665 -0.05875434 4285559068
0.00080082566 0.017471571 -0.058460437 4285559069
0.0027636327 0.016836945 -0.058167554 4285624859
0.0047317855 0.016202796 -0.057875693 4285690649
0.0067052953 0.015569102 -0.057584785 4285624349
0.009077765 0.013424058 -0.055981457 4285624858
0.010867797 0.01354748 -0.056349918 4285624348
0.013870774 0.0091375187 -0.052784368 4285492514
0.018749248 -0.0020685866 -0.043329459 4285492514
0.036733143 -0.053154774 0.00038318615 4285558304
0.04174063 -0.063582048 0.0091146175 4285492514
0.044236667 -0.064948112 0.0099959765 4285361188
-0.014662236 0.020375885 -0.061236426 4285361954
-0.013074577 0.02125565 -0.062259883 4285559069
-0.01098245 0.019855279 -0.061300218 4285559068
-0.0085344128 0.016936209 -0.059022523 4285558813
-0.0067660101 0.017057113 -0.059387311 4285559068
-0.0046417192 0.015659321 -0.058434069 4285625114
-0.0028679147 0.015780818 -0.058799811 4285624603
-0.00036098063 0.012866251 -0.056533895 4285690139
0.0017954446 0.011471014 -0.055587009 4285690393
0.0037739538 0.010835301 -0.055299014 4285689884
0.0055665299 0.010958567 -0.05566825 4285557794
0.0075530708 0.010323588 -0.055381685 4285492004
0.0097415745 0.0089310259 -0.05444105 4285492259
0.011741452 0.0082972571 -0.054157086 4285492259
0.014352586 0.0053906888 -0.05191201 4285426468
0.01944083 -0.0066051856 -0.041829385 4285426468
0.036173329 -0.053294882 -0.0021450268 4285426468
0.040747415 -0.062239036 0.005261315 4285492259
0.043232232 -0.063610226 0.0061416794 4285228843
-0.013630081 0.013606604 -0.057674773 4285295654
-0.012190752 0.015252102 -0.059360035 4285492768
-0.010083113 0.013848495 -0.058406912 4285492769
-0.0079647414 0.012445729 -0.057455927 4285492769
-0.0060107112 0.011805549 -0.05716493 4285558304
-0.0040513128 0.011165883 -0.056875005 4285558049
-0.0022669658 0.011288106 -0.057242908 4285558303
0.00024978071 0.0083655491 -0.05498562 4285558303
0.0022306219 0.0077277012 -0.054699846 4285558304
0.0042168163 0.007090345 -0.054415092 4285558049
0.0062083639 0.006453488 -0.054131329 4285492259
0.0082052685 0.0058170632 -0.053848542 4285492259
0.010403939 0.0044208765 -0.052913301 4285426469
0.012414176 0.0037856475 -0.052633114 4285426213
0.015035113 0.00087107718 -0.050396673 4285360678
0.019722024 -0.0096394122 -0.041645773 4285360678
0.035614282 -0.053426012 -0.0046665343 4285360678
0.039543226 -0.060119078 0.00077092089 4285360424
-0.013093073 0.0091011412 -0.056111068 4285295398
-0.011642855 0.01075175 -0.057795331 4285361443
-0.0095250271 0.0093444698 -0.056847565 4285426723
-0.007224258 0.0071739256 -0.055245124 4285426468
-0.0052571967 0.0065324754 -0.054958463 4285492259
-0.0031072088 0.0051277578 -0.054017127 4285558304
-0.0013069697 0.0052510649 -0.054388314 4285558304
0.0010420159 0.0030842721 -0.052795403 4285558049
0.0030358806 0.0024451613 -0.052513957 4285492514
0.0046586022 0.0033325925 -0.053540632 4285492258
0.0064669177 0.0034569129 -0.053913124 4285492004
0.0084688179 0.002818726 -0.053633057 4285426214
0.010672323 0.0014185458 -0.052702099 4285426214
0.012687579 0.00078143924 -0.052424572 4285426214
0.015312981 -0.0021414608 -0.050195612 4285360934
0.020615345 -0.014967859 -0.039517581 4285360678
0.03568485 -0.055832759 -0.0052338815 4285360678
0.038977761 -0.060261101 -0.0017572995 4285229098
-0.012229428 0.0030448139 -0.05324626 4285228843
-0.011096366 0.0062342323 -0.056243248 4285361189
-0.0089683644 0.0048232898 -0.055300899 4285426468
-0.006829638 0.0034132153 -0.054360732 4285426469
-0.0045054704 0.0012378693 -0.052767925 4285426469
-0.0026974045 0.0013615936 -0.053140812 4285426468
-0.00070925057 0.00071968883 -0.052860022 4285426468
0.0011015423 0.00084383786 -0.053233288 4285492259
0.0030977502 0.0002027154 -0.052953973 4285492259
0.0045351088 0.0018577054 -0.054631501 4285492259
0.0067247525 0.00045198202 -0.053701177 4285426213
0.0085382536 0.0005768016 -0.054074645 4285426214
0.010743931 -0.00082762539 -0.05314739 4285360934
0.012761515 -0.0014666468 -0.05287201 4285295143
0.015590128 -0.0051623881 -0.050000831 4285360933
0.02089457 -0.018025503 -0.03935121 4285360933
0.0353362 -0.056716099 -0.0070993095 4285295398
0.038625173 -0.061157703 -0.0036318097 4285294889
-0.012351032 0.0015768483 -0.054332361 4285163564
-0.010884345 0.0032372028 -0.056013376 4285426979
-0.0087515116 0.0018223077 -0.055075355 4285360934
-0.0067798235 0.0011767372 -0.054793105 4285426469
-0.0046282038 -0.00023669004 -0.05385875 4285426469
-0.002465874 -0.0016492009 -0.052926525 4285426469
-0.00029283017 -0.003060922 -0.05199641 4285360678
0.0015258268 -0.0029362366 -0.052371301 4285426469
0.0033445023 -0.0028114244 -0.052746102 4285426723
0.005163189 -0.0026864931 -0.053120814 4285492259
0.007362999 -0.0040958375 -0.052195869 4285426468
0.0093802698 -0.0047372878 -0.051922262 4285294888
0.011598781 -0.0061451718 -0.05100096 4285294888
0.013827953 -0.0075521246 -0.050081782 4285294888
0.017074009 -0.012790628 -0.04592672 4285294888
0.03540644 -0.059126556 -0.0076694135 4285295399
0.038484886 -0.062815353 -0.0048574824 4285098029
