# .PCD v0.7 - Point Cloud Data file format
VERSION 0.7
FIELDS x y z rgba
SIZE 4 4 4 4
TYPE F F F U
COUNT 1 1 1 1
WIDTH 976
HEIGHT 1
VIEWPOINT 0 0 0 1 0 0 0
POINTS 976
DATA ascii
0.016392887 0.013941213 -0.010131516 4289735459
0.018628208 0.012588874 -0.0090953838 4289473829
0.021378502 0.0090431422 -0.0060207974 4289342503
0.023814181 0.0069615766 -0.0043099727 4289408293
0.026092557 0.0056120604 -0.0032809395 4289081638
0.028557828 0.0035323948 -0.0015749489 4289279008
0.03282766 -0.0058537871 0.0069106957 4288297513
-0.011884686 -0.015970081 0.018976934 4287119923
-0.010242533 -0.013646573 0.016573962 4287183929
-0.00886067 -0.0098514855 0.012801353 4287313978
-0.0078800805 -0.0038497299 0.006976069 4287575864
-0.0070700012 0.0028856248 0.00047287904 4287903028
-0.0060479008 0.0081468374 -0.0046522226 4287968563
-0.0046647266 0.011199236 -0.0077175698 4288949804
-0.0027606525 0.0113088 -0.0080433656 4289407529
-0.00085651502 0.01141848 -0.0083690863 4289341993
0.00062475353 0.013733577 -0.010743793 4289734949
0.0023772418 0.014578007 -0.01175058 4289669413
0.0042707659 0.014687397 -0.012074235 4289277223
0.0067605637 0.011858284 -0.0096712317 4289996578
0.0086649284 0.011968508 -0.0099965762 4290389279
0.010569327 0.012078851 -0.010321837 4289407783
0.012316596 0.012923472 -0.011327272 4289408039
0.013898663 0.014501907 -0.013011502 4289342504
0.015632479 0.01534602 -0.014014504 4289408549
0.017691359 0.014722418 -0.013658684 4289408549
0.020091431 0.012632195 -0.011946902 4289147174
0.02182523 0.01347658 -0.01294961 4289737243
-0.0087292492 -0.012919009 0.012958758 4287314234
-0.0073682033 -0.0091142505 0.0091981515 4287183163
-0.00641606 -0.0030967295 0.0033911774 4287706933
-0.005636964 0.0036563203 -0.0030915649 4287576374
-0.0046407692 0.0089312382 -0.0082004331 4288034353
-0.0031404458 0.011253677 -0.010573547 4288949804
-0.0013799593 0.012100462 -0.011580151 4289342249
9.3542039e-05 0.014421616 -0.013948552 4290192929
0.0016944669 0.01600479 -0.015633166 4289473318
0.0037232935 0.015376586 -0.015274511 4289146408
0.0060553439 0.013275187 -0.013556732 4289211689
0.0081004053 0.012648083 -0.013200648 4289734948
0.0099965781 0.012757953 -0.013524506 4289996578
0.011892777 0.012867931 -0.013848279 4289473319
0.013469618 0.014450416 -0.015528308 4289146664
0.015035713 0.016032338 -0.017206375 4289017634
0.016921146 0.016142011 -0.017528065 4289871629
-0.0089638717 -0.013773307 0.011060912 4287249973
-0.0072313547 -0.012178987 0.0093564801 4287248954
-0.0058911182 -0.0083645359 0.0056078928 4287706423
-0.0050973184 -0.0015912503 -0.00086230319 4287576118
-0.0042193085 0.0044394657 -0.0066430215 4287706678
-0.0031137504 0.0089882761 -0.011054978 4288361264
-0.0017644875 0.012056172 -0.014100967 4288884269
-0.00043670461 0.01512292 -0.017143212 4289865763
0.0012996793 0.015970681 -0.018143855 4290389279
0.0031767674 0.016079109 -0.018464712 4290389279
0.0053513944 0.014709659 -0.017428774 4290127904
0.0069310591 0.016296301 -0.019106183 4290127648
0.00849998 0.017882355 -0.020781651 4289342758
0.010058135 0.019467961 -0.022455223 4289146919
0.01192458 0.019576315 -0.022773843 4288820264
-0.0056217834 -0.012168951 0.0064475909 4287576628
-0.0045591742 -0.0068601817 0.0013507018 4287445048
-0.0036666207 -0.00081139803 -0.0044191265 4287379769
-0.0028170608 0.0052349642 -0.010181477 4287576118
-0.0018727072 0.010537267 -0.015257876 4287968563
-0.00068495795 0.01435427 -0.01897157 4289211944
0.00090553239 0.015945449 -0.020647708 4289408294
0.0027771071 0.01605355 -0.020967629 4289408294
0.0046487115 0.016161766 -0.021287464 4289408804
0.0060664862 0.01849306 -0.023635956 4290194969
-0.0056071244 -0.014496922 0.0059201382 4287577648
-0.0040225312 -0.012150452 0.0035474338 4287380534
-0.002983138 -0.0068278909 -0.0015336568 4287118139
-0.0021163449 -0.00076325238 -0.0072856015 4287248954
-0.0014302284 0.0060429499 -0.01370698 4287641654
-0.00051179901 0.011358883 -0.018767117 4288491568
0.00065508857 0.015185602 -0.02246883 4289146664
0.0022323318 0.016780436 -0.024139276 4289670433
0.0039472878 0.017631471 -0.025132749 4288692254
-0.0038756952 -0.0152224 0.0036980808 4287249974
-0.0025657304 -0.011377186 -2.0068139e-05 4287117883
-0.0016870759 -0.0052946359 -0.0057606613 4287117883
-0.00071392953 3.9450824e-05 -0.010818572 4287314233
-5.8818609e-05 0.0068633556 -0.017219501 4287707189
0.00054787844 0.013684556 -0.023612078 4288365343
-0.002413474 -0.014446348 0.00013148785 4286922554
-0.001259014 -0.0098430514 -0.0042486894 4287248955
5.6624413e-07 -0.0059897378 -0.0079496661 4287183419
0.00053301081 0.0016026646 -0.015011691 4287380279
0.00086893141 0.0099399723 -0.022737052 4288035374
-0.0011011809 -0.012907289 -0.0040944964 4286921789
0.00030161068 -0.0097932816 -0.0071162092 4287117883
0.0011233427 -0.0036793947 -0.012820086 4287249464
0.0013316795 0.0054325983 -0.021200674 4287904813
0.00032766908 -0.012104407 -0.0076329596 4286987834
0.0015723929 -0.0082302615 -0.011314625 4287380279
0.0020780824 -0.00059628487 -0.018338494 4287447088
0.0016014911 -0.010534473 -0.011826655 4287380279
0.0023958273 -0.004387565 -0.01749903 4287970859
-0.018931486 -0.042632625 0.006202993 4287052603
-0.01893831 -0.045016482 0.0056367451 4287641144
-0.017469652 -0.041055679 0.0019741664 4287052604
-0.019051641 -0.046632826 0.0044052238 4287314234
-0.017364539 -0.044204086 0.0020744065 4286790974
-0.015917592 -0.042605788 -0.002134616 4286529343
-0.014036607 -0.041718774 -0.0031359629 4286594879
-0.015807487 -0.045757547 -0.0020381389 4286660158
-0.014149126 -0.043317303 -0.0043538199 4287314743
-0.012623489 -0.040102586 -0.0073237815 4286397763
-0.015809104 -0.048139989 -0.0026043309 4287181889
-0.014147751 -0.045693085 -0.0049155606 4286593603
-0.012502447 -0.043246984 -0.0072239516 4286462788
-0.012614757 -0.044840626 -0.0084380498 4286463299
-0.01098517 -0.042388916 -0.010738614 4286528578
-0.01272703 -0.046433955 -0.0096519096 4286528068
-0.010859299 -0.045538887 -0.010644148 4286986303
-0.0092400759 -0.043081149 -0.012937864 4286854978
-0.0093520358 -0.044665605 -0.0141449 4286725183
-0.0076244101 -0.042985655 -0.015781658 4286790718
-0.0061611459 -0.039739646 -0.018713845 4286985793
-0.011321012 -0.047148675 -0.014364696 4286267204
-0.0095852725 -0.045464069 -0.01599966 4286660158
-0.0078601912 -0.043779954 -0.017632645 4287314999
-0.0061457977 -0.042096302 -0.019263737 4287838004
-0.0098181739 -0.046257891 -0.017850898 4286593603
-0.00772411 -0.046932787 -0.017542604 4287314489
-0.0058776587 -0.046032116 -0.018525891 4288885033
-0.0041657388 -0.044344202 -0.020153143 4287707444
-0.0079596937 -0.047724374 -0.019391522 4287052349
-0.005989559 -0.04761143 -0.019728944 4288492333
-0.0040193498 -0.04749836 -0.020066295 4287969073
-0.0025761016 -0.044227503 -0.022974849 4287510584
-0.0061014295 -0.049190439 -0.020931777 4287508799
-0.030930556 -0.010726251 0.050286204 4284573238
-0.031134851 -0.011661984 0.04831852 4283854394
-0.031338781 -0.012593128 0.046354335 4282348363
-0.029843733 -0.0081787929 0.041753743 4283722558
-0.031188354 -0.016394414 0.047222044 4282152268
-0.029593237 -0.012685247 0.043336648 4282283338
-0.027649313 -0.011851065 0.042280655 4283723068
-0.032412335 -0.026093386 0.054081064 4282869329
-0.030950412 -0.020929329 0.048785545 4282152268
-0.02925285 -0.017929457 0.045611531 4282283338
-0.027482882 -0.015651286 0.043145824 4282415174
-0.02553606 -0.014814682 0.042091016 4282415428
-0.030713618 -0.025481276 0.050336044 4282217038
-0.029186577 -0.021026425 0.045760114 4282479179
-0.027598061 -0.017296024 0.04189264 4282283339
-0.02584374 -0.015012167 0.039434653 4282088008
-0.023808509 -0.0148964 0.03908537 4283787329
-0.030565992 -0.02932509 0.051171403 4282282064
-0.029120833 -0.024131753 0.045902248 4282217548
-0.027619734 -0.01966536 0.04134088 4282087243
-0.026054636 -0.01592543 0.037485864 4281826124
-0.024219841 -0.014360659 0.035736393 4282415684
-0.029146232 -0.026518248 0.04533796 4282020688
-0.027548388 -0.022765785 0.041485608 4282152269
-0.025977261 -0.019014753 0.037637912 4281891403
-0.024136908 -0.01744543 0.035890866 4281826379
-0.022104442 -0.01732979 0.035542086 4282153289
-0.028810129 -0.031826295 0.047564168 4282346324
-0.027384453 -0.026603855 0.042321898 4282086224
-0.025708809 -0.023570657 0.039178524 4281631048
-0.024251543 -0.019080721 0.034644905 4281695819
-0.022522807 -0.016778789 0.032206476 4282087499
-0.020706162 -0.015206322 0.030466992 4282872645
-0.02731432 -0.029723197 0.042452198 4282672723
-0.025824152 -0.025218599 0.037922882 4281955153
-0.024169408 -0.022177875 0.034789849 4282087243
-0.022839144 -0.016945481 0.029575918 4282218568
-0.021131456 -0.014638208 0.027146183 4282218823
-0.019014053 -0.015254244 0.027495176 4283592763
-0.025843941 -0.02759964 0.037361611 4282085714
-0.024382412 -0.023083635 0.032847341 4281956684
-0.022953019 -0.01856938 0.028338641 4282153543
-0.021348611 -0.015522711 0.025221087 4282283849
-0.019446723 -0.014675543 0.024184264 4283591998
-0.024497025 -0.024720207 0.031600375 4281368144
-0.023066863 -0.020192988 0.02710158 4282088774
-0.021461964 -0.017137691 0.023990627 4282415940
-0.019666187 -0.0155534 0.022264756 4283920948
-0.024709478 -0.025618881 0.02966325 4281168989
-0.023180634 -0.021816298 0.025864746 4281697349
-0.021471977 -0.019489639 0.023449872 4282284868
-0.019673347 -0.017900944 0.021726878 4283789623
-0.01777669 -0.017049655 0.020694301 4284705328
-0.021379121 -0.022585057 0.02359385 4282021454
-0.019574955 -0.020991758 0.021873236 4284247604
-0.021389797 -0.024947271 0.023045328 4281626969
-0.019582771 -0.023349464 0.021327522 4282610759
-0.01980187 -0.024224028 0.019410584 4284180284
-0.003164053 -0.014586627 -0.00495423 4284183089
-0.0054841638 -0.01475516 -0.0071537718 4284640048
-0.0035383701 -0.014643401 -0.0074868686 4283658808
-0.0053376257 -0.017832033 -0.007006966 4284313138
-0.0036493093 -0.016205579 -0.0086768158 4282809404
-0.0019716993 -0.014579579 -0.010344781 4282152524
-0.00016803667 -0.013711013 -0.011343781 4282546754
-0.0053201765 -0.02015774 -0.0075332713 4284181813
-0.0036290213 -0.018526837 -0.0092002749 4282613054
-0.0019485503 -0.016896427 -0.010865349 4282087498
-0.00041538477 -0.014507428 -0.013193905 4282219589
0.0011016987 -0.012119219 -0.015519606 4284311609
-0.0053030029 -0.022487506 -0.0080625908 4283723324
-0.0036090016 -0.020852096 -0.0097267749 4282416448
-0.0021931827 -0.017694458 -0.012717392 4281631813
-0.0007988289 -0.01453793 -0.015704243 4281696839
0.00085231289 -0.012904674 -0.017360784 4282154054
0.0024927445 -0.011271909 -0.019015381 4284248624
-0.0055425316 -0.02329354 -0.0099219577 4283265088
-0.0037201643 -0.022417717 -0.010919352 4281958468
-0.0021702871 -0.020015016 -0.013240796 4281957703
-0.00063649938 -0.017613083 -0.015559439 4281761609
0.00088120624 -0.015211947 -0.017875226 4281761864
0.0022411495 -0.012048557 -0.020849314 4282678333
0.0038683265 -0.010412149 -0.022498226 4284115513
-0.0057817176 -0.024094984 -0.011777756 4281824083
-0.0039620474 -0.023217186 -0.012773034 4281564238
-0.0024145544 -0.020808123 -0.015089091 4281761098
-0.00074701384 -0.019165456 -0.016741857 4281761098
0.00090981647 -0.017523229 -0.018392725 4281696073
0.0022729225 -0.014351115 -0.021360638 4281761098
0.0039029419 -0.012710184 -0.023006732 4282219080
0.00552224 -0.011069804 -0.024650853 4284311608
-0.0025251955 -0.02236452 -0.016274609 4281562454
-0.0005855523 -0.022252917 -0.016606502 4281694034
0.00093815476 -0.019838586 -0.018913258 4281890638
0.002304405 -0.016657658 -0.02187508 4281629009
0.0039372742 -0.015012264 -0.023518313 4282022729
0.0055594221 -0.013367422 -0.025159588 4283332663
0.0073202625 -0.012489982 -0.026142452 4284442934
-0.0026358068 -0.023920618 -0.017459903 4281233503
-0.00069631636 -0.023809031 -0.017791767 4281693269
0.00082769617 -0.021388225 -0.020093568 4281759314
0.0024768077 -0.019737743 -0.021736357 4281694034
0.0041152164 -0.018087789 -0.023377161 4281956939
0.0055963099 -0.015669078 -0.025671387 4282350405
0.0070612915 -0.013251156 -0.027962761 4283528249
0.00085561723 -0.023709431 -0.020618625 4281628754
0.0023665242 -0.021282777 -0.022913121 4281695054
0.0038613491 -0.018856987 -0.025204735 4281826888
0.0053400658 -0.016431943 -0.027493535 4281697349
0.0069517829 -0.014778949 -0.0291263 4281763393
0.0087045841 -0.013897553 -0.030104347 4283724853
0.00060685351 -0.024486624 -0.022453513 4281432404
0.0022562742 -0.022827536 -0.024089675 4281500999
0.0037514009 -0.020395264 -0.026376327 4281501764
0.0052304231 -0.017963775 -0.02866018 4281631304
0.0066933334 -0.015533097 -0.030941181 4281696328
0.0084434412 -0.014649704 -0.031917099 4282415938
0.010188185 -0.013766512 -0.032892026 4283789878
0.0020053014 -0.023595981 -0.025917292 4281102178
0.003641475 -0.021933258 -0.0275477 4281629009
0.0051208064 -0.019495308 -0.029826598 4281694543
0.0065840222 -0.017058149 -0.032102641 4281825614
0.0081826374 -0.015397236 -0.033726346 4282022473
0.010078881 -0.01528728 -0.034050152 4282284103
0.011661369 -0.013627008 -0.035670951 4283984699
0.0038181245 -0.025026992 -0.027420493 4281365338
0.0051571727 -0.021804392 -0.030344063 4281693523
0.0063260831 -0.017805241 -0.033912152 4281890383
0.0080735013 -0.016917728 -0.034884285 4282022473
0.0099695884 -0.016807772 -0.035208058 4282219080
0.01186569 -0.016697697 -0.035531733 4282676294
0.013283558 -0.014256231 -0.037794642 4283984188
0.0051932558 -0.0241175 -0.0308646 4281363809
0.0062169731 -0.019327566 -0.035071526 4281693778
0.0078132041 -0.017658204 -0.036688156 4281694798
0.009706445 -0.017548442 -0.037011459 4281826124
0.011756271 -0.018217899 -0.036689389 4282153034
0.013492964 -0.017328486 -0.037657738 4282283339
0.014252599 -0.011764742 -0.042491116 4284115769
0.0064045712 -0.022413649 -0.034940742 4281562454
0.0080063306 -0.020739667 -0.036554974 4281694798
0.010058518 -0.021411285 -0.036235098 4281956429
0.012741752 -0.025208652 -0.033341572 4281891148
0.014815472 -0.025878817 -0.033025134 4282021454
0.015762035 -0.021079794 -0.03720843 4282217038
0.0073325336 -0.029428966 -0.031599522 4281103964
0.0088023841 -0.026965544 -0.033856586 4281431894
0.011023968 -0.028422289 -0.032898605 4281956173
0.014193861 -0.034580499 -0.028090561 4281956173
0.016929943 -0.038385406 -0.025214301 4282150738
0.012754329 -0.039393201 -0.026380977 4281955408
0.015798986 -0.04478094 -0.022231858 4282086478
-0.026094861 -0.033287168 0.03428093 4282208878
-0.024726063 -0.027992427 0.029107127 4280440709
-0.023093462 -0.024918467 0.026004698 4280900984
-0.026400022 -0.033453822 0.031647984 4282011763
-0.024938107 -0.028886184 0.027173739 4280439944
-0.023307733 -0.02580376 0.024078369 4280702084
-0.026609778 -0.034355737 0.02970776 4281487994
-0.025052346 -0.030519374 0.025929324 4280046479
-0.023421496 -0.027428336 0.022840552 4279719314
-0.026913792 -0.034506604 0.027086746 4281291644
-0.025361113 -0.030659765 0.023317482 4279718803
-0.023735195 -0.02756042 0.020236226 4278670243
-0.021822624 -0.02669996 0.019207424 4279128733
-0.026744872 -0.038391307 0.027885735 4281356924
-0.025280669 -0.033784837 0.023441173 4279784338
-0.023648888 -0.030676559 0.02036559 4278866848
-0.021935962 -0.028317451 0.017975008 4279653013
-0.02023904 -0.025959209 0.015587287 4281291899
-0.025200754 -0.036918208 0.023558453 4280112014
-0.023762502 -0.032300219 0.019128447 4278866849
-0.022151649 -0.029184408 0.016063238 4279587478
-0.020352028 -0.02756995 0.014360046 4280243338
-0.018347532 -0.027455851 0.01401611 4280898433
-0.024927713 -0.041565396 0.025027137 4282079339
-0.023677029 -0.035428688 0.019248335 4279259803
-0.022162534 -0.031551555 0.015510855 4279914899
-0.020464987 -0.029180378 0.013133043 4279980943
-0.018460631 -0.029066309 0.01278911 4280308619
-0.016676743 -0.027448162 0.011092102 4282012783
-0.023492701 -0.039320253 0.020038662 4281880439
-0.022275746 -0.033168137 0.014279122 4280307599
-0.02047313 -0.031544939 0.01258208 4280177294
-0.018573679 -0.030676469 0.011562331 4280046223
-0.016789634 -0.029054031 0.0098686311 4280308620
-0.015016202 -0.027432129 0.0081768762 4280832898
-0.021777406 -0.039324835 0.017095523 4280897923
-0.020376928 -0.034670077 0.012702243 4280504714
-0.018793993 -0.031529844 0.0096620303 4280111503
-0.017122451 -0.029147044 0.00729887 4280111503
-0.015354261 -0.027521119 0.005611307 4280111758
-0.013712075 -0.025139742 0.0032533696 4282472039
-0.020385742 -0.037044793 0.012143524 4282208113
-0.018906802 -0.033137217 0.0084373709 4280177039
-0.017234951 -0.030747965 0.0060791541 4279914899
-0.015466616 -0.029117726 0.0043949066 4279259293
-0.013824124 -0.026729912 0.0020419052 4279653524
-0.012197658 -0.024342835 -0.00030827615 4280964479
-0.018912576 -0.035505086 0.0078833904 4280701575
-0.017347425 -0.032348588 0.0048596691 4279455899
-0.015578918 -0.03071405 0.003178725 4278931363
-0.014051192 -0.027559444 0.00016159471 4279915154
-0.01230935 -0.02592624 -0.001514555 4280112779
-0.019025445 -0.037114024 0.0066575352 4282272628
-0.017350309 -0.034711659 0.0043087285 4279455644
-0.015691198 -0.032310069 0.0019627679 4279587224
-0.014163002 -0.029146835 -0.0010477579 4280046224
-0.012538616 -0.026747048 -0.0033875378 4279849364
-0.010809988 -0.02511014 -0.0050580362 4280504714
-0.017572224 -0.03554891 0.0024213772 4281485699
-0.016027555 -0.03237626 -0.00058539025 4280701319
-0.014389541 -0.02996935 -0.0029226518 4279980178
-0.012415189 -0.029856578 -0.003261128 4279980178
-0.010681015 -0.02821511 -0.0049292007 4279980178
-0.0092031807 -0.025045812 -0.0079241479 4281094528
-0.016027529 -0.034734271 -0.0011330228 4281879163
-0.01438652 -0.032320723 -0.0034657768 4280373643
-0.012526926 -0.031441227 -0.0044683567 4279914898
-0.010792602 -0.02979546 -0.0061331294 4280045969
-0.0091916285 -0.027383842 -0.0084587345 4279915154
-0.0074813366 -0.025739208 -0.010119197 4280701828
-0.0142693 -0.035445094 -0.0033494849 4281552254
-0.012404334 -0.034563154 -0.0043513197 4280635784
-0.010784321 -0.032144122 -0.0066752825 4279980433
-0.0091803595 -0.029725887 -0.0089963982 4279718038
-0.0075924322 -0.027308494 -0.011314635 4279259293
-0.0061484724 -0.024123691 -0.014290222 4280112779
-0.0043341741 -0.023244046 -0.015282904 4280705654
-0.014152676 -0.038577743 -0.0032395669 4283319914
-0.012633316 -0.035380557 -0.0062217992 4281552254
-0.010896005 -0.033726051 -0.0078804139 4279586714
-0.0094140954 -0.030530721 -0.010856012 4279783318
-0.0078285635 -0.028106987 -0.013168881 4279980178
-0.0062590837 -0.025684081 -0.01547885 4280111758
-0.0044447854 -0.024802275 -0.016469855 4280243594
-0.010888111 -0.036080554 -0.0084270332 4281159044
-0.0094030648 -0.032876484 -0.011396511 4280372878
-0.0079394504 -0.029673517 -0.014362214 4279914899
-0.0062420703 -0.028016612 -0.016010361 4280045968
-0.0045553669 -0.026360206 -0.017656576 4280242573
-0.0026134029 -0.026248597 -0.017988965 4280572034
-0.010999877 -0.037664026 -0.009633353 4282664818
-0.0093923099 -0.035226271 -0.011940079 4281027974
-0.0078007951 -0.03278935 -0.014243914 4279915153
-0.006097883 -0.03112781 -0.015889717 4279915153
-0.0044056587 -0.029466771 -0.01753353 4280177295
-0.0027241185 -0.027806252 -0.01917544 4280374153
-0.00091777369 -0.026920348 -0.020161618 4280376193
-0.0077873133 -0.035136528 -0.014786037 4280767109
-0.0060815699 -0.033470571 -0.016428953 4280045968
-0.0045164935 -0.031028442 -0.018723113 4279587734
-0.0028347969 -0.02936361 -0.020361699 4279390619
-0.0011638142 -0.027699202 -0.021998394 4279390873
0.00049647689 -0.026035368 -0.023633141 4280375938
-0.0076496713 -0.038266823 -0.014678827 4282140029
-0.0060655326 -0.035817325 -0.016971303 4279979924
-0.0044974685 -0.033368587 -0.019260963 4279587479
-0.0030779839 -0.030142009 -0.022198802 4279783573
-0.0015447363 -0.027695045 -0.024482265 4279849108
0.0001103133 -0.026027165 -0.026112814 4280112013
0.0020358339 -0.025916144 -0.026442107 4280246144
-0.0046084002 -0.034931809 -0.020451726 4280701063
-0.0031884611 -0.03169661 -0.023382964 4279652504
-0.0017899722 -0.028462514 -0.026310433 4279718294
-0.00013745576 -0.026790537 -0.027937176 4279652759
0.001925651 -0.027460001 -0.02761798 4279260314
0.003994178 -0.028129019 -0.027299609 4280442748
-0.0045897812 -0.037277818 -0.020994054 4281421183
-0.0032989159 -0.03325095 -0.024566924 4279980178
-0.0020348653 -0.029225439 -0.028135065 4280045969
-0.00038488209 -0.027549304 -0.029758034 4279783828
0.0016752146 -0.028221101 -0.029439999 4279390873
0.0038837045 -0.029674768 -0.028476894 4279654289
0.0055203699 -0.027999021 -0.030097285 4280640119
-0.0032772794 -0.035590112 -0.025104506 4280438413
-0.0020099394 -0.031553663 -0.028664932 4279849109
-0.00049455836 -0.029088296 -0.030930238 4279587478
0.0014251135 -0.02897761 -0.031258523 4279259294
0.003916081 -0.032004759 -0.029009663 4279718293
0.0061375834 -0.033461839 -0.028052008 4279981454
-0.0019852892 -0.033885933 -0.029197808 4280503949
-0.00046692416 -0.031413913 -0.031458661 4279718038
0.0015952475 -0.032089867 -0.031144314 4279521179
0.0042334758 -0.03591197 -0.028260285 4279783064
0.0067532733 -0.038945884 -0.026022909 4280832643
0.0085544288 -0.038046807 -0.026997657 4281881713
-0.0015576035 -0.038590014 -0.027806712 4282077810
0.00010894239 -0.036899999 -0.029422546 4280438923
0.0024638772 -0.03915529 -0.027829209 4279718294
0.0051199906 -0.042987064 -0.024956571 4280176785
0.0078030266 -0.046817161 -0.022088435 4281749624
-0.0078048259 -0.047498815 -0.032096386 4282994279
-0.0080405325 -0.048252307 -0.033915672 4282929254
-0.018806636 0.018625617 0.069192842 4285229099
-0.016542532 0.017394446 0.070316836 4285819678
-0.023716673 0.021477606 0.063475907 4285427234
-0.021993831 0.023624357 0.06091826 4285623839
-0.020182103 0.025093619 0.059099551 4285754908
-0.017843179 0.023179647 0.060961563 4285689374
-0.014826335 0.01720842 0.067232594 4285820698
-0.02817218 0.021647092 0.060715217 4285230118
-0.026151374 0.02176268 0.060368914 4285427489
-0.024527676 0.02459503 0.05708066 4285689884
-0.022619277 0.025389168 0.056001227 4285886488
-0.020716101 0.026183113 0.054922689 4285689118
-0.018388487 0.024261944 0.056781556 4285689373
-0.015714228 0.020306159 0.060838569 4285689373
-0.012556251 0.013638712 0.067822799 4285755163
-0.034862339 0.023763746 0.056095723 4285229609
-0.032946803 0.024560083 0.055016454 4285885723
-0.030854255 0.023992594 0.055408541 4286017304
-0.028662346 0.022743799 0.056534495 4285689374
-0.026652403 0.022858724 0.056190018 4285624348
-0.024840608 0.024336431 0.054377865 4285624349
-0.023039401 0.025813561 0.052567624 4285821208
-0.021039672 0.025928091 0.05222505 4285952534
-0.018825255 0.02468098 0.053347379 4285952533
-0.016270049 0.021392349 0.056663852 4285821464
-0.013687719 0.018105362 0.059975747 4285755929
-0.010962926 0.014139544 0.064014137 4285558813
-0.038742639 0.019865055 0.057757732 4285229864
-0.0370626 0.022717442 0.05447289 4285492768
-0.035318308 0.024884403 0.051926237 4285755164
-0.033413485 0.025682237 0.050850447 4285754654
-0.031241015 0.024427895 0.051976293 4285886488
-0.028963931 0.022490468 0.053833351 4285755164
-0.02686315 0.021921333 0.054222438 4285689628
-0.025053836 0.023403179 0.052414045 4285558558
-0.023153387 0.024201091 0.051339261 4285624094
-0.021258146 0.024998788 0.050265428 4285624094
-0.018939748 0.023064066 0.052115668 4285623839
-0.016714767 0.02181321 0.053232893 4285623839
-0.014591351 0.02124583 0.053618398 4285624093
-0.012577593 0.021361407 0.053273603 4285624348
-0.010092147 0.018747326 0.055844624 4285624093
-0.0064997487 0.0099940524 0.064968348 4285558048
-0.039416701 0.023049753 0.051385127 4285493024
-0.037672259 0.025223047 0.048843436 4285821464
-0.03585837 0.026709098 0.047037318 4285689374
-0.033878841 0.02682199 0.046697821 4285623329
-0.031626776 0.02487649 0.048554081 4285754909
-0.029264852 0.022245999 0.051139016 4285820953
-0.027073517 0.020988535 0.052258287 4285689884
-0.025167823 0.021788809 0.0511842 4285558558
-0.023267314 0.022588853 0.050111055 4285624349
-0.021163516 0.022017926 0.050498039 4285624349
-0.019161098 0.022132609 0.050154999 4285558558
-0.016939223 0.020877205 0.051269352 4285689884
-0.015380453 0.023732033 0.048012584 4285755164
-0.01349799 0.024531446 0.046942767 4285952279
-0.011503052 0.02464598 0.046601225 4285886234
-0.0085445493 0.019284975 0.052074365 4285951769
-0.0043115579 0.0070835575 0.064803809 4286017304
-0.040904425 0.015816413 0.056362946 4285031984
-0.039529525 0.021442495 0.050160557 4285361953
-0.03794983 0.024999838 0.046160508 4285690394
-0.036141098 0.026489828 0.044358637 4285887254
-0.034167059 0.02660235 0.044020042 4285887253
-0.032011531 0.025338333 0.04514195 4285952788
-0.0296584 0.022698641 0.047721632 4285821208
-0.027475551 0.021436278 0.048839003 4285624349
-0.025479153 0.021550361 0.048496794 4285624349
-0.023381159 0.020976827 0.048883002 4285624348
-0.021381706 0.021091226 0.04854038 4285624349
-0.019488871 0.021893095 0.047470313 4285624093
-0.017601274 0.022694778 0.046401147 4285755163
-0.016167641 0.026244566 0.04242675 4285820954
-0.014186405 0.026358213 0.042087477 4285754654
-0.012322616 0.027158711 0.041022606 4285623583
-0.0096221752 0.023152638 0.045034897 4285623328
-0.0062743872 0.015716109 0.052665282 4285688864
-0.040402189 0.008661963 0.06097259 4285163054
-0.039323449 0.01707102 0.051857933 4285558814
-0.037979506 0.022712614 0.045674354 4285558814
-0.036423132 0.026279509 0.041686691 4285624349
-0.034366779 0.02570099 0.042078089 4285558558
-0.032214366 0.02443241 0.043197118 4285558558
-0.029957794 0.022474166 0.045042504 4285624093
-0.028164171 0.023967896 0.043246724 4285689628
-0.026085481 0.023390938 0.043634515 4285755418
-0.024001211 0.022814412 0.044021361 4285755418
-0.021807425 0.021548558 0.045133587 4285689884
-0.020135894 0.023731224 0.042614911 4285689629
-0.018371053 0.025223676 0.040824346 4285623838
-0.016616818 0.026715554 0.039035708 4286018069
-0.014758501 0.027517844 0.037973337 4285952023
-0.012905434 0.028319858 0.036911961 4285820188
-0.010336906 0.024988882 0.040192649 4286017049
-0.0074956641 0.02028222 0.044914894 4286214418
-0.0038634986 0.011446908 0.053966288 4285688863
-0.037598178 0.016955685 0.048826654 4285427234
-0.036194861 0.021920223 0.043388743 4285493279
-0.034390874 0.023418564 0.041594386 4285559324
-0.032416798 0.023531068 0.041255768 4285559069
-0.030349508 0.022951145 0.041643634 4285624604
-0.028659478 0.025141053 0.039126523 4285821463
-0.026788615 0.025945697 0.038063351 4285886744
-0.024619661 0.02467395 0.039176427 4285952534
-0.022439755 0.02340294 0.04028764 4285886744
-0.020461872 0.0235161 0.039948709 4285689373
-0.018702194 0.025012504 0.038162414 4285689374
-0.016953148 0.026508421 0.036377952 4285755163
-0.015100162 0.027312495 0.035318196 4285886488
-0.013017893 0.026734103 0.03570402 4286083349
-0.010690153 0.024774153 0.037532724 4286148373
-0.0081008114 0.021433603 0.040801477 4285820189
-0.0051083192 0.016022686 0.046228498 4285688864
-0.0015603676 0.0078523532 0.054530051 4285623584
-0.036972329 0.0090870149 0.05413929 4285294633
-0.03596773 0.017543796 0.045077726 4285427234
-0.0344152 0.021132018 0.041107532 4285559069
-0.032709032 0.023329157 0.038592555 4285559068
-0.03083311 0.024136052 0.037530039 4285821464
-0.029153496 0.026331767 0.035019763 4285623328
-0.027293339 0.027137969 0.033960033 4285623839
-0.025236517 0.026555415 0.034348197 4285689119
-0.022966839 0.024585195 0.036181368 4285820699
-0.020787165 0.023309853 0.03728934 4285755164
-0.018923655 0.024116542 0.036229268 4285689373
-0.017065354 0.024922971 0.035170194 4285689628
-0.015097894 0.025035731 0.0348332 4285624094
-0.012778945 0.023068678 0.03665828 4285623839
-0.010443699 0.021102633 0.038480621 4285557793
-0.0080921501 0.019137651 0.040300194 4285622819
-0.035318576 0.0096636601 0.050376423 4285294378
-0.034177765 0.01674987 0.042789847 4285361189
-0.032820553 0.021742117 0.037383415 4285427744
-0.031222686 0.02464167 0.034153044 4285821719
-0.029455401 0.026146743 0.032371759 4285886743
-0.027600579 0.026954718 0.031314634 4285886489
-0.025549397 0.026369695 0.031702016 4286017559
-0.023285657 0.024392556 0.03353117 4286279953
-0.020899422 0.021720365 0.036078453 4285689374
-0.019035846 0.022529185 0.035020027 4285624093
-0.017177515 0.02333774 0.033962596 4285689374
-0.015095886 0.022754855 0.034345072 4285623583
-0.033854321 0.011651274 0.045181528 4285294634
-0.032752261 0.018756937 0.037618428 4285295399
-0.031426184 0.023762565 0.032229118 4285558813
-0.029661365 0.025271744 0.030451633 4285755163
-0.027809195 0.026081678 0.029396601 4285886489
-0.025660321 0.02479573 0.030502908 4285885724
-0.02339714 0.022812042 0.032327093 4285689118
-0.021117643 0.020829413 0.034148507 4285623584
-0.019256718 0.021640163 0.033092223 4285623328
-0.017289609 0.02175276 0.032755181 4285819168
-0.014980011 0.019772053 0.034571666 4287195913
-0.034281231 -0.0041081235 0.058721256 4285228589
-0.033271238 0.0044266805 0.049719226 4285228589
-0.032325663 0.012957949 0.040728275 4285359913
-0.031259671 0.020083204 0.033188179 4285492769
-0.029771872 0.023700282 0.029254381 4285558814
-0.028115243 0.025914136 0.026763078 4285558558
-0.025771178 0.023222003 0.029303968 4285622819
-0.023508564 0.021231767 0.031123187 4285753123
-0.031721681 0.0057260916 0.045255814 4285294378
-0.030817255 0.014280993 0.036292102 4285426468
-0.029597461 0.020019401 0.030210558 4285492768
-0.027834751 0.021537144 0.028440103 4285689118
-0.025681287 0.020242695 0.029538888 4286803724
-0.03263247 -0.0058908239 0.054410871 4285163053
-0.031298898 -0.00012882054 0.048323024 4285228844
-0.030284472 0.0077474192 0.040092953 4285359914
-0.02904474 0.013504256 0.034021344 4285425959
-0.030967101 -0.0053016469 0.050655227 4285228589
-0.029753767 0.0011837706 0.043870803 4285228589
-0.030814976 -0.0090758801 0.051543679 4284966448
-0.029523343 -0.0056254938 0.044953298 4285097519
-0.029637888 -0.0072604641 0.043707568 4284966959
-0.027702115 -0.0064310059 0.042649668 4285097519
-0.0157739 -0.016935423 0.020350836 4285228844
0.027708881 0.013076808 -0.013245391 4285885723
0.033059411 -0.00073434412 -0.00072331633 4285951514
-0.015998464 -0.017806612 0.018437684 4285228843
-0.014226165 -0.016214788 0.016722808 4285228844
0.020521538 0.017097242 -0.018847484 4285557283
0.021711655 0.020148709 -0.021871891 4285689373
0.023056032 0.022463787 -0.024217144 4285951768
0.02527687 0.021102574 -0.023184858 4285885979
0.029139476 0.013127662 -0.016083937 4285885978
0.035268292 -0.0036609471 -0.00090475846 4285951514
-0.017677985 -0.022493511 0.020296901 4284901168
-0.016000576 -0.02015543 0.017897652 4285163053
-0.014339168 -0.017818175 0.015501287 4285163054
0.017691514 0.019164164 -0.023054048 4285558304
0.019220043 0.020748537 -0.024722103 4285558558
0.020391801 0.023807559 -0.027736679 4285820698
0.021893354 0.025390577 -0.029399969 4285492003
0.023919212 0.024761345 -0.029041471 4285557793
0.02703682 0.019709948 -0.024646822 4285623583
0.031478412 0.0095022954 -0.015551839 4285754908
0.0510104 -0.043187514 0.031786665 4285754908
0.0558341 -0.053372301 0.040816959 4285492768
-0.017899781 -0.023366079 0.018382087 4284900914
-0.016224738 -0.021021664 0.015988259 4285097773
-0.014452111 -0.019421265 0.014279975 4285097774
-0.012806434 -0.017078318 0.011891356 4285097519
0.010701101 0.023260392 -0.028639745 4285688354
0.01287267 0.021887049 -0.027606253 4285623328
0.015055023 0.020514399 -0.02657447 4285624348
0.016913248 0.0206226 -0.026891429 4285624093
0.018090904 0.023690496 -0.029900387 4285755419
0.019419823 0.026017491 -0.032233037 4286018579
0.020732559 0.02834367 -0.034562841 4285820953
0.023098413 0.026232462 -0.032859899 4285754909
0.025842195 0.022643793 -0.029817272 4285689628
0.029714489 0.014622163 -0.02275474 4285755419
0.033459663 0.0073430985 -0.016372496 4285690139
0.052987218 -0.044751801 0.030144505 4285558813
0.057649091 -0.05422622 0.038477052 4285427744
-0.016227059 -0.023374207 0.015445378 4285031983
-0.01456501 -0.021024048 0.013058905 4285163309
-0.012919012 -0.018674642 0.010675233 4285097774
-0.011407863 -0.015581027 0.0076142885 4285163308
0.0062843487 0.024533901 -0.031835657 4285688608
0.0074948147 0.02761177 -0.034843944 4285951514
0.0096390061 0.026232421 -0.033809204 4285885978
0.011955891 0.024111241 -0.032103445 4286017303
0.014453521 0.021248765 -0.029728061 4285755418
0.01630353 0.021356501 -0.030043609 4285623839
0.017303618 0.025174595 -0.033715956 4285624094
0.018449428 0.028249349 -0.036712706 4285886744
0.019749032 0.030581221 -0.039035246 4285886743
0.022278877 0.027721159 -0.03666494 4285820953
0.02519173 0.023379602 -0.0329591 4285821209
0.028503729 0.017557561 -0.02792058 4285690138
0.031114213 0.014702551 -0.025563752 4285559069
0.034879155 0.0074032098 -0.019201526 4285493534
0.054963648 -0.046315625 0.028502792 4285493534
0.059458617 -0.055075675 0.036141805 4285427745
0.062399756 -0.057910532 0.038442925 4285295909
-0.016561419 -0.023487911 0.012859866 4284900914
-0.014791172 -0.021879017 0.011158627 4285031983
-0.01314754 -0.019523337 0.0087804161 4285097518
-0.01151995 -0.017168418 0.0064049922 4285228589
-0.0097870342 -0.015561357 0.0047104601 4285294379
-0.0078166798 -0.015448496 0.0043729208 4285359914
0.0032471344 0.019118767 -0.028964642 4285492769
0.0046440177 0.021461777 -0.031299524 4285624348
0.0058711059 0.024549119 -0.034304038 4285558559
0.0072330385 0.026890263 -0.036632746 4285623328
0.0092150383 0.026251268 -0.036272373 4285623328
0.011687677 0.023378614 -0.033899508 4285886999
0.013852969 0.021996386 -0.032871559 4285821209
0.015861904 0.021359246 -0.032515481 4285624348
0.017196899 0.023699436 -0.034839198 4285624349
0.018343199 0.026782833 -0.037829336 4285624349
0.019643139 0.029121198 -0.040146898 4285624349
0.021994323 0.026996221 -0.0384515 4285624094
0.024542207 0.024128716 -0.036090869 4285558814
0.027661448 0.019032326 -0.031731538 4285558814
0.029702462 0.018397816 -0.031380337 4285624349
0.032126129 0.016277563 -0.029696979 4285624348
0.035522722 0.010443557 -0.024685934 4285689628
0.056939688 -0.047878981 0.026861519 4285689118
0.060858406 -0.054435983 0.032482732 4285689119
0.063801333 -0.057279214 0.034776956 4285491748
-0.013375718 -0.020367414 0.0068891095 4285031983
-0.011631984 -0.01875551 0.0051959306 4285294379
-0.0098989122 -0.017144129 0.0035047084 4285426469
-0.0081765056 -0.015533224 0.0018153489 4285163308
0.0012911074 0.017526183 -0.029780013 4285493024
0.0024001114 0.021371283 -0.033454884 4285559069
0.0036330409 0.02446745 -0.036453798 4285689884
0.0053050034 0.025320511 -0.037436418 4285821464
0.0066591837 0.027667731 -0.039758813 4285558049
0.0087917149 0.026279036 -0.038728744 4285623328
0.011096612 0.024144296 -0.037031017 4285689628
0.013746228 0.020517182 -0.033997938 4285821209
0.015754869 0.01987787 -0.033643484 4285624349
0.017429527 0.020731803 -0.034626085 4285624349
0.018754071 0.023077905 -0.036942877 4285624348
0.020237477 0.024677161 -0.038589709 4285624349
0.022243325 0.024038166 -0.03823448 4285558813
0.024976278 0.02041655 -0.035215039 4285558813
0.027003575 0.01977903 -0.034863293 4285624604
0.028664568 0.020632766 -0.035843026 4285690139
0.030131593 0.022231635 -0.037486624 4285886744
0.032735035 0.019359216 -0.035141803 4285951768
0.037105035 0.0097835399 -0.026824946 4285951258
0.058309402 -0.047208443 0.023232911 4285951259
0.062651917 -0.05527252 0.030160978 4286016793
0.065602019 -0.058123797 0.032447413 4285688609
-0.013372198 -0.022710115 0.0063526137 4285163054
-0.011743989 -0.020342283 0.003987099 4285426214
-0.010010753 -0.01872661 0.0022991821 4285360934
-0.0085356794 -0.015609041 -0.00073536113 4285098028
-0.0068291724 -0.013994627 -0.0024185628 4285098028
0.0013301708 0.015290916 -0.030240709 4285490729
0.0019985773 0.021396343 -0.035918139 4285493024
0.0030759387 0.025250461 -0.039579168 4285690138
0.004739847 0.026105214 -0.04055874 4285953299
0.0063983798 0.026959762 -0.041537311 4285886743
0.0083690286 0.026315793 -0.041178346 4285821719
0.010667939 0.024174195 -0.039484575 4285821718
0.012982991 0.022033703 -0.037793502 4285690139
0.015314205 0.019894205 -0.036105074 4285558558
0.017153015 0.020001397 -0.036418628 4285624349
0.018991809 0.020108711 -0.036732081 4285558813
0.020830572 0.02021613 -0.037045449 4285559069
0.022846892 0.019575596 -0.036693674 4285559068
0.024868567 0.018935453 -0.03634268 4285559069
0.026529621 0.019791309 -0.037320856 4285624348
0.027813923 0.022142071 -0.039625339 4285755164
0.02889365 0.025239475 -0.042590227 4285623583
0.031098068 0.023852065 -0.041574754 4285558048
0.034475639 0.01798261 -0.036587149 4285689118
0.039467644 0.0061401352 -0.026311973 4285820699
0.060072538 -0.048018426 0.020938341 4285886233
0.064439945 -0.056104556 0.0278439 4285623838
0.067607105 -0.059710041 0.030782089 4285295908
-0.011619519 -0.023436099 0.0041255681 4285163308
-0.010122549 -0.020308793 0.0010938784 4285163564
-0.0086470172 -0.017182589 -0.0019340594 4285098029
-0.0071929209 -0.01405751 -0.004958231 4285098029
0.0020945966 0.0092910454 -0.027359864 4285490730
0.0020411611 0.019174408 -0.036369152 4285426213
0.0026703179 0.025294907 -0.042026404 4285427488
0.0040224344 0.027654801 -0.044338509 4285690139
0.0056702234 0.028510883 -0.045313559 4285690138
0.0079469867 0.026361424 -0.043621119 4285755929
0.010401182 0.02346186 -0.041265178 4285690139
0.012712937 0.021314707 -0.039578572 4285624349
0.014707521 0.020670321 -0.039225105 4285558558
0.016538115 0.02077705 -0.039537247 4285558558
0.018368693 0.020883884 -0.0398493 4285624349
0.020723464 0.018739644 -0.038169634 4285624349
0.022739489 0.01809695 -0.037819479 4285624349
0.024760868 0.017454624 -0.037470117 4285558558
0.026056312 0.01981245 -0.039771594 4285624350
0.02715005 0.022919204 -0.042732235 4285952533
0.028222198 0.026024763 -0.045689154 4285755419
0.030418105 0.024632502 -0.044675533 4285557794
0.033011857 0.021742482 -0.042342376 4285558048
0.036608443 0.015108161 -0.03671173 4285558304
0.040850289 0.0062298775 -0.029109947 4285689884
0.062658355 -0.051817909 0.021281932 4285689884
0.066851676 -0.059177116 0.027505193 4285558814
0.068762079 -0.058303162 0.026487347 4285295399
-0.010355081 -0.021134987 -0.00078266161 4285097519
-0.008758314 -0.018755838 -0.0031325263 4285163309
-0.0071776286 -0.016377479 -0.005479604 4285098028
0.0031471401 0.0017569661 -0.023163974 4285359913
0.0029694363 0.012423821 -0.032822363 4285557539
0.0031674616 0.020824529 -0.0404687 4285624349
0.0039184839 0.026206743 -0.045441285 4285559069
0.0055662878 0.027064968 -0.046414677 4285558813
0.0075255781 0.02641603 -0.046057127 4285558814
0.0099736303 0.023507509 -0.043706827 4285493023
0.01211559 0.022106674 -0.042688228 4285624349
0.013768777 0.022965711 -0.043662228 4285624348
0.015416574 0.023824498 -0.044635192 4285755418
0.017402751 0.023177687 -0.044281792 4285821209
0.019743456 0.021026187 -0.042604733 4285820954
0.022100279 0.018875726 -0.040930349 4285624093
0.024113277 0.018230818 -0.04058126 4285558558
0.025583636 0.019842576 -0.04221556 4285558558
0.026487133 0.023709565 -0.045829058 4285690138
0.027739752 0.026071515 -0.048118018 4285952533
0.029548351 0.026177853 -0.048425712 4285886998
0.031937148 0.024029981 -0.04675629 4285887254
0.034734257 0.020380568 -0.043772373 4285821463
0.037955813 0.015230563 -0.039476708 4285624348
0.042826928 0.004075177 -0.029926196 4285558814
0.060465544 -0.045995072 0.013433108 4285624348
0.06630677 -0.059381425 0.024894718 4285558814
0.068424061 -0.059255928 0.024535287 4285427489
0.070111312 -0.057629958 0.022865221 4285098283
-0.0087462999 -0.021086439 -0.0036614616 4285031983
-0.006910637 -0.020216517 -0.0046663103 4285097773
0.0040430874 0.0048869401 -0.028633205 4285360168
0.0042642094 0.013312649 -0.036265105 4285360168
0.0045790225 0.020979147 -0.043222576 4285427233
0.0056179576 0.024863537 -0.046851791 4285493278
0.0075796433 0.024212606 -0.046496309 4285559324
0.0098686628 0.022051059 -0.044815905 4285559068
0.011846501 0.021401264 -0.044463024 4285624603
0.013330672 0.023017436 -0.046096802 4285689628
0.01480405 0.024633132 -0.047728695 4285886744
0.016610123 0.024738543 -0.048036564 4285820698
0.01893945 0.022579927 -0.046362586 4285952534
0.021284899 0.020422343 -0.044691276 4286084113
0.023466641 0.019020259 -0.043682311 4285624349
0.024746612 0.021390073 -0.045971055 4285558559
0.026010374 0.023759067 -0.048257016 4285624349
0.027257934 0.02612723 -0.050540127 4285689883
0.02925159 0.025479488 -0.050189059 4285755674
0.031637095 0.023324944 -0.048524041 4285755674
0.034234628 0.020418014 -0.046204761 4285558813
0.037052259 0.016759183 -0.04323259 4285493279
0.041306082 0.0078301132 -0.035672877 4285493279
0.065134279 -0.057318777 0.020327181 4285493279
0.06787426 -0.059451535 0.021932553 4285361444
0.069556311 -0.057821587 0.020266782 4285360933
-0.0068961941 -0.022548847 -0.005197105 4285031983
0.0049669184 -0.0019257367 -0.025133701 4285228843
0.0058086328 0.0034916699 -0.030098433 4285228843
0.0058489889 0.012697715 -0.038369693 4285294378
0.0064464957 0.018868197 -0.043981194 4285559069
0.0074752979 0.022762913 -0.047600277 4285493534
0.0092812702 0.022867884 -0.04790847 4285559324
0.011087235 0.02297296 -0.048216578 4285690138
0.012560811 0.024592791 -0.049845219 4285624093
0.014361376 0.024697769 -0.050152246 4285557538
0.016161924 0.024802867 -0.050459161 4285557539
0.018485259 0.022637453 -0.048789166 4285689118
0.020647746 0.021229826 -0.047780361 4285755419
0.02282097 0.019822896 -0.04677324 4285689884
0.02427553 0.021442369 -0.048398145 4285558814
0.025719285 0.023061253 -0.050021082 4285558814
0.027339937 0.023923606 -0.050985493 4285624349
0.029335996 0.023273818 -0.050636463 4285558814
0.031916693 0.020357192 -0.048321083 4285558813
0.034518827 0.017441988 -0.046009302 4285558813
0.0375394 0.013017181 -0.042391401 4285493533
0.042000432 0.0033073798 -0.034198411 4285559323
0.064381883 -0.05674383 0.017082281 4285559323
0.067325108 -0.059638217 0.0193367 4285294634
0.0066002123 -0.0025743023 -0.027274817 4285228589
0.0072687641 0.0036174133 -0.032885231 4285228589
0.0075837262 0.011327002 -0.03980919 4285294889
0.0081608146 0.017513625 -0.045403745 4285294633
0.0091768056 0.021418478 -0.04901218 4285493024
0.010492593 0.023802493 -0.051297624 4285624603
0.011792216 0.026185725 -0.053580258 4285887509
0.013581876 0.026290078 -0.053885411 4285624093
0.015200099 0.027153704 -0.054848224 4285558304
0.017683482 0.024221998 -0.052523561 4285624348
0.02001155 0.022050556 -0.050859351 4285821463
0.022535227 0.019121412 -0.048541393 4285624349
0.023805097 0.021503553 -0.050818384 4285624860
0.025798274 0.020851269 -0.050470747 4285559068
0.027796779 0.020199437 -0.050123911 4285559068
0.030371383 0.017273743 -0.047814261 4285493278
0.032967448 0.014349412 -0.045508187 4285426723
0.035780605 0.010668725 -0.042552032 4285360678
0.03842226 0.0077473074 -0.040253535 4285426214
0.043095559 -0.0027472228 -0.031431466 4285360424
0.063630439 -0.056155592 0.013847508 4285360424
0.066564798 -0.059059083 0.01609676 4285294379
0.0053377263 -0.0080134347 -0.024805475 4285097519
0.0067910179 -0.0056155697 -0.027109826 4285228588
0.0079233274 -0.0016936287 -0.030730011 4285228843
0.0085633881 0.0045137927 -0.036322072 4285294633
0.0088447854 0.012243059 -0.043223497 4285359914
0.0090723597 0.019969355 -0.050115682 4285360933
0.0098988861 0.024645321 -0.054368619 4285558814
0.01119078 0.027034502 -0.056644887 4285887509
0.012635067 0.028661411 -0.058261782 4285887253
0.014582383 0.028003741 -0.057908431 4285690138
0.017056921 0.025062919 -0.055588949 4285821719
0.019906251 0.020601407 -0.051962689 4285690138
0.022249825 0.018424496 -0.050305992 4285558814
0.024245439 0.017770115 -0.049960513 4285559068
0.026246402 0.0171161 -0.049615823 4285559068
0.028814904 0.01418139 -0.047311943 4285624858
0.031404883 0.011248 -0.045011595 4285558558
0.033823531 0.0090760738 -0.043367237 4285426213
0.036453724 0.0061452836 -0.041073542 4285359913
0.039105367 0.0032158718 -0.038783409 4285294379
0.043987919 -0.0080678314 -0.029335083 4285294634
0.063088894 -0.056313261 0.011272557 4285294378
0.065805458 -0.058466688 0.012866911 4285163053
0.007130798 -0.0094298869 -0.026293103 4284901423
0.0085763596 -0.0070258975 -0.028591031 4285164328
0.009695854 -0.0030938163 -0.032200567 4285294889
0.010157842 0.0038940012 -0.038432449 4285360423
0.0099300109 0.013935667 -0.047281161 4285425958
0.010284368 0.020917475 -0.053494483 4285427233
0.010921735 0.026368957 -0.05838871 4285558813
0.012363516 0.027999964 -0.060001813 4285624349
0.014307842 0.027339976 -0.059649616 4285558814
0.017126517 0.02286366 -0.056028243 4285559069
0.019977465 0.018389303 -0.052412242 4285558814
0.022681478 0.014680017 -0.049454752 4285493278
0.024684863 0.014023941 -0.049112264 4285360934
0.027247278 0.011080131 -0.046814065 4285360679
0.029831158 0.0081376731 -0.044519443 4285360169
0.032436501 0.0051965937 -0.042228393 4285360424
0.034678034 0.003781423 -0.041242503 4285360424
0.037125587 0.00160487 -0.039607972 4285360169
0.039589189 -0.00057056546 -0.037976108 4285294379
0.044276591 -0.011124447 -0.029203214 4285294379
0.0087715015 -0.01007919 -0.028436389 4285164328
0.010206621 -0.0076691806 -0.030727465 4285360934
0.010995623 -0.0021942705 -0.035636127 4285360424
0.011106197 0.0063437968 -0.043156866 4285360169
0.010994688 0.015644699 -0.051321637 4285492004
0.011315316 0.022643995 -0.057514086 4285427233
0.012597073 0.025045663 -0.059778541 4285559324
0.014717437 0.023618121 -0.05877604 4285493534
0.017543105 0.019129328 -0.055165868 4285559069
0.020577375 0.013877131 -0.050909188 4285559069
0.022933163 0.011688095 -0.049264628 4285492769
0.025486778 0.0087350421 -0.046971712 4285426468
0.028061869 0.0057833791 -0.04468235 4285360678
0.030658428 0.0028330758 -0.042396568 4285360679
0.033086658 0.00064875185 -0.040763978 4285360424
0.035146028 -5.7592988e-06 -0.040432286 4285294124
0.037210695 -0.00065978616 -0.040101431 4285294378
0.04007208 -0.0043697506 -0.037178442 4285228843
0.044765186 -0.014953375 -0.028429877 4285228843
0.008814089 -0.012371898 -0.028942473 4285164329
0.01040687 -0.010724097 -0.030575115 4285492259
0.011674207 -0.0075395405 -0.033512764 4285360168
0.012119863 -0.00051384419 -0.039711684 4285425959
0.012028906 0.0088140368 -0.047859933 4285360424
0.012204215 0.016601976 -0.054692864 4285492003
0.013502453 0.019011009 -0.056955077 4285229864
0.015809286 0.016812328 -0.055307448 4285295399
0.018652717 0.01231163 -0.051710289 4285426723
0.021352217 0.008580476 -0.048768822 4285360424
0.023899715 0.0056183562 -0.046481632 4285294378
0.026287133 0.0034248531 -0.044847373 4285229099
0.028690653 0.0012323484 -0.043215729 4285294888
0.031110251 -0.00095902383 -0.041586764 4285294889
0.033356316 -0.0023826957 -0.040608373 4285294888
0.035613067 -0.0038055629 -0.039631747 4285294888
0.03846553 -0.0075268894 -0.036715653 4285228843
0.041937899 -0.013545275 -0.031864233 4285228844
0.010452013 -0.013016351 -0.031081393 4284902189
0.011565328 -0.0090522692 -0.034664735 4285294633
0.01281162 -0.0058602169 -0.03759202 4285294634
0.012898415 0.0027238578 -0.045071874 4285294634
0.013421789 0.0089937486 -0.050590206 4285294888
0.014741857 0.011410542 -0.052851178 4285295144
0.017069614 0.0092065856 -0.051212087 4285295143
0.019586813 0.0062338486 -0.048926603 4285294634
0.021949485 0.0040321648 -0.047293283 4285228844
0.024149546 0.002601102 -0.046310801 4285163054
0.026723135 -0.00036797673 -0.044034634 4285228844
0.029134095 -0.0025664121 -0.042409293 4285228844
0.031374376 -0.0039948076 -0.041433334 4285229354
0.03400429 -0.0069602057 -0.039166473 4285294888
0.037039973 -0.011461638 -0.035611451 4285294888
0.040692404 -0.018266752 -0.030125562 4285294634
0.011613492 -0.011337616 -0.035166301 4285097518
0.013022676 -0.0089096054 -0.037437711 4285228589
0.013441231 -0.0018466935 -0.043601867 4285228844
0.014141571 0.0036686212 -0.048460081 4285228843
0.015643207 0.0053203255 -0.050070018 4285294633
0.01798648 0.0031108931 -0.048438605 4285229098
