# .PCD v0.7 - Point Cloud Data file format
VERSION 0.7
FIELDS x y z rgba
SIZE 4 4 4 4
TYPE F F F U
COUNT 1 1 1 1
WIDTH 977
HEIGHT 1
VIEWPOINT 0 0 0 1 0 0 0
POINTS 977
DATA ascii
0.024180617 0.010425661 0.031125054 4290128923
0.026169799 0.010550562 0.030751754 4291437073
0.027980801 0.01136288 0.02966528 4291503628
0.0027515888 0.0046721809 0.036900964 4288162873
0.0041676797 0.0075629018 0.033654351 4288883248
0.005859293 0.0090696029 0.031846184 4289080109
0.007389091 0.011266965 0.029323392 4289865763
0.0093643591 0.011390287 0.028952159 4289865763
0.011496227 0.010822792 0.029296659 4290127394
0.013951954 0.0088743903 0.031070437 4290389024
0.016100056 0.0083081238 0.031411976 4289342504
0.018253602 0.0077422597 0.031752609 4288950058
0.020245284 0.0078670532 0.031378634 4289473574
0.022067025 0.0086819939 0.030291561 4289342759
0.024056081 0.0088067986 0.029918212 4289866018
0.026571169 0.0068626031 0.031681292 4289865763
0.028746344 0.006298583 0.032018166 4290454048
0.030565474 0.0071136691 0.030931894 4290193184
0.032562621 0.0072393417 0.030557301 4289410588
0.0017701127 0.0072083995 0.031388409 4288621618
0.0034618527 0.0087193511 0.029583454 4289799973
0.0055878274 0.0081490763 0.029927146 4289930789
0.0075682774 0.0082726143 0.029554859 4289473319
0.0092414618 0.0097827204 0.027753554 4289473319
0.011373058 0.0092130229 0.028096437 4289538598
0.013510078 0.0086437948 0.028438322 4289146153
0.015652534 0.0080749989 0.028779261 4289146409
0.017800413 0.007506635 0.029119246 4289080873
0.019786607 0.0076310672 0.028746292 4289473574
0.021603044 0.0084478147 0.02766192 4290062369
0.023586612 0.0085722618 0.027289595 4289604389
0.025745362 0.0080049448 0.027627818 4289015083
0.028620936 0.0046712048 0.030805025 4289342248
0.031162303 0.0027223118 0.032558329 4289080873
0.034086253 -0.0006082058 0.035726592 4289015594
0.037408918 -0.0053193644 0.040306862 4288820264
0.042278051 -0.015556298 0.050543834 4289213729
0.047227785 -0.025788046 0.060765769 4289412119
8.4672123e-05 0.0033824705 0.032704283 4289668903
0.001504451 0.0062907003 0.029470168 4289930278
0.0031937212 0.0078058727 0.027668945 4290061603
0.0054648593 0.0065374374 0.028725453 4290519839
0.0074451938 0.0066609494 0.028353173 4290454303
0.0094256103 0.0067845695 0.027980953 4289538599
0.011093721 0.0082987808 0.026183985 4289342504
0.013227787 0.0077271499 0.026524805 4289342504
0.015044138 0.0085458159 0.025441844 4289015338
0.017183688 0.0079747029 0.025781769 4289407783
0.019328639 0.0074040517 0.026120704 4289669670
0.021309379 0.0075282417 0.025748841 4290127394
0.023117837 0.0083467402 0.024667691 4290389024
0.025270935 0.0077768825 0.025005311 4290454559
0.028140176 0.0044318661 0.028175399 4289865763
0.031397045 -0.00029881299 0.032756183 4289799973
0.035057664 -0.0064141676 0.038744699 4289080874
0.03876666 -0.012526385 0.044724207 4288819243
0.043277767 -0.021408334 0.05352008 4288885034
-0.002166383 0.0023372956 0.031156406 4286724419
-0.00087799504 0.0059530698 0.027213477 4289602603
0.00066881627 0.0081707127 0.024702236 4289080108
0.0026354231 0.0082931705 0.024332386 4289276969
0.0050459988 0.0063219517 0.026099376 4289734949
0.0073221549 0.0050495528 0.027151678 4290062369
0.0093024559 0.005173143 0.026779465 4289473574
0.011126813 0.0059942566 0.025696561 4289342759
0.012945853 0.006815169 0.024614684 4289473574
0.014759582 0.0076357909 0.023533914 4289407783
0.016896151 0.0070623495 0.023872688 4289342504
0.019038141 0.0064892955 0.024210557 4289342504
0.02101608 0.006613303 0.02383922 4289734949
0.023166187 0.0060409792 0.024175659 4289538598
0.025321689 0.0054691024 0.02451117 4289080874
0.028547704 0.00072112679 0.029086091 4289342504
0.032171749 -0.0054161772 0.035066392 4289669158
0.036392868 -0.01363761 0.043154895 4289080363
0.039936136 -0.0190726 0.048410524 4288753963
0.043710656 -0.025200158 0.054362889 4287052859
-0.0032486357 0.0056252368 0.024961554 4288883504
-0.0018386021 0.0085501336 0.021742471 4290060838
-0.00016510859 0.010072853 0.0199508 4289996323
0.0019330606 0.0094941668 0.020294614 4290192418
0.0043322742 0.0075156875 0.022058744 4290061858
0.0065972283 0.0062382333 0.02310982 4290258208
0.008872997 0.0049615763 0.02415888 4289211433
0.010536175 0.0064841174 0.022369508 4289604389
0.012505755 0.0066072084 0.021999437 4289734949
0.014152925 0.0081289895 0.020213179 4289669413
0.016445071 0.0068536885 0.021259494 4290323233
0.018747997 0.0055792183 0.022303827 4290454559
0.021061711 0.0043054484 0.02334623 4290127139
0.023386199 0.0030325167 0.024386659 4289473063
0.025896125 0.0010618791 0.026130758 4289342248
0.029308941 -0.004399009 0.031397354 4289603623
0.03330487 -0.011951365 0.038769692 4289538344
0.037359923 -0.019499898 0.046131007 4289276459
0.040732436 -0.024253584 0.050667051 4288360753
-0.0067816526 0.00096558034 0.027356155 4286789954
-0.0056074783 0.005307287 0.022714332 4288294454
-0.004054755 0.0075381212 0.020211771 4289079598
-0.0023784675 0.0090652965 0.018422771 4289930279
-0.00071281567 0.010591865 0.016635887 4290323233
0.0013770089 0.010010462 0.016979594 4290389024
0.0037675612 0.0080248564 0.018740397 4290650908
0.0061743036 0.0060404055 0.020498186 4289931299
0.0082912631 0.0054609515 0.020837069 4289211689
0.010102272 0.0062855817 0.019759923 4289604134
0.011907984 0.0071099512 0.018683899 4289473064
0.013708375 0.0079340823 0.017608952 4289538343
0.015994683 0.0066541024 0.01865299 4289734694
0.018624656 0.0039726049 0.021106057 4289930788
0.02093792 0.0026944689 0.022145234 4290519584
0.023433756 0.00071635842 0.023886874 4289734949
0.026294742 -0.0026619434 0.027033564 4289604134
0.030245697 -0.010241158 0.034395989 4289472808
0.034795389 -0.019917421 0.043856286 4289145643
0.038324978 -0.025388159 0.049087841 4288360754
0.041341811 -0.028756224 0.052205559 4286856508
-0.007691808 0.0035881586 0.021892678 4288359733
-0.0061307698 0.0058259107 0.019393444 4288883503
-0.0043122917 0.006652467 0.018316083 4289799719
-0.0026384853 0.0081838183 0.016530853 4289407274
-0.00083321705 0.0090097338 0.015456117 4289341993
0.0012563206 0.0084261261 0.015798211 4289015338
0.003351327 0.0078429617 0.016139358 4289538598
0.0056019463 0.006555859 0.017186444 4289538598
0.00771055 0.0059737377 0.017525177 4289538599
0.009513557 0.0067999922 0.016451232 4289538599
0.011311255 0.0076260194 0.015378368 4290192418
0.01310363 0.0084518492 0.014306526 4289473064
0.015381429 0.0071669407 0.015348884 4289276713
0.017836273 0.005179543 0.017093092 4289342249
0.020645197 0.0017868951 0.020241093 4288949293
0.023652647 -0.0023069009 0.024086904 4289014828
0.027041022 -0.0078042299 0.029331431 4289080108
0.031180451 -0.01610928 0.037375264 4289014829
0.03574378 -0.025815122 0.046809763 4288752433
0.038740844 -0.029195406 0.049922802 4287641144
-0.0087311082 0.0069448613 0.015740208 4289798953
-0.0067869015 0.0070654564 0.015374214 4290322979
-0.0047060139 0.0064788274 0.015716039 4289996323
-0.0027588867 0.0065998062 0.015349648 4290389024
-0.00066973269 0.0060138889 0.01569007 4289407783
0.0012802854 0.0061352439 0.015323284 4289473318
0.0033777021 0.0055499785 0.015662335 4289473319
0.0053305849 0.0056716911 0.015295151 4289473319
0.007283546 0.0057935305 0.014928038 4289734949
0.0090812184 0.00662167 0.013856714 4289472808
0.010715559 0.008155521 0.012082771 4289930789
0.012660649 0.0082771517 0.011717356 4290388258
0.0147692 0.0076932125 0.012054718 4290061093
0.017381467 0.0049931966 0.014497817 4289864998
0.020352833 0.00088400394 0.018340372 4289734183
0.023870885 -0.0053385869 0.024280589 4289864999
0.027959803 -0.01367306 0.032313932 4289276459
0.032290056 -0.022708178 0.041035455 4288883759
0.03633111 -0.030329458 0.048344526 4287771703
-0.010794912 0.0052429326 0.014926857 4289014319
-0.0091129579 0.0067831129 0.013146528 4289472299
-0.0073079467 0.0076130815 0.012074872 4288884268
-0.0050990172 0.0063141771 0.01312277 4289800228
-0.003157381 0.0064347871 0.01275739 4290258208
-0.00093213096 0.0051371343 0.013802323 4289473319
0.001015082 0.005258292 0.013436048 4289473319
0.0029623844 0.0053795576 0.013069835 4289473319
0.0049097762 0.0055009201 0.012703677 4289211434
0.0068572424 0.0056223944 0.012337583 4289407783
0.0086495951 0.0064523034 0.011268943 4289407783
0.010436647 0.0072820075 0.01020139 4289472808
0.012218371 0.0081114583 0.0091349008 4289799719
0.014484499 0.0068171397 0.010172746 4289603368
0.01709329 0.0041082092 0.012609857 4289407274
0.020566694 -0.0021368414 0.018543437 4289930534
0.024431087 -0.0097934604 0.025867153 4289472554
0.028876586 -0.019567817 0.035277098 4289210924
0.033043973 -0.027923338 0.043275882 4288817968
0.036558382 -0.03344731 0.048470352 4287902519
-0.013109226 0.0049661919 0.01270068 4289406253
-0.011555377 0.0072228499 0.010217498 4289407275
-0.010017496 0.0094786063 0.0077373954 4290062114
-0.0082285516 0.010309689 0.0066704499 4289408038
-0.0060361959 0.0090054199 0.0077180816 4289408038
-0.0036940798 0.0069903471 0.0094677983 4289930788
-0.0013357401 0.0049763955 0.011214542 4289734438
0.00089452416 0.0036747828 0.012255265 4289603623
0.0026947483 0.0045070648 0.01118658 4289603623
0.0044896789 0.0053390972 0.010118953 4289603623
0.0061269887 0.0068816729 0.0083508892 4289669158
0.0083736964 0.0055814348 0.0093888706 4289996323
0.010631204 0.0042820312 0.010424863 4289669158
0.012418348 0.0051139854 0.0093590105 4289145898
0.014689397 0.0038156249 0.010392613 4289473064
0.017302755 0.0010982826 0.012822219 4289407529
0.021285251 -0.007295236 0.020835537 4289472553
0.025332242 -0.01568456 0.02883679 4289472553
0.029443732 -0.024069801 0.036826052 4289341228
0.033266686 -0.03103245 0.043409385 4288229429
0.036247402 -0.034446463 0.046500515 4286332994
-0.015289102 0.0039846189 0.011184604 4287902009
-0.013854969 0.0069625676 0.008000345 4289276204
-0.012314152 0.0092248619 0.0055246195 4289669158
-0.010789327 0.011486314 0.0030519385 4290454814
-0.0090137497 0.012318715 0.0019891523 4289996834
-0.0066992156 0.010295298 0.0037389873 4290454303
-0.0042297281 0.0075593069 0.0061881794 4290389023
-0.0017386526 0.0048247166 0.0086334301 4289472808
0.00034168735 0.0042317286 0.0089706043 4289604134
0.0021338835 0.0050657019 0.0079050222 4289538344
0.0039208047 0.0058993995 0.0068405522 4289799973
0.0057024285 0.0067328699 0.0057771532 4290519584
0.0080981627 0.004715208 0.0075122556 4290323233
0.010667596 0.0019861422 0.0099431919 4290388769
0.012457464 0.0028204434 0.0088784834 4290127139
0.014730748 0.0015178323 0.0099083865 4289211434
0.017677188 -0.0026321858 0.013725645 4289472808
0.022002164 -0.012475178 0.023111578 4289538344
0.026231414 -0.02160164 0.031787146 4289210923
0.030009558 -0.028588943 0.038362209 4288621873
0.033312418 -0.033438616 0.042841297 4287183164
0.036294848 -0.036863431 0.045923851 4285875268
-0.017582614 0.0037252232 0.0089667691 4287575354
-0.016142707 0.0067120902 0.005787964 4289211944
-0.014473829 0.008264225 0.0040198481 4289604134
-0.012687724 0.0090992786 0.0029565291 4289407783
-0.01103738 0.010650467 0.0011920528 4289538853
-0.0092644393 0.011484861 0.00013140496 4289015594
-0.0070891008 0.01017081 0.0011755796 4289211689
-0.0046257637 0.0074256882 0.0036193198 4289276968
-0.0021408461 0.0046820045 0.0060590757 4289342504
-0.00021011755 0.0048020855 0.0056958599 4289669413
0.0017206967 0.004922267 0.0053327074 4289669159
0.0033529699 0.0064730719 0.0035721241 4289603879
0.0051265731 0.0073082037 0.0025118878 4289145898
0.0073589347 0.005998373 0.0035459166 4289341993
0.010074217 0.0025451183 0.0066696303 4289342249
0.012656342 -0.0001918003 0.0090916501 4289669413
0.015260011 -0.0029272065 0.011509671 4289276968
0.018712346 -0.0092324018 0.017402295 4289342504
0.023053646 -0.019104786 0.026761934 4289015083
0.027128587 -0.027544573 0.034718152 4288687919
0.030227082 -0.031697787 0.038497135 4286922043
-0.019396547 0.0005980283 0.0095663285 4287379259
-0.018298995 0.0057522282 0.004282984 4288687408
-0.016627382 0.0073087998 0.0025175344 4289865254
-0.014716376 0.0074269325 0.0021574823 4290062369
-0.01280525 0.0075451769 0.0017974842 4289996834
-0.011024348 0.0083821043 0.00073690061 4289146409
-0.0091156512 0.0085003898 0.00037750602 4289277223
-0.0069353841 0.0071822442 0.0014174636 4289473318
-0.0047442801 0.0058649033 0.0024554105 4289342504
-0.0026834346 0.0052662604 0.0027927812 4289473319
-0.00090466067 0.006103579 0.0017329911 4289734949
0.0011617504 0.0055054836 0.0020694723 4289930789
0.002637025 0.0077775083 -0.00038338546 4290454048
0.0045517646 0.0078968965 -0.00074335933 4290257954
0.0066210851 0.0072992891 -0.00040719192 4289734694
0.0094818547 0.0031175092 0.0034059985 4289407528
0.012534805 -0.0017789379 0.0079083266 4289473319
0.015787967 -0.007389456 0.013098196 4289996579
0.019745205 -0.015862912 0.021056432 4289342249
0.023934877 -0.025048457 0.0296962 4288949293
0.027341237 -0.030649073 0.034857545 4287706678
0.030270653 -0.034099177 0.037933286 4286071873
-0.02033237 0.0040758997 0.0034820111 4287510074
-0.018894229 0.0070798881 0.00031669531 4289930534
-0.017111 0.0079188123 -0.00074291416 4289931554
-0.015083376 0.0073153153 -0.00040142145 4290192928
-0.012795221 0.0052703507 0.0013381774 4290716444
-0.010881398 0.005388841 0.00097773131 4289342503
-0.0089674629 0.0055074394 0.0006173458 4289277223
-0.0070534013 0.0056261346 0.00025700126 4289473318
-0.0052774847 0.0064652599 -0.00080080237 4289604133
-0.0036477558 0.0080242082 -0.0025544968 4289538598
-0.0015978292 0.0074228048 -0.0022166576 4289604134
0.00060383976 0.0061020292 -0.001183751 4289669413
0.0023693889 0.0069409236 -0.0022392944 4289996578
0.0039779767 0.0084989816 -0.0039886851 4290323488
0.0060389452 0.0078986809 -0.0036526099 4289865764
0.0090475753 0.0029841438 0.00084634032 4290192674
0.012573015 -0.0040847287 0.0074186577 4289996068
0.016639445 -0.013306461 0.016059838 4289734438
0.020775728 -0.022523656 0.02468795 4289669159
0.024478553 -0.029581144 0.031227238 4288818478
0.027553255 -0.03376203 0.034990709 4286136898
-0.022251386 0.0016760826 0.0033816984 4287835963
-0.02103265 0.0061370432 -0.0011794968 4289734183
-0.019488107 0.0084252805 -0.0036363704 4289276968
-0.01771557 0.0092657059 -0.0046923179 4289146408
-0.015574303 0.0079360455 -0.0036520399 4289342503
-0.01329482 0.0058839954 -0.0019158032 4289473318
-0.011129148 0.0045560598 -0.00087996013 4289800483
-0.0092180222 0.0046744533 -0.0012398437 4289473318
-0.0074421614 0.0055155829 -0.0022960305 4289473318
-0.0058096349 0.0070789456 -0.0040470138 4289538598
-0.0041877665 0.0086417869 -0.0057959612 4289342504
-0.0021461993 0.008037664 -0.005458225 4289604134
0.00019308925 0.0059900433 -0.0037327036 4289538599
0.0021021254 0.0061089471 -0.0040917005 4289800228
0.0041627288 0.005506333 -0.0037573082 4289538598
0.0062287785 0.0049041212 -0.0034238109 4289734693
0.0093983337 -0.00074661523 0.0017550485 4290127138
0.013249144 -0.0092790872 0.0096932901 4289669159
0.01748893 -0.019249313 0.019002143 4289472808
0.021309165 -0.027052328 0.02622446 4288949293
0.02468569 -0.032689728 0.031364825 4287903029
-0.024842072 0.0036298372 -0.00091640931 4287181378
-0.023392428 0.006651666 -0.0040708138 4289014318
-0.021614801 0.0074943379 -0.0051262439 4289931553
-0.020080607 0.0097884163 -0.0075762114 4290127903
-0.018318769 0.010630324 -0.0086285062 4289800483
-0.016437661 0.010746542 -0.008982975 4289866019
-0.013920564 0.0072363317 -0.0058560637 4290192928
-0.011636209 0.005178161 -0.0041256528 4290062369
-0.0094681904 0.003846094 -0.0030935118 4289669669
-0.007694982 0.0046892129 -0.0041475603 4289669669
-0.0059270337 0.0055321082 -0.0052005374 4289669669
-0.0043049566 0.0070992857 -0.0069462215 4290389279
-0.0022636838 0.0064929649 -0.006610096 4290716444
7.4975193e-05 0.0044387951 -0.0048894254 4290062369
0.0024298206 0.0023857132 -0.0031717429 4290323488
0.0041955188 0.0032289997 -0.0042238915 4289473319
0.0065719821 0.0011775345 -0.0025101369 4289603878
0.0097481422 -0.0044901967 0.0026542665 4289603623
0.014083024 -0.01521825 0.012642083 4289538344
0.018336441 -0.025218032 0.021925148 4289472554
0.022006052 -0.03232111 0.028437376 4288752943
0.024557298 -0.034361131 0.03011876 4286856764
-0.02231184 0.0095974877 -0.0097564356 4290131729
-0.020671751 0.011169285 -0.011502833 4289605664
-0.018798966 0.011284862 -0.011855833 4289539618
-0.016801689 0.010672871 -0.011513597 4290062114
-0.014417935 0.0078789182 -0.0090884715 4289669669
-0.012012567 0.0050863475 -0.0066673034 4289473318
-0.0099827386 0.0044767186 -0.0063310084 4289866020
-0.0079474151 0.0038674846 -0.0059956354 4289669669
-0.0063198768 0.0054392219 -0.0077391234 4289604389
-0.0042816848 0.00483042 -0.0074041695 4290258464
-0.0023811311 0.0049485415 -0.0077617676 4289931298
-4.3109059e-05 0.0028877929 -0.006045972 4290127648
0.0023111105 0.00082816929 -0.0043331301 4290585629
0.0045303367 -0.0005043298 -0.0033133915 4289277224
0.0072219297 -0.0040135086 -0.00022680406 4289538598
0.010879647 -0.011874869 0.0069893384 4289604134
0.015392594 -0.02335979 0.017637316 4289407274
0.019181985 -0.031212687 0.0248289 4288557104
0.021878337 -0.033985659 0.027196396 4286987579
0.024428939 -0.036032245 0.028872926 4285875268
-0.021142717 0.011837687 -0.014721677 4289804564
-0.019035149 0.010492753 -0.01368512 4289147938
-0.017040882 0.0098784119 -0.013344047 4289408038
-0.014660571 0.0070755035 -0.010924872 4289276968
-0.012388203 0.0050035194 -0.0092021879 4289669669
-0.010364044 0.0043913499 -0.008866501 4289473318
-0.0086041801 0.005237937 -0.0099147502 4289604644
-0.0068495907 0.006084308 -0.010961926 4289866018
-0.0049600042 0.0062016286 -0.011317551 4289408038
-0.0029273778 0.005590409 -0.010983137 4289211944
-0.00045240298 0.0027940944 -0.008581222 4289408038
0.001895804 0.00072761625 -0.0068722768 4289146408
0.0045621917 -0.0027941167 -0.0037893383 4289277223
0.0080239363 -0.0099541098 0.0027284771 4289211689
0.012008518 -0.019294083 0.011298577 4289211434
0.016062975 -0.028629601 0.019855689 4288753198
0.019216847 -0.033595666 0.024281073 4287183674
0.02158623 -0.034922563 0.025269717 4286202178
-0.013280582 0.0078564361 -0.014493892 4289411099
-0.011404868 0.0079725571 -0.014847165 4289409824
-0.009394303 0.0073574558 -0.014510512 4289736734
-0.0076530948 0.0082051605 -0.015553517 4290455069
-0.0056369677 0.0075906143 -0.015217755 4290455069
-0.0034725927 0.0062456802 -0.014194585 4289931553
-0.001151938 0.0041707978 -0.012485488 4289538853
0.0016293488 -9.4480813e-05 -0.0087173348 4289996834
0.0050462596 -0.0072790608 -0.0022078026 4289800483
0.008977484 -0.016650721 0.0063507492 4289342504
0.012978561 -0.026017919 0.014896247 4289080874
0.016255055 -0.031731412 0.020002063 4288687919
0.018928271 -0.03452336 0.022360597 4285875268
-0.010317296 0.010232639 -0.019778082 4288821793
-0.0083176605 0.0096147433 -0.019440915 4290194969
-0.006312564 0.0089973286 -0.019104738 4289474338
-0.0040167719 0.0069142841 -0.017396022 4289081128
-0.0015595108 0.004099533 -0.015004094 4289670179
0.0019552074 -0.003842704 -0.0078160223 4289866274
0.0056796931 -0.012513645 4.6174973e-05 4289473574
0.0097753815 -0.02264519 0.0092657851 4289277223
0.013166115 -0.029110976 0.0150503 4289015083
0.015970334 -0.032645471 0.018091016 4287052860
-0.0044174828 0.0068610832 -0.019902449 4289606939
-0.0013858378 0.0010970458 -0.014777542 4289278753
0.0022800863 -0.00760369 -0.0069242958 4289998364
0.0063114986 -0.017769754 0.0022841012 4289802013
0.010111772 -0.026461929 0.010112301 4288688939
0.013197176 -0.031478092 0.014515561 4286791228
0.0072423518 -0.024521142 0.0058699632 4288364323
0.010447197 -0.030291423 0.010949298 4287969584
0.013072226 -0.03311269 0.013296795 4285940803
0.0046490245 -0.055843972 -0.018717615 4287443519
0.0069233142 -0.05728136 -0.017790942 4287313724
0.0042334683 -0.055878624 -0.021206377 4287770428
0.0063523799 -0.056538388 -0.020929283 4286789699
0.011580344 -0.041538812 0.0020936532 4282870094
0.011456318 -0.04316216 0.00088326167 4282803794
0.0044997148 -0.045360312 -0.004276556 4282935119
0.0045226105 -0.047736868 -0.0048166453 4282607444
0.0066631548 -0.048375845 -0.0045288559 4282280533
-0.0037404746 -0.042169943 -0.016539965 4283526463
-0.0017865039 -0.042048715 -0.016907778 4282412623
0.00059500337 -0.04423698 -0.015299593 4282346069
-0.006888479 -0.037694603 -0.022621527 4283854648
-0.0046822615 -0.039119601 -0.021669272 4282739789
-0.0028841682 -0.038227186 -0.02269154 4282477138
-0.00037976354 -0.041195117 -0.020427689 4281952348
-0.010253407 -0.031631634 -0.029999778 4282809148
-0.0072752312 -0.037711367 -0.025103334 4282284359
-0.0053484514 -0.037591957 -0.025466137 4282608463
-0.013303857 -0.027075872 -0.036042914 4282743869
-0.010632657 -0.031621709 -0.032462981 4282023238
-0.0079292022 -0.036165364 -0.028889056 4282020943
-0.0060133077 -0.036046639 -0.029249817 4282410839
-0.012905348 -0.031719893 -0.034562696 4283332153
-0.010486782 -0.034719624 -0.032302827 4282285124
-0.0080466829 -0.037717924 -0.030046932 4282020434
0.038110375 -0.055741884 0.037480671 4282536808
0.03761778 -0.055991821 0.034845661 4282340204
0.037305743 -0.056967758 0.03289387 4282471018
0.034361415 -0.055859141 0.029313795 4282274669
0.031440236 -0.054731295 0.025742956 4282536809
0.033876605 -0.056079462 0.026699647 4282274414
0.028713526 -0.054326296 0.022854455 4282602598
0.031309955 -0.056421667 0.024482861 4282209388
0.03356915 -0.057032421 0.024764247 4282667879
0.028583931 -0.056009792 0.021599453 4281488249
0.031179694 -0.058111712 0.023223013 4282209644
0.033438563 -0.058724657 0.023502801 4282602598
0.025707083 -0.054836743 0.018052682 4282602599
0.02862533 -0.058439404 0.021014482 4281422713
0.031223116 -0.060547687 0.022632703 4282209643
0.025746481 -0.057259634 0.01747331 4282471019
0.028495619 -0.060124427 0.019758336 4282667879
0.022725547 -0.055309534 0.013273795 4282405484
0.025785582 -0.059686571 0.016890932 4282404973
0.016896103 -0.049694873 0.0061338833 4282275434
0.0198959 -0.05408895 0.0097522037 4282012528
0.022762815 -0.057727575 0.012698636 4282208879
0.025488807 -0.060611293 0.014974662 4282536044
0.01708943 -0.052849144 0.0062398324 4280636548
0.019931179 -0.056500301 0.009182618 4281684853
0.022634843 -0.059394196 0.011456125 4282339693
0.014306143 -0.051590085 0.0027366821 4282079083
0.016963314 -0.054495811 0.0050121183 4281881204
0.019804064 -0.058157876 0.0079468237 4282208114
0.011546038 -0.050311834 -0.00075726025 4282341479
0.014337435 -0.053988077 0.0021782424 4282209389
0.016996462 -0.056902349 0.0044467198 4282404973
0.019515071 -0.05905515 0.0060496712 4282928999
0.0089601502 -0.049777262 -0.0035799835 4282211174
0.011575349 -0.052703179 -0.0013100822 4282340714
0.014212035 -0.055627607 0.00095582567 4282274669
0.017029312 -0.059312962 0.0038783448 4282666858
0.0086855814 -0.050634027 -0.0054495949 4281882479
0.011604346 -0.055098519 -0.0018659551 4281421948
0.014242899 -0.058031514 0.00039303862 4282142833
0.0062687211 -0.05084303 -0.0075999666 4282275689
0.0087127499 -0.053020522 -0.0059982892 4282143598
0.011326298 -0.055963859 -0.003741296 4282077553
0.014117394 -0.059672594 -0.00083053764 4282339184
0.0061457194 -0.052457675 -0.0088039432 4281881713
0.0084385686 -0.053872302 -0.007864194 4281946738
0.011048596 -0.05682449 -0.0056132064 4282470509
0.0030161887 -0.048792869 -0.014228651 4280900728
0.0058750696 -0.053300299 -0.010663686 4280308364
0.0083151013 -0.055491015 -0.0090711731 4281553274
0.010618225 -0.056909174 -0.0081366021 4282797673
-0.00078388304 -0.041223787 -0.022914503 4279718293
0.0027497187 -0.049617603 -0.016075784 4280767108
0.0056047812 -0.054138288 -0.012519969 4282208623
-0.0038186945 -0.037480853 -0.028301943 4279456664
-0.00090333819 -0.042796217 -0.024087086 4279783573
0.0026282929 -0.05121392 -0.017266149 4280897923
0.0051874854 -0.054195553 -0.015025599 4282667879
-0.003936816 -0.039037779 -0.029462993 4279981964
-0.00088094175 -0.045146912 -0.024607312 4280307853
0.0025068857 -0.052809969 -0.018456316 4281094529
0.024603549 -0.062452137 -0.013104296 4282338418
-0.006112244 -0.039932534 -0.030913752 4279982728
-0.0039159209 -0.041375339 -0.029972766 4279783828
-0.0010005049 -0.046720907 -0.025781069 4281028994
0.0022411682 -0.053625166 -0.020296266 4281684343
-0.003478881 -0.04606612 -0.028537329 4281618808
-0.0008370541 -0.04986047 -0.025656777 4281487229
0.028506624 0.011221435 0.06655585 4285230373
0.030572226 0.011351094 0.066168167 4285754653
0.033525512 0.0081746541 0.069447264 4285819678
0.025295952 0.013392497 0.061289687 4285295654
0.026657386 0.016176101 0.057974156 4285689629
0.028521338 0.016967632 0.056859341 4285557793
0.031089382 0.015105233 0.058672395 4285820189
0.034933917 0.0086011775 0.065600835 4285755163
0.039380468 0.00011131912 0.07471133 4285689629
0.022286242 0.014925905 0.05676933 4285361699
0.023983786 0.016385756 0.054923985 4285886743
0.025326982 0.019176923 0.051618528 4285821209
0.027172197 0.019969475 0.050508898 4285689118
0.02954362 0.018764935 0.051590499 4285689629
0.033005111 0.01356848 0.057047542 4285820954
0.036327049 0.0090401061 0.061767478 4285689883
0.039130859 0.0065094531 0.064294778 4285559069
0.041392319 0.0059750304 0.064633921 4285493534
0.04327786 0.0067705363 0.063517049 4285493278
0.045351319 0.0069011785 0.06312827 4285623584
0.048796862 0.0023809038 0.067825347 4285754654
0.019305352 0.016483214 0.052260425 4285229863
0.021327566 0.016609918 0.051880721 4285558559
0.023011915 0.018073298 0.050041173 4285558558
0.024513885 0.020204246 0.047474232 4285886743
0.026174091 0.021666251 0.045639329 4285886743
0.028708667 0.019788697 0.047448628 4285821208
0.032157958 0.014574032 0.052894641 4285821209
0.035103075 0.011364553 0.056150358 4285558813
0.037334703 0.010826007 0.056493375 4285558813
0.039008372 0.012289226 0.054656226 4285624859
0.040480778 0.014418811 0.052095208 4285624603
0.042516492 0.014547087 0.051713515 4285820443
0.045531414 0.011342365 0.05495641 4285820188
0.049962945 0.0034742542 0.063265145 4285820188
0.055465072 -0.0077210367 0.075181305 4285820188
0.018361919 0.018190205 0.047385775 4285689374
0.020370595 0.018316053 0.047008604 4285754909
0.022548098 0.017771494 0.047359787 4285689373
0.024388071 0.018567976 0.0462544 4285623583
0.026396848 0.018694058 0.045877378 4285623838
0.028759353 0.017480236 0.046953984 4285558558
0.03167126 0.014257696 0.050207537 4285624349
0.034063369 0.013045851 0.051278759 4285624349
0.036096375 0.013173744 0.050897416 4285624348
0.037566531 0.015309673 0.048341766 4285820954
0.03940114 0.016106337 0.047237784 4285821208
0.041230336 0.016902741 0.04613487 4285558049
0.044032514 0.014354844 0.048649382 4285558049
0.047649611 0.0091338679 0.054050963 4285623838
0.051711805 0.0025786795 0.060889143 4285624093
0.016067315 0.017101612 0.045815084 4285558048
0.017583434 0.019246288 0.043255281 4285886488
0.01974719 0.018698599 0.043607317 4285952023
0.02225361 0.016805932 0.045411788 4286018068
0.024604887 0.015586898 0.046487059 4285755418
0.026792958 0.015040919 0.046834745 4285624349
0.028986413 0.014495399 0.047181439 4285558814
0.031364638 0.013278291 0.048251834 4285559068
0.033207428 0.014077429 0.047147807 4285558813
0.035229586 0.014204647 0.046768501 4285624349
0.036689404 0.016346458 0.044219781 4285755419
0.038323201 0.01781597 0.04239684 4285952789
0.040331852 0.017942559 0.042020235 4285886999
0.042926993 0.016056221 0.043808632 4285755674
0.046331007 0.011487707 0.048478581 4285821464
0.050777048 0.0035683103 0.056744728 4285755929
0.057119727 -0.010381281 0.071479969 4285559068
0.013778701 0.016018081 0.044246845 4285361188
0.014979772 0.019520354 0.040237736 4285820188
0.016643252 0.020995319 0.038411964 4285491494
0.018627543 0.021119624 0.038039356 4285557283
0.021454126 0.017869622 0.041292049 4285754653
0.024307638 0.014621381 0.044539742 4285754909
0.026840411 0.012723975 0.046334386 4285623838
0.029036298 0.012176421 0.046678953 4285624349
0.030879162 0.012977675 0.045576528 4285690139
0.032170963 0.015800774 0.042307563 4285689628
0.033994999 0.016600996 0.041208785 4285689374
0.035813645 0.017400961 0.040111076 4285689375
0.038006812 0.016853627 0.040456455 4285623839
0.03982003 0.017653398 0.039359879 4285624093
0.042604525 0.015087012 0.041864362 4285624603
0.046400629 0.0091569535 0.047962449 4285559324
0.051650099 -0.0014799386 0.059084538 4285493534
0.01118641 0.016295452 0.041229144 4285098539
0.012708597 0.018453389 0.038678043 4285623838
0.014214732 0.020610377 0.036130074 4286148629
0.015867684 0.022089075 0.034309551 4286214928
0.018006716 0.021535467 0.034662891 4285952024
0.020824298 0.018273994 0.037908945 4285952023
0.023668814 0.01501425 0.041150048 4285755418
0.026192907 0.013109792 0.04294128 4285624093
0.028027765 0.013912641 0.041841958 4285624349
0.029678222 0.015391614 0.040022306 4285689884
0.031317916 0.016870037 0.0382047 4285820953
0.033315685 0.016995724 0.037829973 4285952279
0.035687659 0.015769701 0.038895112 4285952534
0.038070351 0.014544468 0.03995825 4285689884
0.04027129 0.013995532 0.040300567 4285624349
0.043063086 0.011420865 0.042797085 4285559069
0.047459215 0.0034459755 0.051032614 4285493789
0.053524181 -0.0099250302 0.064995043 4285427998
0.012427352 0.017515529 0.036748074 4285359658
0.013931185 0.019678928 0.034205467 4285557028
0.015744437 0.020482197 0.033111554 4285820444
0.017552357 0.02128521 0.032018706 4285755164
0.020363625 0.018012445 0.035257626 4285689628
0.023031015 0.015420523 0.037770279 4285624093
0.025546446 0.013508946 0.039558183 4285624093
0.027197119 0.014992248 0.037741713 4285754909
0.028658185 0.017153524 0.035207562 4285820699
0.030103128 0.019313838 0.032676551 4285754653
0.032453157 0.018082041 0.033742372 4285623329
0.035000868 0.016172897 0.035524528 4285820444
0.038133558 0.01223116 0.039456949 4285755674
0.040721551 0.010324713 0.041231677 4285624604
0.044300638 0.0050315373 0.046587162 4285493533
0.049504198 -0.0056779832 0.057664525 4285362463
0.015946366 0.01751196 0.033356082 4285557284
0.017759722 0.018317517 0.032263815 4285623329
0.020239536 0.016397003 0.034053292 4285624094
0.022394244 0.015840165 0.034400471 4285689884
0.024727691 0.014602598 0.03546587 4285624348
0.026191834 0.01677053 0.032936074 4285689374
0.027639862 0.018937528 0.030409358 4286280974
0.029253155 0.020422954 0.028603397 4285886233
0.031591989 0.019186106 0.029668 4285557538
0.034501869 0.015909202 0.032880522 4285689119
0.03781753 0.011273872 0.037520349 4285689884
0.041362934 0.0059610717 0.042868778 4285624603
0.045925464 -0.0027476549 0.051784728 4285558814
0.051742978 -0.015529461 0.064975381 4285427999
0.018131536 0.014657479 0.03322164 4286081819
0.020283256 0.014098186 0.033567648 4285622818
0.021928988 0.015589673 0.031758673 4285687588
0.024083447 0.015030716 0.032104295 4285557284
0.025364093 0.017887812 0.028863918 4285557538
0.026980311 0.019377701 0.027060673 4285819933
0.028404545 0.021549817 0.024543479 4286148628
0.030916106 0.019625261 0.026322383 4286017049
0.033816975 0.016336903 0.029528286 4285886488
0.037501846 0.010321196 0.03558718 4285755674
0.042002976 0.0015801713 0.044493012 4285624349
0.047352597 -0.0098841116 0.056239698 4285427744
0.028824665 0.017899558 0.025497388 4285491748
0.03079246 0.018023372 0.025128294 4285557538
0.033505954 0.015408713 0.02761272 4285623838
0.03756474 0.0080042221 0.03508316 4285558559
0.043408871 -0.0055551678 0.048953753 4285558559
0.049166005 -0.018423565 0.062092427 4285427744
0.031219531 0.014360785 0.026071075 4285491749
0.034126565 0.011051055 0.029259205 4285623329
0.038760979 0.0015631765 0.038843401 4285558048
0.045003712 -0.01341179 0.05409934 4285492768
-0.029464241 0.017225202 -0.018887732 4285753889
-0.027400184 0.015877195 -0.017843271 4285818914
-0.031734411 0.017813895 -0.021743599 4285624348
-0.030115981 0.019392539 -0.023479585 4286017048
-0.028176371 0.018772136 -0.023130264 4286016793
-0.026004713 0.016686816 -0.021394037 4286148119
-0.023816798 0.014602616 -0.019660855 4285819933
-0.021731284 0.013251815 -0.018623509 4285623073
-0.019634914 0.011901826 -0.017588172 4286016793
-0.033679951 0.016210534 -0.022509549 4285493278
-0.032371279 0.01999981 -0.026324769 4285755163
-0.030766051 0.021581966 -0.028054969 4285623583
-0.028840128 0.020958528 -0.02770474 4285689119
-0.0267956 0.019600689 -0.026663184 4285886489
-0.024508614 0.016774207 -0.024240017 4285689118
-0.022318501 0.014683675 -0.022512116 4285689374
-0.020233314 0.013328634 -0.021478001 4285623839
-0.018261064 0.012708515 -0.021136083 4285557794
-0.034302417 0.018408474 -0.027084932 4285690394
-0.03279667 0.020732701 -0.029505104 4285755418
-0.031306844 0.023056094 -0.03192224 4285623584
-0.029502202 0.023166981 -0.032262765 4285623584
-0.027358595 0.021066856 -0.030531228 4285754909
-0.025083121 0.018231008 -0.028112575 4285820698
-0.022904348 0.016133249 -0.02638752 4285624604
-0.020951327 0.015509684 -0.026043775 4285558813
-0.018992808 0.014886528 -0.025700936 4285624349
-0.017660525 0.017944913 -0.028799765 4285689373
-0.01596253 0.018793955 -0.029831644 4285950493
-0.014006328 0.018170971 -0.029488128 4286015773
-0.01150706 0.014605634 -0.026399113 4285818659
-0.009117946 0.011777584 -0.024001203 4285883939
-0.037762959 0.01448556 -0.025424883 4284966958
-0.03633244 0.017557628 -0.028536413 4285558813
-0.034719091 0.019148711 -0.03026171 4285624348
-0.033221032 0.021478992 -0.032675527 4285952788
-0.031738903 0.023808382 -0.03508627 4285886743
-0.029832322 0.023179382 -0.034735728 4285820954
-0.027694684 0.021072365 -0.033008054 4285886998
-0.025194447 0.016749304 -0.029217798 4285690138
-0.023252565 0.016122732 -0.028873645 4285624349
-0.021305192 0.015496638 -0.028530497 4285624348
-0.019722853 0.017086666 -0.030249368 4285689628
-0.018403459 0.020152863 -0.033339128 4285886489
-0.016847696 0.021741461 -0.035052832 4285951258
-0.01464479 0.019639168 -0.033336919 4286082073
-0.012157205 0.016062241 -0.030253995 4286082074
-0.0097796209 0.013224788 -0.027860554 4285622563
-0.038452853 0.017454289 -0.030675862 4285361699
-0.036839474 0.019049622 -0.032397997 4285624349
-0.035032865 0.019160293 -0.032739151 4285624349
-0.033435229 0.020754822 -0.034458112 4285624094
-0.03195541 0.023090567 -0.036863457 4285624094
-0.027917463 0.020345438 -0.034790725 4285624093
-0.025536295 0.016750343 -0.031696595 4285624349
-0.023600083 0.016121268 -0.031353097 4285624349
-0.021779027 0.016233522 -0.031696446 4285624348
-0.020081181 0.017086621 -0.032725111 4285821208
-0.018766638 0.020161208 -0.035807401 4285755164
-0.017216031 0.021753766 -0.037516784 4285557794
-0.015413273 0.021865316 -0.037856363 4285820189
-0.012806002 0.017536569 -0.034095667 4285885978
-0.010439944 0.014689721 -0.031706683 4285689118
-0.0079128854 0.011104584 -0.028639328 4285623838
-0.0047904365 0.0045629553 -0.022849524 4285623328
-0.00046118349 -0.0078907907 -0.011617923 4285623328
0.0039593689 -0.020338707 -0.00040346291 4285558048
-0.040655103 0.018105511 -0.03349999 4285492769
-0.039140742 0.020449456 -0.035907209 4285885978
-0.037246112 0.019814935 -0.035558071 4285820443
-0.035142493 0.017692372 -0.033834249 4285820954
-0.033440243 0.01854717 -0.03486266 4285624093
-0.031850297 0.020145684 -0.036576841 4285624349
-0.0299416 0.019512385 -0.036230005 4285558814
-0.028027412 0.01887957 -0.035884172 4285559069
-0.025762331 0.016016953 -0.033483438 4285559069
-0.023946892 0.016128756 -0.033825807 4285559069
-0.022131335 0.016240645 -0.034168139 4285624349
-0.020685162 0.018581409 -0.036561724 4286018579
-0.019380834 0.021664035 -0.039635461 4285820699
-0.017712217 0.022517685 -0.040656827 4285623328
-0.015523974 0.020401452 -0.038948104 4285623328
-0.013051722 0.016801856 -0.035878878 4285689883
-0.010552552 0.013204038 -0.032814641 4285821464
-0.0078871846 0.0088660829 -0.029074669 4285624604
-0.0043378174 7.9728663e-05 -0.021259267 4285558814
0.00028847903 -0.01389356 -0.0086978618 4285558814
0.0045748539 -0.025636107 0.0018067742 4285427234
-0.042476472 0.015782963 -0.033564303 4285295908
-0.041044723 0.018880848 -0.036656413 4285821209
-0.03944182 0.020484038 -0.038370006 4285885723
-0.037453946 0.019100424 -0.037334785 4285886488
-0.035252053 0.016224731 -0.034929141 4286018323
-0.033445533 0.01633545 -0.03527024 4285755673
-0.031745773 0.017192341 -0.036296465 4285624348
-0.029941622 0.017303105 -0.036636967 4285559068
-0.028025035 0.016668249 -0.036293257 4285559068
-0.026102949 0.016033828 -0.035950515 4285624604
-0.024410669 0.016890675 -0.036975011 4285559069
-0.022723597 0.017747302 -0.037998445 4285624349
-0.021164794 0.01934883 -0.039702989 4285755418
-0.019616585 0.020949762 -0.041405413 4286084369
-0.018078994 0.022550147 -0.043105755 4285821209
-0.015896749 0.020427089 -0.041400913 4285887254
-0.013430815 0.016816236 -0.038338795 4285821208
-0.010528695 0.010974374 -0.033242792 4285624348
-0.0071662664 0.0029030405 -0.026117492 4285493278
-0.003177546 -0.0081402585 -0.016288759 4285493278
0.0011806563 -0.020665906 -0.0051189614 4285493023
0.0046001077 -0.027980655 0.0012906492 4285426213
-0.044215042 0.012706738 -0.032943498 4284901168
-0.042948242 0.017312676 -0.037405394 4285559323
-0.041246589 0.018171333 -0.038430713 4285558559
-0.039742213 0.02052762 -0.04082616 4285557794
-0.037661415 0.018390518 -0.039108064 4285557793
-0.035564374 0.016254503 -0.037392959 4285755163
-0.033555176 0.014868043 -0.036364935 4285755419
-0.031641867 0.01423059 -0.036022443 4285624349
-0.029832479 0.01434166 -0.036363948 4285558813
-0.027910825 0.01370487 -0.036022831 4285558813
-0.026328076 0.015311889 -0.03772882 4285624348
-0.024873395 0.017665938 -0.040114265 4285624350
-0.023074184 0.017776795 -0.040453535 4285623839
-0.021520544 0.019382279 -0.042153765 4285624093
-0.019851971 0.020240135 -0.043171905 4285623838
-0.018188659 0.021097753 -0.044188987 4285624093
-0.01587614 0.018221367 -0.041810017 4285558813
-0.013274912 0.013853151 -0.038077965 4285559324
-0.0096875951 0.0042619966 -0.029605992 4285559069
-0.0058915168 -0.0060709715 -0.020469598 4285427998
-0.0015953705 -0.018637449 -0.0093163541 4285493534
0.0019262582 -0.026722558 -0.0022390112 4285427489
0.0046250597 -0.030329205 0.00077144802 4285425959
-0.044763442 0.014993381 -0.037468687 4285295908
-0.043237608 0.017357223 -0.039863337 4285756184
-0.041541275 0.018217709 -0.040886011 4285689628
-0.039946008 0.019829083 -0.042591624 4285557793
-0.037967075 0.01843616 -0.041561332 4285689629
-0.035977248 0.017044049 -0.040533062 4285886998
-0.033976536 0.015652724 -0.039506752 4285755418
-0.031964939 0.01426211 -0.03848239 4285689629
-0.030051779 0.01362256 -0.038141459 4285624349
-0.028133098 0.012983453 -0.037801489 4285690139
-0.026782107 0.016094476 -0.040864538 4285689628
-0.025335107 0.018454503 -0.043243531 4285886743
-0.023544077 0.018564828 -0.043581277 4285886744
-0.021630224 0.017925855 -0.043240063 4285820954
-0.019836266 0.018036593 -0.043578189 4285689884
-0.018042188 0.018147431 -0.043916263 4285558558
-0.015986558 0.016760521 -0.042899523 4285493533
-0.012852807 0.0093840919 -0.036469698 4285559324
-0.0088487826 -0.0024805367 -0.025991756 4285493789
-0.0043424964 -0.016585067 -0.01350229 4285493789
-0.00058293343 -0.026193477 -0.0050840746 4285493534
0.0022374801 -0.030560628 -0.0014029332 4285427488
0.0046497025 -0.032681808 0.0002492331 4285228589
-0.046838854 0.014931578 -0.039587017 4285033259
-0.04522248 0.016548228 -0.041293506 4285493278
-0.043706995 0.018917955 -0.043681301 4285624859
-0.042021345 0.019779932 -0.044700317 4285887764
-0.040340874 0.02064167 -0.045718297 4285887254
-0.038370419 0.019243922 -0.044689763 4285886999
-0.036389079 0.017846953 -0.0436632 4285953044
-0.034293104 0.015697919 -0.041957792 4285689884
-0.032287341 0.014302641 -0.040935691 4285624093
-0.030379806 0.013660524 -0.040595319 4285624348
-0.028802175 0.015275743 -0.042293843 4285755418
-0.027235117 0.016890381 -0.043990247 4285952278
-0.025678653 0.018504512 -0.045684617 4285820698
-0.023773264 0.017862666 -0.045343529 4285886744
-0.021739874 0.016469717 -0.04432616 4286018323
-0.01982085 0.015828982 -0.043987513 4285690139
-0.01789635 0.015188687 -0.043649822 4285559068
-0.015574683 0.012295458 -0.041285794 4285559324
-0.012032259 0.0026450604 -0.032848485 4285493789
-0.0077403672 -0.010754839 -0.021050511 4285493789
-0.0033518411 -0.024148643 -0.0092706447 4285362463
3.0137599e-06 -0.03153266 -0.0028987825 4285164074
-0.046861853 0.01272 -0.039990321 4285295653
-0.045242604 0.01434112 -0.041694071 4285427488
-0.043724086 0.016717512 -0.044077497 4285493278
-0.042221453 0.019092984 -0.046457805 4285558813
-0.040543634 0.01995676 -0.047473677 4285624348
-0.038772758 0.020065021 -0.047808249 4285624350
-0.036698993 0.017908011 -0.046103697 4285624349
-0.034712572 0.016507093 -0.045081347 4285558558
-0.032715295 0.015106898 -0.044060931 4285624349
-0.031034011 0.015971344 -0.04507703 4285690139
-0.029357951 0.016835626 -0.046092104 4285755163
-0.027801413 0.018453922 -0.047783233 4285755164
-0.026021477 0.018563446 -0.048118975 4285557538
-0.024121758 0.017919123 -0.047778521 4285623584
-0.02197184 0.01576763 -0.046087697 4285754909
-0.02005579 0.015124537 -0.045750152 4285624348
-0.017751109 0.012221482 -0.04338963 4285624604
-0.015164088 0.00781326 -0.039684854 4285493788
-0.011080887 -0.0048773289 -0.028576128 4285493788
-0.0067706592 -0.018315084 -0.016811386 4285428254
-0.0030560046 -0.027982756 -0.0084278435 4285230374
-0.046631094 0.0082294904 -0.038353354 4285361188
-0.045000914 0.0098556057 -0.04005586 4285492513
-0.043561358 0.01299708 -0.043116521 4285558558
-0.042050336 0.015379582 -0.045493517 4285624859
-0.040555198 0.017761182 -0.047867376 4285493278
-0.038683716 0.01711211 -0.047523901 4285558814
-0.036806706 0.016463488 -0.047181375 4285624860
-0.034820747 0.015058193 -0.046162255 4285559069
-0.03314225 0.015924517 -0.047176268 4285558558
-0.031468969 0.016790621 -0.048189219 4285624349
-0.030023847 0.019169811 -0.05055321 4286018324
-0.028366368 0.020035159 -0.051563017 4285689374
-0.026597288 0.020143997 -0.051896729 4285623328
-0.024469558 0.017984513 -0.05020678 4285623584
-0.022203434 0.015070181 -0.047845781 4285689374
-0.020040628 0.012913123 -0.046162322 4285690394
-0.017351393 0.0077345632 -0.041789722 4285559068
-0.014103603 -0.00046342611 -0.034734126 4285559069
-0.009999197 -0.013189524 -0.023657516 4285493789
-0.006210342 -0.023644418 -0.014612528 4285163818
-0.04467329 0.0045926832 -0.03775147 4285360678
-0.043129954 0.0069835261 -0.040129706 4285426213
-0.041602489 0.0093735158 -0.042504855 4285492258
-0.040090937 0.011762582 -0.044876888 4285492513
-0.038399469 0.012631539 -0.045891944 4285492769
-0.036713194 0.013500344 -0.046905968 4285559068
-0.035032135 0.014368866 -0.047918905 4285493278
-0.033462223 0.015996292 -0.049606208 4285559069
-0.031794276 0.016864225 -0.05061651 4285559068
-0.030354161 0.019249581 -0.052974615 4285756183
-0.028815981 0.02087542 -0.054655731 4286018578
-0.027055088 0.020983744 -0.0549879 4285886998
-0.025055367 0.019575533 -0.053974185 4285887254
-0.022678722 0.015893675 -0.050945248 4285821719
-0.020275157 0.01221358 -0.047921307 4285624859
-0.016825568 0.0024727285 -0.039531205 4285493278
-0.013046037 -0.0087789893 -0.029812407 4285493534
-0.0090531968 -0.020783111 -0.019438278 4285493534
-0.0059224926 -0.027480558 -0.013769399 4285361953
-0.044521298 0.00083322078 -0.036817849 4285294888
-0.042700429 0.00094415247 -0.037162162 4285294379
-0.041064139 0.0025794581 -0.038859095 4285360679
-0.039533477 0.0049762167 -0.041229829 4285426213
-0.038018722 0.0073720515 -0.043597441 4285492004
-0.036519896 0.0097670592 -0.045962013 4285491748
-0.034830745 0.010638248 -0.046974815 4285557794
-0.033464182 0.013793137 -0.05000804 4285690649
-0.031901967 0.01542452 -0.051690511 4285559069
-0.030572634 0.018577356 -0.054716531 4285559069
-0.028923128 0.019446548 -0.055721588 4285558558
-0.027278859 0.020315494 -0.056725536 4285624093
-0.025163095 0.018142261 -0.055043265 4285558558
-0.022787403 0.014449514 -0.052022427 4285493278
-0.019512985 0.0054374076 -0.04431463 4285493278
-0.015665222 -0.0066105276 -0.033939846 4285493534
-0.011731584 -0.018653035 -0.023581147 4285493534
-0.0083749592 -0.026891865 -0.016582314 4285493534
-0.0057708733 -0.030569941 -0.013604082 4285492513
-0.0030019358 -0.035005525 -0.0099630617 4285228588
-0.046114642 -0.0038151518 -0.034871638 4285031984
-0.044457097 -0.0021744519 -0.036569458 4285426724
-0.042630989 -0.0020632073 -0.036914766 4285360679
-0.040989172 -0.00042321533 -0.038609501 4285425959
-0.039357882 0.0012161806 -0.040302124 4285360423
-0.037737135 0.0028550625 -0.041992668 4285426213
-0.036126968 0.0044934116 -0.043681197 4285425958
-0.034630287 0.0068948753 -0.046040326 4285557539
-0.033255156 0.010058906 -0.049068514 4285558048
-0.031684723 0.011695154 -0.050749283 4285492513
-0.030235838 0.014093962 -0.053099111 4285493024
-0.028689247 0.015728954 -0.054775219 4285492769
-0.027153242 0.017363358 -0.056449212 4285558814
-0.025270786 0.016709264 -0.056112148 4285493534
-0.022530947 0.010718118 -0.051091906 4285493533
-0.01887745 -0.00060657412 -0.04139914 4285427998
-0.014635179 -0.01497484 -0.029048864 4285427998
-0.011069406 -0.024764709 -0.020723552 4285296163
-0.0080959238 -0.030740961 -0.015746992 4285031984
-0.046056602 -0.0068359002 -0.034631778 4285097519
-0.044393506 -0.0051905066 -0.036327403 4285360933
-0.042740952 -0.003545709 -0.038020916 4285426468
-0.041006852 -0.002667889 -0.03903925 4285360423
-0.039277967 -0.0017902553 -0.040056579 4285425959
-0.03735939 -0.002445206 -0.039728601 4285425959
-0.035735648 -0.00080170482 -0.041416395 4285425958
-0.034122426 0.00084121525 -0.043102078 4285557539
-0.032730702 0.004014954 -0.046126835 4285557793
-0.031144004 0.0056565031 -0.047807388 4285492258
-0.029678684 0.0080627948 -0.050155364 4285492003
-0.02811582 0.0097031109 -0.051831249 4285558048
-0.026795898 0.012872819 -0.054842085 4285624094
-0.024903018 0.012217186 -0.05450866 4285493278
-0.02191082 0.004679963 -0.048168346 4285427743
-0.017746989 -0.0097343922 -0.035834778 4285427488
-0.013608072 -0.023378007 -0.024186853 4285361953
-0.010668322 -0.029373787 -0.019217256 4285229608
-0.044330519 -0.0082150102 -0.036091581 4285294888
-0.042761635 -0.0057967156 -0.038454875 4285361188
-0.041116726 -0.0041479543 -0.040143561 4285426213
-0.039387811 -0.0032681748 -0.041159254 4285360423
-0.037469532 -0.0039253086 -0.040832877 4285425959
-0.03564569 -0.0038138255 -0.04117747 4285425958
-0.034026947 -0.0021661967 -0.04286094 4285491749
-0.032313462 -0.0012870058 -0.043873362 4285492003
-0.03071316 0.00035966933 -0.04555314 4285492258
-0.029123444 0.0020058341 -0.047230873 4285557794
-0.027657662 0.0044187829 -0.049573962 4285557794
-0.026323814 0.0075980015 -0.052580815 4285426213
-0.024536524 0.0077080019 -0.052917935 4285492258
-0.021535393 0.00014967471 -0.046595838 4285426978
-0.017488118 -0.013538659 -0.034960479 4285426979
-0.013344254 -0.02722092 -0.023343243 4285295143
-0.039214339 -0.0070578307 -0.040253669 4285359914
-0.037482534 -0.0061756447 -0.041268133 4285360169
-0.03565615 -0.0060640275 -0.041613221 4285360679
-0.033829603 -0.0059522763 -0.041958243 4285425958
-0.0322132 -0.0043003708 -0.043637894 4285491749
-0.030499544 -0.0034188852 -0.04464861 4285492259
-0.029012103 -0.00099828094 -0.046990883 4285492259
-0.027314235 -0.00011750311 -0.047998492 4285492259
-0.025853317 0.0023017153 -0.050335564 4285492259
-0.023697179 0.00010499358 -0.048680823 4285492258
-0.020918798 -0.0059357285 -0.043707516 4285426724
-0.017106313 -0.018124536 -0.033431921 4285426724
-0.01358768 -0.0280018 -0.025162319 4285229353
-0.037301946 -0.0099754035 -0.040371947 4285228589
-0.035666879 -0.0083182752 -0.042052001 4285360168
-0.034042392 -0.0066617057 -0.043729916 4285425958
-0.032323506 -0.0057778284 -0.044740111 4285426468
-0.03060982 -0.0048941746 -0.045749187 4285558049
-0.029011678 -0.0032389164 -0.047421884 4285492003
-0.027311128 -0.0023558736 -0.048428327 4285426468
-0.025500108 -0.0022445247 -0.048770007 4285492003
