# .PCD v0.7 - Point Cloud Data file format
VERSION 0.7
FIELDS x y z rgba
SIZE 4 4 4 4
TYPE F F F U
COUNT 1 1 1 1
WIDTH 972
HEIGHT 1
VIEWPOINT 0 0 0 1 0 0 0
POINTS 972
DATA ascii
-0.0060953535 0.011292167 -0.0042926716 4290062113
-0.0037343316 0.00928054 -0.0025693281 4290258464
-0.0015146546 0.0079820082 -0.0015495531 4290454558
0.00087599829 0.0059725754 0.00016797148 4290520094
0.0027942024 0.0060990155 -0.00021569338 4289538854
0.0045469217 0.0069369599 -0.0012980998 4289342504
0.0066308081 0.0063522272 -0.00098281819 4289342504
0.0088910088 0.0050568655 2.9226765e-05 4289277224
0.01150915 0.0023406111 0.0024336185 4289408038
0.013796233 0.0010472871 0.0034404155 4289277223
0.015736181 0.001175791 0.0030528773 4289277223
0.017676152 0.0013043992 0.0026654173 4289538853
0.019616149 0.001433108 0.0022780243 4290062113
0.022865035 -0.0034079179 0.00675245 4290127648
0.027289428 -0.012505181 0.015383493 4289473574
-0.011343576 -0.023918584 0.029183459 4286987068
-0.010294784 -0.018779047 0.023860998 4287052349
-0.0095658898 -0.012211479 0.017142016 4286921788
-0.0090290084 -0.0049319714 0.0097312666 4287313978
-0.0083989464 0.0016293265 0.0030322503 4287903028
-0.007219784 0.0053289644 -0.00085539185 4288818989
-0.0059153289 0.0083124936 -0.004037736 4289146409
-0.0041682273 0.0091518238 -0.0051176865 4289015594
-0.0017970614 0.0071344636 -0.0034013027 4289473575
0.00043025985 0.0058321506 -0.0023863055 4289342504
0.0025056601 0.0052444786 -0.0020711422 4289342503
0.0040903911 0.006797988 -0.0038485732 4289277224
0.006504707 0.0047838762 -0.0021405146 4289277224
0.0087644309 0.0034841225 -0.0011316743 4289146408
0.010861505 0.002898287 -0.00082053058 4289342759
0.012963984 0.0023129061 -0.00051039085 4288950314
0.014893081 0.0024406835 -0.00089576654 4289342759
0.016640764 0.0032810867 -0.0019750465 4290258463
0.018567234 0.0034088977 -0.002359733 4289604389
0.021240935 0.00068812072 2.7330592e-05 4289211944
0.024694018 -0.00487905 0.0051797107 4288819244
0.029727302 -0.016137831 0.015858468 4288622893
-0.011746194 -0.024134152 0.026561424 4286923574
-0.010009598 -0.022567369 0.024756089 4287117883
-0.008989051 -0.017414309 0.019450862 4287183419
-0.0081496313 -0.011546411 0.013453346 4287248698
-0.0076458342 -0.0042472035 0.0060657989 4287706933
-0.0068972334 0.0016149506 8.6622313e-05 4288557358
-0.0058877766 0.0060410351 -0.0044873692 4289407783
-0.0041379407 0.0068827122 -0.0055662198 4289211689
-0.0020790696 0.006291531 -0.0052495832 4289603879
0.00014509261 0.004984647 -0.0042372588 4289538600
0.001892481 0.0058265142 -0.0053154277 4289669669
0.0037997775 0.0059523135 -0.0056968527 4290061603
0.006042894 0.0046469979 -0.0046880823 4290389279
0.0084673241 0.0026271194 -0.0029869247 4290454558
0.010388177 0.0027541369 -0.0033708122 4290258208
0.012309078 0.0028812662 -0.0037546288 4289277224
0.014051419 0.0037233792 -0.0048312768 4289146409
0.015969705 0.0038505457 -0.0052144099 4289865763
0.017704057 0.0046923384 -0.0062893014 4290258208
0.020179581 0.0026764497 -0.0045978129 4289866019
0.023049798 -0.00076662749 -0.0015279483 4289996833
0.026522759 -0.0063497946 0.0036073271 4290128159
0.030622596 -0.014071546 0.010803282 4289932064
-0.0085548274 -0.021919198 0.021044973 4287052603
-0.0077034384 -0.016033106 0.015058242 4287379769
-0.0068947636 -0.010149725 0.0090801548 4287118139
-0.0062777698 -0.0035500452 0.0024135746 4287445303
-0.0054056346 0.0016089305 -0.0028500631 4288099378
-0.004262276 0.0053281672 -0.0067138886 4289341738
-0.0022037067 0.0047347695 -0.0063988548 4289669159
-0.00013968721 0.0041418597 -0.0060848091 4289538343
0.0016050674 0.0049856603 -0.00716078 4289603879
0.0031795241 0.0065471977 -0.0089295618 4290519584
0.0052464157 0.0059547722 -0.0086158682 4289865509
0.00765948 0.0039275512 -0.0069173574 4290323743
0.0095694922 0.004053846 -0.0072990842 4290258208
0.011655275 0.0034630112 -0.0069889147 4289277224
0.013389628 0.0043067634 -0.008062318 4289473064
0.015118636 0.0051503256 -0.0091346111 4289604134
0.017026089 0.0052768737 -0.0095155016 4289211944
0.019120019 0.0046869405 -0.0092066023 4288884268
0.021786679 0.0019484162 -0.0068313051 4289408293
0.023707543 0.0020761862 -0.0072146263 4289605154
0.026017386 0.00077200681 -0.0062216762 4288951333
0.028337918 -0.00053132325 -0.0052308291 4288495904
-0.0086849146 -0.023554303 0.019837655 4287119923
-0.0072585791 -0.020537011 0.016650431 4287118139
-0.0062918365 -0.015356861 0.011379277 4287248954
-0.0056600124 -0.0087365955 0.0047245342 4287314488
-0.0050763041 -0.0021193922 -0.0019205064 4287641654
-0.0039241575 0.0016113147 -0.0057778414 4288753198
-0.0023282915 0.0031783283 -0.0075478982 4289407274
-0.00042408332 0.0033036768 -0.0079288892 4289211179
0.00099371001 0.0055901781 -0.010388482 4289538343
0.0027251914 0.0064353906 -0.011460066 4289342504
0.004618898 0.0065603927 -0.011838696 4289211688
0.0070232637 0.0045260601 -0.010143405 4289146409
0.0090979896 0.0039321855 -0.0098327715 4289669669
0.01117811 0.0033387765 -0.009523131 4289669413
0.012728911 0.0049036182 -0.011283493 4289473319
0.014449939 0.005748786 -0.012352496 4289603368
0.016165622 0.0065937415 -0.013420396 4289146154
0.018248523 0.0060009062 -0.013110943 4289213474
0.020525727 0.0046900213 -0.012114989 4289935378
-0.0073880479 -0.022163101 0.0154498 4287119414
-0.0058365315 -0.019861944 0.012967888 4287183929
-0.0050439686 -0.013944745 0.0070195384 4286987068
-0.0044454299 -0.0073069856 0.0003863778 4287445049
-0.0035870709 -0.0021183714 -0.0048513319 4287837749
-0.0026094876 0.0023449957 -0.0093890969 4288622639
-0.0010267086 0.0039156005 -0.011153158 4289473064
0.00054543465 0.0054855496 -0.012914982 4289931298
0.0019422695 0.0077773109 -0.015365348 4289669668
0.0038251281 0.0079015717 -0.015741827 4289538853
0.0060480982 0.006581936 -0.014738875 4289538853
0.0084545203 0.0045413673 -0.013048906 4290062623
0.010350913 0.0046668425 -0.013427852 4289408038
0.011891223 0.0062353387 -0.015182815 4289734949
0.013420843 0.0078032613 -0.01693555 4289473574
0.015123174 0.0086495057 -0.017999141 4289736733
-0.0056740716 -0.022932753 0.013158107 4287053623
-0.0044296235 -0.019174479 0.009298604 4287118139
-0.0036651529 -0.013241582 0.0033691116 4287248954
-0.0029434189 -0.0073113665 -0.002551741 4287379513
-0.0025773644 6.6258013e-05 -0.0098453891 4287968564
-0.0016282387 0.0045409016 -0.014367484 4288491568
-0.0003875345 0.0075641423 -0.017503781 4289800228
0.0011607893 0.0091369823 -0.019257456 4289800739
0.0033671409 0.0078118145 -0.018254621 4289931809
0.0054144114 0.0072116591 -0.017941888 4289800993
0.0076396279 0.0058879256 -0.016942609 4289605154
0.0089995489 0.0081841946 -0.019380329 4289343524
0.010343436 0.010479495 -0.021814773 4289280029
-0.004113473 -0.0229702 0.010180272 4286922553
-0.0031887852 -0.017746933 0.0049523227 4286987324
-0.0024550855 -0.011798538 -0.00095773023 4287379259
-0.0020767078 -0.0043983608 -0.00823736 4287445049
-0.0015928335 0.0022713467 -0.014817629 4287706933
-0.00067217276 0.0067572668 -0.019324059 4288949549
0.0007093735 0.0090610571 -0.021761483 4289342503
0.0027428903 0.0084576905 -0.021447742 4289408804
0.0046121441 0.0085811391 -0.021821434 4289671453
-0.0027137734 -0.02226948 0.0065228343 4287183928
-0.0018146783 -0.017032519 0.0013115965 4287313723
-0.0014212951 -0.0096096098 -0.0059545403 4287576120
-0.00092259794 -0.0029193461 -0.012522936 4287641654
-0.00063349307 0.0044969246 -0.019768044 4288099379
0.00042284653 0.0082652383 -0.023572903 4289146663
0.0022865534 0.0083882026 -0.023945581 4289149468
-0.0014824867 -0.020824499 0.0021921694 4287249974
-0.00045572594 -0.016305707 -0.002315863 4287641399
6.3143671e-05 -0.0095945597 -0.008873458 4287575863
0.00021131337 -0.0014238954 -0.016790997 4287706933
4.0140003e-05 -0.020830639 -0.00075244531 4287380788
0.00072959438 -0.014832802 -0.006613872 4287248954
0.00089294836 -0.0066372082 -0.014516301 4287314488
6.7908317e-05 -0.023164801 -0.0012495946 4287054898
0.0012360811 -0.019356765 -0.0050522983 4287184950
0.0017338023 -0.012607753 -0.011575897 4287380789
0.0024118163 -0.017866381 -0.0093346648 4287249974
0.0026063509 -0.020926476 -0.0091444142 4287053878
0.0035673566 -0.01635953 -0.013599489 4287446578
-0.017210461 -0.04966262 0.012409145 4286854724
-0.017212942 -0.052061938 0.011870073 4286986559
-0.017470948 -0.052959226 0.0099745821 4286267203
-0.016103506 -0.049063392 0.0061886366 4286267203
-0.01610285 -0.051455379 0.0056543443 4286529089
-0.014493056 -0.049059816 0.0032294448 4286332994
-0.014357042 -0.052206255 0.0033689234 4286333249
-0.012757439 -0.049804725 0.000951102 4286725183
-0.012481246 -0.053711772 0.0017584115 4286528068
-0.0084236264 -0.04980997 -0.010373371 4286659394
-0.0086941645 -0.050653942 -0.012225299 4286594368
-0.0073015839 -0.047456361 -0.015267381 4286528833
-0.0085375085 -0.053801544 -0.012091937 4286397763
-0.0071390495 -0.050594993 -0.015128597 4286986813
-0.0056142583 -0.048158713 -0.017501371 4287640889
-0.0071219355 -0.052970499 -0.015654517 4287183164
-0.0054466724 -0.051298805 -0.017365055 4287838004
-0.005132474 -0.055220835 -0.016578589 4288099889
-0.0031597018 -0.055091418 -0.016973644 4288624169
-0.0073775277 -0.056182161 -0.018025901 4287181888
-0.0052605867 -0.0568287 -0.017765757 4288033844
-0.0035875179 -0.055148415 -0.019469142 4288034864
-0.0020775236 -0.052693374 -0.021823991 4286006084
-0.026972711 -0.018602617 0.052477129 4284048958
-0.027331837 -0.018882945 0.049795114 4282938433
-0.027125046 -0.02266299 0.050716005 4282217803
-0.025534883 -0.019722953 0.047429256 4283201084
-0.023255616 -0.020992711 0.048455946 4284311098
-0.028208643 -0.031518854 0.057068147 4282738258
-0.026919223 -0.026455954 0.05162742 4282021964
-0.025204912 -0.024210453 0.04906261 4282414664
-0.023270026 -0.023373112 0.047934204 4283200319
-0.020977661 -0.024646297 0.048954956 4284705074
-0.026714355 -0.030261792 0.052529305 4281759823
-0.024876259 -0.028715193 0.050683215 4281759313
-0.023048662 -0.027169243 0.048839331 4282217549
-0.021110855 -0.02632945 0.047711983 4282283593
-0.028257459 -0.036340967 0.055983238 4282083928
-0.026735477 -0.032663777 0.051992871 4281890639
-0.024779275 -0.031820878 0.050863355 4281889873
-0.023063973 -0.02956222 0.048308276 4282217293
-0.021364518 -0.027304493 0.045756444 4282217038
-0.019557729 -0.025755376 0.043920159 4283198023
-0.026419848 -0.037201464 0.053591743 4282149719
-0.024797946 -0.034224667 0.050324939 4281889364
-0.023079574 -0.031959303 0.047774173 4281955408
-0.021497399 -0.028984882 0.044515491 4282086479
-0.019813433 -0.026721597 0.041971825 4282152015
-0.01789391 -0.025878526 0.040851533 4282086478
-0.02470205 -0.037345052 0.050494127 4282281044
-0.023330472 -0.032935739 0.045816887 4281890894
-0.02175042 -0.029952787 0.042565212 4282021198
-0.020191602 -0.026971102 0.039317876 4282021453
-0.018277369 -0.026126251 0.038200334 4282479688
-0.016368322 -0.025281645 0.037083898 4283787074
-0.024606764 -0.040473953 0.050657086 4282607189
-0.023346268 -0.035336614 0.045279972 4281823828
-0.021762975 -0.032344773 0.042034216 4281759058
-0.020200923 -0.029354192 0.038792811 4282086989
-0.018785462 -0.025650889 0.034848884 4282414920
-0.016884394 -0.024804652 0.033735685 4282675529
-0.023245171 -0.038458362 0.045446903 4282149719
-0.021655962 -0.035457432 0.042206563 4281823318
-0.020455562 -0.030308582 0.036853187 4281889873
-0.019167237 -0.025878325 0.032212637 4282152779
-0.017527252 -0.023598164 0.029692687 4282219333
-0.015380926 -0.024182446 0.029992696 4284376634
-0.021908619 -0.03642223 0.040258463 4282215509
-0.020587459 -0.031976894 0.03562114 4281628498
-0.019423246 -0.026815124 0.030286685 4281956173
-0.017785534 -0.024528608 0.027772121 4282022728
-0.015902951 -0.023679174 0.02666596 4284508979
-0.020963624 -0.032203361 0.032984234 4281560924
-0.019553989 -0.028467849 0.029066175 4281890638
-0.018043414 -0.02545438 0.025854997 4282284359
-0.016033262 -0.02532322 0.025451921 4284508468
-0.019684657 -0.030120254 0.027845889 4282021710
-0.018046185 -0.027820684 0.02534103 4282219078
-0.016293533 -0.026244514 0.023538791 4284508468
-0.018049225 -0.030191064 0.024824034 4281825103
-0.018052563 -0.032565519 0.024304032 4281428834
-0.0020193011 -0.024893597 -0.0020386875 4283854648
-0.00021546707 -0.02402661 -0.0031119213 4283789369
-0.0024521984 -0.025012158 -0.0045796726 4283462714
-0.00065368041 -0.024143405 -0.0056501608 4283003969
-0.0027319714 -0.02586446 -0.0064356104 4282939709
-0.0009360984 -0.024993703 -0.0075039193 4282415429
0.00085450336 -0.024123162 -0.0085710771 4282479943
-0.0028591417 -0.027456962 -0.0076113502 4282547263
-0.0010632426 -0.026584044 -0.0086780302 4282153799
0.00041224808 -0.02422221 -0.01109492 4282284105
-0.0044887438 -0.031419069 -0.0063693495 4284049214
-0.0029862784 -0.02904918 -0.0087868832 4282350404
-0.0011903569 -0.028174095 -0.0098519213 4281957703
0.00012813136 -0.025058955 -0.012937985 4282022729
0.0017454177 -0.023438282 -0.014672633 4282088263
0.003352046 -0.021818154 -0.016405106 4282612288
-0.0029615201 -0.031390354 -0.009288677 4281892168
-0.001317434 -0.029763818 -0.011025582 4281891913
1.6018748e-06 -0.026639991 -0.01410519 4281957193
0.0016190857 -0.025014967 -0.015836585 4281891913
0.0030633584 -0.02264192 -0.018237174 4281957448
0.0048221201 -0.021766618 -0.019292763 4284640813
-0.0014444739 -0.031353258 -0.012199027 4281431385
3.2149255e-05 -0.028971799 -0.014601328 4281629773
0.0016525015 -0.027342245 -0.016330011 4281761353
0.0030998252 -0.024962492 -0.018726274 4281631304
0.0043660887 -0.021833077 -0.021788459 4282155584
0.0059464835 -0.020205803 -0.023508877 4283527739
-9.4488263e-05 -0.030554406 -0.015769694 4281368399
0.0015260689 -0.028920501 -0.017495133 4281566023
0.0028115474 -0.025781281 -0.020554673 4281696328
0.0042405762 -0.023396075 -0.022942241 4281892168
0.0054860376 -0.020259224 -0.025993582 4283593783
0.0075613484 -0.020885803 -0.025707817 4284705584
-6.4402819e-05 -0.032892168 -0.016270237 4281040979
0.0017183833 -0.032009035 -0.017325889 4281565259
0.0030097663 -0.028860733 -0.020380031 4281761353
0.0042798072 -0.025713705 -0.0234298 4281826379
0.0056958906 -0.023322783 -0.02580972 4281892168
0.0074360892 -0.022441961 -0.026856469 4282546498
0.0093437172 -0.022315793 -0.027237697 4283853629
0.0014324747 -0.032833554 -0.019159239 4281694034
0.0028835908 -0.03043402 -0.02154145 4281696073
0.0043187253 -0.028035447 -0.023920327 4281827398
0.0057378449 -0.025637776 -0.026295952 4281892934
0.0074807443 -0.024754621 -0.027341615 4282022728
0.0092183352 -0.023871683 -0.028386122 4282415173
0.0029191375 -0.032766543 -0.022039305 4281629773
0.0046860352 -0.031879835 -0.023088355 4281957959
0.005946517 -0.028715976 -0.026122969 4281892423
0.0073553659 -0.026312374 -0.02849146 4281957449
0.0087481923 -0.023909695 -0.03085671 4282022728
0.010475133 -0.023025177 -0.031897359 4284118573
0.0024698228 -0.032818027 -0.024525326 4281428834
0.0045597628 -0.033452541 -0.024249304 4281760588
0.0058207922 -0.030279957 -0.027277444 4281826633
0.0068909377 -0.026347518 -0.030961305 4281891913
0.0081065744 -0.023177676 -0.033980176 4281631558
0.010175295 -0.023813128 -0.033699494 4281959743
0.011894245 -0.022926793 -0.034736834 4284639794
0.0044335276 -0.035024934 -0.025410026 4281759823
0.0056950971 -0.03184364 -0.028431702 4281695818
0.0062578842 -0.02561035 -0.034082931 4281566023
0.0076380782 -0.023195498 -0.036435798 4281501509
0.010050543 -0.025359415 -0.034840796 4281633089
0.0121243 -0.025996529 -0.034562696 4282221119
0.012582872 -0.019769602 -0.040192779 4284574003
0.0055694319 -0.03340704 -0.029585745 4281235034
0.0063026473 -0.027921818 -0.0345672 4281696839
0.0075140372 -0.024734907 -0.037572064 4281827653
0.010100346 -0.02767054 -0.03532606 4281435973
0.012353655 -0.029074632 -0.034394808 4281892933
0.013358496 -0.025124319 -0.038048804 4282546498
0.0134238 -0.017352566 -0.044968408 4284508214
0.0061780773 -0.029469661 -0.035709728 4281891148
0.0077333823 -0.027809046 -0.037398666 4282219844
0.010324188 -0.030753046 -0.035160139 4281894974
0.01329048 -0.035229839 -0.031618431 4282154819
0.014851205 -0.033568487 -0.033308163 4282479944
0.015489347 -0.028073765 -0.038258642 4282677313
0.0075730644 -0.037946008 -0.030969063 4281690973
0.0089811198 -0.035509773 -0.033312686 4282347854
0.011592455 -0.038461089 -0.03108483 4282088519
0.014755785 -0.043718882 -0.026904961 4281891148
0.017238434 -0.04589738 -0.025338633 4282869329
0.013205945 -0.047747098 -0.025733111 4282609994
0.01639463 -0.053018369 -0.021569796 4281761354
-0.017988808 0.034550138 0.06622187 4279784338
-0.014785469 0.038675584 0.060871452 4278533564
-0.028244399 0.032895852 0.066251703 4281881204
-0.026715204 0.035614669 0.062812448 4281290114
-0.02448681 0.034452021 0.063933007 4279651739
-0.022615738 0.035229638 0.062775277 4278931363
-0.020875245 0.036653295 0.06086044 4278537898
-0.01807981 0.042728625 0.053251594 4279781789
-0.015983917 0.042212062 0.05361557 4279389344
-0.013065554 0.037822157 0.058514677 4279126439
-0.030208014 0.041643277 0.052901283 4278533564
-0.025696672 0.038655851 0.055906378 4279060648
-0.023604445 0.038136587 0.056269288 4278537898
-0.021757171 0.038914867 0.055117935 4278668968
-0.035776757 0.037045449 0.055925623 4281684089
-0.034247003 0.039781533 0.052499324 4278996389
-0.0307936 0.042643938 0.048687905 4278993074
-0.026184969 0.038992882 0.052445166 4278602159
-0.024223424 0.039121769 0.052052528 4278668713
-0.022386774 0.039901488 0.050904907 4278930854
-0.020683028 0.041331425 0.049004018 4278799783
-0.018859379 0.042110346 0.047859132 4278864809
-0.016774677 0.041588582 0.048221953 4278668203
-0.014141239 0.038467124 0.051594883 4278930343
-0.01189626 0.037297014 0.052705705 4278603178
-0.0094992369 0.035478048 0.054566056 4278930853
-0.0066544302 0.031711657 0.058676809 4279061159
-0.037870809 0.035303116 0.055127978 4279062943
-0.036542237 0.03935688 0.050191879 4278407339
-0.034919068 0.041446671 0.047531784 4278537134
-0.033200212 0.042881623 0.045630928 4279324063
-0.031149313 0.042355053 0.045998551 4279651228
-0.028859101 0.040521957 0.047874965 4278864044
-0.024352022 0.037512265 0.050864249 4278406828
-0.022515267 0.038294125 0.049718231 4278865318
-0.020683646 0.039075658 0.04857333 4278406828
-0.01872696 0.039204329 0.048181742 4278668969
-0.016770072 0.039333075 0.047790155 4278733993
-0.014406137 0.03750518 0.049652085 4278799784
-0.012579188 0.038286615 0.048508279 4278668203
-0.0052270293 0.032159455 0.054820597 4278271168
-0.037482738 0.030407131 0.057716675 4279521178
-0.036563687 0.037100345 0.049765818 4278866339
-0.024724647 0.037213556 0.048171595 4278734504
-0.022893123 0.037997171 0.047028303 4278668713
-0.020811953 0.037470601 0.04738836 4278603433
-0.018855326 0.037599232 0.04699675 4278668968
-0.016898513 0.037727926 0.046605136 4278800039
-0.01494154 0.037856683 0.046213537 4278406318
-0.013398781 0.039948218 0.043574948 4278536879
-0.010074083 0.042820595 0.039803274 4279127204
-0.03668382 0.022854384 0.063306689 4279980688
-0.036056384 0.031546779 0.053105712 4279128478
-0.035064422 0.037601151 0.045931831 4278800549
-0.033564657 0.040361345 0.04253139 4278537898
-0.031403065 0.039172053 0.043648444 4278930343
-0.029230557 0.037983544 0.04476336 4278733738
-0.027166307 0.037453428 0.045125034 4278537643
-0.025583982 0.039553799 0.04248317 4278668713
-0.023768425 0.040338505 0.041344691 4278405554
-0.021576345 0.03915149 0.042455848 4278667948
-0.019503288 0.038622215 0.042815883 4278603433
-0.017424673 0.038093314 0.043174889 4278538154
-0.01547581 0.038221493 0.042784881 4278406573
-0.012421414 0.042415708 0.037523773 4279125929
-0.010488153 0.042543039 0.03713702 4279912859
-0.0081167705 0.040702656 0.038987618 4278930090
-0.0046883896 0.034273226 0.046051662 4278667693
-0.035579115 0.013279453 0.07112582 4281225853
-0.035022974 0.022663206 0.060187295 4279260313
-0.03454157 0.032042116 0.049263775 4279062179
-0.033469036 0.037453767 0.042862009 4278865064
-0.031643488 0.038241036 0.041722979 4278865574
-0.029590413 0.03770794 0.042085115 4278799784
-0.027769797 0.038495004 0.040947154 4278668458
-0.024517179 0.042046875 0.036429111 4278402238
-0.020279512 0.040322118 0.037900757 4278405299
-0.018214546 0.039790101 0.038260814 4278668713
-0.016144052 0.03925854 0.038619753 4278668458
-0.0030005947 0.033446908 0.04372355 4278799273
0.00081169978 0.025685523 0.052240953 4278668969
-0.033887863 0.013068561 0.067983799 4279850384
-0.033588208 0.023805812 0.055576466 4278933404
-0.033041596 0.03254975 0.045434777 4279062433
-0.031996965 0.037977055 0.039051872 4278472618
-0.030181818 0.03876584 0.03791659 4278472108
-0.028609507 0.040878519 0.035286557 4278405809
-0.025015697 0.042453971 0.03302351 4278864808
-0.020665221 0.040060066 0.035239246 4278732974
-0.018473633 0.038864292 0.036343884 4278930089
-0.016406074 0.038330272 0.036701772 4278995878
-0.014745805 0.039779261 0.034826126 4278865064
-0.012955818 0.040566914 0.033696271 4278603178
-0.010885101 0.040033318 0.034053616 4278733738
-0.0083719678 0.037519179 0.036637511 4278602668
-0.005985558 0.035666656 0.038475148 4278603434
-0.0043379851 0.037115119 0.036602277 4278406828
-0.0020862557 0.035923749 0.037695296 4278995114
0.0017400458 0.028137129 0.046189982 4279060648
-0.032967389 0.0047516637 0.074243613 4280505224
-0.032422349 0.014195822 0.063353658 4279522709
-0.032283932 0.025629528 0.050235115 4278736798
-0.031896405 0.035063498 0.039376803 4278669223
-0.030655749 0.039177056 0.034507956 4278995879
-0.025265053 0.041546561 0.031118177 4278666673
-0.018732294 0.037943028 0.034430381 4278930344
-0.016667679 0.037406623 0.034787115 4278799783
-0.015009806 0.038859747 0.032915276 4278799784
-0.012942191 0.038323667 0.033271518 4278734249
-0.011011843 0.038450688 0.032885257 4278733993
-0.0084994845 0.035927728 0.035462655 4278537388
-0.0067062862 0.036717929 0.034333929 4278406573
-0.00088958442 0.037101444 0.033170599 4280044184
0.0039093569 0.025320087 0.046070922 4279125928
-0.031476147 0.0058675781 0.069598503 4279915409
-0.031087145 0.016006384 0.057994597 4279653269
-0.031004526 0.027473599 0.0449154 4279062943
-0.030433685 0.035601735 0.035580337 4279324064
-0.029334433 0.040393341 0.029981438 4278602923
-0.021175928 0.038231388 0.031421002 4278733483
-0.019122422 0.037691928 0.03177828 4278668713
-0.017332576 0.038483791 0.030651573 4278341293
-0.015273392 0.037944824 0.031007808 4278537898
-0.013068784 0.036741264 0.032103289 4278472618
-0.01099591 0.036203377 0.032456834 4278472618
-0.0087722354 0.035001159 0.033548646 4278668968
-0.0061002038 0.040571436 0.026867308 4278733229
-0.0046428591 0.042690393 0.024270788 4279652503
-0.0022653602 0.040824294 0.026100352 4278668969
0.0013979413 0.033648744 0.03381953 4278274484
-0.030963756 0.00017312914 0.072830297 4280112269
-0.030115023 0.0076690428 0.064226069 4280045969
-0.029776827 0.017837316 0.052657194 4279522453
-0.029634371 0.028669201 0.040360916 4278997408
-0.029104151 0.036820915 0.031053882 4278735013
-0.027670041 0.039620534 0.027699675 4278668969
-0.025762476 0.039745547 0.027317587 4278537898
-0.023475654 0.037866183 0.029159766 4278603434
-0.021430641 0.037323922 0.029516965 4278537898
-0.019775242 0.03878542 0.027652096 4278340018
-0.011692449 0.037287284 0.028334316 4278537898
-0.0096250586 0.036746833 0.028687373 4278930343
-0.0053810515 0.043791115 0.02017143 4278798764
-0.0030148923 0.041917689 0.021998275 4278274483
-0.030775681 -0.0035327971 0.073812149 4280767364
-0.029366538 0.00063083321 0.068939142 4280308365
-0.028440431 0.0074772686 0.061102711 4279915154
-0.028375924 0.019017596 0.048083402 4279718804
-0.028165981 0.029210288 0.036565196 4278932129
-0.027311258 0.035373662 0.029508278 4279061923
-0.025640056 0.036840342 0.027643383 4278930853
-0.023600832 0.036295399 0.027999997 4278734249
-0.021813802 0.037091188 0.026877053 4278472108
-0.012245271 0.03771966 0.024961527 4278995369
-0.010621011 0.039183825 0.023106389 4278996134
-0.009154968 0.041316234 0.020517964 4278799273
0.0018003955 0.035930537 0.02521212 4278602923
0.0047083087 0.03205049 0.029220838 4278669224
-0.029280342 -0.0024008378 0.069178112 4280767620
-0.027896792 0.0017742366 0.064320184 4280111503
-0.027236879 0.0099866651 0.055026844 4279914898
-0.026876964 0.019541122 0.044266801 4279653268
-0.026591837 0.029090751 0.033521798 4278932129
-0.025518261 0.033926591 0.027962781 4278669224
-0.023977958 0.036069859 0.02536403 4278799273
-0.02094508 0.040353552 0.020176146 4279192229
-0.019452505 0.042493891 0.017587107 4279455643
-0.017428957 0.04194596 0.017945372 4279192229
-0.014842272 0.038711831 0.021244552 4279126439
-0.012654893 0.037493989 0.02233351 4278471344
-0.011035725 0.038962111 0.020482719 4278799783
-0.009574607 0.04110077 0.017900188 4278537643
-0.0075289272 0.040554635 0.018254284 4278930853
-0.0056305826 0.040679693 0.017874543 4278800038
-0.0031101629 0.03812243 0.020423915 4278603434
-0.0010426976 0.037577905 0.020773862 4278603434
0.0010302067 0.037033848 0.021122724 4278538409
-0.029524051 -0.0034136698 0.067191355 4282341479
-0.027804904 -0.001252532 0.064561434 4280243083
-0.02656205 0.0036094263 0.058979906 4279914898
-0.025592066 0.0098195039 0.051929593 4279784338
-0.025633864 0.021427151 0.03898799 4279259548
-0.025273941 0.030329321 0.029012959 4278997154
-0.024605982 0.037202802 0.021261562 4279061413
-0.019709758 0.041621774 0.015710432 4279060649
-0.013063751 0.037277281 0.019712176 4278537643
-0.011594281 0.039422937 0.017132863 4278406828
-0.0098462179 0.040220946 0.016021337 4278472363
-0.0076535381 0.038999263 0.01710606 4278734503
-0.005297374 0.037105363 0.018919889 4278668968
-0.0030803271 0.035885394 0.019999892 4278537898
-0.0011684559 0.036011469 0.019617531 4278668458
0.0002614744 0.038154952 0.017046455 4278799528
-0.02793815 -0.0029322281 0.063321099 4281490034
-0.026234411 -0.00076548755 0.060699217 4280178314
-0.024664134 0.0020777434 0.057344027 4279915919
-0.024438344 0.0123697 0.045897122 4279784338
-0.024415709 0.023333583 0.033730879 4279260823
-0.024352953 0.033615056 0.022316705 4279128223
-0.023472026 0.039154023 0.016059462 4278865064
-0.013755344 0.038421329 0.015634019 4278537898
-0.011862896 0.038545735 0.015255254 4278537898
-0.010264523 0.040021241 0.013415257 4278603433
-0.0080776401 0.038794786 0.014497807 4278538154
-0.0058799312 0.037569113 0.015578242 4278472618
-0.0036713704 0.036344185 0.016656611 4278472363
-0.0020832755 0.037819356 0.014818855 4278537388
0.0012241974 0.040093265 0.011877378 4278996389
0.0034465119 0.038869582 0.012953175 4279585949
0.0061852597 0.035624348 0.016205922 4278667694
0.010491956 0.026315611 0.025985662 4278864044
-0.02636715 -0.0024384111 0.059463881 4281424244
-0.024561375 -0.0009457916 0.057585016 4279785359
-0.023606986 0.0053025521 0.05056762 4279849874
-0.023314595 0.014944345 0.03989068 4279718803
-0.023348004 0.025939573 0.027762141 4279129499
-0.023210622 0.035571352 0.017116364 4279258529
-0.02197054 0.039089344 0.01307576 4279192483
-0.0200895 0.039212681 0.01269903 4278734503
-0.017935894 0.03797923 0.013784671 4278472363
-0.016049184 0.038103081 0.013406921 4278406828
-0.014445465 0.039583173 0.011568988 4278472363
-0.0083513968 0.037921771 0.012624659 4278274484
-0.006461367 0.038046211 0.012246519 4278472618
-0.0044162646 0.037493549 0.012595816 4278734249
-0.0029962808 0.039649375 0.010036582 4278667949
0.01248426 0.02417377 0.025143217 4278472109
-0.024693787 -0.0026141554 0.05635307 4281423734
-0.023138165 0.00024554878 0.05301404 4280177295
-0.022094294 0.005829934 0.04675043 4279718803
-0.021844901 0.015499514 0.036105309 4279784084
-0.021926314 0.026526537 0.024012957 4279195034
-0.021439984 0.034143224 0.015590826 4279062689
-0.020078994 0.036990575 0.012291085 4278602923
-0.018195212 0.037114128 0.011913836 4278668713
-0.01644998 0.037918195 0.01080762 4278537643
-0.011392366 0.041008733 0.0067681484 4278667183
-0.0071938187 0.039216302 0.0081983283 4278798764
-0.0051597171 0.038660701 0.0085481405 4278733993
-0.0035925433 0.040143147 0.0067212116 4278799273
0.0073302463 0.034657933 0.011348046 4278603434
0.010272894 0.030714858 0.015300289 4278538409
0.015538871 0.017960422 0.028625626 4278669479
-0.023150116 -0.002097711 0.052519843 4280374153
-0.021734908 0.0014532693 0.048460469 4280046224
-0.020846806 0.007736668 0.041486215 4279914898
-0.020645797 0.017433677 0.030873995 4279521943
-0.020519629 0.027125869 0.020276826 4278866593
-0.019802459 0.0333983 0.013336992 4279193759
-0.018318266 0.0355708 0.010774354 4278996899
-0.016988531 0.038424905 0.0074876305 4278537389
-0.01539769 0.03991282 0.0056588519 4278602924
-0.013817426 0.041400082 0.0038322974 4278931108
-0.011808056 0.040840432 0.0041852202 4278931618
-0.009643957 0.039599285 0.0052623283 4278733483
-0.0076209456 0.03904064 0.0056126826 4278537134
-0.0055924803 0.038482465 0.0059619527 4278733995
-0.0037158355 0.038606137 0.0055865757 4278930343
-0.001839105 0.038729876 0.005211236 4278733738
3.7714839e-05 0.038853712 0.0048359428 4279127203
0.0022452697 0.037615903 0.0059047136 4279126694
0.0047996677 0.035017468 0.0084143747 4278734249
0.0073755756 0.032420546 0.010919806 4278800549
0.010146368 0.029144775 0.014141388 4278472364
0.014528573 0.01974941 0.023836564 4278341294
-0.021621421 -0.0015689135 0.048699722 4280636294
-0.020476572 0.0033630915 0.043195888 4279980178
-0.019369043 0.0082927756 0.037699543 4279914898
-0.019080736 0.017332181 0.027846549 4279521944
-0.018994913 0.027052347 0.017280679 4278997408
-0.018576935 0.034712676 0.0089087263 4278997153
-0.017525986 0.038945042 0.0041774679 4278472109
-0.014370453 0.041927882 0.00053183921 4278602669
-0.012369398 0.041365467 0.000884749 4278668204
-0.010064706 0.039435215 0.0026838761 4278273209
-0.0057156272 0.036945716 0.0048274789 4278930599
-0.0039962009 0.037752934 0.0037301034 4278472363
-0.0019624531 0.037193071 0.0040767733 4278472363
0.00023921579 0.035950407 0.0051433351 4278734504
0.0027820095 0.033342376 0.0076486226 4278734760
0.0053463168 0.030735847 0.010149667 4278538408
0.0077616349 0.028813537 0.011927165 4278668714
0.01053948 0.02552731 0.015139055 4279651739
0.015103038 0.015419379 0.025528196 4279586204
-0.020232439 -0.00033990294 0.044165943 4280373644
-0.018860832 0.0032301433 0.040131923 4279980433
-0.018036395 0.0095487423 0.033200283 4279849618
-0.017924115 0.019301165 0.022652257 4279129499
-0.018157706 0.030423183 0.010669904 4278800548
-0.017785974 0.038104504 0.002325505 4279061669
-0.012490977 0.039844394 -0.00023822393 4278337978
-0.0080182441 0.036657985 0.0026256405 4278734249
-0.0058387369 0.03540919 0.0036931708 4278668713
-0.0038053542 0.034847014 0.0040381774 4278734248
-0.0017665215 0.034285285 0.0043821596 4278406574
0.0033173747 0.029051535 0.0093797445 4278404279
0.0060592592 0.025751825 0.012590401 4279454114
0.00831699 0.024508748 0.013642631 4279979924
0.011104591 0.021212194 0.016844332 4280177039
0.016027525 0.0097029321 0.028640285 4280242574
-0.020238504 -0.0026755854 0.043676011 4282861933
-0.018608883 -0.00047427416 0.041098867 4280963203
-0.017255083 0.0031055622 0.037076727 4280046224
-0.016591124 0.010131594 0.029442009 4279653013
-0.017063186 0.02266939 0.016033567 4279456919
-0.01707954 0.032444078 0.0055345837 4279128223
-0.01646737 0.038768709 -0.0013394235 4278473384
-0.014756378 0.039579287 -0.0024321433 4278537898
-0.01261251 0.038323559 -0.0013610329 4278734248
-0.01030907 0.036380075 0.00042837672 4278799528
-0.0081408545 0.035126112 0.0014947336 4278996899
-0.0059617981 0.033872902 0.0025590267 4278407084
-0.0039286986 0.033308506 0.0029024221 4278992053
-0.0014118068 0.030681103 0.0053994935 4279255469
0.00096447766 0.028742868 0.0071745962 4279714979
0.0035217442 0.026118301 0.0096637253 4279583654
0.0057655573 0.024869774 0.010715386 4279650209
0.0081903078 0.022935007 0.012480997 4280372624
0.011149764 0.018940542 0.016390149 4280438159
0.016247801 0.0067073554 0.028873097 4280307599
-0.018739231 -0.002115272 0.039887153 4282796144
-0.017254882 0.00078355521 0.036595605 4280373644
-0.016056724 0.0050645955 0.031864453 4279914898
-0.015701465 0.013493184 0.022811107 4279587479
-0.016099483 0.025374692 0.010166209 4278997919
-0.015745416 0.033102941 0.0018617325 4278670244
-0.014304649 0.035298862 -0.00067221466 4278865318
-0.012296382 0.034730285 -0.00032578036 4278406574
-0.0082634129 0.033594485 0.00036399998 4278404024
-0.0059309155 0.031646509 0.0021427348 4279387559
-0.0037388206 0.03038989 0.0032011122 4280043164
-0.0015359186 0.029134035 0.0042574387 4279977118
0.00067779422 0.027879022 0.0053116269 4280173723
0.0030669346 0.02593511 0.0070792902 4279715999
0.0056395456 0.023302894 0.009558782 4279322788
0.0080636591 0.021361519 0.011319544 4279716253
0.011194617 0.016664762 0.015932921 4280306579
0.016467392 0.0037032999 0.029099576 4280437649
-0.017254978 -0.0015426278 0.036111463 4280962693
-0.015524015 -2.4110079e-05 0.034270868 4280766343
-0.014613472 0.0056565069 0.028113555 4279980178
-0.014709216 0.016189668 0.016929921 4279587223
-0.014744848 0.026024204 0.0064811371 4279259804
-0.013711266 0.030307867 0.0017931163 4278799274
-0.012126956 0.031817213 -1.7778948e-05 4278928304
-0.010108121 0.031247173 0.00032497942 4280042398
-0.0080838203 0.030677624 0.00066666305 4279977373
-0.0057465993 0.028723434 0.0024394318 4280304793
-0.0037060119 0.028155074 0.0027780235 4279977373
-0.0015008897 0.026895024 0.0038305428 4279911839
0.00055326521 0.026327781 0.0041665155 4279846048
0.0027773231 0.025069118 0.005215425 4279911838
0.0051792897 0.023119625 0.0069755726 4279977629
0.0079370476 0.019788284 0.010158274 4280502164
0.01106666 0.015076153 0.014760327 4280632978
0.016511131 0.0013818517 0.028607991 4280829839
-0.015389338 -0.0030460358 0.034505095 4282403443
-0.014202558 0.0012605116 0.029796053 4280372878
-0.014285069 0.011827216 0.01863455 4279849364
-0.014307655 0.021693137 0.0082063004 4279652759
-0.013690926 0.028076984 0.0013760589 4279324319
-0.012103692 0.029590823 -0.00043208525 4279321258
-0.0099342689 0.028323688 0.00062398054 4279648934
-0.0079048984 0.027752265 0.00096298009 4279977118
-0.0057164952 0.026486509 0.0020154268 4280173214
-0.0035172813 0.025221594 0.0030657332 4280305049
-0.0014661774 0.024651866 0.0034005828 4279911073
0.00059037283 0.024082594 0.0037344135 4279781279
0.0026523732 0.023513723 0.0040672682 4280042654
0.0050537065 0.021557629 0.0058225691 4280305049
0.007810466 0.018215295 0.008997187 4280894353
0.011111047 0.012794293 0.014298601 4281286543
0.016554561 -0.00094376504 0.028113402 4281483404
-0.013792984 -0.0031528026 0.031465754 4280700553
-0.013862275 0.00744747 0.020326398 4280111248
-0.014151782 0.01874043 0.0084876418 4279980178
-0.013528232 0.025144331 0.0016709007 4279389599
-0.011935398 0.026662879 -0.00013507251 4279387048
-0.0099090897 0.026088968 0.00020280108 4279976353
-0.0078773238 0.025515504 0.000539653 4280238748
-0.0058400817 0.024942432 0.00087551028 4280435099
-0.0036413297 0.02367311 0.0019225888 4280631703
-0.0014317781 0.022404581 0.0029675681 4281353099
0.00078859925 0.02113682 0.0040105041 4281548939
0.0030197576 0.019869909 0.0050513074 4281548428
-0.01385222 0.0051510446 0.019862209 4280439179
-0.01413634 0.016479187 0.0080488604 4279914898
-0.013508663 0.022902958 0.0012461543 4279192738
-0.011912916 0.02442608 -0.00055715628 4279977373
-0.0098842159 0.023850121 -0.00022143219 4280041889
-0.0078500472 0.023274556 0.0001133047 4280368798
-0.0056572147 0.02200038 0.0011581834 4280827288
-0.0034535713 0.02072699 0.0022009537 4281286544
-0.0010805503 0.018755589 0.0039517991 4282007683
0.0011474043 0.017483942 0.0049898941 4282988924
-0.013568535 0.0014456995 0.020820595 4281617534
-0.013841957 0.012809452 0.0090314932 4279914899
-0.013204776 0.019253459 0.0022417549 4278602923
-0.011890735 0.022185147 -0.00098230038 4280370073
-0.0098596364 0.021607086 -0.00064868852 4280172448
-0.0076727346 0.020328045 0.00039398298 4280892569
-0.0054750144 0.019049786 0.0014345441 4281285779
-0.0032664686 0.017772309 0.0024730675 4282202503
-0.00088871643 0.015794668 0.0042179991 4283316853
-0.013827473 0.010535602 0.0085833184 4281290113
-0.01318616 0.016999491 0.0018076189 4279650209
-0.011724032 0.019235998 -0.00070089009 4281025679
-0.0096878633 0.01865612 -0.00037000049 4282204544
-0.012741946 0.012622155 0.0034959447 4280960144
-0.022412658 -0.038337842 0.036372714 4281882223
-0.022544913 -0.040013954 0.035134837 4281291643
-0.021226391 -0.035529703 0.030527689 4280439943
-0.02279608 -0.040962249 0.03319896 4281226364
-0.021357678 -0.037192404 0.029299751 4280177294
-0.019697167 -0.034878485 0.02680026 4280769404
-0.022809237 -0.043365255 0.032659758 4281291388
-0.021367423 -0.039584354 0.028768077 4280045969
-0.01970385 -0.037263714 0.026272915 4280308364
-0.018183023 -0.034214877 0.023085997 4280636549
-0.022941306 -0.045040429 0.031422552 4281225343
-0.021498762 -0.04124862 0.027538959 4279914643
-0.019958816 -0.038189955 0.024354711 4280242574
-0.018440098 -0.035132565 0.021174807 4280505224
-0.022717901 -0.048917554 0.032265756 4281290878
-0.021630049 -0.042912602 0.026310042 4280111503
-0.020089537 -0.039845221 0.023132272 4279915153
-0.01869677 -0.036045581 0.019267056 4280243083
-0.016943082 -0.034447707 0.017481022 4281030013
-0.021640308 -0.045312352 0.02577259 4280701063
-0.020343862 -0.040764272 0.02121935 4280046479
-0.018700413 -0.038425379 0.018743075 4280112269
-0.017072834 -0.036087431 0.01627012 4280046479
-0.01532951 -0.034485757 0.014489478 4279587733
-0.021530055 -0.048454456 0.025921792 4281618808
-0.020474315 -0.042416736 0.019998968 4279915153
-0.018956631 -0.039333388 0.016839005 4279981199
-0.017202519 -0.037726834 0.015059447 4279456154
-0.015590496 -0.035383262 0.012594571 4280504968
-0.013860185 -0.033778012 0.01081997 4282602343
-0.019864909 -0.048510604 0.022903647 4282209389
-0.018708542 -0.043197192 0.017686132 4280046479
-0.017203525 -0.040105857 0.014535388 4278735523
-0.01558844 -0.037755586 0.01207483 4279391383
-0.013989251 -0.035406254 0.0096176025 4279981454
-0.018335648 -0.04781606 0.019209135 4280504968
-0.017204821 -0.042488955 0.014008315 4278604453
-0.015717834 -0.039390028 0.010867843 4279456919
-0.014118265 -0.037034176 0.008415468 4279915663
-0.012534641 -0.034679197 0.0059663355 4280899199
-0.017078109 -0.045620412 0.014161414 4279848598
-0.015847184 -0.041024171 0.0096610729 4279914899
-0.014247242 -0.0386618 0.0072135497 4280045968
-0.012526907 -0.037044071 0.0054508317 4280308364
-0.01081714 -0.035426967 0.0036903564 4280636293
-0.016952023 -0.048760325 0.014308324 4281681793
-0.015845671 -0.043404318 0.0091355387 4280766344
-0.014376167 -0.040289097 0.0060118642 4280045968
-0.012655638 -0.038667031 0.0042523835 4280177293
-0.01094567 -0.037045583 0.0024951529 4280374154
-0.0092462897 -0.035424657 0.0007400997 4281029759
-0.014371734 -0.042664409 0.0054892693 4280504203
-0.012648322 -0.04103782 0.0037325006 4280177295
-0.010935493 -0.03941185 0.0019779783 4280111503
-0.0093745664 -0.037038617 -0.0004516365 4279390109
-0.0079735965 -0.033918686 -0.0035546767 4280111248
-0.014367606 -0.045043789 0.0049636643 4281879673
-0.012777135 -0.042662345 0.0025328863 4280308365
-0.011202581 -0.040281884 0.00010542385 4279718294
-0.0097851306 -0.03715232 -0.0029944377 4279259294
-0.007957451 -0.036273472 -0.0040645646 4280242319
-0.0062815323 -0.034645177 -0.0058081606 4282013039
-0.012770262 -0.04503911 0.0020086523 4281748604
-0.011192672 -0.042651899 -0.00041452982 4279521179
-0.01005397 -0.038009129 -0.0048565287 4279718293
-0.0082289502 -0.037128255 -0.005924535 4279980178
-0.0065555051 -0.03549584 -0.0076643126 4280178059
-0.0044456348 -0.036118902 -0.007384588 4280113034
-0.011321202 -0.044271469 -0.0016104523 4280896393
-0.01004079 -0.040369973 -0.0053703431 4280307854
-0.008500047 -0.037978418 -0.0077810157 4280307854
-0.0066829249 -0.037095807 -0.0088456515 4280112013
-0.0047222227 -0.03696727 -0.009238353 4280112269
-0.0030644536 -0.035331249 -0.010971559 4280376193
-0.011449702 -0.045890719 -0.0028061438 4282991983
-0.010168575 -0.041978315 -0.0065579433 4280504204
-0.0084841326 -0.040336587 -0.008293489 4280373388
-0.0068103075 -0.038695492 -0.010026781 4280046224
-0.0049984157 -0.037810951 -0.011088641 4279915663
-0.0033431314 -0.036170773 -0.01281808 4279981708
-0.0015444383 -0.035286836 -0.01387711 4280574073
-0.0098749101 -0.045862496 -0.0057377312 4281878908
-0.008325398 -0.043457411 -0.0081402641 4280503948
-0.0066460297 -0.041811563 -0.0098714214 4279718803
-0.0051257461 -0.039408162 -0.012267916 4279587734
-0.0036214292 -0.037005626 -0.014661157 4279193758
-0.0019792244 -0.035361879 -0.016384544 4279521944
-0.00034765899 -0.033718675 -0.018105745 4280902514
-0.0084532574 -0.045065194 -0.0093274172 4281813628
-0.0067736953 -0.043415017 -0.011055341 4279718293
-0.0054013617 -0.040244646 -0.014112977 4279062688
-0.0038993359 -0.037835807 -0.016500795 4279521434
-0.0022596307 -0.036187865 -0.018220441 4280045968
-0.00031785294 -0.036060192 -0.018609064 4280309384
-0.0069013163 -0.045018099 -0.012238992 4280962439
-0.0053802952 -0.042601652 -0.014625778 4280438924
-0.0038752444 -0.04018607 -0.017009316 4280046224
-0.0023861527 -0.037771396 -0.019389546 4280242574
-0.00075685605 -0.036119707 -0.021103671 4280307853
0.00086180866 -0.034468599 -0.022815585 4280703359
-0.0070289075 -0.046620943 -0.013422461 4283122543
-0.005655501 -0.043433189 -0.016467189 4281224578
-0.0038514659 -0.042540386 -0.017520824 4280045968
-0.002512645 -0.039354652 -0.020558437 4279980433
-0.0011951327 -0.036170207 -0.023591626 4280177294
0.00025970489 -0.033751033 -0.025959887 4280308363
0.0021825768 -0.033624388 -0.02634456 4280310913
-0.0039784573 -0.044132009 -0.018695949 4280766343
-0.0026391 -0.040937573 -0.021727091 4279915153
-0.0014768764 -0.036978029 -0.025413424 4279653269
0.00013415515 -0.035318755 -0.027117234 4280242574
0.0022180341 -0.035958111 -0.026843376 4278866339
0.0044711605 -0.037362903 -0.025912538 4279915409
-0.0038048364 -0.047261231 -0.018552804 4282139773
-0.0027655326 -0.042520218 -0.022895543 4279979924
-0.0016025901 -0.038549781 -0.026573801 4279325594
-0.00014967844 -0.036117785 -0.02893177 4279652759
0.0020921789 -0.037527755 -0.028002109 4279193504
0.0043448061 -0.038936898 -0.027074447 4279521689
0.0056101382 -0.035738029 -0.030083731 4280968049
-0.0014173388 -0.041662775 -0.026421258 4280636038
4.1279942e-05 -0.03922385 -0.028775478 4279849364
0.0021271706 -0.039867431 -0.028505331 4279455388
0.0043819584 -0.041280791 -0.027581407 4279783318
0.0063151605 -0.041153207 -0.027967947 4280309383
-0.001077462 -0.045557037 -0.025620243 4281683578
0.0002315715 -0.042338386 -0.028625382 4279849364
0.0023224801 -0.0429838 -0.028357873 4279586714
0.0049087331 -0.045945957 -0.026131975 4280372623
0.0073504224 -0.048134319 -0.024562882 4281224578
-0.00073861331 -0.049464159 -0.024828654 4282928489
0.0012101494 -0.049335934 -0.02521861 4281290878
0.0031589754 -0.049207576 -0.025608476 4280766854
0.0059235469 -0.052951969 -0.022740677 4281619319
-0.029320501 -0.017336495 0.066820405 4285228589
-0.025207296 -0.0069293976 0.05192975 4285097519
-0.026801862 -0.012181118 0.054744355 4285031984
-0.025386386 -0.015680194 0.049177982 4284966449
-0.0136264 -0.024983637 0.027666949 4285163054
-0.01402295 -0.025191933 0.025048904 4285031983
-0.014551468 -0.024668887 0.021738719 4285163054
-0.012684565 -0.023815967 0.020639125 4285228588
0.021855487 0.0069718733 -0.014556105 4286408984
0.022974869 0.0099709257 -0.017680336 4285491239
0.024663754 0.010814637 -0.018742483 4286082074
0.027944624 0.0059152581 -0.014320229 4286082329
0.033893473 -0.0083111972 -0.0010021692 4286016794
-0.01468128 -0.026305787 0.020529971 4285228844
-0.012949537 -0.024726436 0.018735386 4285294379
0.01907815 0.0081789047 -0.018065002 4286015263
0.020198109 0.01118663 -0.021182876 4285558049
0.021296626 0.014193054 -0.024296381 4285754654
0.022767324 0.015757736 -0.026036913 4285820188
0.025224742 0.013721563 -0.024356283 4285754398
0.029719897 0.0044880062 -0.015846265 4285885723
-0.014678665 -0.028669022 0.020016983 4285163309
-0.013214123 -0.02563224 0.016835075 4285294379
0.015952092 0.010851592 -0.022934755 4285623074
0.017821666 0.010975845 -0.023307916 4285558559
0.019117413 0.013268452 -0.025732294 4285689884
0.020203121 0.016282726 -0.028836647 4285755163
0.02185729 0.017128445 -0.029888513 4285623583
0.023904704 0.016529474 -0.029574916 4285557794
0.027573371 0.010154586 -0.023809202 4285623839
0.032518227 -0.00054818392 -0.013966424 4285623839
0.053152185 -0.0506569 0.032453924 4285689884
-0.014808536 -0.030307516 0.018807046 4284900914
-0.013208572 -0.027990662 0.016325008 4285228844
-0.0076468736 -0.02541437 0.013049198 4285163054
0.0089762174 0.014033061 -0.027735829 4285818914
0.010646489 0.014881387 -0.028789748 4285754143
0.013226729 0.01210209 -0.026423763 4285754654
0.015085451 0.012225505 -0.026794847 4285624094
0.016944179 0.012349036 -0.027165849 4285624348
0.018229611 0.014647491 -0.029583216 4285690138
0.019305183 0.017669793 -0.032678939 4285953044
0.020555768 0.0199662 -0.035089225 4285755163
0.022586815 0.019363936 -0.034773957 4285820954
0.026035856 0.013692543 -0.029699594 4285887254
0.030141203 0.0058518872 -0.022595178 4285952279
0.034512579 -0.0027085468 -0.014823506 4285821209
0.054898519 -0.051510364 0.030090597 4285558814
-0.013203319 -0.030353151 0.015811928 4285097518
-0.011478838 -0.028761156 0.014028728 4285163054
-0.0079189166 -0.026309229 0.011159055 4285294379
0.006304305 0.015311666 -0.031216882 4285951513
0.0077890307 0.016889542 -0.032950841 4285951003
0.0098036863 0.016283285 -0.032634579 4285951003
0.012006603 0.014949843 -0.031637162 4285951768
0.01422026 0.013617169 -0.030641768 4285624094
0.016068142 0.013739992 -0.031010594 4285558558
0.017534168 0.015317205 -0.032740459 4285558558
0.018602284 0.018347722 -0.035828091 4285689883
0.019845249 0.0206501 -0.038231868 4285821209
0.022265846 0.018591959 -0.036558762 4285821719
0.025509033 0.01362925 -0.032175113 4285755673
0.028993988 0.0079429224 -0.027120974 4285624349
0.031693779 0.0051638708 -0.024784695 4285559069
0.035463288 -0.0012430921 -0.019068515 4285493533
0.057510301 -0.055260733 0.030432824 4285493789
-0.01333287 -0.031986676 0.014605677 4284901168
-0.011608187 -0.030390345 0.012825722 4285163053
-0.0098941028 -0.028794579 0.011047913 4285294379
-0.0084756836 -0.025734372 0.0078952163 4285294379
-0.0064976513 -0.025604777 0.0074989833 4285163308
-0.0045195222 -0.025475077 0.0071028136 4285228588
0.001664307 0.0090587176 -0.027120519 4285359913
0.0031812601 0.010642737 -0.028857876 4285493278
0.0043435544 0.013687324 -0.031958383 4285689883
0.0056591369 0.016000222 -0.034372404 4285623838
0.0071360394 0.017581917 -0.036101516 4285557794
0.0091423541 0.016972948 -0.035785228 4285623584
0.011519473 0.014904693 -0.034108847 4285754908
0.01372727 0.013567325 -0.033115625 4285755164
0.015757721 0.012960274 -0.032803912 4285624093
0.017030565 0.015270952 -0.035208859 4285558813
0.01828732 0.017580725 -0.037610553 4285558814
0.019920204 0.01843157 -0.038653217 4285558813
0.022342822 0.016366992 -0.036985423 4285558814
0.025587296 0.011389192 -0.032613609 4285558814
0.028256832 0.0085992813 -0.030277923 4285558814
0.029913697 0.009452153 -0.031325042 4285624094
0.032193616 0.0081205964 -0.030345445 4285624348
0.036181532 0.00096669793 -0.023970623 4285754908
0.060136691 -0.05902268 0.030762557 4285754908
-0.011737499 -0.032019235 0.011622924 4284966703
-0.01016289 -0.029684253 0.0091608874 4285163309
-0.0086042285 -0.027350195 0.0067021381 4285163308
-0.0070614964 -0.02501712 0.0042467043 4285098028
-0.0050915256 -0.024887957 0.0038521625 4285229353
-0.0031214692 -0.024758674 0.0034576859 4285294378
0.0012096129 0.0090094879 -0.029603403 4285425703
0.002383139 0.012063403 -0.032699645 4285559068
0.0033634603 0.015848763 -0.036472581 4285755928
0.004666049 0.018167336 -0.038879059 4285821463
0.0063069612 0.019020118 -0.03992226 4285689373
