# .PCD v0.7 - Point Cloud Data file format
VERSION 0.7
FIELDS x y z rgba
SIZE 4 4 4 4
TYPE F F F U
COUNT 1 1 1 1
WIDTH 801
HEIGHT 1
VIEWPOINT 0 0 0 1 0 0 0
POINTS 801
DATA ascii
0.011212297 -0.0034227818 0.055099417 4290199558
0.014078334 -0.0067173503 0.058276862 4290458384
0.018871447 -0.017552763 0.069301307 4288625699
-0.0057731643 -0.0026758723 0.053419348 4290259994
-0.0034748092 -0.0039215498 0.054461043 4290979603
-0.0013166964 -0.0044771321 0.054784309 4290655753
0.0003855601 -0.0029649362 0.052959036 4289347348
0.0025465488 -0.0035201795 0.053281851 4289872139
0.0048721582 -0.0047637783 0.054318499 4290067979
0.0073703974 -0.0066951066 0.056067318 4290656008
0.0093912818 -0.0065600984 0.055671796 4289671708
0.011913832 -0.0084896944 0.057416014 4290129433
0.01496218 -0.012482248 0.061295211 4290456089
0.01994101 -0.024039142 0.073002107 4290324508
-0.0093476474 -0.007325314 0.055829853 4289409568
-0.0074785948 -0.0064995065 0.054719258 4290063899
-0.0054692402 -0.0063658282 0.054325551 4290389278
-0.0031632818 -0.0076153688 0.055362385 4289866019
-0.001148317 -0.0074811615 0.054967705 4290521368
0.00086675584 -0.0073468648 0.054573067 4289147428
0.0030382052 -0.0079035833 0.054892123 4289015848
0.0053740814 -0.0091507807 0.055923302 4289277734
0.0077207871 -0.010397218 0.056952465 4289800739
0.0097496212 -0.010261681 0.056555383 4289276458
0.011778526 -0.010126065 0.056158349 4289211944
0.014486302 -0.012751214 0.058605522 4288950313
0.018767066 -0.021585144 0.067443147 4289211688
-0.010119248 -0.016027056 0.062133394 4287708718
-0.009340819 -0.0096425228 0.055297446 4289342759
-0.0078970902 -0.0067319311 0.052044146 4289015594
-0.0066200569 -0.0031287074 0.048080985 4288949804
-0.0049255639 -0.0016085804 0.046263818 4289276969
-0.0027894713 -0.0021700375 0.046588 4289407273
-0.00034106895 -0.0041178837 0.048336163 4288754219
0.0022796392 -0.006757874 0.050793253 4289015849
0.0044455305 -0.007317055 0.051111747 4289211944
0.0066168904 -0.0078758374 0.051429275 4289733674
0.0083012059 -0.0063559003 0.049614485 4289472043
0.0093075112 -0.0020664185 0.044962283 4289734438
0.010281667 0.0022210069 0.040316444 4289145134
0.013290145 -0.0017999895 0.044183098 4289014064
0.019478891 -0.01827506 0.060793333 4288229173
-0.011076953 -0.013491139 0.056585278 4287185459
-0.011012278 -0.0036057048 0.046200007 4289342758
-0.010310002 0.0027931817 0.039394315 4290126884
-0.0096558668 0.0091889054 0.032598164 4290191144
0.0016154982 0.0028816052 0.037799295 4288030783
0.0039022379 0.0016225763 0.038833339 4288815929
0.005215928 0.0045337193 0.035612781 4288162619
0.0056749173 0.01091712 0.028855305 4288488254
-0.012717318 -0.0074348263 0.04749557 4288230450
-0.014080133 -0.0027326904 0.039863989 4287902774
-0.01475662 -0.0015072525 0.035807647 4286855743
-0.011642661 -0.0059028976 0.082181655 4284638773
0.035162747 -0.078440174 0.021100432 4284376634
-0.0026757196 -0.0034136511 -0.042675622 4284705073
-0.019010589 -0.035313129 -0.024854261 4282542164
-0.018912703 -0.02733624 -0.034158081 4283526463
-0.017790616 -0.035862066 -0.029484026 4281758803
-0.016481172 -0.032609239 -0.032433905 4284508214
-0.014493756 -0.04586941 -0.023923669 4282936394
0.0083404481 0.016036473 0.02314792 4282661504
0.012702536 0.0064462423 0.032666367 4281614729
0.019268539 -0.011466879 0.050643768 4278795449
-0.013001841 0.013784688 0.025375336 4281025933
-0.012249485 0.019498371 0.019314336 4280305558
-0.010801438 0.021718608 0.01681303 4278599608
-0.0086174607 0.020448046 0.017863581 4278729659
-0.0061165355 0.017782766 0.020330396 4278269383
-0.0034382939 0.014421344 0.023501813 4280042908
-0.0012084395 0.013154108 0.024543518 4279585438
0.00071000308 0.013282146 0.024167946 4279192738
0.0021371134 0.015501466 0.021671113 4279258529
0.003048759 0.019810433 0.017057803 4279453858
-0.015598562 0.014918823 0.021724001 4281288839
-0.015118599 0.022051705 0.014254907 4279061669
-0.013823122 0.024978245 0.011051018 4278536368
-0.012106426 0.025802592 0.0099771209 4278928813
-0.0099443607 0.02452624 0.011028551 4278665399
-0.0051210672 0.019876717 0.015246196 4279389089
-0.0032350048 0.020002486 0.014876878 4278865319
-0.0015097968 0.020827753 0.013801672 4278734249
4.6495348e-05 0.02235195 0.012022128 4278667694
0.0029580742 0.02609737 0.007765098 4279061669
0.0049946532 0.02552346 0.0081040952 4279586458
0.0077340454 0.022155957 0.011255445 4278667693
0.011916596 0.013203692 0.020024089 4278798253
0.019224163 -0.0076122992 0.040717982 4278470323
-0.016560059 0.017603595 0.016294289 4280962183
-0.014525183 0.026285792 0.0070658182 4278864299
-0.01281913 0.027111501 0.0059957192 4279455134
-0.010668263 0.025830125 0.0070458851 4279388833
-0.0060232654 0.021865899 0.010550769 4278340019
-0.0041507185 0.021990759 0.010184094 4278537643
-0.0025996156 0.023518825 0.008408891 4278668458
-0.0010591745 0.025046298 0.006635793 4278602669
0.0043555684 0.026120618 0.0048405048 4278470578
-0.017380238 0.019609367 0.011591582 4279324574
-0.0067684427 0.023172872 0.0065758261 4278668203
-0.0050646178 0.0240009 0.0055081113 4278865319
-0.0033660904 0.024828646 0.0044414862 4278537898
-0.0018361248 0.026359674 0.0026738751 4278537898
0.0095404014 0.018547066 0.0092566907 4278274994
0.015011203 0.0046238042 0.022867613 4278799529
-0.017364919 0.017393041 0.011136752 4279586713
-0.017473269 0.027417485 0.00090416614 4278472108
-0.015924904 0.02895348 -0.00086417515 4278537134
-0.013946183 0.028368481 -0.00051955273 4278668713
-0.011662651 0.026370689 0.0012302343 4278341293
-0.0095152855 0.025080509 0.002274327 4278799273
-0.0072020665 0.023084864 0.0040184329 4278733738
-0.0053458214 0.023208603 0.0036549219 4278603434
-0.0036499053 0.02403832 0.002590504 4278472108
-0.0021223761 0.025573509 0.00082670152 4278603178
-0.00027397648 0.025696985 0.00046493113 4278864808
0.0014060289 0.02652589 -0.00059617637 4278865574
0.0034229755 0.02594419 -0.00025844853 4278865319
0.0056191534 0.024657909 0.00077666901 4279061414
0.0085320771 0.020553213 0.0046010143 4278865319
0.013627391 0.0079950951 0.016786724 4278865319
0.022456598 -0.018645562 0.042889096 4278799784
-0.017072394 0.013753723 0.012085747 4282143089
-0.017311763 0.024518229 0.0011718706 4278537898
-0.016046047 0.027477104 -0.0019991074 4278668968
-0.014214419 0.027598852 -0.0023580752 4278472363
-0.012233194 0.027011929 -0.0020155932 4278471344
-0.0099421591 0.02500825 -0.00027231546 4278406319
-0.0074800849 0.02229733 0.0021682149 4278406828
-0.0054690875 0.021712646 0.0025050668 4278406828
-0.0037731007 0.022544503 0.0014423188 4278472363
-0.0020824112 0.023376094 0.00038067531 4278668969
-0.00039703026 0.02420746 -0.0006799046 4278668458
0.0014513135 0.024330996 -0.0010416126 4278733738
-0.016365092 0.0079667382 0.015130527 4282471019
-0.016868375 0.020187613 0.0028357855 4278537898
-0.016023185 0.025289692 -0.0024330688 4278406828
-0.010216277 0.024234135 -0.0021129153 4278271168
-0.0057496876 0.020927323 0.00065722968 4279192229
-0.0040563121 0.021761136 -0.00040332414 4278603433
-0.0023682415 0.022594735 -0.0014628097 4278406573
-0.00068546459 0.023428015 -0.0025211526 4278471599
0.00082391128 0.024970701 -0.0042744516 4278667948
-0.015936691 0.0035816766 0.016755208 4282667624
-0.016849633 0.017980859 0.0023875865 4278931619
-0.016288176 0.024525095 -0.004268426 4278602923
-0.01307267 0.026907865 -0.0070805782 4278536113
-0.0086529441 0.023586925 -0.0043098615 4278468793
-0.0063442551 0.021571707 -0.0025801512 4279060904
-0.0044989921 0.021694772 -0.0029414652 4278996134
-0.0029787607 0.023242284 -0.004693653 4278799273
-0.0014692023 0.024789233 -0.0064437101 4278667948
0.0016884878 0.027169505 -0.0092433933 4279127203
0.003688518 0.026580285 -0.0089073945 4279192994
0.0062218271 0.023857608 -0.0064938394 4279060905
0.010205764 0.01544752 0.0014540749 4279060905
0.016792659 -0.0029113702 0.019074593 4279060905
-0.015786115 0.00061148778 0.016969731 4282667878
-0.01753578 0.019348957 -0.0015537874 4278668969
-0.015455551 0.027463689 -0.0099434853 4279192228
-0.013640244 0.027584372 -0.010299239 4279390108
-0.011673193 0.026990097 -0.0099590402 4279192229
-0.0092377141 0.024251569 -0.007533689 4278733229
-0.007094726 0.022944013 -0.0065022195 4278602414
-0.0051006116 0.02235176 -0.0061670714 4278799273
-0.0037505515 0.024617441 -0.0086081782 4278864808
-0.0020864196 0.025453761 -0.0096594915 4278405809
0.0012258999 0.027125638 -0.011758834 4278273464
0.0030471757 0.027247526 -0.012115117 4278733994
0.014670139 0.0033682287 0.01028087 4278273973
-0.018079735 0.020016596 -0.0047853133 4278865829
-0.016306061 0.029589182 -0.014544191 4278272698
-0.0075300708 0.022900071 -0.0090244152 4278537388
-0.0057011284 0.023022018 -0.0093825581 4278603178
-0.004358694 0.02529363 -0.011817088 4278668713
-0.0028674118 0.02684788 -0.013556767 4278734249
0.0078161061 0.021016465 -0.0091319028 4278406573
0.012913518 0.0082651377 0.0029008207 4278406573
-0.018341452 0.019257324 -0.0066173575 4278865828
-0.018083483 0.027298212 -0.014612617 4278733738
-0.016571071 0.028857565 -0.016353598 4278733483
-0.014623448 0.028257536 -0.016013034 4278667949
-0.012670387 0.027657986 -0.015673516 4278602668
-0.010096002 0.024182035 -0.012566752 4278865319
-0.0079646744 0.022865087 -0.0115398 4278799783
-0.0061412081 0.022986649 -0.011896886 4278603434
-0.004641708 0.024545636 -0.013634868 4278603689
-0.0029881634 0.025385536 -0.014680723 4278472618
-0.0013399385 0.026225155 -0.01572548 4278930343
0.00047302246 0.026346378 -0.016080227 4279061669
0.0024587624 0.02574975 -0.015746525 4279061668
0.0048007444 0.023718033 -0.014038103 4278996388
0.0071588494 0.021687435 -0.01233273 4278603178
0.011702508 0.011048958 -0.0023887383 4278472618
-0.018321984 0.017058019 -0.0070597865 4278997409
-0.018202573 0.025844926 -0.015729839 4278538154
-0.016689919 0.027408576 -0.017467489 4278537898
-0.014891032 0.027528124 -0.017820057 4278996134
-0.012940928 0.026926175 -0.017481625 4279061159
-0.010524016 0.024160586 -0.015073014 4278930599
-0.0082420483 0.022117753 -0.013358457 4278800548
-0.0064213797 0.022239123 -0.013715001 4278538409
-0.0047624819 0.023081403 -0.01476031 4278537898
-0.0034379214 0.025364785 -0.017181113 4278603433
-0.0017950051 0.026206186 -0.018223146 4278537643
-0.00015739352 0.027047332 -0.019264059 4278996134
0.0019925646 0.025727885 -0.01824371 4278536624
0.010854885 0.012419764 -0.0062878598 4279126183
-0.017741986 0.01195699 -0.004739916 4279915154
-0.018035844 0.022943424 -0.015465206 4278406828
-0.016663149 0.025235744 -0.017890837 4278733738
-0.013512943 0.027646396 -0.020664765 4278271679
-0.0086753257 0.022098351 -0.015861798 4278733229
-0.0065421909 0.020772994 -0.014841929 4278472363
-0.0048832335 0.021617426 -0.015885556 4278603434
-0.0033939071 0.023184406 -0.017614704 4278603434
-0.0019152686 0.024750818 -0.019341718 4278406319
0.0033318773 0.025835715 -0.021087022 4278271679
0.0060253851 0.022347059 -0.018019877 4278337468
0.0098283067 0.014529858 -0.010856971 4278271934
0.016253786 -0.0033852011 0.0058560423 4278271934
-0.017443776 0.0082878247 -0.0038158852 4282274414
-0.018012471 0.020759905 -0.015896147 4278668969
-0.016927488 0.024511369 -0.019694692 4278733995
-0.014234614 0.029105673 -0.024525361 4278929579
-0.0071393475 0.021483116 -0.018026715 4278799528
-0.0053268969 0.021604003 -0.018381597 4278864808
-0.0040068701 0.023899944 -0.020791363 4278733738
-0.0023691878 0.024745271 -0.021829 4278471344
-0.001075875 0.027039619 -0.024233386 4278601903
0.00054579601 0.027884074 -0.025267731 4278996389
0.0023370236 0.028004017 -0.025618086 4278800549
0.013747552 0.0044816397 -0.0041855816 4278799274
-0.017426286 0.0060634464 -0.0042776843 4282208879
-0.017989427 0.018572371 -0.01633025 4278734759
-0.01628295 0.028280055 -0.025965825 4279257763
-0.014954817 0.030582493 -0.02837248 4278931363
-0.012723133 0.028516807 -0.026663383 4278930088
-0.010163408 0.024996964 -0.023587612 4278667694
-0.0078940354 0.022933992 -0.021885738 4278340784
-0.0060924292 0.02305414 -0.022238512 4278930343
-0.0046187304 0.02462869 -0.023957878 4278733738
-0.0029890351 0.025475629 -0.024992255 4278405808
-8.9660287e-05 0.028621966 -0.028421164 4278339509
0.0016934015 0.028741356 -0.028769927 4278733993
0.032994568 -0.056997038 0.050240848 4278471854
-0.017828152 0.0060277022 -0.006801724 4282470508
-0.018820845 0.020765092 -0.020882646 4278603689
-0.016843673 0.02903829 -0.029121773 4278339764
-0.015222359 0.029886244 -0.030153269 4278470834
-0.0088057108 0.025132021 -0.026414007 4278799784
-0.0070176236 0.025251264 -0.026764136 4278668713
-0.0055570975 0.026829218 -0.028477544 4278537898
-0.0039407462 0.027677404 -0.029507622 4278734249
0.010757446 0.01237607 -0.016680894 4278341293
-0.018089749 0.0052677915 -0.0086342283 4282338674
-0.01950828 0.022246791 -0.024734054 4278865829
-0.011490066 0.027233671 -0.030577933 4278275504
-0.00924078 0.025156496 -0.028882356 4278865318
-0.0076191202 0.026006987 -0.029911933 4278537898
-0.0061663911 0.027588651 -0.031620398 4278341548
-0.0047243424 0.029169751 -0.033326734 4278472363
-0.0029549897 0.029288029 -0.03367297 4278537898
-0.0011856034 0.029406415 -0.034019131 4278800038
0.00093251467 0.028063376 -0.033009406 4279061669
0.003238406 0.025990674 -0.031324361 4278931109
0.0057401247 0.02318874 -0.028965505 4278668968
0.0099048316 0.013816562 -0.020523781 4278668968
0.037480749 -0.070454635 0.056676675 4278865573
-0.017932981 0.0023068711 -0.0084140068 4282207604
-0.019768223 0.021540893 -0.026524344 4278931874
-0.018993668 0.02680351 -0.031648971 4278865064
-0.017372333 0.02765562 -0.032677189 4278669479
-0.015756272 0.02850748 -0.033704296 4278735013
-0.013840035 0.027890466 -0.033369415 4278930853
-0.011607554 0.02580557 -0.031675678 4278996644
-0.0095170103 0.024455866 -0.030664446 4278800039
-0.0077372156 0.024574531 -0.031012967 4278668968
-0.0062842481 0.026160516 -0.032718085 4278472618
-0.0046758428 0.027012492 -0.033743273 4278603178
-0.0030727349 0.027864171 -0.034767304 4278734248
-0.0013034716 0.027982531 -0.035113454 4278603433
0.0004658252 0.028100984 -0.035459533 4278537898
0.0025888532 0.026754104 -0.034454063 4278536624
0.0050816759 0.023943029 -0.032100286 4278667949
0.0090536773 0.01527461 -0.024353184 4278799018
0.016972795 -0.0087649971 -0.0024614418 4278667949
0.036195673 -0.067785434 0.051315155 4278602414
-0.019460462 0.01789083 -0.025587615 4279128733
-0.019254789 0.026117075 -0.03342361 4278472363
-0.017636079 0.026971145 -0.034449633 4278864808
-0.016022649 0.027825003 -0.035474584 4278340018
-0.014109392 0.02720557 -0.035140794 4278274484
-0.012035467 0.025850372 -0.034129765 4278733484
-0.009950757 0.024495926 -0.033120744 4279061413
-0.0080158524 0.023878297 -0.032790989 4278603689
-0.0064020716 0.02473262 -0.033815585 4278341548
-0.0047936067 0.025586748 -0.03483909 4278668969
-0.0028531849 0.024969731 -0.034510143 4278406573
-0.0012500063 0.025823688 -0.035532475 4278602414
0.01536746 -0.0044240206 -0.0090199346 4278599609
-0.019295357 0.014967397 -0.025339803 4279521944
-0.019515514 0.02543523 -0.035194725 4278275504
-0.018193461 0.027769264 -0.037574936 4278340784
-0.012772739 0.027380971 -0.037930209 4278271169
-0.0082941093 0.023186635 -0.034565497 4278603434
-0.0065198652 0.02330501 -0.034912866 4278472363
-0.0047455728 0.023423493 -0.035260167 4278537643
-0.0031396896 0.024279689 -0.036281403 4278405808
-0.001710251 0.025872955 -0.037974931 4278864554
0.0012930185 0.028320665 -0.040683109 4278470834
0.043862924 -0.07665728 0.052792199 4278932129
-0.01955536 0.014260188 -0.027131196 4280373643
-0.019920006 0.025499323 -0.037639413 4278341039
-0.0186029 0.0278394 -0.040013548 4278799274
-0.017152268 0.029437609 -0.04170851 4278931618
-0.01081603 0.024602786 -0.038012881 4278733229
-0.0090526827 0.024720337 -0.038358197 4278602669
-0.007289283 0.024837982 -0.038703449 4278799273
-0.0056914389 0.025695667 -0.039721515 4278668203
-0.0040988997 0.026553063 -0.040738408 4278405808
-0.0026826374 0.028149728 -0.042425979 4278602159
-0.0011034273 0.029006433 -0.043440107 4279062178
0.00082306936 0.028384529 -0.043111634 4278866084
0.0031129308 0.026285108 -0.041443694 4278733994
0.0061456002 0.021231519 -0.037099969 4278865064
0.01179678 0.005839549 -0.023394998 4278865064
0.032163784 -0.058882326 0.034683183 4278668459
0.038275935 -0.074242912 0.048298318 4278733994
0.040794186 -0.075575307 0.049217023 4278865064
0.042927608 -0.075431377 0.048800584 4278734759
0.045662295 -0.077499971 0.05038235 4279652758
-0.020097561 0.015044823 -0.03027083 4281553528
-0.017566092 0.029520573 -0.044135906 4278407084
-0.01567518 0.028893238 -0.04380288 4278538408
-0.013933524 0.029009132 -0.044144113 4278406319
-0.0096497461 0.025529161 -0.041465189 4278668203
-0.0078945234 0.025646243 -0.041808862 4278799784
-0.0064700656 0.027247548 -0.043494809 4278930854
-0.004888203 0.028106414 -0.044507965 4278471599
0.00017771125 0.029198669 -0.046202436 4278274738
0.042981625 -0.077887341 0.048146963 4278668968
0.045518041 -0.079222515 0.049058903 4279193758
-0.020074174 0.012859441 -0.030703325 4282143089
-0.020870551 0.026399754 -0.043181978 4278603434
-0.010245718 0.026351172 -0.04456206 4278668969
-0.0084986538 0.026467718 -0.044904124 4278603434
-0.0072472505 0.028816974 -0.047254693 4278537898
-0.0056760572 0.029677264 -0.048264075 4278865319
-0.0039395802 0.029793404 -0.048603833 4278275249
-0.00011461973 0.028539 -0.047948208 4278275249
0.0042757913 0.025057063 -0.045297328 4278538408
0.0086070783 0.014773618 -0.03631825 4278735013
0.016746931 -0.010360148 -0.014046926 4278538408
0.028666802 -0.049590856 0.020820471 4278275504
0.036645912 -0.072469227 0.041017983 4278275504
0.039923236 -0.076780438 0.044588834 4278538408
0.042245701 -0.077379093 0.044837285 4278604198
0.044773579 -0.078719154 0.045747545 4278735524
0.047109362 -0.079316676 0.045993593 4281816179
-0.020332992 0.01216593 -0.032484118 4282405228
-0.021416262 0.027240437 -0.046276595 4278472363
-0.020411991 0.031093685 -0.049974687 4278865318
-0.018093556 0.028218333 -0.047628235 4278996388
-0.0162086 0.027586289 -0.047297444 4278931108
-0.01416387 0.026207594 -0.046297625 4278931364
-0.012422405 0.026323559 -0.046638753 4279062433
-0.010521181 0.025692917 -0.046310898 4278866084
-0.0089392997 0.026555797 -0.047320817 4278603944
-0.0073627345 0.027418436 -0.04832961 4278603433
-0.0056237429 0.027534643 -0.048669934 4278669223
-0.0038847178 0.027650954 -0.049010184 4278996644
-0.0019725598 0.027021552 -0.048684068 4278800804
-5.5026263e-05 0.026392609 -0.048358921 4278669988
0.0020463616 0.025018636 -0.047369454 4278997154
0.0041584596 0.023645528 -0.046382044 4278735269
0.0081194714 0.014822103 -0.038754523 4278538664
0.01531525 -0.0066606514 -0.019856846 4278538664
0.035353169 -0.069697812 0.035738934 4278997154
0.039391324 -0.077000588 0.041951507 4278735269
0.041905321 -0.078345999 0.042860992 4278276523
0.044230096 -0.078946516 0.043107402 4278669478
0.046357613 -0.078802705 0.042692341 4282405994
-0.019887552 0.0077263862 -0.030906672 4282667368
-0.020956717 0.022844672 -0.044668097 4278668969
-0.020087093 0.027459146 -0.04902989 4278865829
-0.018059075 0.02607489 -0.048030388 4279062434
-0.016020257 0.024691412 -0.047032874 4279259039
-0.013970666 0.023308791 -0.046037439 4278866338
-0.012067117 0.02267601 -0.045711774 4278801058
-0.010477215 0.023541503 -0.046721697 4278735524
-0.0087304041 0.023658022 -0.047063716 4278604199
-0.0071484335 0.024523146 -0.048071891 4278407594
-0.0054042116 0.024639707 -0.048413236 4278407594
-0.0036599562 0.024756357 -0.048754521 4278407594
-0.0015698187 0.023377132 -0.047766402 4278407594
0.0044030659 0.020739399 -0.046140406 4278538408
0.0078162365 0.014132295 -0.040521439 4278669989
0.014072418 -0.0036777742 -0.024981348 4278603943
0.034445964 -0.068393677 0.03180201 4278276524
0.03847146 -0.075718775 0.038000189 4278538408
0.040974211 -0.077069178 0.03890847 4278604454
0.043287933 -0.077672571 0.039155345 4278407848
0.045606967 -0.078275472 0.039401289 4282471784
-0.019584082 0.0040222071 -0.030011576 4282012273
-0.020641804 0.019184038 -0.043741409 4279456663
-0.019471325 0.022308119 -0.046758365 4278604453
-0.017579023 0.021672156 -0.046432488 4278342314
-0.015529975 0.020285055 -0.045440372 4278407849
-0.013470151 0.018898834 -0.044450324 4278342569
-0.0097961836 0.018381916 -0.044473138 4278277034
-0.0046832114 0.019484902 -0.046170834 4278277034
-0.00099539384 0.018969975 -0.046195518 4278407338
0.0030594394 0.016956605 -0.044898078 4278342058
0.0051893294 0.015576068 -0.043920867 4278473128
0.0080637708 0.011198737 -0.040302102 4278800549
0.013762441 -0.0044149011 -0.02678393 4278735524
0.033923224 -0.068569764 0.029197261 4278538663
0.037941389 -0.075916737 0.035379913 4278800549
0.040635131 -0.078020379 0.036944266 4278735524
0.043145366 -0.079374418 0.037847809 4279194268
-0.019898631 0.013248011 -0.04082315 4279325594
-0.018711507 0.016381752 -0.043836616 4278473128
-0.016951893 0.016498577 -0.044181578 4278604198
-0.014889933 0.015108045 -0.043195382 4278604453
-0.013124816 0.015225459 -0.043541245 4278407848
-0.011046663 0.013836261 -0.042558093 4278473384
-0.009435229 0.014707416 -0.043568827 4278604708
-0.0075054057 0.014072325 -0.043251585 4278407849
-0.0057347044 0.014190532 -0.043598209 4278407849
-0.0039639585 0.014308847 -0.043944761 4278735524
-0.0021931753 0.014427271 -0.044291236 4278800803
-0.00024979189 0.01379348 -0.043976262 4278604198
0.0016989671 0.013160203 -0.043662295 4278473384
0.0038310215 0.011775468 -0.042689014 4278669734
0.0057932064 0.011143308 -0.042377502 4278669989
0.008677166 0.0067537166 -0.038770698 4278932384
0.014568603 -0.0096558034 -0.024630623 4278932384
0.033401217 -0.068736933 0.026599351 4278801059
0.037218079 -0.075354949 0.032109413 4278932384
0.039903071 -0.077465549 0.033670377 4278801059
0.042604115 -0.079574987 0.035228346 4280241809
-0.019729219 0.01031201 -0.040586334 4279849364
-0.018390566 0.012698479 -0.042929288 4278736033
-0.016326495 0.011303682 -0.041946981 4278801824
-0.014402591 0.010665629 -0.041630607 4278473893
-0.01262689 0.010783736 -0.041978549 4278670499
-0.010694824 0.010146432 -0.041663613 4278604708
-0.0089163184 0.010264937 -0.042011946 4278735524
-0.0069760941 0.0096284002 -0.041698426 4278801059
-0.0053591616 0.010502275 -0.042708382 4278473638
-0.0035805069 0.010621112 -0.043056484 4278997919
-0.0016321242 0.0099854395 -0.042744312 4278801314
-2.3111701e-05 0.010859124 -0.043752447 4278538918
0.0019306839 0.010224033 -0.043441165 4278866594
0.0038898699 0.0095894225 -0.043130834 4278866594
0.0062152669 0.0074474402 -0.041505229 4278801059
0.0092891492 0.0022917502 -0.037252318 4278801059
0.015744558 -0.016425103 -0.021179516 4278801059
0.02534925 -0.04718668 0.0053719017 4278735524
0.033262223 -0.070401505 0.025320351 4278801059
0.036689665 -0.075532883 0.02950453 4278735524
0.039368615 -0.077650338 0.031061653 4278800804
0.042063594 -0.079766557 0.032615699 4280963458
-0.01941774 0.006609153 -0.039692182 4279587479
-0.018216066 0.0097609349 -0.042694949 4278867103
-0.016443335 0.0098786093 -0.043042492 4278932894
-0.014218189 0.0077223405 -0.041403335 4278670244
-0.012437273 0.0078407787 -0.041752316 4278473893
-0.010500155 0.0072016791 -0.041440051 4278801059
-0.0088752471 0.0080779977 -0.042450059 4278735524
-0.0069326535 0.0074394681 -0.042138699 4278669989
-0.005148828 0.0075585432 -0.042487901 4278932384
-0.0035318099 0.0084346756 -0.043496095 4278473638
-0.0019201115 0.0093105547 -0.044503167 4278670244
3.067404e-05 0.0086730234 -0.044193059 4278866849
0.0019868389 0.0080359466 -0.043883923 4278866594
0.0041259453 0.0066430755 -0.042918745 4278801314
0.0060955398 0.0060071349 -0.04261205 4278997664
0.0095338672 -0.0006753765 -0.037058838 4278801314
0.015990011 -0.019445695 -0.02102842 4278801314
0.025780842 -0.051050738 0.0061090798 4278997664
0.033123247 -0.072065756 0.024041589 4278997664
0.036355641 -0.076457068 0.027560391 4278604708
0.039031211 -0.078581169 0.02911311 4278735779
0.041722812 -0.080704018 0.030662756 4281291389
-0.019249834 0.0036543459 -0.039469827 4279194524
-0.018187493 0.0075756274 -0.043128666 4278801824
-0.01626429 0.0069331154 -0.042815637 4278801314
-0.014335662 0.0062910691 -0.042503592 4278735779
-0.012401599 0.0056495108 -0.042192504 4278801059
-0.010462109 0.0050083622 -0.041882366 4278801059
-0.0086758472 0.0051273666 -0.042232234 4278866594
-0.0070508532 0.0060059838 -0.043240521 4278866849
-0.0052671693 0.0061250329 -0.043589704 4278801314
-0.0036501102 0.0070033111 -0.044596214 4278866593
-0.0016996749 0.006363485 -0.044287831 4278735524
8.4128231e-05 0.0064828843 -0.044636771 4278866593
0.002217371 0.0050852373 -0.043673895 4278801314
0.004183948 0.0044468269 -0.043368407 4278997918
0.0065160356 0.002292458 -0.041754238 4278866849
0.0097778961 -0.0036508329 -0.036871772 4278736289
0.016420204 -0.023232497 -0.02022993 4278736289
0.025835179 -0.053412057 0.0055300691 4278866849
0.032984298 -0.073729694 0.022763077 4278866849
0.036022 -0.077376619 0.025619816 4278801824
0.038890325 -0.080264494 0.027819786 4278932894
0.04138241 -0.081636861 0.028713372 4282274668
-0.019082613 0.00069123507 -0.039253931 4280374154
-0.018014163 0.0046236143 -0.042905532 4278669989
-0.016085923 0.003979288 -0.042595185 4279063198
-0.014152244 0.003335394 -0.042285774 4279325339
-0.012213148 0.0026919954 -0.041977394 4278866083
-0.010424405 0.0028110594 -0.042327825 4278801059
-0.0086356066 0.0029302165 -0.042678196 4278735779
-0.007007882 0.0038111173 -0.043685284 4278604709
-0.00522165 0.0039303415 -0.044034965 4278801824
-0.0034353808 0.00404967 -0.044384573 4278997663
-0.0014799125 0.003408052 -0.044078857 4278866593
0.00048095733 0.002766896 -0.043774109 4278866593
0.002272673 0.0028869323 -0.044124514 4278997663
0.0042416155 0.0022465587 -0.04382116 4278997918
0.0063958168 0.00084623322 -0.042865608 4278867358
0.0098386779 -0.0058744848 -0.037343673 4279260313
0.016293611 -0.024751887 -0.021397449 4279260313
0.025513336 -0.054257736 0.0036448562 4278867358
0.032654762 -0.074633621 0.020833731 4278867358
0.035688721 -0.078291491 0.023682751 4279325848
0.038161583 -0.07966961 0.024576671 4279326614
0.040645111 -0.081046864 0.025468539 4281358199
-0.019058272 -0.0015151985 -0.039703272 4282014059
-0.017841503 0.0016632229 -0.042688768 4279654033
-0.016055793 0.001781743 -0.043038871 4280439943
-0.014270004 0.0019003712 -0.043388914 4280440453
-0.012331221 0.0012548156 -0.043082155 4280309383
-0.010542616 0.0013738535 -0.043432571 4280375173
-0.0085956715 0.00072906166 -0.043127242 4280768639
-0.0069652386 0.0016122647 -0.044133186 4281620593
-0.0050128363 0.00096807256 -0.043828733 4281752429
-0.0030550361 0.00032434613 -0.04352526 4282014314
-0.018998101 -0.037603959 -0.025367172 4281686893
-0.018308617 -0.043811567 -0.02264989 4280965243
-0.00065680966 -0.011010475 0.096187532 4285228589
0.012784339 -0.0047071688 0.087439463 4285425959
0.016035991 -0.0092196688 0.092155762 4285885214
-0.0084847212 -0.0064456314 0.088755928 4284967214
-0.0072418116 -0.0022958927 0.083934665 4285623838
-0.0057466775 0.00051506236 0.080589965 4285820698
-0.0036935508 0.00065192953 0.080187902 4285951514
-0.0009027347 -0.0025511459 0.083456233 4286017048
0.0017648563 -0.0050845481 0.085985787 4285623839
0.0039954036 -0.0056134984 0.08631207 4285427743
0.0060758516 -0.0054745823 0.085904837 4285427998
0.0076816678 -0.003333725 0.083301693 4285558813
0.0087886676 0.00080741569 0.078507408 4285624093
0.010681622 0.0016118363 0.077374071 4285689119
0.013234504 -0.00025098398 0.079163387 4285688864
0.017155487 -0.007445246 0.086788602 4285820443
-0.010262039 -7.4245036e-05 0.078650959 4285689628
-0.0084931999 0.0014034882 0.076781943 4285624094
-0.0067349598 0.0028805658 0.074915051 4285623584
-0.0046980083 0.0030163191 0.074516125 4285754909
-0.0022189319 0.0011416599 0.07631442 4285820699
0.00042638928 -0.0014018789 0.078841507 4285755419
0.0024824999 -0.0012646653 0.078438975 4285624349
0.0045387261 -0.0011273883 0.078036465 4285624094
0.0062789172 0.00034884736 0.076173387 4285755674
0.0078476891 0.0024937391 0.073582627 4285886488
0.009727329 0.0032994039 0.072453588 4285689119
0.01226617 0.0014291592 0.074240521 4285689119
0.015665242 -0.003783647 0.079665415 4285820443
0.020822279 -0.015679047 0.092358753 4285886234
-0.010670789 -0.00038119778 0.075914606 4285689374
-0.0091852546 0.0024462268 0.0725853 4285886998
-0.0074374601 0.0039268844 0.070723824 4285886488
-0.0054113269 0.0040618852 0.070326991 4285886489
-0.0029436164 0.0021799728 0.07212238 4285952534
-0.00030981004 -0.00037298724 0.074644893 4285755419
0.0020405352 -0.0015804991 0.075703874 4285624349
0.003936097 -0.00077177584 0.074573211 4285624349
0.0058263913 3.6608428e-05 0.073443666 4285624348
0.0072296895 0.0028590485 0.070130847 4285886743
0.0091013797 0.0036663264 0.06900505 4285886743
0.011465613 0.0024600476 0.07006155 4285821208
0.014683794 -0.0020999014 0.07474865 4285755929
0.019310148 -0.01202305 0.085236572 4285624349
-0.011078767 -0.00067930296 0.073185064 4285427233
-0.009597972 0.0021563843 0.069863446 4285558813
-0.0078552812 0.0036410168 0.068006292 4285755163
-0.0058345944 0.003775619 0.067610502 4285755419
-0.0033728369 0.0018867813 0.069401987 4285623838
-0.00074520707 -0.00067523122 0.071918897 4285624094
0.0014469847 -0.0012132898 0.07224752 4285624349
0.0033346005 -0.00040302426 0.071120135 4285624349
0.0053746514 -0.00026680529 0.070720807 4285558558
0.0069336109 0.0018903203 0.068142131 4285558303
0.008802712 0.0026995502 0.067018524 4285689374
0.011163805 0.0014887862 0.068072185 4285623583
0.014041074 -0.0017404109 0.07129842 4285624093
0.018143201 -0.0096779764 0.079589926 4285558814
-0.010805659 -0.0043554232 0.074109837 4285427233
-0.0097324252 0.00052101538 0.068606354 4285559069
-0.0081308931 0.0026869588 0.066024065 4285623839
-0.0062570758 0.0034981817 0.064900853 4285689373
-0.0039481148 0.0022791401 0.065960936 4285623838
-0.0013293251 -0.00029210746 0.06847275 4285624093
0.0011588819 -0.0021855459 0.070254043 4285624349
0.003198754 -0.0020494349 0.069854677 4285624604
0.0055537969 -0.0032651275 0.070905939 4285558813
0.007118579 -0.0011012219 0.068331257 4285689629
0.0089931302 -0.00028944016 0.06720823 4285689884
0.010862406 0.0005220063 0.066086322 4285821209
0.013567738 -0.0020429902 0.068581566 4285821209
0.017320337 -0.0086568035 0.075408757 4285690138
-0.011077099 -0.0053261779 0.072113395 4285296674
-0.010143958 0.00024459884 0.065894715 4285493788
-0.0085473284 0.0024165995 0.063318506 4285886999
-0.0066788048 0.003229633 0.062197968 4285886744
-0.0042290166 0.0013270155 0.063981555 4285886743
-0.0016137138 -0.0012531132 0.066487223 4285886744
0.00071919337 -0.002474755 0.067539304 4285689373
0.0027536117 -0.0023390241 0.067140989 4285624093
0.004945498 -0.0028813779 0.067466378 4285689883
0.0065026693 -0.00071149692 0.06489823 4285755164
0.0082065426 0.00077963248 0.063055851 4285820698
0.010230575 0.0009149462 0.062659785 4285820698
0.012927052 -0.0016592816 0.065149948 4285886488
0.016669715 -0.0082953125 0.071962059 4285951768
0.022721136 -0.023729213 0.088130176 4285951768
-0.011483826 -0.0056107007 0.069394253 4285296164
-0.010831505 0.0013401024 0.06173858 4285624603
-0.0091040842 0.0028364956 0.059894592 4285689374
-0.0070997514 0.0029699169 0.059501931 4285425958
-0.0048024058 0.0017414354 0.06055744 4285623328
-0.0023450702 -0.00016710535 0.062334478 4285820699
0.00012847036 -0.0020745061 0.064108394 4285689628
0.0020002536 -0.0012588575 0.062989108 4285558559
0.0041811317 -0.0018041134 0.063314945 4285624349
0.0057280138 0.00037153438 0.060753889 4285952278
0.0075839758 0.0011862963 0.059637912 4285688864
0.0095998682 0.0013210475 0.059243426 4285425958
0.012119565 -0.00058281422 0.061008595 4285491748
0.015679017 -0.0065618604 0.067086823 4285689119
0.021192949 -0.020008899 0.081062824 4285754909
-0.012160838 -0.0045185536 0.065232858 4285099048
-0.01179399 0.0038205199 0.05614794 4285690649
-0.0098006018 0.0039531179 0.055757351 4286084114
-0.0076635256 0.0034024455 0.056089718 4286017559
-0.0052283965 0.0014858618 0.057865925 4286017558
-0.0029260144 0.0002534464 0.05891709 4286083604
-0.00076439604 -0.0002954118 0.059244864 4285623838
0.0010940507 0.00052147731 0.058129862 4285623839
0.0029472411 0.0013380609 0.057016015 4285558558
0.0047951527 0.0021543503 0.055903237 4285755418
0.0064754188 0.0036524422 0.054072294 4286083604
0.0086401664 0.0031041913 0.054399695 4286148628
0.011145815 0.0011929236 0.056162506 4286017558
0.014349304 -0.0034434497 0.060793027 4286017559
0.019494561 -0.015572302 0.073305063 4285820443
-0.012836378 -0.0034088902 0.061084911 4285033003
-0.01247821 0.0049554147 0.052022066 4285624349
-0.010495663 0.0050872527 0.051633567 4285885724
-0.008369565 0.0045336708 0.051966365 4285951004
-0.0057997182 0.0019245185 0.054460432 4285885213
-0.0035058223 0.00068717077 0.055509884 4285688863
-0.0015039854 0.00082057714 0.055117831 4285623838
0.00018968433 0.0023236722 0.053287428 4285690139
0.002186358 0.0024568848 0.052896507 4285755419
0.0043426342 0.0019057132 0.053223781 4285689884
0.0065043494 0.001355011 0.053550009 4285689119
0.0085066408 0.0014888085 0.053158153 4285622819
0.010844104 0.00025491789 0.054199435 4285556774
0.013703082 -0.0030293427 0.057386756 4285491493
0.018491123 -0.013830677 0.068439439 4285491493
-0.012609519 0.0033557191 0.050792348 4285557538
-0.010627061 0.0034875162 0.050403837 4285490983
5.6929886e-05 0.00071295351 0.052049369 4285425193
0.0022101477 0.00015931949 0.052375462 4285490728
0.0043688342 -0.00039382651 0.052700512 4285556264
-0.0066013634 -0.0021224245 -0.043277178 4284901169
-0.0046412349 -0.0027683005 -0.042975895 4284901679
-0.00070481747 -0.004058525 -0.042376306 4284966703
0.0010999814 -0.0039377175 -0.042729352 4285032749
0.0030789711 -0.0045818388 -0.042431448 4285032239
0.0048864931 -0.0044606104 -0.042784844 4285097519
0.0068735667 -0.0051039904 -0.042488288 4285163309
0.010141414 -0.011098251 -0.037647523 4285229609
0.01641025 -0.029318392 -0.022434255 4285229609
0.025621038 -0.058991715 0.0024781213 4285229609
0.031806625 -0.075663745 0.016338043 4285229609
0.034637511 -0.078579947 0.018524952 4285229864
-0.017353658 -0.0050516166 -0.041619483 4285164583
-0.015554842 -0.0049322657 -0.04197219 4285164583
-0.013606049 -0.0055815428 -0.041670855 4285164583
-0.011499263 -0.0069989748 -0.040717099 4285164838
-0.009847451 -0.0061102882 -0.04172403 4285164583
-0.0080430098 -0.0059900917 -0.042077467 4285426469
-0.0063991137 -0.0051017106 -0.043082673 4285361188
-0.0042706802 -0.0065172464 -0.042132791 4285426723
-0.0024634153 -0.006396506 -0.042486504 4285426724
-0.0003188327 -0.0078107528 -0.04153955 4285360678
0.0013225451 -0.0069220997 -0.04254391 4285361189
0.0034805574 -0.0083351806 -0.041599445 4285361188
0.0052959733 -0.0082134344 -0.041954387 4285361188
0.0071113892 -0.0080915838 -0.042309247 4285361188
0.010565057 -0.014869362 -0.036835026 4285426723
0.017022181 -0.033907048 -0.021015823 4285426723
0.025674384 -0.061364666 0.0018901695 4285426979
0.031478412 -0.076551631 0.014421016 4285426723
0.034113012 -0.07871072 0.015956312 4285426979
-0.018278688 -0.012016017 -0.037800454 4285098029
-0.01689446 -0.0095817074 -0.040116902 4285493023
-0.015232127 -0.0086905099 -0.041124541 4285492769
-0.013275612 -0.0093414634 -0.040826373 4285492769
-0.011466078 -0.0092211701 -0.041180998 4285492768
-0.0095014125 -0.0098713189 -0.04088429 4285492768
-0.0078468286 -0.0089802183 -0.041890007 4285558048
-0.0060371198 -0.0088595599 -0.042244393 4285492258
-0.0040642619 -0.0095088296 -0.04194903 4285557793
-0.002251789 -0.0093877539 -0.042303771 4285492258
-0.00043927133 -0.009266559 -0.042658422 4285492003
0.0017155446 -0.010684248 -0.041716799 4285491749
0.0037072785 -0.011331793 -0.04142477 4285426468
0.0057043992 -0.011978868 -0.041133631 4285426469
0.00734853 -0.011087488 -0.042136598 4285426469
0.010987654 -0.018653087 -0.036032218 4285426724
0.01726366 -0.036975421 -0.02090136 4285426724
0.025540195 -0.062973231 0.00065416656 4285426724
0.031150591 -0.077434972 0.012507569 4285426724
0.033781808 -0.079600707 0.014038455 4285360933
-0.0182565 -0.014249317 -0.038270455 4285163818
-0.016725015 -0.012581803 -0.039930742 4285427234
-0.014910422 -0.012461416 -0.040286548 4285558049
-0.012946207 -0.013113976 -0.03999164 4285558304
-0.011128791 -0.012993164 -0.040347815 4285623838
-0.0094662011 -0.012099497 -0.041353494 4285558303
-0.0078089088 -0.011206083 -0.042358052 4285558048
-0.0058364198 -0.011857618 -0.042064387 4285558049
-0.0038585328 -0.012508698 -0.041771702 4285558048
-0.0020408407 -0.012387268 -0.04212746 4285557793
-5.4843724e-05 -0.01303757 -0.04183618 4285492259
0.0017655864 -0.01291573 -0.042192295 4285426468
0.0039333217 -0.01433675 -0.041256435 4285426468
0.0057591498 -0.014214322 -0.041613426 4285492259
0.0077639781 -0.014862873 -0.041325442 4285360678
0.011409182 -0.022449382 -0.035239149 4285426468
0.017504428 -0.040052056 -0.020793324 4285426468
0.025219008 -0.06381093 -0.0012249071 4285426469
0.030823156 -0.078313693 0.010597665 4285426469
0.033066228 -0.078945577 0.010839611 4285163053
-0.018234618 -0.016486637 -0.038743481 4285294888
-0.016556241 -0.015590236 -0.039750997 4285426468
-0.014736444 -0.015469499 -0.040107824 4285558049
-0.012916565 -0.015348643 -0.040464576 4285558049
-0.011248652 -0.014452599 -0.041469704 4285558049
-0.0094313212 -0.014331691 -0.041825783 4285492258
-0.0076139234 -0.014210641 -0.042181768 4285492258
-0.005476322 -0.015638553 -0.041243855 4285492513
-0.0034907237 -0.016291246 -0.040954363 4285558049
-0.0016651526 -0.016169295 -0.04131167 4285492514
0.0001604557 -0.016047232 -0.041668892 4285492258
0.0019860901 -0.015925065 -0.042026035 4285361189
0.0039852038 -0.016576372 -0.041738804 4285361188
0.0059896931 -0.01722721 -0.041452542 4285360678
0.0081783719 -0.018650882 -0.040523972 4285360679
0.012011159 -0.027031429 -0.033813033 4285360678
0.025458725 -0.066962123 -0.0011754469 4285360678
0.030117054 -0.077642664 0.0074090254 4285360679
-0.018213063 -0.018727966 -0.039219666 4285360933
-0.016531978 -0.017829284 -0.040225983 4285492004
-0.014563132 -0.018485941 -0.039935455 4285492258
-0.013036434 -0.016809948 -0.041587938 4285492258
-0.011064753 -0.017466217 -0.04129773 4285492259
-0.0092422105 -0.017344952 -0.041654821 4285426468
-0.0071051717 -0.018777259 -0.040720318 4285426468
-0.0051172674 -0.019432046 -0.040433053 4285361189
-0.0031239539 -0.020086415 -0.040146716 4285426723
-0.0012904964 -0.019963942 -0.040505566 4285493023
0.00054298714 -0.019841373 -0.040864348 4285492769
0.0023765042 -0.019718662 -0.041223023 4285361188
0.0047298819 -0.021923132 -0.039653756 4285295143
0.0069233924 -0.023350857 -0.038729593 4285294889
0.0094848759 -0.026328504 -0.036524314 4285295144
0.013336975 -0.034731328 -0.029835675 4285229864
0.025511097 -0.0693468 -0.0017723318 4285294889
0.029412065 -0.076958492 0.0042305556 4285294889
-0.01593338 -0.023191854 -0.038117114 4285426468
-0.01409781 -0.02307009 -0.038477041 4285361443
-0.012560204 -0.021389104 -0.040128309 4285361699
-0.010426454 -0.022826187 -0.039196674 4285426724
-0.0082819425 -0.024262376 -0.038267091 4285164073
-0.0059696212 -0.026476763 -0.036695369 4285098539
-0.0039606318 -0.027132288 -0.036413927 4285032748
-0.0019462481 -0.027787358 -0.036133453 4284967468
7.3533505e-05 -0.028441921 -0.03585393 4285033004
0.0019309595 -0.028317742 -0.036217391 4285163818
0.004129272 -0.029749654 -0.035297729 4285163053
-0.014762558 -0.031703793 -0.0334442 4284967469
-0.012903053 -0.031580441 -0.033808827 4285032748
-0.011192326 -0.030675255 -0.034817453 4285033003
-0.0085777715 -0.034459367 -0.031963769 4284966703
-0.0062447935 -0.03667888 -0.030401295 4284966703
