# .PCD v0.7 - Point Cloud Data file format
VERSION 0.7
FIELDS x y z rgba
SIZE 4 4 4 4
TYPE F F F U
COUNT 1 1 1 1
WIDTH 969
HEIGHT 1
VIEWPOINT 0 0 0 1 0 0 0
POINTS 969
DATA ascii
0.0036956891 0.012126468 0.0069372132 4287639359
0.0062442571 0.010236688 0.0085887313 4289079854
0.009919364 0.0049425326 0.013782609 4288883758
0.01610931 -0.0078382678 0.026760284 4288752943
-0.004223574 0.010609314 0.0070139766 4288097083
-0.0015017763 0.0080251992 0.0093803015 4288424758
0.00081866235 0.0068113357 0.010320665 4288359733
0.0027218238 0.0069664642 0.0098389778 4288425524
0.0048416629 0.00643792 0.010066375 4288752689
0.0074053667 0.0045427158 0.011709208 4289930533
0.01087261 -8.4534287e-05 0.016178768 4289799974
0.016397923 -0.010857064 0.027002167 4290061858
-0.012704588 0.011163644 0.0049509089 4288556339
-0.011026409 0.01200356 0.0037634932 4288949038
-0.0091528967 0.012155786 0.0032889545 4289538088
-0.0062634684 0.0088725947 0.0063684843 4289537579
-0.0035533234 0.0062786192 0.008731164 4288621873
-0.0010303445 0.004373081 0.010379117 4288752944
0.0010863766 0.0038418695 0.010605512 4288687153
0.0027809702 0.0046836473 0.0094144102 4289079853
0.0049031228 0.0041530728 0.0096395742 4289342249
0.0076877549 0.001565598 0.011983799 4289341738
0.010715291 -0.0017056167 0.015028827 4289080363
0.014891025 -0.00840142 0.021594394 4289211178
0.021843525 -0.023314681 0.036603879 4289342248
-0.014141403 0.00031027198 0.014048085 4288230195
-0.013577845 0.0052964352 0.0085807201 4289472809
-0.012466174 0.0082097948 0.0052564926 4289668904
-0.010980237 0.0097420253 0.0033588111 4289864998
-0.0087036043 0.0085153915 0.0043033846 4289538089
-0.0062133223 0.0066003874 0.0059545822 4290126883
-0.0037070885 0.0046868026 0.0076017603 4289407273
-0.001393117 0.0034634545 0.0085371323 4289145643
0.00093150511 0.0022411272 0.00946985 4289145643
0.003053274 0.0017081723 0.0096934531 4289276458
0.0047480203 0.0025522932 0.0085039567 4290126884
0.0068752021 0.0020199642 0.0087263267 4289538599
0.0096721239 -0.00057517737 0.011060944 4289211434
0.01361087 -0.0066064931 0.01690961 4289276969
0.019184675 -0.017445441 0.027668681 4289669158
-0.013726983 -0.0033699796 0.015043881 4288164404
-0.013730545 0.0037094951 0.0074545871 4289406763
-0.012228541 0.0052473098 0.005556006 4289211180
-0.010539591 0.0060924515 0.0043690875 4288884013
-0.0084556267 0.0055537075 0.0046002492 4288818734
-0.0059608333 0.0036324784 0.0062453542 4288949549
-0.0038608164 0.0030952767 0.0064725559 4289865254
-0.0017554164 0.0025585666 0.006698506 4289342504
0.00035534799 0.0020224452 0.0069231335 4289342248
0.0022581592 0.0021775067 0.0064415075 4288884524
0.003945075 0.0030231476 0.0052556731 4290127139
0.0060639679 0.0024879724 0.0054784548 4290257954
0.0088519752 -0.00011676177 0.0078088511 4290389279
0.012109008 -0.0040992573 0.011538515 4290454558
0.016983699 -0.012906235 0.020171557 4290454048
0.023990015 -0.02791192 0.0350958 4290454048
-0.01369236 -0.0056736283 0.014611579 4286463808
-0.01407513 0.0028174296 0.0056198929 4288883759
-0.01277006 0.0050538667 0.0030170288 4290322979
-0.011086293 0.0059007369 0.001833085 4290388258
-0.0088080987 0.0046653859 0.0027707256 4289799718
-0.0063166916 0.0027372167 0.0044118296 4290061348
-0.0042196587 0.0021975562 0.0046381429 4289996069
-0.0021172464 0.0016584173 0.0048631635 4288949549
-0.00021991879 0.0018129423 0.0043828581 4288949549
0.0016774684 0.0019675605 0.0039026011 4288884268
0.0037906952 0.0014295764 0.0041251611 4289080619
0.0059092492 0.00089216977 0.0043463986 4289734949
0.0084752366 -0.0010292232 0.0059691481 4288949803
0.01150452 -0.0043332428 0.0089893583 4289276969
0.015239298 -0.0097104199 0.014103036 4289342504
0.021077307 -0.021308463 0.025500495 4289407783
-0.012901813 -0.010769647 0.01700772 4286006084
-0.013652369 -0.000857234 0.0066172108 4288360243
-0.012727559 0.002779711 0.0026040822 4289276459
-0.011041053 0.0036289804 0.0014210548 4288949293
-0.0087607466 0.002389349 0.0023549367 4289538089
-0.0064697824 0.0011507124 0.0032861363 4289865254
-0.0043730848 0.00060880557 0.0035108943 4289472809
-0.0024785995 0.00076296553 0.0030312147 4288949549
-0.00058404729 0.00091723725 0.002551591 4289211179
0.0013105869 0.0010716282 0.0020720344 4288884013
0.0038518757 -0.00085859373 0.0036959853 4288949804
0.0059727468 -0.0013980195 0.0039150082 4289211434
0.0080989562 -0.0019369125 0.0041327495 4289538598
0.010453977 -0.0031695515 0.0050483923 4289407783
0.013724089 -0.0071773045 0.0087552685 4289604134
0.018627357 -0.016039107 0.017338801 4289996579
0.025219334 -0.029750358 0.030784916 4290061858
-0.01342231 -0.0038459152 0.0068997219 4287510073
-0.012685433 0.00050134584 0.002188215 4289537834
-0.010799382 0.00065440685 0.0017103665 4289734183
-0.0091126859 0.0015060194 0.00052893721 4289668904
-0.0068248995 0.00026266649 0.001457721 4289603625
-0.0047311932 -0.00028170273 0.0016815942 4289472553
-0.0024247244 -0.0015232898 0.002605753 4289276458
-0.00052764267 -0.0013688244 0.0021254849 4288949549
0.0015821867 -0.0019116104 0.0023455545 4289276713
0.0039126836 -0.0031509176 0.0032638665 4289211689
0.0058178864 -0.0029954873 0.0027817655 4289342504
0.0077231452 -0.0028399304 0.002299739 4289473574
0.010074966 -0.0040772371 0.0032129306 4289996833
0.012889199 -0.0067060031 0.0055172462 4290651164
0.01709595 -0.013509233 0.011993712 4290454814
0.022049218 -0.022395406 0.020543464 4290258463
0.029643605 -0.038927536 0.036719751 4290258463
-0.012061872 -0.0038842596 0.0038794111 4288949295
-0.010558531 -0.0023287125 0.0019935295 4289864998
-0.0092649162 -7.3242933e-05 -0.00059166364 4289603368
-0.0073814392 7.9791993e-05 -0.0010687262 4290322979
-0.0050888248 -0.0011674799 -0.00014436059 4290191908
-0.002785556 -0.0024137385 0.00077734701 4290388768
-0.00068143755 -0.0029592626 0.00099710934 4289799718
0.0010031275 -0.0021051653 -0.00018174388 4289211434
0.0033277832 -0.003349416 0.00073482469 4289146409
0.0052275732 -0.0031944215 0.00025409833 4289342503
0.0071274117 -0.0030393153 -0.00022656471 4289931554
0.0090272911 -0.0028841048 -0.00070716068 4289538853
0.011378575 -0.004125718 0.00020293519 4289015594
0.015110489 -0.0095559098 0.0052783769 4289015594
0.019577701 -0.0170766 0.012425119 4289342249
0.025972154 -0.030175012 0.025103737 4289734694
0.03530246 -0.051636327 0.046068799 4289734694
-0.011827402 -0.0068808459 0.0041546896 4287968054
-0.01090759 -0.0032112561 0.00016728602 4289276459
-0.0098151267 -0.00024655834 -0.0031129457 4289341994
-0.0081387162 0.0006086491 -0.0042884126 4290322979
-0.0060589164 5.8718026e-05 -0.0040642973 4289669669
-0.0031459183 -0.003299471 -0.0010477174 4289604389
-0.0012543872 -0.0031454824 -0.001526596 4290258208
0.00042497739 -0.0022896193 -0.0027025109 4289866018
0.0020991117 -0.0014340766 -0.0038770186 4289473574
0.0044206046 -0.0026828423 -0.0029628742 4289538853
0.006532561 -0.0032295175 -0.0027464237 4289473574
0.0084270164 -0.0030747466 -0.0032256488 4290127648
0.010321517 -0.0029198788 -0.0037048124 4289473574
0.01335663 -0.0062672533 -0.00071850233 4289669668
0.01734129 -0.012413401 0.005030835 4289800483
0.023474289 -0.024855856 0.016993906 4289865763
0.031827062 -0.043588828 0.035152622 4289865763
-0.011787262 -0.0091804899 0.0037236344 4286790973
-0.011256181 -0.0040890872 -0.0016556242 4289276458
-0.010165624 -0.0011157505 -0.0049288627 4289734694
-0.0088946819 0.0011511408 -0.0074985027 4289080619
-0.0070272423 0.0013029352 -0.0079714563 4289080874
-0.0045395009 -0.00065839663 -0.0063537378 4289669413
-0.0024545901 -0.0012099184 -0.0061323987 4289276968
-0.0010004044 0.00035108998 -0.0079989117 4289735204
0.0010873005 -0.00020004436 -0.0077780802 4289342503
0.0036149696 -0.0021576695 -0.0061702086 4289538853
0.0059386156 -0.0034105964 -0.0052597495 4289538853
0.007605046 -0.0025531575 -0.0064304359 4289931298
0.0092662051 -0.0016960241 -0.0075997729 4289734694
0.011605833 -0.0029473193 -0.0066931173 4289930788
0.014647698 -0.0063050278 -0.0037165675 4289800483
0.019814793 -0.015980799 0.0054648835 4289669925
0.028357748 -0.035478931 0.024280693 4289669925
0.037048869 -0.054964792 0.043059148 4289669925
-0.011940796 -0.010776553 0.0025910083 4286594623
-0.012192126 -0.0028396882 -0.005569105 4289014828
-0.011310011 0.00084889308 -0.0095306449 4290062114
-0.0094480738 0.0010001361 -0.010002285 4290192673
-0.0077899434 0.0018583797 -0.011169856 4289996579
-0.0055174306 0.00059632212 -0.010250125 4289800228
-0.003234271 -0.00066470727 -0.0093330415 4290323999
-0.0013640858 -0.00051236525 -0.009806456 4289669668
0.00050615892 -0.00035990402 -0.010279799 4289277479
0.0023764558 -0.00020734593 -0.010753088 4289473574
0.0046863183 -0.0014658161 -0.0098424014 4289734948
0.0065619946 -0.0013125949 -0.010316884 4289668904
0.0082126558 -0.00045411289 -0.011481941 4288818478
0.0098580681 0.00040401146 -0.012645535 4290196498
-0.011514999 -0.014502127 0.0035497881 4286529343
-0.012343388 -0.0044111274 -0.0066842148 4288230448
-0.011460338 -0.00071148947 -0.010637874 4289669159
-0.010000575 0.00085831434 -0.012499629 4290061859
-0.0085512996 0.0024273172 -0.014358614 4289866020
-0.0066999011 0.0025779121 -0.014827428 4290062879
-0.004639484 0.0020199716 -0.01460316 4289540128
-0.0025737025 0.0014625937 -0.01438016 4289475104
-0.00071681291 0.001613941 -0.014850142 4289409824
0.0013570152 0.0010574274 -0.014629018 4289999128
0.0032166503 0.0012092255 -0.015099526 4290131473
0.0052985176 0.0006535314 -0.014880243 4289739794
-0.013081171 -0.0038464703 -0.0098836068 4286791738
-0.012601431 0.0012869872 -0.015215657 4289473574
-0.010953784 0.0021486357 -0.016377421 4289211943
-0.00951479 0.0037211999 -0.018230552 4290063389
-0.014603604 -0.056559753 -0.012485264 4287312704
-0.016147025 -0.06061339 -0.011152043 4286985028
-0.014573146 -0.058938529 -0.01297184 4287444028
-0.0058818981 -0.052507874 0.0095859598 4282346069
-0.0076220781 -0.038403857 -0.0038073761 4281826123
-0.0056551881 -0.055641118 0.0097624939 4281497174
-0.0064071082 -0.045174982 -0.0002179537 4282412879
-0.0055862777 -0.050500218 0.001999123 4282476373
-0.005353719 -0.053625848 0.0021795388 4282410838
-0.0059026815 -0.053789157 -0.00033481233 4282411094
-0.0065089762 -0.043977495 -0.0095623191 4282738769
-0.0066457167 -0.05319849 -0.0035132337 4282018903
-0.0070597194 -0.044103447 -0.012048395 4282283084
-0.008201763 -0.041979533 -0.01653309 4282673744
-0.01049022 -0.026143942 -0.031039188 4284114494
-0.0089472756 -0.041331407 -0.019668309 4282542164
-0.010639861 -0.027696785 -0.032141052 4283267384
-0.0096914694 -0.040669788 -0.022793874 4282280278
-0.011388294 -0.026996065 -0.035236366 4282678334
-0.0098440759 -0.042255122 -0.023918852 4281690209
-0.011138432 -0.030048285 -0.035007142 4282024004
-0.011304975 -0.022366773 -0.042099983 4284116023
-0.0096942596 -0.03764217 -0.0308154 4281500743
-0.0092322193 -0.032202754 -0.035915628 4282287418
-0.008398138 -0.028276388 -0.039686218 4284704309
-0.00635764 -0.045117084 -0.027128715 4283065934
0.0019511431 0.027438197 0.076535881 4280437903
-0.011760376 0.029759327 0.072287992 4278927028
-0.0068280399 0.026963059 0.075087413 4279257509
-0.0050190464 0.027750161 0.07382001 4278865829
-0.0036075115 0.029784227 0.071034074 4278603688
-0.0026093498 0.033063915 0.066733673 4278602669
-0.0018389858 0.036964711 0.061681394 4278864299
0.00012431294 0.037124924 0.061184619 4278994348
0.0031215027 0.03417125 0.064474061 4278271933
0.0078205317 0.026239175 0.0738094 4278403514
-0.018303186 0.021790113 0.079987943 4280636295
-0.018242631 0.028855179 0.071085066 4278734503
-0.017339863 0.032779638 0.066008791 4279061414
-0.014331698 0.03623376 0.061207507 4278405044
-0.0090881363 0.032167982 0.065535814 4278929833
-0.0067282394 0.031076625 0.066554368 4278734248
-0.0051413625 0.032489695 0.064536899 4278799273
-0.00085129961 0.037974574 0.056987841 4278929324
0.0021341518 0.035008848 0.060272057 4278732974
0.0059829615 0.029546125 0.066569552 4278536368
-0.019862965 0.025135841 0.072689712 4280701318
-0.019466899 0.030964363 0.065332487 4278407340
-0.016992349 0.036318056 0.058255378 4278537134
-0.015231196 0.037105471 0.057003189 4278340784
-0.010200854 0.03365086 0.060567629 4278340018
-0.0076616257 0.031925559 0.062343825 4278537643
-0.0060849637 0.033342183 0.06033219 4278734249
-0.0045187771 0.034758024 0.058323193 4278668203
-0.0012141243 0.036959775 0.055068072 4278403259
0.0015612096 0.034609936 0.057590935 4278403513
0.0043578595 0.032261852 0.060108479 4278274229
0.0088687725 0.024901018 0.068642616 4278865319
-0.019327328 0.020932551 0.074543417 4281947503
-0.019803651 0.029941183 0.063398346 4278866593
-0.010930941 0.033894554 0.057128463 4278733738
-0.0085932128 0.032792468 0.058146026 4278865319
-0.0066357739 0.032951973 0.05765057 4278668968
-0.0046781935 0.033111535 0.057155106 4278603434
-0.0027204789 0.033271164 0.05665965 4278996134
-0.00096610934 0.034060527 0.055411037 4278603434
0.00098919123 0.034220055 0.054916266 4279192483
0.0029445961 0.034379639 0.054421503 4279192229
0.0065913387 0.029506918 0.05993605 4278996134
-0.019609649 0.027020393 0.06374231 4279062689
-0.019434053 0.033519156 0.05566727 4278538154
-0.01785481 0.034944501 0.053661283 4278669478
-0.016101301 0.035735667 0.052414197 4278603433
-0.013978191 0.03525997 0.052679736 4278734504
-0.011849657 0.034784801 0.052943889 4278603433
-0.009330377 0.033044539 0.054715265 4278472618
-0.0071856454 0.032570802 0.054975409 4278407083
-0.0048375577 0.031465199 0.055987123 4278538409
-0.0028799027 0.031624787 0.05549166 4278734248
-0.0013286099 0.033048261 0.053493042 4278602923
0.0099037364 0.023588847 0.063499212 4278272189
-0.019063339 0.02281823 0.065593496 4280046989
-0.019233443 0.030612234 0.056019489 4278538408
-0.017830372 0.032678314 0.053259891 4278472363
-0.012766603 0.035693027 0.048772056 4278336959
-0.0075395331 0.0315639 0.053058673 4278864808
-0.005194582 0.0304536 0.054067899 4278668968
-0.0032396466 0.030612927 0.053573091 4278799784
-0.0020967014 0.03330892 0.050078254 4278340274
-0.0011804998 0.036637172 0.045839462 4278667439
0.00054260716 0.037428454 0.04460207 4279519649
-0.018166017 0.017321371 0.068942398 4280833408
-0.019033626 0.027696604 0.056365449 4278800804
-0.018351182 0.032322161 0.050594058 4278602924
-0.016968533 0.034393173 0.047844578 4278537134
-0.015601639 0.036463 0.045099087 4278667439
-0.008282654 0.031835694 0.049644303 4278667949
-0.0059461594 0.030720247 0.050652366 4278799273
-0.0043995455 0.032152064 0.048661385 4278864808
-0.00023886561 0.037714653 0.041210376 4279125929
0.0025250204 0.035328478 0.043710016 4278929579
0.0063772276 0.029766554 0.04993305 4278339508
-0.017095082 0.011157177 0.073026031 4281423223
-0.019192114 0.026053309 0.055199441 4278866083
-0.019233853 0.03325567 0.046430271 4278602669
-0.01786124 0.035332501 0.043688159 4278929579
-0.016691048 0.038047988 0.040199209 4279585948
-0.014595125 0.037563421 0.040466633 4279060904
-0.0090244375 0.032121018 0.046239521 4278536879
-0.0070909597 0.032278478 0.045750063 4278602923
-0.0057571866 0.03435244 0.04301808 4278799784
-0.0040340163 0.035148025 0.041783769 4278537388
0.0094682686 0.024457276 0.052733216 4278471854
-0.018993441 0.023124661 0.055536125 4279914643
-0.0099592917 0.03306134 0.042097051 4278602669
-0.0078394003 0.032576613 0.042356916 4278668713
-0.0063132793 0.034015574 0.040377568 4278603178
-0.0043928735 0.034172054 0.039891481 4278472619
-0.0024723597 0.03432861 0.039405413 4278472618
-0.00055173412 0.034485228 0.038919359 4278734758
0.0011586621 0.03528209 0.037690073 4278668968
0.0037157424 0.033518717 0.039432511 4278668969
0.007366918 0.028558008 0.044880494 4278602923
0.013461575 0.016565941 0.058471527 4278603178
-0.018082231 0.017607264 0.058865551 4280178059
-0.019727018 0.030663291 0.043384202 4278603434
-0.019090399 0.035331391 0.037658717 4278602669
-0.017373048 0.036130466 0.036428902 4278667949
-0.015471928 0.036285054 0.035947453 4278667949
-0.013187509 0.035151891 0.036958728 4278995879
-0.010892361 0.034019619 0.037967384 4278996134
-0.008980222 0.034175288 0.037483282 4278865319
-0.0070679523 0.034331016 0.036999188 4278800038
-0.0049534105 0.033843771 0.037258789 4278537898
-0.0024238378 0.032071363 0.039003089 4278537898
-0.00070809945 0.032870792 0.03777403 4278407083
0.001212541 0.03302744 0.037287995 4278275759
-0.016461059 0.009474501 0.065168679 4281553274
-0.018978991 0.025812171 0.045974839 4278997153
-0.018877935 0.032437265 0.038016617 4278472874
-0.017341197 0.033885516 0.036040895 4278603689
-0.01581493 0.035333022 0.034067821 4278864808
-0.012017682 0.035641901 0.033106271 4278340019
-0.0093322508 0.033213582 0.035599325 4278602414
-0.0070240982 0.03207805 0.036601491 4278799783
-0.0049071983 0.031588756 0.036858846 4278734248
-0.0027848929 0.031099973 0.037114877 4278799783
-0.0010716617 0.031901367 0.035888057 4278668203
0.00021656603 0.033991702 0.033182386 4278274229
-0.018052459 0.020289723 0.049295727 4281029249
-0.018666252 0.029534386 0.038368359 4278341548
-0.017681397 0.032933895 0.03416077 4278406828
-0.012753189 0.035990261 0.029746234 4278403258
-0.0077769682 0.032411717 0.033235945 4278864553
-0.0056682974 0.03191952 0.033493727 4278603433
-0.0039629899 0.032722395 0.032270484 4278865318
-0.0020558424 0.032877848 0.03178779 4278340018
-0.00056794658 0.034327075 0.029828098 4278536369
0.00069709495 0.036422178 0.02713323 4279651228
0.0030212104 0.035283923 0.028128296 4278995879
0.0066617541 0.030269301 0.033539802 4278995369
0.012767773 0.018152263 0.047034826 4278930090
-0.017128453 0.014740799 0.05259775 4281357179
-0.018638335 0.027274078 0.03797023 4278735013
-0.01687596 0.034744415 0.0288339 4278995624
-0.015370008 0.036199093 0.026872505 4279390363
-0.013293795 0.035701819 0.027136698 4278471599
-0.010623492 0.033254545 0.029620469 4278929833
-0.0083296038 0.032108955 0.030619662 4278406064
-0.0062265396 0.031614069 0.030877206 4278603434
-0.0047305524 0.033068255 0.028918572 4278734249
-0.015846699 0.0078579932 0.057366434 4281553529
-0.018793553 0.025662974 0.036827013 4279127968
-0.0092786439 0.033119671 0.026533715 4278405808
-0.0069851652 0.031969711 0.027529728 4278799784
-0.0054967701 0.033427633 0.025576308 4278734504
-0.0038122796 0.034233242 0.02436161 4278668458
-0.0019237399 0.034387197 0.023883644 4278799273
-0.00024701655 0.035192356 0.022670977 4278667949
0.0020681322 0.034044456 0.0236618 4278405809
0.0043939389 0.032897539 0.024649933 4278734249
0.0078296363 0.028499281 0.029298861 4278472363
0.013527382 0.017601851 0.041258492 4278537898
-0.018766154 0.023396391 0.036424406 4281029248
-0.019254655 0.032073401 0.026320584 4278668968
-0.018309038 0.035502799 0.022147395 4278536879
-0.011910215 0.033340819 0.023673713 4278602669
-0.0098290443 0.032839604 0.02393344 4278996134
-0.0075413585 0.031684693 0.024927683 4278865319
-0.0054467246 0.031184714 0.025184102 4278537898
-0.0037594475 0.031992733 0.023970321 4278472363
-0.0020773746 0.03280041 0.022757918 4278603434
2.2839755e-05 0.032301098 0.023013085 4278668968
0.0014854446 0.033761628 0.021069601 4278734248
0.0031545125 0.034568451 0.01986064 4278471599
0.0054772273 0.033416878 0.020846371 4278798764
0.010255624 0.025089271 0.029864151 4279060903
-0.017280418 0.015862204 0.041930042 4281291388
-0.019037277 0.029173933 0.026673064 4278734503
-0.018273033 0.033272356 0.021768823 4278472618
-0.016398706 0.033424616 0.021294057 4278734759
-0.014524259 0.03357695 0.020819303 4278734504
-0.012649674 0.033729374 0.02034457 4278472363
-0.010774966 0.03388188 0.019869864 4278406828
-0.0080966577 0.031408813 0.022332042 4278341548
-0.0058040917 0.030249922 0.023321807 4278341548
-0.0037070028 0.029747985 0.023576014 4278538154
-0.0020221509 0.030558072 0.022364523 4278734504
-0.00034251437 0.031367805 0.0211544 4278537643
0.00090366974 0.033487868 0.0184839 4278274739
-0.015616331 0.0076280795 0.048144747 4281553528
-0.018266395 0.024286021 0.029229321 4279588498
-0.01823736 0.031037645 0.021387279 4278603689
-0.016740624 0.032509096 0.019441176 4278472363
-0.0065675899 0.030636666 0.019998863 4278602668
-0.0044787526 0.030131824 0.020253509 4278734503
-0.0028017238 0.030943459 0.01904561 4278930853
-0.0011299066 0.03175474 0.017839082 4278405808
-0.00010500103 0.034538358 0.014446065 4278798764
0.0015484318 0.035348289 0.013244303 4278930853
0.0038542114 0.03418652 0.014227726 4279258018
-0.016943917 0.017389622 0.033975199 4280702594
-0.01782769 0.027474873 0.022471473 4278603943
-0.017082054 0.031598233 0.017591588 4278865318
-0.014709979 0.036531001 0.011518018 4279454369
-0.012661483 0.036020428 0.011781065 4278469303
-0.0075328387 0.031697609 0.01595515 4278799018
-0.0054549053 0.031189656 0.01621091 4278864808
-0.0037883408 0.03200262 0.015007276 4278996134
-0.0021269843 0.03281524 0.013805022 4278668203
0.0011800528 0.034439415 0.011404637 4278471088
0.0032636821 0.033932306 0.011659229 4278733484
0.0062391758 0.030789159 0.014815312 4278274739
-0.015624795 0.010457903 0.038695928 4281423224
-0.017980188 0.025891446 0.021347877 4278735524
-0.017095033 0.03615348 0.009420624 4278799019
-0.015249833 0.036303431 0.0089532752 4279193249
-0.013404526 0.036453456 0.0084859412 4279192483
-0.010557964 0.033288151 0.011666039 4278929834
-0.0084963255 0.032776564 0.011924215 4278340019
-0.0064292662 0.032265455 0.012181124 4278799273
-0.0047731921 0.033079796 0.010981718 4278734248
-0.0027006641 0.032569282 0.011237357 4278668458
0.008862704 0.026718892 0.01611308 4278341039
0.014381245 0.016298741 0.027199209 4278406828
-0.017572302 0.022309076 0.022418205 4279391384
-0.0092553645 0.033208415 0.0086333174 4278405808
-0.0069912709 0.032029577 0.0096171778 4278799783
-0.0051323995 0.032180995 0.009146627 4278603178
-0.0032734461 0.032332495 0.0086761098 4278930853
-0.0014144182 0.032484069 0.008205628 4278930853
0.0004446879 0.032635741 0.0077351928 4279127714
0.0027409606 0.031459875 0.008711243 4278931874
0.0050478652 0.030284995 0.009684613 4278735014
0.0080369562 0.02712095 0.012820972 4278538919
0.012411542 0.019980237 0.020277921 4278603943
-0.01679251 0.017376401 0.024938554 4280177548
-0.018481847 0.03023049 0.010604614 4278734504
-0.017969377 0.035058394 0.0050361846 4278930854
-0.016132306 0.035207622 0.0045708474 4278733995
-0.013900813 0.034021422 0.0055595543 4278406319
-0.011458829 0.032168649 0.0072719287 4278733993
-0.0094057471 0.031651907 0.0075289719 4278603688
-0.0073472708 0.031135691 0.0077847131 4278603943
-0.0052834041 0.030619981 0.0080391448 4278669478
-0.0030037612 0.029438095 0.0090159513 4278538408
-0.0015656091 0.030923016 0.0070981737 4278603688
0.00050907955 0.030408433 0.0073500443 4278407848
0.0025891438 0.029894328 0.0076006595 4278277034
0.0076598078 0.026205385 0.010979099 4278472874
0.012255549 0.018374614 0.019138999 4278275759
0.020577701 -9.3340874e-05 0.038786113 4279258784
-0.015269417 0.0097383931 0.030355688 4281816179
-0.017875932 0.025989693 0.012408542 4279062943
-0.017734747 0.032174766 0.0053949784 4278735014
-0.016086765 0.032994572 0.0042022299 4278538663
-0.013853159 0.031804144 0.0051870737 4278668968
-0.01160885 0.030614628 0.006169308 4279192994
-0.0093538538 0.029426107 0.0071488544 4279586204
-0.0072930381 0.028907839 0.0074023474 4279323298
-0.0050193034 0.027720967 0.0083773192 4278535348
-0.0029450804 0.027203953 0.0086275358 4279190698
-0.0012911148 0.028024809 0.0074336901 4278928304
0.00035760924 0.028845351 0.0062411744 4278928559
0.0028735846 0.026992539 0.0079303291 4278864808
0.005405508 0.025141098 0.0096154995 4278733739
0.0081767775 0.022623241 0.01201541 4278734759
0.012551704 0.015434057 0.019436322 4279193758
-0.014308516 0.0040798038 0.033565007 4281816178
-0.017082896 0.021058515 0.014925852 4279325339
-0.013215724 0.027566051 0.0069831219 4278273719
-0.011160724 0.027044935 0.0072363298 4278469048
-0.009302333 0.027196093 0.0067657381 4278929579
-0.0072391927 0.026675796 0.0070170015 4278864298
-0.0049633384 0.025484663 0.0079881549 4278470323
-0.0028867833 0.024965614 0.0082361363 4278928813
-0.00080485269 0.024447098 0.0084828287 4278469813
0.0010671951 0.024599783 0.0080090836 4278601394
0.0033751167 0.023411602 0.0089723691 4278668204
0.0059142187 0.021554157 0.010650778 4278865319
0.0086924732 0.019028034 0.013042383 4279324318
0.01329872 0.011145178 0.021160461 4279128479
-0.016480491 0.016780414 0.016703285 4281225599
-0.016311832 0.023007356 0.0097120814 4278799274
-0.01463981 0.023833465 0.0085164625 4278470323
-0.01257994 0.023310427 0.0087667219 4278863534
-0.011112142 0.024810523 0.0068508796 4279125928
-0.0092512071 0.024961866 0.0063796267 4279060648
-0.007390175 0.025113299 0.0059084129 4278994603
-0.0053219497 0.024591234 0.0061568506 4279060394
-0.0032483563 0.02406973 0.0064039417 4278994603
-0.001169391 0.023548752 0.0066497438 4278929069
0.0009149462 0.023028299 0.0068942457 4278929324
0.0030046403 0.022508372 0.0071374588 4279060903
0.005540356 0.020643987 0.008811865 4278799274
0.0083149932 0.018108748 0.011197861 4279586203
0.01336715 0.0088549145 0.020727471 4279455134
-0.016444821 0.014516644 0.01630016 4280898179
-0.016080689 0.020086709 0.010044504 4278798764
-0.014209609 0.020238586 0.0095704719 4278863789
-0.012142126 0.019713946 0.0098171551 4279322278
-0.010467105 0.020542651 0.0086225159 4279256743
-0.008797273 0.021371014 0.0074292514 4279453349
-0.0071326345 0.022199042 0.0062373653 4280043928
-0.0052663237 0.022350967 0.0057648607 4279191208
-0.0031904019 0.021827441 0.0060097277 4279125163
-0.0011091121 0.021304429 0.0062532909 4279322024
0.0011923835 0.020106781 0.007211592 4279584930
0.0032870509 0.019585039 0.0074519049 4279388323
0.0056071877 0.018389136 0.0084055774 4279191718
0.0081607364 0.016519677 0.010070641 4279913623
0.013435174 0.0065604523 0.0202915 4279454623
-0.016597647 0.012928173 0.015172936 4280897414
-0.016422685 0.019195259 0.0082094576 4279060648
-0.014747798 0.020025961 0.0070163347 4279387814
-0.012489844 0.018819775 0.0079818889 4278665909
-0.010618638 0.018971819 0.0075079389 4279583908
-0.0089486986 0.01980238 0.0063162632 4279715489
-0.0070799403 0.019954391 0.0058430545 4280042908
-0.0052110888 0.020106509 0.0053698923 4280108954
-0.0031328388 0.019580945 0.0056125224 4279649444
-0.001261171 0.019733474 0.0051387846 4279322023
0.00082516298 0.019208737 0.0053794943 4279387048
0.0029168725 0.018684506 0.0056189671 4279846303
0.0054537207 0.016806997 0.0072832406 4279715999
0.0080065168 0.014930859 0.008943595 4280044183
0.013502808 0.0042618141 0.019852571 4279978648
-0.016750399 0.01133997 0.014045883 4280897158
-0.016764209 0.018308502 0.0063777305 4279191208
-0.015091851 0.019141179 0.005186867 4279518884
-0.013032943 0.018611372 0.0054324195 4279452839
-0.010968633 0.018082097 0.0056766756 4279714468
-0.008898925 0.017553344 0.0059196241 4279780768
-0.0068238266 0.017025128 0.0061612744 4279781278
-0.004949782 0.017177649 0.0056867898 4279911073
-0.0028665513 0.01665023 0.0059265606 4279976864
-0.00056621805 0.015443597 0.0068785027 4280173214
0.0015303865 0.014917493 0.0071149804 4280237984
0.0034153089 0.015071262 0.0066380054 4280303773
0.005739674 0.013866819 0.0075841099 4280566424
0.0087416768 0.010626595 0.010660067 4280829328
0.014694959 -0.0014345907 0.02296152 4280763793
-0.016527697 0.0083841383 0.014354926 4280503694
-0.016724531 0.016058996 0.0059839059 4278732464
-0.01504942 0.016894072 0.0047939532 4279255978
-0.013379484 0.017728824 0.0036053807 4279518119
-0.011318147 0.017197084 0.003848739 4280631448
-0.0092514083 0.016665861 0.0040907934 4280763028
-0.006975688 0.015452527 0.0050454903 4282203268
-0.016305767 0.0054196641 0.014657885 4282794869
-0.01611479 0.011747453 0.0077342987 4280894353
-0.014621794 0.013271347 0.0058281645 4282661504
-0.0079887733 -0.057311628 0.059286032 4281948014
-0.010250993 -0.059236985 0.058570664 4280373644
-0.010952041 -0.058872443 0.055211719 4279848088
-0.0094070919 -0.056584205 0.052572001 4281882223
-0.011651766 -0.058494266 0.051862452 4281487483
-0.01011423 -0.056200106 0.049229514 4282012019
-0.011995696 -0.059524912 0.049925033 4282012273
-0.010460299 -0.057224359 0.047297489 4281880948
-0.0085756108 -0.056346457 0.046073463 4282471018
-0.01233913 -0.060550805 0.047990974 4282732393
-0.010985546 -0.057530608 0.044669963 4281815668
-0.0091060698 -0.056651022 0.043448895 4281946993
-0.011330448 -0.058543157 0.042746238 4281815158
-0.0096356235 -0.056946348 0.040830798 4282208879
-0.01149562 -0.060268562 0.041521583 4282011763
-0.0099823847 -0.057949942 0.038914286 4282077553
-0.011660732 -0.06199367 0.040297132 4282469998
-0.010328673 -0.058948796 0.037001118 4282077553
-0.0090176091 -0.055905495 0.033710532 4282209389
-0.010855921 -0.05922104 0.03439945 4281881203
-0.00936535 -0.056890976 0.031807721 4281947504
-0.011382267 -0.059484053 0.031804256 4282208624
-0.0098965056 -0.057147827 0.029218584 4281881459
-0.011726692 -0.060464229 0.029904336 4282470764
-0.010243066 -0.058121596 0.027324073 4281619318
-0.0089614876 -0.055054251 0.024060499 4281946483
-0.01243227 -0.059982624 0.026633412 4282797929
-0.010956079 -0.057634074 0.024059933 4280504203
-0.0094956309 -0.05528662 0.021490499 4281815669
-0.011484519 -0.057863373 0.021490328 4281290879
-0.010028861 -0.055509795 0.018927004 4281684599
-0.011829026 -0.05881628 0.019610606 4282012018
-0.010375533 -0.056456257 0.01705265 4281684599
-0.0083727948 -0.056294236 0.016544864 4282209899
-0.012173057 -0.059764404 0.017734267 4282862954
-0.010907173 -0.056663293 0.014500603 4282076789
-0.0090979859 -0.055767257 0.013313727 4281815669
-0.0071032122 -0.055605758 0.01280804 4282013548
-0.01106742 -0.058334995 0.013314135 4282273648
-0.0094460808 -0.056700025 0.011449937 4281684599
-0.0072635636 -0.057275314 0.011623189 4281488248
-0.011412665 -0.059267256 0.011449905 4282731884
-0.0094183236 -0.059105951 0.010944212 4281160318
-0.0076141916 -0.058205787 0.0097618978 4279915408
-0.0095784217 -0.060774822 0.0097597837 4280635784
-0.0077742226 -0.059872467 0.0085790716 4281291644
-0.01011299 -0.06095669 0.0072272085 4281684088
-0.0085039064 -0.059309494 0.0053759795 4281684598
-0.0070978254 -0.0569201 0.002854621 4281882733
-0.011020761 -0.059638325 0.0033559147 4282404463
-0.009042602 -0.059478242 0.0028543938 4281553783
-0.0080259703 -0.055592444 -0.0010034163 4281684853
-0.010338284 -0.056647707 -0.0023421636 4280832899
-0.0093365982 -0.052752186 -0.006188089 4281161339
-0.011442125 -0.054540087 -0.006850875 4281815669
-0.01064463 -0.049885068 -0.011353696 4280898944
-0.0092951171 -0.047480438 -0.01384606 4281555568
-0.012732856 -0.051658142 -0.012010941 4282404718
-0.011758402 -0.047742914 -0.015833756 4279456154
-0.010421604 -0.045332741 -0.018318033 4281361003
-0.013265666 -0.05176599 -0.014489328 4283255654
-0.012104105 -0.048594113 -0.017637948 4279651994
-0.010769449 -0.04617757 -0.020116759 4280178313
-0.013608951 -0.052621137 -0.016297108 4282207604
-0.012258079 -0.050196808 -0.018775338 4279979158
-0.01072903 -0.048529591 -0.020586656 4279521689
-0.0096035637 -0.045351628 -0.023719469 4281359729
-0.012029886 -0.053315926 -0.018588731 4280569483
-0.010301612 -0.052402038 -0.019737048 4279718803
-0.008774858 -0.050730493 -0.021544522 4280834939
0.0095049515 0.0053520426 -0.020419326 4285818404
0.012748092 0.0012631454 -0.016763942 4285884194
0.018847868 -0.011300717 -0.0048802737 4285818658
0.028137576 -0.033037964 0.015893307 4285884448
0.037350617 -0.054055627 0.035940573 4285884448
0.043072186 -0.064472795 0.045682546 4285884704
0.0035932921 0.0040617138 -0.02080394 4285425448
0.0047631599 0.006341096 -0.023332663 4285623073
0.0061444528 0.0079099238 -0.025170468 4286016539
0.0082048848 0.0073506534 -0.024947185 4286016539
0.011200808 0.0039562918 -0.021983352 4285950748
0.015869549 -0.0043966286 -0.014232609 4285885468
0.023693651 -0.021954376 0.0023956206 4285885468
0.033333402 -0.044458944 0.023774672 4285885468
0.040954284 -0.060577165 0.03896603 4285885468
0.045010228 -0.066067934 0.043895103 4285754654
-0.011905249 0.0034569688 -0.020242438 4285557029
-0.010476533 0.0050330795 -0.022089723 4285491493
-0.0090583079 0.0066084452 -0.023934269 4285951259
-0.0072335526 0.006756939 -0.024396289 4286082074
-0.0051975548 0.0061927214 -0.024169013 4286016538
-0.0031562112 0.0056290329 -0.023943022 4285819678
-0.0011095218 0.005065877 -0.023718305 4285624349
0.00072340295 0.0052154884 -0.024182063 4285624604
0.0023346134 0.0060771853 -0.025332298 4285689884
0.0037161782 0.0076503158 -0.027167007 4285821209
0.0048601441 0.009934295 -0.029684212 4285689118
0.0069070049 0.0093717165 -0.029459124 4285623329
0.0094238333 0.0073874071 -0.027867518 4285689629
0.013836343 -0.0002827011 -0.020814171 4285755419
0.019970402 -0.012922782 -0.0089976294 4285755164
0.02956341 -0.035501543 0.012341192 4285755164
0.038596958 -0.055935491 0.03159371 4285755164
0.044100549 -0.065706164 0.040599488 4285623838
0.046699762 -0.066952825 0.041428234 4285427234
-0.014086138 0.0024867468 -0.021559455 4285361189
-0.012854941 0.0047832839 -0.024094634 4285493023
-0.011233497 0.005647283 -0.025246447 4285623839
-0.0098229125 0.007226415 -0.027085813 4285689628
-0.0080062188 0.0073742419 -0.027545802 4285689119
-0.0061894543 0.0075221919 -0.028005721 4285886489
-0.0041590333 0.0069553964 -0.027778601 4285755419
-0.0023395121 0.0071037933 -0.028239055 4285689629
-0.00051994994 0.007252302 -0.028699437 4285624093
0.0012996607 0.0074009188 -0.029159753 4285624093
0.0024467669 0.009691596 -0.03167291 4285886999
0.0038048364 0.011267345 -0.033498399 4285820953
0.0058407709 0.010701675 -0.033272177 4285689119
0.0083462447 0.0087098368 -0.031682577 4285689628
0.012041394 0.003153827 -0.026688695 4285689883
0.016965874 -0.0059630983 -0.018300619 4285821208
0.025079787 -0.024339247 -0.0010858309 4285821208
0.034787387 -0.046978805 0.020172101 4285821208
0.042210851 -0.062481802 0.034597702 4285821208
0.045782894 -0.066582516 0.038141187 4285624094
0.048885386 -0.069256857 0.040321525 4285230119
-0.014233936 0.0009519048 -0.022648582 4285360679
-0.013602737 0.0054095015 -0.027245345 4285427488
-0.012191933 0.0069929324 -0.029081598 4285755928
-0.010791641 0.0085756481 -0.03091516 4285623328
-0.0089856572 0.0087225921 -0.031372447 4285623329
-0.006968867 0.0081523843 -0.03114358 4285623583
-0.0049467087 0.0075826906 -0.030915942 4285820953
-0.0031352602 0.0077304095 -0.031374365 4285689629
-0.0013237558 0.0078782551 -0.031832714 4285624348
0.00026644766 0.008742664 -0.032974437 4285624349
0.0016274564 0.010322895 -0.034797449 4285624348
0.0032045133 0.011186413 -0.035935633 4285887253
0.0052348115 0.010618079 -0.035709612 4285887254
0.0075022988 0.0093347467 -0.034804121 4285887509
0.010718577 0.0051909946 -0.031180903 4285755928
0.01467815 -0.0010953769 -0.025527444 4285624859
0.021323485 -0.015241642 -0.012419879 4285558813
0.030984344 -0.03795534 0.0087978523 4285558813
0.039833952 -0.057797145 0.027263317 4285558813
0.045115121 -0.066912875 0.035540566 4285493789
0.047710478 -0.068168432 0.036363844 4285493534
-0.014776301 0.00085848942 -0.025113218 4285228844
-0.014749102 0.0074900016 -0.031760797 4285427488
-0.013553832 0.0097969212 -0.0342771 4285755673
-0.011758626 0.0099428743 -0.034731746 4285952534
-0.0099633411 0.010088958 -0.035186313 4285952533
-0.0077469312 0.0087961294 -0.034271762 4286018323
-0.0057330765 0.0082235821 -0.034043707 4285952789
-0.0034980625 0.006932538 -0.033133745 4285624348
-0.0019077994 0.0077989809 -0.0342739 4285558813
0.00011942163 0.0072278716 -0.034048975 4285558813
0.0014807247 0.0088125244 -0.035868809 4285624349
0.0032842569 0.0089600421 -0.036324903 4285558558
0.0050878115 0.0091076791 -0.036780909 4285624094
0.0073547401 0.0078199022 -0.035878532 4285558559
0.0096322745 0.0065330565 -0.034978703 4285558558
0.012631292 0.0030952357 -0.032047994 4285558814
0.018052924 -0.0075114854 -0.022352269 4285493278
0.026703291 -0.027431283 -0.0038820617 4285493278
0.036971163 -0.051638875 0.018605784 4285493278
0.04444823 -0.06723401 0.032946419 4285493278
0.047287915 -0.069210708 0.034442466 4285559069
-0.015094336 0.0067026466 -0.033517819 4285427489
-0.014103584 0.0097383223 -0.036713667 4285558814
-0.012313798 0.0098838247 -0.037166946 4285624348
-0.010316268 0.009307541 -0.036936536 4285755419
-0.0081030726 0.0080100857 -0.036024477 4285689629
-0.0058792382 0.0067135766 -0.035114974 4285623838
-0.003860388 0.006139338 -0.034889735 4285624093
-0.001836203 0.0055656694 -0.034665748 4285624348
-0.00024846196 0.0064342096 -0.035803564 4285558813
0.0013340227 0.0073024407 -0.036939964 4285559069
0.0031374209 0.007449951 -0.037396021 4285559068
0.0051696673 0.0068773702 -0.037173755 4285624349
0.0069757439 0.0070253275 -0.037630316 4285624348
0.0087818317 0.0071733966 -0.038086802 4285755418
0.011298198 0.0051629022 -0.036514416 4285755164
0.015506221 -0.0018814579 -0.030216821 4285754653
0.022671677 -0.017550763 -0.015833396 4285754653
0.033134416 -0.042556021 0.0072860327 4285689373
0.04229825 -0.063233882 0.026317347 4285689373
0.046115872 -0.068092808 0.030505698 4285623839
0.048454743 -0.068639114 0.03065132 4285295653
-0.014641013 0.0030208938 -0.032535329 4285427489
-0.014248107 0.0082397312 -0.037777007 4285493789
-0.012458455 0.0083852224 -0.038230248 4285624349
-0.010668721 0.0085308291 -0.038683429 4285624350
-0.0086688362 0.0079526305 -0.038455173 4285623838
-0.0066636018 0.0073749758 -0.038228191 4285624094
-0.0044376291 0.0060743541 -0.037322406 4285624094
-0.0022010542 0.0047747344 -0.036419272 4285624348
4.6148896e-05 0.0034760721 -0.035518691 4285624348
0.0014106743 0.0050698146 -0.037332892 4285624604
0.0029906183 0.005940143 -0.038466938 4285558813
0.0047939047 0.0060877576 -0.038922884 4285624348
0.0061346889 0.0076798908 -0.040730834 4285755673
0.0081666186 0.0071052834 -0.040509887 4286018324
0.010676894 0.0050877482 -0.03894088 4285886743
0.014159793 0.0001854077 -0.034679659 4285951769
0.020097967 -0.011927012 -0.0236942 4285951769
0.029548664 -0.034127522 -0.0033137137 4285951769
0.039657496 -0.057756204 0.018369492 4285951769
0.045445114 -0.068398252 0.027924445 4285951768
0.04803073 -0.069667637 0.028740559 4285557793
-0.01379028 -0.0021278523 -0.030197054 4285229098
-0.013988677 0.0052878857 -0.037476517 4285493789
-0.012398466 0.0061603524 -0.038612209 4285624604
-0.010606233 0.0063061528 -0.039066032 4285624348
-0.0092336982 0.0079043172 -0.040879391 4285755418
-0.0076591745 0.008775875 -0.042010911 4285886743
-0.0054443441 0.0074699409 -0.041105561 4285952278
-0.002565451 0.0039885379 -0.038169444 4285821209
-0.00054192543 0.0034105182 -0.037948463 4285689628
0.0012638196 0.0035580955 -0.03840521 4285624604
0.0023923405 0.0058803372 -0.040889267 4285558813
0.0039618127 0.0067521147 -0.042018957 4285624348
0.0050639436 0.0090723783 -0.04449613 4285689884
0.0070849247 0.0084947273 -0.044274092 4285558049
0.0095838457 0.0064696893 -0.042707071 4285557538
0.012815548 0.0022747256 -0.039126575 4285623839
0.017528627 -0.0062587298 -0.031523358 4285689373
0.025969001 -0.025636729 -0.013869274 4285689373
0.036527328 -0.050787721 0.0091124531 4285689373
0.044026617 -0.066525802 0.023340371 4285689373
0.047354989 -0.06996876 0.026164073 4285623839
0.049435601 -0.069797128 0.025638983 4284901168
-0.013730057 0.002327431 -0.037182085 4285295908
-0.012543257 0.0046601146 -0.039676681 4285559068
-0.01137225 0.006991595 -0.04216722 4285690139
-0.010007363 0.0085935295 -0.043975398 4285952278
-0.0084406734 0.0094665922 -0.045103267 4285886488
-0.0062343441 0.0081556179 -0.044199057 4285952279
-0.0035821944 0.0053901821 -0.041944966 4285952533
-0.00090885162 0.0026265867 -0.039696164 4285689883
0.00089411438 0.0027739406 -0.040152196 4285624604
0.0020204969 0.005102586 -0.042630844 4285558813
0.0033592246 0.0067031905 -0.044431806 4285689884
0.0042257458 0.0097562969 -0.047575824 4285755674
0.0060049854 0.0099021643 -0.048025526 4285492258
0.0084925629 0.0078695565 -0.046460479 4285492003
0.011950992 0.0029345118 -0.042215858 4285557794
0.015929226 -0.0034488887 -0.036640026 4285558048
0.022639463 -0.017809179 -0.023711134 4285820954
0.032415632 -0.040864509 -0.002782275 4285689629
0.041612998 -0.061730493 0.016099364 4285689629
0.046428159 -0.069535762 0.022926521 4285821209
0.048755288 -0.070089459 0.023070347 4285427234
-0.013472259 -0.00064153597 -0.036893763 4285164073
-0.012892183 0.0038911328 -0.041418962 4285559068
-0.011723313 0.0062290356 -0.043904074 4285755928
-0.010570243 0.0085657425 -0.046385124 4285623584
-0.0090087615 0.0094405785 -0.047510058 4285557794
-0.0068082735 0.0081246942 -0.046607569 4285623329
-0.0039450191 0.0046200454 -0.043683745 4285689629
-0.0019354187 0.0040364936 -0.0434625 4285689884
-0.00014316663 0.004182972 -0.043915823 4285624604
0.00097315013 0.0065173805 -0.046387058 4285558814
0.0023015998 0.0081215203 -0.048182182 4285624348
0.0033888742 0.010453776 -0.050645903 4285887254
0.0049268007 0.011327591 -0.051764201 4285886998
0.0069312192 0.0107443 -0.051541142 4285952788
0.01013362 0.0065205954 -0.04797272 4285821209
0.013608899 0.0015717 -0.043743625 4285886744
0.019071758 -0.0091960765 -0.034179963 4285755163
0.027571509 -0.028687578 -0.016628455 4285755163
0.03820686 -0.053985748 0.0062202532 4285886744
0.0452509 -0.068362072 0.019032672 4285755163
0.048584677 -0.071826383 0.021838874 4285493024
0.051173724 -0.07310842 0.022644632 4285361698
-0.013648562 0.0045933239 -0.044510774 4285427743
-0.012693726 0.0076701678 -0.047664914 4285821718
-0.011341464 0.0092798397 -0.049463406 4285821463
-0.0097878315 0.010156214 -0.050584733 4285689629
-0.0073813312 0.0081029348 -0.049009655 4285689883
-0.0049589053 0.0060510263 -0.047438465 4285821718
-0.0031800456 0.0061962903 -0.047888495 4285755929
-0.0016236082 0.0070733652 -0.049010187 4285558813
-0.00029754266 0.0086816251 -0.050801594 4285558813
0.0014734715 0.0088265799 -0.051249389 4285558813
0.00301411 0.0097027048 -0.052366827 4285558814
0.0043164454 0.011309326 -0.054151934 4285689629
0.0065509006 0.0099927634 -0.053260673 4285689884
0.0095108934 0.0064859875 -0.050368737 4285624093
0.012979241 0.0015211329 -0.046149209 4285624349
0.016971793 -0.0049004927 -0.040606141 4285493023
0.024213139 -0.020804729 -0.02642037 4285493023
0.043572336 -0.065711752 0.013822801 4285493023
0.047651555 -0.071375713 0.018616453 4285493024
0.050488882 -0.073391646 0.02008415 4285427489
-0.013996132 0.0038382038 -0.046243228 4285296418
-0.013455987 0.0083940327 -0.050738774 4285493278
-0.012111381 0.010007504 -0.052532136 4285821719
-0.01035393 0.010150675 -0.052977003 4285887509
-0.0081677847 0.0088248327 -0.052077387 4285887509
-0.0055371374 0.0060313307 -0.049837399 4285953299
-0.003763698 0.0061761439 -0.050286058 4285558814
-0.0022124685 0.0070549808 -0.051404815 4285558813
-0.00066649914 0.0079334937 -0.052522164 4285559069
0.0013292581 0.0073447749 -0.052300405 4285559324
0.0028699748 0.0082230829 -0.053416256 4285559069
0.0048710443 0.0076350234 -0.053195674 4285559069
0.0068774074 0.0070475116 -0.052976333 4285558813
0.0093652643 0.0049952939 -0.051425885 4285624604
0.012109715 0.0022121146 -0.049213853 4285559068
0.015605476 -0.0027657412 -0.045012526 4285493278
0.02209061 -0.016523886 -0.032850381 4285493278
0.041896384 -0.06303452 0.0086319409 4285493279
0.046719745 -0.070911422 0.015403632 4285558814
0.049035132 -0.071472496 0.015545666 4285624604
-0.014139708 0.0023501739 -0.047299046 4285164073
-0.0138046 0.0076567195 -0.052457802 4285493789
-0.012253515 0.0085371546 -0.053575329 4285493533
-0.010496207 0.0086802877 -0.054020174 4285559069
-0.0085247457 0.0080868118 -0.053794317 4285559069
-0.0061144568 0.0060207359 -0.052229811 4285493278
-0.0041270629 0.0054287761 -0.052007824 4285559069
-0.0023563728 0.0055734888 -0.052455697 4285559069
-0.00036098436 0.0049824007 -0.05223557 4285558814
0.0016397163 0.0043918379 -0.052016649 4285558814
0.0036457106 0.0038018711 -0.051799018 4285558304
0.0054243952 0.003947679 -0.052248582 4285426978
0.0076735727 0.0026235804 -0.051367518 4285623838
0.0099333301 0.0013004132 -0.05048899 4285558049
0.012444165 -0.00075633451 -0.048949167 4285558303
0.015943557 -0.0057492442 -0.044760108 4285492768
0.02242972 -0.019548971 -0.03262905 4285492768
0.041729689 -0.064732835 0.0074278004 4285492768
0.046043001 -0.071166977 0.012861073 4285492258
0.048352741 -0.071730793 0.01300294 4285426469
-0.013469968 -0.0020969324 -0.045667745 4285426978
-0.013534851 0.0047051609 -0.052160263 4285427744
-0.01239562 0.0070670582 -0.054618336 4285493789
-0.010427207 0.0064709969 -0.05439344 4285624858
-0.0082395598 0.0051364899 -0.053500704 4285690649
-0.005824782 0.003064245 -0.051942244 4285625114
-0.0036132745 0.001731921 -0.051055372 4285690138
-0.0011693388 -0.00033774227 -0.049504064 4285689883
0.00061709061 -0.00019165501 -0.04995586 4285755673
0.0026306361 -0.00078330562 -0.049741842 4285623329
0.0044197477 -0.00063673779 -0.050194114 4285623328
0.0066736341 -0.00196499 -0.049317587 4285558048
0.0089381076 -0.0032922663 -0.048443586 4285558049
0.010975465 -0.0038815103 -0.048235249 4285558048
0.013018103 -0.0044701919 -0.048028152 4285492258
0.016280796 -0.008741308 -0.044513769 4285492514
0.023013595 -0.023319032 -0.031752724 4285426979
0.04181391 -0.067166805 0.0068836324 4285492514
0.045874212 -0.072884887 0.011643104 4285426468
0.047671229 -0.071979851 0.010466699 4285294888
-0.013060194 0.0010032728 -0.051199354 4285427234
-0.01149575 0.0018891692 -0.052317031 4285624604
-0.0095144734 0.0012919717 -0.052097 4285690139
-0.007527858 0.00069526583 -0.051878206 4285624093
-0.0053196028 -0.00064178929 -0.05099389 4285624094
-0.0028817803 -0.0027186424 -0.049445987 4285623839
-0.00042808056 -0.0047940724 -0.047902077 4285558304
0.001593031 -0.0053874664 -0.047691643 4285557793
0.0033925548 -0.0052401759 -0.048146646 4285557793
0.0054216161 -0.0058326386 -0.04793809 4285557793
0.0074559711 -0.0064245574 -0.047730792 4285557538
0.0097304434 -0.0077554174 -0.046862565 4285557538
0.011778014 -0.0083459876 -0.046658412 4285492004
0.013590766 -0.0081970207 -0.047116332 4285426468
0.017102683 -0.013219547 -0.042953178 4285360934
0.023841579 -0.027840633 -0.030226123 4285360934
0.041897707 -0.069604814 0.0063365288 4285360934
0.045198835 -0.073126599 0.009110447 4285295399
-0.012175687 -0.004199747 -0.048911739 4285228843
-0.011014324 -0.0018229112 -0.051365703 4285492258
-0.0090254769 -0.0024216883 -0.051149212 4285558048
-0.0068178289 -0.0037633516 -0.050268043 4285558048
-0.0043834783 -0.0058471598 -0.048724268 4285558048
-0.00237073 -0.0064436309 -0.048513561 4285492258
-0.0001312606 -0.0077823363 -0.047640178 4285492258
0.0016707368 -0.0076349638 -0.048095901 4285557539
0.0039260909 -0.0089720674 -0.047226388 4285492004
0.0057334155 -0.0088240243 -0.047683273 4285492003
0.0080046654 -0.010159645 -0.046817571 4285492003
0.0098172836 -0.010010924 -0.047275618 4285492004
0.012104373 -0.011344958 -0.046413772 4285492004
0.01368238 -0.010454323 -0.047532193 4285426469
0.016952762 -0.01475111 -0.04403922 4285295399
0.023442002 -0.02867556 -0.032001391 4285295399
0.041229736 -0.069825828 0.0038167909 4285295399
0.044524349 -0.073359162 0.0065842792 4285229609
-0.011498634 -0.0086782612 -0.047306035 4285229099
-0.010118231 -0.0070400126 -0.049092215 4285426469
-0.008327134 -0.0068941228 -0.049545616 4285558049
-0.0063227452 -0.0074937232 -0.049334608 4285558049
-0.0043130256 -0.0080927648 -0.049124852 4285558049
-0.0022979714 -0.0086912848 -0.048916314 4285492258
-5.6453049e-05 -0.01003417 -0.048046734 4285426469
0.0019718558 -0.010631304 -0.047841407 4285492003
0.0040054843 -0.011227962 -0.047637306 4285492004
0.0060443953 -0.011824008 -0.047434486 4285492003
0.0080885962 -0.012419503 -0.047232911 4285492003
0.010138094 -0.013014432 -0.047032595 4285491748
0.011955846 -0.012865175 -0.047491848 4285360678
0.014252935 -0.01420268 -0.046635635 4285360424
0.017772105 -0.019255284 -0.04249702 4285425958
0.024022706 -0.032477859 -0.03114792 4285360423
0.040312439 -0.069295138 0.00064860657 4285360424
0.043344993 -0.072097793 0.0027559362 4285229353
