# .PCD v0.7 - Point Cloud Data file format
VERSION 0.7
FIELDS x y z rgba
SIZE 4 4 4 4
TYPE F F F U
COUNT 1 1 1 1
WIDTH 964
HEIGHT 1
VIEWPOINT 0 0 0 1 0 0 0
POINTS 964
DATA ascii
0.020818457 -0.053255565 -0.0059794355 4287772214
-0.011299212 -0.046409599 -0.0092246886 4288033079
-0.0093600824 -0.046255551 -0.009687894 4288491314
-0.0069106258 -0.048420809 -0.0082038101 4288099124
-0.0047905855 -0.04903882 -0.0080202874 4288164658
-0.0028405376 -0.048883535 -0.008485822 4288426799
-0.0012464412 -0.047183037 -0.010245649 4288623148
0.0010598637 -0.048572518 -0.0094166268 4288819499
0.0030102022 -0.048416831 -0.0098819304 4289015338
0.0049606152 -0.048260994 -0.010347137 4288361264
0.007099729 -0.048876718 -0.010167634 4288426799
0.0092442185 -0.04949186 -0.009989297 4288361264
0.011394069 -0.050106429 -0.0098121371 4288099889
0.013352711 -0.04994943 -0.010278912 4288165679
0.015311394 -0.049792312 -0.010745609 4288165423
0.017875765 -0.051946901 -0.0092877056 4288230449
0.020865124 -0.055640861 -0.0065517779 4287771448
-0.01112261 -0.049545109 -0.0091179702 4287182398
-0.0090111159 -0.050166167 -0.0089343395 4288425778
-0.0068942122 -0.050786741 -0.0087518524 4288295219
-0.0047718957 -0.051406689 -0.0085706022 4288164658
-0.0029945187 -0.05047632 -0.0096829142 4288295473
-0.001222346 -0.04954619 -0.010793926 4288361009
0.00090557709 -0.050165363 -0.010613667 4288688174
0.0028557591 -0.05000966 -0.011078922 4288426288
0.0049917735 -0.05062791 -0.010900458 4288491824
0.0071331784 -0.051245578 -0.010723168 4288230194
0.0092799366 -0.051862694 -0.010547059 4288230449
0.011238363 -0.051705845 -0.01101389 4288165168
0.013393205 -0.052322045 -0.010839498 4287969585
0.015553411 -0.052937746 -0.010666253 4287903283
0.018122271 -0.055098377 -0.0092144962 4288231214
0.020911399 -0.058030181 -0.0071271458 4288033588
-0.011111166 -0.051911093 -0.0096646454 4286986049
-0.0091643892 -0.051756449 -0.010129688 4288033078
-0.0070478357 -0.052379169 -0.0099487882 4287968053
-0.0049258992 -0.053001322 -0.0097691398 4287837494
-0.0029734969 -0.052845843 -0.01023523 4287968309
-0.0011986084 -0.051913388 -0.011345161 4288099124
0.0011118278 -0.053311147 -0.010523895 4287902773
0.0030671582 -0.053155057 -0.010990387 4288033588
0.0052081048 -0.05377505 -0.01081478 4287902520
0.0071662366 -0.053618468 -0.011281734 4287706169
0.0093152784 -0.054237552 -0.011107849 4287902518
0.01108269 -0.053304933 -0.012215396 4287903283
0.013629477 -0.05547408 -0.010763569 4287903283
0.015794594 -0.056091487 -0.010593208 4287902520
0.018166527 -0.057483308 -0.0097857472 4287772468
-0.0093176253 -0.053346418 -0.01132481 4287444540
-0.0072014295 -0.053971328 -0.011145512 4287313213
-0.0052519403 -0.053816222 -0.011611009 4287771195
-0.0033023544 -0.053660981 -0.012076436 4287705404
-0.0011752695 -0.054284602 -0.011899488 4287378239
0.00077714771 -0.0541289 -0.012365406 4287705149
0.0027296692 -0.053973041 -0.012831228 4287443518
0.0048676059 -0.054595418 -0.012656575 4287639613
0.006634932 -0.053660914 -0.013762629 4287443773
0.0087783076 -0.054282613 -0.013589079 4287640124
0.010540478 -0.053348251 -0.01469369 4287771194
0.012885213 -0.054746769 -0.013883358 4287770938
0.015042011 -0.055366993 -0.013712695 4288228154
0.017405409 -0.056763805 -0.012906561 4287900478
-0.011909101 -0.052744024 -0.013986228 4287246914
-0.0098039955 -0.053372063 -0.013806107 4287181634
-0.0076934807 -0.053999558 -0.013627192 4287050818
-0.0057494454 -0.053844877 -0.014091393 4287181633
-0.0039798319 -0.052908696 -0.015196821 4286789444
0.037282325 -0.0074912533 -0.0078025549 4284443189
0.039195936 -0.0073361695 -0.008257281 4284640303
0.043023035 -0.0070256889 -0.0091664456 4284641833
0.045181807 -0.0076008663 -0.0089611392 4284576808
0.046849929 -0.0067147762 -0.010075219 4284445228
0.051018625 -0.013130166 -0.0046033286 4284183089
0.056754526 -0.023920931 0.0048043216 4284183343
0.019695368 -0.0097120553 -0.0055482797 4284706094
0.022032693 -0.011028811 -0.0046718102 4282680884
0.023733001 -0.010139324 -0.0057929177 4281828418
0.025646556 -0.0099850446 -0.0062482562 4281828418
0.027560119 -0.0098306611 -0.0067035053 4281892934
0.029473685 -0.0096761435 -0.0071586613 4281632068
0.031160755 -0.0087873191 -0.0082762223 4281762884
0.032842506 -0.0078987926 -0.0093924273 4281829949
0.034982525 -0.0084781572 -0.0091848187 4281765178
0.037127834 -0.0090569705 -0.0089783724 4281568064
0.03951554 -0.010368645 -0.0081130844 4281305924
0.041434281 -0.010213032 -0.008568937 4281370948
0.043352976 -0.010057308 -0.0090246927 4281306433
0.045516692 -0.010634176 -0.0088222641 4281436229
0.047685653 -0.011210494 -0.0086209942 4281305414
0.052113272 -0.018376827 -0.0025094403 4281501508
-0.042931374 -0.0079460666 0.00033219717 4283855158
-0.041053791 -0.0077983215 -0.00011741556 4283790899
-0.038914409 -0.0091384426 0.00080029853 4283528758
-0.037031118 -0.0089900568 0.00034946948 4283397688
-0.035283726 -0.0080979764 -0.0007837005 4283267384
-0.033680204 -0.0064627901 -0.0025973674 4282809658
-0.032087069 -0.0048283637 -0.0044084168 4282809659
-0.030216258 -0.0046805665 -0.004855949 4282220864
-0.028051872 -0.0060181394 -0.0039437655 4281893954
-0.026026051 -0.0066122711 -0.0037132446 4281828674
-0.024146769 -0.0064635128 -0.0041625774 4282025278
-0.022421982 -0.0055724606 -0.0052898354 4281764668
-0.02085964 -0.0039398596 -0.0070930454 4281633853
-0.019147772 -0.0030496791 -0.0082170153 4281763904
-0.016790677 -0.0051257238 -0.0066355015 4281958979
-0.01441751 -0.0072004423 -0.0050577126 4282416703
0.019542377 -0.011275217 -0.006722549 4284641324
0.02166611 -0.011858851 -0.0065133777 4282418234
0.023579508 -0.011704691 -0.0069687571 4281436228
0.025711261 -0.012287498 -0.0067612696 4281371203
0.027627334 -0.012132898 -0.0072171148 4281371459
0.029319774 -0.01124154 -0.0083343927 4281240644
0.031233199 -0.011086911 -0.0087894239 4281306179
0.032917671 -0.01019603 -0.0099046007 4281568064
0.03506 -0.010777347 -0.0096992124 4281437759
0.037207618 -0.011358179 -0.0094949584 4281502784
0.039360501 -0.011938408 -0.0092918929 4281306688
0.041279104 -0.011782795 -0.0097477045 4281306434
0.043439861 -0.01236216 -0.0095463376 4281044293
0.045605876 -0.012940988 -0.0093461368 4281305668
0.048024666 -0.014253989 -0.0084912386 4281370948
0.052455299 -0.021441586 -0.0023971973 4281435974
-0.043077748 -0.0094841346 -0.00082446635 4281568318
-0.041072343 -0.010082796 -0.00059142336 4281438524
-0.038930845 -0.01142709 0.00032239594 4281240899
-0.036911774 -0.012024544 0.00055235624 4281306434
-0.035294909 -0.010384113 -0.0012612324 4281632833
-0.03368843 -0.0087444708 -0.0030722227 4281568829
-0.031951178 -0.0078508109 -0.0042011924 4281436738
-0.030075196 -0.0077026412 -0.0046499907 4281370694
-0.027906042 -0.0090442076 -0.0037422869 4281240134
-0.025875274 -0.0096400976 -0.0035147052 4281110339
-0.023990821 -0.0094909295 -0.0039652772 4281045058
-0.022106197 -0.0093416497 -0.0044158045 4280979778
-0.020221423 -0.0091922656 -0.0048662983 4280916284
-0.018496234 -0.0082989037 -0.0059917923 4280980799
-0.016289029 -0.0096367896 -0.0050927401 4281372224
-0.014236104 -0.010230325 -0.0048699081 4282026299
0.021725606 -0.014163561 -0.0070265909 4282092089
0.023426052 -0.013269767 -0.0081443805 4281175619
0.025557443 -0.013854735 -0.0079384726 4281305668
0.027694138 -0.014439121 -0.0077337832 4281175109
0.029389318 -0.013545446 -0.0088500101 4281175619
0.031305254 -0.013390616 -0.0093056243 4281175619
0.032763723 -0.011758961 -0.011078402 4281045569
0.034905687 -0.012342468 -0.010874609 4281175874
0.037052955 -0.012925453 -0.010671938 4281175874
0.039205484 -0.013507873 -0.010470474 4281110594
0.041363277 -0.014089741 -0.010270169 4281110084
0.043768317 -0.015408322 -0.0094155725 4281175109
0.04618394 -0.016725987 -0.0085633602 4281240134
0.048610102 -0.018042631 -0.0077136033 4281239623
0.053296361 -0.025987938 -0.00098410528 4281175109
-0.042973887 -0.012519412 -0.00061763078 4281240388
-0.040963512 -0.013119884 -0.00038749538 4281502019
-0.038817231 -0.014468186 0.00052184612 4281371203
-0.036660183 -0.015815519 0.0014286162 4281175619
-0.034899373 -0.014918126 0.00029555149 4281044803
-0.033143681 -0.014021039 -0.00083621778 4281044548
-0.031393092 -0.01312425 -0.0019666739 4281175109
-0.029503983 -0.012975059 -0.0024186298 4281305924
-0.027614709 -0.012825765 -0.0028705541 4281240644
-0.025576312 -0.013423219 -0.0026464872 4280979523
-0.023835618 -0.012526818 -0.0037742704 4280784449
-0.021637361 -0.013870046 -0.0028766952 4280914754
-0.019585241 -0.014466085 -0.002655657 4280784449
-0.017368112 -0.015807673 -0.0017624041 4280980033
-0.015626799 -0.01491072 -0.0028900225 4281240898
-0.014055487 -0.013268538 -0.0046884515 4281698369
0.021784695 -0.01647228 -0.0075428863 4281960509
0.023487881 -0.015576139 -0.0086595919 4281240644
0.025621554 -0.016163044 -0.0084559582 4281305668
0.027760543 -0.016749404 -0.0082535017 4281175109
0.029681642 -0.016594276 -0.0087104458 4281109828
0.03160274 -0.016439036 -0.0091673043 4281044804
0.033295318 -0.015543163 -0.010281025 4281045058
0.034982577 -0.01464761 -0.0113934 4281175619
0.036898311 -0.01449246 -0.011848712 4281044803
0.039050482 -0.01507704 -0.011648828 4281045313
0.041686155 -0.017140374 -0.010141212 4281240644
0.043854181 -0.017723486 -0.0099448776 4281370948
0.046271868 -0.019045241 -0.0090965657 4281240134
0.048453033 -0.019626983 -0.0089031896 4281239623
0.053386513 -0.028334968 -0.0015396625 4281304903
-0.042995673 -0.014812194 -0.0010971501 4281370948
-0.040982973 -0.015414692 -0.00086921826 4281305414
-0.039094944 -0.015266106 -0.0013213139 4281174853
-0.03694107 -0.016618021 -0.00041716266 4281175363
-0.035047356 -0.016468793 -0.00087047275 4280914754
-0.033153448 -0.016319454 -0.001323753 4280849473
-0.031400133 -0.01542034 -0.0024532154 4280979778
-0.029651944 -0.014521502 -0.0035813674 4281044803
-0.027762782 -0.014372237 -0.0040332694 4281240644
-0.025724728 -0.01497189 -0.0038108155 4281305924
-0.023832586 -0.014822178 -0.0042632711 4281175874
-0.021632243 -0.016169585 -0.0033695893 4281110339
-0.019577798 -0.016767614 -0.0031508049 4281110594
-0.017517898 -0.01736515 -0.0029332051 4281110594
-0.015452553 -0.017962106 -0.002716857 4281371203
-0.013875674 -0.01631514 -0.0045132977 4281567808
0.021631023 -0.018041059 -0.0087213358 4281960254
0.023549298 -0.017886519 -0.009177885 4281370949
0.025685266 -0.018475391 -0.0089764809 4281304649
0.027826548 -0.019063704 -0.0087762466 4281174853
0.02997314 -0.01965148 -0.008577182 4281240644
0.0318994 -0.019495822 -0.0090352586 4280979523
0.033825647 -0.019340046 -0.0094932495 4280980034
0.035751875 -0.01918415 -0.0099511323 4281109574
0.037911694 -0.019770421 -0.0097547909 4281305668
0.040313024 -0.021098137 -0.0089062108 4281173833
0.04296384 -0.023166746 -0.0074071912 4281239369
0.045147412 -0.02375067 -0.0072162556 4281239113
0.047092024 -0.023592718 -0.0076780608 4281042764
0.049530305 -0.024916947 -0.0068378779 4281174344
0.054224808 -0.032908931 -0.00014729798 4281305414
-0.043928999 -0.023283772 0.0043046968 4282541908
-0.043017786 -0.017109059 -0.0015796861 4281435973
-0.040875454 -0.018466391 -0.00067629572 4281174599
-0.039112229 -0.017564774 -0.0018067854 4281044548
-0.037088867 -0.018168375 -0.0015829979 4280914499
-0.03519528 -0.018019184 -0.0020362968 4280979778
-0.033025671 -0.019373983 -0.001139137 4280979524
-0.031266991 -0.018472306 -0.0022682184 4280914499
-0.029513393 -0.017570928 -0.0033959998 4281109829
-0.027764935 -0.016669855 -0.0045224731 4281175619
-0.025724571 -0.017271496 -0.0043022712 4281305924
-0.023829911 -0.017121606 -0.0047553447 4281240644
-0.021781269 -0.017722376 -0.0045369552 4281240644
-0.019570697 -0.01907324 -0.0036489675 4281174853
-0.017508503 -0.019672729 -0.0034336569 4281305669
-0.01560263 -0.019521497 -0.0038890569 4281699133
-0.013861042 -0.018620223 -0.0050133085 4281765688
-0.011957545 -0.018468969 -0.0054679839 4284248114
0.021477377 -0.019609548 -0.0098995706 4281632324
0.023610316 -0.020200916 -0.0096992059 4281369929
0.025748581 -0.020791762 -0.0095000332 4281239879
0.027892156 -0.021382064 -0.0093020303 4281174089
0.030041054 -0.021971844 -0.009105145 4281108809
0.031969819 -0.021815971 -0.0095638176 4280913223
0.034582805 -0.023894526 -0.0080612553 4280913479
0.037442431 -0.026716344 -0.0059092636 4281108809
0.040556647 -0.030280747 -0.0031097606 4281369419
0.04298925 -0.031610273 -0.0022719204 4281434699
0.045432411 -0.032938786 -0.0014365502 4281630794
0.047403459 -0.032778762 -0.0019047 4281434699
0.049374457 -0.03261862 -0.002372738 4281238603
0.051838703 -0.033945106 -0.0015420429 4281239369
-0.043833833 -0.026357695 0.0044840695 4282608209
-0.042791341 -0.020920448 -0.00071180332 4281433933
-0.040768709 -0.021526478 -0.00048968848 4281370183
-0.038870338 -0.021377154 -0.00094431732 4281240644
-0.036971774 -0.021227702 -0.0013989089 4281109573
-0.034937944 -0.021832608 -0.001179208 4281044548
-0.033036355 -0.021682702 -0.0016343659 4280978248
-0.031274941 -0.020778641 -0.0027624825 4281109064
-0.029661652 -0.019121148 -0.0045615891 4281174598
-0.02791312 -0.018217929 -0.0056864177 4281110339
-0.026021395 -0.018068396 -0.006138884 4281306689
-0.023978557 -0.0186719 -0.0059208786 4281109828
-0.022083867 -0.01852192 -0.0063738981 4281109828
-0.020189036 -0.018371828 -0.0068268669 4281109064
-0.018135134 -0.018974148 -0.0066112624 4281109574
-0.015914213 -0.020328276 -0.0057289368 4281567808
-0.01417521 -0.01942502 -0.0068509402 4281894464
-0.0122745 -0.019273989 -0.0073049525 4284116024
0.019196514 -0.020583592 -0.011277488 4284574259
0.020899858 -0.019681074 -0.012389342 4281236819
0.023241745 -0.021023206 -0.011534042 4280844373
0.025159741 -0.02086857 -0.011990438 4280517718
0.027737459 -0.022956781 -0.01048481 4280452183
0.029663427 -0.022801258 -0.010942905 4280517719
0.032039829 -0.024140105 -0.010095439 4280450653
0.043896005 -0.043082617 0.005448929 4281626714
0.046603642 -0.045159638 0.0069242781 4282084949
0.048850197 -0.045742884 0.0070968037 4282281299
0.051102024 -0.046325631 0.0072682006 4282739279
-0.042068962 -0.027774349 0.0028471053 4281761864
-0.039901216 -0.029138342 0.0037376443 4281435719
-0.037852239 -0.029744387 0.0039518224 4281370949
-0.035797734 -0.03034994 0.0041647954 4281370949
-0.033872638 -0.030198328 0.0037039062 4281173323
-0.032084849 -0.029290155 0.0025710557 4281042763
-0.030442324 -0.027626164 0.00076822378 4281238859
-0.029095817 -0.024450921 -0.0023734597 4281043018
-0.027624894 -0.022032976 -0.004839967 4280912459
-0.026021544 -0.02037175 -0.0066331727 4281043019
-0.024277899 -0.019466572 -0.0077549992 4281043019
-0.033179346 0.031209912 0.030573145 4278337724
-0.022323098 0.034168046 0.025704369 4278406573
-0.019044194 0.036524184 0.02264569 4278534074
-0.016032998 0.031875931 0.027237684 4278337468
-0.0095069185 0.028904945 0.029473837 4278931364
-0.0077758804 0.029741552 0.028302278 4278800039
-0.0067541599 0.033315003 0.024265371 4279061924
-0.004427325 0.039088078 0.01764141 4278337468
-0.001639545 0.03581924 0.020769868 4278271934
-0.055264708 0.035628121 0.026325509 4278667948
-0.047245566 0.032760199 0.02819287 4278864044
-0.045254257 0.032217417 0.02847378 4278537388
-0.043884393 0.035127569 0.02511812 4278472363
-0.042151328 0.035965275 0.023946807 4278602668
-0.040684734 0.038182806 0.021325149 4278929579
-0.03910045 0.039709277 0.019432481 4278732208
-0.037254538 0.039855704 0.018991373 4278996644
-0.034853753 0.037244461 0.021445818 4278274229
-0.032431517 0.034634992 0.023895197 4278798509
-0.030419756 0.034094349 0.024171628 4278667694
-0.028549094 0.034243006 0.023724809 4278930854
-0.02712604 0.03645755 0.021113921 4278733993
-0.024327103 0.040883049 0.015903614 4279257509
-0.022636775 0.041718103 0.014743085 4279455389
-0.020631786 0.041177344 0.015021465 4278995368
-0.017971154 0.037886932 0.018171337 4278405044
-0.015448991 0.035286035 0.020597339 4278798764
-0.013073292 0.033374064 0.022301339 4278865064
-0.01136354 0.034211025 0.021136463 4278930854
-0.009832114 0.035734333 0.019257229 4278799273
-0.0073361732 0.040837485 0.013363223 4279519904
-0.0054819137 0.040985778 0.012921055 4279651994
-0.0028923675 0.038390785 0.015331392 4279061413
0.00046435371 0.033055063 0.020586632 4279061159
-0.059014056 0.033116784 0.026796967 4279652504
-0.056394178 0.040349104 0.018616386 4278799018
-0.054787729 0.041881129 0.016721312 4279192738
-0.052962426 0.042025372 0.016284693 4279060903
-0.050433408 0.038009886 0.020212024 4278339764
-0.046382081 0.036222693 0.021509249 4278996134
-0.045032676 0.039139807 0.018165182 4278799783
-0.043192845 0.039285511 0.017725334 4278734249
-0.037807751 0.040414914 0.015682872 4279125929
-0.035554301 0.038485873 0.017410409 4278601393
-0.031430263 0.036705442 0.018691115 4278537134
-0.029722016 0.037543803 0.017527699 4278996134
-0.028167944 0.039072543 0.015645899 4278799784
-0.014228594 0.035966776 0.016850047 4278799784
-0.012534667 0.036804605 0.015690602 4278799783
-0.011191811 0.039019853 0.013104395 4278930854
-0.059782583 0.035769727 0.02127631 4279718293
-0.048976082 0.038032584 0.017183546 4278602414
-0.047139477 0.03817784 0.016744319 4278603689
-0.045677591 0.040407687 0.014133767 4278407083
-0.043593194 0.039163232 0.015142708 4278603434
-0.033853944 0.037116244 0.015829563 4278406319
-0.032151099 0.037956171 0.014669073 4278668713
-0.03030714 0.038102612 0.014228567 4278538154
-0.028760698 0.03963507 0.012351881 4278341548
-0.026921649 0.039781276 0.011912662 4278668459
-0.017229367 0.038438492 0.01185958 4278603433
-0.014878999 0.036511425 0.013559497 4278668968
-0.013363022 0.038042039 0.011690539 4278603433
-0.011857506 0.039571859 0.0098241894 4278407083
-0.010537867 0.041791789 0.0072486242 4278799273
-0.0083437562 0.040557414 0.008232425 4278471344
-0.0063195974 0.040014341 0.0085033057 4278405554
-0.0039232783 0.038091436 0.010192565 4278274484
-0.0013248809 0.035479873 0.012587304 4278341293
-0.060237784 0.036352955 0.017957069 4278800549
-0.059042882 0.040688336 0.013159051 4278407083
-0.055632327 0.042371206 0.010838888 4278536624
-0.051424149 0.039169163 0.013592101 4278602669
-0.049359534 0.037918523 0.01460225 4278930598
-0.047406208 0.03736607 0.014887041 4278734504
-0.045821633 0.038905166 0.013004144 4278603689
-0.043737736 0.037656292 0.014009793 4278472874
-0.042163309 0.039194711 0.012129416 4278734248
-0.040466521 0.040036038 0.010971772 4278472618
-0.03863943 0.040180817 0.010535034 4278996134
-0.036536049 0.038933717 0.011536281 4279258019
-0.034281161 0.036991835 0.013253286 4278996134
-0.032440152 0.037137929 0.012813388 4278930854
-0.030598942 0.037284106 0.012373499 4278734504
-0.028757539 0.03743038 0.011933624 4278603434
-0.027067225 0.038271651 0.010777955 4278734503
-0.025382031 0.039112575 0.009623562 4278538154
-0.023858566 0.040647667 0.0077559249 4278996643
-0.022027034 0.040793441 0.007318628 4278799784
-0.019871499 0.039551184 0.0083078844 4278799783
-0.017540615 0.037615962 0.010007299 4278472618
-0.015528087 0.037069418 0.010278891 4278538409
-0.013849866 0.037910245 0.0091265133 4278668968
-0.012004253 0.038057528 0.0086861616 4278734503
-0.010508899 0.039590947 0.0068256026 4278603433
-0.0086683445 0.039737985 0.0063865772 4278668968
-0.0066471696 0.03919252 0.0066564092 4278603434
-0.0046205372 0.038647525 0.0069250455 4278799783
-0.0020310543 0.03602659 0.0093151471 4278406828
0.0022760183 0.027179897 0.018062618 4278603433
-0.060278136 0.034145959 0.017550103 4279456665
-0.059079397 0.038494557 0.012761245 4278341548
-0.057151508 0.037937559 0.013050144 4278537898
-0.055774625 0.040882286 0.0097193597 4278734248
-0.053848822 0.040325209 0.0100089 4278603434
-0.051800873 0.039068852 0.011019523 4278603433
-0.049742077 0.037813425 0.012027607 4278603689
-0.047916252 0.037957713 0.011590864 4278341548
-0.046214741 0.038801275 0.010433623 4278538154
-0.044136647 0.037547521 0.011437281 4278668968
-0.042307463 0.037692282 0.010999902 4278538154
-0.040743049 0.039234295 0.0091252727 4278538154
-0.039053876 0.04007715 0.0079711853 4278405808
-0.037094127 0.039523408 0.008253037 4278602414
-0.034847926 0.037574258 0.009967058 4278472108
-0.03272872 0.036324225 0.010961178 4278603433
-0.030744467 0.035772637 0.011237337 4278668969
-0.02890316 0.035918854 0.010797448 4278734503
-0.027212735 0.036762252 0.0096434085 4278668968
-0.025527421 0.037605308 0.0084906397 4278668458
-0.024160031 0.039841421 0.0059133386 4278272699
-0.022490297 0.040683389 0.0047644032 4278336959
-0.018015739 0.037494086 0.0074474113 4278471599
-0.015841823 0.036249042 0.0084290383 4278668969
-0.013996463 0.036396183 0.0079886531 4278603434
-0.012150962 0.036543429 0.0075483033 4278472363
-0.010655288 0.038081169 0.0056910189 4278537388
-0.0054994337 0.039911523 0.002960925 4278271679
-0.0031071343 0.037975356 0.0046410458 4278403258
0.00099555776 0.029793326 0.01266515 4279059629
-0.06052513 0.033340912 0.015692141 4278932129
-0.059327874 0.037702277 0.010913699 4278406828
-0.057619844 0.038548075 0.0097562326 4278601138
-0.054218847 0.040238708 0.0074450104 4278533564
-0.052060273 0.038275488 0.0091744112 4278665144
-0.050004628 0.037015431 0.010179828 4278799018
-0.04805984 0.036457866 0.0104632 4278603689
-0.046482559 0.038004912 0.0085887043 4278603433
-0.044407625 0.036746584 0.0095896637 4278537898
-0.04271083 0.037592016 0.0084353006 4278799784
-0.033016782 0.035515115 0.0091123981 4278864554
-0.031035509 0.034961082 0.0093875406 4278668713
-0.029345151 0.035806511 0.0082351109 4278800039
-0.027659927 0.036651611 0.0070839627 4278668458
-0.025979806 0.037496392 0.0059341034 4278602668
-0.016321871 0.036131293 0.005873858 4278668713
-0.014481928 0.036277972 0.0054347431 4278472108
-0.012813952 0.037122324 0.0042881994 4278734248
-0.011151146 0.037966348 0.0031429585 4278602669
-0.0096709505 0.039507225 0.0012927838 4278471344
-0.0080211684 0.040350363 0.00015076902 4278601903
-0.0061938465 0.040496454 -0.00028501358 4278536368
-9.426102e-05 0.031736854 0.0079911659 4278665144
0.0059633814 0.016571816 0.023013946 4278864299
-0.06087457 0.033245668 0.013115295 4279194013
-0.059681464 0.037619643 0.0083478754 4278341549
-0.058086831 0.03917193 0.0064722477 4278274994
-0.056613449 0.041428093 0.0038787061 4278995369
-0.05050436 0.03762994 0.0068984786 4278472363
-0.04868931 0.037773266 0.0064642364 4278734503
-0.046874028 0.037916683 0.0060299868 4278800039
-0.044931699 0.037356839 0.0063123228 4278799783
-0.042983826 0.036797531 0.0065934034 4278340274
-0.041426737 0.03834746 0.0047272285 4278667694
-0.039880034 0.039896671 0.0028635478 4279520414
-0.038206298 0.04074261 0.001716515 4278536368
-0.035977442 0.038779035 0.0034244945 4278601903
-0.033589769 0.036114775 0.0058414182 4278667948
-0.031762097 0.036259748 0.0054046651 4278734249
-0.030230265 0.03780812 0.0035448782 4278865318
-0.028708864 0.039355733 0.0016876375 4278471599
-0.025229413 0.040345702 0.00010963622 4279126694
-0.023414094 0.04049008 -0.00032386929 4279847579
-0.021437306 0.039933912 -4.8958696e-05 4278470834
-0.019127201 0.037977517 0.0016400991 4278799018
-0.017134208 0.037422836 0.0019112136 4278405808
-0.015304971 0.037568636 0.0014746338 4278930854
-0.013819408 0.039114043 -0.0003735451 4278734249
-0.0087061785 0.04094924 -0.0030870354 4279191974
-0.0067044087 0.040395748 -0.0028176317 4279323298
-0.0041416734 0.03774666 -0.00044145621 4279126694
0.0035242289 0.023376301 0.013413898 4278340019
0.0094690621 0.0088682808 0.027679715 4278733483
0.015133936 -0.0042349845 0.040518712 4278733483
0.017129075 -0.0040749535 0.040043317 4279782299
-0.061736841 0.036696367 0.0069417423 4279194523
-0.058768574 0.041222997 0.0017594341 4278603179
-0.056865122 0.040657476 0.0020490307 4278931619
-0.054956112 0.040092468 0.0023373514 4278669478
-0.052925546 0.038821571 0.0033419291 4278734503
-0.049195763 0.038400415 0.0031946991 4278669224
-0.047512461 0.039248861 0.0020467397 4278537643
-0.045834202 0.040097013 0.0008999994 4278668713
-0.042097244 0.039676949 0.00075153541 4278602413
-0.04042628 0.040524751 -0.00039328728 4279323809
-0.038485993 0.039962791 -0.00011191703 4279061414
-0.032632116 0.038280107 0.00072452426 4278734248
-0.030817624 0.038424071 0.00029094145 4278669224
-0.029303845 0.039975367 -0.0015611285 4278406574
-0.025996063 0.041669346 -0.0038416917 4278536624
-0.024033036 0.041109815 -0.0035652686 4278602669
-0.017944772 0.038732007 -0.0020381212 4278537643
-0.015957233 0.038174793 -0.0017673401 4278734248
-0.014307629 0.039021939 -0.0029061716 4278734249
0.0026124455 0.024629667 0.0094513753 4278799019
0.0075774156 0.013576232 0.020189755 4278930598
0.012627456 0.0025297478 0.030907884 4279520668
-0.062288489 0.038049005 0.0029483568 4279456408
-0.060806584 0.040318511 0.00036274269 4278733995
-0.051618282 0.039607212 -0.00034961011 4278341039
-0.049821962 0.039748952 -0.00077946112 4278800039
-0.048149113 0.040598683 -0.0019232621 4278603434
-0.04648136 0.041448072 -0.0030658059 4278865574
-0.044431578 0.040174723 -0.0020690057 4278275249
-0.035158616 0.039473273 -0.0027991412 4278799783
-0.033355024 0.039616257 -0.0032302057 4278668969
-0.031846415 0.041171346 -0.005077763 4278800039
-0.030197989 0.042019885 -0.0062151472 4278668713
-0.028554682 0.042868108 -0.0073512485 4278341039
-0.020397719 0.039210193 -0.0048382604 4278472365
-0.018255096 0.037945285 -0.003862801 4278603434
-0.016608182 0.038794268 -0.0049993889 4278734504
-0.014623482 0.038234711 -0.0047295862 4278407083
-0.012981582 0.03908347 -0.0058648391 4278668969
-0.011344891 0.039931886 -0.0069987956 4278668203
-0.0093544796 0.03937304 -0.0067301495 4278471854
-0.0073586516 0.038814709 -0.0064627356 4278340784
-0.0049878918 0.036850765 -0.0047977441 4278668714
-0.0024136826 0.034185342 -0.0024377722 4278930853
0.00113222 0.028008576 0.0034077866 4278669478
0.0062677898 0.016216412 0.014821871 4278800549
0.011298403 0.0051337481 0.02551768 4278931874
0.014037646 0.0024819113 0.027838603 4280564128
-0.062633693 0.037995763 0.00040303916 4279391129
-0.061156567 0.040271357 -0.0021764655 4278406828
-0.059372168 0.04041177 -0.0026037646 4278537898
-0.057697792 0.041263383 -0.0037465645 4278865318
-0.055802602 0.040692858 -0.0034583844 4278734248
-0.053901862 0.040122829 -0.0031714886 4278734758
-0.051877361 0.038842775 -0.0021722373 4278800293
-0.050083783 0.038984254 -0.0026014624 4278800549
-0.048289951 0.039125822 -0.0030306969 4278603688
-0.046622079 0.039977334 -0.0041716197 4278800294
-0.044701625 0.03940922 -0.0038891612 4278800549
-0.042907115 0.039551053 -0.0043183928 4278800294
-0.040844161 0.038274519 -0.0033280412 4279127713
-0.039043907 0.038416959 -0.0037585227 4279062178
-0.037104044 0.037850685 -0.0034804745 4278996899
-0.035300743 0.03799352 -0.0039115651 4278931619
-0.033641968 0.038844846 -0.0050498913 4278931619
-0.031693559 0.03827947 -0.0047737127 4278735013
-0.030039724 0.039130565 -0.0059107332 4278931619
-0.028391 0.039981335 -0.0070464695 4278931364
-0.026592072 0.040124211 -0.0074762143 4279193504
-0.02479298 0.040267199 -0.0079059247 4279193504
-0.022672419 0.038996011 -0.006928727 4279193758
-0.020541083 0.037725732 -0.0059539895 4279193759
-0.018398989 0.036456428 -0.0049818051 4278931874
-0.016414728 0.035894521 -0.0047136261 4278997408
-0.014596295 0.036039453 -0.0051476317 4278866339
-0.01277772 0.036184493 -0.0055815992 4278997154
-0.010959025 0.03632962 -0.0060155368 4278997154
-0.0089609809 0.035769202 -0.0057504224 4279259294
-0.0069575049 0.035209294 -0.0054865372 4279128223
-0.004579518 0.033239424 -0.0038283477 4278931618
-0.0021855049 0.03127097 -0.0021739518 4278735268
0.0011738352 0.025779799 0.002959149 4278801059
0.0059233345 0.015359979 0.012953115 4278669989
0.010362267 0.0063553937 0.021537721 4279128478
0.013089929 0.0036939867 0.023854654 4281418633
-0.062569484 0.035095796 0.0007274393 4279915153
-0.061191287 0.038091965 -0.0025635771 4278669478
-0.059404332 0.03823252 -0.0029915357 4278866084
-0.057617117 0.038373165 -0.0034195008 4279193503
-0.055829648 0.038513899 -0.0038474696 4279324574
-0.053926554 0.037941806 -0.0035628192 4279062689
-0.051781911 0.035944931 -0.0018555755 4278997154
-0.04998311 0.036086768 -0.0022860952 4278735269
-0.048060764 0.035516456 -0.0020059254 4278800293
-0.046384815 0.036370717 -0.003147128 4278800804
-0.04432809 0.035089128 -0.0021587685 4278603688
-0.04252309 0.035231747 -0.0025905417 4278734758
-0.040450018 0.033951648 -0.0016060118 4278800293
-0.03877585 0.034806065 -0.0027465578 4278734760
-0.036967542 0.03494918 -0.0031789392 4278472874
-0.035300907 0.035803169 -0.0043175542 4278603944
-0.033350345 0.035235696 -0.0040436564 4278669478
-0.031541448 0.035379089 -0.0044759964 4278407594
-0.029582541 0.034812439 -0.0042039673 4278473129
-0.027770627 0.034956239 -0.0046369014 4278276524
-0.026113663 0.03580986 -0.0057728882 4278538409
-0.024304073 0.035953633 -0.0062051429 4278276269
-0.022173423 0.034678914 -0.0052337432 4278341804
-0.020195093 0.034114167 -0.0049659992 4278538409
-0.018211301 0.033549991 -0.004699524 4278276269
0.0012150742 0.023546904 0.0025074165 4278277544
0.0098178014 0.0061815791 0.018958233 4279062944
0.01253916 0.0035110526 0.021269862 4281746308
-0.062302146 0.030755125 0.0024737287 4279389854
-0.060912628 0.03376076 -0.0008133091 4278341804
-0.059115168 0.03390209 -0.0012438223 4278407339
-0.055181924 0.032039214 2.9929914e-05 4278341804
-0.053260621 0.031466383 0.00030845031 4278407339
-0.047586504 0.030465338 0.00042737462 4278276269
-0.043956149 0.030751873 -0.00044128671 4278407594
-0.041878525 0.029467687 0.00053868163 4278473129
-0.039923783 0.028898019 0.00080960803 4278341804
-0.038099881 0.029042244 0.00037340075 4278407339
-0.034734782 0.030756891 -0.0019081961 4278342314
-0.032915574 0.030900989 -0.0023430921 4278407849
-0.030802254 0.029620111 -0.0013712831 4278277034
-0.028827745 0.029052503 -0.0011046976 4278539429
-0.026847746 0.028485358 -0.00083932281 4278473384
-0.025172118 0.029342636 -0.0019781534 4278472873
-0.023186464 0.028776113 -0.0017139968 4278276269
-0.02151582 0.029633172 -0.0028514992 4278407338
-0.019524526 0.029067278 -0.002588544 4278341803
-0.01769333 0.029213 -0.0030257795 4278538408
-0.015861977 0.029358823 -0.0034629777 4278276524
-0.013859641 0.028794114 -0.0032025045 4278342058
-0.012025367 0.028940335 -0.0036402717 4278538918
-0.0098386593 0.027666248 -0.0026852461 4278604453
-0.0078200176 0.0271031 -0.0024284581 4278342314
-0.0054330006 0.025120858 -0.00078264158 4278538918
-0.0033981986 0.024559189 -0.00052955933 4278407849
-0.0011712015 0.023288634 0.00041618291 4278866339
0.0020136721 0.018473275 0.00482547 4278735524
0.006004177 0.010825139 0.011996313 4278932129
0.0098584406 0.0038905554 0.018461298 4279390363
-0.061832953 0.024960782 0.0056320699 4280701319
-0.060426813 0.02797626 0.0023477972 4278866338
-0.058720555 0.028836668 0.001202194 4278604453
-0.056800041 0.028261378 0.0014791116 4278342314
-0.054873955 0.027686648 0.0017547086 4278407338
-0.052827392 0.026395202 0.0027383501 4278407338
-0.050887588 0.025821704 0.0030107806 4278538408
-0.049062494 0.025965508 0.002573886 4278407339
-0.047360051 0.026826017 0.0014295867 4278341804
-0.04566269 0.027686186 0.00028655399 4278472874
-0.043713998 0.027113684 0.00055708922 4278538408
-0.041628938 0.025825683 0.0015319148 4278669478
-0.039533038 0.024538666 0.0025041774 4278472874
-0.037698645 0.024683684 0.0020654276 4278538408
-0.035864029 0.024828792 0.0016266853 4278538408
-0.034453589 0.027119428 -0.00092100352 4278342058
-0.032626528 0.027264107 -0.0013578068 4278801058
-0.030652519 0.026694141 -0.0010928335 4278604453
-0.028523605 0.02541022 -0.00012809411 4278735523
-0.026535977 0.024841536 0.00013370533 4278473384
-0.024852287 0.025701534 -0.0010053497 4278669988
-0.023016352 0.025847338 -0.0014439411 4278473384
-0.021180283 0.025993254 -0.0018824935 4278538918
-0.019181352 0.025425818 -0.0016231211 4278473384
-0.017342303 0.025572129 -0.0020622546 4278473384
-0.015503105 0.025718551 -0.0025013508 4278604198
-0.013493139 0.025152259 -0.0022444082 4278473128
-0.011651006 0.025299095 -0.0026840596 4278538663
-0.0096328035 0.024733603 -0.002428893 4278538663
-0.0076091774 0.024168674 -0.0021749921 4278538663
-0.0053988583 0.022892307 -0.0012288503 4278604453
-0.0031778142 0.021616843 -0.00028515048 4278538918
-0.00075948611 0.019630834 0.0013482263 4278800804
0.0020533167 0.016223505 0.00436104 4278669734
0.0058521554 0.0092627406 0.010822346 4278735269
0.0095096491 0.0030172803 0.016580701 4279651738
-0.060151685 0.023606446 0.0040689101 4279128733
-0.058434736 0.024469756 0.0029224372 4278669733
-0.056613375 0.024612926 0.0024861684 4278669988
-0.054679666 0.024036583 0.0027582115 4278604453
-0.052740391 0.023460723 0.0030290363 4278604454
-0.050795596 0.022885397 0.0032985397 4278538663
-0.048965294 0.02302957 0.0028603636 4278538663
-0.047134753 0.023173835 0.0024221912 4278538663
-0.045303997 0.02331819 0.0019840244 4278538663
-0.043473009 0.023462661 0.0015458744 4278407593
-0.041511159 0.02288907 0.0018115994 4278473128
-0.039677065 0.023033939 0.0013728235 4278341804
-0.037570883 0.021743443 0.0023392746 4278603943
-0.035731073 0.021888934 0.0018992694 4278604454
-0.033891071 0.0220345 0.0014592661 4278407593
-0.03219476 0.022897284 0.00031858776 4278604453
-0.030357007 0.023042854 -0.00012073945 4278669733
-0.028519068 0.023188524 -0.00056004059 4278473384
-0.0265291 0.022617832 -0.00030051265 4278276779
-0.024842653 0.023480173 -0.0014385665 4278604453
-0.02284703 0.022910114 -0.0011802474 4278538918
-0.021005761 0.023056388 -0.0016200813 4278473384
-0.018839378 0.021771505 -0.0006672889 4278276779
-0.016992476 0.021918423 -0.0011083167 4278538663
-0.015313219 0.022780634 -0.0022443095 4278604198
-0.013298247 0.022212565 -0.0019902568 4278538663
-0.011104759 0.020930238 -0.0010437006 4278473128
-0.0090762675 0.020363383 -0.00079269428 4278604198
-0.0072207376 0.020511441 -0.0012354236 4278669733
-0.0051840432 0.019945465 -0.00098627433 4278735268
-0.0031419359 0.019380018 -0.00073834136 4278538663
-0.00090805441 0.018101387 0.00019894913 4278735524
0.0019035712 0.014683157 0.0032036006 4278538663
0.0055085048 0.0084139481 0.0089592328 4278800293
0.0089669973 0.0028617419 0.01401485 4280175764
-0.05998208 0.019941866 0.0050685899 4278669479
-0.058363665 0.021530092 0.0032138648 4278538663
-0.056646351 0.022395656 0.0020689601 4278342314
-0.054710295 0.021817252 0.0023387643 4278801058
-0.052997772 0.022682574 0.0011951132 4278538918
-0.050938714 0.021383427 0.0021690689 4278342058
-0.049108531 0.021527532 0.0017308798 4278538918
-0.047155607 0.020950809 0.0019968413 4278669988
-0.045322288 0.021095328 0.0015580282 4278669989
-0.043360982 0.020519406 0.0018220963 4278407593
-0.041524548 0.020664334 0.0013826722 4278473128
-0.039554838 0.02008925 0.0016448656 4278538408
-0.037715349 0.020234592 0.0012048399 4278538408
-0.035598885 0.01894059 0.0021655336 4278604454
-0.033894707 0.019806031 0.0010245638 4278473128
-0.032051954 0.019951869 0.00058394205 4278342314
-0.030355353 0.020816922 -0.00055512693 4278669733
-0.028514873 0.020962756 -0.00099506695 4278669733
-0.024679091 0.020536266 -0.0011782842 4278669988
-0.02283543 0.020682625 -0.0016187681 4278473384
-0.020831998 0.020111088 -0.0013639517 4278669988
-0.018823121 0.019540053 -0.0011103787 4278538918
-0.016808774 0.018969558 -0.00085803587 4278604453
-0.014956538 0.019116964 -0.0013002856 4278407594
-0.013104152 0.019264467 -0.0017425055 4278538663
-0.011251647 0.019412085 -0.0021846732 4278669733
-0.0090479478 0.018126275 -0.0012438297 4278669733
-0.0071898773 0.018274527 -0.0016871756 4278735268
-0.0051508658 0.017706562 -0.0014402773 4278735268
-0.0032899119 0.017855231 -0.0018841624 4278735268
-0.0010565706 0.016572222 -0.0009501297 4278669733
0.0017538741 0.013143085 0.0020463672 4278669733
0.0049738847 0.0082852095 0.0064119687 4278931619
0.0080370158 0.004145693 0.010081681 4280699788
-0.061450634 0.014670581 0.0079145106 4282798694
-0.060021129 0.017713662 0.0046446742 4278931618
-0.058186967 0.017857667 0.0042052092 4278669733
-0.056679655 0.020174231 0.0016486878 4278669988
-0.054852936 0.020317797 0.001211117 4278538918
-0.053140301 0.021185253 6.9095753e-05 4278473384
-0.050964791 0.019158147 0.0017435364 4278473384
-0.049012419 0.018579096 0.0020078467 4278538663
-0.047054503 0.018000554 0.0022708932 4278538918
-0.04521599 0.018145442 0.0018308042 4278473384
-0.043249678 0.017567687 0.0020920103 4278473128
-0.041538302 0.018435504 0.00095065404 4278538663
-0.039699141 0.018580675 0.00051059853 4278407593
-0.037724216 0.018003851 0.00076993834 4278604454
-0.035743799 0.017427586 0.001027992 4278407593
-0.033757862 0.016851842 0.0012847893 4278604453
-0.031909924 0.016998053 0.00084289908 4278407849
-0.030061785 0.017144375 0.00040103681 4278800803
-0.028064687 0.016569782 0.00065537076 4278669733
-0.026213523 0.016716525 0.00021292735 4278669733
-0.024362188 0.016863361 -0.0002294993 4278800803
-0.022353951 0.016289875 2.2432767e-05 4278538663
-0.020340253 0.015716951 0.00027307123 4278342314
-0.018321078 0.015144564 0.00052248687 4278669988
-0.016625833 0.016012218 -0.00061406568 4278735268
-0.01476841 0.016160004 -0.001057582 4278538663
-0.012740832 0.015588559 -0.00080995448 4278800549
-0.010880474 0.015736774 -0.0012540175 4278866084
-0.0088446848 0.015166186 -0.0010081939 4278669734
-0.0069814287 0.015314825 -0.001452799 4278866084
-0.0051180385 0.015463572 -0.0018973574 4279062944
-0.0030712858 0.01489415 -0.0016539264 4278866083
-0.0010191053 0.014325205 -0.0014116755 4279062689
0.0016042255 0.011603281 0.00088932365 4279193503
0.0042488948 0.0088831075 0.0031853579 4281943423
-0.059956942 0.014754597 0.0049230298 4278801824
-0.058117595 0.014898956 0.0044822777 4278998173
-0.056604456 0.017222442 0.0019293353 4278604708
-0.05488402 0.018092498 0.00078707561 4278801059
-0.053168636 0.018962219 -0.00035392586 4278931874
-0.050874416 0.016203098 0.002017064 4278997409
-0.049036469 0.016347725 0.001576948 4278866849
-0.047076229 0.015767127 0.0018377621 4278931618
-0.045235176 0.01591216 0.001397023 4278800549
-0.043266516 0.015332434 0.0016559148 4278604963
-0.041422371 0.015477885 0.0012145704 4278801313
-0.039578002 0.015623435 0.00077324081 4278931874
-0.037868742 0.016493335 -0.00036577974 4278997409
-0.035750676 0.015190803 0.00058769528 4279063199
-0.033762414 0.014613051 0.00084222481 4279194268
-0.031768646 0.014035776 0.0010955483 4279063198
-0.029769409 0.013459064 0.0013475884 4279194269
-0.027616102 0.012159679 0.0022929199 4279062688
-0.025905665 0.013030197 0.0011540297 4279259038
-0.024046499 0.013177641 0.00070971809 4279062943
-0.022187155 0.013325185 0.00026543625 4279259804
-0.020168472 0.012750469 0.0005131904 4279259294
-0.018306155 0.012898438 6.8344176e-05 4278997664
-0.016443681 0.013046503 -0.00037647039 4279128223
-0.014581066 0.013194684 -0.00082124025 4279062688
-0.012208913 0.011178389 0.00080246665 4279062433
-0.010510508 0.012048718 -0.00033294875 4279193503
-0.0084670931 0.011476547 -9.0661459e-05 4279390364
-0.0067737475 0.012346659 -0.0012247218 4279520924
-0.0050855987 0.01321651 -0.0023575025 4280045204
-0.0030365139 0.012645047 -0.002116289 4279979413
-0.00079630315 0.011353921 -0.0011906633 4280044948
0.0018313788 0.0086236596 0.0011025993 4280176274
0.0040983222 0.0073348694 0.0020220084 4281092490
-0.060100172 0.013244949 0.0037876004 4279458449
-0.058260906 0.013389252 0.0033468325 4279064474
-0.056638639 0.014990699 0.0015011914 4279064218
-0.054915432 0.015863076 0.00035990681 4279326359
-0.05285554 0.014550872 0.0013233367 4279653268
-0.050901357 0.013967436 0.0015837606 4279653269
-0.048941661 0.013384543 0.001842876 4279325848
-0.047098298 0.013529643 0.0014014924 4279325593
-0.04513016 0.012947597 0.0016587274 4279522454
-0.043283697 0.013093092 0.0012167254 4279457938
-0.041566823 0.01396554 7.740315e-05 4278998938
-0.039855015 0.014837675 -0.0010606367 4280046989
-0.038013201 0.014983065 -0.0015013274 4280112779
-0.036033418 0.014402363 -0.0012465483 4279981964
-0.033767294 0.012370147 0.00039663166 4280636294
-0.031485084 0.010339316 0.0020359755 4280570504
-0.029332493 0.0090353861 0.0029780529 4280898178
-0.027020741 0.0070070885 0.0046104817 4280307853
-0.025447983 0.008605957 0.0027777981 4280307343
-0.023885664 0.010204129 0.00094764121 4281353863
-0.022021141 0.010352045 0.00050209463 4281485188
-0.019997459 0.0097755082 0.00074699335 4281484168
-0.017968331 0.0091995373 0.00099061243 4281485189
-0.015933748 0.0086240992 0.0012330115 4281550214
-0.014060643 0.008773081 0.00078571402 4282139774
-0.011678632 0.0067510754 0.0024019964 4282531964
-0.0094528124 0.0054539777 0.0033272887 4282728569
-0.059933919 0.0095422976 0.0047584912 4282013803
-0.058298375 0.011148933 0.0029129805 4282406504
-0.012424346 -0.020828508 -0.0084734196 4281884264
-0.0023799874 -0.022330813 -0.0087569682 4282472038
-0.00028824434 -0.022931255 -0.0085512912 4282275689
0.0019941293 -0.024283774 -0.007686201 4282144618
0.0039114468 -0.024130538 -0.0081434837 4282011763
0.0060193725 -0.024729311 -0.007941369 4281553529
0.0075531639 -0.023071676 -0.0097164428 4280767618
0.0094680563 -0.022918254 -0.010172854 4280505734
0.011383008 -0.022764713 -0.010629184 4280243848
0.013700258 -0.024113692 -0.0097719012 4280178059
0.015620615 -0.023959465 -0.010229322 4279915664
0.017541017 -0.023805119 -0.010686665 4279653779
0.019252371 -0.02289997 -0.011798794 4279457428
0.021170186 -0.022745587 -0.012255325 4278932894
0.023088017 -0.022591092 -0.012711781 4278735779
0.024788827 -0.021686412 -0.013821102 4278998429
0.027363103 -0.023781367 -0.012319705 4278997664
0.029286269 -0.023626074 -0.012777138 4279063454
0.031884439 -0.02571889 -0.011281176 4279128989
0.03586442 -0.032305442 -0.0058861338 4279260314
0.041043658 -0.042632908 0.0027468083 4278998173
-0.027628314 -0.024344936 -0.0053399126 4279393424
-0.026169952 -0.021921441 -0.007798302 4279196563
-0.024275701 -0.02177164 -0.0082513252 4279196054
-0.022534464 -0.020864427 -0.0093708308 4279327124
-0.02064256 -0.020714588 -0.0098231221 4279261334
-0.018591996 -0.021321505 -0.0096101081 4279129499
-0.016213704 -0.02344124 -0.0080690002 4278933659
-0.014474567 -0.0225337 -0.0091876993 4278933658
-0.012574133 -0.022382736 -0.0096416781 4278736798
-0.010504488 -0.022987731 -0.0094328271 4278933148
-0.0084294043 -0.023592122 -0.0092252148 4279064728
-0.006348934 -0.024195984 -0.0090188133 4279195034
-0.0046171285 -0.023288496 -0.010135273 4279456663
-0.002351433 -0.024646856 -0.009269801 4278998173
-0.00025737286 -0.025249317 -0.0090663172 4279129499
0.0018420704 -0.025851175 -0.00886406 4279129499
0.0039468929 -0.026452497 -0.0086630024 4278933403
0.0058667995 -0.026298933 -0.0091208071 4278867359
0.0075938217 -0.025391102 -0.010235555 4278736289
0.0093156137 -0.024483576 -0.011348973 4279129499
0.011230417 -0.024330042 -0.011805269 4279063454
0.013346184 -0.024929874 -0.011606335 4278997664
0.01526374 -0.0247759 -0.012063107 4278866339
0.017181333 -0.024621777 -0.012519787 4278932383
0.019307841 -0.025220387 -0.012323129 4278408359
0.021228153 -0.025065795 -0.012780256 4278997408
0.023362663 -0.02566351 -0.012585319 4278538408
0.024852013 -0.024004057 -0.014345608 4278735268
0.027208678 -0.025353312 -0.013500399 4278604453
0.029131696 -0.025198013 -0.01395778 4278735268
0.03217864 -0.028800488 -0.011167761 4278736033
0.036161855 -0.03540615 -0.0057886173 4279260569
0.042033531 -0.048017003 0.0047649397 4279260569
-0.02825499 -0.033654019 0.00061967038 4282406758
-0.027487088 -0.027420975 -0.0051761284 4279194524
-0.025727559 -0.026510395 -0.0062985136 4278801314
-0.024123523 -0.0248404 -0.0080851531 4278997409
-0.022223946 -0.024690092 -0.008539387 4278932128
-0.020168576 -0.025298953 -0.0083292574 4278669988
-0.018107753 -0.025907211 -0.0081203803 4278604453
-0.016202431 -0.025756113 -0.0085757151 4278669988
-0.014296982 -0.025604881 -0.0090309903 4278408359
-0.0123914 -0.02545353 -0.0094862133 4278604964
-0.010316808 -0.026060246 -0.0092802681 4278801059
-0.0085798614 -0.025150441 -0.010396465 4278669989
-0.0066739134 -0.024998702 -0.010851498 4278735524
-0.0047678687 -0.024846844 -0.011306464 4278735268
-0.0025027394 -0.026209563 -0.010444222 4278669733
-0.00040903687 -0.026814215 -0.010242347 4278866338
0.0018748417 -0.028175198 -0.0093843825 4278800803
0.0037945174 -0.028021768 -0.0098422281 4278735268
0.0059043691 -0.028624721 -0.0096439607 4278669733
0.007634107 -0.027714536 -0.010757681 4278538663
0.0095539987 -0.027560733 -0.011215296 4278866338
0.011275906 -0.026650935 -0.012326974 4278604453
0.013193268 -0.026497081 -0.012783788 4278604453
0.015110675 -0.026343122 -0.013240524 4278538918
0.017440129 -0.027699471 -0.012392677 4278604454
0.019571569 -0.028299823 -0.012198865 4278538663
0.021708362 -0.028899692 -0.012006223 4278276524
0.023636501 -0.028744362 -0.012465119 4278473128
0.025348036 -0.027834475 -0.013573684 4278669989
0.027492829 -0.028433323 -0.013382643 4278473383
0.029420998 -0.028277613 -0.013841264 4278538918
0.032472026 -0.031890489 -0.011060596 4278669988
0.036685698 -0.039268754 -0.005050112 4278604453
0.042101778 -0.050409183 0.0041807285 4279521943
-0.028405722 -0.035231233 -0.00056624785 4281357434
-0.027346615 -0.030505434 -0.005018618 4278735269
-0.025581729 -0.029592261 -0.0061406735 4278604198
-0.023821976 -0.02867943 -0.0072613596 4278538918
-0.021914598 -0.028528526 -0.0077174711 4278669988
-0.019851629 -0.029138893 -0.0075108912 4278604453
-0.017941292 -0.028987527 -0.0079675317 4278473384
-0.015870083 -0.029597051 -0.0077626854 4278407848
-0.014446955 -0.027162828 -0.010202095 4278669988
-0.012375485 -0.027772069 -0.0099971835 4278604453
-0.010298595 -0.028380774 -0.0097934939 4278735523
-0.0082162768 -0.02898895 -0.0095909424 4278473384
-0.006476514 -0.028076634 -0.010706097 4278800803
-0.004565306 -0.027924366 -0.011162296 4278604453
-0.0024747103 -0.028531536 -0.010961447 4278342058
-0.00019680336 -0.029897444 -0.010105535 4278604454
0.001722645 -0.029744163 -0.010563426 4278669733
0.0038294084 -0.030349642 -0.010366198 4278538663
0.0057516657 -0.030195899 -0.010824569 4278473128
0.0078665353 -0.030800492 -0.010629084 4278538663
0.0097915865 -0.030646279 -0.011087932 4278735268
0.011321019 -0.028975859 -0.012851715 4278669733
0.01324087 -0.028821819 -0.013309132 4278473384
0.015363924 -0.029425249 -0.013115212 4278407849
0.017903913 -0.031542979 -0.011621192 4278669989
0.020042948 -0.032144882 -0.011430886 4278735524
0.021976214 -0.031989269 -0.011891115 4278407593
0.023695761 -0.031076759 -0.012999956 4278604454
0.025410019 -0.030164547 -0.014107447 4278538663
0.027338032 -0.030009001 -0.014566138 4278669988
0.029487753 -0.030609407 -0.014377885 4278801058
0.032315861 -0.033477031 -0.012252159 4278669988
0.036527246 -0.040876977 -0.0062579112 4278407848
0.041710306 -0.051294439 0.0023036171 4279259293
-0.028556395 -0.036808148 -0.00175195 4281750389
-0.027496193 -0.032069393 -0.0061945356 4278997409
-0.025583956 -0.031918332 -0.0066519901 4278735523
-0.023821499 -0.031003118 -0.0077717155 4278407593
-0.021911595 -0.030852012 -0.0082284268 4278669989
-0.020001542 -0.030700788 -0.0086850896 4278669989
-0.017933477 -0.031312861 -0.0084812939 4278473384
-0.016020495 -0.031161174 -0.0089384783 4278669988
-0.014270555 -0.03024637 -0.01005476 4278669988
-0.012194138 -0.030857436 -0.0098526888 4278538918
-0.010112297 -0.0314679 -0.0096518435 4278604453
-0.008025039 -0.032077819 -0.0094522201 4278735523
-0.0061061345 -0.031925067 -0.0099103563 4278407594
-0.0041871108 -0.031772189 -0.010368425 4278800803
-0.0024470799 -0.030857511 -0.011481747 4278342058
-0.00034879521 -0.031466059 -0.011284366 4278669733
0.001570493 -0.031312816 -0.011742238 4278669733
0.0038639195 -0.032681525 -0.010893185 4278473129
0.0059783608 -0.033288494 -0.010699354 4278604198
0.0080981739 -0.033894829 -0.010506719 4278604198
0.010028366 -0.033740215 -0.010966796 4278735268
0.011761002 -0.032825246 -0.012077667 4278801058
0.013688665 -0.032670602 -0.012536954 4278866339
