# .PCD v0.7 - Point Cloud Data file format
VERSION 0.7
FIELDS x y z rgba
SIZE 4 4 4 4
TYPE F F F U
COUNT 1 1 1 1
WIDTH 972
HEIGHT 1
VIEWPOINT 0 0 0 1 0 0 0
POINTS 972
DATA ascii
-0.0025583468 0.0025367774 0.0021243189 4289211689
-0.00061609969 0.002641499 0.0017841402 4289277224
0.0011817627 0.0034195036 0.00070646964 4289604389
0.0029742979 0.0041973107 -0.00037020259 4290062369
0.0047615059 0.0049749389 -0.001445869 4289081129
0.0070009641 0.0037341565 -0.00031212904 4289015339
0.0094064735 0.0018214136 0.0015554857 4289407273
0.012301933 -0.0021076836 0.0056259111 4289341994
0.01555099 -0.0073795691 0.011160234 4289537578
0.019823022 -0.016681995 0.021092607 4289341229
0.025000528 -0.029340293 0.034680799 4289079344
0.02960562 -0.039305408 0.045317903 4289013808
-0.018078774 -0.00059812516 0.0044804923 4288621619
-0.016735103 0.0028896332 0.00043806061 4290192164
-0.014804434 0.0029930137 9.9411234e-05 4290454559
-0.012999099 0.0037729591 -0.00097849593 4290258463
-0.010942753 0.0032001212 -0.00057772547 4289669668
-0.0091425851 0.0039799772 -0.0016545914 4289342759
-0.0070806406 0.0034076422 -0.001254661 4289146408
-0.0050132312 0.0028356351 -0.00085558556 4289604134
-0.0028014258 0.001588352 0.00027950667 4289538598
-0.00072038919 0.0010173395 0.00067629851 4289407783
0.0010775067 0.0017975792 -0.00039982051 4289669413
0.002723068 0.0032529123 -0.0022104774 4290520093
0.0043579079 0.0047078021 -0.0040192362 4290258463
0.0065915734 0.0034621619 -0.0028875712 4289800484
0.0093012936 0.00019266084 0.00044463761 4289931298
0.012669083 -0.0057740994 0.0067068823 4289734439
0.016566806 -0.013761792 0.015160246 4289668648
0.021345023 -0.025118005 0.02726602 4289341229
0.026214849 -0.036469121 0.039355852 4289210414
0.029827874 -0.042422142 0.0455755 4287509818
-0.019782227 -0.0043657087 0.0059313402 4287376708
-0.018651005 0.00049253926 0.00041441806 4289211179
-0.017077662 0.0026329421 -0.0021409485 4289734694
-0.015029881 0.0020571724 -0.0017403904 4289669668
-0.012976598 0.0014818013 -0.001340732 4290127648
-0.011045825 0.0015853718 -0.0016792733 4289931554
-0.0091149397 0.0016890466 -0.0020177644 4289473574
-0.0071839578 0.0017928295 -0.0023562033 4289146408
-0.0051168054 0.0012185648 -0.0019586477 4289407783
-0.0030441843 0.00064473227 -0.0015620235 4289276968
-0.00096610561 7.1298331e-05 -0.0011662897 4289473063
0.00082911178 0.00085361302 -0.0022403989 4289473063
0.0024721511 0.0023133345 -0.0040475391 4289931298
0.004104469 0.0037725307 -0.0058526956 4289996834
0.0063350163 0.0025222562 -0.0047236644 4289538853
0.009351071 -0.0021128878 6.6589564e-05 4289734948
0.013193019 -0.010130677 0.0085109454 4289538089
0.017580606 -0.020175297 0.01913899 4288949294
0.022375064 -0.031568747 0.031215334 4288818479
0.026764018 -0.0409276 0.041083664 4288556338
0.029881142 -0.044871163 0.045096889 4286398274
-0.020572174 -0.0019088611 0.00038882531 4289277223
-0.019222055 0.0016015023 -0.0036391802 4289866273
-0.017659154 0.0037480406 -0.0061880536 4289342759
-0.015622415 0.0031694211 -0.0057871379 4289211944
-0.013455 0.001910191 -0.0046508368 4289538853
-0.011276711 0.00065169856 -0.0035164151 4289735204
-0.0093486421 0.00075520948 -0.00385442 4289538853
-0.0071539842 -0.00050223991 -0.0027226787 4289407783
-0.0053562857 0.00028217956 -0.0037959218 4289407783
-0.0034252517 0.00038614497 -0.0041342415 4289407783
-0.0013528243 -0.00018988177 -0.0037390366 4290062114
0.00072505698 -0.00076549873 -0.0033447742 4290127394
0.0026616864 -0.00066090748 -0.0036838502 4289734949
0.0044489577 0.00012342259 -0.0047548674 4289408038
0.0068392716 -0.0018104203 -0.002898775 4289473319
0.010019746 -0.0071401075 0.0026099123 4289145644
0.014030771 -0.015863422 0.011764074 4289210924
0.018592387 -0.026620012 0.023096396 4289341739
0.022914484 -0.036013994 0.032954425 4289210669
0.026484197 -0.042009879 0.039153457 4287640888
-0.024436433 -0.0044178888 0.00070156902 4286790719
-0.023056377 -0.00089494511 -0.0033240505 4288949804
-0.021360349 0.00057529286 -0.0051350705 4288951078
-0.019791897 0.0027287416 -0.0076803174 4290128413
-0.018119831 0.0041979402 -0.0094870385 4290454814
-0.016213749 0.0042999499 -0.009821414 4289996578
-0.013807476 0.0016692281 -0.0072168689 4290258463
-0.011507265 -0.0002771765 -0.0053502843 4290258464
-0.0094516054 -0.00085673854 -0.0049540475 4289408038
-0.0075235628 -0.00075316057 -0.0052919984 4289407783
-0.005731225 3.316626e-05 -0.0063627027 4289604134
-0.0038057044 0.00013682246 -0.0067000687 4290389024
-0.0017389394 -0.00044174865 -0.006305499 4290585374
0.00062103942 -0.0023843162 -0.004448954 4290389024
0.0027040988 -0.0029617883 -0.0040570889 4290454814
0.0046433434 -0.0028569661 -0.0043965578 4289800483
0.0073423907 -0.0061608255 -0.001085978 4289341993
0.010841634 -0.012871165 0.0058675893 4289603623
0.015338819 -0.023667295 0.017186163 4289472553
0.019602153 -0.033095982 0.027032545 4289341483
0.023290031 -0.039795768 0.033953346 4288229684
0.026370114 -0.043768395 0.037954226 4286071108
-0.02024376 0.0031883866 -0.010974395 4289675023
-0.018460106 0.0039758608 -0.012042455 4289082403
-0.016437344 0.003391955 -0.011642237 4289473829
-0.014034454 0.00075205788 -0.0090433555 4289931810
-0.011737492 -0.0012012683 -0.0071808975 4289669924
-0.0098150522 -0.0010981075 -0.0075179506 4289734948
-0.0077595711 -0.0016798452 -0.007123189 4289538598
-0.0061055496 -0.00020657107 -0.0089231599 4289866018
-0.0041855387 -0.00010321662 -0.0092595667 4289735204
-0.002124425 -0.000684347 -0.0088655734 4289538598
0.00022959337 -0.0026339404 -0.0070127249 4289604134
0.0025998391 -0.0045825876 -0.005162593 4289865764
0.0049862973 -0.0065302737 -0.0033152401 4289211689
0.008299794 -0.012580987 0.0029001348 4289669158
0.012125306 -0.02068055 0.011291025 4289537834
0.016644273 -0.031511407 0.022580823 4289341484
0.020130249 -0.037552442 0.028766243 4288622129
0.023014408 -0.040857051 0.032036938 4286136644
-0.018441718 0.0016990975 -0.012393799 4290134534
-0.016538568 0.0018008985 -0.012727696 4290194969
-0.014261104 -0.00016032532 -0.010866582 4290194714
-0.012094826 -0.0014329851 -0.0097394614 4289932574
-0.010047778 -0.0020175837 -0.0093448227 4289342503
-0.0081280619 -0.0019144602 -0.0096813254 4289734948
-0.0063437708 -0.001124084 -0.010747571 4289735204
-0.004564777 -0.0003339313 -0.01181277 4290258209
-0.002650205 -0.00023077056 -0.012148154 4289669925
-0.00016123801 -0.0028743036 -0.0095701078 4289342759
0.0024956092 -0.0062031038 -0.006267909 4289342504
0.0053283982 -0.010216732 -0.0022429638 4289734949
0.0088002086 -0.016973581 0.0046841521 4289930534
0.012943331 -0.02647182 0.014507702 4289341484
0.017318942 -0.036651816 0.025044115 4289275949
0.020337712 -0.040654939 0.029036814 4286725439
-0.013087939 0.0017936379 -0.015939828 4290456343
-0.011189993 0.0018954426 -0.016272616 4289997853
-0.0088939443 -7.1171671e-05 -0.014419279 4289801248
-0.0068523698 -0.00065811351 -0.014025107 4290652948
-0.0049433894 -0.0005553849 -0.014359601 4289932574
-0.0030343272 -0.00045253709 -0.014694026 4289996834
-0.00069490448 -0.0024164058 -0.012848004 4289996578
0.0022452809 -0.0071345307 -0.0080993474 4290192419
0.005520843 -0.013227802 -0.0019055195 4289930789
0.0096025132 -0.022760872 0.0079068635 4289407019
0.01375963 -0.032289762 0.01770612 4289407019
0.017364569 -0.039061572 0.024594447 4288425779
-0.0031366497 -0.0020476915 -0.015782099 4289277989
-0.00065448508 -0.0047095381 -0.013215349 4289473573
0.0025792122 -0.010825377 -0.0070283152 4289669669
0.0063074455 -0.019011158 0.0013232715 4289407528
0.010403112 -0.02857488 0.011111358 4289342248
0.014266092 -0.036753189 0.019439576 4288556849
0.017409934 -0.041475516 0.024141921 4287183164
-0.0033794045 -0.0029489063 -0.017594205 4288626208
-0.00047118962 -0.0077002719 -0.012861883 4289409313
0.0030581318 -0.015222643 -0.0052430518 4289932828
0.0073894151 -0.026207525 0.0059794802 4290259484
0.011353221 -0.035108585 0.015020022 4289277479
0.014771409 -0.041234296 0.02116097 4288230449
0.017298425 -0.043200914 0.02296518 4286136898
0.0057211742 -0.064146891 -0.015115612 4287573823
0.0083193555 -0.066999108 -0.012705994 4288229428
0.0054683723 -0.065075427 -0.016944524 4286790208
0.0079150796 -0.067194358 -0.0152292 4286855744
0.016096342 -0.055571053 0.012140969 4282803794
0.015985351 -0.057289016 0.010969291 4282738514
0.0028843991 -0.054831598 -0.0043212995 4282672978
0.0054742023 -0.057621982 -0.0018668622 4282280534
0.000347469 -0.054438274 -0.0072180294 4283721794
-0.00058857724 -0.051734041 -0.012557428 4282803794
-0.0065310411 -0.043358322 -0.022779331 4283005243
-0.0037670918 -0.047644977 -0.018929623 4282284869
-0.0013848543 -0.049734395 -0.017180067 4282608463
-0.0097549148 -0.038480509 -0.029829811 4283856689
-0.006899897 -0.043517213 -0.025284696 4282287163
-0.0044127069 -0.046349283 -0.022837449 4282284358
-0.0021796711 -0.047712009 -0.021787193 4282608464
0.00020474195 -0.049807962 -0.02004255 4281428834
-0.011784691 -0.040190693 -0.030588027 4284442169
-0.0099869855 -0.039350774 -0.031622585 4282091323
-0.0072681569 -0.043666799 -0.027783718 4281632323
-0.0049221069 -0.045771692 -0.026037227 4281889873
-0.010872301 -0.047709871 -0.02612035 4283721538
-0.0091826171 -0.046127651 -0.027852107 4282741064
-0.0069748051 -0.047500957 -0.02680384 4281761353
-0.0047561601 -0.048873577 -0.025757331 4281757529
0.026586954 0.023843067 0.07258261 4279718548
0.023073804 0.026822781 0.065509669 4281356668
0.023623018 0.032374531 0.05812569 4278340274
0.024805274 0.035506558 0.053870149 4279322534
0.026999123 0.035012327 0.054296449 4279716254
0.030428894 0.030290581 0.060175024 4278600628
0.035151269 0.021344285 0.071496122 4279256744
0.019444147 0.030448193 0.057674117 4280177293
0.020818897 0.03298603 0.05420094 4278864808
0.035674777 0.024557322 0.063727073 4278472108
0.038657244 0.021640748 0.067246825 4278472363
0.040175147 0.023570986 0.064557031 4278537643
0.041676819 0.025500353 0.06187015 4278340528
0.017299654 0.028632632 0.056866981 4282274669
0.017875647 0.034226269 0.049506523 4278996388
0.019556047 0.035553683 0.047599383 4278799273
0.02122568 0.036880523 0.045694202 4278733484
0.023224737 0.036989231 0.045344718 4278405299
0.031360231 0.030015303 0.053602211 4278930343
0.033934295 0.0283013 0.055572249 4278996134
0.035973731 0.02841245 0.055215873 4278799528
0.037081674 0.031563256 0.050989203 4278340019
0.038351577 0.034104869 0.047540881 4278470069
0.040749945 0.03299959 0.048735105 4278797744
0.044714112 0.027035046 0.056108773 4278927793
0.015756825 0.032432534 0.048709109 4279848343
0.018624391 0.036930393 0.042572118 4278274229
0.020949803 0.035816208 0.043775663 4278602414
0.023286024 0.034702614 0.044977389 4278799783
0.025460372 0.034200601 0.045402341 4278996134
0.028166167 0.03186661 0.048149653 4278996134
0.03071548 0.030144462 0.050119288 4278603434
0.032919452 0.029644217 0.050539173 4278537898
0.034761898 0.03036496 0.049412183 4278406828
0.03729742 0.035465956 0.042528808 4278861748
0.039681949 0.034355428 0.043722324 4279454369
0.042854156 0.030806527 0.047998495 4278995879
0.047437161 0.022992335 0.057663478 4278733739
0.052689116 0.013353631 0.069626831 4278405809
0.014107142 0.02879687 0.050240301 4279193504
0.016040318 0.036994919 0.039456584 4278599354
0.023516834 0.031798296 0.045380883 4278996134
0.025868885 0.030681111 0.046576746 4278537898
0.027881298 0.030790651 0.046224996 4278603434
0.029715797 0.031513125 0.04510089 4278734504
0.031544868 0.032235384 0.043977737 4278799784
0.033368517 0.032957368 0.042855605 4278668969
0.035372719 0.033066668 0.042505436 4278274229
0.051776264 0.014039245 0.065351374 4278603689
0.012748368 0.032036386 0.042889968 4278406064
0.013791222 0.035841744 0.037895918 4278798253
0.015286446 0.037797347 0.035228588 4279651484
0.017586861 0.036672696 0.03643024 4279454369
0.020398974 0.033701498 0.039948218 4278929579
0.023407742 0.030116247 0.044233784 4278340274
0.02593179 0.028379112 0.046198376 4278603178
0.027946841 0.028488794 0.045846164 4278603434
0.029250847 0.031059129 0.042410567 4278406828
0.030894164 0.032398321 0.04051958 4278406828
0.032709796 0.033122167 0.039400376 4278341295
0.034891706 0.032616302 0.039821126 4278931109
0.036890406 0.032725371 0.039471962 4278799273
0.039271526 0.031605683 0.040659823 4278799018
0.042245198 0.028643837 0.044149958 4278930089
0.046622232 0.021384675 0.053008348 4278668458
0.010030892 0.032730199 0.039004058 4278800293
0.016987151 0.036870122 0.032985158 4278337468
0.022790108 0.030287882 0.040774651 4278733229
0.025477778 0.027925827 0.04350628 4278864808
0.027487366 0.028035227 0.043155037 4278668203
0.028608877 0.03123174 0.038957208 4278667949
0.036969699 0.030433496 0.039097138 4279189933
0.039735358 0.028076084 0.041815422 4278472363
0.04291011 0.024486875 0.046062931 4278407083
0.048278548 0.014119308 0.058731042 4278538154
0.0074868537 0.03282243 0.035899282 4280045203
0.0088510923 0.035413541 0.032465331 4278734759
0.010661453 0.036141012 0.031349845 4278930853
0.012783621 0.035626881 0.031777464 4278799020
0.014911218 0.035113096 0.032204174 4278864298
0.017044235 0.034599662 0.032629974 4278667694
0.019516017 0.032846056 0.034594215 4278733738
0.02217336 0.030473283 0.037324823 4278996134
0.024508137 0.029341688 0.038514264 4278603434
0.02650417 0.029450344 0.038165383 4278668203
0.029415224 0.033384956 0.032863975 4278732208
0.031394999 0.033492908 0.032518059 4279519394
0.03704869 0.028137257 0.038719356 4278863534
0.040198281 0.024533121 0.042961843 4278996389
0.044348411 0.017836846 0.051023491 4278734759
0.051110242 0.0031016208 0.069012947 4278472873
0.0056983307 0.029811677 0.036658145 4280372879
0.012518607 0.034602217 0.029884277 4279192229
0.015126692 0.032217573 0.032617114 4278603434
0.017101059 0.032324821 0.032271862 4278800039
0.019408491 0.031187117 0.03346286 4278800038
0.021557502 0.030672418 0.033884376 4278537898
0.023711912 0.030158034 0.034305036 4278407083
0.02534784 0.031510279 0.032424629 4278472363
0.02822727 0.035456695 0.027138157 4278273209
0.030556209 0.034320518 0.028325645 4278863789
0.033637539 0.030698998 0.032570615 4278339764
0.04085112 0.020355545 0.044863045 4278800038
0.046364829 0.0092877299 0.058249675 4278669478
0.0047061779 0.031905524 0.030906068 4279258273
0.0060713813 0.034514617 0.027484437 4278338743
0.0077208616 0.035871573 0.025604496 4278470579
0.015341584 0.029313222 0.033023961 4278668713
0.01732127 0.029420754 0.032677777 4278800039
0.019300979 0.029528348 0.032331631 4278537898
0.020942537 0.030885248 0.030453337 4278668969
0.022573303 0.032241661 0.028576924 4278800038
0.02436775 0.032973181 0.027467648 4278996134
0.025979623 0.034328643 0.025594668 4278340019
0.030083727 0.033918567 0.025673205 4278534328
0.037393734 0.022908116 0.038717754 4278798254
0.042265393 0.013666257 0.049801387 4278668969
0.049151391 -0.0018041506 0.068489566 4279127713
0.0032127239 0.027639117 0.033201903 4278734758
0.0055154972 0.034760162 0.024063589 4279388579
0.0073098429 0.035493456 0.02295549 4279389598
0.0097206347 0.033716008 0.024916111 4279323553
0.014912559 0.028909298 0.030360905 4278668204
0.017050315 0.028389353 0.030781167 4278734249
0.019027248 0.028496796 0.030435504 4278537643
0.02032846 0.031111863 0.027031625 4278668458
0.025695816 0.033312354 0.023711229 4279192229
0.027474115 0.03404538 0.022606427 4278800038
0.029976655 0.032273553 0.024551446 4278538153
0.033420898 0.027372643 0.030302363 4278472618
0.038222909 0.018093158 0.041374631 4278473129
0.04443932 0.0044381581 0.057758391 4278604199
0.00042043254 0.029029254 0.028579673 4280636039
0.0018053874 0.031657264 0.025166998 4278735014
0.0049605109 0.035019476 0.020652065 4278271933
0.01384135 0.031032991 0.024646336 4278996134
0.016452873 0.028621566 0.027359808 4278734249
0.018255549 0.029357851 0.026252089 4278668203
0.028085854 0.029893078 0.024533952 4278341039
0.030780926 0.027486663 0.027233144 4278603943
0.034422368 0.021940168 0.03372959 4278603944
0.040364247 0.0088589862 0.049334273 4278603944
0.047371127 -0.0073558241 0.068715535 4278603944
-0.0015093125 0.026645675 0.028568303 4282340714
-0.00067714229 0.031814836 0.022094594 4278603944
0.0011225455 0.032552667 0.020988585 4278668968
0.0027698465 0.033922844 0.019118315 4279061668
0.0047059506 0.034027662 0.018779507 4278602414
0.0067945607 0.033500269 0.019205039 4278274484
0.0087334625 0.033605374 0.018865837 4278537134
0.010988109 0.032446578 0.020053381 4278996134
0.012932476 0.032552116 0.019713318 4278930854
0.015366603 0.030762598 0.021660583 4278537898
0.018765695 0.032869123 0.018693378 4278601904
0.020196119 0.034868672 0.016070487 4279520414
0.022306474 0.034343004 0.016492588 4278733995
0.025305843 0.030662866 0.020714132 4278405299
0.028337557 0.026984554 0.024930073 4279061159
0.031765848 0.022046715 0.03065869 4278537898
0.036161341 0.013958674 0.040173091 4278603433
0.042877071 -0.0016899742 0.058773473 4278472873
-0.0028646812 0.030716583 0.020559052 4279193248
0.00029667094 0.034101307 0.016058458 4278598843
0.0025183745 0.032935947 0.01724845 4278273464
0.0047509335 0.031771194 0.018436624 4278865319
0.0066897087 0.03187621 0.018097388 4278407083
0.0087835379 0.031346913 0.01852048 4278668969
0.010409687 0.032720704 0.016657224 4278734503
0.01218548 0.033459917 0.015557183 4278668969
0.014118997 0.033564933 0.015219061 4278537898
0.019748459 0.034513876 0.013445495 4278732974
0.02185319 0.033985652 0.013867019 4278864299
0.024846219 0.030291624 0.018080318 4278798764
0.033112958 0.015313972 0.035581082 4278799783
0.038636051 0.0034010597 0.049614385 4278669479
0.045573145 -0.012934659 0.068926364 4278669479
-0.0043663085 0.026435083 0.022846119 4279783318
-0.0032466091 0.030365616 0.017922821 4278865318
0.0044967234 0.030784294 0.016567411 4279257508
0.0064327158 0.03088915 0.016228655 4278538154
0.0083687566 0.030994074 0.015889937 4278537898
0.01014727 0.031735614 0.014790935 4278734503
0.012080688 0.03184054 0.01445278 4278603434
0.013688233 0.033217952 0.012595998 4278537898
0.01561629 0.033322733 0.012258874 4278930343
0.034639541 0.0079101138 0.041235007 4278472618
0.041291162 -0.0078546107 0.059768267 4278472618
-0.0069555342 0.027255349 0.01902085 4281684854
-0.0041820705 0.032583095 0.01224464 4278536879
-0.0025450774 0.03396602 0.010385429 4279586459
-0.00063093379 0.034069464 0.010050332 4278930853
0.0017231703 0.032254919 0.011997195 4278733484
0.0061760284 0.029906845 0.01436309 4278668713
0.0081092902 0.030011613 0.014024856 4278603178
0.0097277686 0.031393975 0.012169188 4278537898
0.011655707 0.031498596 0.011831978 4278472108
0.013258062 0.032880232 0.0099792387 4278864299
0.015180644 0.0329847 0.0096430648 4278667438
0.017271437 0.032451078 0.010063792 4278930853
0.019196732 0.032555848 0.0097272489 4278537898
0.021642786 0.030747049 0.011658488 4278603688
0.024986455 0.025750468 0.017364232 4278734503
0.029984102 0.015017945 0.029857269 4278538154
0.03707188 -0.0027214028 0.050633892 4278538154
0.04375748 -0.018540528 0.069122076 4278407083
-0.0079908632 0.030126141 0.01258189 4278734758
-0.006476067 0.032156363 0.0099623147 4278472363
0.0057678074 0.029570537 0.011742653 4278930854
0.0076955818 0.029674999 0.011405373 4278602923
0.0091515966 0.03170263 0.0087964926 4278602668
0.019775063 0.02838245 0.011647208 4278472363
0.022404831 0.025927298 0.014326377 4278341548
0.026289131 0.018993404 0.022279153 4278276013
0.032199949 0.005024422 0.038509451 4278407083
0.039500102 -0.013415936 0.05998981 4278407083
-0.0096253194 0.026478907 0.014101794 4280373898
-0.0083598234 0.029805839 0.0099641625 4278931618
-0.0069856271 0.032486953 0.0065907203 4278669479
-0.0053564087 0.033878345 0.0047390498 4278341293
-0.0035969429 0.034625091 0.0036478005 4278276014
-0.0012682229 0.032795608 0.0055895988 4278537644
0.00093040243 0.031610884 0.0067710988 4278996389
0.0034379438 0.029139407 0.0094648991 4278930854
0.0056636408 0.027956346 0.010641726 4278668458
0.0072824806 0.029347638 0.0087921936 4278602669
0.010168273 0.033415027 0.0035884604 4278537134
0.012074489 0.03351853 0.0032550972 4279061923
0.020181622 0.024833797 0.012801653 4278734248
0.023511995 0.019800421 0.018484624 4278472618
0.028293446 0.0096314065 0.03017907 4278538153
0.034948044 -0.0069538839 0.049377412 4278538153
0.041017275 -0.020963628 0.065545656 4278473129
-0.0094688199 0.023568846 0.014517164 4280570249
-0.0080645904 0.02626048 0.011144651 4278407083
-0.0066818222 0.028951036 0.0077759512 4278276014
-0.0050443225 0.030347394 0.005925905 4278538409
-0.0034175105 0.031743221 0.0040778294 4278407338
-0.0013709255 0.031199748 0.0045011118 4278668968
0.00053493679 0.031302765 0.0041674841 4278472874
0.0027386397 0.030113889 0.0053450149 4278341548
0.0048015863 0.029571539 0.0057655945 4278668969
0.0065614283 0.030320918 0.0046760961 4278602668
0.011484053 0.033858292 -9.2847273e-05 4279060903
0.014042348 0.031381056 0.0025860853 4278864554
0.024617124 0.013642143 0.022621529 4278799783
0.030645933 -0.0010735504 0.039543845 4278866084
0.036977276 -0.016426753 0.057194896 4278866084
0.041625611 -0.025330622 0.067324542 4278669988
-0.0091829859 0.020000786 0.015683779 4280439433
-0.0077701919 0.022701845 0.012316005 4279586969
-0.0062435865 0.024752835 0.0097084437 4279061923
-0.004733067 0.026803078 0.0071037114 4279126438
-0.002957318 0.027555162 0.0060127098 4279060904
-0.0011868849 0.028307037 0.0049226955 4278666164
0.00057822093 0.029058741 0.0038336217 4279323299
0.0024867505 0.029161969 0.0034995731 4278604453
0.004546769 0.028617164 0.0039191414 4278604453
0.0061498247 0.03001661 0.0020785686 4278472363
0.0072716475 0.033358932 -0.0020178035 4278472619
0.020821843 0.018343553 0.014333123 4278472109
0.026585225 0.0042179301 0.030485792 4278603943
0.032994315 -0.011841472 0.048865676 4278603943
0.038289391 -0.023367014 0.061980277 4278735013
0.041508399 -0.027129505 0.066097893 4280243594
0.044208329 -0.02895109 0.06796623 4281685109
-0.0087682419 0.015767869 0.017597115 4280569994
-0.0076090358 0.019781213 0.012723031 4279848598
-0.0060767047 0.02183928 0.010119101 4279192483
-0.0044226386 0.023245452 0.0082724262 4279126183
-0.0026387572 0.024000207 0.0071815588 4278798509
-0.0011466034 0.026056342 0.0045848303 4278863534
0.00062125921 0.026810391 0.003496876 4278993838
0.0073259436 0.031124676 -0.0023472104 4278604199
0.0090616941 0.031877398 -0.0034292601 4278800803
0.010954149 0.031980142 -0.0037602279 4278604454
0.013670467 0.0288349 -0.0003429614 4278669989
0.017083624 0.02309332 0.0060663 4278538664
0.022246931 0.010861248 0.019954054 4278538664
0.028722679 -0.0059094056 0.039061539 4278538664
0.034811936 -0.020725247 0.055901326 4278473129
0.039064426 -0.028396543 0.064499445 4278669989
0.041391186 -0.028928127 0.064871415 4281291643
0.044090573 -0.030756477 0.066735171 4282012528
-0.0087433681 0.01347845 0.017235583 4280241044
-0.0075806975 0.017505452 0.012370268 4279585694
-0.0059103556 0.018916897 0.010523805 4279257764
-0.004388392 0.020981204 0.0079264175 4278864298
-0.0026017614 0.021738335 0.0068366174 4278732719
-0.00096351653 0.023148337 0.004995903 4278732464
0.00095552951 0.023252025 0.0046599377 4279060139
0.0025777444 0.02466129 0.0028221905 4278862768
0.0043403767 0.025417449 0.0017368179 4278732718
0.0059438162 0.026825896 -9.7576529e-05 4278470069
0.0092777088 0.028989058 -0.0030114353 4279190954
0.011175454 0.02909209 -0.0033433251 4279585693
0.013731707 0.026587753 -0.00068281591 4279324063
0.017982755 0.017567344 0.0094503071 4278931108
0.024009425 0.0020353869 0.027041787 4278931108
0.030683622 -0.015443746 0.046850778 4278931108
0.035749294 -0.026401978 0.059172243 4278997154
0.039125584 -0.030843791 0.064020395 4279980944
0.041273981 -0.030726489 0.063645124 4282143088
0.04397282 -0.032561611 0.065504283 4282340204
-0.0088481791 0.011840772 0.01611845 4279781788
-0.0075526051 0.015225418 0.012014577 4278995114
-0.0061490498 0.017952971 0.0086671989 4279388068
-0.0044919103 0.019368265 0.0068262238 4279388068
-0.0029856861 0.021438532 0.0042363331 4278994604
-0.0013526343 0.022852689 0.0023996904 4279256489
0.00070653111 0.022300921 0.0028145276 4279388068
0.0024745464 0.023059541 0.0017297138 4279125674
0.0043882206 0.023163097 0.0013948008 4279387814
0.0059945472 0.024576185 -0.00043697841 4279125928
0.0079029165 0.024679625 -0.00077084638 4278929323
0.0096522383 0.025437558 -0.0018521547 4278928304
0.01155797 0.025541028 -0.0021854416 4278731443
0.014286108 0.02237393 0.0012141038 4278470069
0.018880129 0.012014575 0.012815977 4278470324
0.025598833 -0.006186001 0.033350185 4278470324
0.032123357 -0.023070905 0.052367806 4278273719
0.036159128 -0.030144934 0.060190871 4278275249
0.039364398 -0.033948664 0.064282641 4281619318
0.041698724 -0.034484308 0.064650171 4282405484
-0.0089529455 0.010203354 0.015001489 4280041889
-0.0076567531 0.013599247 0.010905312 4279648933
-0.0062527172 0.0163358 0.0075640921 4279453094
-0.0045953915 0.017755575 0.0057261959 4279256743
-0.0030888431 0.019832578 0.0031409226 4279322534
-0.0013128333 0.020593688 0.0020561498 4279387559
0.00060331821 0.020697191 0.0017206706 4279453093
0.0025195293 0.020800792 0.0013852473 4279584418
0.0044357963 0.02090447 0.0010498688 4279584164
0.0061985664 0.021665201 -3.2356009e-05 4279584418
0.0079559796 0.022425734 -0.0011135787 4278929069
0.0097080283 0.023186097 -0.0021938533 4279060139
0.011939634 0.02197662 -0.0010365862 4278929068
0.015003687 0.017485935 0.0038438905 4278864298
0.020109821 0.0051224865 0.017652469 4279061158
0.026676156 -0.012483958 0.037395753 4279061158
0.032698371 -0.027458642 0.054139271 4278930344
0.036217861 -0.032589529 0.059714183 4279389343
0.039247021 -0.035751011 0.063053608 4281946738
0.041400589 -0.035633411 0.06267745 4282536298
-0.0064908899 0.015379101 0.0057124849 4282072199
-0.0046988428 0.016143121 0.0046263225 4280761754
-0.0030520186 0.01756689 0.0027934369 4279648679
-0.0014159083 0.018990215 0.00096244738 4279583143
0.00035481527 0.019753352 -0.00011979602 4280107679
0.0022682324 0.019856788 -0.00045473687 4279976353
0.0043324046 0.019300945 -4.3807551e-05 4279846048
0.0060952157 0.020063922 -0.0011244789 4279583908
0.0078526661 0.020826697 -0.0022041481 4279453093
0.0097635649 0.020930346 -0.0025384072 4279387814
0.012158941 0.019057754 -0.00064077601 4278601903
0.015555635 0.013234258 0.0057149921 4279061414
0.020669658 0.00082857907 0.019492442 4278864553
0.02741229 -0.017496552 0.039934903 4278864553
0.033099957 -0.031206001 0.055156603 4278864299
0.036801212 -0.037012536 0.061459392 4280110994
0.039307315 -0.038210969 0.062565893 4282078319
-0.0024563223 0.012648158 0.005427761 4281416848
-0.00066407397 0.013414636 0.004343193 4280434844
0.00083250925 0.015504699 0.0017692018 4280106658
0.0026087277 0.016270459 0.00068761967 4280303774
0.004379604 0.017036058 -0.00039301626 4279911329
0.0061451457 0.017801426 -0.0014726035 4279255468
0.007905338 0.018566582 -0.0025512017 4279124654
0.009818811 0.018670369 -0.0028859172 4279387558
0.012216356 0.016791098 -0.00099331513 4278995114
0.015778359 0.01028657 0.006090099 4278864553
0.020894883 -0.0021616668 0.019837407 4278864553
0.027469268 -0.019889053 0.039494902 4279061414
0.033156432 -0.033645678 0.054683805 4278864809
0.036858935 -0.039472368 0.060972318 4280635783
0.0045769662 0.01410301 -2.3301691e-06 4281286544
0.0061948076 0.015534665 -0.0018236414 4280827544
0.008113537 0.015638635 -0.0021593459 4279451819
0.0098737963 0.016406137 -0.0032363217 4279387048
0.01211229 0.015183534 -0.0020896588 4279387814
0.015672721 0.0086564496 0.0049783997 4279387814
0.020786362 -0.0038346387 0.018696511 4279255978
0.027525958 -0.022285756 0.039051957 4279124909
0.033040639 -0.035426881 0.053469151 4278272953
0.036741704 -0.041273858 0.059743844 4281356158
0.0083211921 0.012701891 -0.0017734189 4281416848
0.01024523 0.01280624 -0.0021099877 4280500889
0.01249139 0.011579588 -0.00096783973 4279846048
0.016058341 0.0050304011 0.0060834531 4279583909
0.021343622 -0.0081683695 0.020509394 4279714469
0.027751502 -0.025351789 0.039344057 4279714469
0.032924864 -0.037207793 0.052254692 4279714724
0.036275439 -0.041745458 0.05704163 4282208369
0.028145477 -0.029093962 0.040366605 4282858618
0.032980785 -0.039655644 0.051776327 4282924664
0.036551893 -0.063569367 0.039325431 4282471529
0.033949971 -0.064081386 0.037049234 4282602599
0.036435306 -0.065357134 0.038106367 4282471273
0.033833839 -0.065864325 0.035833441 4282471018
0.036143713 -0.066446155 0.036174051 4282732904
0.030566074 -0.063557521 0.030713486 4282536809
0.03354555 -0.066946104 0.033905476 4282536808
0.030281663 -0.064623043 0.028795911 4282536809
0.027218657 -0.06297645 0.024409691 4282602089
0.029997565 -0.065683752 0.0268817 4282863718
0.024184357 -0.061305415 0.020034356 4282471018
0.027104663 -0.064731032 0.023213161 4282470763
0.021822099 -0.06245159 0.018502625 4282668134
0.024398327 -0.06446898 0.020261129 4282470764
0.026990691 -0.066485316 0.022016859 4282601834
0.021709338 -0.064192027 0.01731568 4282470763
0.024448341 -0.06692867 0.019775791 4282536299
0.015874378 -0.05900665 0.0097978432 4281818473
0.018722024 -0.062470194 0.012965707 4281488759
0.021757133 -0.066647023 0.016834078 4282143599
0.024661319 -0.070107251 0.019992245 4282863718
0.01607346 -0.062158797 0.010035651 4282079084
0.018610194 -0.064198732 0.011786854 4280767874
0.02148388 -0.06767191 0.014942488 4282602089
0.013442285 -0.061832611 0.0071122535 4282472294
0.016117116 -0.064599916 0.0095645729 4282274669
0.018971071 -0.068085536 0.012715826 4282012273
0.013483722 -0.064269051 0.0066449028 4282340203
0.016160516 -0.067045242 0.0090906974 4282208878
0.018858854 -0.069820136 0.01153283 4282405484
0.010569319 -0.062474404 0.0023300871 4282078319
0.013221126 -0.065261036 0.0047739353 4282208368
0.015894478 -0.068046302 0.0072140899 4282339439
0.010310467 -0.063452423 0.00046802498 4282012274
0.012958832 -0.066248164 0.0029062089 4282208369
0.015783193 -0.06976901 0.0060391705 4282601834
0.0074285232 -0.061619435 -0.0038270876 4281817199
0.010051921 -0.064425588 -0.0013907868 4280766854
0.012848467 -0.067959279 0.0017391648 4282273139
0.0040017776 -0.056836229 -0.010900181 4281228659
0.0070276521 -0.061847385 -0.0063736998 4281816434
0.0096449293 -0.064662844 -0.0039425623 4281881204
0.012283754 -0.067477003 -0.0015150961 4283320168
0.0036080442 -0.057038862 -0.01343077 4280637824
0.0067733116 -0.062799633 -0.0082187774 4282012784
0.00923853 -0.064890742 -0.0064880382 4282929254
9.9413097e-05 -0.051450808 -0.021163169 4279851914
0.003501121 -0.058704156 -0.014566668 4280243338
-0.0023891218 -0.050983939 -0.024019107 4279787653
0.0002746433 -0.054570023 -0.020897388 4279522198
0.0033942275 -0.060369108 -0.01570233 4280570503
-0.0020814985 -0.054841656 -0.023058575 4281946228
0.00030921772 -0.056957331 -0.021329015 4281486974
0.0031445362 -0.061293323 -0.017528892 4282207604
0.014353763 -0.073203534 -0.015832776 4282534769
-0.022260878 0.0037727952 -0.01137546 4286342683
-0.028696727 0.0060126893 -0.015868252 4285295653
-0.027138848 0.0081786849 -0.018402528 4285819423
-0.02515186 0.007590197 -0.017997889 4286015774
-0.022817452 0.0049372427 -0.015393531 4285949983
-0.030679535 0.0043377392 -0.016611939 4285229863
-0.029324923 0.0078926757 -0.020609889 4285886489
-0.0275633 0.0086830407 -0.021671323 4285885723
-0.025584657 0.0080917999 -0.021266757 4285951258
-0.023372855 0.0061199404 -0.019399155 4286082329
-0.021144751 0.0041490272 -0.017534286 4285819424
-0.019019593 0.0028693564 -0.016403299 4285687844
-0.031293396 0.0062300004 -0.021348083 4285624603
-0.029740434 0.0084090233 -0.023872243 4285689373
-0.027986873 0.009201128 -0.024930682 4285557794
-0.026016559 0.0086072348 -0.024526265 4285623329
-0.023813371 0.0066281222 -0.022661801 4285755164
-0.021710258 0.0053426586 -0.021530151 4285754908
-0.019596282 0.004057847 -0.020400289 4285624348
-0.017593171 0.0034660958 -0.020001354 4285624094
-0.015709009 0.0035669543 -0.020331871 4285492514
-0.014079019 0.0050520748 -0.022118565 4285425958
-0.012200043 0.0051528551 -0.022448031 4285885468
-0.033461604 0.0059593134 -0.023548659 4285361698
-0.032008577 0.0088406913 -0.026799535 4285690139
-0.030155051 0.0089391619 -0.027125197 4285952533
-0.02851769 0.010428362 -0.028910547 4285820953
-0.026558395 0.0098316073 -0.028505774 4285820699
-0.024480063 0.0085401796 -0.027372936 4285952534
-0.022158366 0.0058597103 -0.024785087 4285821209
-0.02017178 0.0052646771 -0.024384851 4285624348
-0.018058095 0.0039754845 -0.023258045 4285624603
-0.016306438 0.0047703274 -0.024314173 4285624093
-0.014814056 0.0069536455 -0.026822461 4285689628
-0.013078351 0.0077478401 -0.027875645 4285819678
-0.010818411 0.0057657622 -0.026025316 4285950749
-0.0082721002 0.0023969151 -0.022727469 4285949983
-0.035423521 0.0043023489 -0.024284275 4285098793
-0.033959452 0.0071931332 -0.027530955 4285558813
-0.032208826 0.0079893172 -0.028585926 4285689884
-0.030674074 0.010180723 -0.031097528 4285821209
-0.02893931 0.010976307 -0.032149617 4285886743
-0.026988361 0.0103768 -0.031744916 4285821208
-0.024691705 0.0076859146 -0.029158991 4285755674
-0.022489477 0.0056933686 -0.02730367 4285624093
-0.020389777 0.0043988116 -0.026177626 4285624093
-0.01840065 0.0038017593 -0.025779327 4285689884
-0.016778529 0.0052952729 -0.027558513 4285755418
-0.015293911 0.0074848421 -0.030060727 4285820699
-0.013436724 0.0075844191 -0.030386398 4285755164
-0.011182737 0.005595319 -0.028539762 4285885979
-0.0086426586 0.0022149086 -0.025248637 4286017558
-0.0062131993 -0.00046794116 -0.022685295 4285885979
-0.0037621297 -0.0031495504 -0.02012568 4285557793
-0.00057444349 -0.009308327 -0.013958735 4285492004
0.0038273297 -0.021028798 -0.0020263437 4285557538
-0.036006968 0.0062464364 -0.028990826 4285624349
-0.034256484 0.0070447214 -0.030044306 4285690139
-0.032306228 0.0064426512 -0.029641312 4285755419
-0.030771192 0.0086407699 -0.032148305 4285623838
-0.029036399 0.0094385669 -0.03319886 4285558303
-0.027085703 0.0088367797 -0.03279569 4285558303
-0.024903018 0.0068363808 -0.030941749 4285624094
-0.022704039 0.0048369244 -0.02909055 4285624349
-0.020726066 0.004236944 -0.028691992 4285624094
-0.018863928 0.0043364577 -0.029018763 4285689884
-0.017373741 0.0065329559 -0.031517409 4285886743
-0.015772879 0.0080298632 -0.033289637 4285689118
-0.014053289 0.0088276453 -0.034336902 4285557539
-0.011678535 0.0061326511 -0.031770371 4285623584
-0.0091473758 0.0027405545 -0.028485483 4285689374
-0.0065892264 -0.00064999238 -0.025205251 4285755419
-0.0038639195 -0.0047370419 -0.021208536 4285558814
-0.00010622665 -0.013707858 -0.012172695 4285493023
0.0045948215 -0.026861567 0.0011721272 4285493024
0.0089534931 -0.037916649 0.012339925 4285493024
-0.038048383 0.0053049661 -0.03044836 4285558559
-0.036395025 0.0068079829 -0.032227501 4285951769
-0.034453269 0.0062030852 -0.031824667 4285886488
-0.032403607 0.0048962533 -0.030696519 4285952534
-0.030763213 0.0063988827 -0.032473169 4285821208
-0.028917979 0.0064969473 -0.032797351 4285624349
-0.027072605 0.0065951161 -0.033121489 4285559069
-0.024774652 0.0038862862 -0.03054825 4285559068
-0.023034062 0.0046869218 -0.031598069 4285624604
-0.021180239 0.0047858767 -0.031923458 4285689884
-0.019447494 0.0055862628 -0.032971706 4285624094
-0.017720014 0.0063864775 -0.034018952 4285821464
-0.016250949 0.008588668 -0.036509149 4285952788
-0.014410164 0.008687336 -0.036831968 4285821208
-0.01217344 0.0066837966 -0.034991629 4285886743
-0.0095165707 0.0025793836 -0.030992441 4285821718
-0.0066899881 -0.0022236891 -0.026278734 4285690393
-0.0034055859 -0.009125609 -0.019412769 4285558813
0.00093172491 -0.020925846 -0.0075221714 4285559069
0.00550602 -0.033421088 0.0050711073 4285493278
0.0091405846 -0.04101165 0.012620116 4285492513
-0.039992239 0.0036635846 -0.031176977 4285361698
-0.03852177 0.0065813214 -0.034406267 4285624093
-0.036782172 0.0073833503 -0.035454825 4285755418
-0.034948263 0.0074804761 -0.035777256 4285755164
-0.032807555 0.0054639094 -0.033925559 4286018069
-0.030755471 0.0041527972 -0.032800905 4285755418
-0.028800089 0.0035466701 -0.032401823 4285624348
-0.027059745 0.0043492652 -0.033450153 4285558813
-0.025211673 0.0044476613 -0.033774704 4285624603
-0.023479138 0.0052500553 -0.03482151 4285690139
-0.021751877 0.0060522705 -0.035867326 4285689884
-0.019787777 0.0054471307 -0.035469405 4285624093
-0.018189412 0.0069527701 -0.0372351 4285624093
-0.016475271 0.0077546164 -0.038278379 4285689629
-0.014637303 0.0078531168 -0.038600706 4285689884
-0.012403835 0.0058426708 -0.036764488 4285689883
-0.0098851509 0.0024274699 -0.03349302 4285559069
-0.0063791573 -0.005905237 -0.02519639 4285493278
-0.0021090992 -0.017747324 -0.013320605 4285493534
0.0025376789 -0.030989204 -2.5587156e-05 4285493534
0.0061247014 -0.038607154 0.0075145494 4285493534
0.0088832639 -0.042008843 0.010744406 4285492769
-0.040454116 0.0049498007 -0.035130467 4285558813
-0.038899977 0.0071686506 -0.037627168 4285689629
-0.037265103 0.0086795948 -0.03939686 4285557794
-0.03544208 0.0087761246 -0.039717387 4285558048
-0.033414762 0.0074590929 -0.038591586 4285689374
-0.031167019 0.0047293156 -0.036022246 4285821209
-0.029112507 0.003413897 -0.03490103 4285624349
-0.027157258 0.0028055906 -0.03450343 4285558814
-0.025534976 0.0043165013 -0.036270477 4285559069
-0.023923326 0.0058269948 -0.038035616 4285689883
-0.02220412 0.0066309869 -0.039078474 4285820954
-0.020369273 0.0067289881 -0.039400488 4285820954
-0.018410731 0.0061214194 -0.039003082 4285755163
-0.016572993 0.0062197931 -0.039325453 4285558558
-0.014477212 0.0049074218 -0.038210891 4285558559
-0.012370594 0.0035957955 -0.037098195 4285559069
-0.009581361 -0.0012407191 -0.032399885 4285559324
-0.0056580119 -0.011714969 -0.021971958 4285493789
-0.00095519051 -0.02570888 -0.0079754489 4285493789
0.0032856502 -0.036878143 0.0031380355 4285362209
0.0060163736 -0.040292669 0.0063648839 4285097773
-0.042739954 0.0061579645 -0.038750373 4285493535
-0.040914845 0.0062542781 -0.039071493 4285690394
-0.039371137 0.0084792152 -0.041561663 4285953043
-0.037746873 0.0099940822 -0.043326445 4285887254
-0.03593472 0.010090016 -0.043645076 4285821208
-0.033816639 0.0080587789 -0.041798782 4285952788
-0.031473044 0.0046106093 -0.03851302 4285755929
-0.029424328 0.0032904297 -0.037393957 4285624349
-0.027364727 0.0019708797 -0.036276698 4285558813
-0.026083026 0.0056116767 -0.040199403 4285690139
-0.024481986 0.0071260594 -0.04195958 4285821209
-0.022891585 0.0086399354 -0.043717779 4285952534
-0.020708058 0.0066129453 -0.041882515 4286018069
-0.01863173 0.0052948408 -0.040767811 4286018324
-0.016418401 0.003269624 -0.038937584 4285690138
-0.014188845 0.0012454353 -0.037110165 4285624604
-0.011811525 -0.0014853105 -0.034569055 4285559324
-0.0086073503 -0.0084589869 -0.027735956 4285493788
-0.0042540729 -0.021087449 -0.015188362 4285493788
0.00019615144 -0.033710558 -0.0026576612 4285427998
0.003747344 -0.041379783 0.0048543457 4285295909
-0.044317421 0.0016881786 -0.036578178 4284901424
-0.042923581 0.0053451322 -0.040513482 4285427743
-0.041374382 0.007577002 -0.04300008 4285427999
-0.039653707 0.0083845668 -0.044040762 4285558813
-0.038034651 0.0099035874 -0.045801479 4285690139
-0.036128905 0.0092877336 -0.045398608 4285690139
-0.034115832 0.0079609379 -0.044276565 4285624348
-0.031882923 0.0052124262 -0.041717105 4285558558
-0.029842686 0.0038872473 -0.040599648 4285558814
-0.027791563 0.0025627874 -0.039484072 4285624604
-0.026292283 0.0047928542 -0.041961305 4285690138
-0.024809007 0.0070221126 -0.04443562 4285755418
-0.023223836 0.0085402243 -0.04618983 4285689374
-0.021166857 0.0072164796 -0.04507494 4285689374
-0.018852402 0.0044730566 -0.042529278 4285886744
-0.016516343 0.0017309003 -0.039987333 4285690139
-0.014158662 -0.0010099411 -0.03744914 4285624604
-0.011385232 -0.0058788434 -0.032769926 4285559068
-0.0075015351 -0.016422484 -0.022381917 4285559068
-0.0029900186 -0.029799562 -0.0091521982 4285428254
0.00078715011 -0.038915057 -0.00022115745 4285230373
-0.044242058 -0.0012742542 -0.036181994 4285163564
-0.042754065 0.0016798973 -0.039389666 4285426978
-0.041105617 0.0032047443 -0.041152652 4285361188
-0.039467741 0.0047290996 -0.042913653 4285559069
-0.037840467 0.0062530376 -0.044672757 4285558814
-0.036025878 0.0063490607 -0.044991843 4285559069
-0.034211133 0.0064451844 -0.045310892 4285559068
-0.032083239 0.0044010803 -0.043475635 4285624859
-0.030153137 0.0037845857 -0.043078393 4285558813
-0.028327238 0.0038816109 -0.043399185 4285558814
-0.026838411 0.0061177649 -0.045869887 4285821719
-0.025365602 0.0083532259 -0.048337735 4285689628
-0.023791034 0.0098752156 -0.05008699 4285558049
-0.021624763 0.0078338012 -0.048258021 4285558048
-0.019319084 0.0050809458 -0.045717057 4285624348
-0.016614236 0.00019246712 -0.041036882 4285690138
-0.01387164 -0.0046938471 -0.0363633 4285559068
-0.010435123 -0.013138067 -0.02812941 4285493278
-0.0061304308 -0.025849868 -0.01562947 4285493533
-0.0021386407 -0.036421169 -0.0052836891 4285493534
0.0010981336 -0.042718593 0.00077635422 4285427999
-0.04399645 -0.0056786761 -0.03435209 4285098029
-0.042409208 -0.003431581 -0.036836103 4285426468
-0.040928666 -0.00046878681 -0.040036187 4285492258
-0.039189126 0.00034421682 -0.0410771 4285624349
-0.037454825 0.0011570789 -0.04211707 4285690139
-0.035725746 0.0019697323 -0.043156005 4285558813
-0.034103382 0.0034980364 -0.04491096 4285559069
-0.032283258 0.0035945289 -0.045230895 4285559069
-0.030462991 0.0036911331 -0.045550782 4285559324
-0.028752159 0.0045032538 -0.046586208 4285558814
-0.027271111 0.006745737 -0.049050923 4285690394
-0.025921021 0.0097025707 -0.052227408 4285953043
-0.02412178 0.009798497 -0.052543297 4285887253
-0.022202101 0.00917973 -0.052145414 4285887254
-0.019661855 0.0049878955 -0.048182175 4285821463
-0.016837817 -0.00063110143 -0.042799044 4285755929
-0.013457052 -0.0091053061 -0.034574155 4285624349
-0.0096183755 -0.019718636 -0.024225064 4285493534
-0.0052975677 -0.032469865 -0.011755975 4285493534
-0.0019715913 -0.03950404 -0.0049908701 4285427999
0.00099080056 -0.044393789 -0.00036634505 4285163818
-0.042065706 -0.0085652247 -0.034297675 4285360678
-0.040390071 -0.0070300363 -0.036059245 4285558049
-0.038725 -0.0054953434 -0.037818834 4285558049
-0.036974553 -0.0046794489 -0.038860057 4285492259
-0.035328012 -0.0031454787 -0.040616281 4285492004
-0.033793423 -0.00089394301 -0.043086015 4285558048
-0.032170769 0.00063898787 -0.044837885 4285558304
-0.030558746 0.0021714047 -0.04658778 4285493024
-0.028847907 0.0029857382 -0.04762166 4285361698
-0.027366567 0.0052349307 -0.050081771 4285493533
-0.026016038 0.0082007311 -0.053252116 4285624604
-0.024451915 0.0097310394 -0.054993287 4285690393
-0.022417713 0.0083926544 -0.053883806 4285690139
-0.019758265 0.0034702756 -0.049217559 4285624603
-0.016433246 -0.0050338358 -0.0410017 4285559068
-0.0124023 -0.017117616 -0.029243223 4285493278
-0.0082798041 -0.02919637 -0.01750073 4285493278
-0.0046003163 -0.038404647 -0.0086135371 4285427998
-0.0016687475 -0.043311838 -0.003994599 4285229353
-0.041986924 -0.01155794 -0.033923358 4285426213
-0.040305752 -0.010018047 -0.03568276 4285426724
-0.038541991 -0.0091993324 -0.036724847 4285492258
-0.036687616 -0.0091013871 -0.037051056 4285492258
-0.035030175 -0.0075623915 -0.038806103 4285558049
-0.033282112 -0.0067441948 -0.039845217 4285492258
-0.03185099 -0.0037656352 -0.043023817 4285492258
-0.030121457 -0.0029481873 -0.044059515 4285624349
-0.028725039 2.8755516e-05 -0.047231868 4285624349
-0.027238015 0.0022849478 -0.049688309 4285558814
-0.025881689 0.005259987 -0.05285345 4285559069
-0.024194684 0.006075602 -0.053881377 4285558813
-0.022152822 0.0047330894 -0.052776322 4285559069
-0.019363713 -0.00092369318 -0.047412068 4285624860
-0.01577894 -0.010892291 -0.037797026 4285559069
-0.01135008 -0.025170032 -0.02393966 4285559069
-0.0075983703 -0.035129432 -0.01435372 4285493535
-0.0044387132 -0.041491698 -0.0083223982 4285493534
-0.0019114763 -0.044258978 -0.0058385879 4285294634
-0.041820992 -0.01528262 -0.032840136 4285491749
-0.040131617 -0.013737801 -0.034597926 4285492003
-0.038266774 -0.013639439 -0.034926068 4285492258
-0.036497485 -0.012818117 -0.035967521 4285492259
-0.034831818 -0.011274267 -0.037720874 4285492258
-0.033075672 -0.010453437 -0.038759872 4285492258
-0.031532314 -0.0081878938 -0.041221797 4285492258
-0.029792007 -0.0073676519 -0.042257838 4285492258
-0.028275248 -0.0051033087 -0.044714935 4285492258
-0.026662659 -0.0035617128 -0.046458565 4285492513
-0.025289763 -0.00057687983 -0.04962042 4285558049
-0.023586627 0.00024183095 -0.050649621 4285558048
-0.02152906 -0.0011043027 -0.049550496 4285492769
-0.018725079 -0.0067782514 -0.044201262 4285427488
-0.014625184 -0.019662481 -0.031777736 4285427488
-0.010300405 -0.033262547 -0.018663447 4285427489
-0.0067879558 -0.041810084 -0.01051766 4285230118
-0.041830864 -0.017569412 -0.033192456 4285492004
-0.040138651 -0.016020063 -0.034947619 4285426468
-0.03827126 -0.015921582 -0.035276219 4285492259
-0.036403712 -0.015822981 -0.035604775 4285492514
-0.034634281 -0.014999289 -0.036644682 4285492258
-0.032970998 -0.013451006 -0.038394436 4285492259
-0.031421963 -0.011178475 -0.040852707 4285492003
-0.029676277 -0.010355737 -0.041888151 4285492259
-0.028153863 -0.008084435 -0.044341542 4285492258
-0.026424069 -0.0072622821 -0.045374095 4285492259
-0.02469952 -0.0064403228 -0.046405591 4285558049
-0.022980247 -0.0056185462 -0.047436092 4285558049
-0.021026719 -0.0062445179 -0.047050424 4285558049
-0.017965674 -0.013383042 -0.040301569 4285558559
-0.014099937 -0.024859656 -0.029322155 4285558559
-0.0097645782 -0.038501639 -0.01623928 4285493023
-0.0068931244 -0.04345927 -0.01164272 4285163563
-0.041491527 -0.022771467 -0.030700732 4285031983
-0.039875779 -0.020489316 -0.033166423 4285360678
-0.038183246 -0.018935326 -0.034918502 4285294888
-0.036405895 -0.018109147 -0.035958283 4285492004
-0.034829993 -0.015828747 -0.038416795 4285426469
-0.033068452 -0.015003178 -0.039453644 4285426469
-0.03141563 -0.013450872 -0.04119838 4285426469
-0.029667262 -0.012625735 -0.042232797 4285426469
-0.027924139 -0.011800807 -0.043266177 4285426468
-0.026186269 -0.01097605 -0.044298559 4285492004
-0.024339419 -0.010877769 -0.044622935 4285492259
-0.022609379 -0.010053199 -0.045653783 4285426468
-0.020645391 -0.010680858 -0.045271508 4285426468
-0.017575156 -0.017841239 -0.038539823 4285426979
-0.013576094 -0.030078951 -0.026881674 4285426979
-0.0097408779 -0.040860396 -0.016648803 4285295653
-0.034731444 -0.018841732 -0.03806071 4285163563
-0.033065196 -0.01728433 -0.039804831 4285229353
-0.031409543 -0.015727434 -0.041546967 4285361188
-0.029658485 -0.014899973 -0.042580273 4285361188
-0.02791268 -0.014072638 -0.043612622 4285426469
-0.026172113 -0.013245512 -0.044643927 4285426469
-0.024322715 -0.013147119 -0.044968765 4285426469
-0.022589993 -0.012320179 -0.045998532 4285426468
-0.020743053 -0.012221675 -0.04632277 4285360933
-0.01767439 -0.01940449 -0.039606363 4285361189
-0.013802752 -0.03095236 -0.028677778 4285361188
-0.010227606 -0.040311884 -0.01987364 4285361189
-0.032559592 -0.023227375 -0.036627311 4285032494
-0.030887682 -0.021665122 -0.038369253 4285163819
-0.029226381 -0.020103354 -0.040109199 4285361189
-0.027792875 -0.017079812 -0.043257009 4285360933
-0.02615821 -0.015519176 -0.04499216 4285426724
-0.024420213 -0.014689837 -0.046021387 4285426469
-0.022570845 -0.014591333 -0.046346139 4285426469
-0.020482685 -0.01595379 -0.045264807 4285360678
-0.017529555 -0.022428241 -0.039267614 4285360933
-0.013904378 -0.032551218 -0.029768581 4285295654
-0.010968223 -0.038289402 -0.024492217 4285229864
-0.025811169 -0.019996639 -0.043234579 4285098538
-0.024290036 -0.017698418 -0.045668963 4285164329
-0.022435438 -0.017599661 -0.045994651 4285229608
-0.020461541 -0.018233519 -0.045618799 4285360678
-0.017629012 -0.023995411 -0.040336825 4285426214
-0.014379688 -0.03195231 -0.03296078 4285295143
-0.011580136 -0.036976535 -0.028395262 4285294634
