# .PCD v0.7 - Point Cloud Data file format
VERSION 0.7
FIELDS x y z rgba
SIZE 4 4 4 4
TYPE F F F U
COUNT 1 1 1 1
WIDTH 979
HEIGHT 1
VIEWPOINT 0 0 0 1 0 0 0
POINTS 979
DATA ascii
0.04191101 -0.01155787 -0.021432534 4283530288
0.045650143 -0.017320968 -0.01653114 4284314413
0.048736546 -0.020869642 -0.01362534 4284575024
0.013925537 -0.018102787 -0.013875729 4283988014
0.015275996 -0.015741684 -0.016289162 4282220864
0.017185105 -0.015607931 -0.016691955 4281109063
0.019094231 -0.015474059 -0.01709467 4281044294
0.021200247 -0.016081788 -0.016829371 4281239879
0.022712938 -0.014464401 -0.018567163 4281240134
0.024821619 -0.015071705 -0.018302241 4281370949
0.026730735 -0.014937356 -0.018704588 4281370693
0.028639833 -0.014802888 -0.019106841 4281436229
0.030548902 -0.014668278 -0.019508978 4281502019
0.031819213 -0.012311727 -0.021904694 4281371458
0.033289053 -0.010696642 -0.023632918 4281306179
0.034748159 -0.0090821683 -0.025358843 4281240133
0.036859307 -0.0096884966 -0.025093758 4281502274
0.039199315 -0.011034153 -0.024167461 4281436738
0.04268124 -0.016077295 -0.019934567 4281371714
0.047802959 -0.026293978 -0.011081205 4281370948
0.013978217 -0.020416573 -0.014362899 4283138099
0.015331756 -0.018048733 -0.016772028 4281893698
0.017243389 -0.017914809 -0.017175358 4280979013
0.019155033 -0.017780744 -0.017578591 4281109829
0.021263385 -0.018390492 -0.017315442 4281109318
0.022778971 -0.016768575 -0.019050555 4281174853
0.02468795 -0.016634338 -0.019452954 4281240133
0.026596917 -0.016499989 -0.019855265 4281371203
0.028713247 -0.017108679 -0.019593418 4281436484
0.03062484 -0.01697389 -0.019996088 4281306434
0.03211097 -0.015353434 -0.02172453 4281175873
0.033586368 -0.013733566 -0.023450667 4280980033
0.035051055 -0.012114368 -0.025174413 4281241153
0.037167199 -0.012722477 -0.024912072 4281371969
0.039065227 -0.012588061 -0.025311438 4281371458
0.043449972 -0.020613916 -0.018449251 4281371458
0.013658881 -0.021240734 -0.01618696 4282612034
0.01538717 -0.020359859 -0.017257899 4281434443
0.017301323 -0.020225756 -0.017661758 4281174344
0.019409342 -0.020837858 -0.017400231 4281044039
0.021326186 -0.020703308 -0.017804474 4281044039
0.023043836 -0.019822694 -0.018872794 4281305159
0.024756152 -0.018942386 -0.01993987 4281240133
0.026667641 -0.018807858 -0.020342708 4281174853
0.028579114 -0.018673204 -0.020745445 4281305669
0.030490564 -0.01853843 -0.021148082 4281175618
0.03197692 -0.016913608 -0.022873279 4281176128
0.033452544 -0.015289366 -0.024596153 4280980033
0.035353206 -0.015154988 -0.024996242 4281241153
0.037033275 -0.014276102 -0.026055878 4281437249
0.039154369 -0.014885902 -0.025796128 4281436738
0.043765441 -0.023679622 -0.018293645 4281828674
0.02290999 -0.02138909 -0.020026315 4280778074
0.024420677 -0.019758672 -0.021753691 4280909398
0.026738016 -0.021119781 -0.020833131 4281238093
0.028859027 -0.021732531 -0.020575527 4281434954
0.030985337 -0.022344723 -0.020318981 4281502019
0.032479919 -0.020714916 -0.022042636 4281567299
0.034393817 -0.020579733 -0.022445615 4281305669
0.03587231 -0.018950857 -0.024165656 4281240644
0.037560433 -0.01806923 -0.025225334 4281240388
0.039466184 -0.017934233 -0.025626302 4281370183
0.044531554 -0.028246224 -0.016830394 4281762884
0.030379113 -0.029298581 -0.016456442 4281300823
0.032945424 -0.03141056 -0.014888594 4281563984
0.034679089 -0.030523896 -0.015956482 4281500233
0.035762887 -0.027389996 -0.018995812 4281305414
0.037260294 -0.025755428 -0.020716526 4281173833
0.038526803 -0.023372695 -0.023091368 4281043274
0.040891409 -0.024733946 -0.0221834 4281499978
0.045296181 -0.03283 -0.015379785 4281565769
0.041691076 -0.036207363 -0.014425056 4282805068
0.043427259 -0.035317853 -0.01549145 4282610249
-0.048832953 0.03659169 0.039083581 4279062179
-0.047233507 0.038732536 0.036437202 4278798764
-0.045649849 0.040872343 0.033794206 4278472109
-0.043652475 0.040333122 0.034140278 4278405808
-0.038288563 0.031226609 0.043772269 4278995369
-0.051061824 0.036236912 0.036837239 4280178059
-0.049657851 0.039728843 0.032702178 4278471599
-0.046406649 0.04334807 0.028175771 4278537134
-0.044425555 0.042805519 0.028523542 4278667438
-0.037527315 0.035811394 0.035504822 4278799784
-0.03550256 0.035272092 0.035843525 4278407083
-0.033472247 0.034733236 0.036181096 4278472619
-0.031929165 0.036877114 0.033551987 4278602158
-0.028247759 0.037810814 0.032005202 4278339509
-0.052904204 0.033192802 0.037579332 4281881713
-0.051673613 0.038046118 0.031957496 4278931618
-0.040351324 0.03882578 0.029558334 4278734249
-0.038463429 0.038955994 0.029158447 4278799783
-0.036692984 0.03975942 0.02801767 4278865319
-0.034686968 0.039216649 0.02835869 4278602669
-0.032921426 0.040019862 0.027219046 4278733229
-0.031286716 0.041495375 0.025341332 4279716254
-0.029405758 0.041625418 0.024943162 4279389854
-0.026869446 0.038394429 0.028235395 4278864553
-0.024172515 0.034493327 0.032259483 4278536879
-0.021579698 0.031266376 0.035539862 4278733995
-0.019099027 0.028713007 0.038078211 4278669224
-0.015516981 0.030323956 0.035788886 4278865063
-0.011955701 0.031933777 0.033504117 4278598844
-0.053782314 0.037040804 0.030468624 4280046478
-0.052283451 0.039877489 0.027094062 4278472363
-0.050509267 0.04068289 0.025953788 4278537898
-0.048841618 0.042164426 0.024071954 4278668713
-0.046871975 0.041616533 0.024418693 4278734504
-0.044789948 0.040393025 0.025505845 4278734503
-0.042696975 0.03917028 0.026590768 4278930854
-0.040817402 0.039299805 0.026192565 4278800039
-0.039052427 0.040104959 0.025054466 4278734504
-0.037292562 0.04090979 0.023917537 4278603689
-0.025105394 0.036967613 0.02668646 4278602924
-0.023074396 0.03642473 0.027020797 4278799528
-0.021176748 0.036556151 0.026619256 4278472363
-0.019562021 0.038035043 0.024749313 4278340784
-0.017957799 0.03951323 0.02288169 4278405044
-0.016511016 0.041664094 0.020283248 4279061669
-0.014033206 0.039102033 0.022815756 4278931109
-0.0077736937 0.028600562 0.033718258 4278405809
-0.054284275 0.03820736 0.026354991 4278931619
-0.046896055 0.039400756 0.024026189 4279126693
-0.044811785 0.038172971 0.025109511 4278603434
-0.0428259 0.037624039 0.025451247 4278538154
-0.040946409 0.037753496 0.025053013 4278603689
-0.039410606 0.039916229 0.022440057 4278603944
-0.037890591 0.042077936 0.019830491 4278538409
-0.036026448 0.042206526 0.019435663 4278996134
-0.034284756 0.043012358 0.0183043 4278602414
-0.032548197 0.043817908 0.01717408 4278340019
-0.025635995 0.037439205 0.023335818 4278865318
-0.023749299 0.037569761 0.022936512 4278603178
-0.022139795 0.039052509 0.021070953 4278668458
-0.018808335 0.041340373 0.018078629 4278338998
-0.017227739 0.042821325 0.016219344 4279716764
-0.015060201 0.041600361 0.017285839 4279716764
-0.012729764 0.039705049 0.019080453 4279061159
-0.0075481758 0.033893738 0.024847105 4278602923
-0.004841052 0.030653432 0.02808715 4278537898
-0.0025953241 0.029438261 0.029137392 4278668713
-0.0011658818 0.031594958 0.02654795 4278602924
0.0023282431 0.033209845 0.02428484 4278271169
-0.056284577 0.036537647 0.025616102 4278734503
-0.054784678 0.039391682 0.022254433 4278668968
-0.05311431 0.040881895 0.020378463 4278272699
-0.051257476 0.041009434 0.019984756 4279191974
-0.04712794 0.038542092 0.022152837 4279060903
-0.045046777 0.037309665 0.023233455 4278602669
-0.043063834 0.036758333 0.023574073 4278734504
-0.041298881 0.037567645 0.022439208 4278537898
-0.039767943 0.039736494 0.019832257 4278472618
-0.038252816 0.04190436 0.017228667 4278340274
-0.036394112 0.042032525 0.016834937 4278405809
-0.034657642 0.042840142 0.015706312 4278471853
-0.032550916 0.041609935 0.016781859 4278734503
-0.03043329 0.0403805 0.017855193 4278472618
-0.028043836 0.037794318 0.02039266 4278472618
-0.02589912 0.036566913 0.021460373 4278800038
-0.024151012 0.03737567 0.020329539 4278734503
-0.022685073 0.039540686 0.017736774 4278734248
-0.021234989 0.04170467 0.015147415 4278668458
-0.010977633 0.038288936 0.017542794 4278274484
-0.008780729 0.037065834 0.018599909 4278668458
-0.0065730251 0.035843544 0.019654784 4278799784
-0.0048421696 0.036651839 0.01852816 4278537134
-0.0034470223 0.03881263 0.01595097 4278798764
-0.0018999316 0.040296216 0.014102454 4278601138
0.0003189072 0.039074965 0.015155262 4279455389
0.0034148134 0.034475356 0.019826684 4278340274
0.0069001131 0.028527092 0.025937486 4278601903
-0.056773402 0.037731763 0.021519918 4278734504
-0.053432353 0.040720802 0.017774355 4279127204
-0.051679179 0.041531108 0.01664336 4279389089
-0.049527399 0.039608985 0.018464815 4278799018
-0.045175083 0.035768304 0.022097472 4278733483
-0.043410264 0.036579669 0.020964198 4278668713
-0.041538961 0.036708452 0.020567615 4278734248
-0.040124491 0.039565794 0.017231036 4278602669
-0.037000179 0.043231051 0.012773075 4278271679
-0.030434094 0.03816409 0.017456058 4278799783
-0.028433681 0.037612267 0.017791688 4278472363
-0.026294775 0.036380075 0.01885723 4278603433
-0.024687558 0.037871256 0.016998675 4278341548
-0.023090847 0.039361771 0.01514239 4278603689
-0.021786638 0.042212203 0.011829683 4278668968
-0.019929014 0.042340875 0.011436631 4278668969
-0.01792492 0.041789733 0.011771805 4278472363
-0.015617304 0.039879605 0.013561194 4278341293
-0.01359687 0.039329745 0.013893024 4278799783
-0.01126226 0.037421674 0.01567677 4278734248
-0.0093825459 0.037552252 0.015279331 4278603434
-0.0075027123 0.037682913 0.014881921 4278800039
-0.0059475154 0.039171226 0.01303493 4278602668
-0.0027011819 0.04146748 0.010071461 4278732208
-0.00066391006 0.040919285 0.010400183 4279126439
0.0020710826 0.037659403 0.013618008 4278340019
0.010297872 0.020980459 0.030858267 4278471599
-0.05902382 0.038130675 0.018568497 4278669223
-0.05762098 0.041687466 0.014482965 4278668968
-0.055688076 0.041127834 0.014830499 4278273974
-0.047590353 0.036838621 0.018416218 4278405809
-0.04551544 0.03559687 0.019491483 4278603178
-0.043864623 0.037094712 0.017626394 4278931109
-0.042224243 0.038591862 0.015763611 4278537134
-0.040594302 0.0400884 0.013903045 4278340529
-0.038858093 0.040900126 0.012777607 4279060905
-0.037126981 0.041711569 0.011653301 4279782299
-0.035156809 0.041155227 0.011993487 4278339764
-0.032806784 0.038548581 0.014525915 4278733484
-0.030435205 0.035943501 0.017053839 4278602668
-0.028432384 0.035389621 0.017387267 4278930343
-0.026556827 0.035519198 0.016990166 4278603434
-0.025087461 0.037697367 0.014406559 4278603178
-0.017761067 0.038896829 0.012098611 4278667439
-0.015448771 0.036980432 0.01388201 4278472619
-0.013574746 0.037110433 0.013485636 4278472874
-0.011546444 0.036558986 0.01381418 4278668968
-0.0099831894 0.038052037 0.01196866 4278734758
-0.0084305033 0.039544474 0.010125388 4278537898
-0.0067262165 0.040355235 0.0090076542 4278734249
0.0050521083 0.031483751 0.01712358 4278406064
0.01105332 0.015979536 0.033277582 4278406064
-0.059150092 0.036605574 0.017444316 4278735013
-0.057656519 0.039485112 0.01410368 4278603689
-0.055906326 0.040299334 0.012976442 4278865318
-0.054065995 0.040425487 0.012586043 4278537644
-0.05212751 0.039864123 0.012930791 4278471854
-0.050082892 0.038615789 0.014008985 4278930853
-0.047924116 0.036680996 0.015818972 4278538154
-0.045960896 0.036121525 0.016158622 4278603433
-0.044534929 0.038996883 0.01283267 4278668714
-0.042796388 0.039810754 0.011708246 4278602923
-0.039218053 0.040751357 0.010194003 4278471088
-0.037492193 0.041564576 0.0090724314 4278995624
-0.030945629 0.0364611 0.013732784 4278668203
-0.028951094 0.035904378 0.014066321 4278865319
-0.027083658 0.036033362 0.013670911 4278537388
-0.025621854 0.038217552 0.011093794 4278602668
-0.015578181 0.035440892 0.012747698 4278930344
-0.013855569 0.036254779 0.011627496 4278668459
-0.011984199 0.036384646 0.011231718 4278603434
-0.010582667 0.038565271 0.0086678164 4278603689
-0.0090377294 0.04006147 0.0068295235 4278407083
-0.0073413812 0.040873878 0.0057150563 4278668968
-0.0054855943 0.041002974 0.0053228112 4278800039
-0.0034623481 0.040449314 0.0056510875 4278734504
-0.0014336742 0.03989616 0.0059782406 4278537898
0.0012912452 0.036613703 0.0091815898 4278406828
0.0052706152 0.028557424 0.017410662 4278406828
0.012341097 0.0089106746 0.037835471 4278406828
-0.05892808 0.032318547 0.019263495 4279455644
-0.057333492 0.034517184 0.016662262 4278538154
-0.055569865 0.035334453 0.015533791 4278866084
-0.053811312 0.036151469 0.014406388 4279062688
-0.051960163 0.036278367 0.014013697 4279062433
-0.050008342 0.035715699 0.01435401 4279193248
-0.048154004 0.035842959 0.013960754 4279062178
-0.046405159 0.036659572 0.01283561 4278865573
-0.044878185 0.038853996 0.010249116 4278800039
-0.043255933 0.040358566 0.0083966749 4278865319
-0.033435591 0.037552036 0.010086912 4278667949
-0.031327799 0.036304288 0.011148942 4278799784
-0.029468656 0.036432579 0.010755197 4278799784
-0.027741723 0.03724838 0.0096353004 4278668458
-0.024854444 0.04162734 0.0044986913 4278799783
-0.02315373 0.042441547 0.003384511 4279455899
-0.020885773 0.040508766 0.0051671872 4278995624
-0.018310092 0.037204206 0.0083931843 4278667438
-0.014287084 0.036089905 0.0090504894 4278864809
-0.012421153 0.036219358 0.0086558396 4278800038
-0.01086805 0.037720382 0.0068190554 4278341293
-0.0094846673 0.039906353 0.004263998 4278537134
-0.0012232102 0.036997974 0.0062887305 4278799783
0.0016785488 0.033020221 0.010200609 4278538154
0.0063643605 0.022200383 0.021277111 4278603689
-0.058533698 0.026628751 0.022538234 4279651994
-0.056833111 0.02814246 0.020672034 4278538408
-0.055050738 0.02896313 0.019541185 4278472619
-0.048177741 0.033626273 0.013567473 4278472619
-0.046531662 0.035136655 0.011713148 4278669223
-0.044896007 0.036646351 0.0098611349 4278669223
-0.043270804 0.038155392 0.008011383 4278996643
-0.041656077 0.039663833 0.00616387 4278996388
-0.039819367 0.039790168 0.0057745716 4278930853
-0.037744686 0.038535513 0.0068401033 4278930854
-0.035780698 0.037972044 0.0071765156 4278603944
-0.033811159 0.037409045 0.0075118179 4278734504
-0.031962968 0.037536472 0.0071203122 4278734503
-0.030244157 0.038353756 0.0060036862 4278668969
-0.028530493 0.039170787 0.00488823 4278799783
-0.023560829 0.04230924 0.00082585309 4278406064
-0.021298878 0.040369496 0.0026047546 4278274994
-0.015019685 0.03731066 0.0050389254 4278734249
-0.01316455 0.037439335 0.0046465369 4278668458
-0.011465583 0.038256045 0.0035347175 4278340274
-0.0010134429 0.034091193 0.0065929564 4278929834
0.0020647645 0.029413838 0.011210046 4278865318
0.0074555427 0.015812784 0.025121115 4278537898
-0.058314763 0.022302683 0.024328586 4279325083
-0.056603231 0.023821447 0.022463337 4278669989
-0.05471807 0.023950424 0.022063244 4278604453
-0.053116709 0.026162576 0.019470558 4278473128
-0.051336385 0.026985403 0.018341813 4278407593
-0.049761176 0.029195905 0.015754782 4278407339
-0.042732537 0.03248173 0.011260356 4278341804
-0.041101508 0.033995599 0.0094126547 4278603944
-0.039480932 0.035508782 0.0075672762 4278866084
-0.037514731 0.034943178 0.0079014832 4278931618
-0.03566438 0.035070546 0.0075093629 4278735269
-0.033813804 0.035198018 0.0071172612 4278931619
-0.032089762 0.036017735 0.006001099 4278931618
-0.030500226 0.037529171 0.0041625919 4278800294
-0.028789163 0.03834819 0.0030492544 4278930853
-0.027352706 0.040550113 0.0004923651 4278603178
-0.019293621 0.03760276 0.0025409721 4278471853
-0.017446883 0.037730668 0.0021502152 4278603178
-0.015750743 0.03854917 0.001040508 4278865318
-0.013906416 0.038677089 0.00065038819 4278799784
-0.010534924 0.040313102 -0.0015643667 4278602159
-0.0088570267 0.041130669 -0.0026699668 4278996643
-0.0068561397 0.040568806 -0.0023420854 4278865573
-0.0041826181 0.037249804 0.00084710866 4278864553
-0.0011433251 0.032554321 0.0054607941 4278471854
0.0027941987 0.024416458 0.013638924 4278471854
0.0085441582 0.0093947388 0.028942615 4278471854
-0.058270179 0.019353565 0.024644237 4279456409
-0.056642219 0.021573924 0.022050679 4278604198
-0.054938138 0.023096502 0.020190369 4278735268
-0.053149983 0.023921873 0.019061565 4278931873
-0.051464066 0.02544339 0.017205171 4278669733
-0.049688734 0.026268024 0.016079195 4278800803
-0.047918499 0.027092379 0.014954352 4278407593
-0.046048187 0.027220644 0.01455764 4278473128
-0.044069797 0.026653346 0.014887338 4278603943
-0.042417377 0.028172877 0.013038362 4278473129
-0.040549047 0.028301224 0.012642234 4278342059
-0.037048779 0.029948041 0.010401662 4278276524
-0.035306334 0.030771017 0.0092831096 4278276269
-0.033569038 0.031593714 0.0081657162 4278407594
-0.03183689 0.032416128 0.0070494646 4278473129
-0.030239098 0.033932492 0.0052124346 4278735269
-0.028519928 0.034754172 0.0040990571 4279062433
-0.026940465 0.036269389 0.0022660745 4279061923
-0.025371529 0.037784003 0.00043534208 4279192994
-0.023673229 0.038604476 -0.00067344029 4278996388
-0.021552473 0.037344925 0.0003761258 4279061923
-0.019711316 0.037472337 -1.3534911e-05 4278865573
-0.017870009 0.037599847 -0.00040315278 4278734759
-0.016480282 0.039805528 -0.0029448485 4278800038
-0.014646739 0.039932668 -0.0033327052 4278734504
0.0026620328 0.02285346 0.012487539 4278864809
0.0084077977 0.007783439 0.027755678 4278864809
-0.058226213 0.016395848 0.024953611 4279324574
-0.056592487 0.018623091 0.022363741 4278800549
-0.054882802 0.020150401 0.020505466 4278800549
-0.053183526 0.021677017 0.018649496 4278669733
-0.051300704 0.021805856 0.01824991 4278735268
-0.049417637 0.021934785 0.017850332 4278473128
-0.047534309 0.02206381 0.017450757 4278604198
-0.04565075 0.022192921 0.017051186 4278604198
-0.043659307 0.021624289 0.017376427 4278604453
-0.041993275 0.023149077 0.015527843 4278604453
-0.040111698 0.023278281 0.015128865 4278276779
-0.038461238 0.024802186 0.01328365 4278473383
-0.036702886 0.025628321 0.012163299 4278473383
-0.034949705 0.026454169 0.011044093 4278538918
-0.03307797 0.026583008 0.010647441 4278539174
-0.024812713 0.032795228 0.002915822 4278341804
-0.023100987 0.033618785 0.0018058261 4278735014
-0.021252066 0.033746619 0.0014144387 4279062688
-0.019402996 0.033874556 0.0010230867 4279062433
-0.017849207 0.035392731 -0.00080086663 4278997154
-0.016305983 0.036910299 -0.0026225625 4278734758
-0.014926367 0.039121889 -0.0051571005 4278931363
-0.013095479 0.039248899 -0.0055443509 4279193249
-0.011581287 0.040764704 -0.0073597142 4278930854
-0.0094333626 0.039503183 -0.0063187438 4278406319
-0.0074383952 0.038936503 -0.0059929555 4278340784
-0.0049387068 0.036288913 -0.0035311375 4278864299
-0.0019102544 0.031562127 0.0010615811 4278996134
0.0025299005 0.021290716 0.011336337 4278799784
0.0084459148 0.0054791607 0.027279582 4278799784
0.013245165 -0.0054724589 0.038226161 4278996388
0.015792709 -0.0074108467 0.039930649 4280892569
-0.058182903 0.013429653 0.025256634 4279324573
-0.056543373 0.015663769 0.022670459 4278931618
-0.054919563 0.017896846 0.020087723 4278997153
-0.053029075 0.018026091 0.01968642 4278735014
-0.051235162 0.018856216 0.018559631 4278735268
-0.049247369 0.018284839 0.018883824 4278538663
-0.047356151 0.018414337 0.018482525 4278931873
-0.045464672 0.018543944 0.018081237 4278800803
-0.043680467 0.019373711 0.016956739 4278669733
-0.042011485 0.020903006 0.015110797 4278604453
-0.040240146 0.021732006 0.013989191 4278669988
-0.038473934 0.022560727 0.012868724 4278735523
-0.036712855 0.023389217 0.011749364 4278604453
-0.034715258 0.022819124 0.012071948 4278669988
-0.032959111 0.023647446 0.010953763 4278604453
-0.031081945 0.023776699 0.010555985 4278473384
-0.029591076 0.026001744 0.0080022709 4278473384
-0.027721547 0.026130632 0.0076062372 4278407338
-0.026120201 0.027656049 0.0057751453 4278407338
-0.024392515 0.028482769 0.004663338 4278276524
-0.015831955 0.032612316 -0.00087827444 4278341804
-0.014288329 0.034134295 -0.0026966557 4278603688
-0.012755278 0.03565567 -0.0045127734 4278996899
-0.01107458 0.036479827 -0.0056141149 4278996643
-0.0089164451 0.035214677 -0.0045786672 4278931618
-0.0070746467 0.035342671 -0.004968056 4278996643
-0.0049002618 0.034078777 -0.0039358716 4278735014
-0.0017016195 0.028640967 0.0013551898 4278603689
0.0027409866 0.018336985 0.01160458 4278931364
0.0077866688 0.0059524141 0.023964252 4278734758
0.011336256 -0.00016821921 0.029927239 4279453604
-0.058226176 0.011158619 0.024827261 4281750644
-0.056583524 0.013399389 0.022245388 4279915408
-0.054865308 0.014935885 0.020391826 4279063453
-0.052969582 0.01506542 0.019989368 4279194778
-0.050976999 0.014492098 0.020310748 4278867359
-0.049177393 0.015324783 0.019184463 4278669733
-0.047484852 0.016859766 0.017336622 4278669733
-0.045593485 0.016989313 0.016935319 4278866084
-0.04370188 0.017118949 0.016534019 4278735269
-0.041920029 0.01795077 0.015411698 4278735268
-0.040143259 0.018782269 0.014290555 4278735268
-0.038371623 0.019613501 0.013170567 4278604453
-0.036487155 0.019742969 0.012771024 4278538918
-0.034602478 0.019872539 0.012371507 4278538918
-0.0327176 0.020002194 0.011972002 4278538918
-0.030958503 0.020832893 0.010854918 4278604453
-0.029333211 0.022364125 0.0090219071 4278538918
-0.027587101 0.023194093 0.0079076989 4278604453
-0.025980145 0.024724178 0.0060787415 4278473384
-0.024110384 0.024853222 0.0056827655 4278604453
-0.022379786 0.025682379 0.0045720367 4278342314
-0.020512372 0.025811434 0.0041766902 4278538663
-0.018644825 0.025940578 0.0037813764 4278538663
-0.016924478 0.026769325 0.0026729694 4278472873
-0.015209317 0.02759777 0.0015657851 4278407338
-0.013652079 0.029125027 -0.00025218725 4278407594
-0.008400958 0.030908823 -0.0028513046 4278604199
-0.0065485686 0.031037547 -0.0032429369 4278538664
-0.0043639727 0.029769983 -0.0022162376 4278866338
-0.00098750368 0.023617353 0.003768201 4279193759
0.0034655742 0.013281364 0.013990526 4279783064
0.0078248605 0.0036486872 0.023488544 4279914134
-0.05499389 0.013377409 0.019242927 4282078828
-0.053004511 0.012801554 0.019563235 4280767873
-0.051105961 0.01293131 0.019160192 4279719314
-0.049207181 0.013061166 0.018757164 4278998173
-0.047511704 0.014600668 0.016911969 4279128734
-0.045722209 0.015434936 0.015789565 4279063454
-0.0438307 0.015564512 0.015388249 4278932129
-0.042048752 0.016398471 0.014267527 4278735014
-0.04027193 0.017232101 0.013147983 4278735014
-0.038500205 0.018065479 0.012029602 4278931618
-0.036498055 0.017491218 0.012347736 4278800803
-0.034610808 0.017620925 0.011947646 4278538663
-0.032600261 0.017047394 0.012264117 4278801058
-0.03083574 0.017880607 0.011147513 4278669988
-0.029333293 0.020119455 0.0086012157 4278604453
-0.027453318 0.020248987 0.0082029076 4278866593
-0.025840767 0.021783829 0.0063760066 4278473384
-0.024102241 0.022615604 0.0052651735 4278669988
-0.0223689 0.023447085 0.0041554878 4278342314
-0.020498931 0.023576286 0.0037595741 4278604454
-0.018628813 0.023705583 0.003363695 4278669733
-0.016758546 0.023834974 0.0029678503 4278473384
-0.015037976 0.024665948 0.0018611541 4278473128
-0.013170116 0.02479535 0.001465952 4278604454
-0.011457324 0.025626007 0.00036098901 4278538918
-0.0094340444 0.025054466 0.0006756885 4278538408
-0.0075658411 0.025184173 0.00028062426 4278538919
-0.0058607385 0.026014555 -0.0008225115 4278473384
-0.0036632605 0.024743512 0.00019814167 4278473639
-0.00044375658 0.019272272 0.0054582478 4278473384
0.0036746897 0.010304067 0.014241328 4279455389
0.0075149536 0.0027404204 0.02159816 4279127458
-0.049237236 0.010793369 0.018326838 4282275434
-0.04195822 0.013433535 0.014559108 4280898434
-0.040063716 0.013563436 0.014157246 4279915664
-0.038398847 0.015105601 0.012322088 4279063453
-0.036509253 0.015235327 0.011921388 4278997409
-0.034739725 0.016070861 0.010805217 4278997153
-0.032606505 0.01478954 0.011835049 4278800804
-0.030964866 0.016330454 0.010005075 4278669733
-0.029205419 0.017165549 0.0088912258 4278538663
-0.02745115 0.018000372 0.0077785486 4278866338
-0.025568418 0.01813015 0.0073797042 4278604198
-0.023821808 0.018964626 0.0062687853 4278604198
-0.022080392 0.019798871 0.0051589897 4278473128
-0.020344153 0.020632807 0.0040503955 4278538663
-0.018468797 0.020762429 0.003653382 4278669733
-0.016593307 0.020892158 0.0032564132 4278407849
-0.014867328 0.021725647 0.0021501947 4278538918
-0.013146557 0.022558875 0.0010451572 4278669988
-0.011276022 0.022688534 0.00064943917 4278407849
-0.0092477016 0.02211519 0.00096135959 4278407849
-0.007374268 0.022245232 0.00056517217 4278604453
-0.0055007227 0.022375375 0.00016903132 4278735523
-0.0031300299 0.020397935 0.0018906705 4278670243
9.8567456e-05 0.014909852 0.0071355915 4278997919
0.0038831271 0.007318221 0.014485893 4278997919
0.0072054416 0.0018368736 0.01971117 4280569228
-0.038412891 0.012845423 0.011893312 4281948269
-0.036638156 0.013683405 0.010777547 4281292153
-0.034748457 0.01381319 0.010376864 4279326104
-0.032858565 0.01394308 0.009976211 4279391383
-0.030843042 0.013365496 0.010288374 4279325339
-0.0290782 0.01420315 0.0091749718 4278866084
-0.027318515 0.015040491 0.0080627734 4278997153
-0.025563985 0.015877556 0.0069517298 4278538663
-0.023814641 0.016714372 0.0058418652 4278538663
-0.022070475 0.017550912 0.0047331555 4278538663
-0.020472959 0.019093633 0.0029162075 4278604198
-0.018741846 0.019929457 0.0018104035 4278669733
-0.016869135 0.02005896 0.0014139991 4278538663
-0.01499629 0.020188577 0.0010176403 4278473384
-0.013123307 0.020318292 0.00062132347 4278538918
-0.011250217 0.020448107 0.00022505224 4278538918
-0.0092195272 0.019872718 0.00053479243 4278342314
-0.0073435381 0.020002916 0.00013804622 4278604453
-0.0056302659 0.020838153 -0.00096348487 4278669988
-0.0034257472 0.019558884 4.8993155e-05 4278801568
-0.00020141155 0.014053017 0.0052816132 4279063198
0.0035783127 0.0064370558 0.012614728 4279128733
-0.02529335 0.012202494 0.007939647 4281026953
-0.023671865 0.013751011 0.0061207647 4280241808
-0.021783687 0.013881292 0.0057208603 4279391128
-0.020036615 0.014720269 0.0046132384 4279128224
-0.018294759 0.01555898 0.0035067871 4279062178
-0.016411483 0.015689198 0.0031081317 4279062688
-0.014677338 0.016527563 0.0020034611 4278800294
-0.012948431 0.017365709 0.00089992583 4278800294
-0.011070117 0.017495863 0.00050253328 4278538918
-0.0091916732 0.017626114 0.00010517891 4278801058
-0.0073131323 0.017756473 -0.00029211957 4278538918
-0.005597122 0.018594064 -0.0013925917 4278538918
-0.0032250918 0.016603589 0.00031880382 4278604963
2.9876828e-06 0.011080526 0.0055373861 4278997664
0.0034445748 0.0048539713 0.011448515 4279391129
-0.021221094 0.0087767877 0.008112506 4282860149
-0.019742779 0.011040434 0.0055914028 4281550214
-0.017992847 0.011881899 0.0044848388 4280109464
-0.016394518 0.013433482 0.002674479 4279848599
-0.014508553 0.013563953 0.0022753039 4279258528
-0.012622464 0.013694528 0.0018761726 4279455133
-0.010736238 0.013825212 0.0014770934 4279194524
-0.0088499077 0.013955992 0.001078059 4278932128
-0.0074428283 0.016215432 -0.0014274921 4278670498
-0.0057267547 0.017055191 -0.0025263354 4278867104
-0.0035205334 0.015767243 -0.0015208181 4278931618
-0.00046453252 0.010935418 0.0029848954 4279783829
0.0027994439 0.0053975023 0.0081827203 4282271098
-0.0086661354 0.010984916 0.001340271 4281616769
-0.0070936717 0.012539532 -0.00046095159 4280830859
-0.005207248 0.012670502 -0.00085987244 4280176019
-0.0029908419 0.011378933 0.00014012866 4279521178
-0.00026079267 0.0079547167 0.003234609 4279521434
-0.0026273318 0.007686846 0.0010905936 4282074493
-0.00039262325 0.0063922256 0.0020835241 4281027464
-0.02851022 -0.026182964 0.005313349 4280114563
-0.026821427 -0.024565183 0.0035293335 4279395208
-0.028642356 -0.027776212 0.004138994 4279325593
-0.026953325 -0.026154101 0.0023582065 4278866594
-0.025274806 -0.024532542 0.00057969335 4279063198
-0.023473784 -0.023655646 -0.00051340181 4278801314
-0.021542281 -0.023522794 -0.0009228019 4279391639
-0.019610614 -0.023389816 -0.0013321443 4279393169
-0.017960846 -0.021769851 -0.0031041885 4279917704
-0.01603426 -0.021637008 -0.0035122903 4281358964
-0.029374756 -0.037718512 0.010898299 4282667369
-0.028649598 -0.030115888 0.0036480073 4279455898
-0.027085178 -0.027742699 0.0011873022 4278931873
-0.025406435 -0.026116818 -0.00058798026 4278866338
-0.023472548 -0.025983945 -0.00099798758 4278800803
-0.021538496 -0.025850937 -0.0014079409 4278997409
-0.019604318 -0.02571781 -0.0018178346 4279194268
-0.017951667 -0.0240933 -0.003587204 4279588244
-0.016022541 -0.023960292 -0.0039958498 4279457173
-0.013947122 -0.024572417 -0.0037258053 4280374663
-0.011866249 -0.025184073 -0.0034568394 4281488249
-0.028781816 -0.031710722 0.0024724677 4279259804
-0.027344294 -0.028582238 -0.00066441298 4279062943
-0.025538012 -0.027700782 -0.0017554387 4278932128
-0.023604266 -0.027567938 -0.0021654367 4278735523
-0.021535054 -0.028183132 -0.0018960796 4278538918
-0.019460358 -0.028797895 -0.0016277563 4278997663
-0.017802134 -0.027168646 -0.0033950713 4279259804
-0.015867829 -0.027035281 -0.003804828 4279063453
-0.013933383 -0.026901811 -0.0042145303 4279325338
-0.011998825 -0.026768208 -0.0046241707 4279587734
-0.010064147 -0.026634499 -0.0050337478 4279915409
-0.0082833394 -0.025753751 -0.0061185784 4280177549
-0.0063511208 -0.025619946 -0.006527442 4280373643
-0.0047374591 -0.023992993 -0.0082846498 4280572034
-0.0028103851 -0.023859322 -0.0086922543 4280965243
-0.0010479093 -0.022979334 -0.0097728977 4282537064
-0.028789498 -0.034056365 0.001977073 4279128733
-0.027348727 -0.03091903 -0.0011538807 4278867104
-0.025539741 -0.030035198 -0.0022438876 4278866593
-0.02347099 -0.030652776 -0.0019761454 4278801058
-0.021396764 -0.031269826 -0.0017095171 4278735523
-0.019317068 -0.031886369 -0.0014439616 4278669988
-0.017512828 -0.031002447 -0.0025325697 4278997663
-0.015713789 -0.030118763 -0.0036199894 4279128733
-0.013774157 -0.029984951 -0.0040308032 4279194268
-0.011982877 -0.029101513 -0.005116438 4279456663
-0.010347955 -0.027469113 -0.0068751327 4279653779
-0.0085697807 -0.026586398 -0.0079577696 4279652759
-0.0066403784 -0.026452795 -0.0083660465 4279455898
-0.0048700161 -0.025570393 -0.0094468603 4279784849
-0.0029430948 -0.025436737 -0.0098544331 4280308873
-0.0011805817 -0.02455458 -0.010933437 4280898688
0.00057668984 -0.0236727 -0.012011197 4281095293
0.0023286827 -0.02279108 -0.013087758 4281554294
0.0044203885 -0.023405261 -0.012823575 4282209133
-0.028424665 -0.03866595 0.0035137115 4280242574
-0.027099587 -0.034766033 -0.00029085949 4278801569
-0.025152951 -0.034632459 -0.00070370361 4278932128
-0.023338422 -0.033746004 -0.0017931145 4278801058
-0.021394126 -0.033612341 -0.002205275 4278669988
-0.019312091 -0.034230925 -0.0019418765 4278604453
-0.01736486 -0.034096844 -0.0023544934 4279063198
-0.015560441 -0.03321062 -0.0034414139 4279194268
-0.013906859 -0.031572849 -0.005200943 4279325339
-0.012263834 -0.029935628 -0.0069581959 4279325338
-0.01032944 -0.02980195 -0.0073677246 4279390618
-0.0085485727 -0.028916888 -0.0084492993 4279128733
-0.0066166446 -0.028783135 -0.0088581312 4279063198
-0.0050025433 -0.027147479 -0.010608843 4279128733
-0.0030757636 -0.027013846 -0.011016397 4279521944
-0.0011489093 -0.026880071 -0.011423869 4279390618
0.00077802688 -0.026746191 -0.011831273 4279587478
0.0025353841 -0.025861979 -0.012907357 4279456919
0.0044597872 -0.025728017 -0.013314039 4279128733
0.0062092766 -0.024844162 -0.014388242 4279063198
0.0079534762 -0.023960546 -0.015461226 4279259804
0.0096923858 -0.023077182 -0.01653301 4280111503
0.011791956 -0.023692504 -0.016271759 4279980433
0.013525605 -0.02280923 -0.017342228 4279326614
0.015253916 -0.021926209 -0.018411536 4279458704
0.017167928 -0.021792106 -0.018815365 4279721863
-0.027937114 -0.04404816 0.0057143932 4281356668
-0.026597947 -0.040136442 0.0019150646 4279587733
-0.02476754 -0.039246872 0.0008238228 4279783828
-0.022942305 -0.038357556 -0.00026623067 4279325339
-0.021122269 -0.037468471 -0.0013550986 4279259803
-0.019169979 -0.037334152 -0.001768874 4278538918
-0.01735767 -0.036445305 -0.0028559621 4278866848
-0.015550561 -0.035556749 -0.0039418172 4278997918
-0.013894085 -0.033914439 -0.005698679 4278867103
-0.01224817 -0.032272682 -0.0074532423 4279259548
-0.010612801 -0.030631594 -0.0092054512 4279325083
-0.0086811259 -0.030497991 -0.0096143316 4278997408
-0.0069054551 -0.029611006 -0.01069306 4279194268
-0.004976254 -0.029477343 -0.011101237 4279194269
-0.0030469559 -0.029343531 -0.011509331 4279128734
-0.0009534657 -0.029962294 -0.011249097 4278932383
0.00097865611 -0.029828072 -0.011657612 4279325339
0.0027413927 -0.028941363 -0.012733152 4279128733
0.0044988655 -0.028054908 -0.013807485 4278932639
0.0062510446 -0.027168646 -0.014880644 4278669988
0.0079979487 -0.026282676 -0.015952559 4278800803
0.0097395591 -0.025396958 -0.01702326 4278997153
0.011841461 -0.026014276 -0.016764158 4279062944
0.013577808 -0.025128663 -0.017833548 4279063708
0.015308842 -0.024243325 -0.018901747 4278933149
0.017225364 -0.024109036 -0.019306101 4278933659
0.018948415 -0.023223951 -0.020372458 4279261079
0.020862287 -0.023089625 -0.020776074 4279261333
0.022577353 -0.022204876 -0.021840505 4279786634
-0.025718316 -0.047800839 0.0061287666 4282798694
-0.023995779 -0.046150357 0.0043606656 4281946739
-0.022151865 -0.045257539 0.0032682428 4281421694
-0.020447694 -0.043608092 0.0015042024 4280177040
-0.018754058 -0.041959256 -0.00025751349 4279129499
-0.01693105 -0.041067526 -0.0013452349 4278932894
-0.015398405 -0.038663343 -0.0037740311 4279194268
-0.013736375 -0.037016265 -0.0055288174 4279128733
-0.011936978 -0.036125854 -0.0066112154 4279128733
-0.010293394 -0.034479842 -0.008361863 4279259803
-0.0083538592 -0.034345701 -0.0087724049 4278801059
-0.0065701641 -0.033455968 -0.0098512527 4278866593
-0.00463311 -0.033321753 -0.010261083 4279194269
-0.0028572194 -0.032432348 -0.01133805 4279128734
-0.00092265755 -0.032298058 -0.011747161 4279063198
0.0010119826 -0.032163665 -0.012156224 4279194269
0.0029466897 -0.032029122 -0.012565179 4278997663
0.0045375973 -0.030385792 -0.014303947 4278604453
0.0062924847 -0.029497229 -0.015376 4278735523
0.0080420785 -0.028608873 -0.016446887 4278801058
0.0099663362 -0.02847454 -0.016853249 4278932128
0.012073249 -0.029093727 -0.016596803 4278604453
0.013814952 -0.028205566 -0.017665749 4278866593
0.015551362 -0.027317658 -0.018733421 4278997918
0.017282452 -0.026429996 -0.019799866 4278735778
0.019201498 -0.026295424 -0.020204671 4278735523
0.020924604 -0.025408074 -0.021269258 4278735523
0.022642361 -0.024520934 -0.022332653 4278800803
0.024958678 -0.025890946 -0.021418501 4278604708
0.0281015 -0.030268461 -0.017873792 4279195034
0.03251614 -0.039155051 -0.010389916 4279589009
0.036366902 -0.045781836 -0.0048906426 4281816688
-0.013434276 -0.040884927 -0.0046961522 4283253358
-0.011774603 -0.03923358 -0.0064470717 4281486208
-0.010125466 -0.037582874 -0.0081956107 4280896393
-0.0083338208 -0.03669057 -0.0092745442 4279848598
-0.0065474138 -0.035798535 -0.010352278 4279914134
-0.0044494309 -0.036421612 -0.010096507 4279390363
-0.0026681721 -0.035529658 -0.01117296 4279259548
-0.00072842836 -0.035395026 -0.011583177 4279194268
0.0010449737 -0.034503333 -0.012657823 4278998174
0.002813112 -0.033611923 -0.013731221 4278998174
0.0044042356 -0.031964257 -0.015466748 4278669733
0.0059847347 -0.030317135 -0.017199965 4278735523
0.0080858804 -0.030939169 -0.016944161 4278866593
0.010012653 -0.030804679 -0.017351059 4278866593
0.012121886 -0.031425849 -0.017096812 4278604453
0.013681196 -0.029779717 -0.018825183 4279063198
0.015417635 -0.028889634 -0.019891212 4278932639
0.017339189 -0.028755002 -0.020296624 4278735523
0.019260753 -0.028620265 -0.020701969 4278669988
0.020986561 -0.027730554 -0.021765472 4278473383
0.022707028 -0.026841104 -0.022827759 4278866593
0.025226582 -0.028969727 -0.021260263 4278604453
0.028577253 -0.034114264 -0.017069658 4279128478
0.03361683 -0.045288764 -0.0076386807 4279457173
-0.005902756 -0.041184396 -0.008195865 4282139264
-0.0039499961 -0.041049115 -0.0086090369 4281354373
-0.0023189411 -0.039394788 -0.010350137 4280176784
-0.00053490698 -0.038500369 -0.01142545 4279718293
0.0010776371 -0.036847115 -0.013162391 4279521944
0.0028484762 -0.035953306 -0.014234757 4279259804
0.0046140403 -0.035059795 -0.015305879 4278538663
0.0062001012 -0.033408016 -0.017036939 4278801058
0.0083062351 -0.034031816 -0.01678388 4278604453
0.010058619 -0.033138826 -0.017851913 4278866338
0.012170181 -0.033762001 -0.017599801 4278997408
0.013547469 -0.031353578 -0.0199844 4279128734
0.015471514 -0.031218901 -0.020390442 4278932128
0.017205339 -0.030326709 -0.021454176 4278932128
0.019319661 -0.030949183 -0.021202264 4278866593
0.02104817 -0.030057095 -0.022264672 4278342314
0.022969592 -0.02992212 -0.022669794 4278866338
0.025292855 -0.031300329 -0.021763707 4278538918
0.029255498 -0.03872934 -0.01561998 4278866084
0.034302786 -0.04993581 -0.0062153148 4279718294
0.0048231557 -0.038163796 -0.01515116 4281224069
0.006588798 -0.037267946 -0.016220601 4280765578
0.008349169 -0.036372364 -0.017288776 4279783064
0.010104246 -0.035477027 -0.018355744 4279586458
0.012218136 -0.036102191 -0.018105762 4279259549
0.013967946 -0.035206988 -0.019171434 4279062943
0.015712451 -0.03431201 -0.020235868 4278735523
0.017261568 -0.032657661 -0.021955317 4278669988
0.018992767 -0.031763375 -0.023016764 4278408359
0.020914037 -0.031628504 -0.023421926 4278604453
0.022835303 -0.031493522 -0.023827 4278800293
0.02535877 -0.033634946 -0.022270175 4278604454
0.029322056 -0.041085586 -0.016143043 4278866593
0.034369048 -0.052324638 -0.0067630224 4280374154
0.0090978965 -0.041767791 -0.01516712 4283187314
0.010687139 -0.040106848 -0.016892074 4282009213
0.013175096 -0.042258114 -0.015333417 4281093254
0.015310027 -0.042883918 -0.015089403 4279653268
0.017263114 -0.042747214 -0.015501573 4279260059
0.018456716 -0.039563313 -0.018531969 4278866084
0.020014074 -0.037903912 -0.020249747 4279062943
0.021560771 -0.036245197 -0.021965155 4278735523
0.0230968 -0.034587085 -0.023678204 4278801058
0.025424333 -0.035973616 -0.022779638 4278801058
0.0297947 -0.044967607 -0.015365566 4278932128
0.021610245 -0.04636164 -0.015544563 4282143344
0.023181165 -0.044696882 -0.017261792 4281291643
0.024543723 -0.042269304 -0.019627966 4279980944
0.026491353 -0.042132363 -0.020038512 4279260569
0.03006321 -0.048099346 -0.015247669 4279456919
0.034089126 -0.055588827 -0.0091665611 4281619828
0.028156681 -0.05061309 -0.015369069 4282797928
0.031142365 -0.054300264 -0.012541775 4282339694
0.048249207 0.00061587244 0.018205497 4285228588
0.049074564 0.0042349212 0.014319775 4285557538
0.051967498 0.0015910603 0.016680542 4285819933
-0.05675289 0.0095661767 0.020663649 4285098284
-0.054849632 0.0096960403 0.020259447 4284966448
0.043793362 0.012261555 0.0038463185 4285754909
0.045258306 0.013793796 0.0020565111 4285689374
0.047642551 0.012533911 0.0030362271 4285689118
0.050978169 0.0084841475 0.0067787645 4285951514
0.055535108 0.00094924867 0.013968087 4286082839
-0.05652944 0.0051613525 0.022393037 4285426213
-0.054615602 0.0052918829 0.021986548 4285492259
-0.052794918 0.006132286 0.020860482 4285361189
-0.051075406 0.0076818727 0.019016597 4285229863
-0.049168825 0.0078121535 0.01861183 4285295654
-0.0473634 0.0086516924 0.017489217 4285295909
-0.045459017 0.0087819807 0.017085038 4285098794
-0.043767877 0.01033001 0.015247389 4285032749
0.041059889 0.012648299 0.0010131858 4285689373
0.042295516 0.01488509 -0.0014641806 4286018068
0.043515012 0.017120879 -0.003938132 4285754909
0.045183066 0.017955467 -0.005028212 4285623329
0.047785703 0.015990265 -0.003358555 4285623839
0.05206801 0.0091284961 0.0031312574 4285689884
0.055442274 0.0050686076 0.0068559023 4285624603
0.058362458 0.0024096742 0.0091980277 4285559069
0.060321119 0.0025488287 0.0087862397 4285493533
0.061037838 0.0061827078 0.004940466 4285493533
0.062229771 0.0084173121 0.0024728999 4285689373
0.06442038 0.0078566559 0.0027515832 4285886233
0.069180004 0.00031287223 0.0098806238 4286017049
-0.05639524 0.0014515482 0.023390558 4285426468
-0.054473504 0.001582589 0.022982363 4285361188
-0.052737974 0.0031375065 0.021138292 4285360933
-0.051012874 0.0046918504 0.019296456 4285361189
-0.049101055 0.0048224293 0.018890537 4285493023
-0.047290228 0.0056644641 0.017768387 4285492769
-0.045380585 0.0057950653 0.017363064 4285295654
-0.043683879 0.007347744 0.015527544 4285295654
-0.041779116 0.0074781813 0.015123378 4285230119
-0.040097952 0.0090299994 0.013291239 4285098794
0.039804019 0.014590137 -0.0035957452 4285624349
0.04079992 0.017535239 -0.006755156 4285886743
0.042233311 0.019074 -0.0085316757 4285952534
0.043888073 0.019909844 -0.0096172923 4285887253
0.046946287 0.01653301 -0.0065736207 4285886998
0.050743602 0.011052497 -0.0014731139 4285821719
0.05386309 0.0076802075 0.0015578289 4285624349
0.055795036 0.0078173839 0.0011515971 4285558814
0.057235844 0.0093573034 -0.00062608533 4285624348
0.057921339 0.01299987 -0.0044570132 4285821209
0.059332527 0.014537834 -0.0062282733 4285689373
0.061746959 0.013272196 -0.0052609048 4285558048
0.065452904 0.008504618 -0.00087804161 4285623328
0.069196068 0.0037398301 0.0034970297 4285754908
-0.056349754 -0.0015566945 0.023661166 4285294889
-0.054603577 3.2261014e-06 0.021818001 4285426978
-0.05277472 0.00084839016 0.02069347 4285492513
-0.051046699 0.0024071783 0.018854316 4285492514
-0.049033932 0.0018241704 0.019163009 4285492513
-0.04711663 0.001955159 0.01875595 4285492513
-0.045302823 0.0027996115 0.017634857 4285492768
-0.043706886 0.0050702058 0.015087889 4285492513
-0.041799583 0.0052007772 0.014683151 4285492513
-0.040115483 0.0067570843 0.01285372 4285361188
-0.038098693 0.0061748512 0.013161934 4285492003
-0.036427513 0.0077304803 0.011335329 4285360934
-0.034527369 0.007860899 0.010932366 4285360678
-0.03238222 0.0065672211 0.011949669 4285163563
0.037766688 0.012894638 -0.0043444224 4285558304
0.038773976 0.015849181 -0.0074996757 4285558814
0.040213045 0.01739262 -0.0092741465 4285624094
0.041412055 0.019640066 -0.011733836 4285689884
0.043522786 0.019068625 -0.011442163 4285755418
0.046577264 0.015680656 -0.0084059518 4285755674
0.04989567 0.011590593 -0.004689455 4285558558
0.052286163 0.010318436 -0.0037207082 4285624349
0.054444611 0.009750776 -0.0034387689 4285624349
0.055872325 0.011294138 -0.0052103773 4285624349
0.057041273 0.013540089 -0.0076631787 4285821463
0.058194049 0.015785038 -0.010112552 4285952278
0.06034397 0.015217207 -0.0098285694 4285755164
0.063523114 0.011838846 -0.0068179965 4285689628
0.066987477 0.0077599026 -0.0031315405 4285755673
-0.056479983 -0.0031401142 0.022493765 4285294888
-0.054553129 -0.0030088425 0.0220844 4285427233
-0.052904628 -0.00072857738 0.019530877 4285492513
-0.050985262 -0.00059766322 0.019123223 4285492513
-0.048967436 -0.0011825636 0.019429147 4285558303
-0.047044933 -0.0010512546 0.019020952 4285558304
-0.045225717 -0.00020428747 0.017900337 4285558304
-0.043624014 0.0020731874 0.015357063 4285558304
-0.041711479 0.0022040568 0.014951176 4285558304
-0.039910257 0.0030500479 0.013834569 4285492513
-0.037999943 0.0031809621 0.013429296 4285492258
-0.036206298 0.0040266104 0.012314436 4285426468
-0.034417801 0.0048719905 0.011200729 4285426724
-0.032145597 0.0028600134 0.012922094 4285360169
0.036969297 0.013456039 -0.007556356 4285558559
0.038192946 0.015711587 -0.010016402 4285624349
0.039400496 0.017966092 -0.012472986 4285689373
0.041279215 0.018099047 -0.012868362 4285689374
0.04385316 0.01611216 -0.011207583 4285623838
0.046911921 0.012713604 -0.0081805401 4285624094
0.049760204 0.010023303 -0.0058432277 4285624349
0.051910419 0.0094528422 -0.0055613145 4285558814
0.053823423 0.0095887259 -0.0059635248 4285624349
0.05524607 0.011136077 -0.0077306889 4285624349
0.056162324 0.014093772 -0.010859501 4285689883
0.057307541 0.016344737 -0.013302305 4285952788
0.059449147 0.015774161 -0.013018211 4285821464
0.062363397 0.013089221 -0.010694252 4285821718
0.066591255 0.0068821907 -0.0049760123 4285690138
-0.056173325 -0.0083174706 0.024897717 4285228844
-0.054503322 -0.0060293525 0.022344485 4285360933
-0.052849054 -0.0037422627 0.019794703 4285492259
-0.051019825 -0.0028927028 0.018673327 4285426979
-0.048999622 -0.0034797043 0.018977106 4285426978
-0.047074541 -0.003348276 0.01856833 4285558304
-0.045252606 -0.0024989471 0.017448708 4285558559
-0.043647796 -0.00021480024 0.014909745 4285558304
-0.041732699 -8.3789229e-05 0.01450329 4285558048
-0.03981737 4.7326088e-05 0.014096848 4285558303
-0.037901856 0.00017853081 0.01369043 4285558049
-0.036102816 0.0010267384 0.012576007 4285558049
-0.034308903 0.0018746369 0.011462781 4285492259
-0.032154053 0.00057284534 0.012471351 4285491749
0.036393918 0.013321336 -0.010072453 4285558558
0.037389107 0.016292479 -0.013211912 4285821209
0.039267778 0.016425345 -0.013607341 4285886999
0.041604195 0.015140232 -0.012634065 4286018324
0.044414368 0.012438335 -0.010295484 4285952533
0.04677733 0.011155352 -0.0093276836 4285624093
0.049387816 0.0091647282 -0.0076793879 4285624349
0.051055878 0.010008417 -0.0087625664 4285624860
0.052960746 0.010143742 -0.0091630518 4285624348
0.054130699 0.012402833 -0.011606228 4285558559
0.055532109 0.013953205 -0.013365567 4285624094
0.056922726 0.015502844 -0.015122529 4285558303
0.059314303 0.014222592 -0.014160216 4285623839
0.06222767 0.011528909 -0.011842659 4285558558
0.066970289 0.0038882904 -0.0047826213 4285558814
-0.05223906 -0.011088416 0.024321102 4285228844
-0.050578773 -0.0087943524 0.021775018 4285360678
-0.048738569 -0.0079418123 0.020653006 4285360933
-0.047104456 -0.0056493431 0.018112626 4285427234
-0.045382954 -0.0040777847 0.016284812 4285493024
-0.043671869 -0.0025068671 0.014459339 4285558304
-0.041754209 -0.0023757219 0.014052312 4285558303
-0.03972517 -0.0029638633 0.014352811 4285558304
-0.0380321 -0.0013939068 0.012531369 4285558048
-0.036116481 -0.0012626201 0.012124975 4285558049
-0.034439027 0.00030647963 0.010306931 4285492258
-0.032162793 -0.0017184094 0.012017514 4285557538
0.034936521 0.016042765 -0.015319342 4285624093
0.036586422 0.016886741 -0.0163975 4285623584
0.03868299 0.016307652 -0.016107969 4285623329
0.041242272 0.014306583 -0.014454078 4285755164
0.043817498 0.012306795 -0.012803508 4285821209
0.046408683 0.010308199 -0.011156173 4285689628
0.04877907 0.0090215057 -0.010193143 4285624349
0.050920662 0.008446075 -0.0099126529 4285559068
0.05234126 0.010001972 -0.011672867 4285624604
0.053506315 0.012267273 -0.014110032 4285624348
0.054655254 0.014531475 -0.016543699 4285755674
0.056788363 0.013955895 -0.016261157 4285821209
0.05917944 0.012671281 -0.015302021 4285689628
0.062347371 0.0092595145 -0.012313763 4285558558
0.06760662 0.00017680228 -0.0039190268 4285558814
-0.043484904 -0.0062469691 0.01542 4285229609
-0.041559368 -0.0061153322 0.015011261 4285361189
-0.039633594 -0.0059835613 0.014602552 4285426979
-0.038162299 -0.0029661059 0.01137248 4285426979
-0.036363125 -0.0021136105 0.010261276 4285427233
-0.034569077 -0.0012614131 0.0091512771 4285492768
-0.032293521 -0.0032929182 0.010857017 4285492258
0.033149082 0.013660487 -0.015372401 4285623839
0.033922408 0.017362833 -0.019181164 4286018323
0.035561681 0.018208254 -0.02025542 4285689374
0.037647255 0.017626222 -0.019965217 4285558048
0.040423676 0.014904436 -0.01763282 4285558048
0.042759001 0.013610709 -0.016665867 4285755418
0.045104943 0.012317799 -0.015701026 4285689628
0.04769801 0.010312974 -0.01405899 4285624349
0.049828604 0.0097346008 -0.01377783 4285558813
0.051480647 0.010581687 -0.014854267 4285624604
0.052393604 0.013565224 -0.017962517 4285690138
0.054026734 0.014411163 -0.019034838 4285886998
0.056404103 0.013121098 -0.018076137 4285952789
0.059297152 0.010408521 -0.015767559 4285953044
0.062466666 0.0069860443 -0.012787925 4285755673
0.067983903 -0.002836287 -0.0037397398 4285624604
-0.041581824 -0.0084198341 0.014550987 4284903209
-0.039764322 -0.0075641796 0.013437415 4285165349
-0.038065434 -0.0059851557 0.011621245 4285296164
-0.036260866 -0.0051302016 0.010510555 4285361954
-0.034580253 -0.0035522357 0.0086984066 4285427233
