# .PCD v0.7 - Point Cloud Data file format
VERSION 0.7
FIELDS x y z rgba
SIZE 4 4 4 4
TYPE F F F U
COUNT 1 1 1 1
WIDTH 978
HEIGHT 1
VIEWPOINT 0 0 0 1 0 0 0
POINTS 978
DATA ascii
-0.017668959 -0.034934513 -0.020334588 4281759314
-0.025864106 -0.034632511 -0.022119405 4282477138
-0.024045322 -0.033746228 -0.023124371 4282217293
-0.021659661 -0.036724798 -0.020824598 4281891403
-0.019369531 -0.038929172 -0.019188879 4281432659
-0.018664096 -0.045922242 -0.015763175 4282870349
-0.0082030892 0.030680016 0.020475026 4279519649
-0.01255922 0.030954357 0.017811697 4281421438
-0.012083847 0.038631897 0.0095200269 4278667438
-0.0083028339 0.03885629 0.0088488432 4278271934
-0.015472773 0.034117982 0.011924802 4278930854
-0.013113678 0.041930899 0.0033170143 4278666673
-0.011376038 0.042731568 0.0022640424 4279061414
-0.0092340037 0.041463554 0.0033727149 4279126694
-0.006106399 0.035371125 0.0095174862 4279060393
-0.0027882867 0.028592523 0.016372934 4278995369
0.00058377162 0.021817219 0.023218874 4278471343
0.0035677962 0.017111648 0.027900491 4279258783
0.0071896613 0.0096537881 0.035446655 4279717528
0.010718133 0.0028880313 0.042265028 4282536299
-0.021521609 0.033628397 0.010332673 4282667369
-0.019987274 0.035818208 0.0078316452 4279979413
-0.018346027 0.037314683 0.0060544992 4278865319
-0.016589817 0.038118362 0.0049997075 4278734248
-0.014967166 0.039613884 0.0032259794 4278406064
-0.0019880645 0.031987552 0.009835274 4278734248
6.5952539e-05 0.031409997 0.010213696 4278668969
0.0024251305 0.029451232 0.01202348 4279127203
0.0054107383 0.024730723 0.016693216 4281615239
0.009210337 0.016559988 0.024932295 4281418124
-0.024101283 0.035458803 0.0059079053 4281618809
-0.023041669 0.040434472 0.00053172279 4278469049
-0.020938855 0.039154977 0.0016402183 4278797234
-0.017076932 0.038681477 0.0016952101 4278799528
-0.015334006 0.039486591 0.00064449012 4278537898
-0.013596337 0.040291436 -0.00040518679 4278733738
-0.011863947 0.041096054 -0.0014538588 4278601903
-0.0074425563 0.037848957 0.0014667399 4278340018
-0.0049991049 0.035186462 0.0039974442 4278864808
-0.0029669739 0.034605399 0.0043779658 4278537388
-0.0015174076 0.036797419 0.0018976452 4278668458
0.002552554 0.035636023 0.0026579881 4278731189
0.0061465576 0.028128922 0.010172383 4280237729
0.010588769 0.017162707 0.02124178 4281678988
-0.026092831 0.0338258 0.0050928229 4278864808
-0.02501351 0.0388177 -0.00027523935 4278273719
-0.01731246 0.03786467 -0.00016497076 4278929833
-0.015572153 0.038671736 -0.0012135226 4278733483
-0.013706427 0.038782254 -0.0015448732 4278799273
-0.011840604 0.038892865 -0.0018761791 4278799528
-0.0099746734 0.03900357 -0.0022074338 4278734248
-0.0076923557 0.037026815 -0.00039429218 4278734249
-0.0055352561 0.03574682 0.00070169661 4278930343
-0.0035114661 0.035163023 0.0010820488 4278667949
-0.0023633167 0.03875187 -0.0028186524 4278798764
0.011791531 0.018472441 0.01685328 4280567444
0.015045578 0.013033804 0.022191629 4283120758
-0.029858347 0.031382553 0.0053313533 4281357433
-0.028519969 0.034992285 0.0014043655 4278734503
-0.025809076 0.041507836 -0.005717718 4278994858
-0.024197076 0.043015379 -0.007479873 4278996389
-0.021996859 0.04102667 -0.0056576179 4279585184
-0.019780364 0.039039005 -0.0038381927 4278797999
-0.015809931 0.037861466 -0.0030680755 4278734249
-0.01407754 0.038670298 -0.0041135037 4278472108
-0.012217198 0.038780555 -0.004443856 4278406828
-0.010220844 0.038192738 -0.0040605515 4278472363
-0.0079417974 0.03620927 -0.0022518551 4278734248
-0.0060704201 0.036320448 -0.0025839647 4278406828
-0.0032075793 0.040728301 -0.0075182868 4278601904
-0.0015015341 0.041536149 -0.0085585881 4279192229
0.00050332025 0.040949337 -0.0081764068 4279192229
0.0032874569 0.036877617 -0.0042437324 4278666928
0.0064188503 0.031414166 0.0011027893 4279257000
0.009593375 0.025953345 0.0064417822 4279126438
0.012973858 0.01979861 0.012482028 4279913623
0.01673392 0.01225407 0.019930456 4281943168
-0.03288627 0.036770776 -0.0026615057 4280045969
-0.031136196 0.037582099 -0.0037090294 4278537898
-0.029391367 0.038393144 -0.0047555277 4278603178
-0.017907377 0.036945738 -0.0045887325 4278602668
-0.015919674 0.036354974 -0.0042057689 4278603178
-0.014447972 0.03856732 -0.006675431 4278472363
-0.012726184 0.039377745 -0.0077172569 4278603434
-0.010873932 0.039487593 -0.0080461204 4278668968
-0.0086062439 0.037496928 -0.006240441 4278668968
-0.0068868771 0.038307466 -0.007281641 4278406828
-0.0050289966 0.038417898 -0.0076113068 4278405809
0.0081993751 0.029996555 -0.00038842857 4278734248
0.011556759 0.023820933 0.005640856 4278931108
0.015789535 0.014155351 0.015195203 4278996643
0.01992966 0.0051927902 0.024030026 4279717274
0.022944454 0.0011223741 0.027912203 4281354884
-0.037098128 0.037870206 -0.0060031665 4279847323
-0.035756189 0.041501518 -0.0099143032 4278534329
-0.033821147 0.040904719 -0.0095242392 4278403258
-0.031880561 0.040308323 -0.0091351029 4278667948
-0.030043114 0.040416442 -0.0094619915 4278603178
-0.028316896 0.0412286 -0.010503471 4278996134
-0.020365167 0.038145073 -0.0082450006 4278340019
-0.018266477 0.036848053 -0.0071491064 4278733738
-0.016411941 0.036957759 -0.0074785897 4278864809
-0.015208371 0.040581815 -0.011364425 4278602414
-0.0092693716 0.038802236 -0.010215703 4278471089
-0.0074197426 0.038912084 -0.01054398 4278799784
-0.0055700466 0.039022028 -0.0108722 4278603434
-0.0023176372 0.041347377 -0.01365231 4278274229
0.0054078437 0.031859312 -0.0047409348 4278603434
0.0084062889 0.027063914 -0.00013184175 4278734758
0.01176751 0.020869005 0.005881709 4278734759
0.01567287 0.012574822 0.014001944 4278603690
0.019642875 0.0042845495 0.022110831 4278866083
0.022653893 0.00020094961 0.025983602 4280699788
-0.03997105 0.029088903 0.00068972446 4282404463
-0.039145496 0.036976539 -0.0075179851 4279455389
-0.036264885 0.042846899 -0.013893137 4278599863
-0.030259129 0.039636523 -0.011297992 4278668458
-0.028424326 0.039744548 -0.011624363 4278799784
-0.026589382 0.039852649 -0.011950711 4278930854
-0.024637695 0.03925503 -0.011564993 4278668968
-0.022680487 0.038657833 -0.011180187 4278865319
-0.020473819 0.036649998 -0.0093741305 4278995879
-0.018500209 0.036053933 -0.0089921076 4278733738
-0.016775843 0.036868636 -0.010031213 4278471599
-0.014139425 0.042726595 -0.016361406 4278403004
-0.0076699629 0.038121216 -0.012380792 4278668458
-0.0058230646 0.038230971 -0.01270853 4278668969
-0.0042685196 0.039748974 -0.01444978 4278734248
-0.0024268813 0.039858587 -0.014776455 4278865573
-0.00013040751 0.037857041 -0.012985598 4278930854
0.00264512 0.033745803 -0.0090815639 4278603434
0.0059239455 0.027526312 -0.0030685831 4278668969
0.0089319311 0.022716284 0.001527098 4278473384
0.012464728 0.015799336 0.0082278783 4278736288
0.016051397 0.0088856928 0.014919176 4279129499
0.019524183 0.0026781522 0.02089807 4280111249
0.022363678 -0.00071591139 0.024058528 4282074493
-0.042756956 0.033851601 -0.0065571824 4279062689
-0.041371178 0.037506822 -0.010459662 4278733993
-0.040012103 0.041160569 -0.014357323 4278274229
-0.03848451 0.04339464 -0.016822705 4279061159
-0.036872569 0.044918858 -0.018571902 4278799528
-0.034756277 0.04289864 -0.016755294 4278733484
-0.032518003 0.040170789 -0.014229193 4278733229
-0.030258033 0.037444293 -0.011706889 4278602159
-0.028420646 0.037552439 -0.012033746 4278668713
-0.026583117 0.03766067 -0.012360567 4278734504
-0.024745438 0.037768986 -0.012687358 4278472618
-0.022788499 0.037169576 -0.012304193 4278537898
-0.020826045 0.03657053 -0.011921907 4278472363
-0.018982608 0.036679454 -0.012249516 4278668203
-0.016074795 0.041140828 -0.017152593 4278994858
-0.014512356 0.04266315 -0.018892201 4278472109
-0.012284201 0.040650535 -0.017094703 4278668713
-0.0076385029 0.035921827 -0.012801992 4278799274
-0.0059323758 0.036738131 -0.013835782 4278472363
-0.0040855221 0.036847949 -0.014163462 4278865573
-0.0019411258 0.035545722 -0.01308179 4278603434
0.00066839159 0.032126442 -0.0098894332 4278799783
0.0036131367 0.027297303 -0.0052943788 4278604454
0.0070660748 0.020353712 0.0014036791 4278604199
0.0099348389 0.016235225 0.0052813003 4279063453
0.013160361 0.010708161 0.010557807 4279326104
0.016264083 0.0058889426 0.015124938 4279718294
0.019070338 0.0024819188 0.018282901 4280438669
-0.046557326 0.032141604 -0.007027755 4282602089
-0.045231085 0.03652095 -0.011640874 4279062689
-0.043668728 0.038763281 -0.014107648 4278603433
-0.042030241 0.040293109 -0.015858445 4278406319
-0.030581836 0.037379865 -0.014249412 4278733993
-0.02863903 0.036777165 -0.013865634 4278865319
-0.026804302 0.036885206 -0.014191978 4278472363
-0.025202002 0.038413707 -0.015935795 4278603434
-0.023372363 0.038521629 -0.016261097 4278537898
-0.021420944 0.037919737 -0.01587854 4278865319
-0.01946402 0.037318308 -0.015496933 4278602668
-0.014752194 0.04189942 -0.020710396 4278537644
-0.012527317 0.039880101 -0.018917335 4278406318
-0.010286186 0.037861798 -0.017127048 4278406064
-0.0060416572 0.035245523 -0.014962866 4278603688
-0.0037572496 0.0332301 -0.013180095 4278930853
-0.00086229295 0.028382637 -0.0085880561 4278734248
0.0020703934 0.023537554 -0.0040026847 4278799783
0.0047328919 0.020110678 -0.00082801748 4278603434
0.0077356808 0.015269928 0.0037451191 4278866848
0.010457486 0.011846773 0.0069094198 4279456919
0.013368282 0.0077178888 0.010769633 4279915153
0.015981935 0.0050055906 0.01322391 4280045968
0.018617142 0.0022946931 0.015674457 4280831879
-0.049322184 0.037684061 -0.014960375 4278272954
-0.045943085 0.040038794 -0.01774611 4279256744
-0.044220697 0.040858611 -0.018780824 4278472363
-0.04259545 0.042392004 -0.020525996 4278472363
-0.040886138 0.043211218 -0.021558251 4278471599
-0.033047307 0.039356027 -0.018587245 4278602668
-0.030796897 0.036611632 -0.01607669 4278996134
-0.028967794 0.036719222 -0.016402125 4278996134
-0.027365413 0.038251899 -0.018142663 4278733738
-0.024073731 0.040603504 -0.020911291 4278536624
-0.021893013 0.038574576 -0.019115709 4278864809
-0.020068642 0.038682319 -0.019439969 4278799783
-0.018497925 0.040213577 -0.021174535 4278602923
-0.0079974644 0.033643477 -0.01576205 4278341038
-0.0054357089 0.030199401 -0.012578154 4278997154
-0.0027012452 0.026046425 -0.0086971503 4279128223
6.5591186e-05 0.021895472 -0.0048218118 4278997410
0.002864778 0.017746489 -0.00095210318 4278932129
0.0053887144 0.015019793 0.0015111016 4279326104
0.0079342127 0.012294516 0.0039705085 4279326104
0.010501292 0.0095705949 0.0064262217 4279849873
0.013413705 0.0054287501 0.010276156 4279849618
0.016029282 0.0027079582 0.012723374 4280242829
0.018331889 0.0014071092 0.013770859 4281028228
-0.052460033 0.030265223 -0.0097223632 4282667624
-0.051324736 0.036823012 -0.016460033 4278404788
-0.049994554 0.041228365 -0.021054044 4278337979
-0.044325646 0.03939544 -0.019886162 4278602668
-0.042608406 0.040217165 -0.020918254 4278668713
-0.040990826 0.041754484 -0.022658685 4278799274
-0.039286662 0.042575605 -0.023688326 4279061413
-0.03738806 0.041965585 -0.023300324 4278996134
-0.035278853 0.039925307 -0.021497529 4278734249
-0.033258583 0.038601279 -0.020404961 4278865319
-0.031227369 0.037277926 -0.019314235 4278733738
-0.029517036 0.038099833 -0.020344645 4278602668
-0.026460011 0.041886628 -0.024518892 4278337213
-0.020299818 0.03792185 -0.021257583 4278865318
-0.018731598 0.039457306 -0.022988424 4278930853
-0.017303452 0.041705903 -0.025420319 4278996134
-0.0153629 0.041099403 -0.025038969 4279127459
-0.013012461 0.038353059 -0.022552177 4278996389
-0.010365419 0.03418161 -0.018665906 4279127713
-0.0075458027 0.029299047 -0.014084118 4279062434
-0.0046884418 0.024418864 -0.0095090047 4278866084
-0.0019389018 0.020253778 -0.0056407116 4278472363
0.003204409 0.014067009 -1.8818304e-05 4278997919
0.0055820122 0.012044355 0.0017376356 4279522709
0.0078194626 0.010734931 0.0027929796 4279784338
0.010385778 0.0080022961 0.00524214 4279849874
0.013297107 0.0038473867 0.0090822401 4279980945
0.016076339 0.00040620565 0.012219799 4280177295
0.018548282 -0.0016102642 0.01395988 4280962693
-0.054843012 0.032984711 -0.014787806 4280832643
-0.053396631 0.03668613 -0.018668182 4278931109
-0.051898737 0.039667185 -0.02183323 4278536879
-0.050341252 0.041928299 -0.02428435 4279192229
-0.048632596 0.042751454 -0.0253135 4278733229
-0.046670426 0.041419011 -0.024214368 4278405043
-0.044608388 0.03936908 -0.022408567 4278536879
-0.042804863 0.03947451 -0.022729956 4278602669
-0.041189756 0.041015945 -0.024466582 4278668458
-0.039294269 0.040403448 -0.024079794 4278472109
-0.037393216 0.039791375 -0.023693921 4278537898
-0.035281908 0.037744708 -0.021896526 4278472363
-0.033364419 0.037133753 -0.02151346 4278668713
-0.03154913 0.037240393 -0.021836545 4278799018
-0.030175436 0.040215187 -0.024978692 4278340019
-0.028596845 0.041755073 -0.026708353 4279126183
-0.026913088 0.042577744 -0.02773224 4279257509
-0.024760578 0.040534057 -0.025941821 4278405044
-0.020530637 0.037165973 -0.023071729 4278668204
-0.018964905 0.038705591 -0.024798807 4278865318
-0.01728056 0.039528742 -0.025822457 4278669224
-0.015205644 0.038204461 -0.024742285 4278603943
-0.012446627 0.033302944 -0.02016159 4278800039
-0.0096498653 0.028403804 -0.015587565 4278997153
-0.006535273 0.022076443 -0.0096211266 4278800548
-0.0036576055 0.017182264 -0.0050612679 4278473128
-0.0010330155 0.013720319 -0.0019051889 4278276269
0.0014704503 0.010974877 0.00054812338 4278342058
0.0035431162 0.010374695 0.00090484694 4278669988
0.0059281923 0.0083459839 0.0026549632 4279128989
0.0080170929 0.0077469796 0.0030089663 4279784338
0.010588031 0.0050059408 0.0054506147 4280112014
0.01366521 0.00012437999 0.0099755796 4280242828
0.016287334 -0.0026133955 0.01240831 4280766598
0.018931013 -0.0053497776 0.014837307 4282337909
-0.056981515 0.033567891 -0.017708072 4279718293
-0.055456672 0.036558967 -0.020871406 4278668968
-0.052236732 0.040374413 -0.025059851 4278340274
-0.050686944 0.04264158 -0.027504653 4279389088
-0.048819516 0.042024828 -0.027114881 4279192229
-0.046860438 0.040687852 -0.02601856 4278404278
-0.042909477 0.038016144 -0.023831664 4278668203
-0.041200008 0.038841762 -0.02485902 4278602923
-0.039495755 0.039667152 -0.025885385 4278603178
-0.037597682 0.039052695 -0.025500685 4278472108
-0.035796266 0.039158314 -0.025821462 4278406828
-0.033994678 0.039264031 -0.026142199 4278603434
-0.032192957 0.039369836 -0.026462896 4278405808
-0.029153895 0.043176882 -0.030617427 4278535859
-0.027249541 0.042563327 -0.030233435 4278930854
-0.025102992 0.040512733 -0.028446937 4279126694
-0.018692192 0.035085529 -0.023804665 4278865319
-0.016612422 0.033757098 -0.022728778 4278668969
-0.014126394 0.030275635 -0.019556815 4278865829
-0.011344392 0.025360312 -0.014991907 4278800549
-0.0085246302 0.020447366 -0.010433672 4278603944
-0.0058069825 0.016254142 -0.0065798885 4278669478
-0.0031995289 0.012780257 -0.0034291958 4279325848
-0.00071034208 0.010025185 -0.00098012108 4279259803
0.0016524829 0.0079884902 0.00076872855 4279128989
0.0038808919 0.0066696145 0.001818873 4278604198
0.0062734298 0.0046348944 0.0035626078 4278866084
0.0086821653 0.0026011914 0.0053035887 4279128733
0.011265796 -0.00014774501 0.0077363113 4279652759
0.014032386 -0.0036114454 0.010859328 4280111758
0.016825914 -0.0070734248 0.013977651 4282272118
-0.05708601 0.032099266 -0.018817721 4279324574
-0.055705633 0.036546133 -0.023390915 4278669479
-0.054282088 0.04026778 -0.027250588 4278668714
-0.045083169 0.038620517 -0.026727725 4278864808
-0.043287922 0.038725391 -0.027047692 4278799273
-0.041492496 0.038830362 -0.027367625 4278603434
-0.039890241 0.040379766 -0.029095311 4278472363
-0.038099851 0.040484607 -0.029414222 4278668969
-0.036207255 0.039867692 -0.029030122 4278734249
-0.034518596 0.040694594 -0.030051913 4278930343
-0.032835159 0.041521259 -0.03107265 4278930344
-0.020744067 0.034226917 -0.025291432 4278733738
-0.018167872 0.030011881 -0.021422962 4278930343
-0.015688241 0.026519101 -0.0182583 4278996134
-0.013181597 0.023028016 -0.015098369 4278931619
-0.010379296 0.018098723 -0.010548768 4278997918
-0.0075392425 0.013171814 -0.0060058325 4279259803
-0.0049408525 0.0096864551 -0.0028619701 4279653013
-0.0026002862 0.0076416917 -0.0011142986 4279784338
-0.00038859993 0.0063173175 -6.4739026e-05 4279653269
0.0018339306 0.0049936548 0.00098302774 4279784338
0.0042177401 0.0029518008 0.0027232068 4279915153
0.0066177584 0.00091098249 0.0044606449 4279587224
0.0093456693 -0.0025660619 0.0075820042 4279782809
0.011941988 -0.0053228959 0.010005794 4280960653
-0.057733078 0.016730707 -0.0061604357 4282731628
-0.056702878 0.02554968 -0.014977989 4280242064
-0.055447545 0.031462081 -0.020957787 4278735268
-0.054159936 0.036646456 -0.026223797 4279128224
-0.052754324 0.040377922 -0.030071892 4278996389
-0.05113415 0.041932151 -0.031799853 4278996388
-0.049109135 0.039860256 -0.030002646 4278864808
-0.047239352 0.03923934 -0.029616617 4278799784
-0.04527555 0.037893996 -0.028527811 4278865319
-0.04357424 0.03872335 -0.029550534 4278799273
-0.040380251 0.041829929 -0.032997403 4278271168
-0.03850152 0.041209966 -0.032612633 4278533564
-0.034727443 0.039971262 -0.03184586 4278930089
-0.033153933 0.041523583 -0.033564802 4278734249
-0.031591017 0.043075413 -0.03528183 4278799273
-0.029813435 0.043179929 -0.035598129 4278537134
-0.027805049 0.04183808 -0.034516577 4278405808
-0.025549706 0.039050855 -0.032040093 4278602924
-0.023031298 0.034819216 -0.028171528 4278733738
-0.020480495 0.030589581 -0.024308652 4278930344
-0.017645095 0.024916768 -0.019057471 4278930088
-0.014895346 0.019969054 -0.014510425 4278406573
-0.012239296 0.015745882 -0.010665987 4278866083
-0.0098192133 0.01296898 -0.0082183257 4278998429
-0.0072406642 0.0094715059 -0.0050793774 4279587733
-0.004774671 0.0066975132 -0.0026397211 4279587733
-0.0027138107 0.0060898177 -0.0022861548 4279718803
-0.00050256774 0.0047610775 -0.001239866 4279784594
0.0018671304 0.0027117394 0.00049777422 4279980433
0.0045536645 -0.00077880174 0.0036179544 4279915154
0.007267151 -0.0042676255 0.0067334482 4280111758
0.010007598 -0.0077547431 0.0098442351 4280438668
-0.056252327 0.01824186 -0.010455619 4281289859
-0.05504657 0.024900712 -0.017131053 4279325339
-0.053814057 0.030829132 -0.023093401 4278473128
-0.052624311 0.036755145 -0.029048055 4278997153
-0.051076125 0.039041527 -0.031477604 4278800293
-0.049295094 0.039145254 -0.031795282 4278800039
-0.047513861 0.039249077 -0.032112937 4278668713
-0.045644145 0.03862603 -0.031728528 4278537388
-0.043950867 0.039456993 -0.032748148 4278667948
-0.034831498 0.038526505 -0.032937199 4278667439
-0.033150669 0.039357267 -0.033954185 4278602668
-0.031475078 0.040187836 -0.034970164 4278799784
-0.029579733 0.039567083 -0.034589704 4278799783
-0.027333338 0.036770567 -0.032118391 4278930599
-0.024947423 0.033250201 -0.028954085 4278996388
-0.022413943 0.029006459 -0.025098227 4279127714
-0.019848052 0.024764672 -0.021248015 4278866084
-0.016997911 0.019075438 -0.016012875 4278735014
-0.014361862 0.014837999 -0.012174979 4278932129
-0.011824772 0.011327021 -0.0090371883 4279195034
-0.009528704 0.0092663541 -0.0072919289 4279326104
-0.0070797019 0.0064825788 -0.0048560221 4279522198
-0.0046090931 0.0037002042 -0.0024238685 4279718803
-0.0024010539 0.0023668371 -0.0013804315 4279915409
-0.00032695383 0.0017577969 -0.0010307813 4279980943
0.0021949857 -0.0010212213 0.0013925033 4280373898
0.005188968 -0.0059687942 0.0058851233 4281421439
-0.055873532 0.011629801 -0.0066631129 4280765323
-0.054503631 0.016849078 -0.01192057 4279194013
-0.053245824 0.022796221 -0.017874125 4278866338
-0.052030776 0.028740957 -0.023819979 4278800294
-0.050778385 0.033953667 -0.029056262 4278735268
-0.049315121 0.036975943 -0.032181781 4278669988
-0.047873158 0.039997064 -0.035303425 4278799784
-0.046011757 0.039371349 -0.034919225 4278930343
-0.042646412 0.041036397 -0.036951318 4278799019
-0.041163933 0.043325957 -0.039363813 4278996388
-0.039202977 0.041972086 -0.038280949 4278800039
-0.037027936 0.039162248 -0.035803974 4278799018
-0.035039779 0.037810184 -0.034725863 4278274994
-0.033254642 0.037914909 -0.03504369 4278668203
-0.031359714 0.037291855 -0.034664921 4278668713
-0.029234592 0.035213776 -0.032894842 4278931364
-0.026863161 0.031681616 -0.029736403 4278930853
-0.024229284 0.02669635 -0.025192454 4278668458
-0.021557618 0.021713372 -0.020655097 4278734758
-0.019217473 0.018913988 -0.018206928 4278801568
-0.01660414 0.014662143 -0.014375148 4279195034
-0.014215361 0.011865847 -0.011935456 4279391639
-0.011673804 0.008344315 -0.0088068042 4279718804
-0.0095068105 0.0070038587 -0.0077596717 4279718803
-0.0073289685 0.0056640953 -0.0067143482 4279325339
-0.0048618093 0.0028728545 -0.0042882627 4279980433
-0.002656918 0.0015349574 -0.0032476196 4280046224
-0.00015195087 -0.0012538433 -0.0008280864 4280177294
0.0025219098 -0.0047668964 0.0022775577 4281814393
-0.055704381 0.0071848035 -0.0049996842 4281552508
-0.054107156 0.010223135 -0.0081427256 4279652759
-0.05268031 0.014724493 -0.012684185 4279914899
-0.05143996 0.02068796 -0.018621242 4279651993
-0.050242368 0.026648998 -0.02455055 4279062689
-0.049004938 0.031876057 -0.029772501 4278669223
-0.047890242 0.037832484 -0.035686933 4278996388
-0.046290394 0.039398618 -0.037401099 4278865319
-0.041458253 0.043363035 -0.041834615 4278274739
-0.033144955 0.035012409 -0.03474221 4278930854
-0.031135421 0.033657394 -0.033671074 4278865573
-0.028666299 0.029383574 -0.029824048 4279062434
-0.025935028 0.023652252 -0.024594754 4278538154
-0.023278158 0.018653184 -0.020066582 4278800549
-0.020944264 0.015844665 -0.017624062 4278932638
-0.018711682 0.01376678 -0.015877835 4279260569
-0.016337208 0.010960858 -0.013442375 4279129753
-0.01381281 0.0074273869 -0.010319106 4279456663
-0.011392418 0.0046243817 -0.0078916475 4279456663
-0.0093514919 0.0040086508 -0.0075398316 4279063198
-0.0071687251 0.0026649013 -0.0064987601 4279128223
-0.0046969578 -0.00013475865 -0.0040801959 4279980433
-0.0022035874 -0.0029330105 -0.001665364 4280569993
0.00031137094 -0.0057298765 0.00074570719 4281355394
-0.05560543 0.0034572706 -0.0040496504 4281290624
-0.053999644 0.0065046996 -0.007187583 4280242573
-0.052415121 0.0095509961 -0.010321643 4279784338
-0.050928954 0.013330244 -0.014150861 4279522198
-0.049708758 0.019309897 -0.020070935 4279391129
-0.048448864 0.024553314 -0.025285207 4279194269
-0.047396686 0.031261951 -0.031887941 4278866594
-0.046129178 0.035767414 -0.036390658 4279128479
-0.044893723 0.040271133 -0.040887624 4278538919
-0.043410722 0.042573512 -0.04329028 4278341038
-0.037639719 0.039217912 -0.04075475 4278275759
-0.035351288 0.035658851 -0.037598532 4278800549
-0.033035833 0.032101437 -0.034447066 4279061923
-0.030693363 0.02854573 -0.031300329 4279062433
-0.028211851 0.024259642 -0.027465533 4278603688
-0.025583219 0.019243613 -0.022944063 4278603943
-0.022916827 0.014229946 -0.018429283 4278997153
-0.02069303 0.012144919 -0.0166866 4279259804
-0.018698525 0.011523861 -0.016328527 4279325338
-0.016447589 0.0094406493 -0.014590506 4279456919
-0.013924111 0.0058962852 -0.011475431 4279849874
-0.011373635 0.0023536235 -0.0083650723 4279850128
-0.0089296959 -0.00045654178 -0.0059483992 4279914898
-0.0067366175 -0.0018040314 -0.0049125152 4279324829
-0.0042548552 -0.0046117306 -0.0025023883 4279913878
-0.055713993 0.0019272268 -0.0052057719 4281291388
-0.054036129 0.0042467341 -0.0076388014 4280177294
-0.05229992 0.0058289282 -0.0093710274 4279653269
-0.050651159 0.0081469119 -0.011798725 4279653269
-0.049177539 0.011936292 -0.015617327 4279522198
-0.047812898 0.016460154 -0.020127531 4279260059
-0.046650279 0.022453893 -0.02602388 4279129243
-0.045618113 0.029180881 -0.032607991 4278866338
-0.044634145 0.035905138 -0.039183442 4278668714
-0.043512244 0.041155986 -0.04436117 4278799273
-0.041949119 0.042728875 -0.046062 4279062178
-0.040002856 0.041361082 -0.044986587 4278735524
-0.037540127 0.036319733 -0.040447686 4278538918
-0.035039622 0.031280641 -0.035915401 4278931618
-0.032501336 0.026243899 -0.031389814 4278996643
-0.030143645 0.022678241 -0.028254149 4278341548
-0.027647052 0.018379997 -0.024432018 4278800803
-0.025232632 0.014817864 -0.021306299 4279194523
-0.022791196 0.011257429 -0.018185306 4279128989
-0.020682547 0.009899985 -0.017138248 4279325338
-0.01868565 0.0092768893 -0.016782288 4279391128
-0.016557939 0.0079207234 -0.015738422 4279456663
-0.014035378 0.0043654889 -0.012631532 4279587733
-0.011224445 -0.00065429509 -0.008153745 4279784339
-0.0085091293 -0.0049388111 -0.0043698633 4279980943
-0.0060335957 -0.007755667 -0.0019654073 4280831879
-0.0035364777 -0.010571077 0.00043526664 4283253613
0.038921222 -0.036928013 0.020641897 4281163378
0.04344761 -0.046288453 0.029083524 4280506498
0.047851302 -0.054915071 0.036836013 4280636803
-0.054072853 0.0019846819 -0.0080931131 4281292409
-0.052407864 0.004309915 -0.010518776 4279391639
-0.050605189 0.0051574558 -0.01155003 4279325848
-0.048966628 0.0074813813 -0.013970875 4279325593
-0.047426123 0.010542609 -0.017083585 4279522198
-0.046161402 0.015816592 -0.022275347 4279325593
-0.044934135 0.021088555 -0.027460393 4279128733
-0.044105109 0.029309034 -0.035412103 4278866084
-0.042963441 0.034576178 -0.040581748 4278866083
-0.041572463 0.037629154 -0.043667436 4279259039
-0.03951494 0.035520583 -0.041905787 4278800549
-0.037037294 0.030464943 -0.037381239 4278735014
-0.034418222 0.02467471 -0.032172341 4278276524
-0.029704776 0.017521515 -0.025917456 4278407593
-0.02753095 0.015420247 -0.024176143 4278801314
-0.025226448 0.012583796 -0.021748608 4279325849
-0.02301741 0.010484837 -0.020013452 4279522454
-0.020792108 0.0083869137 -0.018281057 4279195289
-0.018795501 0.0077616088 -0.01792673 4279194778
-0.016668238 0.0064010806 -0.01688613 4279653269
-0.014146596 0.0028349683 -0.013787429 4280046223
0.035633408 -0.034320682 0.015692044 4280770424
0.039171357 -0.040052876 0.020740468 4280309893
0.04351116 -0.048709452 0.028484184 4280309384
0.047530647 -0.055898808 0.034866143 4280702339
0.050433315 -0.058696166 0.037190262 4282406504
-0.050636407 0.0029002465 -0.012001839 4280506243
-0.048915479 0.0044903643 -0.013724611 4279784083
-0.04728711 0.0068202019 -0.016138539 4279587478
-0.045844022 0.01062952 -0.019934941 4279718548
-0.0444276 0.0144374 -0.023726497 4279521943
-0.043217983 0.019723505 -0.028896688 4279260059
-0.042138528 0.025747187 -0.034751359 4279129753
-0.040815603 0.029549908 -0.038526025 4278997409
-0.03873447 0.027436208 -0.036773603 4279325338
-0.03633466 0.023105957 -0.03295463 4278735523
-0.031756368 0.016668107 -0.027400266 4278472873
-0.029594015 0.014559548 -0.025662016 4278669989
-0.027415413 0.012452107 -0.02392661 4279260058
-0.025334779 0.011084083 -0.022881387 4279522454
-0.02324326 0.009716846 -0.021838062 4279522198
-0.021021266 0.0076122135 -0.020110101 4279588243
-0.018782999 0.0055086352 -0.018384958 4279653268
-0.016528513 0.0034061745 -0.016662655 4280112268
-0.013874728 -0.00090811402 -0.012888077 4281292153
0.032924503 -0.033888161 0.01278285 4280507518
0.035694793 -0.036702633 0.015123331 4280309893
0.039420865 -0.043186158 0.020832755 4280309383
0.043574393 -0.051134489 0.027881809 4280178314
0.047402561 -0.057611622 0.033573374 4281029759
-0.049102385 0.0037187822 -0.015560681 4280373898
-0.047394518 0.0053124651 -0.017277712 4279849363
-0.045781713 0.0076479837 -0.019683857 4279914899
-0.044097636 0.009240482 -0.021396492 4279783828
-0.042693805 0.013058495 -0.025177417 4279653013
-0.041501846 0.01835876 -0.030332744 4279325593
-0.040061507 0.021431852 -0.033413935 4279128989
-0.038054731 0.020054556 -0.032359365 4278997664
-0.035835784 0.017195299 -0.029930402 4279063199
-0.033595163 0.014337368 -0.027505176 4278932129
-0.031756993 0.014445055 -0.02783256 4278735779
-0.029701252 0.013071023 -0.026786407 4278866848
-0.027634647 0.011697769 -0.02574216 4278998428
-0.025443051 0.0095846392 -0.024013972 4279195034
-0.023351986 0.0082130432 -0.022973903 4279981199
-0.021130588 0.0061018653 -0.021250859 4280636293
-0.018892933 0.003991764 -0.019530611 4282472294
0.030768875 -0.03565149 0.011903868 4280964734
0.033165 -0.037002206 0.012891923 4280112268
0.03593988 -0.039825037 0.015224927 4279980943
0.039669722 -0.046327777 0.020918678 4279980944
0.043637317 -0.053563558 0.027276408 4280308618
0.047274485 -0.059324123 0.032280851 4281160318
-0.047665235 0.005294323 -0.019796459 4281094784
-0.045804355 0.0054025128 -0.020128526 4280242574
-0.044117387 0.0069994777 -0.021838361 4279522198
-0.042620476 0.010084286 -0.024923142 4279194523
-0.041329745 0.014655974 -0.029379949 4279522198
-0.039880846 0.017738186 -0.032456018 4279587479
-0.037866462 0.01635702 -0.031406209 4279521944
-0.03574067 0.014233027 -0.029671706 4279456663
-0.033598613 0.012110081 -0.027940022 4279522199
-0.03175788 0.012217894 -0.028267881 4279391129
-0.029699903 0.010839704 -0.027225515 4278866849
-0.027631033 0.0094622411 -0.026185021 4279063198
-0.025437359 0.0073427334 -0.024462208 4279391639
-0.02322742 0.0052242912 -0.022742212 4280309129
0.025541592 -0.033101112 0.0073431702 4282079083
0.028086182 -0.035197109 0.0090056742 4280898943
0.030825365 -0.03803096 0.011338157 4280374663
0.033223726 -0.0393859 0.01232252 4280177549
0.036000486 -0.042217225 0.014648483 4280112014
0.03935834 -0.047262467 0.018984575 4280242573
0.043321472 -0.054520115 0.02532642 4280373899
0.046762593 -0.059560113 0.02964798 4281749878
-0.045911442 0.0038996488 -0.021264009 4281816689
-0.044311199 0.006247405 -0.023657832 4279456663
-0.0427269 0.0085943639 -0.026048791 4279063708
-0.041250814 0.011686679 -0.029123137 4279325339
-0.039701078 0.014031813 -0.031507783 4279521944
-0.037776705 0.013392583 -0.03114799 4279325594
-0.035846811 0.012753826 -0.030789148 4279391128
-0.033705343 0.010624338 -0.029062377 4279784083
-0.031759035 0.0099867396 -0.028706305 4279718804
-0.029590409 0.0078590922 -0.026984254 4279784339
-0.027516615 0.0064775385 -0.025947941 4279326104
-0.025318164 0.0043518618 -0.024231032 4279785104
-0.023103464 0.0022271834 -0.022516906 4282341734
0.022893056 -0.032624692 0.004454351 4280964224
0.025247965 -0.033986881 0.0054427618 4280373643
0.027964858 -0.036830828 0.0077724205 4280439178
0.030703247 -0.039673381 0.010098365 4280177038
0.03346312 -0.042514488 0.012420618 4279914899
0.036244474 -0.045354202 0.014739153 4280242573
0.039606415 -0.050414279 0.019062817 4280505224
0.043195024 -0.056212425 0.024049107 4281030014
-0.042654391 0.0056077018 -0.025803937 4280571779
-0.041080307 0.0079605691 -0.028187979 4279391639
-0.03952219 0.010312662 -0.030569129 4279325594
-0.037687536 0.010419779 -0.030896172 4279521944
-0.035752546 0.0097791366 -0.030539922 4279784083
-0.033709165 0.0083911531 -0.029501773 4280046224
-0.031654898 0.0070039518 -0.028465528 4280112013
-0.029481497 0.0048700497 -0.026749298 4280374663
-0.027402762 0.0034844875 -0.025717247 4281554549
0.020596715 -0.033621684 0.0029154206 4281225853
0.022943091 -0.034988828 0.003901911 4279980689
0.025472995 -0.037098818 0.0055569829 4280176784
0.028194468 -0.039951131 0.0078791725 4280308109
0.031115584 -0.043545276 0.010867045 4280176783
0.034244396 -0.047880784 0.014519178 4280111503
0.037221916 -0.051471278 0.017497275 4280242573
0.040412493 -0.055802792 0.021138702 4281816179
-0.041094635 0.0057228282 -0.028628543 4279850638
-0.039438818 0.0073311552 -0.030322652 4279522708
-0.037793595 0.0089389943 -0.032014851 4279325593
-0.035958935 0.009046182 -0.032341838 4279784338
-0.033815954 0.0069037974 -0.030625358 4280046223
-0.031656746 0.0047625005 -0.028911738 4280964989
0.018470934 -0.035359792 0.0020492272 4280242828
0.020644236 -0.035985664 0.0023636604 4280111503
0.022992827 -0.037356973 0.0033464478 4279586968
0.02569739 -0.040219061 0.0056648636 4280111248
0.028774045 -0.044570945 0.009316084 4280504459
0.032060921 -0.049666122 0.013629426 4280504458
0.035385422 -0.054758966 0.017936252 4280832899
0.038014073 -0.056868948 0.019569207 4282471529
-0.03799681 0.0082108378 -0.033813782 4280374664
-0.035865333 0.0060611814 -0.032100338 4280572035
-0.033512492 0.0024084523 -0.029030764 4281751919
0.014021572 -0.035719924 0.0001997333 4281488249
0.016345488 -0.037097447 0.0011833105 4280701573
0.018680152 -0.03847418 0.002165013 4280242828
0.020858515 -0.039101884 0.0024769055 4280111503
0.023551537 -0.041973427 0.0047906088 4279193758
0.026438501 -0.045591459 0.0077676894 4279390619
0.029877745 -0.051451027 0.01273995 4280242318
0.033182167 -0.056560308 0.017038573 4280766854
0.036163174 -0.060172305 0.01999931 4282537064
0.011277732 -0.034448087 -0.0033367258 4282013803
0.013902694 -0.03733284 -0.0010180157 4280112779
0.016226126 -0.038714714 -3.7691556e-05 4280177804
0.018560324 -0.040095776 0.00094077829 4280111758
0.020905292 -0.041476116 0.0019174786 4280046479
0.023769792 -0.045106426 0.0048901038 4279718548
0.027178019 -0.050985202 0.0098543996 4279193758
0.030279318 -0.055361494 0.013481284 4280439433
0.033412859 -0.059735671 0.017102525 4281750388
0.0065784156 -0.033275172 -0.0065127704 4281291643
0.0088636465 -0.034663975 -0.0055293422 4280178314
0.011159666 -0.036052018 -0.0045477282 4279915919
0.01362516 -0.038192391 -0.0029017087 4280243084
0.016106797 -0.040331662 -0.0012584543 4280308363
0.018768637 -0.043222576 0.0010472732 4280308365
0.021451987 -0.046112046 0.0033492344 4280569993
0.024495721 -0.05050499 0.0069761286 4281748094
0.0020692497 -0.032837465 -0.0090159755 4281033584
0.0040395744 -0.032720268 -0.0093655307 4280244359
0.0064613186 -0.034870103 -0.007717045 4279653269
0.0085929371 -0.035507709 -0.0074023549 4279784848
0.01119747 -0.038411066 -0.0050934395 4279915665
0.013665006 -0.040557735 -0.0034528105 4280373898
0.016148698 -0.04270336 -0.0018149121 4280504714
0.018812425 -0.045602798 0.00048381556 4280701064
0.021497674 -0.048500814 0.0027788291 4280897414
-0.00030161813 -0.033025846 -0.011197099 4280048264
0.0018080436 -0.033667363 -0.010880446 4280112524
0.0039231405 -0.034308374 -0.010564683 4279587733
0.0063442551 -0.036464721 -0.0089210849 4278997919
0.0086285397 -0.037862219 -0.0079441499 4279718803
0.011234969 -0.040774077 -0.0056422045 4280177294
0.013862925 -0.043684542 -0.0033439985 4280766598
0.01635135 -0.045836307 -0.0017119749 4281487228
0.019183394 -0.049501151 0.0012412481 4283058029
-0.0026607141 -0.033204541 -0.013373287 4280442238
-0.00041740015 -0.034609303 -0.012392806 4280112779
0.0018367246 -0.036013335 -0.011414098 4279981198
0.0039541833 -0.036656357 -0.011100424 4279915664
0.0063773543 -0.03881906 -0.0094621871 4278932384
0.0088166818 -0.040980607 -0.0078267446 4278997919
0.011427689 -0.043900833 -0.005532275 4280177293
0.013902027 -0.0460601 -0.0039028144 4280831878
-0.0052810982 -0.031847417 -0.016871525 4280310659
-0.0030544437 -0.033257641 -0.015891457 4280112778
-0.00053315237 -0.036192417 -0.013588266 4279981198
0.0020097084 -0.03912583 -0.011288757 4279915919
0.0045741089 -0.042057842 -0.0089929914 4279915153
0.0070100836 -0.044226244 -0.007361996 4279653268
0.0094622225 -0.046393536 -0.0057337722 4280045458
0.011775158 -0.047797844 -0.0047684861 4282533749
-0.0095534399 -0.032116815 -0.018690469 4280704889
-0.0073435269 -0.033532538 -0.017710993 4279522709
-0.0051227808 -0.034947574 -0.016733313 4279456664
-0.0030303039 -0.035596773 -0.016418835 4279980688
-0.00064887479 -0.037775233 -0.014783507 4279915153
0.0018931963 -0.040717319 -0.012490514 4280045969
0.0047510825 -0.045187116 -0.0088814041 4279980688
0.0071917884 -0.047361642 -0.0072562802 4280308364
0.0096486658 -0.049535148 -0.0056339018 4283188588
-0.011737701 -0.033028893 -0.020188922 4279983749
-0.0095363967 -0.0344496 -0.019211365 4280374664
-0.0074578077 -0.03510204 -0.018896276 4279980688
-0.0051013045 -0.03728874 -0.017261663 4279718549
-0.0030064508 -0.037939966 -0.016949261 4279326104
-0.00062296167 -0.040124826 -0.015319264 4279849874
0.0017767139 -0.042308509 -0.013692039 4280177293
0.0049274378 -0.048324689 -0.0087761581 4280831879
0.0072232261 -0.049738929 -0.0078146383 4281879419
-0.015729796 -0.034820318 -0.020679509 4280705653
-0.013665203 -0.035476118 -0.020363884 4279523728
-0.011723157 -0.035361521 -0.020709129 4279521944
-0.009650331 -0.036016598 -0.020394797 4280177294
-0.0071719028 -0.038980208 -0.018104197 4280046224
-0.0049440414 -0.040403388 -0.017134475 4280111503
-0.0028441288 -0.041056484 -0.016824661 4279783829
-0.0005973354 -0.042478353 -0.015858073 4279652503
0.0016602613 -0.043899402 -0.014893341 4282861423
-0.015720446 -0.037155107 -0.021200219 4279457428
-0.013903808 -0.036268353 -0.022204345 4279391128
-0.011836749 -0.036926061 -0.021890743 4279521433
-0.0096336976 -0.038355269 -0.020920133 4279718803
-0.0071533583 -0.041327409 -0.01863654 4279849618
-0.0047873743 -0.043526471 -0.017013583 4280504714
-0.002543807 -0.044952922 -0.016049888 4280766598
-0.00014814362 -0.047150001 -0.014432023 4280503693
-0.01693777 -0.044257045 -0.017429233 4281750389
-0.015589051 -0.040268525 -0.021066306 4279718293
-0.014017057 -0.037830397 -0.0233841 4279128734
-0.012078013 -0.037715957 -0.023728808 4279390619
-0.009747725 -0.039923832 -0.022104751 4279915153
-0.0070020519 -0.044452593 -0.018516149 4280177039
-0.0044955648 -0.047431678 -0.01624376 4280767109
-0.015336078 -0.044167131 -0.020282637 4280503949
-0.013880577 -0.040945388 -0.023252547 4279652503
-0.011936311 -0.040830649 -0.023598187 4279456154
-0.0093408264 -0.044597358 -0.020670708 4280111504
-0.0067184158 -0.04836233 -0.017747924 4280962693
-0.0040690713 -0.052125588 -0.014829822 4282531964
-0.013245896 -0.047183886 -0.020511556 4281553783
-0.01141306 -0.046289615 -0.021513492 4280308364
-0.0090652294 -0.048509419 -0.019902483 4280897159
0.0159132 -0.058080263 -0.020037852 4282403444
0.04366798 0.0073660202 0.061448388 4284967213
0.044383463 0.012156207 0.056006044 4285689629
0.046047501 0.013612729 0.054192908 4285886234
0.049700379 0.0084072836 0.059622094 4285886233
0.040142331 0.010241978 0.05547633 4285099048
0.041242369 0.013709795 0.051493078 4285755419
0.042315386 0.017176092 0.047514614 4285754908
0.044149842 0.01796687 0.046432469 4285623328
0.047377482 0.014079139 0.05040805 4285623838
0.05164985 0.0068526827 0.057987474 4285689374
0.036842942 0.012479741 0.050243892 4285295908
0.038885396 0.012602508 0.049882524 4285427744
0.040353116 0.014738273 0.047354747 4285755674
0.041610345 0.017543986 0.044108175 4286018579
0.043239839 0.019007161 0.042307887 4285886999
0.046255987 0.015776239 0.045554753 4285952534
0.049703673 0.01120631 0.050237469 4285821719
0.053394005 0.0059685633 0.055633381 4285624349
0.056711879 0.0020735227 0.059583098 4285558813
0.060272388 -0.0024893805 0.064246044 4285558559
0.030829204 0.017319448 0.042494599 4285819934
0.032844711 0.017440461 0.042137895 4285951259
0.035604216 0.01486757 0.044667155 4286017048
0.03819653 0.012969378 0.046471681 4285689629
0.039656553 0.015111241 0.043950256 4285623839
0.041100353 0.017252211 0.041431759 4285690139
0.042921491 0.018046562 0.040355347 4285755674
0.045535088 0.016149938 0.042156335 4285755418
0.048771285 0.01223683 0.046110351 4285624348
0.052039709 0.0083257332 0.050058722 4285624349
0.053887419 0.0091219768 0.048977837 4285624348
0.05551938 0.010589987 0.047180805 4285689373
0.05841814 0.0080262199 0.049686007 4285886234
0.063926026 -0.0025966018 0.060782276 4285819933
0.028515127 0.016243555 0.040898759 4285492004
0.029806037 0.019068319 0.037659366 4285885724
0.032174293 0.017836835 0.038745698 4285951258
0.035110824 0.014579087 0.041989651 4286082583
0.037885703 0.011998575 0.044509519 4285755419
0.039725907 0.012796115 0.043431308 4285624094
0.041366734 0.014268581 0.041635737 4285558558
0.043389957 0.014390435 0.041277956 4285558558
0.045811731 0.013162669 0.042355131 4285558558
0.048850238 0.0099115036 0.045581393 4285624349
0.051301479 0.0086856224 0.046653517 4285689883
0.052311584 0.012181066 0.04271166 4285689629
0.053294644 0.015674967 0.038774654 4285755674
0.055314586 0.015797071 0.038417801 4285885724
0.059704669 0.0085065216 0.045921493 4285885723
0.065899245 -0.0041701496 0.059127726 4285951514
0.024885794 0.012337528 0.042543616 4285164073
0.026206933 0.015172642 0.039305445 4285624094
0.027328899 0.018684864 0.03535156 4286214928
0.029145084 0.019482888 0.034279011 4285754399
0.03150484 0.018246561 0.035363507 4285557539
0.034618072 0.014299583 0.039318852 4285689119
0.037386827 0.011709996 0.041833166 4285755418
0.039603859 0.011154372 0.042192023 4285624094
0.041438684 0.011953849 0.041116513 4285558814
0.043464508 0.012075886 0.040758297 4285559069
0.045689408 0.011520963 0.04111594 4285559068
0.048121467 0.010289516 0.04218806 4285558814
0.050155118 0.010412253 0.041828632 4285558813
0.050737996 0.015270948 0.036468662 4285952788
0.052122794 0.017421827 0.033971064 4285689118
0.05412918 0.017543141 0.033616632 4285623584
0.057642654 0.012932088 0.03825286 4285623839
0.062065721 0.005619783 0.045732401 4285689374
0.066989303 -0.0030403733 0.054625571 4285624094
0.025387596 0.016269065 0.035203926 4285623583
0.026676934 0.019111041 0.031978149 4286148374
0.028665248 0.019230369 0.031626221 4286082838
0.031019187 0.017989401 0.032708362 4285952023
0.033754922 0.015389077 0.035221763 4285952533
0.036888607 0.011430364 0.039163563 4285821209
0.039099988 0.010872241 0.039521765 4285624349
0.041123096 0.010994047 0.039163973 4285558813
0.042949833 0.011795308 0.038091641 4285624604
0.045368083 0.010558676 0.03916277 4285558813
0.04739365 0.010680877 0.038804736 4285624349
0.049214743 0.01148203 0.037733581 4285558558
0.049787898 0.016355351 0.032387063 4285821208
0.051372085 0.017833583 0.030608587 4286018324
0.053370297 0.017954435 0.030255619 4285886744
0.056229006 0.015362374 0.032747932 4285755673
0.059544813 0.01141553 0.036658149 4285821719
0.063995481 0.0040811412 0.044114493 4285559068
0.069844618 -0.0073161572 0.05581972 4285493279
0.026203241 0.018867787 0.029331144 4285623329
0.028546009 0.017621737 0.030411854 4285623839
0.030899532 0.016376421 0.031490736 4285624093
0.033819892 0.013085138 0.034712505 4285689883
0.036579069 0.01047767 0.03721508 4285624350
0.038406007 0.011280976 0.036144283 4285624349
0.039840605 0.01344746 0.033647604 4285624349
0.041455101 0.01493153 0.031866785 4285886743
0.044251744 0.012326602 0.034363031 4285886999
0.04666679 0.011085536 0.035431452 4285886998
0.04868409 0.011207338 0.035074953 4285689629
0.049666733 0.014733758 0.03116313 4285558559
0.051251151 0.016216371 0.029387981 4285624093
0.053036984 0.017017819 0.028324924 4285624348
0.055892248 0.014416907 0.030811183 4285624604
0.059421968 0.0097766109 0.035421226 4285559069
0.063650377 0.00309835 0.042150814 4285427744
0.069717012 -0.009016037 0.054536827 4285427743
0.02860659 0.015328635 0.029911857 4285623329
0.030779878 0.014763657 0.030273277 4285624350
0.033328924 0.012830291 0.032060333 4285559068
0.035894081 0.010897975 0.033844598 4285559323
0.037712999 0.011702977 0.0327769 4285690139
0.038946621 0.014559451 0.029574756 4285755419
0.040550567 0.016047247 0.027799167 4285689373
0.043137021 0.014116537 0.029579919 4285689374
0.04594091 0.011503469 0.032068267 4285952024
0.048358142 0.010258306 0.033133037 4285755418
0.050165799 0.011063121 0.032067709 4285624349
0.051758528 0.012550596 0.030294456 4285559068
0.053976767 0.011989225 0.030648611 4285558813
0.056629919 0.010063056 0.032417901 4285493533
0.060386695 0.004725717 0.037722141 4285559069
0.064626828 -0.00197348 0.044432953 4285625113
0.033578768 0.0098380782 0.032261375 4285557794
0.035210062 0.011331625 0.030484121 4285623839
0.0366401 0.013510838 0.027998198 4285754909
0.037667681 0.017061312 0.024094891 4286477069
0.039451513 0.017866544 0.023035206 4285754654
0.042222418 0.015242752 0.025522646 4285557538
0.045215983 0.011934746 0.028715093 4285689118
0.047828611 0.0099992938 0.030486338 4285821464
0.050044112 0.0094354525 0.030839201 4285558813
0.052264899 0.0088720098 0.031191196 4285559068
0.055126868 0.0062541254 0.033662867 4285427998
0.058010258 0.003637623 0.036130812 4285361953
0.062001839 -0.0024005994 0.04212448 4285492769
0.066041738 -0.0084358081 0.048109688 4285295143
0.035568826 0.01534069 0.023236178 4285492004
0.036776606 0.018213004 0.02005202 4286082328
0.038745373 0.018331692 0.019703958 4285951258
0.041507449 0.015698705 0.022186283 4286017814
0.044290986 0.013067093 0.024664871 4285952789
0.047503442 0.0090616196 0.028553009 4285690139
0.050335251 0.006433133 0.031023156 4285493278
0.053397626 0.0031187162 0.034195289 4285493789
0.056486811 -0.00019404292 0.037362795 4285559578
0.059602797 -0.0035050511 0.040525585 4285295399
0.063179947 -0.0081879199 0.045092188 4285228843
0.066794656 -0.012868471 0.049652271 4285163054
0.036272421 0.018001452 0.017436277 4285557539
0.038235702 0.018119834 0.017089207 4285623839
0.041387998 0.014097605 0.020977776 4285624093
0.044572536 0.010077365 0.024860758 4285558813
0.047789291 0.0060592107 0.02873807 4285493278
0.051038254 0.0020430833 0.032609764 4285427489
0.054319434 -0.0019710585 0.036475871 4285295398
0.057421163 -0.0052938238 0.039632775 4285229098
0.06054968 -0.0086148828 0.042785019 4285228844
0.038898632 0.013762206 0.018709775 4285492003
0.042060617 0.0097275712 0.02258661 4285558304
0.045254845 0.0056949295 0.026457861 4285493278
0.048888091 0.0002804473 0.031730093 4285559068
0.051946033 -0.0030559599 0.034886256 4285426979
0.055448376 -0.0077739581 0.039442539 4285228843
0.058353856 -0.010415144 0.041886512 4285097518
0.061494913 -0.013746254 0.045028199 4285163054
0.043127649 0.003951408 0.025587805 4285491238
0.046537481 -0.00078757107 0.030148491 4285426980
0.049984939 -0.0055242181 0.034702644 4285493024
0.052852169 -0.008176513 0.037146516 4285360679
0.058862258 -0.014170639 0.042723469 4285097519
0.062438495 -0.018899135 0.047255158 4284966448
0.050876737 -0.010658421 0.03695558 4285163054
0.059791978 -0.019330636 0.044948034 4284966448
0.053631477 -0.014990471 0.038128696 4285097519
0.05083064 -0.014685228 0.035141915 4285097774
0.054122627 -0.018763654 0.038955942 4284966703
0.050503459 -0.015647218 0.03319028 4284966703
0.023562519 -0.020546883 0.012339824 4285359658
0.02574395 -0.021152593 0.012667998 4285228588
0.023442505 -0.022167265 0.011116563 4285425704
0.025623634 -0.022775143 0.011443128 4285229098
0.027986713 -0.024110816 0.012450169 4285097518
0.021315405 -0.023907691 0.010248874 4285294124
0.023493551 -0.02451805 0.010574195 4285360678
0.02567707 -0.025127962 0.010898667 4285294889
0.027865954 -0.02573742 0.01122228 4285098028
0.016367592 -0.02210097 0.0063346392 4285163053
0.018692102 -0.02344805 0.0073414883 4285294634
0.021363761 -0.026260518 0.0097055333 4285294633
0.023544293 -0.026872881 0.010028775 4285360423
0.025730196 -0.027484804 0.010351154 4285229099
0.027921477 -0.028096318 0.010672725 4284966448
0.014095552 -0.023093008 0.0047940249 4285163053
0.016411517 -0.024445094 0.005799002 4285163308
0.018903598 -0.026531801 0.0074804788 4285228843
0.021243788 -0.027882144 0.0084813116 4285228843
0.02359473 -0.029231742 0.0094803115 4285294633
0.025956441 -0.03058061 0.010477557 4285032238
0.011829559 -0.024079993 0.0032560369 4284966448
0.014296763 -0.026174903 0.0049367482 4285031984
0.016455151 -0.026793271 0.0052603064 4285163054
0.018784117 -0.02814877 0.0062597347 4285097518
0.021123834 -0.02950348 0.0072573042 4285163054
0.02347431 -0.030857429 0.0082530593 4285163308
-0.054042611 -0.006316416 -0.0080909282 4285228589
-0.05243678 -0.0032259002 -0.011195562 4285228589
-0.050928537 0.00060847774 -0.014987173 4285163054
-0.016250815 -0.0026088655 -0.016234688 4284901423
-0.013588447 -0.0069486201 -0.012481671 4285032238
0.0095696039 -0.025061861 0.0017206529 4285097519
0.014337718 -0.028525084 0.004397097 4285097519
0.016498484 -0.029145449 0.0047185747 4285032239
0.020836195 -0.030384928 0.0053589633 4285031983
-0.053939026 -0.01009395 -0.0071805064 4285228588
-0.052398134 -0.0062470138 -0.010969726 4285229354
-0.050883863 -0.0024015158 -0.014754112 4285294379
