# .PCD v0.7 - Point Cloud Data file format
VERSION 0.7
FIELDS x y z rgba
SIZE 4 4 4 4
TYPE F F F U
COUNT 1 1 1 1
WIDTH 978
HEIGHT 1
VIEWPOINT 0 0 0 1 0 0 0
POINTS 978
DATA ascii
0.0016969815 -0.053068712 -0.01090708 4287445048
0.0036577992 -0.052912444 -0.011388022 4287183418
0.0060405843 -0.054271363 -0.010559466 4287837238
0.0082203783 -0.054871857 -0.01038748 4288426034
0.010405505 -0.055471845 -0.010216653 4286529088
-0.016101196 -0.05609864 -0.0077442569 4286137154
-0.013956875 -0.056705594 -0.0075662774 4287118138
-0.012554936 -0.054264873 -0.010025419 4287837493
-0.010979187 -0.052586891 -0.011822242 4287706679
-0.0090294741 -0.052432291 -0.012301043 4288033844
-0.0066899285 -0.053799823 -0.011465739 4287772214
-0.0047347844 -0.053644538 -0.011945684 4287445049
-0.0023792237 -0.055010587 -0.011114072 4287771959
-0.00062149018 -0.054094039 -0.01225026 4286986303
0.0013364777 -0.053938121 -0.012730595 4286528323
-0.014663078 -0.056044534 -0.010711137 4286463299
-0.012895137 -0.055125847 -0.011848755 4287706679
-0.011132393 -0.054207444 -0.012984991 4287706679
-0.0093748644 -0.053289324 -0.014119852 4288033589
-0.0074278787 -0.053134784 -0.014597878 4287902774
-0.0054808259 -0.05298017 -0.015075862 4287052094
-0.00293383 -0.055114105 -0.013591308 4286659393
-0.015367992 -0.055370033 -0.013846286 4287051839
-0.013234887 -0.055982135 -0.013668731 4287705913
-0.011474743 -0.055061743 -0.014802694 4287967799
-0.0099116303 -0.053375855 -0.016589843 4287509818
-0.0079700947 -0.053221777 -0.017066546 4288098358
0.044452596 -0.010005288 0.0069173565 4284641069
0.047212988 -0.011948854 0.0084790373 4283462968
0.052679464 -0.020896077 0.016833756 4283463479
0.036365867 -0.0064854324 0.0017330563 4284443189
0.039080672 -0.0084395111 0.0033007013 4283924009
0.041811325 -0.010392249 0.0048645949 4283139118
0.044557787 -0.0123436 0.0064247036 4282484278
0.047586225 -0.014996484 0.0086597716 4282221119
0.054130331 -0.026782833 0.019705016 4282089284
0.030389108 -0.0085718259 0.0019973991 4282873919
0.032579385 -0.0091219395 0.0022037895 4282285379
0.034522213 -0.0089653283 0.0017285896 4281762373
0.036975678 -0.010220572 0.0026129717 4281697859
0.039439682 -0.011474892 0.00349491 4281697858
0.041914195 -0.012728229 0.0043743113 4281697859
0.044399243 -0.013980635 0.0052512744 4281566279
0.047692642 -0.01734747 0.0081572095 4281369419
0.054772831 -0.030581035 0.020527989 4281108043
0.026352949 -0.010500997 0.0017876634 4283329859
0.028537666 -0.011053964 0.0019936236 4282677824
0.030480465 -0.010897562 0.0015182709 4281827398
0.032922883 -0.01215829 0.002401934 4281500743
0.034870878 -0.012001231 0.0019254824 4281305159
0.037073966 -0.012552321 0.0021273298 4281305414
0.039540045 -0.013810799 0.003005459 4281435974
0.04175622 -0.014360562 0.0032042181 4281370438
0.044240706 -0.015617378 0.0040780576 4281370184
0.048064366 -0.020409942 0.0083272578 4281173579
0.055145655 -0.033685029 0.020666711 4281108299
0.022317208 -0.012429409 0.0015783748 4283788093
0.024257325 -0.012273557 0.0011034273 4282023493
0.026439082 -0.01282905 0.001308403 4282024259
0.028626107 -0.013384014 0.0015121689 4281762118
0.030818388 -0.013938427 0.0017147427 4281632069
0.033265557 -0.015203208 0.0025940118 4281435974
0.035470989 -0.015756339 0.0027935402 4281239879
0.03742674 -0.015598536 0.0023152856 4280912969
0.039897561 -0.016861007 0.0031889835 4280912969
0.042118706 -0.017412573 0.0033849636 4281239369
0.044870786 -0.019383095 0.004928981 4281238858
0.048700772 -0.024190515 0.0091652377 4281304649
0.055785809 -0.037506886 0.021472737 4281370183
0.019754948 -0.012772746 -0.00046598911 4283726639
0.021925803 -0.013331532 -0.00026014075 4281829184
0.024340754 -0.014603719 0.00062341988 4281304903
0.026766265 -0.015874892 0.0015044352 4281500998
0.029202361 -0.017145157 0.0023829853 4281566534
0.031155486 -0.01698789 0.0019051237 4281435974
0.033357974 -0.017543554 0.0021036556 4281435974
0.035565704 -0.018098697 0.0023009824 4281370184
0.037778676 -0.018653288 0.002497117 4280912969
0.040511604 -0.020632185 0.0040407954 4280977993
0.043000355 -0.021897502 0.0049069887 4281239369
0.046550233 -0.026009738 0.0084629124 4281369929
0.050927743 -0.032254606 0.014028423 4281435463
0.056960586 -0.042764813 0.023612984 4281435719
0.020066895 -0.015817374 -0.00026432797 4283269424
0.022242697 -0.016377956 -6.1334111e-05 4281828418
0.024423778 -0.016937986 0.00014045741 4281304393
0.026851393 -0.018213421 0.0010177372 4281435463
0.029045664 -0.018772155 0.0012164777 4281435719
0.030752109 -0.017899454 6.3291751e-05 4281566023
0.033200789 -0.01917278 0.00093564298 4281500999
0.036415551 -0.022590302 0.0038277162 4281305158
0.039402261 -0.02529075 0.0060399985 4281241154
0.042924382 -0.029418588 0.0095927408 4280782153
0.04621844 -0.032829352 0.01246569 4280977484
0.050326236 -0.038380437 0.017346732 4281238604
0.053946137 -0.042500012 0.020875845 4281434954
0.020144923 -0.018151768 -0.00074585062 4282614839
0.022087291 -0.017995827 -0.0012214193 4281697094
0.024506399 -0.019276381 -0.00034544896 4281305159
0.026936099 -0.02055601 0.00052805897 4281370438
0.029132666 -0.021116763 0.0007245997 4281369928
0.031580824 -0.022394627 0.0015937267 4281434953
0.034786504 -0.025823981 0.0044798134 4281434954
0.038773499 -0.031402752 0.0093769273 4281369164
0.04254856 -0.036261022 0.01359198 4281434444
0.046360634 -0.041116126 0.017798036 4281565004
0.049690567 -0.044534937 0.020654052 4281694288
0.053571373 -0.049384296 0.024843525 4282346578
0.022402946 -0.021054849 -0.0010317052 4281631558
0.024588635 -0.021618918 -0.00083426107 4281370184
0.026779581 -0.02218242 -0.00063805562 4281238858
0.02873233 -0.02202528 -0.0011158967 4281369164
0.032161754 -0.026187323 0.0024395688 4281303628
0.036866777 -0.033945039 0.0093451189 4281172558
0.042132877 -0.04313688 0.017578341 4281433424
0.045943394 -0.048007593 0.021773301 4281758803
0.049020775 -0.050718084 0.02395045 4282541908
0.020067129 -0.022109702 -0.0023915628 4283988013
0.022482486 -0.023399472 -0.001521253 4281631049
0.024432497 -0.023242787 -0.0019985931 4281565259
-0.020854395 -0.011355087 -0.0088679697 4283329858
-0.018966351 -0.011205718 -0.0093318895 4282286144
-0.016703375 -0.012514114 -0.0084291156 4282154564
-0.014809821 -0.012364075 -0.0088942107 4282285378
0.017737338 -0.02315928 -0.0037493194 4284639029
0.020144176 -0.024454191 -0.0028803209 4283329859
-0.02701363 -0.011910118 -0.0099741202 4283985719
-0.024954744 -0.012493543 -0.0097525474 4283134529
-0.022890437 -0.013076484 -0.0095321815 4282219589
-0.020820722 -0.013658822 -0.0093130935 4282024004
-0.018745609 -0.014240637 -0.0090952665 4281762629
-0.016852304 -0.014090762 -0.0095604025 4281567043
-0.01476904 -0.014671683 -0.0093443915 4281828674
-0.03534089 -0.011129424 -0.011991585 4284509234
-0.03313823 -0.012452312 -0.011081167 4283136569
-0.031093337 -0.01303938 -0.010858046 4282482748
-0.029042996 -0.013625927 -0.010636194 4281959233
-0.026987225 -0.014211915 -0.010415586 4281762884
-0.024749622 -0.0155316 -0.0095134266 4281697859
-0.022859432 -0.01538232 -0.0099780671 4281501254
-0.020605717 -0.016700462 -0.0090797413 4281370949
-0.018341295 -0.018017687 -0.0081839245 4281502019
-0.016627185 -0.017133795 -0.0093311705 4281437248
-0.014918271 -0.016250245 -0.010477021 4281829439
-0.039385796 -0.01224371 -0.012874946 4284381988
-0.037357554 -0.012834631 -0.01264962 4283138354
-0.035323858 -0.013425022 -0.012425568 4282484023
-0.033119112 -0.014752135 -0.011518944 4281763903
-0.031071901 -0.015341237 -0.011298042 4281698624
-0.029019251 -0.015929803 -0.011078404 4281698113
-0.026961178 -0.016517848 -0.010859953 4281434953
-0.025073893 -0.01636894 -0.011323979 4281500998
-0.022828802 -0.017692275 -0.010426905 4281500743
-0.020754475 -0.018278666 -0.010212244 4281370693
-0.018306468 -0.020336077 -0.0086403349 4281566788
-0.016402859 -0.020185418 -0.0091080302 4281633088
-0.014688574 -0.019299254 -0.010253566 4281698623
-0.043114141 -0.014832795 -0.012386534 4284444463
-0.041244015 -0.014686145 -0.012847016 4282941494
-0.039373741 -0.014539361 -0.013307452 4282418233
-0.037183061 -0.015872203 -0.012400812 4281567554
-0.035307176 -0.015724771 -0.012862464 4281436738
-0.033100329 -0.01705607 -0.011959672 4281241153
-0.030882768 -0.018386461 -0.011059404 4281371458
-0.028825171 -0.018976837 -0.010842619 4281305923
-0.026935503 -0.018827856 -0.011307317 4281305669
-0.025045708 -0.018678762 -0.011771978 4281305669
-0.022977158 -0.019267932 -0.011557628 4281370694
-0.020721912 -0.020594731 -0.010666232 4281370183
-0.01827202 -0.022658564 -0.0090996968 4281501254
-0.016365901 -0.022507705 -0.0095680049 4281631558
-0.014648911 -0.021619171 -0.010712595 4281698113
-0.012553368 -0.022205599 -0.010504429 4283918908
-0.04479862 -0.027829647 -0.0023058318 4283001163
-0.043934606 -0.022479892 -0.0075678593 4282413388
-0.042955481 -0.017875642 -0.012136831 4281826633
-0.041234814 -0.016986102 -0.01328186 4281305414
-0.039362028 -0.016839139 -0.013742925 4281567300
-0.037169255 -0.018176213 -0.012840082 4281632579
-0.035128318 -0.018770434 -0.012621098 4281502019
-0.033081926 -0.019364119 -0.012403372 4281306944
-0.031030111 -0.019957311 -0.012186852 4281240899
-0.028802365 -0.021291129 -0.011292311 4281305668
-0.026910201 -0.021141969 -0.011757641 4281305158
-0.024842106 -0.021733493 -0.011544912 4281370184
-0.022768617 -0.022324458 -0.011333424 4281370184
-0.02087079 -0.022174522 -0.011799886 4281370694
-0.0186054 -0.023504838 -0.010914131 4281369673
-0.016515695 -0.024094157 -0.010706351 4281237584
-0.014420606 -0.024682947 -0.010499813 4281564748
-0.012320112 -0.025271222 -0.010294462 4283590469
-0.043783121 -0.025544822 -0.0073325257 4282347088
-0.042949371 -0.020182088 -0.012575577 4281499724
-0.041071586 -0.020034872 -0.013037973 4281435209
-0.039193638 -0.019887522 -0.013500321 4281566534
-0.036996126 -0.021228574 -0.012601969 4281500998
-0.034950227 -0.021824665 -0.012385813 4281501764
-0.032898881 -0.022420146 -0.01217094 4281370693
-0.031177409 -0.021527849 -0.01331408 4281109573
-0.028950222 -0.022866115 -0.012422691 4281044548
-0.027058192 -0.022716977 -0.012888 4281304904
-0.024990462 -0.023310728 -0.012676821 4281108809
-0.023095537 -0.023161136 -0.013142663 4281173579
-0.02101963 -0.023753986 -0.012933317 4280976973
-0.04393024 -0.027123675 -0.008466024 4282607954
-0.043095179 -0.021745548 -0.013697985 4281631048
-0.041371725 -0.0208515 -0.014840429 4281566279
-0.039339714 -0.021451056 -0.014622697 4281500998
-0.037142754 -0.022796534 -0.013727483 4281502019
-0.03477291 -0.024887353 -0.012156679 4281500999
-0.032716624 -0.025484666 -0.011944672 4281369418
-0.030989796 -0.02458977 -0.013087516 4281173579
-0.029098034 -0.024440788 -0.013552855 4280978248
-0.027378857 -0.023546271 -0.014693641 4280975444
-0.025314122 -0.024142459 -0.014483373 4280645729
-0.043779872 -0.030201256 -0.0082397182 4282607188
-0.043089584 -0.024058037 -0.014141082 4281761098
-0.041055404 -0.024659723 -0.013925605 4281762374
-0.038859151 -0.026009813 -0.013033538 4281501509
-0.036333568 -0.028856248 -0.010789668 4281632579
-0.034110554 -0.030203946 -0.0099040493 4281566533
-0.031712219 -0.032298975 -0.0083450712 4281565514
-0.030468486 -0.029156297 -0.011516565 4281237838
-0.029075928 -0.026763 -0.014008243 4280714324
-0.041875117 -0.032386549 -0.0091666691 4282022729
-0.039817497 -0.032988623 -0.0089586265 4281632069
-0.037285097 -0.03584338 -0.0067230524 4281630283
-0.034890465 -0.037945516 -0.0051682452 4281431894
-0.032318093 -0.040796913 -0.0029423507 4281429853
0.049444728 0.035332486 0.03409455 4279454623
0.051687434 0.039503597 0.028817162 4278402748
0.042257182 0.031132121 0.037003554 4278861748
0.044482417 0.030643933 0.037245512 4279062433
0.04618004 0.031447787 0.036043625 4278407338
0.046795942 0.034833591 0.031960461 4278537388
0.047399051 0.04288923 0.022375122 4279847578
0.049868949 0.041753821 0.023343936 4279127714
0.05458685 0.035461556 0.030054793 4279061159
0.033001676 0.032108616 0.034130655 4279651994
0.032167785 0.039404944 0.025701012 4278732464
0.033064567 0.042154625 0.022341955 4278403513
0.04168883 0.035484664 0.028864902 4279192739
0.043360043 0.036288626 0.02767114 4278472618
0.044219259 0.039035618 0.024321523 4278930854
0.02796945 0.032775495 0.031024065 4279324829
0.028917596 0.03553791 0.027658857 4278865829
0.029991873 0.04301168 0.018780116 4279061669
0.031378962 0.044466361 0.016874135 4279389853
0.033787481 0.0433168 0.017851099 4278733484
0.037509993 0.038914856 0.022422723 4278798764
0.040479537 0.036467336 0.024828926 4278667694
0.042672269 0.0359722 0.025075685 4278472618
0.043258309 0.039377663 0.021016289 4278472873
0.043817692 0.042781085 0.016963422 4278406573
0.045446269 0.043584041 0.015781906 4278340018
0.051479757 0.038697269 0.020571873 4278537134
0.054528147 0.036256537 0.022959191 4278734758
0.058735885 0.031222653 0.028195769 4278668968
0.016737472 0.03431119 0.027886394 4280897413
0.018215412 0.041166965 0.019707866 4278271679
0.023457412 0.037544694 0.023113772 4279453604
0.025368623 0.03769803 0.022645757 4278996389
0.026785403 0.03915929 0.02073564 4278603943
0.030206239 0.045498312 0.012863795 4278995114
0.039535083 0.036815263 0.021523055 4278602668
0.041985322 0.03566489 0.022486694 4278865319
0.042835474 0.038428809 0.019152474 4278603434
0.044206478 0.039887019 0.017254028 4278668968
0.045840498 0.040692646 0.016072851 4278799784
0.048574656 0.038891576 0.017748792 4278800039
0.051045582 0.037743181 0.018707678 4278537898
0.052400168 0.039200392 0.016813416 4278538408
0.012288749 0.033713862 0.026227463 4279979414
0.013519999 0.035840131 0.023585666 4278865319
0.014504269 0.038622633 0.020224433 4278537134
0.015467318 0.041403502 0.016868453 4279257254
0.017118244 0.042211715 0.015684053 4279125164
0.022337558 0.038574435 0.019085675 4278864044
0.024238065 0.038726918 0.018620282 4278472363
0.02589155 0.039535627 0.017435469 4278472618
0.027040396 0.041655876 0.014814292 4278602924
0.038066067 0.038486458 0.016795639 4278996134
0.040502526 0.037330605 0.017759386 4278930854
0.042413071 0.037484542 0.017292019 4278603433
0.044865262 0.036330059 0.018252078 4278668968
0.046507362 0.037138604 0.017070539 4278800038
0.048696417 0.036639106 0.017315157 4278603434
0.050054137 0.038100928 0.015423379 4278341295
0.0017051362 0.033992205 0.024522722 4279913624
0.008436257 0.037242137 0.019758955 4278865573
0.0096547622 0.039373919 0.017125152 4278603434
0.011313766 0.040184759 0.015940249 4278341039
0.014382353 0.042464837 0.012853303 4278601393
0.016258938 0.042615194 0.012393613 4279585439
0.018613152 0.04144758 0.013373726 4278470834
0.023597468 0.03845657 0.016044833 4278472108
0.025245775 0.039267063 0.014862935 4278799783
0.02663929 0.040735401 0.01296511 4278668969
0.028274233 0.041544978 0.011786598 4278603178
0.030158548 0.041696467 0.011325399 4279061669
0.03281498 0.039875448 0.013010218 4278799273
0.034707122 0.040027719 0.012547218 4278603178
0.03633647 0.040837169 0.011370241 4278995879
0.03849116 0.040332444 0.011621431 4278864554
0.041187052 0.038514942 0.013296773 4278733738
0.044440091 0.035385862 0.016392451 4278668969
0.046626318 0.034883901 0.016636092 4278669479
0.048541754 0.035038471 0.016167711 4278472618
0.0498408 0.041248176 0.0088459821 4278929833
0.050880194 0.043367162 0.0062572146 4279193504
-0.0018438771 0.030769173 0.025767807 4279587478
-0.0013990179 0.035566412 0.020221241 4278931364
-0.0009912625 0.040360816 0.014683782 4278273463
0.00066768751 0.041173462 0.013500246 4279059118
0.0073943511 0.038309343 0.01573506 4278799783
0.0086027868 0.040446915 0.013108647 4278341293
0.010479275 0.040597033 0.012648814 4278537643
0.015400942 0.043032158 0.0091129178 4278271934
0.020344248 0.040026732 0.011785761 4278602668
0.02295772 0.038195349 0.013475859 4278865319
0.024847399 0.038347058 0.013013189 4278603434
0.026986267 0.037838429 0.013266289 4278669224
0.028374759 0.039310846 0.011373044 4278734503
0.030516166 0.038802616 0.011625589 4278668969
0.032662824 0.038294844 0.011876957 4278603178
0.034295037 0.039106674 0.010700881 4278602668
0.039159372 0.0415399 0.00718104 4278271169
0.04510621 0.036575757 0.011939588 4278341548
0.046732549 0.037387524 0.010765334 4278341548
0.049592998 0.044423819 0.0023002019 4278471854
0.052610826 0.0419457 0.0046689333 4278472364
0.056227744 0.038155049 0.0084444312 4278340783
-0.0043140501 0.030353557 0.023641519 4279259294
-0.0040611625 0.035833288 0.017378274 4278669223
-0.0021996126 0.042123847 0.0099454718 4279061414
-0.00033931062 0.042272292 0.0094893156 4279324319
0.0019553453 0.041090541 0.010476957 4279126949
0.0065766312 0.038729787 0.012444607 4278537643
0.0084530078 0.038879823 0.011984746 4278668203
0.0098738652 0.040358506 0.010086388 4278668458
0.011284098 0.041836463 0.0081906514 4278734249
0.013149891 0.041985884 0.0077335527 4278668969
0.015251428 0.04147169 0.0079938779 4278537898
0.017596632 0.040294603 0.0089695873 4278472363
0.019711398 0.03978166 0.0092267385 4278603433
0.021831442 0.039269224 0.0094826566 4278603434
0.023956776 0.038757246 0.0097373808 4278603688
0.026336366 0.037583224 0.010704902 4278472873
0.028223213 0.037734874 0.010243054 4278603689
0.030110003 0.037886605 0.0097812796 4278472363
0.031739768 0.038700335 0.0086074481 4278537898
0.033104528 0.040175486 0.0067234719 4278274484
0.033934068 0.042972848 0.0034205643 4279127459
0.035801992 0.043123357 0.0029636333 4279323299
0.044406909 0.036307923 0.0093839085 4278603434
0.046303596 0.036461055 0.0089201657 4278735014
0.046809219 0.039915457 0.0049218023 4278407338
0.066046894 0.023037735 0.021143597 4278669478
-0.0042616874 0.028094042 0.023223702 4280242828
-0.0046235584 0.035596319 0.014803831 4278669224
0.0059824698 0.038496785 0.0098828794 4278799273
0.0078534465 0.038646385 0.009424339 4278799784
0.0097244326 0.038796067 0.0089658527 4278603434
0.011365227 0.039612114 0.0077903839 4278537898
0.013466442 0.039095655 0.0080490401 4278406828
0.015572969 0.03857971 0.0083064614 4278603178
0.017684791 0.038064264 0.0085626384 4278341293
0.019320246 0.038880207 0.0073887156 4278471599
0.02282129 0.039846018 0.0057580983 4278271169
0.027820226 0.03682372 0.0084013985 4278667949
0.029704269 0.036975227 0.0079402989 4278472363
0.030817989 0.03911934 0.0053476347 4278668969
0.033259522 0.042740166 0.0008834973 4278536113
0.035386764 0.042226739 0.0011364818 4279127714
0.038053948 0.040387169 0.0028041741 4278668713
0.041276984 0.037222758 0.0058826329 4278340529
0.043708444 0.036049187 0.0068347612 4278406319
0.045324411 0.036864616 0.0056663183 4278800294
0.046101026 0.039667029 0.0023832368 4278537898
0.047136948 0.041805521 -0.00018983893 4278604199
0.049006648 0.041956719 -0.00064679887 4278538919
0.052019939 0.039460734 0.0017099762 4278931364
0.055920042 0.034981743 0.0061699087 4278800549
0.060148351 0.029844407 0.011323015 4279062688
0.065006688 0.023388248 0.017868761 4278735268
-0.0023785084 0.019794617 0.029300477 4281880949
-0.0041544586 0.032016303 0.015842479 4278735014
-0.0045644343 0.039538965 0.0074525634 4278799273
-0.00376416 0.043037076 0.0033970261 4278340018
0.0030848607 0.039462551 0.0063488195 4278733995
0.0047230572 0.040280346 0.0051754499 4278472363
0.0068053529 0.039759941 0.0054369243 4278603433
0.0093476847 0.03790256 0.0071293758 4278341803
0.011445938 0.037383594 0.0073870616 4278538154
0.013549499 0.03686513 0.0076435013 4278472618
0.015423061 0.037015259 0.007184566 4278668713
0.017296616 0.037165463 0.0067256885 4278602668
0.018688925 0.038651057 0.0048411908 4278667694
0.027166422 0.036584057 0.0058527971 4278470578
0.028537303 0.038068339 0.00397385 4278537643
0.029897507 0.039551824 0.0020975647 4278668969
0.043828182 0.033804264 0.0064072954 4278734759
0.045171816 0.035287023 0.0045354357 4278865829
0.046782501 0.036104277 0.0033700513 4278800804
0.048387751 0.036921181 0.0022060545 4278931873
0.050553683 0.036409259 0.0024483697 4279062688
0.053867649 0.033241697 0.0054967599 4278735269
0.057496376 0.029412497 0.009239967 4278276524
0.066317096 0.018445186 0.020202659 4278472874
-0.0032747723 0.027077954 0.018311169 4281356159
-0.0045035109 0.037315734 0.0070592174 4278603943
-0.0039108396 0.04149732 0.0022925818 4278603689
-0.0018528886 0.040972441 0.0025581336 4278865319
0.00042694807 0.039776295 0.0035395445 4278668458
0.0022790879 0.039924212 0.0030854875 4278864809
0.0039094314 0.040743575 0.0019156793 4278536369
0.0057589822 0.040891461 0.001462386 4278471088
0.0085170977 0.038355634 0.0038671987 4278667949
0.011066668 0.036492318 0.0055530155 4278865573
0.013167271 0.035971425 0.0058085443 4278538154
0.014332781 0.038132258 0.0032125758 4278668713
0.017096825 0.041110575 -0.00054490753 4278274229
0.018949009 0.041259237 -0.0009984253 4279127713
0.021046884 0.040738486 -0.00074187946 4278865573
0.023646738 0.038879812 0.00093200337 4279061413
0.027879398 0.037841737 0.0014363276 4278800039
0.02923461 0.03932929 -0.00043548178 4278668968
0.030579161 0.040816024 -0.0023045745 4278472108
0.032436278 0.040965647 -0.0027588764 4278930854
0.034557592 0.040447392 -0.0025076894 4278996389
0.03748494 0.037926391 -0.00014339108 4279127458
0.04097259 0.034072131 0.0036240285 4278800038
0.043403007 0.032889746 0.0045698946 4278997154
0.045843907 0.031708322 0.0055132052 4278866084
0.048017748 0.031194709 0.005751851 4278538409
0.058781933 0.024482962 0.011591538 4278342314
0.062163368 0.021310065 0.01461538 4278407849
0.067038439 0.014811389 0.0211243 4278669479
-0.0019857399 0.020767976 0.022200413 4281356158
-0.0036095604 0.032389745 0.0095327767 4279980179
-0.0034244768 0.037934542 0.0033387626 4278603944
-0.001572527 0.038082272 0.0028846217 4278406828
0.00027947128 0.038230091 0.0024305331 4278471854
0.0019125491 0.039051786 0.001261632 4278340019
0.010458255 0.036278695 0.0030100131 4278470834
0.012088779 0.037100602 0.0018420527 4278406828
0.013244215 0.039267227 -0.00074652303 4278472618
0.018072013 0.041728586 -0.0042342367 4278274484
0.020652596 0.039861709 -0.0025606034 4278733483
0.025861423 0.036131941 0.00077526458 4278275759
0.027475791 0.036953263 -0.00038829073 4278734759
0.02934091 0.037103385 -0.00084465556 4278866084
0.031205967 0.037253588 -0.0013009468 4278866084
0.033332378 0.036733441 -0.001052646 4278735269
0.035463996 0.036213849 -0.00080559775 4279062688
0.038401004 0.033684857 0.0015497962 4278669479
0.04162851 0.030487914 0.0046026064 4278538409
0.044338372 0.028632268 0.0062452247 4278538408
0.047064044 0.026777945 0.0078840842 4278473128
0.049805515 0.024924982 0.0095191477 4278801058
0.052282773 0.023742296 0.010450437 4278538663
0.054487873 0.023229208 0.010679948 4278669989
0.056983434 0.022048123 0.011606931 4278801059
0.059777368 0.020199779 0.013229373 4278538918
0.06229648 0.019020766 0.014150728 4278605219
0.067758441 0.011164542 0.022036608 4278801824
-0.0013160966 0.016458452 0.023917954 4281618299
-0.002509553 0.026765 0.012706495 4281485699
-0.0027285442 0.033682033 0.0050908411 4279060648
-0.0019333176 0.037212756 0.0010611815 4278668969
-0.00030016899 0.038036563 -0.00010616332 4278472109
0.0011089481 0.039536074 -0.0019854754 4278864809
0.0027289093 0.040359005 -0.0031494591 4278930853
0.004567638 0.040506005 -0.0036001131 4279126948
0.0093919896 0.037424468 -0.00094782002 4278733483
0.011476055 0.036897812 -0.00069147255 4278537644
0.012626722 0.039070658 -0.0032739518 4278537898
0.013761461 0.041242309 -0.0058524711 4278602668
0.025460785 0.035246126 -0.0010482678 4278800549
0.02783237 0.034049664 -9.4980933e-05 4278997154
0.029958593 0.033527203 0.00015156996 4279062688
0.032348607 0.032332439 0.0011004359 4279062688
0.034487963 0.031811163 0.0013439478 4278276269
0.036896389 0.030618049 0.0022884319 4278342059
0.039581854 0.028753664 0.0039320355 4278276524
0.042552292 0.026218686 0.0062727733 4278341803
0.045272026 0.02435727 0.0079080788 4278538663
0.048282027 0.02182566 0.010239269 4278472873
0.051036023 0.019967146 0.011866371 4278800804
0.053246245 0.019452225 0.012092951 4278866594
0.055179223 0.019608688 0.011620636 4278997919
0.05768219 0.018423896 0.012542519 4278735779
0.059907921 0.017910432 0.012765539 4278670244
0.062429141 0.016727284 0.013683083 4278474149
0.067891084 0.0088447295 0.021549322 4278736289
-0.0017766915 0.0092591345 0.028961059 4282601323
-0.0016744845 0.015527908 0.022048168 4281484933
-0.001827877 0.02247205 0.014432742 4281156240
-0.0022448413 0.030090906 0.0061167451 4279321259
-0.0018671788 0.034990638 0.00066707376 4278996644
-0.0013107136 0.039209042 -0.0040610498 4278406318
0.0014763698 0.042214394 -0.0078053819 4278668968
0.0037494414 0.041004699 -0.0068319431 4278538153
0.0062596239 0.039118405 -0.0051513482 4278406573
0.011095997 0.036027025 -0.0025100615 4278472109
0.012479011 0.037529308 -0.0043792753 4278930853
0.013851393 0.039030872 -0.006245859 4278865574
0.01545292 0.039855111 -0.0074032471 4278865574
0.017776387 0.038650069 -0.0064416956 4278800038
0.020355493 0.036769893 -0.0047775367 4279062434
0.023198213 0.034215167 -0.0024126144 4279062689
0.026062114 0.031662248 -5.2801333e-05 4278931618
0.028947186 0.029111106 0.0023018857 4278603944
0.03616339 0.025517356 0.005127429 4278276524
0.038326211 0.024995927 0.0053635994 4278473384
0.041293141 0.022451807 0.0076985853 4278604453
0.043743301 0.021257821 0.0086297775 4278538918
0.046475548 0.019390862 0.010257128 4278604453
0.049223609 0.017525222 0.011880717 4278801059
0.051433649 0.017008029 0.012105661 4278669989
0.053369313 0.017164659 0.01163265 4278932128
0.055587046 0.016648266 0.01185584 4279128734
0.058094807 0.015459459 0.012773345 4279063198
0.060325511 0.014944285 0.012993495 4278866338
0.062851526 0.013757121 0.013906662 4278801058
0.068901695 0.0045039915 0.023139659 4278932128
-0.0024425201 0.015965004 0.018755075 4282203524
-0.0017710142 0.020205516 0.014008314 4281417359
-0.0017623752 0.026486784 0.0071332557 4281417358
-0.001588393 0.032083448 0.00098140817 4279258528
-0.0014568232 0.037676856 -0.0051600197 4278931108
0.0081803836 0.037051544 -0.0059947912 4278603690
0.01071639 0.035160862 -0.0043252651 4278800294
0.012565564 0.03530905 -0.0047782157 4278931363
0.014414728 0.035457313 -0.0052311094 4278997409
0.016263878 0.035605684 -0.0056839185 4278931618
0.018839631 0.033718534 -0.0040238677 4278866083
0.021186402 0.032511089 -0.0030712858 4278604199
0.024533799 0.028592192 0.00069063157 4278276524
0.027162496 0.026709564 0.0023379242 4278407338
0.030059874 0.02415064 0.0046830578 4278276524
0.031956524 0.024303354 0.0042190114 4278538663
0.034111232 0.023778908 0.0044554053 4278669733
0.036531951 0.022577919 0.0053903414 4278473384
0.038699765 0.022054706 0.0056236563 4278473384
0.041138869 0.020855412 0.0065541836 4278866339
0.043588497 0.019657012 0.0074822409 4278669989
0.046319995 0.017783422 0.0091048749 4278801059
0.049341351 0.015235212 0.011420215 4278735524
0.051277038 0.015391782 0.010947156 4279063198
0.053491935 0.014872912 0.011169362 4278997408
0.055430014 0.015029851 0.010695846 4279259549
0.05793725 0.013836633 0.01161022 4279128734
0.060167633 0.01331928 0.011828839 4279194269
0.063562937 0.010103729 0.014816626 4279194014
0.069910541 0.00014583766 0.024717454 4279325594
-0.0030044243 0.015731957 0.016183406 4283250299
-0.0019220337 0.018618293 0.012869767 4281351568
-0.0012811199 0.022869587 0.008140455 4281548429
-0.00088479742 0.027801514 0.0027091941 4281221264
-0.0013874434 0.035462067 -0.0055496488 4279389345
-0.00085779652 0.039704755 -0.010251474 4278537898
0.00052314252 0.041215234 -0.012113933 4278669478
0.0030106045 0.039313842 -0.010437682 4278865829
0.0055140182 0.037413783 -0.0087652169 4278865829
0.0082620848 0.034833293 -0.0063906815 4278997154
0.011031382 0.032254588 -0.0040212786 4278931618
0.013587859 0.030359082 -0.0023616645 4278735014
0.015686868 0.029827252 -0.0021138098 4278407339
0.022994211 0.025512721 0.0014305552 4278276269
0.025619559 0.023623154 0.0030736877 4278407594
0.028010808 0.022415098 0.0040122559 4278538663
0.030160015 0.021887846 0.0042482307 4278473128
0.032314464 0.021361113 0.0044829929 4278800804
0.034216247 0.021514341 0.0040177694 4278800804
0.037160207 0.018950675 0.0063451631 4278931874
0.039335672 0.018425867 0.0065750359 4278735524
0.042048059 0.016543988 0.0081973029 4278735524
0.044239234 0.016020663 0.0084234206 4278866849
0.046435624 0.01549783 0.0086483853 4278670244
0.048911013 0.014297362 0.009566973 4278801314
0.050843939 0.014453735 0.0090946062 4278866593
0.053334996 0.013254724 0.010009506 4279325338
0.055554762 0.012734119 0.010229017 4279325339
0.058348522 0.010859463 0.011831875 4279194524
0.060583904 0.010340307 0.012047705 4279456409
0.064273067 0.0064372681 0.015717305 4279587734
0.070917651 -0.0042298138 0.026282798 4280309384
-0.0020730272 0.017031323 0.0117314 4282464133
-0.00059115887 0.018553872 0.0098471837 4282333574
2.9746443e-05 0.022816841 0.0051326817 4281416849
-0.0002421625 0.029817671 -0.0024043098 4280828563
-0.0001312606 0.035444662 -0.0085143726 4279192994
0.0014811568 0.036275737 -0.0096699782 4278800804
0.003757935 0.035053201 -0.0087073315 4278997408
0.0064970739 0.032463115 -0.0063372338 4278604199
0.011576707 0.02865595 -0.0030198321 4278538919
0.01437423 0.026070815 -0.00066383369 4278407849
0.016720001 0.024854258 0.00028225128 4278342314
0.018837254 0.02432175 0.00052411482 4278604198
0.020959781 0.023789808 0.00076471921 4278801059
0.023576457 0.021892875 0.0024049981 4278669989
0.025961909 0.020679876 0.0033416403 4278932384
0.028108194 0.020150118 0.0035766372 4278735779
0.030259732 0.019620869 0.0038104085 4278997919
0.032161471 0.019774027 0.0033451477 4278866849
0.03483624 0.017882239 0.0049715573 4278866594
0.037266504 0.016673259 0.0058976272 4278669989
0.039444286 0.016146503 0.0061252555 4278735779
0.041892923 0.014939245 0.0070469333 4278736289
0.044352092 0.01373288 0.0079661449 4278867359
0.046279848 0.013888683 0.0074949292 4278998428
0.048754692 0.012683813 0.0084103933 4279325848
0.050687522 0.012840211 0.0079380749 4279587734
0.053456962 0.010956798 0.0095418887 4280178568
0.055679042 0.010434259 0.0097591681 4281097079
9.7166747e-05 0.014220726 0.011541407 4282726529
0.00072982535 0.018497802 0.0068338504 4282006153
0.00068557262 0.024834309 1.6137026e-05 4281025168
0.0012466982 0.029105894 -0.0046737883 4279324063
0.002877783 0.029940665 -0.0058323257 4278407849
0.0051726028 0.028715134 -0.0048773373 4278341803
0.0079293475 0.026117716 -0.00251815 4278342314
0.010250727 0.024894491 -0.0015695374 4278342314
0.012582708 0.023672245 -0.00062349346 4278407849
0.014691692 0.023136742 -0.00038142316 4278604453
0.017042248 0.021916136 0.00056025852 4278473384
0.019164469 0.021381892 0.00079923682 4278604453
0.021050407 0.021533314 0.00033749361 4278866594
0.023913205 0.018945009 0.0026712371 4278801314
0.026303425 0.017728008 0.0036034463 4278735779
0.028205168 0.01788098 0.0031380402 4278867359
0.029854678 0.018718366 0.0019758428 4278867359
0.032518156 0.016818993 0.0036000377 4278997918
0.035197478 0.014920995 0.0052204272 4278866338
0.037632491 0.013708077 0.0061420305 4278800803
0.039815251 0.013179541 0.0063668182 4279128989
0.042268675 0.011968251 0.0072841076 4278866848
0.044732593 0.010757942 0.0081988433 4279260059
0.046936277 0.010231387 0.0084187342 4279719569
0.049145155 0.0097053535 0.0086374274 4280767873
0.0010038838 0.015540756 0.0071123438 4282333573
0.0016112253 0.01982908 0.002420892 4281810313
0.002186764 0.024114981 -0.0022627376 4280566424
0.0038312152 0.024953011 -0.0034229122 4279260059
0.0059159584 0.024412997 -0.0031768205 4278866593
0.0084569193 0.02249616 -0.0015283246 4278669989
0.010785704 0.021269172 -0.00058484636 4278801059
0.012894381 0.020731326 -0.00034435373 4278735524
0.014774941 0.02088204 -0.00080498587 4278932129
0.01689155 0.020345055 -0.00056634285 4278866594
0.019013444 0.019808587 -0.00032892544 4278801059
0.021381989 0.018585235 0.00060522463 4278735779
0.023761101 0.017362855 0.0015368005 4278735779
0.026397459 0.015454449 0.0031625209 4278867359
0.028301734 0.015607648 0.0026965113 4278867359
0.030457925 0.01507441 0.0029258886 4279129243
0.033128604 0.013169058 0.0045434264 4279325594
0.036072385 0.010579024 0.0068511227 4279456664
0.037997626 0.01073429 0.0063802721 4279981454
0.040185381 0.010203943 0.0066022603 4281292919
0.001065176 0.013267078 0.006681229 4282465919
0.0016763136 0.017568856 0.0019986695 4281680519
0.0026902072 0.020485193 -0.0012717033 4280371603
0.0041227899 0.022017345 -0.0031337254 4279260059
0.0064350814 0.02078446 -0.0021896278 4278801314
0.0087580103 0.019552514 -0.0012480672 4279062943
0.011091579 0.018321477 -0.00030899793 4278670244
0.013435744 0.017091434 0.00062751118 4278669989
0.015090963 0.017933004 -0.00053330325 4278735779
0.017684232 0.016014166 0.0010977602 4278801059
0.020054897 0.014786534 0.0020279912 4278408359
0.022436164 0.013559815 0.0029557487 4278670244
0.024827994 0.012334086 0.0038809488 4278735268
0.026983952 0.01179846 0.0041086143 4279062943
0.029145183 0.011263303 0.0043351045 4279718294
0.031311654 0.010728732 0.0045603504 4279915154
0.033737764 0.0095061585 0.0054774554 4280438923
0.036431491 0.0075961724 0.0070845122 4282209644
0.00070256367 0.012377501 0.0048433756 4283251828
0.0015266016 0.015998397 0.00087223481 4281745544
0.0025412217 0.018923581 -0.0023917574 4280372114
0.0044135302 0.019073151 -0.002850729 4280111249
0.0067305937 0.017836243 -0.0019110851 4279455898
0.0090583004 0.016600247 -0.00097392593 4279128479
0.011396613 0.015365247 -3.9337203e-05 4278669989
0.013745552 0.014131155 0.00089277048 4278735524
0.015639143 0.014282912 0.00042894669 4278736289
0.018239602 0.012358114 0.0020532971 4278997664
0.020379417 0.011818677 0.002283114 4278735779
0.023247302 0.0092043616 0.0045958916 4278932128
0.025649197 0.0079750568 0.0055153584 4281027973
0.028307911 0.0060552917 0.0071257884 4282271608
0.0026091225 0.016666312 -0.002812637 4279846048
0.0047034621 0.016120367 -0.0025738934 4279979158
0.0072474554 0.01418392 -0.00094095338 4278669479
0.0093577467 0.013639443 -0.00070597697 4278669733
0.01147338 0.013095461 -0.00047218241 4278801058
0.014054526 0.011162341 0.0011518411 4279390619
0.016651597 0.0092305392 0.0027720714 4279718294
0.019264571 0.0073001273 0.0043884898 4279718293
0.021655362 0.0060653389 0.0053072507 4280961929
0.024297472 0.0041374713 0.0069166915 4282467959
0.0028932765 0.013706729 -0.0025390405 4280371348
0.0049925894 0.013158981 -0.0023031561 4279717274
0.0075411312 0.011216313 -0.00067624729 4278931364
0.0096564014 0.010670044 -0.00044412259 4279062688
0.012004234 0.0094270259 0.00048158225 4279456154
0.015052384 0.0060937181 0.0034872862 4279783828
0.017661948 0.0041563474 0.005099549 4281158024
0.020287424 0.0022203438 0.0067079877 4282728824
0.0057190657 0.0087887645 -0.00064822473 4281682558
0.0082774423 0.0068403445 0.00097131543 4281877633
0.028818948 -0.024373651 -0.0016104663 4280050304
0.032987326 -0.030715019 0.0039467691 4279917704
0.038446136 -0.040661782 0.012842298 4280047754
0.043979071 -0.050602473 0.021719787 4280768639
0.024751872 -0.026316211 -0.0018207626 4279853953
0.026947403 -0.026883706 -0.0016289447 4279588753
0.029391259 -0.02817519 -0.00076859631 4279261078
0.033565532 -0.034535758 0.0047725039 4279391638
0.039029162 -0.044512779 0.013644 4279653779
0.015413579 -0.024203569 -0.0051049674 4282078828
0.017352737 -0.024048112 -0.0055799196 4280571523
0.019988589 -0.026075214 -0.0040427046 4279587989
0.022405457 -0.027373612 -0.003179295 4278736289
0.024832888 -0.028670996 -0.0023184214 4279064219
0.02703071 -0.029240474 -0.0021287818 4279260059
0.029476644 -0.030536175 -0.0012722109 4279063454
0.033896983 -0.037642881 0.0049215006 4279325338
0.039114658 -0.046924077 0.013102804 4279784083
0.013319943 -0.025972977 -0.0057874629 4281422714
0.015485672 -0.026547849 -0.0055920566 4279522964
0.017656703 -0.027122155 -0.0053978581 4279325849
0.020297084 -0.029155493 -0.0038666073 4279194269
0.022483993 -0.029728293 -0.0036761183 4278866849
0.024913505 -0.03102988 -0.0028190073 4278932894
0.027113628 -0.031601414 -0.0026315246 4278932384
0.029561628 -0.032901257 -0.0017787572 4278801059
0.033737071 -0.039301127 0.0037326561 4278997663
0.038703911 -0.047882512 0.011228227 4279718803
0.0071330704 -0.027318627 -0.0061907861 4282209134
0.0092878118 -0.027896985 -0.0059945602 4281225853
0.011447856 -0.028474733 -0.0057995822 4279587479
0.013613217 -0.029051945 -0.005605815 4279391128
0.015783887 -0.02962859 -0.005413251 4279063199
0.017959865 -0.030204751 -0.0052218568 4278604453
0.020141125 -0.030780315 -0.0050317068 4278866339
0.022562133 -0.032087073 -0.0041758772 4279128733
0.024993733 -0.033392921 -0.0033225063 4278932129
0.02719613 -0.033966392 -0.0031372439 4278408103
0.029403798 -0.034539334 -0.0029531773 4278538918
0.033332124 -0.040228128 0.0018797712 4279259804
0.038789019 -0.050297573 0.010684342 4279981198
0.00054818392 -0.027184963 -0.0079376083 4280505478
0.0026865527 -0.027767137 -0.0077393218 4279915664
0.0046172068 -0.027613096 -0.0082127396 4279194524
0.0065478906 -0.027458936 -0.0086860787 4279128478
0.0091336854 -0.029510386 -0.0071517061 4279194014
0.011293372 -0.030090377 -0.0069582816 4278997153
0.013905691 -0.03213945 -0.0054302234 4278866594
0.0163076 -0.033452503 -0.0045732614 4278735524
0.018491147 -0.034030199 -0.0043854024 4278866594
0.020448396 -0.033873156 -0.0048646871 4278735524
0.022639878 -0.03444995 -0.0046785641 4278932129
0.025073551 -0.035759985 -0.0038289633 4278932128
0.027517777 -0.037068993 -0.0029818881 4278538918
0.030214777 -0.039110407 -0.0014739176 4278997663
0.034151852 -0.044815995 0.0033438513 4279456663
0.039121211 -0.053449601 0.010799604 4279653269
-0.0061860383 -0.026293755 -0.01035808 4280636549
-0.0038644634 -0.027618706 -0.0094855186 4279785359
-0.0017371327 -0.028204255 -0.0092863124 4279588243
0.00081064552 -0.030265741 -0.0077479277 4279064218
0.0029539503 -0.030849725 -0.0075524952 4278998429
0.0048897453 -0.030695289 -0.0080271792 4278932894
0.0066100806 -0.029803067 -0.0091700424 4278604199
0.0089795962 -0.031123504 -0.0083086472 4278932128
0.011138925 -0.031705692 -0.00811675 4278866594
0.013973895 -0.034498416 -0.0059270952 4278866594
0.016603965 -0.036552466 -0.004408231 4278801059
0.018792465 -0.03713198 -0.0042231623 4279063198
0.020986242 -0.037710913 -0.0040393462 4278800803
0.023185305 -0.038289294 -0.0038567251 4279062944
0.025863033 -0.040339053 -0.0023491113 4278866593
0.02855661 -0.042387366 -0.00084531959 4278997663
0.031992022 -0.046640947 0.0026400769 4279325848
0.035948411 -0.052362405 0.0074400278 4279654034
-0.017037779 -0.024195962 -0.013192131 4279786123
-0.014759518 -0.025529347 -0.012312671 4279391893
-0.012279112 -0.027603559 -0.010763163 4278867869
-0.0099768601 -0.028934799 -0.0098894089 4279260824
-0.0078606866 -0.029523745 -0.0096894111 4278933148
-0.0063373558 -0.027888775 -0.011502365 4278801059
-0.004016351 -0.029218182 -0.010632949 4278735524
-0.001684688 -0.030546635 -0.0097660031 4278604708
0.00086495653 -0.032614559 -0.0082329866 4278866849
0.0030105636 -0.033200599 -0.0080397148 4278801059
0.0049488507 -0.033045955 -0.0085150134 4278801059
0.0066718794 -0.032151289 -0.0096569378 4278473383
0.0090434719 -0.033475935 -0.0087993201 4278997663
0.011425667 -0.034799561 -0.0079442393 4278605218
0.014041714 -0.036861457 -0.0064268839 4278670498
0.016673654 -0.038921967 -0.004913344 4278801314
0.019550024 -0.041719876 -0.0027401624 4279063199
0.022216378 -0.043777309 -0.0012348918 4279522198
0.024664804 -0.045095034 -0.00039551314 4279784849
0.027596738 -0.047888026 0.0017643096 4280309128
0.030310722 -0.049941316 0.0032582516 4282405229
-0.021168418 -0.025333181 -0.014066546 4279786888
-0.019087464 -0.025927767 -0.013859955 4279523728
-0.017001111 -0.026521757 -0.013654632 4279129243
-0.014720775 -0.027859367 -0.012778955 4278867103
-0.012429744 -0.029196046 -0.011905765 4278605219
-0.010128058 -0.030531712 -0.011035139 4278736289
-0.0082087964 -0.030379355 -0.01150634 4278670499
-0.0062894523 -0.030226864 -0.011977462 4278997664
-0.0041682087 -0.030817352 -0.01178016 4279063199
-0.0020416044 -0.031407341 -0.011584045 4278997664
0.00029747561 -0.032739416 -0.010722136 4278997664
0.0024374127 -0.033328034 -0.010529136 4278800803
0.0045826845 -0.033916101 -0.010337355 4278801059
0.0067333058 -0.034503654 -0.010146739 4278669733
0.0091069527 -0.03583248 -0.009292936 4279128734
0.011711612 -0.03790196 -0.0077777714 4279390873
0.01455519 -0.040711492 -0.0056032753 4279653014
0.017645625 -0.044260398 -0.0027713766 4279979924
0.020762546 -0.047807038 5.4151751e-05 4280372878
0.023674982 -0.050610662 0.0022120746 4280832644
0.02637496 -0.052671835 0.0037043178 4282537318
-0.025637336 -0.024969466 -0.016286541 4279327633
-0.023392376 -0.026314743 -0.015405799 4279392404
-0.021136709 -0.027659088 -0.014527548 4278998173
-0.019053455 -0.028255627 -0.014323194 4279129243
-0.016964823 -0.028851643 -0.014120078 4278736289
-0.0148708 -0.029447109 -0.013918193 4278801824
-0.012580339 -0.030788228 -0.01304814 4278932384
-0.01066659 -0.03063643 -0.013518075 4278604709
-0.0085564367 -0.031230241 -0.013319882 4278604708
-0.0064409114 -0.031823494 -0.013122903 4278735779
-0.0041183904 -0.033161566 -0.012260338 4278997664
-0.0017852262 -0.034498602 -0.011400336 4278997409
0.0003516525 -0.035089791 -0.011208324 4279324573
0.0027034581 -0.036425129 -0.010352654 4279455899
0.0046414472 -0.036270522 -0.010827878 4279390109
0.0072240606 -0.038348585 -0.0093124751 4280241809
0.0098226145 -0.040425256 -0.0078008128 4281616769
0.012657231 -0.043244362 -0.0056307381 4283187314
-0.029781789 -0.034490392 -0.0092844311 4280638079
-0.0288845 -0.029839389 -0.013793558 4279850638
-0.027674213 -0.026690371 -0.016950129 4279325083
-0.025610171 -0.027291015 -0.016742973 4278800549
-0.023363136 -0.028640509 -0.01586601 4278669734
-0.021285631 -0.029239863 -0.015661921 4278932129
-0.018836945 -0.031336613 -0.014119653 4278801059
-0.016743358 -0.031934462 -0.013919344 4278669989
-0.014456213 -0.033280298 -0.013051877 4278866339
-0.012540054 -0.033128455 -0.013522515 4278997409
-0.010817293 -0.032228321 -0.014660204 4278801059
-0.0089036226 -0.032076418 -0.015130041 4278801314
-0.006592337 -0.033419825 -0.014268124 4278997409
-0.0038675405 -0.036257356 -0.012078324 4279063198
-0.0015296564 -0.037598386 -0.011222733 4279456409
0.00061216578 -0.038191423 -0.011033529 4279587224
0.0027593151 -0.038783841 -0.010845563 4279914134
0.0051238164 -0.040122382 -0.009996227 4280896139
0.0077136084 -0.042206451 -0.0084874174 4282466684
-0.029711947 -0.046019122 -0.0012116684 4281293174
-0.029597536 -0.037588835 -0.0090840887 4280505224
-0.029032797 -0.031419784 -0.01492784 4279718804
-0.027649716 -0.029014006 -0.017407311 4279259293
-0.025583394 -0.029616661 -0.017202346 4278931619
-0.023511656 -0.03021875 -0.016998626 4278669989
-0.021614552 -0.030068889 -0.01746494 4278735524
-0.01935197 -0.031421348 -0.016594848 4278801059
-0.016708031 -0.034274779 -0.014392281 4278538918
-0.014418807 -0.03562481 -0.013528576 4278932129
-0.012118887 -0.036973938 -0.012667382 4278866594
-0.010388147 -0.036070958 -0.013805455 4278668969
-0.0082707554 -0.036668621 -0.013612257 4278800038
-0.0061480142 -0.037265688 -0.01342033 4279062943
-0.003617499 -0.039361641 -0.011902398 4279652759
-0.00086715445 -0.042205714 -0.0097252754 4280111249
0.0014913939 -0.043549418 -0.0088778986 4280503438
-0.0297473 -0.039186493 -0.010230815 4280897413
-0.029350303 -0.032245383 -0.016731773 4279718548
-0.02796939 -0.029833294 -0.019205792 4279194014
-0.025731511 -0.031192385 -0.018333202 4279062943
-0.023660138 -0.031796709 -0.018131036 4278932128
-0.021583349 -0.032400511 -0.017930046 4278800803
-0.019318677 -0.033757135 -0.01706378 4279194013
-0.016302824 -0.038125508 -0.01353627 4279390874
-0.014006224 -0.039479405 -0.012677628 4279259038
-0.011889361 -0.040079519 -0.012486177 4279651994
-0.0099601932 -0.039926514 -0.012959908 4280371603
-0.0076395236 -0.041278049 -0.012106917 4282205308
-0.029730603 -0.041540757 -0.010708394 4281094529
-0.029329255 -0.03457965 -0.017195761 4279587224
-0.027773537 -0.032917142 -0.018998103 4278931873
-0.025530927 -0.034280285 -0.0181299 4278997663
-0.023277618 -0.035642415 -0.017264286 4278997663
-0.021013621 -0.037003629 -0.016401162 4279128734
-0.018738948 -0.038363829 -0.015540618 4279521434
-0.015898824 -0.041989222 -0.012689511 4279718038
-0.013782427 -0.042591706 -0.012499682 4280372623
-0.011660632 -0.043193601 -0.012311067 4282401404
-0.029548094 -0.044658095 -0.010521638 4281553275
-0.028802045 -0.039194509 -0.015662683 4279784083
-0.027064003 -0.038285412 -0.016798416 4279128989
-0.024808735 -0.039651945 -0.015936611 4279586714
-0.022365987 -0.041775651 -0.014412641 4280176529
-0.020086687 -0.043140024 -0.01355655 4281354629
-0.017614637 -0.045261174 -0.012039612 4282990454
-0.027939208 -0.045348741 -0.01281185 4281945974
-0.026013948 -0.045197077 -0.013285394 4280242828
-0.023566794 -0.047327116 -0.011767499 4280701573
-0.021280237 -0.048695423 -0.010916546 4281945464
0.011252278 -0.057938151 -0.016168807 4282927979
0.013215402 -0.057781018 -0.016649812 4282927978
0.013059283 -0.059412144 -0.017819569 4282994024
0.015022254 -0.059254892 -0.01830044 4282862699
-0.013556033 -0.057708949 -0.025135402 4282994279
0.058884457 0.0055610128 0.011567661 4285032493
0.061127141 0.0050381646 0.011778428 4285229353
0.064821474 0.0011092424 0.01542721 4285294633
0.047050372 0.0079311244 0.0079516871 4285032748
0.049261589 0.0074030496 0.008168227 4285295143
0.051753804 0.0061909482 0.0090730032 4285360934
0.054256517 0.0049797483 0.0099753356 4285295399
0.056488555 0.0044537 0.010186958 4285295399
0.059293315 0.0025602654 0.011772455 4285426469
0.061254542 0.0027194023 0.011293524 4285426724
0.065528288 -0.0025895983 0.016304661 4285361443
-0.042279124 0.0084177442 0.018840525 4285623073
-0.040224172 0.00787073 0.019090477 4285753888
-0.037694775 0.0052352138 0.021490593 4285688608
-0.03546194 0.0039937496 0.0224525 4285491493
-0.03337992 0.0034491308 0.022695992 4287131909
0.04275256 0.0066882409 0.0070494348 4285032494
0.044688031 0.0068446621 0.006576323 4285229353
0.047434356 0.0049394183 0.0081708925 4285426213
0.049650531 0.0044096224 0.0083845546 4285492004
0.052698746 0.0018198937 0.010660729 4285426468
0.054654978 0.0019783713 0.010182831 4285361188
0.057172906 0.00076419115 0.011078217 4285426724
0.059701312 -0.0004490912 0.011971162 4285426723
0.062240161 -0.0016613901 0.012861579 4285361189
0.066233814 -0.0063014776 0.017172843 4285426978
-0.046811536 0.0093293004 0.015764218 4284967978
-0.045958452 0.014371965 0.010276328 4285754909
-0.044237383 0.015218001 0.0090987803 4285885213
-0.042214513 0.014666233 0.0093549574 4286016538
-0.039717853 0.012019318 0.011756542 4286017049
-0.037517317 0.010770839 0.012723139 4285688609
0.03898485 0.0040706582 0.0075285705 4285359913
0.0411852 0.0035369731 0.007744235 4285426469
0.043125954 0.0036937371 0.0072697708 4285426978
0.04506661 0.0038505867 0.0067953998 4285492514
0.048087575 0.0012497157 0.0090715615 4285492258
0.050311375 0.00071836263 0.0092817442 4285557794
0.052815758 -0.00050146878 0.010177043 4285492259
0.05477453 -0.00034276396 0.0096985409 4285426979
0.057575274 -0.0022497624 0.011275212 4285426724
0.060108427 -0.0034669787 0.012163694 4285426979
0.062938049 -0.0053714439 0.013733453 4285361188
0.066938005 -0.010026298 0.018031701 4285492003
-0.051298618 0.010262728 0.012690422 4285361953
-0.049704857 0.011813689 0.010793238 4285427999
-0.048412055 0.014767058 0.0074655833 4285558813
-0.047436155 0.019121692 0.0027112244 4285754654
-0.045437604 0.018565655 0.0029717041 4285754654
-0.043127105 0.016608249 0.0046600876 4285688864
-0.040644623 0.013951406 0.0070585823 4285689373
-0.038457856 0.012697462 0.0080252187 4285624094
-0.036099121 0.010744084 0.0097019812 4285557793
0.039087955 0.0017614029 0.007058247 4285425958
0.041028678 0.0019180775 0.0065837214 4285557539
0.043233894 0.0013827607 0.0067966105 4285492259
