# .PCD v0.7 - Point Cloud Data file format
VERSION 0.7
FIELDS x y z rgba
SIZE 4 4 4 4
TYPE F F F U
COUNT 1 1 1 1
WIDTH 552
HEIGHT 1
VIEWPOINT 0 0 0 1 0 0 0
POINTS 552
DATA ascii
-0.0033186078 0.00023410423 0.043410547 4290191399
-0.00168119 0.0025349297 0.041240253 4288294708
0.00087584555 -0.00042176107 0.043826103 4287509818
-0.0071821101 -0.0029936065 0.043824844 4287116609
-0.0057735257 0.00082083419 0.040301435 4288359988
-0.0040076934 0.0023747869 0.038813941 4289341739
-0.002252914 0.0039285235 0.037327267 4289733929
2.5480986e-05 0.002469331 0.038552038 4289930023
0.0023146197 0.0010104291 0.039776213 4288687154
0.012871057 -0.0010086149 0.041151658 4286136899
0.014747217 -0.00020740554 0.040344082 4287771448
0.017084099 -0.0016643982 0.041565742 4287182654
-0.0077207573 -0.0016011689 0.039908271 4287705913
-0.0063229054 0.0022239573 0.036393698 4289341484
-0.0045679808 0.0037819743 0.034910202 4289669924
-0.0026932508 0.004584454 0.034103692 4289734949
-0.00055689365 0.0038760342 0.03464976 4290519328
0.0015847422 0.0031679031 0.035195537 4289799973
0.003731668 0.0024600215 0.035741068 4289145643
0.0057420954 0.0025075637 0.035610825 4289407530
0.0078968331 0.0018000957 0.036156014 4289473574
0.0097624138 0.0026029721 0.035350628 4289343269
0.011772297 0.0026508383 0.035220668 4290585628
0.014087334 0.0011889189 0.036440395 4289995559
0.016413078 -0.00027265772 0.037659559 4291172638
0.018749498 -0.0017338358 0.038878076 4290452773
0.021257453 -0.0039494615 0.04077027 4287313213
0.023617961 -0.0054098479 0.041987386 4286593604
-0.0081362762 -0.00094879372 0.036680005 4288949039
-0.006621059 0.0021292651 0.033849068 4290257444
-0.0049996972 0.0044492604 0.031694368 4289735203
-0.0031331964 0.0052536903 0.030890062 4288753963
-0.0011387728 0.005300547 0.030760627 4289146408
0.00099176168 0.0045899889 0.031305514 4289865763
0.0031275786 0.0038796766 0.031850144 4289931554
0.0052686781 0.0031696009 0.032394517 4290062369
0.0071261972 0.0039743828 0.031591214 4289866018
0.0089780763 0.0047791349 0.030788347 4289735203
0.011124097 0.0040695155 0.031332657 4289866018
0.013427988 0.0026029544 0.032549914 4289407529
0.015587226 0.0018938715 0.033093531 4290322978
0.017751731 0.0011850009 0.033636875 4289995560
0.020082243 -0.00028056046 0.034852613 4288621619
0.02275043 -0.0032595245 0.037412729 4288490294
-0.0086739808 0.00047692889 0.032788202 4289277479
-0.0071695596 0.0035635112 0.029964436 4289866019
-0.0054310225 0.0051299455 0.02848848 4290978329
-0.0034420379 0.0051765526 0.028359309 4290651163
-0.0014532022 0.0052232882 0.028230242 4290847258
0.0008078739 0.0037507201 0.029446561 4290912794
0.0028018467 0.0037977835 0.029317319 4290062623
0.0049372986 0.0030854186 0.029860452 4289932064
0.0067892969 0.0038922569 0.029059131 4289866528
0.008635655 0.004699138 0.028258234 4290847769
0.010476403 0.0055059334 0.027457807 4290258719
0.012616582 0.0047941143 0.028000958 4289015849
0.014762037 0.0040824832 0.02854389 4289277479
0.016912706 0.0033711223 0.029086515 4289407529
0.019229382 0.0019008936 0.030299921 4289145389
0.022046983 -0.0018461323 0.033525333 4289079854
-0.008966174 0.00039609056 0.030253328 4289211943
-0.0074670874 0.0034912741 0.027436398 4289473574
-0.0058619753 0.0058239596 0.025292553 4289997344
-0.0037506297 0.0051084133 0.025835305 4290062369
-0.001767382 0.0051550148 0.025706604 4290324253
0.00062410906 0.0029161414 0.027591012 4290193694
0.0026152208 0.0029631546 0.027461968 4290062879
0.0047477409 0.0022485135 0.028003726 4290062879
0.0065969378 0.0030575274 0.027204178 4290258973
0.0085875392 0.0031048851 0.027075432 4290651418
0.010278463 0.0046754321 0.025606539 4290847514
0.012263261 0.0047228439 0.025478311 4290716699
0.014247864 0.0047703823 0.025350194 4290389534
0.016390197 0.0040566633 0.025891755 4290323234
0.018698424 0.0025818394 0.027102508 4289210669
0.021507405 -0.0011762539 0.030320387 4289145134
-0.0092581064 0.00032420177 0.02772516 4289210923
-0.0078895353 0.0041922973 0.02424499 4289408038
-0.006292548 0.006531395 0.022106513 4289866528
-0.0040589646 0.0050493069 0.023317933 4289604899
-0.0018146262 0.0035675252 0.024528772 4289604899
0.00057652593 0.0013221158 0.026408341 4289801248
0.002428703 0.0021331413 0.025610127 4290063134
0.0044167861 0.0021802196 0.025481377 4289997599
0.0062604696 0.0029912507 0.024683863 4289997598
0.0083924383 0.0022747116 0.025224175 4289801249
0.01008065 0.0038495502 0.023758698 4289997344
0.012062587 0.0038969209 0.023630675 4290651418
0.014044352 0.0039443979 0.023502748 4290127904
0.016341604 0.0024649231 0.024710868 4290061858
0.018649571 0.00098575419 0.025918406 4289276459
0.02129481 -0.0020198459 0.028460585 4288817968
-0.0096721798 0.0010279338 0.024535004 4289408293
-0.0080613978 0.003373798 0.022400431 4289931553
-0.0065949075 0.006485749 0.019598745 4290978838
-0.0044976026 0.0057655312 0.020139176 4291174933
-0.0022617094 0.0042792615 0.021347292 4290782488
0.00025694072 0.0012608385 0.023890354 4289735714
0.0022423156 0.0013077715 0.023761723 4289866783
0.0042275339 0.0013547996 0.023633175 4289997343
0.0060684159 0.0021679699 0.022837482 4289866784
0.0080505833 0.0022151452 0.022709295 4289604899
0.010032572 0.0022624247 0.022581205 4289604899
0.011862047 0.0030756555 0.021786496 4289408549
0.013996005 0.0023572911 0.022325289 4289539108
0.016135216 0.0016391762 0.022863835 4289931298
0.018600717 -0.00061003352 0.024734527 4289277224
-0.011585414 -0.0013762158 0.024152331 4288229684
-0.01008587 0.0017450266 0.021354765 4289341738
-0.0084832162 0.0040972065 0.019225635 4290193694
-0.0067692623 0.0056805238 0.017764274 4290193694
-0.004674878 0.0049580317 0.018303327 4290324509
-0.0024419799 0.0034673437 0.019508399 4291044118
-0.00019833818 0.0019770358 0.020712871 4289932064
0.0019173995 0.0012553688 0.021250781 4289997343
0.0038970336 0.0013022851 0.021122608 4290259229
0.0057323873 0.0021175575 0.020328864 4290193694
0.0075621381 0.0029327665 0.019535609 4289997343
0.0095358267 0.0029798541 0.019408055 4291044118
0.011509337 0.0030270647 0.019280609 4291044118
0.013637662 0.0023064166 0.019818164 4290651163
0.015928954 0.00081806956 0.021020241 4289473318
0.018230945 -0.00066987658 0.022221666 4289474084
-0.011990655 -0.00065432163 0.020975042 4288229684
-0.01037693 0.0017045662 0.01884992 4289603623
-0.0086546913 0.0032922961 0.017391235 4289800738
-0.0070711933 0.0056507159 0.015268259 4288558379
-0.0051128864 0.0056966636 0.015141124 4289604898
-0.0028884336 0.0042014401 0.016343519 4290062623
-0.0006532222 0.0027065352 0.017545335 4290128158
0.0014541224 0.0019825567 0.018082138 4289932064
0.0034254566 0.0020292792 0.017954506 4290193694
0.0052525848 0.0028465018 0.017162966 4290455323
0.0070740879 0.0036636945 0.016371865 4289866529
0.0088899806 0.0044809319 0.015581189 4290128158
0.010852478 0.0045278687 0.015454445 4290193694
0.013124645 0.0030346215 0.016654452 4290847513
0.015407525 0.0015417617 0.017853789 4289865763
0.018021837 -0.001490768 0.02037847 4289014829
-0.012276053 -0.00069218688 0.018471595 4288687408
-0.010667726 0.0016730782 0.016351739 4289211179
-0.0090758838 0.0040380992 0.014232988 4290781978
-0.0072452202 0.004856918 0.013442343 4290455578
-0.0054201521 0.0056757685 0.012652107 4290521114
-0.0033344924 0.0049488265 0.013188569 4290651929
-0.00097192824 0.0026766714 0.015050584 4290324508
0.00112978 0.0019503459 0.015586181 4290128158
0.0032367632 0.0012243036 0.016121481 4290258973
0.0049171224 0.002816271 0.014669323 4290651674
0.006586425 0.0044080317 0.013218001 4290324509
0.0083940998 0.005227196 0.012429507 4289211943
0.010348298 0.0052739615 0.012303321 4289800738
0.01276689 0.0030038916 0.014162274 4290585884
0.015201636 0.00073426962 0.016020305 4289538599
0.017812833 -0.0023070313 0.018538713 4289603368
-0.012441795 -0.0014963951 0.016637243 4289145133
-0.010836162 0.00087537104 0.014522377 4289603368
-0.009122137 0.002471637 0.013070723 4290324253
-0.0074191354 0.0040678196 0.01161984 4291044628
-0.0054665655 0.0041136537 0.011493092 4290128668
-0.0033811182 0.0033845464 0.012027957 4290390044
-0.0012903623 0.0026557343 0.01256253 4289866528
0.00080567971 0.001927156 0.013096843 4289866528
0.0030482188 0.00042395713 0.014291884 4290128158
0.0047258362 0.0020202268 0.012843158 4289997343
0.0063924268 0.0036162836 0.011395253 4290978583
0.0080479309 0.0052122492 0.0099481251 4290062368
0.0099965557 0.0052588824 0.0098222978 4290127903
0.012254596 0.0037565986 0.011016741 4290062368
0.014680848 0.0014802981 0.012870427 4289930789
0.017443731 -0.0023442879 0.016042612 4289407784
-0.01284609 -0.00074092252 0.013484802 4288818224
-0.01124857 0.0016371487 0.011375368 4289669923
-0.0094179697 0.0024602581 0.010587847 4289408548
-0.0074654035 0.002505986 0.010461019 4289343780
-0.0053827502 0.0017745318 0.010994371 4289605409
-0.0034277402 0.0018205633 0.01086757 4289801249
-0.001472868 0.0018666862 0.01074085 4289343013
0.00075864047 0.00035882229 0.011933252 4289343524
0.0028597862 -0.00037169969 0.012465697 4288885289
0.0049662217 -0.0011020224 0.012997929 4289343269
0.0063451082 0.0020523081 0.01023493 4290063134
0.0080006197 0.0036526266 0.0087910388 4290847768
0.009949103 0.0036992691 0.0086652301 4290585884
0.012361601 0.0014159745 0.010514915 4290781979
0.014632806 -9.0196263e-05 0.011705309 4289734438
0.017074883 -0.002372581 0.013553236 4288818224
-0.012892172 -0.0023112069 0.01231968 4288883759
-0.011416618 0.00085307099 0.0095561184 4289800739
-0.0098382458 0.0032373685 0.0074529015 4290586139
-0.0080214441 0.0040624104 0.0066680331 4290717208
-0.0058197342 0.0025491267 0.0078588501 4290063134
-0.0036072619 0.0010362323 0.0090490784 4289539363
-0.0016552582 0.0010823049 0.0089225564 4289604899
0.00057327747 -0.00043003587 0.010111947 4289343269
0.0025304258 -0.00038361084 0.0099852625 4289277989
0.0046312213 -0.0011161971 0.0105162 4289605154
0.0060047731 0.0020467322 0.0077600405 4289539363
0.0078040734 0.0028722398 0.0069769584 4289539618
0.0099016502 0.0021399297 0.0075083673 4289473573
0.012159161 0.00062893983 0.0086963773 4289931553
0.014112622 0.00067590643 0.0085703991 4289865509
0.016546197 -0.0016131434 0.010413989 4288687409
-0.013772719 0.0015918631 0.0065521356 4289079853
-0.012194186 0.003982624 0.0044536367 4289669668
-0.010382801 0.0048096031 0.0036706571 4290847768
-0.0084495954 0.0048548803 0.0035450924 4290978583
-0.0062563233 0.003337061 0.0047332309 4290978583
-0.0040522851 0.0018195715 0.005920805 4290193438
-0.0021085925 0.0018654615 0.0057948343 4289539363
0.00011149049 0.00034862012 0.0069814958 4289670434
0.0022013336 -0.00038650073 0.0075114463 4289670434
0.0042964816 -0.001121412 0.0080411956 4289801248
0.0056647286 0.0020500701 0.0052918382 4289474083
0.0074585155 0.0028776452 0.0045107491 4290455578
0.0095504522 0.0021430124 0.0050408933 4289932064
0.011802249 0.00062759407 0.0062260013 4289146663
0.013907447 -0.00010650977 0.0067554452 4289538343
0.016337998 -0.0024022264 0.0085943993 4288687408
-0.015413392 -0.0023601213 0.0074934997 4287444538
-0.013937503 0.00082141487 0.0047428366 4289079853
-0.012361646 0.0032186173 0.0026493575 4289669924
-0.010428473 0.0032637995 0.002523724 4289081128
-0.0087500438 0.0048768288 0.0010874057 4289539108
-0.0066925213 0.0041382862 0.0016175471 4290520348
-0.0044969283 0.0026162826 0.0028023832 4289604643
-0.0024260655 0.0018783193 0.0033317842 4290520603
-0.00048809499 0.0019241925 0.003206268 4289735714
0.0014497302 0.001970157 0.0030808356 4289997343
0.0033874065 0.0020162407 0.0029555 4289997343
0.0051785782 0.0028458145 0.0021761153 4291109398
0.0069641247 0.0036753854 0.0013971925 4291044119
0.0091995075 0.002155114 0.0025800392 4291174934
0.011291079 0.0014183447 0.0031086951 4290716698
0.013545178 -0.00010126596 0.0042904913 4288818478
0.015809976 -0.0016205013 0.0054716878 4288752945
-0.015808139 -0.0015620417 0.0043720584 4286660159
-0.014340319 0.0016280571 0.0016283607 4290127649
-0.012528975 0.002459256 0.00084852241 4290520348
-0.0107232 0.0032904996 6.9103204e-05 4289081128
-0.0089229792 0.0041216947 -0.00070981961 4289212199
-0.0068683922 0.0033809477 -0.00018115062 4289866274
-0.0049411878 0.0034263348 -0.00030614063 4290716954
-0.0028786771 0.0026859408 0.00022221263 4289931808
-0.0010871589 0.0035174349 -0.00055584591 4289670434
0.00083964318 0.0035631368 -0.00068056863 4290193694
0.0027663037 0.0036089653 -0.00080518331 4290651673
0.0046928003 0.0036548991 -0.00092970859 4289800993
0.0066191554 0.0037009129 -0.0010541612 4289670434
0.0088488385 0.0021761172 0.00012586173 4289932063
0.011089236 0.00065172231 0.0013052272 4290651163
0.013340354 -0.00087235449 0.0024840198 4289080108
0.015602179 -0.0023960411 0.0036621448 4288687409
-0.016086213 -0.0015390436 0.001913311 4288033078
-0.014385689 8.2798768e-05 0.00048180949 4289539364
-0.012574434 0.00091618346 -0.00029639341 4290520603
-0.010768741 0.0017496021 -0.0010741875 4290847514
-0.0090957768 0.003371167 -0.0025036288 4290716699
-0.0070441253 0.0026281793 -0.0019763848 4290847514
-0.0051197708 0.0026734918 -0.0021011941 4290782233
-0.0030602105 0.0019309176 -0.0015742956 4289800993
-0.0014095493 0.0035524117 -0.0030019497 4289801249
0.00051167607 0.0035979906 -0.0031263055 4289932064
0.0024327599 0.003643686 -0.0032505607 4290913304
0.0043536797 0.0036894856 -0.0033747256 4290651163
0.0061255097 0.0045230603 -0.0041495385 4289146664
0.0081950948 0.0037813745 -0.0036228048 4289277479
0.010424338 0.0022523599 -0.0024459595 4289276969
0.012978539 -0.00085130846 3.0718744e-05 4289407273
0.015554354 -0.0039543589 0.0025060736 4289472299
-0.016364016 -0.0015071337 -0.00053874962 4288098614
-0.01478792 0.00090953987 -0.002617754 4289605409
-0.012863234 0.00095441751 -0.0027429154 4290128159
-0.011063062 0.0017898316 -0.0035186941 4290128414
-0.0092684478 0.0026252437 -0.0042940173 4290258973
-0.0072197169 0.001880005 -0.0037682084 4290520859
-0.0052982345 0.0019252552 -0.0038928306 4289997599
-0.0033768751 0.0019706106 -0.0040173614 4289866783
-0.0014556497 0.0020160815 -0.0041417954 4289932319
0.00046543032 0.0020616697 -0.0042661307 4289932064
0.002242934 0.0028973529 -0.0050398419 4290520604
0.0040148348 0.0037330091 -0.0058131125 4290847258
0.0057811439 0.0045686755 -0.0065859891 4290912793
0.007693477 0.004614478 -0.0067094434 4290585884
0.01006864 0.0022911392 -0.0048864903 4290061858
0.012617014 -0.00082137249 -0.002415915 4289604643
0.015346751 -0.0047228648 0.0007017497 4288426034
-0.016641565 -0.0014662025 -0.0029841904 4288229428
-0.014951978 0.00016409345 -0.0044085002 4289540128
-0.013273384 0.0017942442 -0.0058320118 4289735969
-0.011232797 0.0010464126 -0.005307463 4289539874
-0.0094409771 0.0018839268 -0.0060809902 4289474084
-0.0073951781 0.0011364371 -0.0055566169 4289735714
-0.0053440519 0.00038920622 -0.0050324891 4289866783
-0.0032876208 -0.00035780016 -0.0045086322 4289866784
-0.0015017577 0.00048003811 -0.0052814279 4290128413
0.00027852878 0.0013178391 -0.0060537914 4289866783
0.0019098446 0.0029478408 -0.0074735945 4289735714
0.0038223416 0.002993444 -0.0075972117 4290324253
0.0054370612 0.0046231905 -0.0090157613 4290782233
0.007495366 0.0038769059 -0.0084915208 4290716953
0.0095589533 0.0031308215 -0.007967568 4289800739
0.012255743 -0.00078242831 -0.0048559392 4289473829
0.014979608 -0.004694989 -0.0017459532 4288753198
-0.017034944 -0.000621418 -0.0060709771 4288885288
-0.01535356 0.0010130992 -0.0074915444 4289605919
-0.013683144 0.002647412 -0.0089112837 4290194204
-0.011650935 0.0018971954 -0.0083878199 4290979094
-0.0097403675 0.0019419678 -0.0085118962 4290913559
-0.0077002198 0.0011921786 -0.0079887696 4290259229
-0.0056547336 0.00044257613 -0.0074658678 4290128413
-0.0036039539 -0.00030671852 -0.0069432477 4290128413
-0.0018236004 0.00053315191 -0.0077140769 4290128414
-0.00018943474 0.0021674493 -0.0091309175 4290063134
0.0014337301 0.0038015647 -0.010546911 4289735969
0.0033379495 0.0038469499 -0.010670007 4289408548
0.0050932467 0.0046866564 -0.011438895 4289932574
0.0072973892 0.0031438926 -0.010270217 4289735714
0.0095122606 0.0016014958 -0.0091021499 4290063134
0.012051694 -0.0015286426 -0.0066439603 4289866528
0.014931999 -0.0062460816 -0.0028966647 4288230704
-0.017195862 -0.0013576024 -0.0078550857 4288558379
-0.015635971 0.0010782536 -0.0099184783 4289474594
-0.013971027 0.0027167993 -0.011334617 4290782744
-0.011944462 0.0019642962 -0.010812391 4290586394
-0.01016641 0.0028058141 -0.011581803 4290913304
-0.0081346333 0.0020536641 -0.011059743 4291174933
-0.0060975291 0.0013017515 -0.010537946 4290258973
-0.0039200187 -0.00024666451 -0.0093712807 4290193949
-0.002282992 0.0013919035 -0.010785102 4290324764
-0.00051644817 0.0022337316 -0.011553337 4290324763
0.0011012703 0.0038720928 -0.012965796 4289997599
0.0031458735 0.0031208573 -0.012444038 4290651673
0.0050470904 0.0031662621 -0.012566873 4290782998
0.0070995614 0.0024154736 -0.012045505 4290063134
0.00931146 0.00086865947 -0.010880481 4289408295
0.011690944 -0.0014740606 -0.0090723103 4289735713
0.014246136 -0.0046123909 -0.0066215177 4289146663
-0.017588597 -0.00049052946 -0.010925409 4289408293
-0.016036827 0.0019516889 -0.012983397 4290062368
-0.014258645 0.0027951458 -0.013751375 4289016360
-0.012486011 0.003638614 -0.014518891 4289015849
-0.010465205 0.0028839167 -0.013997823 4289931553
-0.0084390678 0.0021294439 -0.013477028 4290389788
-0.0064076111 0.0013751602 -0.012956456 4290520603
-0.0045058578 0.001420062 -0.01307971 4289801249
-0.0026042238 0.0014650449 -0.013202894 4290128158
-0.00084320083 0.0023089638 -0.013969191 4290193694
0.0010554418 0.0023541208 -0.014091998 4290128158
0.0026621446 0.0039966041 -0.015500407 4290913304
0.0047036856 0.0032432694 -0.014980034 4290913559
0.006750524 0.0024901703 -0.014459921 4290978328
0.0089567378 0.00093879597 -0.013297748 4290323999
0.011330433 -0.0014105183 -0.011494086 4289472809
0.014039315 -0.0053560114 -0.0084074549 4289733929
-0.017749112 -0.0012131943 -0.012699488 4289473829
-0.016200017 0.0012354562 -0.014752465 4290455069
-0.014545996 0.0028824182 -0.016161438 4290324764
-0.012654807 0.0029265992 -0.016284358 4289342758
-0.01076372 0.0029708855 -0.016407192 4289473829
-0.0088727511 0.0030153124 -0.016529912 4290520603
-0.0069819018 0.0030598203 -0.01665256 4289931808
-0.0049562044 0.002303401 -0.016133178 4289997343
-0.0029251985 0.0015471941 -0.015614074 4289735714
-0.00088887289 0.00079122232 -0.015095234 4290193438
0.00086652115 0.0016372418 -0.015859429 4290128159
0.0026163384 0.0024832115 -0.016623203 4289212199
0.0045091286 0.0025284318 -0.016745482 4289473829
0.0065530539 0.0017730575 -0.016226823 4290847513
0.0084482953 0.001818534 -0.016349111 4289538853
0.010656796 0.00026297802 -0.015190241 4289603624
-0.01837289 0.0012834668 -0.017036414 4289342758
-0.016837355 0.003738313 -0.019083662 4290520859
-0.014954373 0.003782195 -0.019206129 4290782488
-0.013071489 0.0038261823 -0.019328509 4290586394
-0.010935239 0.002263438 -0.018169111 4290389534
-0.009047132 0.0023077549 -0.018291676 4290913304
-0.0071591362 0.0023522126 -0.018414127 4289932064
-0.0052712634 0.0023967745 -0.018536489 4289735713
-0.0032458827 0.0016382085 -0.018018605 4289670434
-0.0012151971 0.00087993825 -0.017501011 4289800993
0.00053469092 0.0017279657 -0.018263258 4291109398
0.0021332204 0.0033790106 -0.019664695 4289866784
0.0040177256 0.003424013 -0.019786453 4289277479
0.0059020966 0.0034691095 -0.01990813 4289277479
0.0079402477 0.002711527 -0.019390639 4290389534
0.010453656 -0.00045399601 -0.016956646 4289800228
0.013148025 -0.0044215894 -0.013885272 4287575863
-0.020082153 -0.0018828795 -0.016753919 4286921024
-0.018532876 0.00057867542 -0.018797304 4288884014
-0.016881507 0.0022341404 -0.020199731 4289408293
-0.015119888 0.0030837394 -0.020961775 4289669923
-0.01311592 0.002321979 -0.020444578 4290062368
-0.010979947 0.00075487653 -0.0192884 4289735459
-0.0090919733 0.00079920189 -0.019410949 4289735459
-0.0073362291 0.0016491152 -0.020172274 4289800993
-0.0055860318 0.0024990141 -0.020933153 4289800993
-0.0038413964 0.0033488637 -0.02169361 4289604899
-0.0018218011 0.002588151 -0.021176923 4290128414
-8.2846731e-05 0.0034380797 -0.021936852 4290979094
0.0019419342 0.002677707 -0.021420337 4290586138
0.0035267547 0.0043327911 -0.022817563 4290782233
0.0055539757 0.0035726745 -0.022301059 4291044119
0.007432647 0.0036177179 -0.022422306 4290193439
0.010094084 -0.00036160788 -0.019356951 4289014829
0.012782574 -0.00434021 -0.016293285 4287248954
-0.020239316 -0.0025896183 -0.018516418 4286790463
-0.018692717 -0.00012160605 -0.020554777 4289080364
-0.017162524 0.0023460966 -0.022591941 4288950569
-0.0151641 0.0015819427 -0.022076067 4288819754
-0.013284221 0.0016258396 -0.022198267 4288885289
-0.011024632 -0.00075347023 -0.020407531 4288885033
-0.0092661232 9.8560005e-05 -0.021167509 4289015849
-0.0075131655 0.00095055252 -0.021927059 4289146919
-0.0057657622 0.0018025544 -0.022686142 4289670179
-0.0042988993 0.0042695999 -0.02471865 4289670178
-0.0022876449 0.0035064807 -0.024203066 4289735714
-0.00027106702 0.0027435739 -0.023687687 4289605154
0.0017508008 0.0019809492 -0.02317261 4290521114
0.0030361712 0.0052548721 -0.025838878 4290128158
0.0047528893 0.0061067408 -0.026595533 4290128158
0.0067716464 0.0053443238 -0.026080042 4289538599
0.0097347945 -0.00026027113 -0.021750692 4289145644
0.012417398 -0.0042499173 -0.018694689 4286333248
-0.020057529 -0.0057225483 -0.018364845 4287640889
-0.018505439 -0.0032479591 -0.020398686 4288622383
-0.016733009 -0.0023938552 -0.021158341 4288557614
-0.014845006 -0.0023498642 -0.02128114 4288950824
-0.012957111 -0.0023057912 -0.02140387 4288688938
-0.010942761 -0.0030715803 -0.020890452 4288688938
-0.0091816112 -0.0022172811 -0.021649033 4288754473
-0.0075579882 -0.00055322982 -0.023042779 4288950823
-0.0058106557 0.00030091126 -0.023800265 4289474084
-0.0042062961 0.0019647684 -0.025192644 4289016104
-0.002332665 0.0020091627 -0.02531396 4289081384
-0.00045914948 0.0020536855 -0.025435168 4289081638
0.0015598163 0.0012887502 -0.024921495 4289081638
0.0026943125 0.005380705 -0.028215744 4289081638
0.0044055432 0.0062346663 -0.028970465 4289539109
0.0064186677 0.0054698884 -0.028456192 4289407784
0.0093757957 -0.00015009195 -0.024137799 4288557104
-0.020214602 -0.0064266664 -0.0201254 4287444538
-0.018549591 -0.0047579915 -0.021519115 4288295474
-0.016777243 -0.0039017373 -0.022277163 4288426798
-0.014768343 -0.0046700612 -0.021765184 4288754218
-0.012877863 -0.0046259314 -0.021888085 4288557868
-0.010987483 -0.004581661 -0.02201087 4288427053
-0.0093555935 -0.0029131728 -0.023402072 4288361774
-0.0074708685 -0.0028688228 -0.023524333 4288623914
-0.0057208873 -0.0020124479 -0.024280375 4289277989
-0.0039764605 -0.0011560991 -0.025035977 4288623913
-0.0020975098 -0.0011115884 -0.025157642 4288754728
-7.5895339e-05 -0.0018787016 -0.024645885 4288820263
0.0016600117 -0.0010222523 -0.025400709 4289081383
0.0029456541 0.0022690361 -0.028054073 4288820009
0.0045113266 0.0039367452 -0.029440325 4289670178
0.006680645 0.0023584291 -0.028295245 4289603623
0.009329848 -0.0016538152 -0.025253385 4288556848
-0.020145912 -0.0087554548 -0.020615257 4287575353
-0.0184782 -0.0070823934 -0.022005931 4288426543
-0.016584948 -0.0070384303 -0.022129182 4288492589
-0.01444985 -0.0086231865 -0.020986076 4288885798
-0.012551349 -0.0085788695 -0.021109497 4288362284
-0.010779355 -0.0077201598 -0.021865614 4288493099
-0.0091420449 -0.0060472251 -0.023253877 4288361773
-0.0072520077 -0.0060027945 -0.023376515 4288230958
-0.0053620897 -0.0059582228 -0.02349904 4288689449
-0.0036095753 -0.0050994856 -0.024253607 4289343523
-0.0017226115 -0.0050547994 -0.024375802 4288558633
0.00016424805 -0.0050099962 -0.024497902 4288754984
0.0019055307 -0.0041512651 -0.025251472 4288689449
0.0033449233 -0.0016649975 -0.027267335 4288558378
0.0050696209 -0.00080641406 -0.028019723 4288558124
0.0072495714 -0.0023888857 -0.026878538 4289407784
0.0095965713 -0.0047845398 -0.025107168 4287837493
-0.020190086 -0.010271609 -0.021740243 4287575353
-0.018406916 -0.0094109215 -0.022495806 4287968563
-0.016747467 -0.0077335928 -0.023882624 4288492589
-0.014615357 -0.0093227774 -0.022742566 4288624169
-0.012596089 -0.010095071 -0.022234472 4288885543
-0.01082417 -0.0092341881 -0.022988964 4288427563
-0.0091868564 -0.0075569488 -0.024374023 4288100398
-0.0074287578 -0.0066961283 -0.025127497 4288493098
-0.0054071769 -0.0074679647 -0.024619177 4288297003
-0.0035174973 -0.0074233394 -0.024741642 4289016869
-0.0014879964 -0.008194739 -0.024233725 4288885799
0.00040417165 -0.0081498316 -0.024356183 4288427819
0.0021508224 -0.0072888187 -0.025108498 4288624424
0.0038919076 -0.0064277737 -0.025860403 4288296748
0.0057782531 -0.0063827061 -0.025982264 4288361773
0.0079715401 -0.0079692258 -0.02484519 4289276969
0.0098630637 -0.0079238424 -0.024967242 4288099124
-0.022462696 -0.0093743438 -0.024633139 4286397763
-0.0204596 -0.010149657 -0.02412596 4287836983
-0.018681958 -0.0092869382 -0.024879556 4288164913
-0.016909845 -0.0084241852 -0.025632748 4288165169
-0.014780708 -0.010017847 -0.024495706 4288492844
-0.012764364 -0.010792381 -0.023989037 4288427308
-0.010742676 -0.01156669 -0.023482639 4288558123
-0.0092316568 -0.009066469 -0.025494017 4288165679
-0.0074736215 -0.0082034981 -0.026245886 4287839023
-0.005317796 -0.0097959777 -0.025110163 4288100653
-0.0035626926 -0.0089329155 -0.025861647 4288231468
-0.0013935119 -0.010524817 -0.024726667 4289147939
0.00021605194 -0.0088433661 -0.026106305 4288231723
0.0021052472 -0.0087984409 -0.026228506 4288165933
0.0038462803 -0.0079352548 -0.026978813 4288165933
0.0057324991 -0.007890203 -0.027100675 4288230704
0.0077720657 -0.0086631048 -0.026594631 4288884013
-0.018841386 -0.0099750878 -0.026628107 4286464319
-0.017308179 -0.00746832 -0.028636437 4286856763
-0.015187483 -0.00906647 -0.027502116 4288492333
-0.0131795 -0.0098433746 -0.026996523 4288165424
-0.011039943 -0.011440897 -0.025863212 4289081384
-0.0094053708 -0.0097550265 -0.027241692 4288557868
-0.0076501146 -0.0088900113 -0.027991736 4287838514
-0.0057660304 -0.0088456273 -0.02811392 4287969839
-0.0036078617 -0.010442301 -0.02698151 4288362029
-0.0015787445 -0.011218086 -0.026476827 4289016359
0.0001706332 -0.010352816 -0.027226195 4288427308
0.0017691962 -0.0086671356 -0.028601853 4288296493
0.0036527067 -0.0086222626 -0.028723625 4288165678
0.0056867748 -0.009397544 -0.028218973 4288230448
0.0077261552 -0.010172625 -0.027714536 4288753199
-0.0094500594 -0.011262033 -0.028359827 4289408294
-0.0076948777 -0.010394881 -0.029108273 4286791484
-0.0059452243 -0.009527728 -0.029856265 4287184439
-0.0039270706 -0.010306073 -0.029352581 4288492333
-0.0019035824 -0.01108418 -0.028849162 4288884523
-1.7233193e-05 -0.011039459 -0.028971281 4288622893
0.001578629 -0.0093495809 -0.030343516 4288426799
0.0034592971 -0.0093047936 -0.030465119 4288034608
0.0053398386 -0.0092599262 -0.030586649 4288230195
0.0075269267 -0.010859624 -0.029458949 4288556338
0.0070213452 -0.0098931445 -0.0324459 4286725439
0.025027558 -0.0081435638 0.049831226 4282471018
-0.019176103 -0.0088105537 0.044230983 4282405483
0.038000494 -0.0062947059 0.028899461 4282469999
0.03310813 -0.0081441905 0.022928365 4282732393
0.030301154 -0.0082949921 0.018049888 4282076279
0.027517252 -0.0084093269 0.013196653 4282273393
0.024585687 -0.0077022361 0.0077177025 4281879418
0.036002062 -0.0058444533 0.0056613032 4282338673
0.022403255 -0.0085363705 0.0060272235 4283058793
0.031803846 -0.0082898932 0.0029374436 4281419909
0.020012923 -0.010142749 0.0025295913 4281811589
0.025316358 -0.0091854772 -0.0009428747 4282207348
0.027440928 -0.0099315206 -0.00042383932 4281813629
0.022978313 -0.0092008235 -0.0032603787 4282924153
0.020651489 -0.0092068622 -0.0055718776 4282205819
-0.024192687 -0.0090905968 -0.040521178 4282403188
-0.022226363 -0.0098820068 -0.040022951 4282009213
