# .PCD v0.7 - Point Cloud Data file format
VERSION 0.7
FIELDS x y z rgba
SIZE 4 4 4 4
TYPE F F F U
COUNT 1 1 1 1
WIDTH 570
HEIGHT 1
VIEWPOINT 0 0 0 1 0 0 0
POINTS 570
DATA ascii
0.0077255629 -0.00034758681 0.04361733 4287248188
0.0095050372 0.0011866391 0.042143188 4287379514
0.0055129416 -0.001277646 0.041829959 4286136643
0.0067752339 0.0032591973 0.037628807 4288885033
0.0086683519 0.0040479102 0.03684134 4291568143
0.010826748 0.003337678 0.037418671 4291238174
0.013681378 -0.0011194143 0.041406296 4291760668
0.016145777 -0.0033277108 0.043346472 4286463553
0.0048367195 0.00084363157 0.03721568 4288426034
0.0063454919 0.0038898368 0.034386732 4289473573
0.0082303397 0.0046805949 0.033601321 4290389024
0.010244954 0.0047196955 0.033496886 4290192419
0.012673814 0.0025040568 0.035433985 4290323234
0.014977966 0.0010404536 0.036689974 4288687919
0.017292839 -0.00042289868 0.037945516 4289014573
0.019764703 -0.0026373174 0.039880596 4286332993
0.021954637 -0.0033485983 0.04045514 4288621874
0.0023949221 0.0014401157 0.034081608 4289930024
0.0042882003 0.0022330624 0.033297181 4289603369
0.0059160478 0.0045338371 0.031154601 4289866274
0.007792633 0.0053266478 0.030371254 4289343014
0.0096635856 0.0061194864 0.029588228 4289539108
0.011805061 0.0054046703 0.030163368 4289865763
0.014092628 0.0039363843 0.03141699 4289866019
0.016534429 0.001714692 0.033348754 4289342249
0.018846121 0.0002471027 0.034601294 4289473574
0.020870525 0.00028692232 0.034496747 4287379513
-3.0111521e-05 0.0020504827 0.030956617 4288425778
0.0018578023 0.0028453455 0.030174037 4289341739
0.0038672239 0.0028840662 0.030069666 4289799973
0.0057466216 0.0036789975 0.029287701 4290847514
0.0076203905 0.0044739856 0.028506076 4290847514
0.0094885491 0.0052689365 0.027724871 4290455069
0.011489075 0.0053079217 0.027621282 4290716699
0.013770957 0.0038351207 0.028872019 4290193184
0.016063523 0.0023627011 0.030122256 4290127648
0.018074382 0.0024022018 0.030018365 4289603879
0.02008504 0.002441796 0.029914556 4289341994
0.021943841 0.003237193 0.029134301 4289538088
0.024105739 0.0025212956 0.029707214 4289995049
0.026744183 -0.00046123518 0.032308742 4286790209
-0.0019627549 -0.00035950448 0.030547226 4286136643
-0.00067743659 0.0042299679 0.026383488 4289145644
0.0011967495 0.0050267964 0.025603274 4289342249
0.0033194758 0.0043068691 0.026175803 4289735203
0.0054474808 0.0035871803 0.026748149 4289997089
0.0074482672 0.0036259643 0.026644399 4290586139
0.0093135871 0.0044230684 0.025864976 4290716954
0.011449244 0.0037038471 0.026437169 4290651418
0.013730872 0.0022266926 0.027684702 4290128159
0.015879784 0.0015079575 0.028256373 4289997344
0.017741632 0.0023054192 0.027477445 4290258463
0.01944897 0.0038608569 0.026023773 4289931554
0.021296795 0.0046582534 0.025245717 4290781979
0.023601938 0.0031821351 0.026492385 4290650654
0.025760736 0.0024640518 0.027063964 4290388513
0.028404053 -0.00052693579 0.02965883 4289406763
-0.0023584254 0.00030783284 0.027330121 4287902774
-0.00083797053 0.003388952 0.024526229 4290127394
0.0010333993 0.0041879597 0.02374774 4290716699
0.0030261874 0.0042263656 0.023644237 4290324509
0.0051485486 0.0035043596 0.024215324 4289277734
0.007276196 0.0027825884 0.024786158 4289866528
0.0092739202 0.0028214525 0.024682669 4289997343
0.011409391 0.0021000723 0.025253275 4289866528
0.013550129 0.0013788897 0.025823681 4290127903
0.015839498 -0.00010234397 0.027067682 4290127903
0.017555181 0.001457551 0.025616756 4290062113
0.019259769 0.0030172667 0.024166504 4290454814
0.020801719 0.0053370013 0.022043562 4289800738
0.022944193 0.0046163774 0.022614269 4289539109
0.024934907 0.0046559325 0.022511752 4290323488
0.027404573 0.0024157907 0.024428023 4289407274
0.030052792 -0.0005837651 0.027016303 4288687409
0.032722559 -0.0035828045 0.029603535 4289144879
-0.0047523379 0.00095038628 0.024226883 4288949294
-0.0029913709 0.0025144308 0.022776028 4289016103
-0.0013629645 0.0048411447 0.020652605 4290651163
0.00062165782 0.0048793103 0.020549467 4290455069
0.00260612 0.004917582 0.020446414 4291305748
0.0047201179 0.004193285 0.021016283 4290063134
0.0069718175 0.0027065515 0.022258634 4290063134
0.0089639537 0.002745328 0.022155447 4289801504
0.011093799 0.0020216196 0.022724779 4290063134
0.013228897 0.0012981738 0.023293881 4289735714
0.015512567 -0.00018749805 0.024534902 4289931808
0.017222781 0.0013766284 0.023087541 4289866273
0.018921901 0.0029406766 0.021640787 4290978583
0.020458449 0.0052668112 0.019523015 4290586139
0.022595305 0.0045439205 0.020092411 4289997344
0.024737392 0.0038212198 0.020661602 4289343014
0.027044367 0.0023366041 0.021901933 4289997089
0.029524412 9.0291258e-05 0.023812877 4289342504
0.03235079 -0.0036796133 0.0270651 4288687664
-0.0052550808 0.002409847 0.02035716 4289474083
-0.0032675788 0.0024478468 0.020253709 4290389534
-0.0015231445 0.0040160096 0.01880707 4289277479
0.00058279932 0.0032891403 0.019375568 4289146664
0.0024402067 0.0040923585 0.018601192 4290128158
0.0044216402 0.0041306992 0.018498393 4289866784
0.0069323741 0.0011098888 0.021079974 4289997599
0.0089243837 0.0011486635 0.020976799 4289997599
0.0109162 0.0011875313 0.020873701 4289997599
0.012767304 0.0019911658 0.020100048 4289931808
0.014756065 0.0020301957 0.019997275 4289670178
0.016890589 0.0013047848 0.02056496 4289997344
0.018435542 0.0036375602 0.018451547 4290324509
0.020115387 0.0052056932 0.017009085 4290913304
0.022092443 0.0052449261 0.016907236 4290978583
0.024383079 0.0037555196 0.018145105 4290651163
0.026684385 0.0022664685 0.019382456 4289604644
0.028996374 0.00077768974 0.020619376 4288949803
-0.0072810724 0.00077986158 0.019285353 4289081128
-0.0056414455 0.0031197243 0.017170837 4289736224
-0.0037809499 0.0039248406 0.016397661 4290913304
-0.0019260459 0.0047299559 0.015624857 4290651674
0.00017151609 0.0040007825 0.016192203 4290455324
0.0021475218 0.0040389053 0.016089601 4290913304
0.0042529516 0.003310109 0.016656714 4290782488
0.0066283084 0.0010474771 0.018562583 4290390299
0.0087497495 0.00031921454 0.019129029 4290063134
0.010876473 -0.00040884875 0.019695269 4289997598
0.012446541 0.0019306559 0.017585168 4289997599
0.014429692 0.0019696001 0.017482704 4290390044
0.016266745 0.0027753753 0.016711561 4289801249
0.018246796 0.0028144554 0.016609402 4289604899
0.020226661 0.0028536399 0.016507329 4289604898
0.022360433 0.0021263361 0.017073667 4289866528
0.02449945 0.0013992526 0.017639821 4289604899
0.026803229 -9.409152e-05 0.018873831 4289409314
0.029280003 -0.0023535679 0.020775327 4287968818
-0.0095278062 0.000689473 0.016875861 4289144879
-0.0077721402 0.0022662892 0.015434807 4289539620
-0.0059115998 0.0030734814 0.014663165 4289800739
-0.0038193874 0.0023417803 0.015229 4290389788
-0.0018432215 0.0023797038 0.015126241 4290782233
0.00013279542 0.0024177427 0.01502358 4291044119
0.0021086559 0.0024558767 0.014920993 4291109654
0.0040843673 0.0024941242 0.014818503 4290651674
0.0063244365 0.00099409372 0.016051857 4290455578
0.0083052702 0.0010326602 0.015949266 4289997599
0.010285918 0.0010713567 0.01584678 4290455578
0.011985544 0.0026482209 0.014409473 4290586138
0.01381724 0.0034559849 0.013640163 4290978838
0.015789185 0.0034948173 0.013538355 4291175188
0.01790956 0.0027648914 0.014103638 4290651673
0.020035174 0.0020351806 0.014668735 4289801249
0.022011992 0.0020743948 0.014566889 4289801249
0.024302151 0.00057630846 0.015798366 4289539363
0.026762489 -0.0016900953 0.017695745 4288492843
-0.011655599 -0.00016338145 0.015139995 4287052093
-0.010117907 0.0029612645 0.012367243 4288622129
-0.0083759166 0.004542192 0.010930138 4289669924
-0.0061815456 0.0030362303 0.012162128 4289408295
-0.0040949807 0.0023022625 0.012726663 4289801249
-0.001881808 0.0007969304 0.0139578 4289801249
9.4059855e-05 0.00083497865 0.013855154 4289604898
0.0021965392 0.00010166364 0.014419114 4290193694
0.0040453561 0.00091137877 0.013650114 4290063134
0.0060207732 0.00094975671 0.013547739 4290324764
0.0077261664 0.0025308556 0.012113258 4290390299
0.009695787 0.0025693341 0.012011344 4290520859
0.011384491 0.0041503697 0.010577844 4290128414
0.013205212 0.0049600988 0.0098107103 4290782743
0.01531196 0.0042276359 0.010375021 4290717464
0.017572526 0.0027242838 0.011604562 4291044373
0.019843791 0.0012212987 0.012833593 4289277989
0.021971744 0.00048955576 0.013397029 4289473573
0.024418402 -0.0017837824 0.015290262 4289996069
0.027040612 -0.0048275571 0.017847547 4286267713
-0.012231614 0.0021220651 0.010640549 4288687919
-0.010597151 0.0044812099 0.0085407142 4290585884
-0.0087530352 0.0052923928 0.0077730343 4290781978
-0.0065670796 0.0037819077 0.0090022404 4290978583
-0.0043703727 0.0022717938 0.010230931 4290193438
-0.0021628961 0.00076195179 0.011459185 4289408549
-6.8638474e-05 2.6179012e-05 0.012021873 4289604899
0.0020309128 -0.00070937024 0.012584375 4289408548
0.0040063411 -0.0006711022 0.012481919 4289212453
0.005849462 0.00014083972 0.011714943 4289147174
0.0074172281 0.0024997867 0.009619303 4290128158
0.0089684911 0.0048584933 0.0075246524 4290847768
0.010643531 0.0064436379 0.0060950983 4290128413
0.012593616 0.0064819525 0.0059943572 4288950823
0.014835063 0.0049737724 0.0072215907 4289408803
0.017087217 0.0034659463 0.0084483046 4289408803
0.019350078 0.0019583944 0.0096745882 4289670178
0.021777559 -0.00032190466 0.011563864 4289277479
0.024534505 -0.0041479836 0.014779126 4287903284
-0.014234729 0.00051142089 0.0095815342 4289408294
-0.012807105 0.0044296025 0.0061574057 4289408294
-0.010965675 0.0052427496 0.0053914338 4290258718
-0.0091298334 0.0060559171 0.0046258457 4289997089
-0.0068365559 0.0037649139 0.0065160859 4290912793
-0.0046455488 0.0022502905 0.0077418927 4290651418
-0.0025649741 0.0015119761 0.008303605 4290193438
-0.00047909468 0.00077387691 0.0088651236 4289539620
0.0014854483 0.00081183389 0.0087631606 4289343269
0.0035792142 7.4064359e-05 0.0093244743 4289343524
0.0055461787 0.00011228025 0.0092225429 4289539618
0.0071085133 0.0024776845 0.0071320403 4289539363
0.00879189 0.0040672529 0.0057052057 4290586394
0.010464195 0.0056566759 0.0042790733 4290979094
0.012411419 0.0056949533 0.0041784924 4291044119
0.014504191 0.004957858 0.0047402978 4290455578
0.016750667 0.0034455261 0.0059641302 4290782488
0.019159 0.0011582021 0.0078494791 4289539109
0.021737356 -0.0019040594 0.010395989 4289146663
-0.016339712 -0.00032036565 0.0078598205 4288818479
-0.014586594 0.0012734802 0.0064316094 4289799973
-0.013059519 0.0044240369 0.0036786534 4290716699
-0.011333887 0.0060176528 0.0022520199 4289866274
-0.0093933381 0.0060545779 0.0021508783 4288950824
-0.0072215199 0.0045351158 0.0033743735 4289408293
-0.0049205236 0.0022378354 0.0052594598 4290128159
-0.0029667355 0.0022753528 0.0051578823 4289997344
-0.0010130927 0.0023129894 0.0050564017 4289604643
0.00094040856 0.0023507285 0.0049550068 4289343013
0.0030230805 0.0016105836 0.0055152997 4289473828
0.0049790181 0.0016485928 0.0054139439 4289539363
0.0069347732 0.0016867234 0.0053126868 4289343268
0.0086154006 0.0032806019 0.0038892236 4289604898
0.010425184 0.004096597 0.0031274538 4290193438
0.012229342 0.0049125641 0.0023660343 4290782233
0.014464859 0.0033955961 0.0035870839 4290389533
0.016711097 0.0018789093 0.0048077088 4289931298
0.019270252 -0.0011925586 0.0073486809 4289538599
0.021850977 -0.0042634299 0.0098885931 4287249209
-0.018438954 -0.0011472711 0.0061413366 4286397763
-0.016887076 0.0020122505 0.0033933707 4288883504
-0.014833413 0.0012683361 0.0039527211 4289473574
-0.013311736 0.0044275331 0.0012065154 4290585884
-0.011481401 0.0052448581 0.00044436939 4290847514
-0.0095437281 0.0052817347 0.00034338236 4290781978
-0.0071436055 0.0021970323 0.0028850883 4290716699
-0.005076915 0.0014539692 0.0034442078 4290716954
-0.0031259991 0.0014914493 0.0033427905 4290193694
-0.0012990311 0.0023092791 0.0025812406 4289932064
0.00052233785 0.0031271181 0.0018200632 4289800993
0.0024673827 0.003164818 0.001719201 4289604643
0.0045442618 0.0024225465 0.0022782292 4290782233
0.0064917244 0.0024605165 0.0021774042 4290716953
0.0084390305 0.0024985909 0.0020766687 4290193438
0.010386158 0.0025367583 0.0019760113 4289343013
0.012333121 0.0025750562 0.001875462 4289800993
0.014571119 0.0010537799 0.0030931626 4289669668
0.016968165 -0.0012470032 0.0049693715 4289603879
0.019532416 -0.0043270653 0.0075036511 4288818734
0.026877034 -0.011225378 0.013125034 4287050818
-0.018872984 0.00041604647 0.0023439024 4289276204
-0.017128024 0.0020183516 0.00092248991 4289342759
-0.015184708 0.0020549553 0.00082092918 4289473829
-0.013348918 0.0028744838 5.9975311e-05 4289735458
-0.011518672 0.0036939769 -0.00070056506 4289800993
-0.0094682835 0.0029482073 -0.00014236756 4290193438
-0.0072969645 0.0014200252 0.0010747109 4290128159
-0.0053515136 0.0014572893 0.00097349659 4289866273
-0.0034061857 0.0014946465 0.00087236054 4289931809
-0.0014609993 0.001532122 0.00077131949 4290127903
0.00035756454 0.0023521036 1.1915341e-05 4290128159
0.0019121133 0.0047367807 -0.0020638127 4289735203
0.0038459711 0.00477438 -0.00216401 4290390043
0.0059143417 0.0040298509 -0.0016060881 4291044374
0.0079879723 0.0032855566 -0.0010483395 4291044119
0.010066923 0.0025414168 -0.00049075671 4289866784
0.012293976 0.0010154671 0.00072421134 4289997089
0.014531735 -0.00051016128 0.0019387081 4289866018
0.017076757 -0.0035994281 0.0044674482 4289407529
-0.021148056 0.0011756881 -0.00068057515 4289408293
-0.019405786 0.0027821758 -0.0020987149 4289474083
-0.017674509 0.004388615 -0.0035162382 4290586139
-0.015535697 0.0028549726 -0.0023010466 4290062623
-0.013708171 0.0036764792 -0.0030599171 4289931808
-0.011776112 0.0037131249 -0.0031607011 4289604643
-0.0098441802 0.0037499 -0.0032613818 4289473828
-0.007681299 0.0022172425 -0.0020471308 4289735713
-0.0057441629 0.0022543361 -0.0021479186 4289931808
-0.0038071573 0.0022915592 -0.0022486039 4289997343
-0.001993984 0.0031134845 -0.0030062133 4290128158
-0.00018640608 0.0039354307 -0.0037634363 4290782233
0.0014864244 0.005541923 -0.0051770499 4290062368
0.0035438612 0.0047949129 -0.0046202391 4289081128
0.005606588 0.0040480676 -0.004063583 4289670434
0.0078119375 0.0025171149 -0.0028508808 4290324764
0.0097479112 0.0025550989 -0.0029509366 4289670178
0.012112048 0.00024039205 -0.0010828469 4290258464
0.014492337 -0.0020738395 0.00078444928 4289866018
0.017185252 -0.0059560235 0.0039625168 4286464318
-0.02147384 0.0019851103 -0.0037971865 4289015849
-0.019640666 0.0028085834 -0.0045550494 4290782744
-0.017813034 0.003632044 -0.0053124791 4290716699
-0.015886366 0.0036683432 -0.0054131635 4291240213
-0.013959799 0.0037047607 -0.0055137547 4290520603
-0.012143381 0.0045283712 -0.0062703313 4289670179
-0.010107014 0.0037779729 -0.0057146335 4289931553
-0.0079498142 0.0022407956 -0.0045032734 4290128159
-0.0060182735 0.0022778036 -0.0046037557 4289669923
-0.0040868558 0.0023148926 -0.0047041699 4289931808
-0.0022792369 0.0031389608 -0.0054599009 4290324508
-0.00047718734 0.0039629792 -0.006215225 4290520604
0.0011901781 0.0055736885 -0.0076252846 4290782233
0.003110148 0.0056110206 -0.007724761 4289146664
0.0051645152 0.0048618834 -0.0071693193 4289604644
0.007361453 0.0033264211 -0.0059593963 4290128414
0.0094291307 0.0025776983 -0.0054044565 4290455069
0.012072962 -0.0013164999 -0.0022321045 4289735203
0.014598403 -0.0044236835 0.00028467365 4289931298
0.021843541 -0.011383421 0.0058672 4288033844
-0.023629766 0.0019824938 -0.006147827 4288752689
-0.021895677 0.0035974155 -0.0075591849 4289473063
-0.020073496 0.0044228057 -0.0083148265 4289408294
-0.01815505 0.0044588414 -0.0084151626 4289408294
-0.016236715 0.0044950056 -0.0085153943 4289997089
-0.014318474 0.0045312657 -0.0086155497 4289996833
-0.01240034 0.0045676553 -0.0087156026 4290062623
-0.010482322 0.0046041501 -0.0088155698 4289670178
-0.008218132 0.002273398 -0.0069528101 4290062624
-0.0062921792 0.0023102718 -0.0070530223 4289866273
-0.0043663494 0.002347263 -0.0071531394 4289931808
-0.0026878528 0.0039623254 -0.0085607143 4289997344
-0.0007677339 0.0039994321 -0.0086603677 4290128159
0.001023192 0.004825532 -0.0094134156 4290520603
0.0029403083 0.0048628137 -0.0095127402 4290782233
0.0049917586 0.0041114339 -0.0089587672 4290913559
0.0071857311 0.0025715581 -0.0077519119 4290847513
0.0093904398 0.0010319562 -0.0065454924 4290258718
0.012176525 -0.0036617517 -0.0027283914 4289081128
0.014849726 -0.0075661587 0.00043446571 4286857019
-0.02550178 -0.00038619759 -0.006530676 4288425268
-0.023853064 0.0020248475 -0.0085930545 4288818733
-0.022028174 0.0028523444 -0.0093473168 4290454813
-0.020505913 0.0060547781 -0.012061574 4289735459
-0.018496767 0.005299049 -0.011508016 4288819498
-0.016586754 0.0053350446 -0.011607823 4289277479
-0.01446243 0.0037882333 -0.01040149 4290651164
-0.012547169 0.0038245604 -0.010501399 4289997344
-0.01040671 0.0022782362 -0.0092956983 4289932064
-0.0083708465 0.0015235865 -0.008743111 4289800993
-0.0064477585 0.001560411 -0.0088431695 4289931808
-0.0046456195 0.0023885635 -0.0095954416 4289997344
-0.0029726066 0.0040079146 -0.010999555 4289866273
-0.0010580793 0.0040449356 -0.011098901 4289474084
0.00085631385 0.0040820497 -0.01119817 4289670178
0.0026388541 0.0049102674 -0.011949097 4290520603
0.0046846755 0.0041566067 -0.011396437 4289931808
0.0068729706 0.002612188 -0.010192494 4289735459
0.0094916411 -0.0013043755 -0.0070350235 4289408294
0.012279991 -0.0060111042 -0.0032277042 4287576628
0.018879991 -0.0098486682 -0.00027533807 4286661180
-0.027643355 -0.00037695328 -0.0088734161 4287379004
-0.025901038 0.0012465962 -0.010278936 4288361774
-0.024169695 0.0028701206 -0.011683823 4289211943
-0.022256825 0.0029057949 -0.011784056 4290062368
-0.020640973 0.005322997 -0.013839704 4290389788
-0.018736452 0.0053587523 -0.013939325 4290847768
-0.016727611 0.0046009463 -0.013387285 4290913304
-0.014606263 0.0030497327 -0.012184011 4291043863
-0.012583997 0.0022924133 -0.011632499 4289866529
-0.010556392 0.0015352722 -0.011081135 4289866273
-0.0086387694 0.0015718807 -0.011180992 4289866273
-0.0068393275 0.0024020816 -0.011931643 4289866018
-0.0051662177 0.0040256283 -0.013332584 4290913304
-0.0033806339 0.0048557683 -0.01408229 4291109398
-0.0013481975 0.0040993211 -0.013530806 4290651418
0.00056061521 0.0041363263 -0.013629787 4289474083
0.002600953 0.0033802814 -0.013078528 4289670688
0.0046465956 0.0026244135 -0.012527488 4289670434
0.0069717504 0.00028259493 -0.010676879 4289342759
0.0095927455 -0.0036448431 -0.0075276075 4288950569
0.016730126 -0.010666159 -0.0019835047 4286529343
-0.027679132 -0.001915348 -0.010009209 4287771449
-0.02602762 0.00050873309 -0.012062201 4288492334
-0.02439253 0.0029325872 -0.014114201 4289015849
-0.02248526 0.0029681628 -0.014214138 4289211944
-0.020775937 0.004595866 -0.015614474 4289212198
-0.018874295 0.0046315822 -0.015713934 4289932064
-0.016972743 0.0046674176 -0.015813299 4289670179
-0.014749989 0.0023158342 -0.013963134 4289735458
-0.012840472 0.0023520729 -0.014062729 4289800993
-0.010818511 0.0015926873 -0.013512725 4289670179
-0.0090217516 0.0024248441 -0.014261678 4289866273
-0.0071125738 0.0024614115 -0.014361006 4289735203
-0.0054449402 0.0040892228 -0.015758429 4290586139
-0.0035414472 0.0041258824 -0.015857313 4290847768
-0.0015119202 0.0033672168 -0.015307277 4291174933
0.00052291155 0.0026087756 -0.014757428 4289932064
0.0025630705 0.0018505119 -0.014207799 4289866528
0.0044741891 0.0018877843 -0.014306733 4289670179
0.0069333799 -0.0012559053 -0.011812579 4289473318
0.0096937455 -0.005989423 -0.0080232248 4287576885
-0.027714903 -0.0034535036 -0.011144824 4287967798
-0.02606339 -0.0010229042 -0.013192995 4287904049
-0.024334874 0.00060922094 -0.014591257 4288427308
-0.022521183 0.0014430517 -0.015340092 4289016359
-0.020713024 0.0022769058 -0.016088543 4288885289
-0.018808804 0.0023126798 -0.016188132 4289212455
-0.016904678 0.0023485483 -0.016287642 4289604643
-0.015000645 0.0023845583 -0.016387042 4289669923
-0.01309672 0.0024206634 -0.016486365 4290062368
-0.011192903 0.0024568853 -0.016585594 4289800993
-0.0091739744 0.0016953857 -0.016036954 4289800483
-0.0075035356 0.0033275229 -0.017431436 4290258718
-0.0057234503 0.0041617709 -0.018177738 4289408294
-0.0040723123 0.0057937256 -0.019571004 4289408804
-0.0016755313 0.0026396797 -0.017080378 4289997343
0.00035638735 0.0018789829 -0.016532004 4289670179
0.0023936331 0.0011185114 -0.015983816 4289866273
0.0044361837 0.00035821646 -0.015435848 4289800739
0.0070320182 -0.0035915994 -0.012301467 4288753709
0.0097946562 -0.0083381832 -0.0085218586 4287380533
0.013965804 -0.0098563284 -0.0074298102 4288818734
-0.027662737 -0.0057919649 -0.011632685 4287445049
-0.02591785 -0.0041552996 -0.013028671 4287772468
-0.024183933 -0.0025186706 -0.014424032 4288296748
-0.0223649 -0.0016825653 -0.015171539 4288754728
-0.020551391 -0.00084643764 -0.015918663 4288885544
-0.01884497 0.00078999717 -0.017312273 4288688938
-0.017045267 0.0016261581 -0.018058533 4288885288
-0.015251096 0.0024622711 -0.018804388 4289604643
-0.01346248 0.003298406 -0.01954986 4289604644
-0.011454534 0.0025343769 -0.019002363 4290127903
-0.0094412416 0.0017705746 -0.018455053 4290324253
-0.0076583959 0.0026069558 -0.01919996 4290978329
-0.0060017258 0.0042432365 -0.020590391 4289997343
-0.0043560788 0.0058794799 -0.021980196 4289801249
-0.002091147 0.0035164398 -0.020141298 4290193694
6.1202794e-05 0.0019536219 -0.018948663 4290651418
0.0020928197 0.0011908119 -0.018401757 4289604388
0.0043981783 -0.0011710753 -0.016564758 4289277479
0.0072675161 -0.0067310436 -0.012148312 4289146663
0.010035131 -0.011490587 -0.0083786966 4286268223
-0.027610665 -0.0081345141 -0.012123562 4287640889
-0.025863107 -0.0064934646 -0.013516482 4287969839
-0.024033193 -0.0056550843 -0.014263025 4288427819
-0.02220881 -0.0048167165 -0.015009211 4288493098
-0.020389955 -0.0039782547 -0.015755037 4288624169
-0.018678129 -0.0023373764 -0.017145718 4288362283
-0.016873065 -0.001499 -0.017890619 4288296749
-0.015180495 0.00014179153 -0.019280164 4288819753
-0.013498913 0.0017824634 -0.020668996 4289081383
-0.011715937 0.0026207757 -0.021412482 4289604644
-0.0098233931 0.002656884 -0.021511048 4289735714
-0.0080488138 0.0034953007 -0.022253977 4290651674
-0.0062797889 0.0043336912 -0.022996482 4290586393
-0.0045163259 0.0051720939 -0.02373861 4290717464
-0.0023804195 0.0036044945 -0.022548422 4290782233
-0.00023374707 0.0020371685 -0.021358673 4289931553
0.0020551309 -0.00033174129 -0.019525703 4289408293
0.004762698 -0.0051057092 -0.015762784 4289343524
0.0076396875 -0.010680735 -0.011358058 4287839024
0.010135796 -0.01384973 -0.008885067 4287380533
-0.027558681 -0.010481246 -0.012617454 4286921024
-0.025717907 -0.0096405782 -0.013363099 4287903539
-0.02397592 -0.0079951696 -0.014752425 4288034864
-0.022148911 -0.0071545513 -0.01549712 4288297004
-0.020228706 -0.0071186172 -0.015597647 4288362284
-0.018511485 -0.0054732477 -0.016985437 4288362284
-0.016701072 -0.0046325852 -0.017729001 4288035118
-0.015109975 -0.0021828453 -0.019758936 4288166188
-0.013425719 -0.00053774239 -0.021144742 4288493098
-0.011752442 0.0011072052 -0.022529861 4288623914
-0.010090172 0.0027521378 -0.023914337 4288950824
-0.0082033277 0.0027882433 -0.024012528 4289474084
-0.0064371116 0.0036287536 -0.02475328 4289866784
-0.0044300035 0.0028608167 -0.02420862 4289932573
-0.0026694611 0.0037014191 -0.024948925 4289866529
-0.00027114153 0.00052138977 -0.022477627 4289408549
0.002017457 -0.001854067 -0.020649482 4288688939
0.0051269121 -0.0090531679 -0.014970349 4288362283
0.0077378862 -0.013035426 -0.011860899 4288493099
0.0098177083 -0.01380131 -0.011319532 4287250228
-0.027770117 -0.010410805 -0.015042762 4287444538
-0.025663394 -0.01198923 -0.013858579 4287706679
-0.023825523 -0.011146314 -0.014602367 4287903539
-0.022280995 -0.0078827105 -0.017272769 4288361773
-0.02036367 -0.0078468267 -0.017373141 4288361773
-0.018547818 -0.0070039844 -0.018115526 4288230958
-0.016425155 -0.0085814958 -0.016931722 4288230959
-0.014825888 -0.0061250236 -0.018957293 4288100398
-0.013023928 -0.005282125 -0.019698644 4288362284
-0.01156437 -0.0020193409 -0.022364099 4288558634
-0.0098966844 -0.00037002284 -0.023745615 4289081638
-0.0082400031 0.0012792451 -0.025126513 4289278244
-0.0064738616 0.0021218993 -0.025865672 4288820008
-0.0045901127 0.0021581887 -0.025963522 4289081638
-0.002580598 0.0013882089 -0.025420533 4289800994
-0.00017988682 -0.0018005124 -0.022955822 4289211943
0.0023737997 -0.0057949307 -0.019851647 4287904303
0.0053567626 -0.012207327 -0.014827709 4287773743
0.0076992027 -0.014588058 -0.013007032 4289147684
-0.026151661 -0.00948672 -0.018203245 4286659904
-0.024234328 -0.0094510987 -0.018303813 4287771958
-0.022412963 -0.0086062066 -0.019045047 4287837493
-0.02049851 -0.0085703973 -0.019145286 4288557869
-0.01858414 -0.0085344696 -0.019245431 4288753964
-0.016565789 -0.0093074199 -0.01870515 4288361519
-0.014969237 -0.0068444898 -0.020725764 4288230958
-0.013060581 -0.0068082907 -0.02082533 4288230959
-0.011376493 -0.0051544439 -0.022204582 4288296238
-0.0095884465 -0.0043093697 -0.022943474 4288362284
-0.0079236254 -0.0026556333 -0.02432153 4288754984
-0.0065106004 0.00061529689 -0.026977878 4288623913
-0.0046269856 0.00065154815 -0.027075749 4288689194
-0.002617646 -0.00012062723 -0.026534375 4288361773
-8.8725239e-05 -0.0041265376 -0.023437062 4288427563
0.0024672858 -0.0081317816 -0.020341052 4288885798
0.0051843859 -0.012944843 -0.016607612 4288558379
0.0072503723 -0.013715496 -0.016068859 4288623659
-0.022640664 -0.008513934 -0.021453053 4287903029
-0.020534672 -0.010100676 -0.020275049 4287837749
-0.018519159 -0.010875978 -0.01973632 4288884778
-0.016498283 -0.011651005 -0.019197816 4288230704
-0.01479226 -0.0099925688 -0.020575197 4288231214
-0.012987766 -0.0091452887 -0.021313474 4288231214
-0.011076637 -0.0091089625 -0.02141311 4288296748
-0.0092805028 -0.0082616014 -0.022150772 4288427563
-0.0077251717 -0.0057924804 -0.024164077 4288951078
-0.0063066334 -0.0025127437 -0.026814276 4288492843
-0.004540775 -0.0016656381 -0.027550124 4288558123
-0.0024031103 -0.0032506858 -0.026372887 4288362029
0.00013085827 -0.0072673867 -0.023283895 4288231469
0.0025606826 -0.010472863 -0.020833505 4287315254
0.0048781894 -0.01286721 -0.019021325 4288820009
-0.018656742 -0.011594839 -0.021504799 4286333503
-0.016742747 -0.01155881 -0.021604843 4287772469
-0.014935527 -0.010709434 -0.022341749 4287772724
-0.013133846 -0.0098600341 -0.023078272 4287772979
-0.01111345 -0.010636915 -0.022541109 4287969328
-0.0092025585 -0.010600497 -0.02264066 4288296748
-0.0074093454 -0.009750911 -0.023376483 4289081894
-0.0059825592 -0.0064623435 -0.026020695 4288362284
-0.0042086206 -0.0056129037 -0.026755352 4288165679
-0.0021887645 -0.0063892552 -0.026217759 4288295983
-0.015185304 -0.010606298 -0.024740256 4286594878
-0.013170451 -0.011385588 -0.024204509 4287772213
-0.011262324 -0.011349339 -0.024304003 4288230703
-0.0093542971 -0.011312982 -0.02440341 4288231214
-0.0074463673 -0.011276521 -0.024502734 4289539874
-0.0057790279 -0.009609621 -0.025871219 4288427563
-0.003999725 -0.0087578706 -0.026604595 4287969328
-0.0021002963 -0.0087212576 -0.026703246 4287183929
0.0014359653 -0.0070177889 -0.028168391 4287838769
-0.0097353905 -0.010386014 -0.027429473 4287837749
-0.0076008327 -0.011984536 -0.026261996 4288623404
-0.0060564391 -0.0094959699 -0.028260192 4288099888
-0.0041597448 -0.0094595142 -0.028358776 4287838259
-0.0022631735 -0.0094229523 -0.028457273 4286660413
-0.00062340498 -0.0077519342 -0.029820887 4290128669
-0.010001462 -0.010265445 -0.029814001 4288165169
-0.0082248189 -0.0094097275 -0.030544192 4287641654
-0.0065738708 -0.007734417 -0.031905442 4287968818
-0.004565347 -0.0085176406 -0.031372186 4287641398
-0.0025514811 -0.0093007106 -0.030839097 4288033844
-0.0069707856 -0.0067770313 -0.034907877 4286856509
-0.0048477985 -0.0083842501 -0.033746146 4287575609
-0.0029650852 -0.008348003 -0.033843961 4286986558
0.019756395 -0.0057806219 0.053749584 4280504204
0.021164458 -0.0060853241 0.048448175 4282667114
0.027164448 -0.0068717659 0.046223484 4281225343
0.041520473 -0.0070331478 0.006537389 4279653014
0.035170179 -0.0087480675 0.0031976569 4281291644
0.025878523 -0.007300674 -0.0050819591 4282601324
0.023732077 -0.0081051886 -0.006780752 4282141813
0.019648854 -0.0089435913 -0.0083764084 4282208879
0.017215211 -0.0081396326 -0.011357603 4282339183
0.0046394058 -0.0051905476 -0.032011356 4280043163
-0.014298968 -0.010069255 -0.034367133 4282794358
-0.0054119937 -0.0080907885 -0.038474448 4282863718
0.0040810965 -0.0087355357 -0.038334198 4280567953
-0.0077996887 -0.0063101272 -0.041981757 4282470509
