# .PCD v0.7 - Point Cloud Data file format
VERSION 0.7
FIELDS x y z rgba
SIZE 4 4 4 4
TYPE F F F U
COUNT 1 1 1 1
WIDTH 639
HEIGHT 1
VIEWPOINT 0 0 0 1 0 0 0
POINTS 639
DATA ascii
-0.021800477 0.0019062804 0.026471701 4288294453
-0.019666538 0.001191684 0.027020518 4286463554
-0.027746454 -0.00059623551 0.026328273 4288817204
-0.026097659 0.0017350162 0.024185773 4288621873
-0.024219938 0.0025418731 0.023388948 4289537579
-0.022598654 0.0048727388 0.021248337 4289995814
-0.020481281 0.0041556279 0.021796592 4290191654
-0.018358584 0.0034386883 0.02234463 4290126374
-0.01596342 0.0011984347 0.024235561 4288621873
-0.013688378 -0.00027965475 0.025454186 4288687153
-0.011680707 -0.00023396593 0.025329713 4289145388
-0.0098149553 0.00057341671 0.024534225 4289145388
-0.0080993474 0.0021424047 0.023068242 4288295219
-0.0062475801 0.0029497105 0.022273801 4291499804
-0.003951624 0.0014727036 0.023491509 4291238173
-0.0017976239 0.00075737527 0.024038274 4289995558
0.00051701069 -0.0007189652 0.025255006 4288098868
0.002368018 8.8730361e-05 0.024460915 4288295219
0.0045350343 -0.00062592747 0.025007073 4288032314
0.010222524 0.0010363138 0.023297038 4289733163
0.012053415 0.0018441021 0.022504535 4290779938
0.014401972 0.0003691907 0.023719721 4287117628
-0.028377641 0.0016180924 0.021781128 4288949549
-0.026622515 0.0031913049 0.020315167 4289473063
-0.024755791 0.0040001082 0.019520659 4289212198
-0.02289464 0.0048089004 0.018726587 4289670178
-0.020782921 0.0040894966 0.019273583 4290651418
-0.018665895 0.0033703218 0.019820325 4290781978
-0.016543571 0.002651365 0.020366818 4289604644
-0.014279697 0.0011687013 0.02158292 4289735459
-0.012422033 0.0019779927 0.020789497 4289473829
-0.01056999 0.0027873027 0.019996453 4289473828
-0.0088680089 0.0043603233 0.018534616 4289539364
-0.0070299208 0.0051694917 0.017742645 4290389534
-0.0048977137 0.0044514402 0.018289026 4290847003
-0.0027602464 0.0037336121 0.018835161 4290912539
-0.00046220422 0.002252487 0.020049717 4289474084
0.0015304536 0.0022985912 0.019926734 4290063389
0.0036836714 0.001581443 0.020472132 4289933084
0.0055151433 0.0023911092 0.019681051 4289997089
0.0073409826 0.0032007652 0.018890332 4289669924
0.0091611519 0.0040103639 0.018100094 4290454558
0.011318989 0.0032937168 0.018645503 4290520604
0.013482042 0.0025772415 0.019190695 4290716698
0.016004495 0.00033507263 0.02107016 4289866018
0.018183433 -0.00038085366 0.021614507 4289473573
0.020002492 0.00042923493 0.020824645 4289538854
0.021445408 0.0027647819 0.018701669 4289473319
0.023247711 0.0035746261 0.017912947 4289276969
0.025044315 0.0043843896 0.017124686 4290322978
0.027415507 0.0029062661 0.018335704 4290126883
0.029601172 0.0021910779 0.018879998 4290061604
0.032189734 -4.8906077e-05 0.020755943 4289930023
0.034794345 -0.0022883569 0.022630937 4289537068
-0.028656844 0.0015549567 0.019258495 4288884268
-0.027027041 0.0038988204 0.017126951 4289997089
-0.025168583 0.0047096969 0.016334567 4289539618
-0.023315687 0.0055204942 0.015542638 4288820009
-0.021084324 0.0040323981 0.016757268 4289212199
-0.018842209 0.0025446955 0.01797127 4290193439
-0.01672281 0.0018235035 0.018516328 4289866784
-0.014870513 0.0026347786 0.017724801 4289866784
-0.013023823 0.0034460188 0.016933691 4289408803
-0.01118274 0.004257238 0.016143005 4290324764
-0.0093472898 0.0050684945 0.015352722 4290389533
-0.007517457 0.0058796811 0.014562901 4289081384
-0.0053936169 0.0051592742 0.01510819 4289343013
-0.0032645091 0.0044390378 0.015653268 4289931553
-0.00097490102 0.0029534199 0.016865071 4290324509
0.0010094643 0.0029993602 0.016742621 4289932319
0.00315433 0.0022798348 0.017286915 4289997599
0.0049775764 0.0030915202 0.016497981 4290193949
0.0071274787 0.0023723282 0.017042119 4290062878
0.0089448914 0.0031840452 0.016253673 4288885033
0.011099808 0.0024651606 0.016797647 4289604643
0.013085656 0.0025117211 0.016675543 4290651418
0.015248314 0.0017932151 0.017219182 4289735969
0.017236434 0.0018400121 0.017097075 4289932063
0.019224346 0.0018868782 0.016975038 4289866529
0.020656466 0.0042287414 0.014857609 4289800738
0.022447854 0.0050404747 0.014071226 4290258718
0.024233557 0.0058522192 0.013285231 4289670179
0.026593626 0.0043694978 0.0144937 4289800994
0.028768264 0.0036518802 0.015037056 4290454304
0.031345665 0.0014051348 0.016908854 4290126374
0.034140609 -0.0016057494 0.01944387 4289275949
-0.029052872 0.0022694878 0.016074833 4289014828
-0.027311418 0.0038511078 0.014616206 4289866018
-0.025458496 0.0046639978 0.01382583 4291109909
-0.023611132 0.0054768552 0.013035867 4290848279
-0.021385487 0.0039843353 0.014247585 4290848023
-0.019149076 0.0024921112 0.015458748 4290782744
-0.017302163 0.0033053779 0.014669053 4289670688
-0.015324708 0.00335029 0.014546383 4289801503
-0.013347417 0.0033953195 0.014423817 4289736224
-0.011370279 0.0034404532 0.014301337 4289800993
-0.0095376149 0.0042537912 0.013512895 4291044119
-0.0077105686 0.0050670966 0.012724869 4290716698
-0.0057393983 0.0051124259 0.012603011 4290847513
-0.0036159307 0.0043899561 0.013146795 4290913304
-0.0014872104 0.0036677145 0.013690338 4290455324
0.00064677 0.0029456434 0.01423366 4290062623
0.0027859956 0.0022238344 0.014776699 4289801248
0.0047671199 0.0022698995 0.014654603 4289866784
0.0064158663 0.0038513006 0.013203125 4291109653
0.0082223341 0.0046649626 0.012416992 4290651928
0.010194674 0.0047111209 0.012295652 4290193949
0.012515292 0.0032225405 0.013502877 4290520858
0.014669612 0.0025016596 0.014045414 4290324764
0.016649455 0.0025482834 0.013923828 4290063389
0.018446706 0.003362183 0.0131386 4289801759
0.020053148 0.0049432232 0.011690196 4289866783
0.022024177 0.0049899011 0.011569347 4290848279
0.023804426 0.005803661 0.010785358 4289605154
0.025965549 0.0050834618 0.011327859 4289343268
0.02832786 0.0035965559 0.012533039 4289473573
0.030700825 0.0021100049 0.01373757 4289539109
0.03348726 -0.00090976246 0.016266648 4289538343
-0.029097527 0.00068471208 0.014899489 4289276458
-0.027475834 0.0030415519 0.012778163 4289669669
-0.025625706 0.0038565476 0.011989575 4289866783
-0.023906346 0.0054422966 0.010535762 4290848023
-0.021814302 0.0047158902 0.011079175 4290521624
-0.019716963 0.0039897622 0.011622302 4289866784
-0.017614324 0.0032638772 0.012165193 4289801248
-0.015642464 0.003308672 0.012042876 4289539363
-0.013670743 0.0033535822 0.011920664 4289736224
-0.011699192 0.0033986005 0.011798535 4289800993
-0.0097278133 0.0034437305 0.011676509 4289997344
-0.007903561 0.0042591789 0.010890301 4290782233
-0.0057855621 0.0035342961 0.011432726 4290586138
-0.0039671063 0.0043498245 0.010647032 4290651674
-0.0016888827 0.0028552483 0.011853073 4289932064
0.00028432906 0.0029009576 0.01173133 4289343268
0.0025784969 0.0014069197 0.012936585 4288950824
0.004720062 0.00068309205 0.013477933 4289343524
0.0063688233 0.0022688811 0.012029722 4290193693
0.0080065057 0.003854427 0.010582276 4290979094
0.0098045468 0.0046701734 0.0097983573 4290848023
0.012119472 0.0031771562 0.01100266 4291109909
0.014091276 0.0032235044 0.010881506 4290455579
0.015883259 0.0040393858 0.010098165 4289867039
0.017851904 0.0040858365 0.009977337 4290063388
0.019820325 0.0041323784 0.0098565929 4289474594
0.021976314 0.0034097373 0.010397688 4290782744
0.023756519 0.0042256839 0.0096153244 4291175444
0.025724277 0.0042724623 0.0094948113 4290978838
0.028083637 0.0027811662 0.010696882 4290847769
0.030453667 0.0012901635 0.01189841 4290454813
0.033035643 -0.00096938713 0.013760243 4289407784
0.035837784 -0.0039974004 0.016281947 4287379769
-0.029376067 0.00064640446 0.012395278 4289014828
-0.027759776 0.0030096215 0.010279197 4289211688
-0.026037589 0.0045996751 0.0088283606 4289474339
-0.024201296 0.0054166769 0.0080423579 4289409314
-0.022242758 0.0054608458 0.0079206303 4289408803
-0.020023234 0.0039595882 0.0091263298 4289801504
-0.017926242 0.0032313731 0.0096680056 4289539618
-0.015823957 0.0025034216 0.010209389 4289539363
-0.013716385 0.0017756908 0.010750515 4289867039
-0.011744969 0.0018207165 0.010628408 4289932064
-0.0097737089 0.0018658447 0.010506392 4289604643
-0.0080964193 0.0034558666 0.0090591498 4289931808
-0.0062805936 0.004273457 0.0082751252 4289343524
-0.0043180287 0.0043187137 0.0081538893 4289866784
-0.0020455122 0.0028196317 0.0093570985 4289866784
-7.7873468e-05 0.0028652106 0.0092357006 4289147174
0.0022106022 0.0013667489 0.01043804 4289343523
0.0043465272 0.00064063864 0.010978136 4289343523
0.0059898645 0.0022305953 0.0095335264 4289801248
0.0076221302 0.0038203807 0.0080896616 4289997599
0.0092432722 0.0054100729 0.0066465363 4290063134
0.011723906 0.0031406977 0.008509133 4289670433
0.013866991 0.0024152528 0.0090491604 4289801503
0.015835755 0.0024616346 0.0089282691 4290194203
0.017804295 0.0025080815 0.0088074468 4289932574
0.019772597 0.0025546439 0.0086867288 4289801759
0.02174072 0.002601251 0.0085660573 4289997853
0.023327753 0.0041906969 0.0071255136 4289997598
0.025289968 0.004237358 0.0070053488 4289997598
0.027447835 0.0035128226 0.0075448826 4290521114
0.029809453 0.0020173397 0.0087436642 4290193183
0.032383025 -0.00024899049 0.010601193 4289538344
0.034972645 -0.0025148164 0.012457758 4288491569
-0.029537488 -0.00015817443 0.010560703 4288883758
-0.028043494 0.0029867473 0.0077868737 4289539109
-0.026204444 0.0038058651 0.0070022251 4289801249
-0.024370957 0.0046249977 0.0062180273 4290782488
-0.02241528 0.0046690959 0.0060964748 4290651928
-0.020459753 0.0047133095 0.0059750155 4290193949
-0.018237911 0.0032078768 0.0071774274 4289474083
-0.016277228 0.0032524518 0.0070558321 4289474083
-0.014039341 0.0017475719 0.0082574617 4289867039
-0.012214914 0.0025672317 0.0074742977 4289997343
-0.010251969 0.0026121736 0.0073527973 4290193438
-0.0087296963 0.0049809436 0.0052482672 4290193438
-0.0067752525 0.0050259246 0.0051274672 4290324763
-0.0046687052 0.0042965575 0.0056674574 4289801504
-0.002246879 0.0020186054 0.0075283181 4289081638
-0.00028208643 0.0020641265 0.0074071009 4289605409
0.0018429607 0.0013355156 0.0079461969 4289605409
0.0038101077 0.0013812995 0.0078249909 4289474338
0.0057770461 0.0014271783 0.0077038705 4289735714
0.0074065924 0.0030213171 0.0062633883 4289997599
0.0091963708 0.0038412553 0.005483238 4289932319
0.011328593 0.003113287 0.0060222447 4289932574
0.013466068 0.0023854645 0.0065610185 4289736224
0.015429281 0.0024317401 0.0064404886 4290128924
0.017756671 0.00093058869 0.0076377541 4289997853
0.019539982 0.0017508091 0.0068583265 4289997853
0.021505266 0.0017973939 0.0067378618 4289867038
0.023089603 0.0033911713 0.0053006783 4290128413
0.024855927 0.0042112661 0.004522495 4289866784
0.027008191 0.003484434 0.0050607659 4289801504
0.029165663 0.0027577719 0.0055988245 4289539363
0.031730779 0.00048474781 0.0074519664 4289538599
0.03451591 -0.0025610675 0.0099617727 4289864743
-0.029815592 -0.00018068869 0.0080682766 4288229684
-0.028446503 0.0037502241 0.0046400968 4289735204
-0.026737977 0.0053486614 0.003196653 4290520348
-0.024790477 0.005392469 0.0030755252 4290455579
-0.022843122 0.0054364032 0.0029545054 4291044374
-0.020765468 0.0047033341 0.0034940224 4291175444
-0.018682502 0.0039704819 0.0040332861 4289997599
-0.016458355 0.002460829 0.0052324496 4289539618
-0.014500678 0.0025054468 0.0051111244 4289867039
-0.012543149 0.0025501577 0.0049898773 4290259483
-0.010585792 0.0025949953 0.0048687402 4289997598
-0.0087753609 0.0034166831 0.004088264 4291306004
-0.007120043 0.0050150813 0.0026489142 4291240468
-0.0050191358 0.0042834305 0.0031876527 4290979094
-0.0029129386 0.0035519279 0.0037261583 4290259484
-0.00064384937 0.0020442214 0.0049231481 4289605409
0.0013151839 0.0020897407 0.0048023853 4289474338
0.0034371465 0.0013589617 0.0053401105 4289867039
0.0052327067 0.0021810308 0.0045610908 4290258973
0.0070226416 0.0030030529 0.0037824791 4290848023
0.0088069364 0.0038250531 0.0030042976 4291044373
0.010759577 0.0038708928 0.0028842781 4291437329
0.012888692 0.0031407657 0.0034219231 4290979349
0.014843635 0.0031868438 0.0033018999 4289736478
0.017162651 0.0016811527 0.0044964496 4290194203
0.019122601 0.0017275047 0.0043762345 4289867038
0.021082342 0.001773959 0.0042561106 4290063389
0.022470996 0.00414768 0.0021658093 4289801248
0.024229139 0.0049697892 0.0013896991 4290651928
0.026373103 0.0042405366 0.0019268971 4290913559
0.028522246 0.0035115588 0.0024638139 4290454813
0.03107895 0.00123177 0.0043126624 4289276714
0.033855557 -0.0018229084 0.0068164766 4289472299
-0.030093465 -0.00019419566 0.0055824611 4288360499
-0.028729659 0.0037474665 0.0021627676 4289669924
-0.027026594 0.0053501413 0.00072290748 4289212198
-0.025084697 0.0053938427 0.00060214475 4289212453
-0.023142934 0.0054376354 0.00048146024 4289866783
-0.021201294 0.0054815602 0.00036088377 4290193949
-0.018993616 0.0039671133 0.0015577078 4289801758
-0.016911004 0.0032321983 0.0020954609 4289998110
-0.014961638 0.0032766429 0.0019746628 4289474594
-0.013153672 0.0041002254 0.0011957902 4290259739
-0.011063352 0.0033658431 0.001733331 4289997599
-0.0092611611 0.0041895094 0.00095497444 4289212453
-0.0074645802 0.0050131786 0.00017706491 4289997599
-0.0053693056 0.00427922 0.00071453303 4290979094
-0.003268756 0.0035454691 0.0012517367 4289997598
-0.0011629611 0.0028119725 0.0017887149 4290194204
0.00094813854 0.002078624 0.0023254603 4290325019
0.0027383715 0.0029026852 0.0015482679 4290128668
0.0046887547 0.0029482027 0.0014281869 4290521114
0.0063019991 0.0045506577 -4.7478825e-06 4290128414
0.0082465559 0.0045962087 -0.00012434646 4290259484
0.010017008 0.0054201554 -0.0008999873 4291306259
0.012135081 0.0046875975 -0.00036327913 4291175954
0.013899691 0.0055116019 -0.0011384171 4290194204
0.016386926 0.0032231328 0.00070938282 4289736224
0.018335909 0.0032692295 0.00058984384 4289801503
0.020659707 0.0017594411 0.0017810427 4289997599
0.02204302 0.0041396008 -0.00030411966 4289997343
0.023988649 0.0041858819 -0.00042326003 4290913049
0.025934048 0.0042322264 -0.00054233149 4290913048
0.028275996 0.0027231774 0.00064798445 4290716443
0.030628577 0.0012144935 0.0018376578 4289996324
0.033399411 -0.001849083 0.0043353811 4289603369
-0.030604474 0.0013648816 0.0017872211 4287837238
-0.0292514 0.0053171883 -0.0016237088 4290193184
-0.027681407 0.0077056712 -0.0037174113 4290848534
-0.025753263 0.0077490597 -0.0038373191 4289735969
-0.023697667 0.0070109745 -0.0032997206 4289539618
-0.02137614 0.0047102212 -0.0014479812 4290717464
-0.019171443 0.0031913235 -0.00025415793 4290063644
-0.017227512 0.0032355203 -0.00037471205 4289670944
-0.015145238 0.0024985424 0.00016153418 4289867038
-0.013340078 0.0033242791 -0.00061551481 4289735969
-0.011396602 0.0033687926 -0.00073579885 4290978838
-0.0095999166 0.0041945302 -0.0015121773 4289800994
-0.0079582185 0.0058013252 -0.0029442031 4289081384
-0.0057192147 0.0042839837 -0.0017519314 4289277989
-0.0037791133 0.0043288548 -0.0018716827 4290455578
-0.001524128 0.0028121243 -0.00068029203 4290521114
0.00042106211 0.0028573289 -0.00080019608 4290324764
0.0023660734 0.0029026023 -0.00092003495 4290390043
0.0041451901 0.0037286687 -0.0016947836 4290717208
0.0059187114 0.0045546745 -0.0024691336 4289997599
0.0075154528 0.0061612218 -0.0038977955 4288885799
0.0092749596 0.0069871047 -0.0046711368 4289735968
0.011381999 0.0062521021 -0.004135374 4289932319
0.013314977 0.0062976745 -0.0042540412 4290325018
0.015611768 0.0047827256 -0.0030645505 4289867039
0.017734483 0.0040483656 -0.0025295503 4290259483
0.020049885 0.0025340714 -0.0013411157 4290193949
0.02142515 0.0049205204 -0.0034208894 4289604644
0.023555391 0.0041866018 -0.0028861538 4289212198
0.025495268 0.0042328215 -0.0030048843 4289670179
0.027633242 0.0034992187 -0.0024705231 4290323743
0.029977456 0.0019859844 -0.0012835711 4289080619
0.032943539 -0.0018662945 0.0018609315 4289080109
-0.030998353 0.0021576309 -0.001338426 4287379513
-0.029653292 0.0061206766 -0.0047408072 4289473319
-0.027847268 0.0069477954 -0.005516897 4290848023
-0.025921993 0.0069911242 -0.0056366231 4290979094
-0.023741808 0.0054670996 -0.004444683 4290586393
-0.021420605 0.0031598075 -0.0025977772 4290978838
-0.019349143 0.0024201395 -0.0020626076 4289670689
-0.017543774 0.0032478659 -0.0028382652 4289474083
-0.015743978 0.0040755249 -0.0036134627 4289343524
-0.013808645 0.0041197701 -0.0037333034 4289670434
-0.011873461 0.0041640955 -0.0038530715 4290651673
-0.010085024 0.0049918392 -0.0046273069 4290782233
-0.0081528798 0.0050363173 -0.0047467221 4290913558
-0.0059168637 0.0035145949 -0.0035575479 4290979094
-0.0038248375 0.0027762661 -0.0030230004 4290586138
-0.001885049 0.0028212508 -0.0031426437 4290324509
-0.00010561198 0.0036493293 -0.0039159916 4290258973
0.0018311068 0.0036944407 -0.0040352978 4290063134
0.0037676543 0.003739622 -0.0041545387 4290586393
0.0053673238 0.0053504636 -0.0055801636 4291109909
0.0071269944 0.0061784177 -0.0063519739 4290455578
0.0088810176 0.0070063961 -0.007123393 4290717464
0.010982431 0.0062690522 -0.0065888558 4290848023
0.013268307 0.0047494643 -0.0054020276 4290324763
0.015382901 0.0040126466 -0.0048682122 4289604898
0.017318092 0.0040584435 -0.0049868869 4289735969
0.019253075 0.0041043092 -0.0051054945 4290390299
0.020997755 0.0049325214 -0.0058759283 4291109653
0.022929609 0.0049784766 -0.0059942221 4290128158
0.02505675 0.004242389 -0.0054608546 4289146919
0.026990913 0.0042885342 -0.0055791875 4289474084
0.029326752 0.0027707238 -0.0043949094 4290127393
0.03228426 -0.0010926065 -0.0012580212 4289407273
-0.031275295 0.0021776166 -0.0037994012 4288426034
-0.029816225 0.0053653014 -0.0065386631 4289146154
-0.02789098 0.0054085222 -0.0066584684 4289277989
-0.025841124 0.0046659117 -0.0061238529 4289932318
-0.023913406 0.0047094119 -0.0062436471 4289473828
-0.02185563 0.0039671487 -0.005709325 4289474083
-0.019925442 0.0040109265 -0.0058291061 4289539619
-0.01799541 0.0040548337 -0.0059487792 4289146919
-0.016065504 0.004098834 -0.0060683722 4289212453
-0.014135744 0.0041429508 -0.0061878683 4289605154
-0.012349948 0.0049727415 -0.0069604469 4289539618
-0.010423221 0.0050169867 -0.0070796078 4289800993
-0.008347407 0.0042759147 -0.0065458231 4289800993
-0.0062663183 0.0035351072 -0.0060123326 4289997344
-0.0043346286 0.0035797902 -0.0061315587 4289866784
-0.0024031103 0.0036245645 -0.0062507028 4289801249
-0.00063189864 0.004454602 -0.0070218751 4290062879
0.0014593899 0.003714426 -0.0064887181 4289670178
0.0033903718 0.003759502 -0.0066075968 4289997599
0.0051528886 0.0045896196 -0.0073780222 4290390043
0.0069097877 0.0054197279 -0.0081480844 4290586393
0.0086610541 0.0062497542 -0.0089176903 4290782744
0.010759585 0.0055102319 -0.008384618 4290717209
0.013042502 0.0039861579 -0.0072008213 4289932064
0.014972344 0.0040317592 -0.0073192185 4289932063
0.016717404 0.0048619774 -0.0080881892 4289801248
0.018269509 0.0064767138 -0.0095072398 4289997599
0.020570643 0.0049534156 -0.0083243018 4290717209
0.022304215 0.0057836422 -0.0090924343 4291175188
0.024227612 0.00582948 -0.009210147 4290651929
0.025952615 0.0066596256 -0.0099775903 4290847769
0.02887734 0.0027845716 -0.0068468368 4289800484
0.031828992 -0.0010897638 -0.0037176721 4289145133
-0.031085938 -0.00094677508 -0.0036407933 4287248954
-0.029502094 0.0014615045 -0.0057208659 4289080619
-0.027568832 0.0015048929 -0.0058411798 4289473573
-0.02576036 0.0023365356 -0.0066140974 4289931809
-0.023830067 0.002380114 -0.006734035 4289343013
-0.022030026 0.0032118303 -0.0075063063 4289604644
-0.020102713 0.0032555615 -0.0076258956 4289211943
-0.018175531 0.003299397 -0.0077453973 4289081383
-0.016248487 0.0033433367 -0.0078648096 4288689449
-0.014321584 0.003387392 -0.0079841251 4289147174
-0.012394838 0.0034315535 -0.0081033492 4289081383
-0.010175332 0.0019004829 -0.0069197509 4289539363
-0.0080942661 0.00115739 -0.0063879574 4288950568
-0.0061598346 0.0012020357 -0.0065074293 4289016359
-0.004380174 0.0020342339 -0.0072776591 4288950568
-0.0026061162 0.0028663999 -0.0080474708 4288885289
-0.0006776154 0.0029112198 -0.0081663439 4289277734
0.0012507066 0.002956131 -0.0082851341 4289343014
0.0031788498 0.0030011465 -0.008403833 4289473829
0.0051068217 0.0030462309 -0.0085224686 4289146919
0.0070345998 0.0030914056 -0.0086410204 4288754474
0.008788541 0.0039237221 -0.009409206 4289146919
0.010713227 0.0039690123 -0.009527429 4289735459
0.012816817 0.00322747 -0.0089961877 4289539108
0.014743835 0.0032729874 -0.0091144247 4289539109
0.016486138 0.0041053728 -0.0098816408 4289931553
0.018410042 0.0041509927 -0.0099995555 4289735203
0.020523727 0.0034099962 -0.0094687035 4289997089
0.022064589 0.0050289691 -0.010883714 4289343013
0.023985162 0.0050747343 -0.011001258 4289343779
0.025509335 0.0066934056 -0.012415101 4289473828
0.028026551 0.0043800944 -0.010588148 4289474849
0.030966952 0.00049457094 -0.0074663432 4288753453
0.033934273 -0.0033902097 -0.0043461882 4287314234
-0.031129729 -0.0024985829 -0.0047916826 4287706424
-0.029426672 -0.00087421481 -0.0062154811 4288230448
-0.027490836 -0.00083076023 -0.0063359495 4288361773
-0.025430497 -0.00157748 -0.0058052167 4288951078
-0.023619514 -0.00074349996 -0.0065765949 4289016614
-0.021944158 0.00088066002 -0.0079982877 4288951078
-0.020279832 0.0025047311 -0.0094192503 4288623914
-0.018220004 0.0017584432 -0.008888158 4289539873
-0.016293105 0.0018023811 -0.009007561 4288820519
-0.014225386 0.0010564621 -0.0084767425 4288689703
-0.012439728 0.0018905932 -0.0092460839 4289736479
-0.010220468 0.00035517476 -0.0080656987 4290063389
-0.0079905093 -0.0011798397 -0.0068859328 4289409058
-0.0062053055 -0.00034545502 -0.0076549742 4289539873
-0.0044257045 0.00048891921 -0.0084235808 4289147428
-0.0026517063 0.0013232599 -0.0091917701 4289801504
-0.00056334585 0.00057857484 -0.0086617377 4289081893
0.0015302822 -0.00016588019 -0.0081319511 4288951078
0.0032983273 0.00066861138 -0.0088995574 4288689449
0.005397059 -7.5545628e-05 -0.0083699506 4288820263
0.0071592852 0.00075900275 -0.0091370577 4289670433
0.0089158937 0.0015935176 -0.0099037448 4289735968
0.01084321 0.0016388507 -0.010022142 4289212453
0.01294934 0.00089523103 -0.0094927195 4289147174
0.014878966 0.00094082765 -0.0096111028 4289016359
0.016623951 0.0017753975 -0.010376832 4289408548
0.018550485 0.0018210602 -0.010494922 4289408548
0.020666696 0.0010780115 -0.0099658715 4289343524
0.022402935 0.0019126018 -0.010730895 4289147174
0.023938194 0.0035358821 -0.01214226 4289212453
0.025660455 0.0043702987 -0.012906309 4289147174
0.027979344 0.0028390484 -0.011730762 4289474594
0.030919321 -0.0010573776 -0.008617036 4288753454
0.033680037 -0.0041645886 -0.0061510466 4287967798
-0.031057123 -0.0048427805 -0.0052923821 4287575608
-0.029470485 -0.0024213966 -0.0073629273 4288492334
-0.027412958 -0.0031704942 -0.0068337433 4288558123
-0.025599208 -0.0023343877 -0.0076037571 4288427563
-0.023409199 -0.0038756074 -0.0064253798 4288951078
-0.021598425 -0.0030392774 -0.0071950657 4289605408
-0.019660503 -0.0029953124 -0.007315319 4288754728
-0.017858155 -0.0021589908 -0.008084272 4288951589
-0.015923228 -0.0021148738 -0.0082041752 4289474848
-0.013706654 -0.0036549156 -0.0070270179 4288755239
-0.011910193 -0.0028183472 -0.0077953972 4288886053
-0.0096803084 -0.0043578949 -0.0066189244 4290063644
-0.0077378154 -0.0043131411 -0.0067389514 4289409058
-0.0057954639 -0.0042683296 -0.0068589244 4289343778
-0.0041622669 -0.0026397454 -0.0082740709 4289409058
-0.0022256747 -0.0025948631 -0.0083935373 4289212964
-0.00012932718 -0.0033415691 -0.007865563 4288558888
0.0018096268 -0.0032964111 -0.0079850098 4288689703
0.0037484169 -0.00325116 -0.0081043746 4288624424
0.0056870356 -0.0032058177 -0.0082236566 4288820518
0.0074546412 -0.0023689447 -0.0089895334 4288755239
0.0092166588 -0.0015321407 -0.0097549446 4289212964
0.011149287 -0.0014866716 -0.0098736612 4288689703
0.013081722 -0.0014411001 -0.0099922856 4288493353
0.01501397 -0.001395484 -0.010110863 4288493353
0.017314814 -0.0029320032 -0.0089377351 4288689448
0.019252121 -0.0028860909 -0.0090564899 4288885798
0.020999372 -0.002049082 -0.0098206587 4288820263
0.022548489 -0.00042127725 -0.011229677 4289016614
0.024281777 0.00041551096 -0.011992832 4289147428
0.02620741 0.00046145404 -0.012110643 4288885543
0.028132863 0.00050744228 -0.012228407 4288492333
0.030668288 -0.0018184148 -0.010412224 4287902519
-0.031449936 -0.004011692 -0.0083896685 4287706678
-0.02975237 -0.002378792 -0.0098066125 4288492589
-0.027578738 -0.0039249132 -0.0086306632 4288624168
-0.025518801 -0.004676017 -0.0081031611 4288492843
-0.023453552 -0.0054269261 -0.0075758602 4288558123
-0.021382987 -0.0061775567 -0.0070488462 4288493353
-0.019439768 -0.0061334567 -0.0071694171 4288886053
-0.017361291 -0.0068836827 -0.0066427253 4289409824
-0.015553717 -0.0060449671 -0.0074103111 4288951588
-0.013470076 -0.0067948336 -0.00688376 4289605918
-0.01166822 -0.0059560337 -0.0076508317 4288689959
-0.0097257048 -0.0059114108 -0.0077709574 4289867804
-0.0079323053 -0.0050725858 -0.0085373418 4289409824
-0.0059928074 -0.0050278236 -0.0086571248 4289082403
-0.0042079091 -0.0041889492 -0.0094228778 4289278753
-0.0021142885 -0.0049380087 -0.0088964393 4288559144
-1.5422702e-05 -0.0056868135 -0.0083703026 4288428329
0.0020887181 -0.006435378 -0.0078443997 4288624423
0.0038675219 -0.0055962834 -0.0086094337 4288886309
0.0058087409 -0.0055508991 -0.0087288897 4289082403
0.0077497661 -0.0055054217 -0.0088482639 4288624423
0.0095171779 -0.0046663056 -0.0096123777 4288624424
0.011631303 -0.0054142042 -0.0090867728 4288493609
0.013571784 -0.0053684521 -0.0092058964 4288689703
0.015512079 -0.0053226319 -0.0093249567 4288689703
0.017636508 -0.0060700062 -0.0087997708 4288820518
0.019579157 -0.0060239811 -0.0089188637 4288951589
0.021521583 -0.005977877 -0.0090378812 4289147939
0.023078874 -0.0043455246 -0.010444161 4289147429
0.025210656 -0.005092408 -0.0099191926 4288754728
0.026951894 -0.0042532063 -0.010681178 4288296493
0.028687477 -0.0034140255 -0.01144281 4288165169
0.030824125 -0.0041606524 -0.010917959 4288163893
-0.033429187 -0.00560159 -0.0094161285 4286136898
-0.031493578 -0.0055584032 -0.0095367786 4287575863
-0.029677052 -0.0047181016 -0.010303889 4288296749
-0.02762267 -0.0054716179 -0.0097777452 4288624168
-0.025562949 -0.0062249033 -0.0092518488 4289082148
-0.023497906 -0.0069779931 -0.0087261535 4289147174
-0.021427546 -0.0077307918 -0.0082007376 4289016869
-0.019351862 -0.0084833726 -0.007675577 4288689959
-0.017270874 -0.0092357099 -0.0071506547 4288820774
-0.015460648 -0.0083947508 -0.0079167802 4289213474
-0.013374485 -0.0091467518 -0.0073920172 4289802268
-0.011569992 -0.0083057098 -0.0081576277 4289409824
-0.0096248761 -0.0082610566 -0.0082779359 4289802268
-0.0079777539 -0.0066237119 -0.0096875932 4289605918
-0.0060383752 -0.0065789516 -0.0098073678 4289540639
-0.0039448142 -0.0073302598 -0.0092826746 4288755494
-0.0018459707 -0.0080813263 -0.0087582162 4288624423
9.8362565e-05 -0.0080361515 -0.0088780746 4288951588
0.0020425245 -0.0079909079 -0.0089978687 4289017124
0.0039865077 -0.0079455366 -0.0091175539 4288820773
0.0057623684 -0.0071042562 -0.0098807281 4288362538
0.0077032894 -0.0070587699 -0.010000085 4288689959
0.0096440315 -0.0070132152 -0.010119379 4288951588
0.011760712 -0.0077632032 -0.0095955245 4289017379
0.013703801 -0.0077174199 -0.0097148335 4289213218
0.0160098 -0.0092625851 -0.0085486192 4289016868
0.017957956 -0.0092165042 -0.008668106 4289016868
0.019905932 -0.0091703553 -0.0087875277 4288951589
0.021664016 -0.0083288029 -0.0095490962 4288689703
0.02341646 -0.0074873078 -0.010310262 4288493354
0.025553539 -0.0082362685 -0.0097872568 4288558634
0.027300172 -0.007394765 -0.010547957 4288427564
0.029041171 -0.0065533305 -0.011308266 4288099633
0.030979812 -0.0065069473 -0.011426777 4287444028
-0.033472672 -0.0071480707 -0.010563079 4287183164
-0.031653412 -0.0063056545 -0.011328834 4287903029
-0.02960185 -0.0070615383 -0.010804228 4287838004
-0.027544957 -0.0078171669 -0.010279852 4287969074
-0.025358345 -0.0093716253 -0.0091110542 4288099889
-0.023669336 -0.0077298405 -0.010520788 4288295983
-0.021472089 -0.0092838239 -0.0093524773 4288623403
-0.019396614 -0.010038573 -0.0088289138 4289147428
-0.017180566 -0.011591865 -0.0076616462 4289016613
-0.015505672 -0.0099499933 -0.0090701273 4289147938
-0.013560407 -0.0099055152 -0.009190578 4289540639
-0.011615276 -0.0098609701 -0.0093109664 4290129943
-0.0096703023 -0.0098162945 -0.0094312485 4290326293
-0.0078743249 -0.008973062 -0.010194559 4290064408
-0.0059323758 -0.0089282598 -0.010314506 4288755748
-0.0038362741 -0.0096816812 -0.0097915828 4288494118
-0.0017348826 -0.010434882 -0.0092689143 4289344543
5.2303076e-05 -0.0095914509 -0.010031383 4289409824
0.0019963458 -0.0095461989 -0.01015116 4289213474
0.0039402023 -0.0095008425 -0.010270846 4288624934
0.0057160184 -0.0086573856 -0.011032399 4288952099
0.0078274235 -0.0094098877 -0.010509999 4288624934
0.0095974654 -0.0085663972 -0.011271071 4288689959
0.011890016 -0.0101164 -0.010107393 4288755494
0.013656951 -0.009272797 -0.010868136 4288428329
0.016144201 -0.011620063 -0.009064002 4288558889
0.018094972 -0.011573929 -0.0091836536 4288558889
0.020045564 -0.011527725 -0.009303242 4288493353
0.021806315 -0.010683905 -0.010063408 4288297259
0.023561478 -0.0098401755 -0.010823127 4288493609
0.025701091 -0.01059125 -0.010301893 4288297258
0.027450435 -0.009747548 -0.011061172 4288165423
0.029194131 -0.0089038797 -0.011820032 4287772213
-0.031464688 -0.0094524343 -0.011186902 4288229429
-0.029289026 -0.011011714 -0.010020829 4288034354
-0.027467337 -0.010166867 -0.010784965 4289734693
-0.025526889 -0.010123208 -0.010905645 4288622638
-0.023840629 -0.0084771272 -0.012311968 4288426544
-0.021646366 -0.010035539 -0.011146714 4288492334
-0.019706283 -0.0099915415 -0.011267113 4288623659
-0.01776633 -0.0099474266 -0.011387413 4288558123
-0.015964422 -0.0091023007 -0.012149857 4289082659
-0.01402745 -0.009058021 -0.012269801 4289475359
-0.011803918 -0.010615209 -0.01110595 4289344544
-0.0097157136 -0.011371295 -0.010584385 4289737498
-0.0079198107 -0.010525912 -0.01134609 4290326549
-0.0059779733 -0.010481112 -0.01146603 4289344798
-0.0037278384 -0.012037217 -0.010303545 4289737499
-0.0019378141 -0.01119167 -0.011064664 4289736479
0.00016593188 -0.011946891 -0.010543683 4289474593
0.0019501746 -0.011101263 -0.011304284 4289343778
0.0040590391 -0.011856184 -0.010783484 4288689448
0.0056696981 -0.010210324 -0.012183929 4288624423
0.0077809319 -0.010965006 -0.011663138 4288624424
0.0095509067 -0.01011934 -0.012422587 4288427819
0.011843212 -0.011673702 -0.011262133 4288493098
0.013610125 -0.010827958 -0.01202128 4288362283
0.01591564 -0.012381827 -0.010861502 4288557868
0.018047743 -0.01313564 -0.010341638 4288427053
0.019998245 -0.013089439 -0.01046122 4288623914
0.021569408 -0.011443796 -0.011858784 4288362028
0.023129523 -0.0097983731 -0.013255564 4288362538
0.02526357 -0.010551776 -0.012735622 4288493609
0.027402885 -0.011304995 -0.01221596 4288034354
0.02934698 -0.011258569 -0.01233487 4287837494
0.013206057 -0.010778693 -0.014450368 4286792248
0.015143223 -0.010732999 -0.014569273 4286988089
0.017264277 -0.011489185 -0.014050378 4287249718
0.018830232 -0.0098394183 -0.015444461 4287380533
0.020953655 -0.010595459 -0.014925568 4287119159
0.022505656 -0.0089458534 -0.016318671 4286858294
0.024631396 -0.009701618 -0.015799832 4286988853
0.026564755 -0.0096555604 -0.015918167 4286726460
0.028497934 -0.009609459 -0.016036456 4288098614
-0.017244834 -0.0088173095 -0.021827381 4281553529
-0.021515001 -0.0079987235 -0.024627935 4281682559
-0.023724116 -0.0079369703 -0.026905263 4281813885
-0.010270044 -0.0084470436 -0.027097786 4281684854
-0.027941618 -0.0070921788 -0.02969048 4281682303
-0.025795344 -0.0086822109 -0.028545035 4282208114
-0.018202305 -0.0085100718 -0.02901629 4282404718
-0.029998768 -0.0078280363 -0.031324308 4282011253
-0.020682815 -0.0067962818 -0.032540996 4282339183
-0.012989633 -0.0074421028 -0.032379728 4282471273
-0.013179086 -0.008131545 -0.034126516 4280898179
-0.010996163 -0.0097286887 -0.032989182 4282733670
-0.023315724 -0.0057402086 -0.037791744 4282470253
-0.013950143 -0.0055268393 -0.038372234 4281946994
-0.011484742 -0.0087733725 -0.035986498 4282602343
