# .PCD v0.7 - Point Cloud Data file format
VERSION 0.7
FIELDS x y z rgba
SIZE 4 4 4 4
TYPE F F F U
COUNT 1 1 1 1
WIDTH 655
HEIGHT 1
VIEWPOINT 0 0 0 1 0 0 0
POINTS 655
DATA ascii
0.016321078 0.0015503145 0.036024567 4288099124
0.018305764 0.0015979963 0.035900474 4290584099
0.020668052 0.00011160551 0.037102703 4290060839
0.023424231 -0.0029084166 0.039630201 4286855999
0.013564773 0.0029894616 0.032320864 4288491058
0.014988475 0.0053449031 0.030211911 4290192674
0.016954027 0.0053921547 0.030089036 4290585119
0.019485891 0.0031317621 0.031950679 4290519584
0.022416942 -0.00066653825 0.035134055 4291368988
0.024986409 -0.00292589 0.036993522 4287837239
0.0095680803 0.0013129357 0.031394821 4289210923
0.011364423 0.0021318048 0.030610655 4289670434
0.012974508 0.0037222505 0.029166538 4289997088
0.014756836 0.0045409389 0.028383363 4289539619
0.016533479 0.0053596627 0.027600598 4289801503
0.01868207 0.004635388 0.028138045 4290128158
0.021218821 0.002368689 0.029994603 4290520604
0.023577459 0.0008736942 0.031190723 4288950314
0.026340589 -0.0021633636 0.03370491 4287444793
0.0070283785 0.0020059687 0.02836765 4288426288
0.0086443126 0.0036007715 0.026926229 4289343014
0.010604866 0.0036476282 0.026803462 4289866529
0.012565181 0.0036946004 0.026680801 4290520859
0.014342025 0.0045153731 0.025899617 4290914069
0.016113229 0.0053360732 0.025118835 4289801759
0.018067479 0.0053831646 0.024996752 4289670688
0.020212926 0.0046567796 0.025532804 4290324509
0.02275189 0.002383648 0.027384473 4289670435
0.025110066 0.00088439742 0.028577391 4289211434
0.027678467 -0.0013878548 0.030427346 4289080108
0.003381528 -0.0012152209 0.028762203 4287510328
0.0046749935 0.0019365964 0.026007172 4288818988
0.0061188415 0.0043117916 0.023911297 4289081128
0.0080713183 0.0043583931 0.023788989 4289604899
0.01020135 0.0036290465 0.02432408 4289997598
0.011975639 0.0044518569 0.023544621 4290063134
0.013744295 0.0052746544 0.022765528 4291044628
0.015507288 0.0060973549 0.021986896 4290914069
0.017641932 0.0053684665 0.022521954 4291044374
0.019973136 0.003864049 0.023713272 4291044629
0.021926858 0.0039112763 0.023591328 4289539363
0.023880355 0.0039585559 0.023469444 4289343014
0.026232637 0.0024549225 0.024659574 4289408038
0.028797813 0.00017611915 0.026504915 4289537834
0.00086946785 -0.00050556427 0.025745178 4289210669
0.002332814 0.0018764799 0.023652757 4289342249
0.0039491877 0.0034798412 0.02221767 4290978583
0.0057267547 0.0043046242 0.021439413 4290979349
0.0076736733 0.0043510953 0.021317454 4290651928
0.0094427019 0.0051758727 0.020539882 4289539618
0.011566915 0.0044443225 0.0210738 4290194458
0.013330087 0.0052691186 0.020296711 4290390553
0.015273482 0.0053158486 0.02017523 4290979094
0.01721666 0.005362683 0.020053843 4290848023
0.019542195 0.0038538044 0.02124222 4290324763
0.021684401 0.003123044 0.021775356 4290259484
0.023635074 0.0031702882 0.021653671 4289866529
0.025784977 0.0024399078 0.022186395 4289670689
0.027940094 0.0017097341 0.022718852 4289473573
0.030100413 0.00097975601 0.023251038 4289865253
-0.0014645234 -0.00056280289 0.023392169 4289275694
1.8104911e-06 0.0018257266 0.021304332 4289343014
0.0014516339 0.0042139618 0.019217681 4289408549
0.0032239109 0.0050407136 0.018441312 4290455324
0.0051627457 0.0050869035 0.018319797 4290521113
0.007276319 0.0043527456 0.018852631 4291306259
0.0092175007 0.0043991664 0.018731097 4289670433
0.011158474 0.0044456767 0.018609647 4290325274
0.013099231 0.0044922931 0.018488292 4290063389
0.015225589 0.0037587779 0.019020576 4289997599
0.017168671 0.0038055973 0.018899187 4290259228
0.019302748 0.0030724267 0.019431109 4290324763
0.02124811 0.0031194752 0.019309703 4289997598
0.023193255 0.003166589 0.019188367 4290063134
0.025138199 0.0032137716 0.019067097 4290062368
0.02708292 0.0032610102 0.018945888 4291174934
0.02902741 0.0033083251 0.018824752 4290257953
0.031386755 0.0017963173 0.02000816 4291565339
-0.0076939538 -0.00070281886 0.021290846 4286529343
-0.0060521588 0.00090933591 0.019860256 4289408549
-0.0041043684 0.00095527526 0.019737832 4289540128
-0.0021567419 0.0010012938 0.019615483 4289867038
-0.00070121139 0.0033960762 0.017533239 4290520858
0.00073780864 0.0057906006 0.01545206 4290455578
0.0026685745 0.0058365222 0.015330994 4288885543
0.0047712773 0.0050998256 0.015862813 4288951079
0.0068792179 0.0043633599 0.016394382 4289866783
0.008814849 0.0044096615 0.016273206 4290848279
0.01111085 0.0028910036 0.017456755 4290259739
0.01341752 0.001372728 0.01863966 4290325019
0.015363418 0.0014195363 0.018518034 4290259483
0.017120682 0.0022487282 0.01774469 4290258973
0.018872276 0.0030778693 0.016971767 4290324508
0.021005996 0.0023425999 0.017502151 4290586393
0.022751726 0.0031717606 0.016729712 4290520603
0.024491854 0.004000837 0.015957663 4289670433
0.026226304 0.0048299227 0.015186001 4290259484
0.028364606 0.0040950011 0.015716353 4290390044
0.03071557 0.0025784853 0.016897004 4290716954
0.033077158 0.0010623033 0.018077049 4289343268
0.035662286 -0.0012353125 0.019906787 4289407018
-0.0086588189 0.0024460601 0.016217126 4288491569
-0.0068775937 0.0032768883 0.015443072 4289408294
-0.004785046 0.0025372943 0.015973553 4289604644
-0.0026872382 0.001797887 0.016503822 4290062879
-0.00091198832 0.0026289197 0.015730329 4290128414
0.00052439421 0.0050298814 0.013654223 4291175188
0.0022829697 0.0058607142 0.012881921 4290782233
0.0040359348 0.0066914521 0.012110072 4291044373
0.0064823925 0.0043828636 0.013942798 4291175188
0.008589983 0.0036443099 0.014472841 4290848023
0.010883026 0.0021212245 0.015653338 4290390554
0.013003804 0.0013831551 0.016182682 4290063389
0.014572836 0.0029989574 0.014760658 4290128669
0.016695946 0.0022610589 0.015290015 4290259229
0.018442072 0.0030922964 0.014519016 4290128414
0.020570204 0.0023546596 0.015048164 4290455324
0.022113971 0.0039701872 0.013627968 4290520859
0.023845904 0.0048012529 0.012858055 4290979094
0.025572196 0.0056322459 0.012088541 4288623914
0.027702183 0.0048950184 0.012617772 4288950568
0.030044787 0.0033739358 0.013795698 4289408549
0.031977817 0.0034211148 0.013675383 4289866529
0.034549102 0.0011166134 0.015501114 4289145643
0.036489852 0.0011640885 0.015380399 4288359988
-0.012579277 0.00080539752 0.015311634 4288098868
-0.010942586 0.0024258872 0.013887732 4288884268
-0.0093169585 0.0040462706 0.012464566 4290848023
-0.0077023655 0.0056664553 0.011042213 4290586393
-0.0056236014 0.0049243681 0.011571947 4290913559
-0.0033784583 0.003395142 0.012751724 4289866784
-0.0011226088 0.0018663234 0.01393087 4289997599
0.00031111389 0.0042737927 0.011859746 4290389533
0.0020669401 0.0051066838 0.01108927 4290585884
0.0036451221 0.0067265807 0.0096696327 4290913049
0.0059111267 0.0051983744 0.010848416 4290586394
0.008187823 0.0036704671 0.012026639 4290390043
0.010114871 0.0037166588 0.01190607 4289867038
0.012407474 0.0021893536 0.013083386 4289998110
0.013968401 0.003809277 0.011665155 4290128923
0.015894875 0.0038557071 0.01154481 4290193949
0.017630108 0.0046888273 0.010776087 4289866784
0.01994095 0.003162235 0.011952543 4289932063
0.02186951 0.0032089483 0.01183224 4290520859
0.02320037 0.0056149624 0.0097683044 4291109653
0.024918504 0.0064479224 0.0090009095 4291044373
0.026835591 0.0064945687 0.0088814823 4291175445
0.029374428 0.004182633 0.010704287 4291175443
0.031509288 0.0034434516 0.011231675 4290521114
0.033862099 0.0019184011 0.012405827 4289538344
0.036225557 0.00039363932 0.013579411 4289014318
-0.014851965 0.00079027889 0.012985111 4288818223
-0.013067663 0.0016252133 0.012213866 4289407783
-0.011439145 0.0032499153 0.010793681 4290127904
-0.0098216683 0.0048744064 0.0093743009 4290913304
-0.0080596209 0.0057091396 0.008604697 4290978840
-0.0061448291 0.0057542799 0.0084843319 4291043863
-0.0037470385 0.0034310818 0.010310023 4290128413
-0.0014968812 0.0018977285 0.011486328 4289866784
0.00043098629 0.0019434714 0.011365359 4289473829
0.0020202473 0.003567934 0.0099481521 4289212199
0.0035984516 0.0051921951 0.0085317595 4289081128
0.0056895539 0.004448805 0.0090595307 4289866784
0.0077859238 0.0037056003 0.009587016 4289866784
0.0098875165 0.0029626121 0.010114244 4289735969
0.011811554 0.0030088332 0.0099939406 4289670689
0.013549887 0.0038440078 0.009226569 4291437073
0.015282586 0.0046791192 0.0084596053 4291437073
0.017391555 0.0039366484 0.0089866249 4291175444
0.019505769 0.0031943731 0.0095133679 4289997599
0.021625206 0.0024522697 0.010039893 4290193693
0.022953458 0.0048647337 0.0079809651 4289997599
0.024668865 0.0056997994 0.0072153579 4290717208
0.02658315 0.0057463748 0.007096102 4290848279
0.028911747 0.0042162519 0.0082684271 4290193694
0.031250983 0.0026864153 0.0094401855 4289473573
0.033813544 0.00036869431 0.011256704 4288557104
0.036176801 -0.0011604503 0.012427046 4287771959
-0.017113391 0.00078452518 0.010664576 4288949038
-0.015476406 0.002413522 0.0092469798 4289276714
-0.013555668 0.0024583698 0.0091259191 4289669924
-0.011785209 0.0032952921 0.008357266 4289539363
-0.010173172 0.0049240431 0.0069414186 4289212198
-0.0084166229 0.0057608243 0.0061737793 4289735714
-0.0066656545 0.0065975459 0.0054065445 4290455578
-0.0042763352 0.0042675771 0.0072279559 4289997598
-0.0021983087 0.0035213251 0.0077546495 4289801248
5.1423907e-05 0.0019837427 0.0089277653 4289343269
0.0019735694 0.0020294581 0.0088072373 4289146664
0.0037236586 0.0028666398 0.0080404142 4288885034
0.0054681376 0.0037037833 0.0072740167 4289212198
0.0073843002 0.003749622 0.0071540615 4290324509
0.0093002692 0.0037955521 0.0070341895 4290259484
0.0113988 0.0030503962 0.0075600483 4290193949
0.013131648 0.0038876263 0.006794651 4290913813
0.015047058 0.0039337715 0.006674984 4290652183
0.017153151 0.0031890403 0.0072005517 4291437074
0.019070894 0.0032353904 0.0070808502 4290586393
0.020988405 0.0032818317 0.0069612344 4290063134
0.022507675 0.0049098227 0.0055523543 4290128159
0.024419382 0.0049562361 0.0054331841 4290193183
0.026535332 0.0042121205 0.0059584184 4289800738
0.029070877 0.0018871017 0.0077716811 4289473573
0.031622529 -0.00043753674 0.0095840069 4287576374
0.03419026 -0.0027616993 0.011395392 4286333248
0.036989383 -0.0058757756 0.013849458 4286071364
-0.021966796 0.0047155581 0.0052365139 4288164403
-0.019920208 0.0039654542 0.005762869 4289015339
-0.017868314 0.0032155942 0.0062889797 4289277479
-0.016100325 0.0040543778 0.0055219098 4289473573
-0.014043286 0.0033048429 0.0060478491 4289669923
-0.012281038 0.0041437196 0.0052813101 4290979094
-0.010524385 0.004982559 0.0045151939 4290325019
-0.0086178407 0.0050274022 0.0043952717 4290193948
-0.0068696663 0.0058662528 0.0036298451 4291109909
-0.004644312 0.0043235458 0.004801109 4290390299
-0.0027355477 0.0043687606 0.0046812836 4289866783
-0.00049420446 0.0028265859 0.0058517335 4289604898
0.0017578155 0.0012847967 0.0070215347 4289408549
0.003505148 0.0021240949 0.0062565096 4289343269
0.0054213852 0.0021698507 0.0061364877 4289474084
0.0075146779 0.0014222153 0.0066609229 4289997599
0.0094332546 0.0014682012 0.0065408833 4290390043
0.010986313 0.0031008832 0.0051327772 4290455578
0.012713693 0.0039401855 0.0043692854 4289408804
0.014435478 0.0047793817 0.0036062375 4289867038
0.016724087 0.0032391017 0.0047742957 4290717719
0.01844272 0.0040784217 0.0040115188 4289866783
0.020548284 0.0033316221 0.0045356653 4290259484
0.02226112 0.0041709375 0.0037733517 4290390044
0.024775095 0.0018386543 0.0055830185 4289997089
0.027100727 0.00029967912 0.0067489967 4289473573
0.029644161 -0.0020317354 0.0085569415 4287969074
0.031993829 -0.0035700537 0.0097215474 4286398784
-0.025433701 0.00071233744 0.0062838229 4286267714
-0.024186287 0.0047398033 0.0029350016 4288426288
-0.022557076 0.0063770292 0.0015240784 4290323743
-0.02052157 0.0056244992 0.0020495206 4290455068
-0.018338926 0.0040756809 0.0032197447 4289866274
-0.016434632 0.0041200705 0.003099665 4289473573
-0.014530487 0.0041645393 0.0029796576 4289474083
-0.012476504 0.0034128595 0.0035042451 4290324764
-0.01072263 0.0042538159 0.0027399284 4291175188
-0.0088189319 0.0042985873 0.0026201808 4291175188
-0.006915383 0.0043434631 0.0025005236 4291306259
-0.0046902895 0.0027964101 0.0036685746 4290193949
-0.0027816296 0.0028415741 0.0035487204 4290193949
-0.00070686638 0.0020909836 0.0040724478 4290193949
0.0012041777 0.0021364135 0.0039526001 4289343524
0.0029433072 0.0029776897 0.0031897058 4289474084
0.0048512816 0.0030232342 0.0030701896 4289604899
0.0071134195 0.0014775698 0.0042363703 4289932063
0.0092063546 0.00072784489 0.0047592814 4290390043
0.010756701 0.0023648348 0.0033545229 4291109909
0.012110718 0.0047970517 0.001308297 4290717208
0.014012344 0.0048428439 0.0011894747 4290259738
0.015913777 0.0048887143 0.0010707274 4290390554
0.0180085 0.0041394457 0.001593835 4290651928
0.019912258 0.0041855099 0.0014750438 4290455578
0.022213645 0.0026414609 0.0026391968 4290324509
0.024928935 -0.00049237721 0.0050852983 4289408293
0.027665749 -0.0036256248 0.007530109 4288099889
0.030217037 -0.0059634121 0.0093326792 4286791484
0.032784402 -0.0083006779 0.011134272 4286202433
-0.027522217 -6.3975807e-05 0.0046250685 4287379514
-0.026263624 0.0039745159 0.0012835511 4289016104
-0.024898767 0.0072136791 -0.0014122321 4290978583
-0.023283154 0.0088548716 -0.0028190357 4290978840
-0.021122418 0.0073011359 -0.0016507829 4291174934
-0.018809162 0.0049490957 0.00016032212 4290913048
-0.016624194 0.0033960808 0.001327238 4289735969
-0.014722899 0.00344049 0.0012074141 4289801504
-0.012821741 0.0034850147 0.0010876879 4289474339
-0.011073381 0.0043280423 0.00032528047 4289474339
-0.0090198889 0.0035743192 0.00084846193 4290063134
-0.0071191713 0.0036191223 0.00072897837 4290259228
-0.0048970431 0.0020676423 0.0018939734 4290325019
-0.0029912367 0.0021127453 0.0017743031 4290259228
-0.0012518167 0.0029560244 0.0010128762 4289932319
0.00048200041 0.0037992559 0.00025186368 4290848023
0.0022101998 0.0046424624 -0.00050879014 4290978838
0.0042815953 0.003889815 1.3752899e-05 4289997088
0.0063582361 0.0031374227 0.0005359897 4289735969
0.0086199492 0.0015875278 0.0016989824 4289604898
0.0099796578 0.0040263012 -0.00034282485 4290717209
0.011693381 0.0048695933 -0.0011022511 4291240468
0.013401508 0.0057127904 -0.0018612236 4291437328
0.015485398 0.004960984 -0.0013391339 4291175699
0.017767936 0.0034119291 -0.00017711648 4290193949
0.020257249 0.0010659061 0.0016242361 4289604643
0.022961527 -0.0020769916 0.0040644817 4288819753
0.025687329 -0.0052192872 0.0065034465 4287380533
0.028026111 -0.0067667221 0.0076621459 4286399294
0.03058254 -0.0091108223 0.0094595328 4286137154
-0.030106463 0.0023692907 0.00039818586 4289537578
-0.028335206 0.0032140268 -0.00036471721 4288949548
-0.026700322 0.00485978 -0.0017696774 4289997344
-0.025209978 0.0073064584 -0.0038161799 4289473828
-0.023463566 0.0081509277 -0.0045772842 4289800993
-0.021444779 0.0073936405 -0.0040540374 4289800993
-0.019137289 0.0050349375 -0.0022474276 4290651418
-0.016958032 0.0034774952 -0.0010834205 4289604898
-0.015062302 0.003521774 -0.0012028943 4289605154
-0.013166718 0.0035661319 -0.0013222963 4289736223
-0.011423834 0.0044111591 -0.0020827013 4289997854
-0.0092206895 0.0028546937 -0.00091988908 4289997854
-0.0073228255 0.0028994 -0.0010392157 4290259483
-0.0054251179 0.0029442227 -0.0011584432 4290521369
-0.0035275742 0.0029891487 -0.0012775798 4290193949
-0.0017963722 0.0038343696 -0.0020369031 4289997598
-7.0735812e-05 0.0046795541 -0.0027958029 4291437074
0.001649268 0.0055246912 -0.0035542878 4291502354
0.0037123114 0.0047697248 -0.0030328729 4291109909
0.0057806224 0.004014967 -0.0025117281 4289997599
0.0076744482 0.0040603047 -0.0026302598 4289932063
0.0095680878 0.0041057337 -0.0027487087 4290193693
0.011461541 0.0041512428 -0.002867084 4289997599
0.013542749 0.0033971071 -0.0023465124 4290193949
0.015438572 0.0034428099 -0.0024649324 4289408804
0.018107541 0.00029022526 -2.9054354e-05 4289539619
0.020405956 -0.0012627353 0.0011287804 4288950824
0.023510136 -0.0060131927 0.004838807 4287904304
0.025639266 -0.0067657917 0.005356669 4286791993
0.028182022 -0.0091169029 0.0071500116 4286399294
0.030533992 -0.010668267 0.0083046546 4286333503
0.032477349 -0.010620939 0.0081836199 4286071874
-0.031682011 -0.0016021568 0.0013170687 4286921024
-0.030275751 0.0016549896 -0.0013686632 4289081128
-0.028635316 0.0033050934 -0.0027708318 4289277223
-0.026744388 0.0033486234 -0.002890476 4290455578
-0.025387459 0.0066049807 -0.0055728289 4289931808
-0.02364384 0.0074515548 -0.0063321437 4289473828
-0.021766875 0.0074950624 -0.0064506824 4289932063
-0.019465152 0.0051297294 -0.0046486142 4290062878
-0.017291591 0.0035677645 -0.0034874389 4290455578
-0.015254356 0.0028090551 -0.002966735 4290128923
-0.013511404 0.0036561405 -0.0037256144 4290259483
-0.01162152 0.0037004612 -0.0038445867 4290128669
-0.0095765665 0.0029422389 -0.0033241399 4290194204
-0.0076842681 0.0029868139 -0.0034431168 4290325018
-0.0059527755 0.0038340259 -0.0042009805 4290128668
-0.0042268857 0.0046812501 -0.0049584596 4290521369
-0.002340503 0.0047259741 -0.0050768503 4290324763
-0.0006230846 0.0055731246 -0.0058336286 4289801248
0.0012602657 0.0056179632 -0.0059516896 4289800993
0.0034919754 0.0040584132 -0.0047933944 4290651418
0.0053804293 0.0041035283 -0.0049116602 4289735459
0.0072687119 0.0041487347 -0.0050298437 4290324764
0.0089743957 0.0049960781 -0.0057856105 4290128159
0.011229873 0.0034374287 -0.0046285545 4290389278
0.013120353 0.0034829099 -0.0047467104 4289800738
0.015391752 0.0019248277 -0.0035905889 4288688939
0.018060371 -0.0012364811 -0.0011611747 4287707953
0.02094651 -0.0051988694 0.0019037271 4287707698
0.023859628 -0.0091605503 0.0049669864 4287184439
0.02599407 -0.0099152941 0.0054828986 4286464828
0.027929597 -0.0098682903 0.0053622541 4286399294
0.029864937 -0.0098212287 0.005241666 4286595133
-0.031726018 -0.0031261295 0.00018672884 4286398018
-0.030194409 -0.000665823 -0.0018529521 4287706679
-0.028551269 0.00098869158 -0.0032520564 4288950569
-0.026919134 0.002643127 -0.0046504103 4289997344
-0.025297984 0.0042973757 -0.0060479441 4290651418
-0.02368784 0.0059514623 -0.0074447165 4290913558
-0.021949869 0.0068002343 -0.0082020145 4291044119
-0.019792736 0.0052333996 -0.0070431423 4291306004
-0.017624885 0.003666997 -0.0058848853 4289997599
-0.01574029 0.0037109898 -0.0060036764 4290128413
-0.013855822 0.003755087 -0.0061223782 4289735969
-0.011971503 0.0037992653 -0.0062410091 4289997854
-0.0097770095 0.0022338377 -0.0050840946 4290128668
-0.0078875348 0.0022783414 -0.0052028978 4289932574
-0.0061588362 0.0031276941 -0.0059590191 4289867039
-0.0044357181 0.0039769746 -0.0067146705 4290848789
-0.0027181879 0.0048261955 -0.0074699172 4291175444
-0.0010062382 0.0056753932 -0.0082247322 4289997599
0.00070008636 0.0065245312 -0.0089791408 4289735714
0.0030975789 0.0041560642 -0.0071871025 4290062623
0.0053343251 0.0025923522 -0.0060323095 4290586393
0.007402122 0.0018332782 -0.005514333 4289931553
0.0091105103 0.0026828069 -0.0062686168 4289866274
0.011183403 0.0019240091 -0.0057508443 4289735459
0.013449311 0.00036136154 -0.0045976774 4288492589
0.015725933 -0.0012009849 -0.0034450735 4287446069
0.018592842 -0.0051748203 -0.00038714393 4286595899
0.021094859 -0.0075401589 0.0013988164 4286857274
0.023811638 -0.01070887 0.0038188514 4287707699
0.02574458 -0.010662016 0.0036983029 4286660923
0.027473256 -0.009811433 0.0029431735 4286791484
-0.031525098 -0.0062654181 0.00033285795 4287509818
-0.029987998 -0.0037985244 -0.0017022892 4287510328
-0.028467335 -0.0013318504 -0.0037363521 4288492844
-0.026963107 0.0011345441 -0.0057693021 4289212199
-0.025341969 0.0027931337 -0.0071636052 4289604643
-0.023731835 0.0044515599 -0.0085571473 4290455578
-0.02199392 0.005302472 -0.0093128495 4290717208
-0.019978553 0.004538632 -0.0087941298 4290128414
-0.017957892 0.0037750714 -0.0082757017 4289997598
-0.016078867 0.0038189217 -0.008394151 4289932319
-0.014199965 0.0038628643 -0.0085125202 4289735969
-0.012321211 0.0039069122 -0.0086308001 4289735969
-0.01013241 0.0023370343 -0.0074768136 4289932574
-0.0079328567 0.00076746987 -0.0063233841 4289474594
-0.0062041953 0.001618973 -0.0070779012 4289736479
-0.0044811219 0.0024704058 -0.0078319479 4289932829
-0.0030955821 0.0049352963 -0.009856401 4290848279
-0.0012204349 0.0049798284 -0.0099740308 4291306259
0.0004831329 0.0058310945 -0.010726706 4291175445
0.0028776005 0.0034560002 -0.0089392858 4291175445
0.0049345568 0.0026943865 -0.0084223263 4290193948
0.0073558688 0.00032009091 -0.0066364673 4289408549
0.0094287619 -0.00044097845 -0.0061203865 4289343013
0.011691913 -0.0020081687 -0.0049703033 4288230958
0.013778076 -0.0027687519 -0.0044549266 4286857274
0.016059868 -0.0043353057 -0.0033059432 4286399293
0.01873865 -0.007513796 -0.00089012913 4286268224
0.021047249 -0.0090795625 0.00025728531 4286529599
0.023565128 -0.011451031 0.002037483 4287510839
0.025495254 -0.011404273 0.0019170891 4287445303
-0.0316916 -0.0069833668 -0.0014369286 4287771449
-0.030032054 -0.0053199036 -0.0028306949 4287706679
-0.028511342 -0.0028467118 -0.0048599127 4288557869
-0.027007066 -0.00037379889 -0.0068880161 4288885544
-0.025385935 0.0012891069 -0.0082791084 4288885544
-0.023775797 0.0029518623 -0.0096694296 4289474084
-0.021899235 0.0029953364 -0.00978796 4290062879
-0.020164229 0.0038484819 -0.010541766 4289670433
-0.018434785 0.0047015324 -0.01129512 4290063134
-0.016564034 0.0047451705 -0.011413063 4289604898
-0.014543824 0.0039796159 -0.010896082 4290586394
-0.012670629 0.0040235203 -0.011014021 4291109653
-0.010487504 0.0024490859 -0.0098628951 4291109909
-0.0084514022 0.0016841935 -0.0093466993 4290782744
-0.0064100176 0.00091952132 -0.0088307643 4289735968
-0.0045265183 0.00096405298 -0.0089490665 4289866783
-0.0031408817 0.0034354385 -0.010968694 4289932573
-0.0014344826 0.0042888578 -0.011719996 4290587159
0.00043768436 0.0043333741 -0.011837398 4290521368
0.0024837479 0.0035691969 -0.011321397 4290651929
0.0047118515 0.0019965949 -0.010172597 4289604643
0.0073096454 -0.001192916 -0.0077584698 4289015848
0.0099290088 -0.004381835 -0.005345637 4288689449
0.012200065 -0.0059531494 -0.0041993335 4287119159
0.014481843 -0.0075241993 -0.0030536195 4286660923
0.016583942 -0.0082865348 -0.0025408287 4286333503
0.018884353 -0.0098569244 -0.0013961951 4286464063
0.020803899 -0.0098105716 -0.0015160396 4286922044
0.022921771 -0.010572307 -0.0010040706 4287576118
-0.031613298 -0.0093209725 -0.0019334684 4287771448
-0.029825989 -0.008465156 -0.0026894179 4288164404
-0.028427556 -0.0051733674 -0.0053487453 4287838003
-0.026790008 -0.0035058544 -0.0067377295 4287969839
-0.025429882 -0.00021470385 -0.0093944529 4288296493
-0.023547888 -0.00017120922 -0.0095134042 4289016103
-0.022220623 0.0031193718 -0.012167908 4289604899
-0.020491116 0.0039744806 -0.012919737 4289670178
-0.018767178 0.0048295669 -0.013671136 4289670178
-0.016755171 0.0040615406 -0.013155333 4289932063
-0.0148874 0.0041051861 -0.01327303 4290520348
-0.012867518 0.0033375323 -0.012757585 4290716954
-0.010842338 0.0025700992 -0.012242404 4290782233
-0.0089695305 0.002614175 -0.012360184 4291174934
-0.0069364682 0.0018470539 -0.011845329 4290521114
-0.005061239 0.0018913485 -0.011963141 4289735969
-0.0031861663 0.0019357838 -0.012080838 4289801758
-0.0014797971 0.00279132 -0.012830563 4289932574
0.00039225817 0.0028358339 -0.012947957 4289670434
0.0026121438 0.0012585483 -0.011801906 4289801248
0.0048427284 -0.00031834189 -0.010656497 4289212198
0.0076222941 -0.0043272958 -0.0076176724 4288296493
0.01006458 -0.0067140935 -0.005842803 4288035118
0.012523003 -0.0091004157 -0.0040688757 4287184438
0.014622398 -0.009865093 -0.0035576094 4286595644
0.016727053 -0.010629538 -0.0030465946 4286268224
0.018643983 -0.010583362 -0.0031663589 4286791229
-0.031779636 -0.010034159 -0.0036997246 4287575353
-0.029745147 -0.010804718 -0.0031876154 4287968309
-0.028216172 -0.0083183749 -0.0052076387 4287642164
-0.026573189 -0.0066463696 -0.0065937913 4287969328
-0.025207508 -0.003346419 -0.009244414 4287773234
-0.023727812 -0.00086090062 -0.011261089 4288231468
-0.022403151 0.0024383059 -0.013908965 4288820009
-0.020817734 0.0041093584 -0.015291125 4289604644
-0.019099295 0.0049665272 -0.016040606 4289669924
-0.017239671 0.0050098905 -0.016157858 4290455579
-0.015380181 0.0050533479 -0.01627503 4289539363
-0.013368614 0.004283268 -0.015760645 4288950569
-0.011506669 0.0043269806 -0.015877822 4289604899
-0.0096448511 0.004370762 -0.01599494 4289801248
-0.0074625164 0.0027878317 -0.014850143 4289539618
-0.0052694529 0.0012052623 -0.013705942 4289670433
-0.0032314211 0.00043625012 -0.013192894 4289735714
-0.0015250891 0.0012939614 -0.013940996 4289932064
0.00051807612 0.00052526174 -0.013428127 4289604644
0.0029143542 -0.00186937 -0.011655463 4287707699
0.005503431 -0.0050765974 -0.0092538167 4286726714
0.0079347268 -0.0074702781 -0.0074831829 4286464828
0.010382131 -0.0098634362 -0.0057135308 4286660923
0.012476124 -0.010630537 -0.0052035581 4287511348
0.014575362 -0.011397393 -0.0046939012 4286856764
0.016299419 -0.01053867 -0.0054426026 4286398783
-0.032068051 -0.0099263284 -0.0060943062 4287183163
-0.029914271 -0.011515595 -0.0049519301 4287379769
-0.028260313 -0.0098391585 -0.0063355942 4287511093
-0.02648697 -0.0089791436 -0.0070872963 4287838259
-0.025118444 -0.0056704506 -0.0097316438 4287642164
-0.023500171 -0.0039944765 -0.011112858 4287773234
-0.022308469 0.00012961589 -0.014385307 4288231469
-0.020720329 0.001805055 -0.015764423 4288950569
-0.01899923 0.0026643849 -0.016512435 4289735459
-0.017430384 0.0043396512 -0.0178902 4289735714
-0.015723124 0.005198854 -0.018637195 4290716954
-0.013869308 0.005242249 -0.018753957 4289997344
-0.011860795 0.0044700475 -0.018240981 4290324509
-0.010004535 0.0045136986 -0.018357748 4290586393
-0.00798814 0.0037418567 -0.017845139 4290455578
-0.0056404769 0.0013391674 -0.016074482 4289604898
-0.003442347 -0.00024758698 -0.014933802 4290127904
-0.0014019236 -0.0010186285 -0.014422457 4289146664
0.0008149147 -0.0026047688 -0.013282822 4288492589
0.0033902004 -0.0058211028 -0.010886843 4286987833
0.0059870631 -0.0090368455 -0.0084921597 4286464573
0.0084261894 -0.011436816 -0.0067269113 4286333758
0.010335445 -0.011391161 -0.0068464465 4286530109
0.012244552 -0.011345439 -0.0069659208 4286660413
0.013966054 -0.0104847 -0.0077129197 4287903538
-0.030332971 -0.010584807 -0.0079727359 4286790719
-0.028304432 -0.011359749 -0.0074634091 4287510584
-0.026661471 -0.0096790753 -0.0088431099 4287576118
-0.024896465 -0.008816991 -0.009592603 4287838003
-0.023408506 -0.0063182386 -0.01160017 4287838004
-0.021798506 -0.0046380633 -0.012977518 4287903538
-0.020481855 -0.0013215933 -0.015611907 4288754219
-0.019043174 0.001176287 -0.017616086 4289015593
-0.017767545 0.0044919895 -0.02024775 4289211943
-0.016065799 0.0053532617 -0.020992836 4290258973
-0.014217533 0.0053965263 -0.021109246 4290913048
-0.012369409 0.0054398598 -0.021225596 4291044373
-0.010363914 0.0046654427 -0.020713951 4291044373
-0.0081929266 0.0030735284 -0.019574927 4289801248
-0.0056853518 -0.00015345868 -0.01718143 4289735459
-0.003321819 -0.0025622419 -0.015416585 4288427308
-0.0011105165 -0.0041529359 -0.014279896 4287118648
0.00094046444 -0.0049258214 -0.013770845 4286530109
0.0035181046 -0.0081508113 -0.011381494 4286464319
0.0059408024 -0.010557853 -0.0096201124 4286333503
0.0082004219 -0.012147074 -0.0084862104 4286464318
0.0099249333 -0.011284286 -0.0092319259 4286529599
0.011643849 -0.010421524 -0.0099772075 4286267968
-0.030751288 -0.0096407374 -0.010983761 4286005828
-0.028603576 -0.011238756 -0.00984741 4287314489
-0.026835814 -0.010374555 -0.01059555 4287445048
-0.025073607 -0.0095103653 -0.011343251 4288099633
-0.023316931 -0.0086461985 -0.012090524 4288623404
-0.021565828 -0.0077820187 -0.012837416 4288623404
-0.019961368 -0.0060975621 -0.014211131 4288426798
-0.01879942 -0.0019522693 -0.017465416 4288558124
-0.017664775 0.0021924879 -0.020717904 4289408294
-0.01610963 0.0038761431 -0.022088328 4289343014
-0.0141095 0.0030992068 -0.021578126 4289473828
-0.012258761 0.0031425962 -0.021694645 4290258719
-0.010093309 0.0015460923 -0.02055859 4289800738
-0.0080772787 0.0007698657 -0.020049214 4289211943
-0.0054044947 -0.0032856236 -0.017036427 4288885289
-0.0030358359 -0.0057008141 -0.015276764 4288558123
-0.00081931055 -0.0072957738 -0.014143666 4287184439
0.0010659173 -0.0072510503 -0.014261965 4286530109
0.0034721866 -0.0096651027 -0.012504477 4286268224
0.0053652525 -0.0096200332 -0.012623148 4286202689
0.0074373335 -0.010394357 -0.012116864 4286725693
-0.029029902 -0.010286115 -0.012851342 4286463809
-0.027010024 -0.011065524 -0.012344643 4287510583
-0.025117692 -0.011021964 -0.012464378 4288557614
-0.023361087 -0.010155668 -0.013210062 4288361518
-0.021610044 -0.0092893392 -0.013955347 4287969073
-0.020005584 -0.0076005417 -0.015325835 4287903794
-0.018699672 -0.0042669019 -0.017946586 4288362029
-0.01756211 -0.0001112367 -0.021191193 4288820009
-0.016004212 0.0015767585 -0.022558533 4288820009
-0.014001556 0.00079775928 -0.022050146 4289211944
-0.012148216 0.00084115658 -0.022166867 4289473573
-0.0099802911 -0.00075963512 -0.021034202 4288427053
-0.0079616979 -0.0015380662 -0.020526595 4287314999
-0.0054494292 -0.0047823046 -0.018146388 4286791994
-0.0030810758 -0.0072040432 -0.01639157 4286660923
-0.00086478889 -0.0088033602 -0.015261695 4287576628
0.0010203347 -0.0087586753 -0.015380014 4287903283
0.0030789748 -0.0095357252 -0.014874602 4286987579
0.0047901496 -0.0086690746 -0.015616443 4286595133
-0.025825929 -0.0084088435 -0.016708275 4287118138
-0.023676325 -0.010015218 -0.01557829 4287510838
-0.021792505 -0.0099716708 -0.015697351 4287772468
-0.020049769 -0.0091033299 -0.016440399 4287772468
-0.018600021 -0.0065856613 -0.018430822 4287772979
-0.017166674 -0.004068356 -0.020420117 4288100399
-0.015898906 -0.00072675431 -0.023031877 4288230958
-0.014045574 -0.00068342872 -0.023148652 4288426798
-0.012037769 -0.0014644347 -0.022642169 4288427054
-0.009710066 -0.003893916 -0.020889845 4287772723
-0.0076862052 -0.0046743881 -0.020384256 4286791228
-0.005168885 -0.0079272464 -0.018010793 4286595134
-0.0029608458 -0.0095312241 -0.016883723 4286464318
-0.00091023743 -0.01031079 -0.016379612 4286594878
0.00097478926 -0.01026612 -0.016497932 4287183674
0.0028596669 -0.010221392 -0.016616197 4286529854
-0.023991268 -0.0098659797 -0.017939933 4287707189
-0.021974802 -0.010649528 -0.017436039 4288099633
-0.020375773 -0.0089522237 -0.018799761 4287772468
-0.018500447 -0.0089087151 -0.018918168 4288034608
-0.016917963 -0.0072115511 -0.020280737 4287969584
-0.015495546 -0.0046878792 -0.022264417 4288230704
-0.013937756 -0.0029911089 -0.023625296 4288099889
-0.011927418 -0.0037742367 -0.023120599 4287314998
-0.0097545236 -0.0053837113 -0.021994717 4287118649
-0.0074109659 -0.0078192409 -0.020248242 4286529599
-0.005376555 -0.008601591 -0.019744828 4286398784
-0.0031714588 -0.010209995 -0.018620813 4286660414
-0.0012918413 -0.01016557 -0.018738884 4286856508
0.00058765709 -0.010121089 -0.0188569 4286464319
-0.022571377 -0.008835501 -0.021034462 4286725439
-0.020278897 -0.011279462 -0.019290078 4287314233
-0.018400978 -0.011235898 -0.019408653 4287707443
-0.016815774 -0.0095343459 -0.020768177 4287838769
-0.01539056 -0.0070041576 -0.022747234 4287773234
-0.013981767 -0.004474198 -0.024725217 4287773489
-0.011971593 -0.0052595302 -0.024222145 4287249463
-0.0096417814 -0.0077020489 -0.022479689 4286987833
-0.0072958022 -0.010144102 -0.020738188 4286398784
-0.0052588359 -0.010928552 -0.020236613 4286398784
-0.0037125349 -0.0092272796 -0.021593217 4286594368
-0.020886119 -0.0094546964 -0.022879656 4287772214
-0.018445119 -0.012736127 -0.020521313 4287772723
-0.016713664 -0.011861401 -0.021258704 4287707698
-0.015136719 -0.010155625 -0.022614423 4287773234
-0.013874076 -0.0067881118 -0.025206491 4287969584
-0.011706978 -0.0084065339 -0.024086803 4288296494
-0.0095291361 -0.010024585 -0.022967778 4287707699
-0.007340543 -0.011642334 -0.021849316 4287314743
-0.0056288391 -0.010767504 -0.022585116 4286791484
-0.018919591 -0.011736156 -0.023486236 4286660924
-0.017050166 -0.011692762 -0.023604251 4287445559
-0.015478626 -0.0099828672 -0.024956396 4288100399
-0.013918072 -0.0082730893 -0.026307818 4287642674
-0.011905521 -0.0090628061 -0.025808126 4286922809
-0.010044701 -0.0090192743 -0.025925346 4287053368
-0.017386362 -0.011515377 -0.025943242 4287249463
-0.015522607 -0.011472043 -0.026060849 4288492333
-0.013962023 -0.0097579584 -0.027409069 4287511093
-0.012103915 -0.0097146034 -0.027526204 4287315254
0.012343302 -0.0054182643 0.044898789 4282537319
0.043121822 -0.0049793865 0.025264492 4282666859
-0.044573732 -0.0073358393 -0.014402596 4282667114
-0.022832949 -0.0082702003 -0.036830056 4282863463
-0.023016028 -0.0088884979 -0.038524363 4282863718
-0.023339227 -0.0086537944 -0.040821757 4282797928
