# .PCD v0.7 - Point Cloud Data file format
VERSION 0.7
FIELDS x y z rgba
SIZE 4 4 4 4
TYPE F F F U
COUNT 1 1 1 1
WIDTH 569
HEIGHT 1
VIEWPOINT 0 0 0 1 0 0 0
POINTS 569
DATA ascii
-0.0014534965 -0.0026911364 0.046834175 4287639614
0.0021358803 -0.00035448326 0.044595916 4287051073
0.0043203607 -0.0010681502 0.045174029 4286920514
-0.0025625899 0.00096304435 0.040890295 4288883249
-0.00070507824 0.0017567882 0.040112954 4289079854
0.0013049319 0.0017955257 0.040013079 4290126374
0.0034756288 0.001079428 0.040590279 4290911008
0.0056515262 0.00036352966 0.041167293 4288491059
0.012725912 -0.0040472834 0.044926587 4286987068
-0.0049151704 0.00082308147 0.03844801 4287052348
-0.0033655912 0.0031335014 0.036320765 4289276459
-0.0015217736 0.0039291806 0.035545733 4290062623
0.0006326139 0.0032105218 0.036122076 4290520603
0.0026314035 0.0032491642 0.036022853 4290390554
0.0049571097 0.0017737029 0.037274215 4290324253
0.0071271658 0.0010556215 0.037849989 4289146919
0.0094714686 -0.00041923951 0.039100535 4289211943
0.011826418 -0.0018938286 0.040350672 4289276969
0.013494186 -0.0003406154 0.038901463 4289603624
0.015505202 -0.00030119065 0.038802035 4288556849
0.016976267 0.0020085867 0.036679406 4290911008
0.019343853 0.00053460244 0.03792911 4291238174
0.021907412 -0.0016957493 0.039852571 4287248444
-0.0049545988 -0.00078826491 0.037260834 4288360753
-0.003557615 0.0022881902 0.034464266 4289996068
-0.001871936 0.0038454956 0.033016935 4289604643
-3.9279461e-05 0.0046432684 0.032244157 4289081638
0.0021092743 0.003922421 0.03281926 4289277989
0.0042630807 0.0032017133 0.03339421 4289735969
0.0065883324 0.0017220373 0.034642417 4290324764
0.0085863248 0.0017609778 0.034543466 4289931553
0.010755755 0.0010409052 0.035117809 4289408293
0.012581617 0.0018391008 0.034345776 4289538853
0.014578909 0.0018782835 0.034247044 4289866018
0.016036421 0.0041943989 0.032129887 4290389278
0.018390194 0.0027157697 0.033377118 4290519583
0.020939901 0.00047860062 0.035296433 4290061604
0.023881681 -0.0032757306 0.038559843 4288687409
0.026087523 -0.0039945291 0.0391328 4289012789
-0.005443573 -0.00011419551 0.034055725 4289341994
-0.0037495345 0.0014475207 0.032611188 4290258463
-0.0023771599 0.0045323479 0.029822376 4291044373
-0.00055275112 0.0053321882 0.02905165 4291044629
0.0014267415 0.0053704926 0.028953411 4291175189
0.0038963854 0.0031245719 0.030871306 4291240723
0.0062159672 0.0016403976 0.032116629 4290390299
0.008208409 0.0016792449 0.032017957 4290063388
0.010028981 0.0024795099 0.031247716 4290063389
0.011843897 0.0032797023 0.030477859 4289997598
0.013830215 0.0033186744 0.030379672 4289735968
0.015456699 0.0048800041 0.028939169 4289539873
0.01761961 0.0041579488 0.029512469 4289670688
0.020158157 0.001914043 0.031427525 4290522134
0.023088686 -0.0018514213 0.034683432 4289409313
0.025664829 -0.0040944172 0.036596682 4289016614
0.028257035 -0.0063370531 0.038509242 4286529344
-0.0059322491 0.00057328492 0.030860499 4289473829
-0.0042463914 0.0021392382 0.029419612 4289211943
-0.0027268752 0.0044688885 0.027308486 4289670434
-0.00074999779 0.0045070634 0.027210318 4290586394
0.0012266412 0.0045453445 0.027112238 4290913559
0.0036932901 0.0022927872 0.029025499 4290389788
0.0058438107 0.0015678275 0.029597446 4290128413
0.0076618418 0.0023700991 0.028828923 4290063134
0.0094742104 0.0031723459 0.028060745 4289997854
0.011280917 0.0039745965 0.02729293 4290063644
0.013258956 0.0040134252 0.027195171 4291175954
0.01487729 0.0055790166 0.025758263 4290129179
0.017031878 0.0048546423 0.026330378 4289605408
0.019561999 0.0026040231 0.028241012 4289931808
0.022296101 -0.00040935166 0.030820105 4290193183
0.025051728 -0.0034222514 0.033398174 4288687918
0.027635507 -0.0056715445 0.035306286 4288752944
-0.0068698153 0.0035724021 0.025666736 4289277223
-0.0050478429 0.0043763709 0.024899215 4289343014
-0.0033867136 0.0059463079 0.023462851 4289866784
-0.0011050627 0.0044524656 0.024703387 4289735713
0.0010266602 0.0037247757 0.025274519 4289931808
0.003490299 0.0014656242 0.027183104 4290258973
0.0054718554 0.0015041921 0.027084921 4290324508
0.0072843879 0.0023085759 0.026318312 4290193694
0.0092627779 0.0023472575 0.026220422 4289932574
0.011066698 0.003151678 0.025454309 4290325019
0.012864962 0.0039560362 0.02468859 4290848789
0.01465755 0.0047603589 0.023923211 4291306259
0.016626865 0.00479921 0.023826022 4291306259
0.018966161 0.0033073635 0.025064345 4290913304
0.021879636 -0.00048023835 0.028304998 4290258464
0.024629496 -0.0035019538 0.030876923 4289733928
-0.0082953125 -0.0011228062 0.027269956 4286594624
-0.0070583299 0.0027566333 0.023831826 4289342504
-0.0055439845 0.005099202 0.021730566 4290717209
-0.0037358999 0.0059052263 0.020965451 4291306004
-0.001459904 0.0044068634 0.022203084 4291175189
0.00098733604 0.0021408047 0.024107542 4290782233
0.0032874122 0.00064309174 0.025344115 4289866529
0.0052661225 0.0006816336 0.025246099 4290324509
0.0069071501 0.0022560856 0.02381428 4290193438
0.0088799745 0.0022946741 0.023716673 4290128158
0.010678418 0.0031011445 0.022952504 4290128414
0.012648091 0.0031398465 0.022855183 4289866784
0.014258288 0.0047139949 0.021425182 4290259484
0.016586743 0.0032175151 0.022660781 4289866783
0.018555723 0.0032564462 0.022563672 4290127903
0.02127561 0.00022533769 0.025130581 4289799973
0.02382648 -0.0020377447 0.027030613 4289276204
-0.0087749884 -0.00040377071 0.024097454 4288883758
-0.00724677 0.0019454933 0.022000328 4289341993
-0.0057350919 0.0042945971 0.019904066 4289997344
-0.0039298013 0.0051027457 0.019140696 4290586139
-0.0018145591 0.0043702931 0.019709364 4291109909
0.00062695891 0.0020975559 0.021609332 4291109653
0.002758123 0.0013656118 0.022177357 4289866784
0.0048945248 0.00063386513 0.022745194 4289997343
0.0066987872 0.0014424738 0.021982232 4290128158
0.0086688027 0.0014810138 0.021884769 4290455323
0.010464452 0.0022896337 0.021122364 4290193694
0.012254469 0.0030982043 0.020360284 4290324763
0.014038779 0.0039068111 0.019598519 4290586393
0.016182035 0.0031756735 0.020166442 4289539619
0.0183305 0.0024447418 0.020734111 4289604644
0.021047331 -0.00059513142 0.023294743 4289276714
0.023595244 -0.0028648244 0.025190081 4289210924
-0.0091074556 -0.00044410443 0.021599611 4289473573
-0.0075846761 0.0019116765 0.019507568 4290193183
-0.0060784072 0.0042671901 0.017416457 4289408804
-0.00427863 0.0050774715 0.016654944 4289343268
-0.0023267493 0.0051152124 0.016558051 4289866783
0.00010633469 0.0028357622 0.018453602 4289932063
0.0023923442 0.001329083 0.019684451 4290324763
0.0046890527 -0.00017727446 0.020914786 4290128414
0.0064905286 0.00063348189 0.020153586 4289932064
0.0082863644 0.0014442019 0.019392719 4290128159
0.0097283795 0.0037992266 0.017305281 4289997344
0.011684246 0.0038377088 0.017208677 4291240979
0.01346039 0.0046482761 0.01644896 4291110163
0.015777543 0.0031428649 0.017678684 4291044119
0.017920412 0.002409657 0.018245028 4289539109
0.020819165 -0.0014109476 0.021462254 4289145899
0.023364112 -0.0036872975 0.023352947 4289080109
-0.0095865577 0.00029949378 0.018445205 4289080619
-0.008071892 0.0026616235 0.016358443 4289997089
-0.0064215139 0.0042488226 0.014935438 4290979094
-0.0047822148 0.0058358568 0.013513096 4290193949
-0.0028386116 0.0058734468 0.01341662 4290455578
-0.00041398406 0.0035873405 0.015307724 4290913814
0.0020267814 0.001301582 0.017198127 4290521113
0.0043178201 -0.00020926818 0.018425576 4289735969
0.0062823743 -0.00017089397 0.018328341 4290193949
0.0080754384 0.00064200815 0.01756919 4290455324
0.0093407854 0.0037778891 0.014824912 4289931553
0.011114374 0.004590536 0.01406689 4290716953
0.012882292 0.0054031578 0.013309216 4290193438
0.015373275 0.0031189923 0.015197583 4291044119
0.017880335 0.00083523896 0.017085155 4289472808
0.020778708 -0.0029962689 0.020294355 4289472299
0.023323417 -0.0052791568 0.022180235 4288164148
-0.009918578 0.00027935952 0.015962247 4289474593
-0.0084093139 0.0026479666 0.01388054 4290063389
-0.0069165826 0.0050163302 0.011799784 4290782488
-0.0052854642 0.0066076289 0.010381036 4290978838
-0.0031925291 0.0058682398 0.010946011 4290913559
-0.00077360868 0.0035754223 0.012832597 4290913559
0.0016614348 0.0012830072 0.014718451 4290128413
0.0041126013 -0.0010089418 0.016603541 4289801504
0.0057372898 0.00058265263 0.015185498 4290128413
0.0075221285 0.0013975301 0.014428405 4290193694
0.0087794438 0.0045419871 0.011690974 4290455068
0.010544822 0.0053566652 0.010934981 4289343013
0.012483947 0.0053948867 0.010839256 4289343014
0.014969215 0.0031041116 0.012723034 4289408294
0.017655417 3.7367921e-05 0.015265785 4289996324
0.020363159 -0.0030288594 0.017807541 4289668393
-0.011914715 -0.0013277489 0.014903262 4286071619
-0.010543764 0.0018267133 0.012165958 4289604644
-0.008895956 0.0034224666 0.010749508 4289801504
-0.007107079 0.0042389915 0.0099932961 4289670689
-0.0051689744 0.0042764158 0.0098970495 4289932319
-0.0032310635 0.0043139202 0.0098008756 4290324763
-0.00097272545 0.0027935239 0.011023369 4289866783
0.0012962893 0.0012734872 0.012245372 4289539618
0.0035760105 -0.00024630642 0.013466941 4289081893
0.0053609982 0.00057071401 0.012711348 4289343524
0.0069691613 0.0021664449 0.011297414 4290586138
0.0083923191 0.0045407885 0.0092254449 4290913559
0.010328844 0.0045788814 0.0091297925 4291043864
0.012265153 0.0046170545 0.0090342145 4290913048
0.014747441 0.0023196363 0.010913355 4291043608
0.017615393 -0.0015343749 0.014107885 4290257953
0.020322822 -0.0046093343 0.016643213 4289014574
-0.012096927 -0.0021156562 0.013088521 4287379769
-0.010875255 0.0018289126 0.0096994564 4289669924
-0.0093822628 0.0042103273 0.0076282434 4289997598
-0.0076016262 0.0050288481 0.0068741078 4291044374
-0.0053621978 0.0035035736 0.0080941338 4290651928
-0.0031120554 0.001978578 0.0093137547 4290193949
-0.00085122883 0.00045393081 0.010532878 4289801504
0.0010943487 0.00049178163 0.010436468 4289539873
0.003205426 -0.00025134021 0.010997524 4289474594
0.0051533282 -0.00021327054 0.010901129 4289343523
0.0067587793 0.0013867654 0.0094905477 4289670689
0.0081792921 0.0037675989 0.0074235387 4289735969
0.009936437 0.0045864661 0.0066711623 4290455579
0.012225769 0.0030629826 0.0078893192 4290324764
0.014525793 0.0015397333 0.0091070402 4290520348
0.017390631 -0.0023252317 0.012293683 4290061858
0.02009505 -0.0054089953 0.014822707 4289539363
-0.01256676 -0.0013315938 0.0099634007 4288950059
-0.011353105 0.002623715 0.006582777 4289473829
-0.0098682567 0.0050115236 0.0045168065 4291175189
-0.0077917874 0.0042650844 0.0050776247 4291371539
-0.0055553019 0.0027353731 0.0062946388 4291371539
-0.0033081323 0.0012059985 0.0075111408 4291306259
-0.0012104362 0.00046020653 0.0080711562 4289735969
0.0008925125 -0.00028534327 0.0086309388 4289278243
0.0028350726 -0.00024745986 0.0085347481 4289474594
0.0047774315 -0.00020949449 0.0084386282 4289539873
0.0063774288 0.0013948483 0.0070315013 4289801758
0.0077925771 0.0037820661 0.0049696239 4289735969
0.0095442161 0.0046030688 0.0042191008 4289866784
0.011827916 0.0030750684 0.0054343594 4289408804
0.01430425 0.00076442026 0.0073041124 4289931553
0.017166026 -0.0031115173 0.010482848 4289800228
0.020054765 -0.006986856 0.013660304 4289735459
-0.014410369 -0.0037148001 0.0095663127 4286399548
-0.012892462 -0.0013200641 0.0075034164 4289736478
-0.011537582 0.0018602759 0.0047862446 4290128414
-0.0100554 0.0042545744 0.0027252352 4289408549
-0.0084377676 0.0058629331 0.0013200203 4290128159
-0.0062123984 0.0043286947 0.0025343262 4290651418
-0.0039763227 0.0027947319 0.0037481515 4290586393
-0.0017295405 0.0012610233 0.0049615558 4290193949
0.000365071 0.00051313965 0.0055201491 4289736224
0.0024649277 -0.000234548 0.0060785515 4289997854
0.0042334348 0.00058865873 0.0053286524 4289736223
0.005825296 0.0021971581 0.0039251875 4289998110
0.0075798109 0.0030203075 0.0031760652 4291109653
0.0093286857 0.0038433974 0.0024273349 4291043863
0.011430301 0.0030961358 0.0029859403 4290847769
0.013900921 0.00077885762 0.0048511624 4289277478
0.016756877 -0.003108114 0.0080221239 4289670434
0.019265153 -0.0054245032 0.0098855942 4290257443
-0.015153535 -0.0013365024 0.005146414 4286791738
-0.013505459 0.00027650874 0.0037426883 4289670434
-0.011868425 0.0018894384 0.0023395335 4290520859
-0.010391645 0.0042901323 0.00028366689 4290586139
-0.0086275414 0.0051149302 -0.00046485011 4289604643
-0.0067144036 0.0051518609 -0.00055986643 4290259228
-0.0043293461 0.0028255819 0.0013041804 4290651673
-0.0020882338 0.0012874608 0.0025146138 4290324763
7.5250864e-07 0.00053725298 0.0030719237 4290194204
0.0017639697 0.0013624798 0.0023237802 4290063389
0.0036897957 0.0014001154 0.0022284752 4289932319
0.0052734911 0.0030128281 0.00082864333 4289932063
0.0071934909 0.0030505103 0.00073374342 4291174679
0.0091132894 0.0030882726 0.00063891616 4290651418
0.011212006 0.0023387917 0.0011960687 4291305749
0.013497822 0.00080215838 0.0024048174 4290192929
0.015978858 -0.0015213233 0.0042647198 4289472553
0.01866328 -0.0046316581 0.0067754006 4286854724
-0.015614212 -0.00051662745 0.0020471485 4287053113
-0.013830625 0.00031038281 0.0012990935 4289473573
-0.012199029 0.0019275132 -0.00010053534 4290455579
-0.010578528 0.0035446011 -0.0014995644 4291174679
-0.0089690834 0.0051615252 -0.0028979322 4290979094
-0.0069069117 0.0044083693 -0.0023411582 4291175188
-0.0045248568 0.0020754929 -0.00048179086 4291175189
-0.0022866949 0.00053294655 0.00072556268 4290259228
-0.00052607059 0.0013601794 -2.0858832e-05 4290455578
0.0013943911 0.0013976176 -0.00011596829 4290193949
0.0033146739 0.001435149 -0.00021099672 4290259228
0.0050638542 0.0022624158 -0.00095666293 4290782488
0.0068073869 0.0030896734 -0.0017019771 4289212199
0.0085453168 0.003916929 -0.0024470054 4289735714
0.010635726 0.0031650434 -0.0018910253 4289670179
0.01291319 0.0016239276 -0.00068512606 4289277224
0.015570313 -0.0014957278 0.0018204171 4289275949
0.018248998 -0.0046148873 0.0043249484 4286201923
-0.016074561 0.00031651277 -0.0010422682 4289342504
-0.014299199 0.0011455314 -0.0017883163 4289866019
-0.012675814 0.0027669356 -0.0031843409 4289800993
-0.010765292 0.0028036055 -0.0032793814 4289932063
-0.009006761 0.0036326139 -0.0040243599 4290848023
-0.0067902207 0.0020851078 -0.0028192843 4290979094
-0.0044057295 -0.00025427248 -0.00096487533 4290586393
-0.0026449785 0.00057504978 -0.0017097639 4290325019
-0.00088986754 0.0014043609 -0.0024543018 4290521369
0.00069422275 0.0030256282 -0.0038479161 4290521369
0.0027716383 0.0022710501 -0.003293165 4290521114
0.0043417513 0.0038921773 -0.0046859169 4291044374
0.0060743839 0.0047213961 -0.0054290844 4290258973
0.0078013986 0.0055505545 -0.0061719371 4289931808
0.010059796 0.0040046214 -0.0049683768 4289997344
0.012510605 0.0016673086 -0.0031166798 4290323998
0.015346423 -0.0022527704 3.11248e-05 4289014319
-0.016252823 -0.00042624585 -0.0028239302 4289473319
-0.014480263 0.00040494092 -0.0035682707 4289931298
-0.012713298 0.0012360946 -0.0043122042 4289800993
-0.010951936 0.002067226 -0.0050557968 4289735713
-0.0091961622 0.0028983229 -0.005799057 4289735969
-0.0069826022 0.0013464023 -0.0045970511 4290063644
-0.0047582909 -0.00020528585 -0.0033954871 4289998110
-0.0030030608 0.00062615983 -0.0041385288 4290325274
-0.0015787184 0.003045918 -0.00617697 4290652184
0.00032521784 0.0030830274 -0.0062712645 4290259483
0.0025651231 0.0015320447 -0.0050702496 4289932063
0.0041325316 0.0031574671 -0.0064596562 4290521113
0.005688861 0.0047828075 -0.0078484891 4291240468
0.0074103847 0.0056140446 -0.0085894568 4291175188
0.0098421201 0.0032697194 -0.006741717 4291174934
0.012471639 0.00013199542 -0.0042477506 4290520603
0.015122697 -0.0030052196 -0.0017548585 4289408803
-0.016430981 -0.0011643888 -0.0046022632 4288950569
-0.015091836 0.0020590886 -0.0072865086 4289735459
-0.013335824 0.0028922386 -0.0080283424 4290324764
-0.011436433 0.0029287082 -0.0081228195 4291109909
-0.0093854889 0.0021686242 -0.0075703682 4291044629
-0.0073292777 0.0014088089 -0.0070181303 4289997598
-0.0051106513 -0.00014729332 -0.0058195358 4289801758
-0.0033608973 0.00068614725 -0.0065606805 4290325274
-0.0017793551 0.0023159445 -0.0079477606 4290063389
-0.00020886213 0.0039456612 -0.009334268 4290128668
0.0016866252 0.0039826888 -0.009428083 4289932574
0.0034111887 0.0048159896 -0.010167721 4289735969
0.0051301196 0.005649257 -0.010907024 4289735968
0.0071958154 0.0048903092 -0.010354752 4290193948
0.0094456449 0.0033354661 -0.0091572218 4289997598
0.012251057 -0.00060710358 -0.0060240785 4289604644
0.014530413 -0.0021612546 -0.0048278514 4289865254
-0.016749784 -0.001099017 -0.0070229354 4289081383
-0.015415996 0.0021331212 -0.0097005172 4289212199
-0.013665482 0.0029682885 -0.010440435 4290586393
-0.011771657 0.0030046278 -0.010534653 4290782998
-0.0098779798 0.0030410853 -0.010628774 4291175188
-0.0078300983 0.0022788993 -0.010077754 4291109653
-0.0057769343 0.0015169103 -0.0095269261 4289867038
-0.0037185028 0.00075505814 -0.0089762583 4290128668
-0.002142407 0.0023891623 -0.010359884 4289867039
-0.00041209161 0.0032245875 -0.011098322 4290063389
0.0013125986 0.0040599662 -0.011836434 4289867038
0.0032023638 0.0040969574 -0.011929912 4289801504
0.004918538 0.0049323817 -0.01266752 4289866783
0.0069813803 0.0041711214 -0.012116699 4289539618
0.0092282966 0.0026118527 -0.010922249 4289604899
0.011849031 -0.00054351194 -0.0084407451 4289603878
0.014307037 -0.0029002689 -0.006603865 4289930279
-0.017490499 0.0013787877 -0.011369523 4289343014
-0.016026802 0.0038182843 -0.013395978 4289866784
-0.014287241 0.0046554026 -0.014133757 4289212709
-0.012553275 0.0054925312 -0.01487117 4289278244
-0.010370143 0.003926801 -0.013677415 4290128158
-0.0083305836 0.0031622793 -0.013127587 4290390043
-0.006128706 0.001597059 -0.01193458 4290193949
-0.0040758699 0.0008329656 -0.011385284 4290259228
-0.0023427233 0.0016705245 -0.012122327 4290325019
-0.00078038871 0.0033087716 -0.013502013 4290063388
0.00043506175 0.0065480941 -0.016166653 4290063134
0.0024817735 0.0057842215 -0.015616805 4291502354
0.0045337379 0.0050205332 -0.015067155 4291306258
0.0067670569 0.003456539 -0.013875326 4291109909
0.0086534768 0.0034936643 -0.013968489 4289735459
0.011265747 0.00032939203 -0.011493022 4289211178
0.013531141 -0.0012337724 -0.010302555 4289472299
-0.019421406 -0.00017411727 -0.012392655 4288295728
-0.017808683 0.0014686156 -0.013772251 4289342503
-0.016206995 0.0031111981 -0.015151178 4290848279
-0.014616333 0.0047536665 -0.016529486 4290651929
-0.012887895 0.005592884 -0.017265078 4289212198
-0.010861948 0.0048257713 -0.016716219 4290062879
-0.0085221902 0.0024527577 -0.014883856 4290324253
-0.0063232481 0.00088312197 -0.013693921 4290063134
-0.0044330209 0.00091974903 -0.013787696 4290128413
-0.0025429279 0.00095643289 -0.013881421 4290063134
-0.00098329782 0.0025989753 -0.015257764 4290259228
0.00056527555 0.0042413431 -0.016633455 4290128414
0.0024439767 0.0042780745 -0.016726416 4290848023
0.0043224916 0.0043148748 -0.016819315 4290520858
0.0065528676 0.002746467 -0.015630558 4291175188
0.0084364787 0.0027835318 -0.015723586 4290324509
0.011045747 -0.0003895429 -0.013254425 4289342249
0.013492383 -0.0027596573 -0.011426679 4289799209
-0.020009682 0.0015314738 -0.016074473 4288361009
-0.018407859 0.0031783157 -0.017450266 4289407784
-0.016387075 0.0024086689 -0.01690302 4290193949
-0.014799155 0.0040554781 -0.018278021 4290913559
-0.013222255 0.0057021254 -0.019652363 4290586139
-0.01105044 0.0041274508 -0.018464491 4291306259
-0.0088678747 0.0025530313 -0.01727704 4290913559
-0.0068315268 0.001784151 -0.016730225 4289801504
-0.0049495548 0.0018205782 -0.01682362 4289932319
-0.0029053763 0.0010520346 -0.016277056 4290324764
-0.0011860877 0.0018937122 -0.017010175 4290521113
0.00035978109 0.0035403739 -0.018382519 4290716699
0.0020651296 0.0043819943 -0.019114863 4289408549
0.0039381087 0.0044186772 -0.019207496 4289408548
0.0061628819 0.0028457385 -0.018021649 4289539363
0.0080409497 0.0028826636 -0.018114429 4289670943
0.010463066 0.00050550373 -0.016290389 4289670688
0.013085403 -0.0026759594 -0.013828258 4286332993
-0.020046167 2.3743603e-05 -0.017185338 4287968563
-0.018444367 0.0016749124 -0.018557932 4288950059
-0.016567029 0.0017106975 -0.018651506 4289343014
-0.014981844 0.0033618012 -0.020023162 4289539619
-0.01311025 0.0033976804 -0.020116298 4290128159
-0.011238791 0.0034336415 -0.020209365 4290455324
-0.0090591684 0.0018547843 -0.019025005 4289604898
-0.0073394626 0.0026984462 -0.019756757 4289932063
-0.0053061545 0.0019273334 -0.019211322 4290193694
-0.0034298822 0.0019637477 -0.019304361 4290128158
-0.0013887286 0.0011930191 -0.018759217 4289997599
0.00032217056 0.0020367964 -0.019490248 4291043864
0.0018570125 0.003687684 -0.020858847 4290651418
0.0035540015 0.004531357 -0.021589063 4290389788
0.0055972114 0.0037609632 -0.021043804 4290716953
0.0078243017 0.002183747 -0.019861266 4290520603
0.010243438 -0.00020000897 -0.018041909 4289407784
0.012862772 -0.0033902747 -0.015586083 4287379514
-0.020082638 -0.0014838194 -0.018296082 4288099123
-0.018480845 0.00017170189 -0.019665461 4288754219
-0.016603641 0.0002074847 -0.019759029 4289866529
-0.015018463 0.0018629157 -0.021127488 4289016359
-0.013295628 0.0027084774 -0.021857962 4289016104
-0.011275634 0.0019346937 -0.021313723 4289277478
-0.0092503428 0.0011611544 -0.020769641 4289604644
-0.0076902211 0.0028163898 -0.022136569 4289866274
-0.005822055 0.0028525353 -0.02222929 4289931808
-0.0037917942 0.0020793206 -0.021685287 4289735713
-0.001756236 0.0013062912 -0.021141484 4289866784
-0.00021848828 0.0029614479 -0.022507042 4290389789
0.0014786273 0.0038071866 -0.023235742 4290847768
0.0031701326 0.0046528899 -0.023964111 4290978583
0.0052077696 0.0038801827 -0.023420203 4290978583
0.0072506517 0.003107673 -0.022876486 4290061859
0.0096613988 0.00071713375 -0.021061525 4289930279
-0.01984363 -0.0046153753 -0.018134153 4288099633
-0.018236414 -0.0029554106 -0.0195006 4288558123
-0.016497046 -0.002107555 -0.020230439 4289605919
-0.014763251 -0.0012597335 -0.020959945 4288558888
-0.013035066 -0.00041186297 -0.021689132 4288820518
-0.011312455 0.0004359493 -0.022417933 4289082149
-0.0092873126 -0.00033982191 -0.02187549 4289278243
-0.0075704306 0.00050803693 -0.022603888 4289539618
-0.0056996495 0.00054422673 -0.022696741 4289147174
-0.0038290247 0.0005804738 -0.022789545 4288950824
-0.0019585416 0.00061680237 -0.022882279 4289081638
-0.00042351335 0.0022762413 -0.0242445 4288950569
0.0011004731 0.003935602 -0.025606148 4289081383
0.0031326786 0.0031604781 -0.025063604 4289408548
0.005170159 0.002385587 -0.024521299 4289474084
0.0072129071 0.0016108677 -0.023979204 4289669923
0.0094421655 2.504373e-05 -0.022803232 4289997344
-0.019742467 -0.0069412366 -0.018613132 4288426288
-0.017992154 -0.0060910736 -0.019342041 4289474083
-0.016247422 -0.0052409573 -0.020070553 4289409569
-0.014508247 -0.0043908511 -0.020798717 4288820773
-0.012774676 -0.0035407671 -0.02152654 4288624423
-0.011046678 -0.0026906934 -0.022254014 4288689703
-0.009170264 -0.0026546123 -0.022347309 4289147684
-0.0072940066 -0.0026184255 -0.022440517 4289801758
-0.0054178834 -0.0025821817 -0.022533674 4289147684
-0.0035419166 -0.0025458562 -0.022626759 4289016869
-0.0019958466 -0.0008818903 -0.023986418 4288885799
-0.00046080351 0.00078188954 -0.025345435 4289343524
0.0010631904 0.002445566 -0.026703898 4289277734
0.0030952618 0.001668233 -0.026162975 4289146919
0.0051326007 0.00089113368 -0.025622293 4289212198
0.0071752146 0.00011419412 -0.025081828 4288819753
0.0092230961 -0.00066257082 -0.024541572 4289145388
-0.021669745 -0.008490555 -0.019633848 4286725183
-0.019641399 -0.009271224 -0.019095225 4288491823
-0.018028773 -0.0076024397 -0.02045558 4289932063
-0.016141035 -0.0075665386 -0.020549733 4289147939
-0.014545001 -0.0058979266 -0.02190908 4288820774
-0.012514472 -0.0066781631 -0.021370279 4288624423
-0.010781087 -0.0058258404 -0.022096436 4288689959
-0.008899346 -0.0057896809 -0.022190016 4289213218
-0.0071744174 -0.0049373335 -0.022915613 4289213218
-0.0051362962 -0.0057170936 -0.022376943 4288951589
-0.0034170896 -0.0048646992 -0.023102144 4288755238
-0.0017034858 -0.0040123393 -0.023827009 4288689703
-0.00033052266 -0.0015282058 -0.025814708 4288689703
0.001536727 -0.0014918358 -0.025907205 4288689703
0.0034038201 -0.0014553848 -0.025999632 4288689449
0.0052707717 -0.0014188881 -0.026092015 4288689449
0.0069591403 -0.00056664273 -0.026815355 4288230195
0.0091852844 -0.0021612837 -0.025645694 4287444794
-0.021841004 -0.009185154 -0.021380475 4287052349
-0.019815549 -0.0099681374 -0.020843301 4289080873
-0.017925084 -0.009932274 -0.020937655 4289932063
-0.016177736 -0.0090777623 -0.021663163 4288755494
-0.014435992 -0.0082232961 -0.022388272 4288755494
-0.012402907 -0.0090056825 -0.021851221 4288624423
-0.01051569 -0.0089695146 -0.021945143 4288689959
-0.008782506 -0.0081149535 -0.022669636 4289409824
-0.0070549026 -0.007260439 -0.023393806 4288820774
-0.0051735416 -0.0072241304 -0.023487248 4288820774
-0.0031303018 -0.0080059022 -0.022950392 4288624423
-0.0015760511 -0.006333177 -0.024304032 4288624423
0.00013464689 -0.0054786485 -0.025027111 4288624423
0.002009958 -0.0054421537 -0.025120031 4288428074
0.0038851276 -0.0054055662 -0.025212873 4288558634
0.0055845007 -0.0045510144 -0.025935285 4288165423
0.0074566305 -0.0045143575 -0.026027882 4287968309
0.0095096827 -0.0052955076 -0.02549112 4286136899
-0.022146925 -0.0090544745 -0.023753749 4287052349
-0.019989565 -0.010660506 -0.022588102 4288557104
-0.01824218 -0.0098039545 -0.023312034 4289212199
-0.016357385 -0.0097681507 -0.02340607 4288297004
-0.014618397 -0.0089115854 -0.024129454 4288166698
-0.012291402 -0.011337494 -0.022335257 4288624423
-0.010401577 -0.011301295 -0.022429321 4289016868
-0.0088195652 -0.0096240006 -0.023781436 4288886053
-0.0072485581 -0.0079468684 -0.025132893 4288624424
-0.0052107573 -0.0087310467 -0.024597466 4288428073
-0.0031676739 -0.0095150154 -0.02406222 4288755494
-0.0012839884 -0.0094785467 -0.024155695 4288297258
0.00043211132 -0.008621756 -0.024877451 4288493608
0.002482906 -0.009405355 -0.024342425 4288362794
0.0040204152 -0.0077284165 -0.025691886 4288297004
0.0055468902 -0.0060515702 -0.02704078 4287969074
0.0074189454 -0.0060149631 -0.027133409 4288229684
-0.020438373 -0.0097024329 -0.025586016 4287185969
-0.016679779 -0.0096311299 -0.025773611 4288231214
-0.014509432 -0.011241008 -0.024611633 4287904559
-0.01247666 -0.012027836 -0.024077842 4288100399
-0.010438614 -0.012814467 -0.02354417 4288492843
-0.0088565871 -0.011132857 -0.024893096 4288624169
-0.007129088 -0.010274027 -0.025614075 4288689449
-0.0054071546 -0.0094152074 -0.026334703 4288689194
-0.0032050014 -0.01102397 -0.025173936 4288558889
-0.0013214126 -0.010987528 -0.025267424 4288559399
0.00072940439 -0.011773417 -0.024734091 4288166698
0.0024453029 -0.010914423 -0.025454206 4288755238
0.0041556284 -0.010055466 -0.02617399 4288297004
0.0055093318 -0.0075519811 -0.028146174 4288623148
0.00720305 -0.0066932193 -0.028865043 4288622129
-0.012810074 -0.011888761 -0.026443161 4286530618
-0.0092010349 -0.010991881 -0.027256308 4287642419
-0.0074790195 -0.010130998 -0.02797542 4288950313
-0.0057625696 -0.0092701148 -0.02869425 4288754219
-0.0035660416 -0.010883408 -0.027536392 4288623403
-0.0015233904 -0.011671748 -0.02700435 4288362283
0.00052454323 -0.012459891 -0.026472496 4288624423
0.0022377148 -0.011598822 -0.027190905 4288819753
0.0037725344 -0.0099132843 -0.028533844 4288688684
0.0051208884 -0.0074034301 -0.03050098 4288622383
0.0068091601 -0.0065426263 -0.031217992 4287247933
0.00015260279 -0.012315149 -0.028831169 4287380789
0.0018602908 -0.011452038 -0.029547721 4287642163
0.0035624132 -0.010588915 -0.030263979 4287968819
0.0050835386 -0.0088992817 -0.03160302 4288230195
0.0064155161 -0.0063832058 -0.033564515 4286855488
0.037107296 -0.0081847897 0.019153904 4282339183
-0.025818791 -0.0060132137 -0.0050928481 4282731629
-0.028023373 -0.0059783151 -0.0074155591 4282206074
-0.024195943 -0.0059064375 -0.0076071285 4282732648
-0.031887472 -0.0075816303 -0.0083523467 4281288584
-0.026400167 -0.0058627804 -0.0099233221 4282797928
-0.033837494 -0.0091487663 -0.0093847653 4281879673
-0.026690517 -0.0057741958 -0.012328673 4282666603
-0.037922408 -0.0091300644 -0.011599175 4282011253
-0.028753519 -0.0065223286 -0.01399391 4281943423
-0.030968066 -0.0079691624 -0.017409911 4282470254
-0.033372391 -0.0062527237 -0.020967644 4282012528
0.019851193 -0.0062865089 -0.031862505 4282994278
-0.025060929 -0.0078168269 -0.031366382 4282602088
-0.021334954 -0.0077466294 -0.031552706 4282468468
-0.021818362 -0.0082330825 -0.035615012 4282601068
-0.028097801 -0.0071244701 -0.04061849 4282798184
