# .PCD v0.7 - Point Cloud Data file format
VERSION 0.7
FIELDS x y z rgba
SIZE 4 4 4 4
TYPE F F F U
COUNT 1 1 1 1
WIDTH 575
HEIGHT 1
VIEWPOINT 0 0 0 1 0 0 0
POINTS 575
DATA ascii
0.0092395619 -0.00067626266 0.042323269 4290059563
0.01108326 0.00012182491 0.041545823 4287902264
0.013262786 -0.00059537729 0.042116307 4288883248
0.0070237517 -0.0015709042 0.040562205 4287247169
0.0083718896 0.0015091123 0.037768923 4288752434
0.010201938 0.0023091258 0.036993816 4290256933
0.012197003 0.0023493087 0.036891241 4289668904
0.014712051 0.00011025276 0.038804874 4291107614
0.01706706 -0.0013686428 0.040045813 4287379513
0.0060076565 0.0013902364 0.035346024 4289014318
0.0076699555 0.0029544691 0.033901736 4289211178
0.0094890594 0.0037564719 0.03312882 4290389788
0.011643738 0.0030344492 0.033697382 4289408549
0.013977006 0.0015506418 0.034936205 4290520603
0.016320914 6.7177229e-05 0.036174498 4288884268
0.018496692 -0.00065417308 0.036742158 4288818733
0.021222197 -0.0036606856 0.039319672 4287444793
0.0034948587 0.0020451145 0.032259732 4288425524
0.0051546395 0.0036135335 0.030818777 4289472808
0.0069684386 0.0044175852 0.030047661 4290520349
0.0087765977 0.0052215634 0.029276935 4288492588
0.010920234 0.0044971555 0.029844461 4289277989
0.013242401 0.0030087568 0.031080624 4289735969
0.015751213 0.00075665256 0.032984942 4289997088
0.017918676 3.2940414e-05 0.033551473 4289277479
0.020091318 -0.00069054076 0.034117766 4289210668
0.022269182 -0.0014138301 0.034683846 4289537579
0.024265341 -0.0013730773 0.03458162 4287248444
0.0013125539 0.0011804062 0.030518604 4289799464
0.0029752553 0.0027532242 0.029080639 4289276714
0.0049515739 0.0027928017 0.02897886 4289539619
0.0067626014 0.0035989499 0.02820955 4290848023
0.0085679889 0.0044050599 0.027440587 4291044883
0.010538206 0.0044448068 0.027339337 4291175954
0.012854703 0.0029519964 0.028572531 4291044883
0.015357815 0.00069317734 0.030472333 4290913558
0.01734098 0.00073344028 0.030370606 4290128413
0.019142516 0.0015399246 0.029602176 4289538853
0.0211225 0.0015802733 0.029500721 4289473573
0.023102231 0.0016207136 0.029399352 4289472808
0.024892196 0.0024271887 0.028631682 4290126883
0.027061023 0.0017017853 0.029196804 4289799464
0.029430039 0.00021068892 0.030427782 4286986814
0.00048774481 0.0034353323 0.026012896 4288818478
0.002296418 0.0042434288 0.025245184 4289211943
0.0044240206 0.0035140794 0.025810117 4289147174
0.0063918456 0.0035535917 0.025708852 4289736479
0.008359462 0.0035932064 0.025607677 4290194458
0.010156415 0.0044014333 0.024840839 4290914324
0.01281359 0.0013671741 0.027402272 4290652183
0.014964633 0.00063871779 0.027966386 4290128668
0.017120883 -8.9518726e-05 0.028530242 4290063389
0.018556938 0.0022558114 0.02643322 4289932319
0.020344608 0.0030642925 0.025667185 4290389788
0.022126585 0.0038727224 0.024901493 4290258718
0.024092428 0.0039129537 0.024800891 4290847513
0.026250221 0.003185167 0.025364975 4290388769
0.028608166 0.0016894899 0.0265933 4291303709
0.031174436 -0.00057394058 0.028485497 4288752688
-0.0013667718 0.0010469435 0.025614014 4289081383
0.00013387203 0.0033993134 0.023517916 4290717209
0.0019370392 0.0042094812 0.022752102 4291241233
0.0042212754 0.0027069291 0.023980303 4291044883
0.0063512176 0.0019755475 0.024543578 4289932829
0.0084864125 0.0012443913 0.025106667 4289670943
0.010456428 0.0012841458 0.025005436 4290455833
0.012599356 0.00055329222 0.025568239 4289997853
0.014571629 0.00059327763 0.025467029 4290194203
0.016543724 0.00063332077 0.025365872 4290324764
0.017971709 0.0029849885 0.023274148 4290390044
0.019383155 0.0053364635 0.021183306 4290585884
0.02115152 0.0061467988 0.020419925 4289343014
0.023293093 0.0054164361 0.020983182 4289473828
0.025824226 0.0031456174 0.022872239 4289997344
0.027981631 0.0024157148 0.023434786 4289539363
0.030341871 0.00091578905 0.024659814 4289276714
0.033113375 -0.0021241158 0.027209563 4289408294
0.035500281 -0.00362332 0.028433355 4289145133
-0.0035293996 0.00020103017 0.023885494 4289276204
-0.0018690526 0.0017867307 0.02245722 4289343524
-0.00021977723 0.0033722371 0.021029612 4291109909
0.001577884 0.0041845022 0.020265719 4291241233
0.0038564503 0.0026775207 0.021490943 4291437584
0.0059807748 0.0019438746 0.022052912 4291045139
0.0082779974 0.00043739239 0.023277342 4289932573
0.010415517 -0.000295809 0.023838764 4289932573
0.012558274 -0.0010288218 0.024399983 4290194203
0.014530465 -0.00098884758 0.024298767 4290193948
0.016323932 -0.00017602229 0.023535563 4290128158
0.017749265 0.0021821735 0.021448776 4290586138
0.019158073 0.0045400942 0.019362951 4290585628
0.020550333 0.0068977857 0.01727798 4290847513
0.022494212 0.0069376072 0.017178532 4290258973
0.024822094 0.0054325229 0.018401891 4290062623
0.027355433 0.0031552883 0.020286052 4290258974
0.029707313 0.001650821 0.021508349 4289669159
0.032670602 -0.0021702719 0.024713047 4289079853
-0.0061319694 0.0016865558 0.020174086 4287706168
-0.0044768974 0.0032764273 0.01874925 4289145899
-0.0028328896 0.0048661167 0.017325092 4290193439
-0.00088658184 0.004904951 0.017224751 4289408804
0.0010595322 0.0049438654 0.017124483 4289605664
0.0034918338 0.0026570568 0.019008262 4290390809
0.0057754144 0.0011459109 0.020230072 4290521624
0.0080696717 -0.00036497088 0.021451442 4290194204
0.010204308 -0.0011004019 0.022011405 4290259483
0.012171179 -0.0010606195 0.021910403 4290128413
0.013962097 -0.00024575414 0.021148879 4290193948
0.01556889 0.0013440591 0.019727202 4289735458
0.017345756 0.0021588206 0.018966535 4290455324
0.018749192 0.0045232121 0.016885782 4290389534
0.020509325 0.0053377626 0.01612607 4290585884
0.022263795 0.0061522862 0.015366713 4290978328
0.02439671 0.0054174596 0.015927237 4290847769
0.026924349 0.0031335717 0.017806854 4289605408
0.02966556 7.5546559e-05 0.0203452 4288754218
0.032428272 -0.0029819289 0.022882449 4288818479
-0.0066170692 0.0024511758 0.017034536 4289341483
-0.0048189759 0.0032675201 0.016273631 4289800738
-0.0030265078 0.0040838616 0.015513098 4290913559
-0.0012396723 0.0049002003 0.014752939 4290521114
0.00054150075 0.0057165707 0.013993099 4289997854
0.0029653609 0.0034230473 0.015872467 4290390299
0.0052405521 0.0019073719 0.017091481 4290782744
0.007526435 0.00039197132 0.018310061 4290193949
0.0096527487 -0.00034579961 0.018868845 4290063134
0.011611328 -0.00030616252 0.018768284 4290193694
0.01356972 -0.00026645605 0.018667789 4289997343
0.014992692 0.0021047322 0.016590772 4289539363
0.016761363 0.0029214937 0.015832128 4290324509
0.018524401 0.0037382292 0.015073838 4289932064
0.020468317 0.0037779687 0.014974324 4290324509
0.022412017 0.0038177865 0.014874885 4290586139
0.024355516 0.003857662 0.014775502 4290455324
0.026882902 0.0015672399 0.016650302 4289800738
0.029623799 -0.0014994987 0.019182218 4288361264
0.032386191 -0.0045657023 0.021713031 4286333248
-0.0086059421 0.0008507967 0.015981939 4288883504
-0.0069534034 0.0024491763 0.014563646 4289603624
-0.0051608384 0.0032676291 0.013804669 4289669923
-0.0033738911 0.0040860763 0.013045983 4289866529
-0.001749143 0.0056842305 0.011629367 4290324764
0.00018312037 0.0057228915 0.011529829 4291175444
0.0026012585 0.0034227148 0.013404654 4291175444
0.0048707649 0.0019025924 0.014620751 4290913558
0.0071509778 0.00038274098 0.015836339 4290259228
0.0092716962 -0.00035736617 0.01639384 4290128414
0.011224739 -0.00031783711 0.016293567 4289735969
0.013001941 0.00050116982 0.015535945 4289866529
0.014416851 0.0028786855 0.013464222 4291305749
0.016358383 0.0029182257 0.013364719 4291043864
0.01811593 0.0037370324 0.012608329 4291044119
0.020427302 0.0022184262 0.013822768 4290258973
0.022560127 0.0014791768 0.014380027 4289997344
0.024890125 -3.8971193e-05 0.01559365 4289669924
0.027425393 -0.0023357256 0.017463164 4289408804
0.029976763 -0.0046321228 0.019331951 4286267969
-0.010737628 3.2931566e-05 0.014272125 4288295219
-0.0092278644 0.0024178168 0.012199491 4289474084
-0.0075862557 0.0040203668 0.010785006 4290390553
-0.0055024922 0.0032767216 0.011342267 4289212453
-0.0035672486 0.0033152541 0.011242436 4289604898
-0.0016321912 0.0033538537 0.011142669 4289604898
0.00030268729 0.0033925725 0.011042999 4290324764
0.0023993328 0.0026495745 0.011599883 4289866784
0.0045012236 0.00190674 0.012156615 4289736223
0.006608367 0.0011641304 0.012713088 4289997854
0.0088908598 -0.00035992172 0.013925416 4289997853
0.010665514 0.00046108989 0.01316952 4290324763
0.012258969 0.0020635817 0.01175819 4289866784
0.013663054 0.0044474648 0.0096918195 4290782488
0.015774608 0.003705373 0.010248385 4290324764
0.017707691 0.0037448276 0.01014938 4291175189
0.020013414 0.002221711 0.011360934 4290063134
0.02232983 0.00069889007 0.012571922 4289408293
0.024848767 -0.0016048336 0.014437439 4289538853
0.027578391 -0.0046893423 0.01695695 4289276714
-0.011205412 0.00082696741 0.011153197 4288557103
-0.0097037777 0.0032181917 0.0090858676 4290520349
-0.007773757 0.0032564048 0.0089861471 4291043864
-0.0058439001 0.0032947464 0.0088865329 4291175189
-0.0037604794 0.0025490113 0.0094422698 4290586394
-0.001671806 0.0018035006 0.0099978205 4289801249
0.00042212754 0.0010581673 0.010553155 4289670433
0.0021975115 0.0018809997 0.0097985603 4289343524
0.0042965189 0.0011359588 0.010353774 4289016358
0.0065681338 -0.00039279973 0.011563415 4289212708
0.0086803436 -0.0011373931 0.012118084 4290194204
0.010279439 0.00046951184 0.010709643 4290455579
0.011691935 0.0028600208 0.0086476207 4290586394
0.013087936 0.0052502751 0.0065865046 4289081639
0.015191175 0.0045058355 0.007141884 4289277989
0.017483346 0.0029779775 0.0083508268 4289997598
0.019599773 0.0022339616 0.0089056436 4289670689
0.022288725 -0.00086022215 0.011420691 4289800738
0.025191046 -0.0047372766 0.014588015 4289408038
0.02773124 -0.0070470478 0.016447645 4286660413
-0.013042785 -0.0015501711 0.010761579 4289276459
-0.011530064 0.00084774056 0.0086983889 4289865508
-0.0098883212 0.0024589654 0.0072902436 4289800993
-0.0081093833 0.0032835733 0.0065367254 4289997344
-0.006185092 0.0033217818 0.0064373813 4290520858
-0.0036462322 0.00021474157 0.0089528691 4291044374
-0.0015550181 -0.00053290324 0.0095066708 4289735969
0.0003823489 -0.00049414253 0.0094068702 4289801248
0.0019958168 0.0011170283 0.0080006346 4289670689
0.0039273649 0.0011558672 0.0079012755 4289212708
0.0058587193 0.0011947863 0.0078019896 4289474594
0.00778988 0.0012337975 0.0077027841 4289670688
0.0095481128 0.0020588329 0.0069509572 4289997599
0.011125267 0.0036697723 0.0055468841 4291174934
0.012691349 0.0052805189 0.0041434742 4290913559
0.014608122 0.0053195525 0.0040452401 4290978838
0.017075509 0.0030014925 0.0059034904 4290913814
0.019372672 0.0014694706 0.0071090194 4290063134
0.022058614 -0.0016334881 0.0096177738 4289342758
0.025149591 -0.006307058 0.01342891 4287772468
-0.015434809 -0.00077601429 0.0077555575 4286462788
-0.013781883 0.00083956355 0.006349891 4289341994
-0.011997238 0.0016662613 0.0055975425 4290455069
-0.010363668 0.0032816185 0.0041930708 4289277989
-0.0085929707 0.004108239 0.0034415885 4289146919
-0.0065260604 0.0033577345 0.0039948891 4289669923
-0.0039929971 0.00024186075 0.0065042204 4290128414
-0.0022200942 0.0010688654 0.0057528052 4290390043
-0.00029373169 0.001107397 0.0056535634 4290128668
0.0013088733 0.0027227253 0.0042511239 4289670689
0.0033939183 0.0019730679 0.0048038471 4289474594
0.0051497817 0.0028000372 0.004053609 4289539874
0.0070699602 0.0028388202 0.0039549614 4289670688
0.0089899376 0.0028776946 0.0038563977 4289604899
0.010909729 0.0029166266 0.003757888 4289997599
0.01265122 0.003743655 0.0030086464 4290390043
0.014567889 0.0037826998 0.0029104264 4290455834
0.017035015 0.0014580828 0.0047638402 4290455834
0.019518249 -0.00086615374 0.0066165389 4289800993
0.022206567 -0.0039777891 0.0091187097 4288818988
-0.017675556 -0.00077915611 0.0054100514 4287248188
-0.016022466 0.00084060524 0.0040075467 4289080363
-0.014240474 0.0016693519 0.0032568895 4289277224
-0.01260677 0.0032889992 0.0018555103 4290520859
-0.011129513 0.0056993579 -0.00019604154 4290913559
-0.0093724877 0.0065278709 -0.00094521698 4290258718
-0.0071685165 0.0049841702 0.00025777705 4290716698
-0.0046466663 0.0018593674 0.0027612452 4290782488
-0.0025721118 0.0011070073 0.0033126655 4290455323
-0.0008103326 0.0019360236 0.0025635469 4290586649
0.00094583631 0.002764998 0.0018147728 4290194204
0.0028608367 0.0028034989 0.0017162613 4289670688
0.0046084672 0.0036325399 0.00096802646 4290782233
0.00635048 0.0044615185 0.00022019353 4291044374
0.0082594901 0.0045001414 0.0001221695 4289931553
0.010518968 0.0029583275 0.001322953 4289277479
0.012611091 0.0022070324 0.0018739947 4289866784
0.014708444 0.0014559128 0.0024248194 4289866529
0.017178036 -0.00087523647 0.004273307 4289866019
0.019849926 -0.0039959894 0.0067698215 4289604133
0.022732303 -0.0079062171 0.0099139158 4286006338
-0.020036787 2.0219479e-05 0.0024207276 4287052859
-0.018655248 0.0032307161 -0.0002781963 4289080618
-0.016884066 0.0040613096 -0.0010267696 4289539874
-0.014978558 0.004098732 -0.0011254484 4289474339
-0.013073206 0.0041362708 -0.0012240307 4289866784
-0.011313371 0.0049669305 -0.0019718038 4290324764
-0.0095591396 0.005797632 -0.0027192465 4291044119
-0.007358104 0.0042494489 -0.0015193019 4291174934
-0.0051463768 0.0027016457 -0.00031986041 4290651673
-0.0032363981 0.0027397582 -0.00041832589 4290194204
-0.0013265908 0.0027779629 -0.00051671127 4290325019
0.00058304518 0.0028162487 -0.0006150254 4290259483
0.00249248 0.0028546397 -0.0007132492 4289997854
0.0042346492 0.0036856802 -0.0014595659 4291175189
0.0061409995 0.0037241848 -0.0015575015 4291043864
0.0080471784 0.0037627583 -0.0016553742 4291109143
0.010128453 0.0030089831 -0.0011054473 4289735459
0.012214988 0.0022553848 -0.00055573881 4289931808
0.014487468 0.00070960773 0.00064124726 4289800483
0.016954057 -0.0016280878 0.0024850164 4289931298
0.019809082 -0.005549876 0.0056224414 4288622894
0.022879951 -0.010263175 0.0094055068 4287052858
-0.020469986 0.00087060267 -0.00065879058 4287248698
-0.018962108 0.0032942081 -0.0027025675 4289800483
-0.017333589 0.0049222466 -0.0040973928 4290193439
-0.015296526 0.0041642096 -0.0035476889 4289474339
-0.01339674 0.0042016394 -0.0036459828 4289408803
-0.011351801 0.0034438968 -0.0030965095 4289408803
-0.0094496086 0.0034815734 -0.0031947813 4289670178
-0.0073968396 0.0027242312 -0.0026456045 4289670178
-0.005338788 0.0019670771 -0.0020966383 4289932318
-0.0034316555 0.0020051403 -0.0021949525 4290324764
-0.0015246794 0.0020432835 -0.0022931953 4290324764
0.00038211048 0.0020815199 -0.0023913581 4290194204
0.002124384 0.0029146718 -0.00313612 4290586394
0.0038610473 0.0037477855 -0.0038805385 4290520348
0.0057618767 0.0037861681 -0.003978197 4289735459
0.0078350231 0.0030299388 -0.0034295479 4291043864
0.0099134222 0.0022739219 -0.0028810904 4290455069
0.012175009 0.00072351983 -0.0016868785 4289931808
0.014447287 -0.00082662189 -0.00049310829 4290062113
0.016913615 -0.0031708498 0.0013458417 4290192928
0.01958216 -0.0063091405 0.0038295989 4286660414
0.024409287 -0.010201285 0.0068580951 4286398528
-0.021034494 0.0025319504 -0.0043752315 4289015339
-0.019537471 0.0049618473 -0.0064136339 4290586139
-0.017919861 0.0065940414 -0.0078046587 4291043864
-0.015754052 0.0050360635 -0.0066096275 4291044374
-0.013577521 0.0034784405 -0.0054151188 4290717209
-0.011390232 0.0019210679 -0.004221064 4289932319
-0.0094881579 0.0019587297 -0.0043193391 4290193949
-0.0075862482 0.0019964846 -0.0044175335 4290062879
-0.0055310875 0.0012371 -0.0038700269 4290128413
-0.0039390549 0.0028694933 -0.0052592088 4290128668
-0.00188151 0.0021103071 -0.0047116401 4290455578
-0.0001418367 0.0029455097 -0.0054547857 4290782488
0.0017565191 0.0029836455 -0.0055524637 4291044119
0.0033206791 0.0046157632 -0.0069399262 4289604644
0.0053829774 0.003857079 -0.0063923737 4289146663
0.0072780699 0.0038953973 -0.0064897006 4289539618
0.0095233247 0.0023401808 -0.0052978941 4289735459
0.011601396 0.0015820498 -0.0047509791 4289800738
0.014226504 -0.0015659882 -0.0022715568 4289604389
0.016873181 -0.004713444 0.00020679133 4286856763
-0.02258572 -0.0014251363 -0.003463492 4288752688
-0.021203786 0.0018114094 -0.0061431616 4289668904
-0.01957516 0.0034480151 -0.0075315782 4289800739
-0.018094584 0.0058842823 -0.0095642488 4290258718
-0.016071506 0.0051215794 -0.0090170708 4290062624
-0.01390063 0.0035594376 -0.0078254566 4290717209
-0.011719026 0.0019976515 -0.0066343658 4289670434
-0.0096746087 0.0012356704 -0.0060880687 4289932063
-0.0077755302 0.0012733638 -0.0061861216 4289735713
-0.0060299858 0.0021105632 -0.0069281054 4289801248
-0.0044461042 0.0037470656 -0.0083136307 4290324764
-0.0023968816 0.0029855641 -0.0077672978 4290128413
-0.00034239143 0.0022242516 -0.007221173 4290063389
0.0015531257 0.0022623371 -0.0073186997 4290978583
0.0031145811 0.0038987566 -0.0087027987 4291175189
0.0050043166 0.0039368719 -0.0087999199 4291175444
0.0068938807 0.0039750934 -0.0088969506 4291109909
0.0091334805 0.00241544 -0.0077081271 4290913558
0.011739455 -0.00074178632 -0.0052342364 4289081384
0.014547512 -0.0046973545 -0.0021187733 4289081384
-0.025036052 0.00021966733 -0.0070671062 4288688428
-0.023267493 0.0010585645 -0.0078093596 4289276459
-0.021504492 0.0018974482 -0.0085512549 4290192674
-0.020015594 0.0043403069 -0.010579599 4290258719
-0.018406168 0.0059809834 -0.011963729 4289016104
-0.016388692 0.0052160006 -0.011417866 4289604644
-0.014081106 0.002847624 -0.0095862597 4289866274
-0.012047589 0.0020831283 -0.0090410272 4290063134
-0.010156639 0.0021205228 -0.009138762 4289670433
-0.0082658529 0.0021580458 -0.0092363907 4289539363
-0.0063752159 0.0021956507 -0.0093339495 4289539874
-0.0046407729 0.0030349186 -0.010073739 4289409059
-0.0027531758 0.0030726371 -0.010171011 4289866784
-0.00070428103 0.0023089983 -0.0096261632 4289605154
0.0013498738 0.0015455843 -0.0090815742 4289605154
0.0032424033 0.0015836535 -0.0091789141 4289801504
0.0051347613 0.0016218275 -0.0092761647 4290914068
0.0070269331 0.001660082 -0.0093733445 4290848279
0.0089189485 0.0016984059 -0.0094704628 4289669923
0.011521876 -0.0014676079 -0.0070028729 4288623149
-0.026600868 -0.0037478646 -0.0061621964 4287836473
-0.025325488 0.00031051552 -0.0094723869 4288361519
-0.023691215 0.0019557732 -0.010854849 4289407273
-0.022067931 0.0036008377 -0.012236649 4290324254
-0.020321485 0.0044416953 -0.012975987 4290716698
-0.018717527 0.0060866466 -0.014356663 4290585884
-0.016705677 0.0053193746 -0.013812123 4291109143
-0.014546156 0.0037482642 -0.012626395 4290978328
-0.012375921 0.0021775346 -0.01144117 4289997598
-0.010342725 0.0014109593 -0.010897528 4289997599
-0.0084547698 0.0014484087 -0.010995023 4289670688
-0.0067202225 0.0022897152 -0.011733238 4289867039
-0.0049912557 0.0031309836 -0.01247111 4290717464
-0.0031092167 0.0031685932 -0.012568094 4290979094
-0.0010659471 0.0024026986 -0.012024619 4290455578
0.00098261237 0.0016369689 -0.01148137 4289670689
0.0030364618 0.00087139336 -0.010938285 4289605154
0.0049259961 0.00090949377 -0.011035403 4289932319
0.0069876388 0.00014429307 -0.01049263 4289800993
0.0090545416 -0.00062074233 -0.0099500865 4289408293
0.011837564 -0.0045986846 -0.0068495218 4287707188
0.014647588 -0.0085759964 -0.0037502826 4286530109
-0.025362745 -0.0012026615 -0.010589875 4288230448
-0.023985881 0.0020597428 -0.01325007 4289211433
-0.022368073 0.0037091188 -0.01462839 4289408293
-0.020627145 0.0045520347 -0.015365837 4290062368
-0.019028649 0.0062011806 -0.016742975 4290913049
-0.016882837 0.0046253847 -0.015559878 4290716698
-0.014726266 0.0030498747 -0.014377212 4290455069
-0.012703992 0.002280809 -0.013834691 4289997344
-0.010824166 0.0023179948 -0.013931841 4289800993
-0.0089444816 0.0023552645 -0.01402892 4289801248
-0.0070649609 0.0023926254 -0.014125921 4289931808
-0.0053415075 0.0032359408 -0.014861913 4291239958
-0.0033063889 0.0024676034 -0.014319705 4291043864
-0.0012659952 0.0016994309 -0.013777724 4291305494
0.00094374269 0.00012576394 -0.012597292 4291175189
0.0028306395 0.0001636981 -0.012694359 4289408803
0.0048868656 -0.00060394453 -0.012152961 4289408038
0.0067761317 -0.00056580035 -0.012250029 4289604388
0.0091900378 -0.0029440606 -0.010432789 4289342758
-0.026675619 -0.0067957612 -0.0084131025 4287247934
-0.025399972 -0.0027156344 -0.011707215 4288295219
-0.024023034 0.00055546779 -0.014360977 4288885033
-0.022405248 0.0022092042 -0.01573607 4288885544
-0.02066439 0.0030542631 -0.016471924 4289015848
-0.019065909 0.0047077453 -0.017845852 4289866529
-0.017199382 0.004744363 -0.01794254 4289800993
-0.01519075 0.0039727446 -0.017401002 4289800993
-0.013031833 0.0023930352 -0.016221674 4289800993
-0.011009872 0.0016218317 -0.015680639 4289800993
-0.0092834532 0.0024672467 -0.016415346 4289931808
-0.0077157468 0.004120715 -0.017787242 4289670434
-0.0060032159 0.0049659833 -0.018521065 4290258718
-0.0038205758 0.0033872165 -0.01734261 4290193694
-0.0016271919 0.001808688 -0.016164619 4290782744
0.00024887174 0.0018463237 -0.016261188 4290913559
0.0021247938 0.0018840292 -0.016357696 4289016103
0.0041699782 0.0011140238 -0.015817389 4289931553
0.0067369416 -0.0020790475 -0.013367442 4289865764
0.009500362 -0.0060792444 -0.010282048 4286529598
-0.026959267 -0.0066975886 -0.010813419 4288032569
-0.025437195 -0.0042283796 -0.012824386 4288360754
-0.023802981 -0.0025701255 -0.014197225 4288820264
-0.022048458 -0.0017227298 -0.014932258 4288427818
-0.020433534 -6.4694788e-05 -0.016303904 4288754729
-0.018829636 0.0015933015 -0.017674923 4289277734
-0.017097265 0.0024405476 -0.018408597 4289081128
-0.015086085 0.0016667936 -0.017868808 4289473574
-0.013359442 0.0025141425 -0.018602027 4289866273
-0.011490732 0.0025510751 -0.018698629 4289997344
-0.0099228621 0.0042087743 -0.020067403 4289800738
-0.0080598891 0.0042457609 -0.020163585 4290716698
-0.0063528717 0.0050931592 -0.020895539 4289342758
-0.0043343753 0.0043200143 -0.020355711 4288950569
-0.0023106262 0.0035471404 -0.019816104 4289669923
-0.00044553727 0.0035845358 -0.019912124 4289277479
0.0015860721 0.0028119804 -0.019372804 4290258718
0.0043005198 -0.0012002895 -0.016293099 4290062113
0.0070419833 -0.0052119405 -0.013214728 4289276714
-0.026873387 -0.0090297805 -0.011299327 4288883504
-0.025222756 -0.0073669734 -0.012669884 4288689449
-0.023583122 -0.0057043112 -0.014039746 4288362283
-0.021954492 -0.0040417109 -0.015408996 4288231723
-0.02033687 -0.0023792798 -0.016777569 4288296748
-0.018456854 -0.0023425207 -0.016875049 4288231469
-0.016855828 -0.0006801663 -0.018242652 4288362284
-0.015123665 0.00016936427 -0.018974621 4288427564
-0.013541929 0.0018314882 -0.020341041 4288754474
-0.011676051 0.0018683341 -0.020437518 4289081128
-0.010110937 0.003530358 -0.021802986 4289604388
-0.0084038004 0.0043797595 -0.022533391 4290978328
-0.0063907802 0.0036043013 -0.021994986 4290913049
-0.004530929 0.0036413893 -0.022090886 4290651673
-0.0025100335 0.0028662141 -0.021552719 4290586393
-0.00064776838 0.0029035239 -0.021648614 4290651929
0.001547575 0.0013165111 -0.020477105 4289800738
0.0042616576 -0.0027066662 -0.017405448 4288753963
0.0071747825 -0.0075413077 -0.013701731 4286726204
-0.027156733 -0.0089203296 -0.013691315 4288098613
-0.025134273 -0.0096988808 -0.013155827 4288099124
-0.023363456 -0.0088469582 -0.01388859 4288362029
-0.021729399 -0.0071799606 -0.015254872 4288100654
-0.02010636 -0.005513039 -0.016620554 4288296748
-0.018084392 -0.0062911669 -0.016084719 4288492844
-0.016614564 -0.0038094472 -0.018082961 4288165679
-0.014877029 -0.0029576782 -0.018813631 4288165679
-0.013289869 -0.0012910631 -0.020177159 4288820263
-0.011713721 0.00037539471 -0.021540003 4289539618
-0.010148607 0.0020417543 -0.02290226 4288754474
-0.0084415302 0.0028933119 -0.023631064 4289342758
-0.0064286739 0.0021156343 -0.023094291 4289866784
-0.004568927 0.0021527205 -0.023190185 4290848023
-0.0027093291 0.0021898514 -0.023286035 4290586648
-0.00068601966 0.0014126101 -0.022749558 4289736224
0.0020087957 -0.0026219261 -0.019685032 4289343014
0.0048999265 -0.0074701556 -0.015989911 4288950313
-0.029451352 -0.0080209784 -0.016611138 4287966524
-0.027193855 -0.01043687 -0.014811303 4287705913
-0.025297295 -0.010400239 -0.014909975 4287968308
-0.023529276 -0.0095462222 -0.015641002 4287772723
-0.021897964 -0.0078749023 -0.017003978 4288034608
-0.020009916 -0.0078381216 -0.017101973 4288100399
-0.018121995 -0.0078012589 -0.017199902 4288296493
-0.016512811 -0.0061301244 -0.018561471 4288623913
-0.014772609 -0.0052761398 -0.019290678 4288493098
-0.013037987 -0.0044221822 -0.020019535 4288689449
-0.011456415 -0.0027512328 -0.021379486 4289016613
-0.0097356662 -0.0018973514 -0.022107478 4289278243
-0.0081733912 -0.00022668066 -0.023466282 4288950823
-0.0063108802 -0.00018966617 -0.023562411 4288558123
-0.0047652349 0.0014809035 -0.024920261 4289081384
-0.0025862977 -0.0001153932 -0.023754461 4289735459
-0.00056044757 -0.00089473464 -0.023219781 4289342758
0.0023032203 -0.0057566832 -0.019532993 4289473319
-0.025837157 -0.0086384434 -0.018553706 4287771703
-0.023823343 -0.0094214221 -0.01802092 4288033843
-0.021804184 -0.010204259 -0.01748831 4288099633
-0.02004737 -0.0093480311 -0.018217031 4288034608
-0.018159568 -0.0093111591 -0.018314945 4288231214
-0.016550392 -0.0076357112 -0.019673321 4288428073
-0.014810264 -0.0067795729 -0.020400928 4289016868
-0.0132204 -0.0051042493 -0.021758193 4289409569
-0.01149413 -0.0042481986 -0.022484945 4288951334
-0.0099235773 -0.0025731053 -0.023841025 4288493353
-0.0079054609 -0.003355134 -0.023307821 4288624169
-0.0063487664 -0.0016801651 -0.024663074 4289147173
-0.0048030987 -5.2829273e-06 -0.026017733 4289408804
-0.002785407 -0.00078708027 -0.025484329 4288819499
-0.0004349649 -0.0032062854 -0.023693113 4289603878
0.0024309903 -0.0080812508 -0.020016111 4286595134
-0.024117164 -0.0092878491 -0.020394288 4287183674
-0.022103634 -0.010072919 -0.01986303 4287968819
-0.020084795 -0.010857785 -0.019331975 4288296238
-0.018333599 -0.0099994522 -0.020058692 4288362029
-0.016587958 -0.0091411555 -0.020785067 4289212963
-0.01484789 -0.0082828607 -0.021511076 4289016614
-0.01325804 -0.0066032256 -0.022865145 4288886053
-0.011384457 -0.0065662921 -0.022962069 4288755239
-0.0095110089 -0.0065293014 -0.023058942 4288558889
-0.0074848905 -0.0073134042 -0.02252773 4288951078
-0.0060755759 -0.0048127789 -0.024508042 4289212964
-0.0045244396 -0.0031335116 -0.025859741 4288623913
-0.0028233975 -0.0022753412 -0.026583329 4288230448
-0.00030954182 -0.005522042 -0.024169551 4287249209
-0.018234625 -0.012330552 -0.020544734 4288295984
-0.016625471 -0.010646431 -0.02189669 4288623914
-0.014743604 -0.010609543 -0.021994198 4288427564
-0.013151027 -0.0089255702 -0.023345167 4288689448
-0.011127532 -0.0097120693 -0.022815628 4288624424
-0.0093987882 -0.0088516027 -0.023539277 4288951589
-0.0075228736 -0.0088144597 -0.0236362 4289016613
-0.0061134845 -0.0063073402 -0.025611708 4288296748
-0.0045623481 -0.00462376 -0.026960218 4288296493
-0.0027004406 -0.0045866594 -0.027056245 4288165169
-2.0571053e-05 -0.0086651957 -0.024023293 4286725948
-0.016662978 -0.012151551 -0.023008199 4287707698
-0.014781214 -0.0121147 -0.023105728 4288623403
-0.012755051 -0.012903441 -0.022578025 4289212453
-0.01101806 -0.012040732 -0.02330056 4289082148
-0.0092866495 -0.011178061 -0.024022756 4288624168
-0.0077135116 -0.0094898194 -0.025369348 4288362539
-0.0059959516 -0.0086272378 -0.026090687 4288231468
-0.0044421107 -0.0069392724 -0.027436133 4288165678
-0.002416715 -0.0077275229 -0.026908016 4287903539
-0.00038604438 -0.0085155834 -0.026380111 4287118139
0.001816228 -0.010128779 -0.025228368 4287706423
-0.013226219 -0.011927115 -0.025561737 4287380023
-0.01149746 -0.01106236 -0.026282284 4287772468
-0.0096243322 -0.011025459 -0.026379203 4288165423
-0.0079039857 -0.010160755 -0.027099159 4288034608
-0.0061891973 -0.0092960652 -0.027818754 4288231214
-0.0044799745 -0.0084314365 -0.028538028 4288165423
-0.0024547502 -0.0092218928 -0.028011534 4287641398
-0.010261476 -0.0092042051 -0.029972401 4287445303
-0.0082468912 -0.0099973176 -0.029447166 4287969074
-0.0062269941 -0.010790251 -0.028922154 4288034608
-0.004517816 -0.0099234805 -0.029639838 4288295984
-0.0026534721 -0.0098864343 -0.029736064 4287445048
-0.0065752119 -0.010620307 -0.031264991 4286595388
-0.0050294921 -0.0089195129 -0.032600474 4289080619
-0.0033340678 -0.0080507901 -0.033315804 4286006084
0.034070432 -0.006459828 0.041379303 4282667878
0.043314874 -0.0082433484 0.024495617 4281554549
-0.032162026 -0.0085233795 -0.0068361918 4282337399
-0.036568906 -0.0060684998 -0.010956334 4282402933
-0.034446873 -0.007654584 -0.0097792018 4282665839
-0.038641635 -0.0064219418 -0.031014418 4282862954
-0.024490312 -0.0087040272 -0.038625527 4282733159
-0.024787527 -0.008493213 -0.040941574 4282667623
-0.025084469 -0.0082736835 -0.043251112 4282405228
-0.0066728294 -0.010224985 -0.044670589 4282732903
-0.0076914057 -0.0080593927 -0.050475419 4282339948
