# .PCD v0.7 - Point Cloud Data file format
VERSION 0.7
FIELDS x y z rgba
SIZE 4 4 4 4
TYPE F F F U
COUNT 1 1 1 1
WIDTH 691
HEIGHT 1
VIEWPOINT 0 0 0 1 0 0 0
POINTS 691
DATA ascii
-0.0032558516 0.00018171081 0.024821086 4286006084
0.019062445 -0.0040937783 0.027552899 4287903029
-0.030246317 -0.0035022944 0.026486475 4286528578
-0.028607778 -0.0010908437 0.024419218 4288948528
-0.026880678 0.00052955654 0.023005709 4288492588
-0.025056858 0.0013591559 0.022245407 4290650653
-0.023349024 0.0029793992 0.020833142 4290061603
-0.021312673 0.0022276123 0.021378292 4290715168
-0.019271001 0.0014760331 0.02192322 4289079853
-0.017223984 0.00072466163 0.022467997 4288752689
-0.015171647 -2.6466325e-05 0.023012506 4289210669
-0.01311399 -0.00077736331 0.02355681 4289145389
-0.011304602 5.269656e-05 0.022797946 4289145134
-0.0095007941 0.0008827704 0.022039488 4289210668
-0.0078348182 0.0025031469 0.020630207 4290976543
-0.0059099421 0.0025429488 0.020523705 4290454048
-0.0039852113 0.0025828551 0.020417288 4289865509
-0.0017798245 0.0010426422 0.021612447 4288688939
0.00043628365 -0.00049720332 0.022807045 4289080363
0.0026631355 -0.0020367631 0.02400117 4289603368
0.0044549853 -0.0012061365 0.023243893 4289014574
0.0060899481 0.00041426858 0.021836903 4289210669
0.0074058324 0.0036142287 0.019130634 4289079854
0.0093266964 0.0036547682 0.019024961 4289930024
0.011406854 0.0029057055 0.019569039 4290976544
0.013978794 -0.00021208264 0.022061516 4289733929
0.015912734 -0.0001709871 0.021955334 4288294963
0.018181711 -0.0017088593 0.023147736 4288883759
0.019950382 -0.00087797455 0.022392292 4289604643
0.022059537 -0.0016260154 0.022935152 4289734438
0.023470834 0.00078363391 0.020882621 4289472554
0.025401115 0.00082507962 0.020776957 4291630619
0.027331181 0.00086661754 0.020671375 4291630619
0.029812835 -0.0014593049 0.022510909 4290845219
0.032123968 -0.0029956799 0.02370137 4288424503
0.034445733 -0.0045317123 0.024891336 4288293433
-0.030484349 -0.0034697535 0.024031125 4286201923
-0.029055692 0.00053422013 0.020666586 4288688684
-0.027339529 0.0021587689 0.019256935 4289212964
-0.025634371 0.0037832423 0.017847929 4290389533
-0.023829807 0.0046146936 0.017090444 4289408038
-0.021804556 0.0038604983 0.017634585 4289800739
-0.020005658 0.0046920697 0.016877588 4290128158
-0.017856617 0.0031454531 0.018071968 4289146918
-0.015939385 0.0031845248 0.017965462 4289212453
-0.013898265 0.0024311175 0.018509068 4289147174
-0.011978567 0.0024704742 0.018402599 4289931808
-0.010188457 0.0033024442 0.017646518 4290127648
-0.0084039345 0.0041344524 0.016890787 4290520094
-0.0064900815 0.0041740225 0.016784888 4290324254
-0.0044387504 0.0034213443 0.017328391 4290716443
-0.0023821294 0.002668886 0.017871607 4289604898
-0.0003202185 0.001916694 0.018414646 4289867039
0.0017469823 0.0011646845 0.018957451 4289604133
0.0036709607 0.0012049959 0.018851388 4289407784
0.0052923113 0.0028294637 0.017448379 4288687918
0.0069026053 0.0044538663 0.01604603 4290454048
0.0088151842 0.0044942382 0.015940819 4290388514
0.010887004 0.0037427829 0.01648378 4290454050
0.013288312 0.001407973 0.018322311 4290061859
0.015211254 0.0014488264 0.018216725 4289212199
0.017301574 0.00069807703 0.01875883 4289604133
0.019056603 0.0015308107 0.018005798 4289800993
0.020979002 0.0015719407 0.017900456 4289997343
0.0227255 0.0024046469 0.017148007 4289277479
0.024466351 0.0032373411 0.016395949 4290913048
0.026382744 0.0032785744 0.016291108 4290716953
0.02866666 0.0017371923 0.01747977 4290650653
0.031147853 -0.00059520872 0.019314516 4289603624
0.033834435 -0.0037184046 0.021794869 4289211688
-0.029298831 0.00058645895 0.018226318 4288492589
-0.027693041 0.0030104262 0.016170682 4289604644
-0.026103705 0.0054341569 0.014116108 4289343268
-0.024420477 0.0070626684 0.012711657 4289081639
-0.022295974 0.0055109742 0.013903998 4289866784
-0.020276487 0.0047546006 0.014446929 4289604898
-0.018251661 0.0039984589 0.014989655 4289408804
-0.016342748 0.0040373649 0.014883611 4289212453
-0.014309995 0.0032816106 0.015426066 4289212453
-0.012525287 0.0041155363 0.014671821 4290193694
-0.010875545 0.0057440992 0.013269852 4289932063
-0.0089725778 0.005783346 0.013164484 4289147174
-0.0069349147 0.0050281393 0.013706997 4289539618
-0.0047543645 0.0034786337 0.014896927 4290520859
-0.0027033836 0.0027239164 0.015438862 4289932319
-0.00064709783 0.0019693589 0.015980616 4289932319
0.0014144704 0.0012150668 0.016522121 4289801248
0.0033328831 0.0012552496 0.016416356 4289866529
0.0046464354 0.0044724359 0.01372306 4290324254
0.0062458515 0.0061008916 0.012324569 4289211943
0.0081474334 0.0061410335 0.012219964 4289473828
0.010367528 0.0045931679 0.013408316 4290193694
0.012598321 0.0030456199 0.014596152 4290455068
0.014510274 0.0030862442 0.014491173 4289670178
0.016589545 0.0023330506 0.015032314 4289800993
0.018503875 0.0023738975 0.014927332 4290128414
0.020245053 0.0032086442 0.014176702 4290193949
0.021980636 0.0040432974 0.013426472 4289670434
0.023710586 0.0048779049 0.012676606 4289670434
0.025616013 0.0049188961 0.012572361 4289539618
0.027888834 0.0033729156 0.013758389 4290389788
0.030545391 0.00024030637 0.016233865 4289342504
0.033412717 -0.0036851848 0.01935301 4288820264
-0.029541742 0.00064769574 0.015792649 4289081128
-0.027941387 0.003078043 0.013742217 4290389533
-0.026465036 0.00630552 0.011045062 4290259229
-0.024790004 0.007938182 0.0096442783 4290324764
-0.022673942 0.006381989 0.01083387 4290455579
-0.020662826 0.0056232703 0.011375648 4290717209
-0.018646367 0.0048647714 0.011917213 4289605154
-0.016745765 0.0049035191 0.011811641 4289670433
-0.014597476 0.0033484208 0.012999768 4289474083
-0.012691662 0.0033874693 0.012894051 4290128158
-0.011174019 0.0058172341 0.010848959 4290913304
-0.0092766322 0.0058563636 0.010743899 4290259229
-0.0073793828 0.005895575 0.010638908 4290062878
-0.0052072629 0.0043415208 0.011826128 4290455578
-0.0031646118 0.0035844347 0.012366891 4290521113
-0.00097373128 0.0020310208 0.013553184 4289605154
0.00093653053 0.002070942 0.013447803 4289670433
0.002995044 0.0013144882 0.013987914 4289801504
0.0043032691 0.0045402213 0.011301424 4290520348
0.0058972389 0.0061729536 0.0099064233 4290651163
0.0074801669 0.0078054904 0.0085121328 4289212199
0.009848401 0.0054568318 0.010342704 4289539363
0.01207082 0.0039047035 0.011527798 4290324764
0.01430393 0.0023529548 0.012712345 4290716953
0.016045444 0.0031896462 0.01196321 4289932063
0.018121645 0.0024343366 0.012502924 4290128414
0.019857377 0.0032710745 0.011754232 4290455578
0.021763049 0.0033118906 0.01164984 4290782233
0.023311943 0.0049444339 0.010257959 4289604898
0.025211826 0.0049852855 0.010154002 4289343268
0.027479008 0.0034348457 0.011337114 4289473828
0.030129798 0.00029339828 0.013806423 4289736478
0.032802127 -0.0028475383 0.016274592 4290323489
-0.029886477 0.0015173852 0.01271926 4289735969
-0.028084721 0.0023550629 0.011966599 4289735458
-0.02639601 0.0039922395 0.010568205 4290390299
-0.024608068 0.004829885 0.0098164976 4290979094
-0.022486806 0.0032694587 0.011002501 4290979604
-0.020586126 0.0033079688 0.010896746 4290259739
-0.018685538 0.0033465973 0.010791086 4289409059
-0.016663942 0.0025861021 0.011330877 4289736224
-0.014760878 0.0026249918 0.011225237 4289474083
-0.012731366 0.001864932 0.011764718 4289539364
-0.011213675 0.004301202 0.0097244605 4290324509
-0.0093164332 0.0043403055 0.0096193906 4290913304
-0.0075540505 0.0051784399 0.0088698538 4290782488
-0.0055223368 0.0044188402 0.0094095208 4291371538
-0.0033451468 0.0028606369 0.010593296 4289735969
-0.0013001338 0.0021015494 0.011132403 4289343524
0.00060456991 0.0021413313 0.011027311 4289147174
0.0026574507 0.0013825949 0.011566123 4289408549
0.0041114017 0.0038183746 0.0095300069 4289800738
0.005702652 0.0054553491 0.0081384284 4290781978
0.0072828382 0.0070922351 0.0067474898 4290978328
0.0096480846 0.0047369325 0.0085734064 4291043864
0.012029491 0.0023820642 0.010398503 4291044373
0.01409772 0.0016242135 0.01093689 4290193694
0.01600384 0.0016647871 0.010832286 4289932064
0.018079877 0.00090727536 0.01137037 4290062879
0.019815549 0.0017461879 0.010623302 4290455833
0.021370076 0.0033830949 0.0092342682 4290651673
0.02273529 0.0058178785 0.007203687 4291175444
0.024626926 0.0058585634 0.0071001891 4291109909
0.027069427 0.0035056551 0.0089224232 4290979094
0.029900856 -0.00044244388 0.012027296 4290585884
0.032570131 -0.0035920963 0.014489124 4289276714
0.03468547 -0.0043481886 0.01502556 4287837749
-0.031533509 -0.0024482845 0.013631344 4286071364
-0.030026872 0.00079687592 0.010945272 4289669414
-0.02822794 0.0016367245 0.010194352 4289669668
-0.026434541 0.0024765292 0.0094438642 4289605409
-0.024646677 0.0033163135 0.0086937537 4289736223
-0.022638578 0.0025530774 0.009232386 4289736224
-0.020856366 0.0033929828 0.0084827654 4289409058
-0.018961366 0.0034314818 0.0083774049 4289670688
-0.017066482 0.0034701102 0.0082721477 4289474338
-0.014924157 0.0019062171 0.0094540827 4289670178
-0.013024069 0.0019451706 0.0093486998 4289801249
-0.011511788 0.0043877973 0.0073136264 4289670179
-0.0097520761 0.005227963 0.0065657143 4289670178
-0.00799793 0.0060680951 0.0058182464 4290324509
-0.0059745796 0.0053061503 0.0063567604 4289474339
-0.0038058013 0.0037434227 0.0075377664 4289605154
-0.0016262904 0.0021810406 0.0087181954 4289212453
0.00012730062 0.0030215695 0.0079710614 4289081639
0.0021718368 0.002260488 0.0085087204 4288950823
0.0040706769 0.0023003267 0.0084040845 4289211943
0.005969353 0.0023402823 0.0082995463 4289800738
0.007554993 0.0039815879 0.0069115842 4290258973
0.0094479099 0.004021591 0.0068074893 4290324509
0.011502542 0.0032611894 0.0073449397 4290193949
0.013727047 0.0017004777 0.0085235042 4290128414
0.015794933 0.00094053987 0.0090603624 4290063389
0.018038124 -0.00061953487 0.010238005 4289866783
0.019428253 0.0018220684 0.0082108062 4289670178
0.020977341 0.0034632501 0.0068252613 4289735969
0.022515394 0.0051042247 0.0054404186 4290521113
0.024585135 0.0043447292 0.0059774742 4290782744
0.026843734 0.0027853618 0.0071545532 4290193694
0.02948571 -0.00037370017 0.0096113887 4289735459
0.031582043 -0.0011323984 0.010147157 4289669923
0.033875436 -0.002690861 0.011322523 4287314233
-0.030065197 -0.0007229452 0.0098178601 4289342758
-0.028475702 0.0017267759 0.0077825282 4289735204
-0.026580438 0.0017648139 0.0076768054 4289605409
-0.024905518 0.0034105233 0.0062857298 4289670688
-0.022790216 0.0018412541 0.0074656531 4289736224
-0.020895261 0.0018796329 0.007360206 4289278243
-0.018882118 0.0011145426 0.0078971032 4289605409
-0.017105658 0.0019567315 0.0071495874 4289474338
-0.015087303 0.0011919783 0.0076863663 4289670178
-0.013316527 0.0020342888 0.0069393418 4289670689
-0.011680488 0.0036799959 0.005551015 4289604898
-0.0099235699 0.0045222263 0.0048049102 4289866784
-0.0081722178 0.0053644474 0.0040591923 4289605154
-0.0062891096 0.0054034763 0.0039550667 4289277989
-0.0041260272 0.0038363128 0.0051331022 4289539618
-0.0020949692 0.0030725147 0.0056697689 4289408549
8.688122e-05 0.001505943 0.0068469169 4289277989
0.0021312386 0.00074268132 0.007382967 4289343269
0.0038790181 0.0015854216 0.006637888 4289539364
0.0057748631 0.0016252999 0.0065334933 4289277989
0.0075141713 0.0024680719 0.0057890369 4289735969
0.0092478693 0.0033108215 0.0050449613 4289670433
0.011137784 0.0033508404 0.00494109 4289343013
0.013192087 0.0025883401 0.0054770024 4290062623
0.015418909 0.0010234728 0.0066522388 4289801249
0.017656446 -0.00054115709 0.007826969 4289735714
0.019213885 0.0011044517 0.0064441254 4289539620
0.020584881 0.0035522603 0.0044228947 4289670178
0.021939389 0.0059998329 0.0024025785 4289932064
0.023819968 0.0060402262 0.0022996454 4289735714
0.026067488 0.0044762739 0.0034740982 4289539364
0.028511986 0.0021104147 0.0052865613 4289408038
0.030972593 -0.00025501149 0.0070982082 4289800228
0.033641048 -0.0034220803 0.0095472177 4289341483
-0.03020541 -0.0014364191 0.0080490168 4289668903
-0.028618615 0.0010197228 0.0060187234 4289342249
-0.026940908 0.0026697172 0.0046306383 4289473828
-0.025384236 0.0051254858 0.0026021963 4290848023
-0.023280092 0.0035516662 0.0037794504 4290848023
-0.021396164 0.0035898141 0.003674611 4290717209
-0.019275881 0.0020165602 0.0048511443 4289474339
-0.017507669 0.0028607477 0.0041056969 4289474083
-0.015497673 0.0020936476 0.0046413229 4289604899
-0.013608746 0.0021323562 0.0045365472 4289932064
-0.011849064 0.0029767067 0.003791824 4289604898
-0.010226779 0.0046265353 0.0024076076 4290128414
-0.0084809326 0.0054707932 0.0016637938 4291044374
-0.0064661168 0.0047043343 0.0021995562 4291109909
-0.004305996 0.0031327498 0.0033745132 4290651928
-0.0021351203 0.0015614503 0.0045489972 4289212198
-9.8951161e-05 0.00079570338 0.0050837784 4289277734
0.0019425005 3.01986e-05 0.0056183659 4289408548
0.0036875084 0.00087505113 0.0048750541 4289343269
0.005426906 0.0017198934 0.0041321316 4289866784
0.0070043728 0.0033697416 0.0027510235 4291175444
0.0087298676 0.004214467 0.002008996 4291175444
0.010449767 0.0050591831 0.0012673587 4290782233
0.012493007 0.0042942506 0.0018022452 4289997344
0.014708728 0.0027247733 0.0029748376 4289866529
0.016935192 0.001155558 0.0041469424 4289997343
0.018654414 0.0020005964 0.0034055901 4290128158
0.020543396 0.0020410158 0.0033020829 4289997344
0.021897972 0.0044950829 0.0012865914 4289800993
0.023778453 0.0045354743 0.0011836644 4291044118
0.025475256 0.0053803422 0.00044377241 4291044374
0.027911343 0.0030078073 0.0022517918 4290193439
0.030363537 0.00063563371 0.0040590162 4289080618
0.033215158 -0.0033445447 0.0071386071 4288949038
-0.0303455 -0.0021453938 0.006283585 4288687664
-0.028865974 0.0011254614 0.0036184615 4289277479
-0.027301021 0.003587795 0.0015943162 4290389788
-0.025642503 0.0052418658 0.00021061953 4290782488
-0.02354404 0.0036635515 0.0013850061 4290913559
-0.021550249 0.002893589 0.0019196491 4290978328
-0.019432947 0.0013159136 0.0030931053 4289997343
-0.017788433 0.0029700943 0.0017105537 4289605154
-0.015784074 0.0022006757 0.0022448539 4289539363
-0.014027067 0.0030470449 0.0015018219 4289735714
-0.012146566 0.0030856789 0.0013975864 4289932319
-0.010529734 0.0047397581 1.6842037e-05 4290913304
-0.0085204095 0.0039708395 0.00055123679 4290913559
-0.0065057799 0.0032021883 0.001085382 4290978838
-0.0044858381 0.0024337326 0.0016192961 4291044374
-0.0024605989 0.0016654832 0.0021529901 4289343269
-0.00043005496 0.0008974541 0.0026864717 4289539618
0.0016058087 0.00012958422 0.0032197717 4289670688
0.0033452809 0.00097654574 0.002478343 4289997854
0.0047721118 0.0034378418 0.00046319328 4289605409
0.0061824471 0.0058989222 -0.0015510246 4291240723
0.0080532655 0.0059384392 -0.0016539199 4290978838
0.010085635 0.0051710061 -0.0011201231 4291175189
0.012123287 0.004403708 -0.00058652554 4290389534
0.014166214 0.0036366885 -5.3168274e-05 4289735714
0.016044572 0.0036766925 -0.00015623309 4289800993
0.018267877 0.0021031848 0.0010128263 4290128159
0.019976035 0.0029502041 0.00027373061 4290128159
0.021500565 0.0046038893 -0.001100705 4290128158
0.023194797 0.0054508145 -0.0018389598 4291175189
0.025250301 0.0046844739 -0.0013059136 4290913049
0.0276834 0.0023053279 0.00049740169 4290847769
0.030132607 -7.3431525e-05 0.0022999393 4290258209
0.032789558 -0.0032581773 0.0047366181 4288753198
-0.030587252 -0.0020393343 0.0038832398 4287641144
-0.029113095 0.001240103 0.0012248773 4289669924
-0.027553573 0.0037088762 -0.00079416949 4289342758
-0.025900524 0.0053671147 -0.0021743067 4289081639
-0.023920439 0.0045946096 -0.0016405853 4288950568
-0.021819618 0.0030121175 -0.00046954583 4289866784
-0.019944236 0.0030502011 -0.00057382882 4289735713
-0.018189799 0.003898459 -0.0013152752 4289866529
-0.016317356 0.0039367029 -0.0014192322 4289474083
-0.014445037 0.0039750268 -0.0015231185 4290063134
-0.012572818 0.0040134811 -0.0016269023 4290716954
-0.010832444 0.0048618582 -0.0023672655 4289277479
-0.0088287517 0.0040907064 -0.0018342081 4289081384
-0.0068197511 0.003319737 -0.0013013883 4289997344
-0.0048054233 0.0025489158 -0.00076876208 4290128413
-0.0027858019 0.0017783968 -0.00023635849 4289801504
-0.00076089054 0.0010080612 0.00029580668 4289932319
0.0011212975 0.0010474077 0.0001919819 4289867038
0.002852574 0.0018963083 -0.00054734945 4290063389
0.0045782477 0.0027451874 -0.0012863018 4290128413
0.005985938 0.0052127247 -0.0032955315 4289866783
0.0076950192 0.0060614222 -0.0040334426 4289605154
0.0097217783 0.0052916841 -0.0035009645 4290782744
0.01191818 0.0037129833 -0.0023338646 4290520859
0.013958238 0.0029436494 -0.0018019499 4289866784
0.015833758 0.0029835892 -0.0019048639 4289866784
0.017536581 0.0038326248 -0.0026421566 4289801248
0.019409075 0.0038726502 -0.0027447902 4290128158
0.021103427 0.0047216346 -0.0034814496 4289997599
0.023153529 0.0039529442 -0.0029498413 4289408293
0.025208898 0.0031843768 -0.0024184417 4289473573
0.027269512 0.0024160738 -0.0018872879 4290389789
0.02971302 3.0689873e-05 -8.9349225e-05 4289996579
0.032364212 -0.0031628832 0.0023411736 4289603114
-0.030930497 -0.0011117193 0.00085274223 4288229683
-0.029359985 0.0013636709 -0.0011621602 4289211943
-0.027913056 0.004651315 -0.0038124202 4290586139
-0.026378099 0.0071262163 -0.005825174 4289343268
-0.024409104 0.0063512907 -0.0052924668 4289277989
-0.022204079 0.0039518508 -0.0034880424 4290324764
-0.020218935 0.0031774803 -0.0029560663 4290586394
-0.018349241 0.0032155407 -0.0030599646 4289670433
-0.016479652 0.0032537174 -0.003163768 4289670433
-0.014610182 0.0032919892 -0.0032674931 4290063134
-0.012998715 0.0049545062 -0.0046415087 4290717209
-0.011266582 0.0058049173 -0.0053798519 4289735459
-0.0092712305 0.0050313356 -0.0048479354 4289146919
-0.0074076764 0.0050699026 -0.0049510226 4289408804
-0.0052646063 0.0034849145 -0.003784827 4290390299
-0.0033958629 0.0035237693 -0.0038880659 4290193949
-0.0013820007 0.0027510258 -0.0033569112 4289801504
0.00048917532 0.0027901544 -0.0034601185 4290194203
0.0025109276 0.002017762 -0.0029292591 4289932574
0.0040777028 0.0036802175 -0.0043001603 4291044373
0.0056334361 0.0053425259 -0.005670391 4290324764
0.0074958801 0.0053818612 -0.0057728291 4288950824
0.0095197633 0.0046098433 -0.0052418411 4289539618
0.011713222 0.0030267336 -0.0040778108 4290324764
0.013750382 0.0022551934 -0.0035474077 4289670689
0.015453346 0.0031062649 -0.0042831246 4289735969
0.017495632 0.0023349877 -0.0037528863 4289735969
0.019192845 0.003186082 -0.0044881776 4289997598
0.020706564 0.004848164 -0.0058556069 4290782488
0.022570476 0.0048881243 -0.0059576817 4289211943
0.02461753 0.0041172602 -0.005427476 4288950569
0.026855908 0.0025357115 -0.0042654602 4289343013
0.02910497 0.00095442263 -0.0031039333 4290062368
0.031556189 -0.0014372636 -0.0013112258 4289408549
0.034606129 -0.0062606931 0.0023755385 4288818223
-0.03137508 0.00064392388 -0.0028030286 4288295219
-0.029711034 0.0023108246 -0.0041775024 4289211433
-0.02816508 0.0047923434 -0.0061861137 4290651163
-0.026635543 0.0072736503 -0.0081937192 4290716698
-0.024672173 0.0064963824 -0.0076622823 4290913559
-0.022588179 0.0049048676 -0.0064967638 4291044374
-0.020493396 0.0033136145 -0.0053317361 4289735713
-0.018629283 0.0033515696 -0.0054353168 4289605154
-0.016765274 0.0033896067 -0.0055388305 4289539873
-0.014901374 0.0034277732 -0.005642239 4289343524
-0.013295367 0.0050945296 -0.0070127929 4289997598
-0.011437137 0.0051327818 -0.0071157375 4290782744
-0.0095790252 0.0051711141 -0.0072186133 4291109909
-0.0075839944 0.0043954938 -0.0066882661 4291044629
-0.005583629 0.0036200327 -0.0061581014 4291175954
-0.0037204623 0.003658771 -0.006261033 4289867294
-0.0017122105 0.0028837328 -0.0057311859 4289867038
5.4836273e-06 0.0037365654 -0.0064666355 4289997854
0.0018682554 0.0037755719 -0.0065693399 4289866784
0.0038842484 0.0030009537 -0.0060397284 4290324509
0.0054372698 0.0046676011 -0.0074066157 4291175189
0.00729689 0.0047068237 -0.0075089363 4290979094
0.0091563687 0.0047461265 -0.0076111881 4291044373
0.011344172 0.003158486 -0.0064500524 4291109909
0.013375729 0.0023846272 -0.0059209764 4289736479
0.015412584 0.0016109636 -0.0053921305 4289867038
0.017282307 0.0016508061 -0.0054947045 4289867039
0.019151874 0.0016907416 -0.0055972002 4289997598
0.0204878 0.0041703512 -0.0075923046 4290717209
0.022168346 0.0050234417 -0.0083250077 4290716699
0.02402655 0.0050633433 -0.0084267249 4290389533
0.026256591 0.0034771771 -0.0072674798 4290913049
0.028497286 0.0018913774 -0.0061087878 4290585374
0.031131536 -0.0013199982 -0.003690307 4289408549
0.033981472 -0.005343718 -0.00064297207 4289537834
-0.031615965 0.00078318827 -0.005178744 4287313979
-0.03006174 0.0032712487 -0.0071830759 4289276969
-0.0283098 0.0041253804 -0.0079199793 4289343014
-0.026673172 0.0057963594 -0.0092895543 4289735459
-0.024710007 0.0050168871 -0.0087597454 4289997344
-0.022741482 0.0042376951 -0.0082301768 4289932063
-0.020767618 0.003458723 -0.0077008242 4289343268
-0.018909082 0.0034965384 -0.0078041153 4289604898
-0.016927257 0.002717942 -0.0072750458 4289539618
-0.015066206 0.0027560317 -0.0073783109 4289343524
-0.013334099 0.0036106049 -0.0081134839 4289408803
-0.01160755 0.0044651809 -0.008848262 4289539619
-0.0096180141 0.0036871484 -0.0083193174 4290259228
-0.0076231584 0.0029093237 -0.0077905962 4289670944
-0.005622983 0.0021316828 -0.007262039 4289735968
-0.004044801 0.0038027004 -0.0086274548 4289277988
-0.0021873266 0.0038414043 -0.0087300101 4289408803
-0.00032996386 0.0038802135 -0.008832478 4289670433
0.0016778409 0.0031031459 -0.0083041107 4289800993
0.0035376325 0.0031421804 -0.0084065842 4289604899
0.0053972825 0.003181308 -0.0085089775 4289735713
0.0070980489 0.0040362845 -0.009241634 4290390299
0.0091161579 0.0032597934 -0.0087135648 4290063133
0.010811195 0.0041148192 -0.00944578 4289866783
0.013001353 0.0025229277 -0.0082879709 4289801758
0.014862992 0.0025625112 -0.0083901668 4289932574
0.016896807 0.0017866734 -0.0078627216 4289801759
0.018760845 0.0018264572 -0.0079649379 4289932319
0.020624734 0.0018662983 -0.0080671022 4289474083
0.022127487 0.0035369047 -0.0094274906 4290586139
0.023802407 0.0043920311 -0.010158208 4290586139
0.025657669 0.004431901 -0.010259739 4290781978
0.027890034 0.0028414964 -0.0091038095 4289866784
0.030133106 0.0012514247 -0.0079484647 4289604898
0.033163153 -0.0035984982 -0.0042800689 4288883758
-0.031653486 -0.00070694555 -0.0062841373 4286660158
-0.030203525 0.0026067202 -0.0089153396 4289211178
-0.028454393 0.00346294 -0.0096504902 4289408294
-0.026601054 0.0035002031 -0.0097538242 4289081383
-0.024635356 0.0027186503 -0.0092258127 4289016359
-0.022664316 0.00193734 -0.0086979987 4288754473
-0.020805806 0.0019750348 -0.0088013774 4288623914
-0.018947404 0.0020128349 -0.0089046704 4288820009
-0.017212439 0.0028694351 -0.0096385377 4289016359
-0.015230902 0.0020887414 -0.0091110067 4289081383
-0.013372816 0.0021268469 -0.009214052 4288885289
-0.011514846 0.0021650572 -0.0093170078 4288950568
-0.0097911954 0.0030218274 -0.010049949 4288950568
-0.0077992454 0.0022417717 -0.0095226811 4289343269
-0.0059416257 0.0022802749 -0.0096253948 4289081383
-0.0039417595 0.0015005586 -0.0090984339 4289212198
-0.0022267625 0.002357549 -0.0098305987 4289016614
-0.00022171438 0.0015781219 -0.0093037905 4288885543
0.001638107 0.001617061 -0.0094063366 4288950568
0.0036510378 0.0008379491 -0.0088797761 4289015848
0.0053573325 0.0016951705 -0.0096112275 4289408293
0.0072167367 0.0017343415 -0.0097135724 4289212199
0.0087531656 0.0034093955 -0.011072961 4289081638
0.010770991 0.0026307697 -0.010546458 4289408803
0.012794085 0.0018523629 -0.010020166 4289605154
0.014822461 0.0010740678 -0.0094940895 4289539618
0.016339302 0.0027490766 -0.0108522 4288885799
0.018545091 0.0011533774 -0.0096983286 4289147429
0.020228446 0.002010766 -0.010428035 4289408804
0.022267088 0.0012329742 -0.0099023106 4289343269
0.023761556 0.0029078028 -0.011258974 4289212199
0.025616728 0.0029476355 -0.011360527 4288819753
0.027471744 0.0029875361 -0.011462019 4289015084
0.029709198 0.001392934 -0.01030957 4288752944
0.032151341 -0.0010185484 -0.0085309418 4288818223
-0.031691 -0.002196888 -0.0073893899 4287575863
-0.030136727 0.00030420953 -0.0093840295 4289276969
-0.028277997 0.00034146616 -0.0094877491 4288885033
-0.026309691 -0.00044233538 -0.0089615947 4288558634
-0.02444841 -0.00040481519 -0.0090652993 4288362283
-0.022587229 -0.00036717812 -0.0091689108 4288427563
-0.020726144 -0.00032943487 -0.0092724347 4288362283
-0.018865142 -0.00029160967 -0.0093758935 4288689449
-0.017004251 -0.00025366666 -0.0094792573 4288427563
-0.015017468 -0.0010364749 -0.0089535946 4288493099
-0.013282791 -0.00017746445 -0.009685724 4289081638
-0.01155366 0.00068146503 -0.010417446 4289670433
-0.0096959174 0.00071974332 -0.010520336 4288754728
-0.0077014267 -6.2453095e-05 -0.0099948412 4288362284
-0.0058412142 -2.3901463e-05 -0.010097702 4289539873
-0.0038387999 -0.00080580544 -0.0095724734 4288820263
-0.0021211505 5.3434633e-05 -0.010303228 4288754984
3.4205616e-05 -0.0015485215 -0.0091504427 4288362283
0.0018993542 -0.001509506 -0.0092533091 4288558633
0.0037643537 -0.0014703979 -0.0093560973 4289147428
0.0056292266 -0.00143122 -0.0094588222 4288951078
0.007335335 -0.00057182508 -0.010188571 4288755239
0.009035863 0.00028757192 -0.010917996 4288689448
0.010894887 0.00032687886 -0.011020214 4288427818
0.012920544 -0.00045372779 -0.010495664 4288886053
0.014781982 -0.00041420804 -0.010597893 4288951333
0.016298831 0.0012651184 -0.011952792 4288689704
0.018154539 0.0013046497 -0.012054608 4288820263
0.020365402 -0.0002952111 -0.01090419 4289212964
0.022226244 -0.0002554399 -0.01100619 4288885799
0.024086915 -0.00021556392 -0.011108101 4288754473
0.025761649 0.00064393552 -0.011835628 4288623404
0.027619302 0.00068387436 -0.011937276 4288491823
0.029859252 -0.00091504632 -0.010788216 4288491058
0.032303877 -0.0033330235 -0.0090145906 4288294708
-0.031728487 -0.0036866383 -0.008494501 4287248443
-0.029965837 -0.0028259309 -0.0092272693 4288230193
-0.028101809 -0.0027885993 -0.0093313092 4289146919
-0.026128247 -0.0035744656 -0.0088070622 4288754729
-0.024261665 -0.0035368593 -0.0089110779 4288558634
-0.022395175 -0.0034991342 -0.0090149986 4288689449
-0.020646557 -0.0026381637 -0.0097465804 4288689449
-0.018662475 -0.0034233786 -0.0092225941 4288492589
-0.016919494 -0.0025623108 -0.0099537047 4288623404
-0.015056115 -0.0025242141 -0.010057128 4288688939
-0.013321515 -0.0016630767 -0.010787671 4288688939
-0.011461064 -0.0016248552 -0.010890794 4289081129
-0.009466622 -0.0024093967 -0.010366962 4288819243
-0.0076036863 -0.002370913 -0.010470069 4288688939
-0.005740881 -0.0023323367 -0.010573096 4289015848
-0.0035936609 -0.0039389655 -0.0094232848 4288623658
-0.0015806779 -0.0047226818 -0.0089002261 4288493098
0.0004376173 -0.0055062133 -0.008377404 4288362283
0.0021603927 -0.0046445802 -0.0091066668 4288558634
0.0040307343 -0.0046054074 -0.0092097828 4289016614
0.0057450831 -0.0037437649 -0.009938444 4288623913
0.0076124296 -0.0037044692 -0.010041256 4288362538
0.0093183517 -0.0028428654 -0.01076935 4288558634
0.011346705 -0.0036256583 -0.010246691 4288362283
0.013213627 -0.0035861079 -0.010349286 4288755239
0.015249848 -0.0043685855 -0.0098269479 4288623914
0.016602725 -0.0018628007 -0.011803788 4288755239
0.018288895 -0.0010011736 -0.01253054 4289016869
0.020147078 -0.00096153514 -0.012632451 4288362538
0.02218543 -0.0017437097 -0.012109966 4288623914
0.023863003 -0.00088206446 -0.012836096 4288296493
0.025906496 -0.0016640108 -0.012313805 4288426798
0.027766772 -0.0016240585 -0.01241563 4288033588
0.029818095 -0.0024056667 -0.011893713 4287640889
-0.031664561 -0.0060018683 -0.0089724464 4287510073
-0.029795151 -0.0059645427 -0.0090768719 4288099889
-0.027712137 -0.0075781904 -0.0079277391 4288558123
-0.025947008 -0.0067150556 -0.0086588794 4289016868
-0.024075121 -0.0066773491 -0.0087631969 4288427563
-0.02231833 -0.0058141686 -0.0094937133 4288427563
-0.020449337 -0.005776301 -0.0095977047 4288558634
-0.018580444 -0.0057383403 -0.0097016199 4288231214
-0.016711663 -0.0057002492 -0.0098054307 4288427308
-0.014968857 -0.0048369374 -0.010534861 4288362029
-0.013102993 -0.0047987332 -0.010638379 4288296493
-0.011237238 -0.004760412 -0.010741805 4288623658
-0.0091034994 -0.0063719582 -0.0095946984 4289277989
-0.0073692836 -0.0055084131 -0.010323347 4288492844
-0.0052221827 -0.0071195047 -0.0091768475 4288820009
-0.0033487305 -0.0070806462 -0.0092804143 4289081639
-0.0014754161 -0.0070416797 -0.0093838973 4288427308
0.00010251999 -0.0053532412 -0.010736267 4288558634
0.0021205246 -0.0061388724 -0.010214987 4288558634
0.0039907545 -0.0060997372 -0.010318124 4288820518
0.0058608428 -0.0060604736 -0.010421154 4288428074
0.0077308118 -0.0060211648 -0.010524143 4288624423
0.0094394013 -0.0051573585 -0.011250787 4288100653
0.011470318 -0.0059422799 -0.010729891 4288558634
0.013339862 -0.0059027276 -0.010832672 4288558634
0.015378639 -0.0066873454 -0.010312107 4288558634
0.017078534 -0.0058234041 -0.011038032 4288558634
0.018772826 -0.0049595064 -0.011763598 4289540129
0.020639069 -0.0049197297 -0.011865974 4288427563
0.022324927 -0.0040558595 -0.012590964 4288100399
0.024188153 -0.004016031 -0.012693089 4288492843
0.026051253 -0.0039761337 -0.012795155 4287969073
0.028102569 -0.0047600013 -0.01227492 4287641143
0.029968068 -0.0047199274 -0.012377025 4287902519
-0.031702068 -0.0074934606 -0.010078927 4287444794
-0.029728726 -0.0082839122 -0.0095580714 4288034608
-0.027643237 -0.0099019017 -0.0084122689 4288231469
-0.025765963 -0.0098642129 -0.0085169794 4288428073
-0.023888763 -0.0098264189 -0.0086216079 4289016868
-0.022241574 -0.0081333807 -0.0099755274 4288755239
-0.020487655 -0.0072680172 -0.010704217 4288624424
-0.018618904 -0.0072300471 -0.010808115 4288362283
-0.016750243 -0.0071919942 -0.010911946 4288297259
-0.014630023 -0.0088084945 -0.0097675668 4288297259
-0.012884669 -0.007942874 -0.010495459 4288165678
-0.011013605 -0.0079044653 -0.010599197 4288296493
-0.0091426335 -0.0078659747 -0.010702864 4289146918
-0.0071350709 -0.0086544799 -0.010182981 4288623658
-0.0051221773 -0.0094428249 -0.0096632848 4289016359
-0.0032461435 -0.0094039142 -0.0097670006 4289540129
-0.0013702065 -0.0093649365 -0.0098706568 4288493354
0.0002104342 -0.0076720836 -0.011220009 4288558634
0.002230987 -0.008459853 -0.010700502 4288362539
0.0042568594 -0.0092474893 -0.010181193 4288886309
0.0059765279 -0.0083814058 -0.010907003 4288493609
0.0078491196 -0.0083420593 -0.011010149 4288624423
0.0093992054 -0.006649456 -0.012357452 4288297258
0.011757761 -0.0090897139 -0.010594235 4288362539
0.01363264 -0.0090500619 -0.010697314 4288362283
0.015507385 -0.0090103764 -0.010800363 4288623913
0.017037891 -0.0073178178 -0.012146388 4288754728
0.018906921 -0.0072780959 -0.012249005 4288689448
0.020953268 -0.0080645345 -0.011730325 4288231468
0.022824734 -0.0080246106 -0.011832965 4288296749
0.024513125 -0.0071585039 -0.012556472 4288034863
0.02638156 -0.0071185306 -0.012658858 4287903539
0.028061517 -0.0062524742 -0.013381802 4287575863
0.029926956 -0.0062124487 -0.013483939 4287575354
-0.033805888 -0.007362003 -0.012328726 4286986303
-0.031942133 -0.007324928 -0.012432936 4287510329
-0.029870417 -0.0089476136 -0.011289726 4287838259
-0.027681164 -0.011399901 -0.0095234821 4288035118
-0.025804024 -0.011362227 -0.0096281925 4288231469
-0.023814794 -0.012154222 -0.0091096116 4288296749
-0.022164904 -0.010456802 -0.010460467 4288820008
-0.020290729 -0.010418873 -0.010564779 4288231469
-0.018657323 -0.008721632 -0.011914526 4288035118
-0.016788803 -0.0086836051 -0.012018365 4288035118
-0.014794592 -0.0094749564 -0.011499655 4288231469
-0.012923542 -0.0094366809 -0.01160349 4288362028
-0.011183795 -0.0085689165 -0.012329393 4288297004
-0.0091817342 -0.009359845 -0.011810924 4288623403
-0.0073110051 -0.0093212752 -0.011914517 4288623403
-0.0050222799 -0.011770297 -0.010152877 4288361774
-0.0031436235 -0.011731373 -0.010256768 4289081894
-0.0014098883 -0.010863269 -0.010981993 4288297004
2.323091e-05 -0.0083370572 -0.012949393 4287969839
0.0020408928 -0.0091270721 -0.012431347 4287969839
0.0040638745 -0.0099169258 -0.011913558 4288951589
0.0059364736 -0.0098776873 -0.012016785 4288231723
0.0078089461 -0.0098383538 -0.012119935 4288101419
0.0095201731 -0.0089702168 -0.012843543 4288166698
0.011717334 -0.010588251 -0.011705671 4288231723
0.013592117 -0.010548661 -0.011808789 4288297258
0.015466779 -0.010508999 -0.011911848 4288297258
0.017169297 -0.0096406545 -0.012634763 4288820774
0.018866241 -0.0087724384 -0.013357305 4288362538
0.021089897 -0.010389568 -0.012220631 4288035373
0.022963978 -0.010349644 -0.012323455 4288100398
0.024837919 -0.010309651 -0.012426213 4288100144
0.026340581 -0.0086130463 -0.013767264 4287968818
0.028020523 -0.0077448729 -0.014488635 4287444538
0.029694885 -0.0068767574 -0.015209653 4286790209
-0.032283202 -0.0063153477 -0.015402638 4287641399
-0.030219898 -0.0079425573 -0.014262197 4287380023
-0.028145783 -0.0095694661 -0.013122224 4287707443
-0.026060861 -0.01119603 -0.011982829 4288165424
-0.024189379 -0.011158391 -0.012087167 4288427054
-0.022317983 -0.011120634 -0.012191412 4288296238
-0.020564225 -0.010250945 -0.012916873 4288034864
-0.018816009 -0.0093812514 -0.013641943 4287838513
-0.017073318 -0.0085116019 -0.014366652 4287446069
-0.015084729 -0.0093052592 -0.013849259 4288034864
-0.013219237 -0.0092671346 -0.013952811 4288099888
-0.011353858 -0.0092288814 -0.014056263 4288034609
-0.0094885603 -0.0091905557 -0.014159651 4288165424
-0.0073502026 -0.010815016 -0.013022474 4288885034
-0.0053403936 -0.011607749 -0.012505894 4288688684
-0.0033252463 -0.012400346 -0.011989518 4289081128
-0.0017390475 -0.010698848 -0.013332837 4288885034
-1.6368926e-05 -0.0098287361 -0.014055789 4287838513
0.0018509626 -0.0097898245 -0.014158885 4288165934
0.0040239543 -0.011413012 -0.01302321 4288558889
0.0057408288 -0.010542772 -0.013745655 4288231724
0.0076104775 -0.010503552 -0.013848686 4288363049
0.009480007 -0.010464263 -0.01395166 4288100653
0.01167696 -0.012086667 -0.012817019 4288297004
0.013718136 -0.012877926 -0.012301563 4288231725
0.015426219 -0.012007479 -0.013023232 4288624169
0.016784862 -0.0094756093 -0.014981159 4289344290
0.018476367 -0.0086053899 -0.015701823 4288493609
0.020516984 -0.0093963724 -0.015186124 4288231469
0.022562921 -0.010187183 -0.014670671 4288296238
0.024614133 -0.010977823 -0.014155463 4288492333
0.026114136 -0.0092770346 -0.015493139 4288556849
0.027791366 -0.0084068198 -0.016212799 4287836728
0.012432471 -0.006616069 0.034883272 4282141813
0.026237659 -0.0063220467 0.03412579 4279980688
-0.041809104 -0.0077854125 -0.018318597 4282338674
-0.025348432 -0.0095654801 -0.022054259 4283059814
-0.011762407 -0.0069124387 -0.03102747 4282732903
