# .PCD v0.7 - Point Cloud Data file format
VERSION 0.7
FIELDS x y z rgba
SIZE 4 4 4 4
TYPE F F F U
COUNT 1 1 1 1
WIDTH 637
HEIGHT 1
VIEWPOINT 0 0 0 1 0 0 0
POINTS 637
DATA ascii
-0.021407574 -0.00031445734 0.034480337 4286920513
-0.019512303 0.00048513571 0.033674214 4287444028
-0.017762892 0.0020375387 0.032190785 4286398018
-0.015738629 0.002084306 0.032063242 4286725184
-0.022263244 0.002587792 0.02921449 4289277479
-0.020521842 0.0041442499 0.02773479 4288557103
-0.018791504 0.0057005533 0.026255861 4290650398
-0.016643561 0.0049919919 0.02680546 4290585119
-0.014490336 0.0042836466 0.027354803 4289995814
-0.011886813 0.0013111555 0.029930655 4287968054
-0.0094127655 -0.00090602925 0.031829815 4286529088
-0.022714168 0.0032446017 0.025992803 4289015848
-0.020843573 0.0040480359 0.025191512 4289080874
-0.01925882 0.0063657793 0.023041669 4289866273
-0.017262064 0.0064119506 0.022915889 4289997344
-0.014974385 0.0049441657 0.024138447 4290323998
-0.012527704 0.0027197329 0.026034415 4289080619
-0.010215886 0.0012527229 0.027255613 4289079853
-0.0082008168 0.0012997622 0.027129009 4288948783
-0.0060294867 0.00059005897 0.02767596 4289537578
-0.0041712746 0.0013941126 0.026876051 4286790208
-0.02463707 0.00083077978 0.02560072 4287639104
-0.02303014 0.0031553986 0.023454208 4289799463
-0.021302387 0.0047202702 0.021981854 4290586139
-0.019585706 0.0062850765 0.020510267 4289604899
-0.017594539 0.0063311248 0.020384844 4289735714
-0.015312567 0.0048588305 0.021604583 4290128158
-0.013168097 0.004146067 0.02215134 4290586139
-0.010867424 0.0026744073 0.02337005 4289473829
-0.0090170503 0.0034802682 0.022572111 4289735459
-0.0068595335 0.0027680947 0.023118336 4289931808
-0.0050149858 0.0035740226 0.022320915 4290062368
-0.0031760857 0.0043798755 0.021523971 4290454048
-0.0011782944 0.0044269427 0.021398772 4290061093
0.0011538491 0.0029566339 0.022615965 4291565339
0.0036666319 0.00072810892 0.02450351 4286398529
-0.024947386 0.00074411323 0.02306363 4289276204
-0.02321133 0.0023135054 0.021593902 4289866529
-0.02162357 0.0046443264 0.019453537 4290586139
-0.019772373 0.0054518185 0.018656824 4291044373
-0.017784066 0.005497809 0.018531587 4291437074
-0.015650511 0.0047825403 0.019077353 4291306259
-0.01351168 0.0040674559 0.019622911 4290193949
-0.011367597 0.0033526267 0.020168159 4290063134
-0.0093718469 0.0033992413 0.020042788 4289866784
-0.0073762983 0.0034459601 0.01991751 4289539363
-0.0056990236 0.0050149723 0.018452212 4289473828
-0.0037093088 0.0050617582 0.018327452 4290062623
-0.0017198101 0.0051086354 0.018202778 4289866018
0.00043670833 0.0043946817 0.018747758 4290257953
0.002768375 0.0029201671 0.019961786 4288949548
0.0054560155 -7.5530726e-05 0.022513639 4289668648
0.0078144521 -0.001549213 0.023726139 4288949294
0.010005459 -0.0022619783 0.024269234 4287379769
-0.026999116 -0.00090726325 0.022000108 4287575608
-0.025652718 0.002958219 0.018522754 4289472808
-0.023930281 0.004531614 0.017057166 4289669924
-0.022081714 0.0053411196 0.016262159 4289278244
-0.019958913 0.0046232059 0.016806822 4289736223
-0.017830834 0.0039055138 0.017351229 4290390043
-0.015988208 0.004715228 0.016556852 4290128414
-0.013855025 0.0039978712 0.017101094 4289866783
-0.011867397 0.0040442063 0.016976167 4289866783
-0.009572871 0.0025638281 0.01818889 4289735969
-0.007736437 0.0033738646 0.01739518 4290324764
-0.0059056208 0.0041838172 0.016601928 4290848534
-0.004080452 0.0049937456 0.015809111 4289474594
-0.0020965114 0.0050405166 0.015684806 4289212454
5.4374337e-05 0.0043243016 0.016228478 4289736224
0.0023803413 0.0028452873 0.017439689 4290520858
0.0047169924 0.0013666577 0.01865026 4289866274
0.00723961 -0.00087454217 0.020527668 4289539108
0.0090662315 -6.4008404e-05 0.019735187 4289669923
0.010525681 0.0022720248 0.017608989 4289342504
0.01196859 0.0046077534 0.01548389 4290454304
0.014325887 0.0031300164 0.01669354 4291434779
0.016882725 0.00089011854 0.018569101 4289733928
-0.027432449 -0.00021397369 0.018804062 4288687664
-0.026094042 0.0036621983 0.01533537 4289211689
-0.024245389 0.0044737631 0.01454189 4290847769
-0.022539482 0.0060513285 0.013080653 4290324764
-0.020564914 0.006096941 0.012956239 4289735968
-0.018305331 0.0046109655 0.014167599 4289539619
-0.016180344 0.0038911612 0.01471068 4289932063
-0.013902076 0.0024058819 0.015920985 4289801249
-0.012065321 0.0032178625 0.015128765 4289670178
-0.0097737759 0.0017331149 0.016338404 4289539363
-0.0079401284 0.0025452357 0.015546538 4289997598
-0.0061120912 0.0033573289 0.014755104 4290979094
-0.0044513345 0.0049347454 0.013297454 4291044629
-0.002308622 0.0042160959 0.013839971 4291110164
-0.00032772124 0.0042629079 0.013715941 4291306514
0.0019925609 0.0027794447 0.014924224 4290521114
0.0043235272 0.0012962893 0.01613196 4290062878
0.0066651255 -0.00018645637 0.017339069 4289997599
0.0083055943 0.0013910644 0.015883125 4290258973
0.0097542629 0.0037333877 0.01376247 4289735459
0.011186399 0.006075392 0.011642903 4290651164
0.013346456 0.0053578657 0.012184937 4290520349
0.016078211 0.002346389 0.014721446 4290127394
0.018448383 0.00086480007 0.015927199 4289603369
0.020634934 0.0001481846 0.016467717 4289341484
0.022826664 -0.00056821294 0.017007977 4287837494
-0.028123196 0.0020293016 0.01428378 4289014828
-0.026666615 0.0051478143 0.011490941 4290389788
-0.024963286 0.0067295213 0.010033067 4291109654
-0.022996861 0.0067748432 0.0099090897 4291240979
-0.020890817 0.0060522086 0.010451585 4290848279
-0.018351935 0.0030257651 0.012992501 4289670433
-0.016227148 0.0023038052 0.013533995 4289866784
-0.013949126 0.00081416592 0.014741078 4289932319
-0.012263127 0.0023961496 0.013284799 4289800993
-0.010434784 0.0032102247 0.012494814 4289604898
-0.0086120814 0.0040243329 0.011705231 4289997599
-0.0066361651 0.0040707425 0.011581298 4289735969
-0.004660435 0.0041172416 0.011457451 4289932063
-0.0023563132 0.0026288033 0.012663405 4290194203
-0.00037553906 0.0026756246 0.01253939 4290063389
0.0019444823 0.0011878274 0.013744477 4289801504
0.003930293 0.0012349598 0.013620287 4290193949
0.0062662289 -0.00025231019 0.014824562 4290193693
0.0079012588 0.0013294965 0.013372164 4290128413
0.0093445778 0.0036782124 0.011256766 4290455324
0.010771364 0.0060266457 0.00914241 4289016104
0.012925811 0.0053068367 0.0096831247 4289277734
0.015085466 0.004587254 0.010223594 4289604899
0.017633297 0.0023341556 0.012090128 4289997344
0.0194204 0.0031486549 0.011303764 4289669923
0.021595664 0.0024296963 0.011843439 4289408294
0.023776129 0.0017109294 0.012382846 4289342504
0.025961809 0.00099236704 0.012921985 4289669158
0.027947575 0.0010405164 0.012798551 4290322723
0.029933132 0.0010887198 0.012675181 4289145644
0.032128938 0.00037055463 0.013213877 4288949294
-0.03015222 0.0003968142 0.013232488 4288752433
-0.02842683 0.0019832016 0.01177625 4289604133
-0.026975576 0.0051102717 0.0089902766 4288950569
-0.025143433 0.005925911 0.0082010757 4289604899
-0.023316883 0.0067414776 0.0074123424 4290194203
-0.021216474 0.0060165343 0.007953573 4290521368
-0.018968321 0.0045216191 0.0091591999 4289866783
-0.016564287 0.0022569918 0.011028621 4289735969
-0.014291987 0.00076285237 0.012232888 4289539618
-0.012460805 0.0015790691 0.011444267 4289866529
-0.011095285 0.0047051045 0.0086643249 4289735713
-0.0091274604 0.0047512199 0.0085408241 4290520858
-0.0070010498 0.0040276549 0.0090809911 4289866783
-0.0048693791 0.0033043106 0.0096209049 4289539619
-0.00256823 0.0018114564 0.01082382 4289670688
-0.0005903095 0.0018582423 0.010700002 4289343524
0.0015570894 0.0011355658 0.011239152 4289081638
0.0035373271 0.001182579 0.011115324 4288623658
0.0055173635 0.0012296853 0.010991577 4289277988
0.007497184 0.001276881 0.010867916 4289866273
0.0091157034 0.0028627631 0.0094198771 4291044119
0.010723121 0.0044484208 0.0079726279 4290782489
0.012691408 0.0044956109 0.0078498907 4290586138
0.014848195 0.003773794 0.0083889235 4291175443
0.01720158 0.0022831154 0.009589266 4291044884
0.0189832 0.0030997233 0.0088048354 4289867038
0.020759165 0.0039162342 0.0080208629 4289735713
0.022529475 0.0047326735 0.0072372872 4289800738
0.024698667 0.0040115626 0.0077758506 4289735203
0.026668064 0.0040593264 0.0076534487 4290847258
0.028637253 0.0041071461 0.0075311046 4290192929
0.031027034 0.0026178644 0.0087295678 4290388768
0.033427447 0.0011289776 0.0099273957 4289537833
0.036270209 -0.0018965115 0.012444656 4287248444
-0.03082826 0.0026736665 0.0087359957 4288621873
-0.028987736 0.0034914077 0.0079477578 4290128158
-0.02741579 0.0058543882 0.0058325808 4290062879
-0.025457677 0.0058994233 0.0057090558 4288623403
-0.023636643 0.006717063 0.0049223062 4289343779
-0.021402229 0.0052174074 0.0061254334 4290455579
-0.019299462 0.0044904673 0.0066649914 4290259228
-0.017046288 0.0029914263 0.00786715 4289539618
-0.014930241 0.0022650226 0.0084060375 4289539619
-0.013110027 0.0030831709 0.007619733 4289735713
-0.011448719 0.0046734666 0.0061715413 4290389533
-0.0096424595 0.0054915198 0.0053862855 4291305749
-0.0075244159 0.0047655874 0.0059253667 4291044119
-0.0052396506 0.0032679136 0.0071260072 4290716953
-0.0027800649 0.00099879922 0.0089876354 4290062878
-0.00080496073 0.0010455125 0.0088639949 4289997598
0.0013395324 0.00032053748 0.0094017424 4289736479
0.0031446069 0.001139211 0.0086169671 4289409314
0.0051190853 0.0011861981 0.0084935799 4289540128
0.0069155991 0.0020047971 0.0077095088 4289997854
0.0087064579 0.0028233621 0.006925866 4290193949
0.010491669 0.0036418508 0.0061426237 4290651929
0.012271218 0.0044603278 0.0053598247 4291175445
0.014233753 0.0045074564 0.0052374974 4290782743
0.01638741 0.0037834789 0.0057751779 4289932319
0.018546261 0.0030597202 0.0063125994 4290193949
0.020710342 0.0023361323 0.0068497322 4289866783
0.022281118 0.0039257924 0.0054084044 4290062878
0.024043024 0.0047442992 0.0046270415 4290062623
0.025799237 0.0055627855 0.0038460456 4289931808
0.027757451 0.0056103463 0.0037243888 4290128159
0.030136168 0.0041164528 0.0049203075 4290716953
0.032525495 0.0026229536 0.006115593 4289145898
0.035357058 -0.00041150441 0.0086270832 4288949294
0.037991598 -0.002674853 0.010479044 4286463553
-0.032843057 0.0010530478 0.0076923836 4287575098
-0.031503689 0.0049726185 0.0042558908 4289343014
-0.029676866 0.0057922588 0.0034700893 4289931808
-0.027855627 0.0066118496 0.0026847776 4290782998
-0.0256375 0.0051071947 0.0038855709 4291175443
-0.023682397 0.0051522874 0.0037623271 4290717463
-0.021587845 0.0044228886 0.0043007135 4291175445
-0.019914977 0.0060173781 0.0028547142 4289866784
-0.017672963 0.0045137336 0.0040543433 4289801248
-0.015568011 0.0037849047 0.0045923181 4289735969
-0.013457775 0.0030562938 0.0051300339 4289670433
-0.011648685 0.0038764919 0.0043461435 4289800993
-0.0096892864 0.0039224378 0.0042231921 4290782489
-0.0077300668 0.0039684917 0.004100332 4290913304
-0.0056096762 0.0032405523 0.0046377331 4290978840
-0.0033199266 0.0017387606 0.0058349147 4289932063
-0.0011863038 0.0010113195 0.006371621 4289735969
0.00061350316 0.0018318892 0.0055887569 4289277988
0.0025799051 0.0018786229 0.005465826 4289343778
0.004371129 0.0026991898 0.0046836436 4289474593
0.0063344166 0.0027459981 0.0045610219 4290063644
0.0081170648 0.0035665999 0.0037794784 4289801503
0.010260344 0.0028399127 0.0043160487 4289605409
0.012222998 0.0028869724 0.0041936636 4289997853
0.014185414 0.0029341327 0.0040713716 4290390809
0.016147621 0.0029813489 0.0039491393 4289801504
0.018303603 0.0022553522 0.0044851303 4290063644
0.02026809 0.0023027845 0.0043628737 4289997598
0.022032894 0.0031234841 0.0035829097 4289866784
0.023589902 0.0047172639 0.0021456741 4290913304
0.025340676 0.00553776 0.0013666842 4290389788
0.027293369 0.0055852183 0.0012453925 4289931808
0.029666424 0.0040868982 0.0024383999 4289931808
0.031837106 0.0033617034 0.0029738806 4290324509
0.034660168 0.000318381 0.0054793879 4288884269
-0.033258017 0.0018091714 0.0045415908 4288490804
-0.031674802 0.0041852486 0.0024352465 4288558634
-0.029850785 0.0050069815 0.001651302 4288296493
-0.027900979 0.0050517335 0.0015282314 4288951078
-0.025817223 0.0043196795 0.0020655077 4289343779
-0.023864981 0.0043647089 0.0019424483 4289932574
-0.021912888 0.0044098445 0.0018194783 4289997853
-0.020103201 0.0052317972 0.0010368489 4289867038
-0.018154129 0.0052770837 0.00091423467 4289604898
-0.016057551 0.0045458884 0.0014511198 4289735969
-0.014106102 0.0045914524 0.0013285205 4290520603
-0.012154825 0.0046371338 0.0012060218 4289670435
-0.010203719 0.0046828804 0.0010835864 4288688939
-0.008094199 0.0039523658 0.001620017 4289277734
-0.0059794262 0.0032221307 0.0021561626 4289735714
-0.0036953837 0.0017158883 0.0033504143 4290324253
-0.0015673861 0.00098611508 0.0038859136 4289670433
0.00022691488 0.0018087933 0.003104981 4290193949
0.0020155832 0.0026313988 0.0023245215 4289866784
0.0037986115 0.0034539574 0.0015444793 4289997854
0.0057536215 0.0035005906 0.0014223903 4291044628
0.0077084228 0.0035473132 0.0013003834 4291044884
0.0096630231 0.0035941065 0.0011784434 4290390554
0.011803187 0.0028652973 0.0017136093 4290325018
0.013760068 0.002912329 0.0015916675 4290128923
0.015907943 0.0021838853 0.0021264888 4289867038
0.017673194 0.0030066143 0.0013479982 4289866784
0.019629419 0.0030538491 0.0012262575 4289931808
0.021585435 0.0031011826 0.00110461 4290062624
0.023541227 0.0031485627 0.00098301098 4290193439
0.025496773 0.0031960192 0.00086149201 4290913304
0.02724459 0.0040187002 8.4364787e-05 4291044119
0.029196985 0.0040662107 -3.686361e-05 4291109654
0.031362072 0.0033387574 0.00049731135 4289670433
0.03417936 0.0002865456 0.0029967427 4289669159
-0.033056911 -0.0013181353 0.0046974402 4288360243
-0.031594072 0.0018439014 0.0019364655 4288034608
-0.029767416 0.0026679025 0.0011539217 4289016614
-0.027946334 0.0034918557 0.00037186593 4289278243
-0.025862787 0.0027576317 0.00090754591 4288493098
-0.024047431 0.0035816799 0.00012601726 4288165678
-0.022098202 0.0036267652 3.2410026e-06 4288427308
-0.020291299 0.0044508367 -0.00077759102 4288951079
-0.01834511 0.0044960747 -0.00090001337 4289343013
-0.016399071 0.0045414022 -0.0010223519 4289146663
-0.014603548 0.0053655547 -0.0018022116 4290062623
-0.01281365 0.0061896821 -0.0025816374 4290585883
-0.01071775 0.0054565934 -0.0020461045 4290651418
-0.0086165965 0.0047237719 -0.0015107933 4290651419
-0.0065101758 0.003991147 -0.00097575784 4291109654
-0.0043985024 0.0032587522 -0.00044097379 4290324509
-0.0022815689 0.0025265426 9.3603507e-05 4290193949
-0.00049821287 0.0033511654 -0.00068500638 4290128413
0.0016237795 0.0026192558 -0.00015061535 4289997599
0.0034013167 0.0034439084 -0.0009287335 4290455578
0.0053507686 0.0034904224 -0.0010504685 4291437329
0.0071197525 0.0043150256 -0.0018278621 4290979348
0.0094320849 0.002805714 -0.00063808635 4291306513
0.011755079 0.0012967973 0.00055105239 4290194204
0.013900295 0.00056603691 0.001084365 4290390553
0.015859574 0.00061320467 0.00096233003 4289801248
0.017430931 0.0022157938 -0.00046943128 4289932319
0.018991165 0.0038182312 -0.0019004866 4290128158
0.021138243 0.0030877762 -0.0013670251 4289800738
0.022886485 0.0039125481 -0.0021427087 4289866273
0.025038548 0.0031823521 -0.0016094502 4290062623
0.026780903 0.0040071425 -0.0023846477 4290324509
0.02872777 0.0040545114 -0.0025055371 4289932064
0.031100199 0.0025474825 -0.0013188794 4289604899
0.033698812 0.0002636495 0.00052072667 4286790974
-0.032979134 -0.0036723074 0.0041892845 4287706423
-0.03126188 -0.0020644113 0.0027496964 4287968308
-0.029298611 -0.0020194694 0.002625687 4288492843
-0.027335487 -0.0019744101 0.0025017746 4289212964
-0.025774375 0.00041455636 0.00040686503 4289082404
-0.024093065 0.0020220946 -0.001030108 4288493353
-0.022422779 0.0036294446 -0.0024662614 4288754728
-0.020621412 0.0044555985 -0.0032451004 4289016359
-0.01882565 0.0052817534 -0.0040235668 4287969328
-0.016887911 0.0053269058 -0.0041453727 4287249719
-0.014950335 0.0053721401 -0.0042671058 4287511094
-0.013012916 0.0054175123 -0.0043887217 4289146153
-0.011231408 0.006243709 -0.0051659346 4291239448
-0.0092970505 0.0062891855 -0.0052872282 4290389534
-0.0068793446 0.0039928542 -0.0034424085 4290324253
-0.0047732964 0.0032581403 -0.0029088967 4289670179
-0.0026620105 0.0025236807 -0.0023756158 4289670179
-0.0008841306 0.0033502928 -0.0031522326 4289801248
0.0012322366 0.0026161331 -0.0026191361 4290324764
0.0028295144 0.0042231143 -0.0040497109 4290128413
0.0045932233 0.0050496501 -0.0048252456 4289409059
0.0065314993 0.0050959853 -0.0049462151 4289474594
0.0086525008 0.004362308 -0.0044131316 4290455834
0.011150017 0.0020687287 -0.0025727395 4289736223
0.013286933 0.0013355319 -0.0020404998 4290063134
0.01542905 0.00060260156 -0.0015085526 4289670433
0.017188787 0.0014295806 -0.0022834428 4289997343
0.018942863 0.0022565224 -0.003057979 4290193438
0.020890541 0.0023036567 -0.0031791087 4290062368
0.022636056 0.0031304988 -0.0039529577 4290193694
0.024785236 0.0023981133 -0.0034211725 4289539363
0.026524886 0.0032249517 -0.0041945558 4289343013
0.028679051 0.0024928162 -0.0036629848 4289670178
0.031264059 0.00020204438 -0.0018274467 4289211179
0.033865131 -0.0020882669 7.1488321e-06 4287902773
-0.032901488 -0.0060305977 0.003678076 4287837238
-0.031055789 -0.005201946 0.0028975401 4288099123
-0.029087223 -0.0051568663 0.0027732085 4288100398
-0.02724997 -0.0043281792 0.001993373 4288493609
-0.025552198 -0.0027160204 0.00055851787 4288820518
-0.02386545 -0.0011040377 -0.00087551028 4288820518
-0.022189748 0.00050785439 -0.0023087971 4288754728
-0.020525068 0.0021195477 -0.0037412718 4289016614
-0.018581852 0.0021647094 -0.0038635097 4289474083
-0.016786315 0.0029931189 -0.004640203 4288688938
-0.014695913 0.002255368 -0.0041076951 4289081129
-0.013059102 0.0038668863 -0.0055381414 4286267968
-0.011277646 0.0046952725 -0.0063137244 4286137153
-0.0069260374 0.0024378886 -0.0045950152 4288622638
-0.0049840063 0.0024837544 -0.0047166348 4290127139
-0.0032087192 0.0033123796 -0.0054915473 4289342503
-0.0014390498 0.0041410276 -0.0062660649 4289996833
0.00066897273 0.0034044539 -0.005734019 4290062369
0.0024328157 0.0042331577 -0.00650803 4290913304
0.0038361922 0.0066265916 -0.0085869702 4289931808
0.005763486 0.0066726697 -0.0087072505 4289997853
0.0080562904 0.0051542581 -0.0075227488 4290979349
0.010545373 0.0028539086 -0.0056866389 4290782743
0.012673959 0.0021183826 -0.0051555391 4290128669
0.014616735 0.0021651741 -0.005276531 4289866783
0.016946785 0.0006479742 -0.0040941145 4290128414
0.018698119 0.0014769975 -0.0048668087 4289997599
0.02024468 0.0030878405 -0.0062904432 4291044119
0.021780111 0.0046985527 -0.0077133588 4291306514
0.023713693 0.004745469 -0.0078335181 4291175445
0.025854379 0.004010716 -0.0073027387 4289931808
0.028420307 0.0017129462 -0.0054709464 4289669923
0.031215057 -0.0013659841 -0.0029895809 4289472809
0.034031302 -0.0044443379 -0.00050950795 4286725693
-0.0329469 -0.0076070763 0.0025093686 4288033589
-0.03084996 -0.0083478568 0.0030391011 4288099123
-0.0288761 -0.0083026644 0.0029144268 4288885799
-0.026902366 -0.0082573444 0.0027898625 4288558888
-0.02546411 -0.0050694118 5.011633e-05 4288558889
-0.023774657 -0.0034530056 -0.0013808403 4289082403
-0.021956954 -0.0026222584 -0.0021575745 4289147173
-0.020286843 -0.0010060251 -0.0035871826 4288689194
-0.01833833 -0.00096072652 -0.0037097447 4289343524
-0.016684845 0.00065527298 -0.0051381178 4288754473
-0.01459194 -8.4588304e-05 -0.0046073813 4289408549
-0.012952387 0.0015313057 -0.006034717 4288885034
-0.011168286 0.0023619835 -0.0068088816 4288622893
-0.0092314631 0.0024075233 -0.0069303261 4289473318
-0.0069727302 0.00088316109 -0.0057474449 4286791484
-0.003422074 0.0025447537 -0.0072941184 4286137153
-0.0014859736 0.0025906735 -0.0074152229 4287118393
0.00027802587 0.0034214021 -0.0081876637 4289342504
0.0020364001 0.0042520952 -0.0089596799 4290258973
0.0036117733 0.0058674007 -0.010382383 4291109654
0.0057163239 0.0051288274 -0.009851546 4291305748
0.0080088973 0.0036060703 -0.0086702583 4291175443
0.010126635 0.0028680167 -0.0081401682 4290193948
0.012061387 0.0029145288 -0.0082607223 4290324763
0.014186874 0.0021768082 -0.0077309301 4290193949
0.016317599 0.001439306 -0.0072014714 4290193949
0.018060774 0.0022703093 -0.0079720384 4290586394
0.019400097 0.0046694339 -0.010041687 4290259484
0.021126553 0.0055001643 -0.010811117 4290259738
0.023256429 0.0047629667 -0.010281361 4290717719
0.025806017 0.0024581412 -0.0084534325 4290063389
0.028371654 0.00015383586 -0.0066264793 4289670179
0.0309534 -0.0021500785 -0.0048004501 4288950313
-0.033115193 -0.0083952472 0.00068798102 4288033590
-0.031146791 -0.0083502904 0.00056356937 4288557104
-0.029178519 -0.0083052162 0.00043925643 4288754728
-0.027210377 -0.0082600396 0.0003150329 4288493609
-0.025376141 -0.0074269311 -0.0004612729 4288493609
-0.023547489 -0.0065938099 -0.0012371931 4288755239
-0.021585204 -0.0065484098 -0.0013607834 4289409058
-0.019764997 -0.0057153008 -0.0021359622 4288624170
-0.017950386 -0.0048822039 -0.0029106997 4288951589
-0.01614137 -0.0040491419 -0.0036850162 4289213219
-0.014337972 -0.0032160552 -0.0044589397 4289736989
-0.01269298 -0.0015956918 -0.0058833882 4288820773
-0.010592423 -0.0023373291 -0.0053545833 4288886053
-0.0088030994 -0.001504303 -0.0061273482 4289670433
-0.0066974461 -0.0022456283 -0.0055987202 4289605154
-0.0050776228 -0.00062544085 -0.0070212809 4289146409
-0.0034688711 0.00099464087 -0.0084431069 4290650909
-0.0017020032 0.0018275245 -0.0092141768 4288491823
0.00023107231 0.001873462 -0.0093350234 4287641909
0.0019894019 0.0027063303 -0.010105419 4288165679
0.0037420914 0.0035391622 -0.010875391 4288492589
0.0056691691 0.0035852366 -0.010995656 4289670178
0.0079615042 0.0020581088 -0.0098175993 4289866784
0.0098936409 0.00210447 -0.0099380566 4290193694
0.011825562 0.0021509104 -0.010058438 4289997344
0.013757288 0.0021974058 -0.010178762 4290193949
0.015688807 0.0022440054 -0.010298994 4290193693
0.017227486 0.0038632904 -0.01171572 4290913558
0.018556066 0.0062686796 -0.013779846 4289212198
0.020271651 0.0071013202 -0.014546985 4288951079
0.022594973 0.0055755456 -0.013370405 4289212708
0.025343299 0.0024779388 -0.010899204 4289343779
0.028323039 -0.0014050573 -0.007781852 4289474593
0.030691884 -0.0029295878 -0.0066079246 4289539619
-0.033406183 -0.008388551 -0.0017813034 4287379514
-0.031443372 -0.0083437022 -0.0019053444 4287837748
-0.029352419 -0.0090889148 -0.0013783574 4288231213
-0.027387142 -0.0090437979 -0.0015023965 4289278499
-0.025555715 -0.0082085487 -0.002276957 4288363049
-0.023729853 -0.0073733572 -0.0030510426 4288493609
-0.021909583 -0.0065381778 -0.0038246848 4288428328
-0.019811153 -0.0072825747 -0.0032977648 4289278753
-0.017996609 -0.0064473143 -0.0040708892 4288952099
-0.016187675 -0.0056120772 -0.0048435815 4289541149
-0.01423429 -0.005566448 -0.0049662851 4289475614
-0.012433834 -0.0047311401 -0.0057383217 4289475103
-0.010328032 -0.0054748766 -0.0052114259 4288886309
-0.0085333362 -0.0046395129 -0.0059829559 4289409824
-0.0069051683 -0.0030148793 -0.0074028783 4289016869
-0.0051244125 -0.002179669 -0.0081733298 4289212453
-0.0033492818 -0.0013445157 -0.0089433752 4289081638
-0.0014106929 -0.0012985326 -0.0090646315 4288753963
0.00035591424 -0.00046333484 -0.0098340344 4289146918
0.0021169037 0.00037177792 -0.010602973 4288820264
0.0038722903 0.001206832 -0.011371506 4289474339
0.0059819221 0.00046407292 -0.010844266 4289277989
0.0079141259 0.00051037641 -0.010964772 4288623658
0.0098461509 0.00055672275 -0.011085232 4289146664
0.011589892 0.0013918392 -0.011852784 4289800993
0.013327971 0.0022269087 -0.012619921 4289539618
0.014866911 0.0038505034 -0.014033535 4289670433
0.016394772 0.005473888 -0.015446344 4290651418
0.018110529 0.0063086371 -0.016211927 4290716953
0.020022355 0.0063549601 -0.016330786 4291110164
0.022138335 0.0056130546 -0.015803419 4291175443
0.024673767 0.0032948782 -0.013984357 4290848023
0.027644932 -0.00059925439 -0.010874527 4289409313
0.030430496 -0.0037044908 -0.0084120575 4286988343
-0.029654399 -0.0090756817 -0.0038418993 4287904048
-0.027694706 -0.0090306839 -0.0039655808 4288623658
-0.025601506 -0.0097777285 -0.0034402069 4289082148
-0.023775727 -0.0089403614 -0.0042126682 4289344034
-0.021816444 -0.0088950256 -0.0043360647 4288690213
-0.019715495 -0.009641557 -0.003810931 4288624678
-0.018042833 -0.0080121495 -0.005230872 4289410078
-0.016086705 -0.0079665817 -0.0053538419 4289541148
-0.014130741 -0.0079208855 -0.0054767057 4289671964
-0.012174934 -0.007875097 -0.0055994876 4289344543
-0.010219291 -0.0078292042 -0.0057221781 4289213728
-0.0085800737 -0.0062000295 -0.0071396865 4289605918
-0.0066302046 -0.0061540687 -0.007261863 4289279009
-0.0048440769 -0.0053165555 -0.008031033 4289540383
-0.0030635521 -0.0044790991 -0.0087997979 4288951589
-0.0011196434 -0.0044329902 -0.0089213867 4288624168
0.00065236539 -0.0035955491 -0.0096894791 4288886309
0.0025931969 -0.0035493379 -0.0098107457 4289409569
0.0041795075 -0.0019207392 -0.011224439 4288951588
0.0059346482 -0.0010834062 -0.011991259 4288951589
0.0078667626 -0.0010371539 -0.012111795 4288755238
0.0096133649 -0.0001998581 -0.012877958 4288951334
0.011166304 0.0014282819 -0.014289317 4288754984
0.012708187 0.0030561737 -0.015699897 4288885544
0.014432505 0.0038931374 -0.01646452 4288754473
0.01615113 0.0047300649 -0.017228713 4289277734
0.01786416 0.0055669681 -0.017992551 4289866529
0.019571573 0.00640374 -0.018755961 4290586139
0.021681964 0.0056595155 -0.018229872 4290193438
0.024211697 0.0033346401 -0.016415259 4289015339
0.02738677 -0.0013608262 -0.012669003 4289014829
-0.022140492 -0.0088734133 -0.0067915292 4287774254
-0.019903444 -0.010416368 -0.0056208111 4288232234
-0.0182335 -0.0087826997 -0.0070373639 4289148194
-0.016280241 -0.0087371813 -0.0071601421 4289606684
-0.014327131 -0.0086915698 -0.0072828392 4289737498
-0.012221545 -0.0094397254 -0.0067592859 4289737498
-0.010421365 -0.0086000338 -0.0075279642 4290195478
-0.0086268038 -0.0077603068 -0.0082962392 4289541149
-0.0066770464 -0.0077143721 -0.0084184278 4289541149
-0.0048909783 -0.0068746945 -0.0091859829 4289148449
-0.0031105205 -0.0060350518 -0.009953117 4289082659
-0.00082883239 -0.0075759562 -0.0087844506 4289082914
0.0011202097 -0.0075296424 -0.0089062992 4288821028
0.0027203262 -0.0058964915 -0.01031764 4288624678
0.0043094084 -0.0042635524 -0.011728252 4288493609
0.0062470287 -0.0042172302 -0.011849178 4288755494
0.0081844702 -0.004170828 -0.011970031 4288493608
0.0097512156 -0.002538101 -0.013379086 4288755238
0.011118956 -0.00011251401 -0.015431333 4288951589
0.012660883 0.0015197201 -0.016838688 4288689704
0.014578536 0.0015659649 -0.016958071 4289016614
0.016299881 0.0024051145 -0.01772083 4289212709
0.018214442 0.0024514124 -0.017839925 4289081638
0.019725703 0.0040832455 -0.019245194 4289212198
0.021634422 0.0041295388 -0.019363826 4289408549
0.024163872 0.0017981036 -0.017554071 4288753453
0.026709415 -0.00053288089 -0.015745271 4287968309
-0.018568456 -0.0087523386 -0.0094855241 4287579178
-0.016473643 -0.0095031615 -0.0089630913 4289868058
-0.014373526 -0.010253766 -0.0084408466 4289671198
-0.012268141 -0.011004115 -0.0079189083 4289476379
-0.010468028 -0.010162247 -0.0086859632 4289541659
-0.0086735263 -0.009320356 -0.0094526242 4289802779
-0.0067238882 -0.0092744119 -0.0095747951 4288952099
-0.0049378648 -0.0084325951 -0.010340756 4288821028
-0.0028251484 -0.0091822604 -0.0098188985 4288624678
-0.00087603182 -0.0091360528 -0.009940831 4288428584
0.0014161021 -0.010680993 -0.0087759309 4288494119
0.0028473586 -0.0082477871 -0.010827605 4288755749
0.0046161935 -0.007405892 -0.011592131 4288755239
0.0061996654 -0.0057686348 -0.012999082 4288624679
0.0083194599 -0.006517624 -0.012477288 4288559144
0.0098889545 -0.004880473 -0.013883274 4288558889
0.011447422 -0.00324358 -0.015288492 4288689703
0.012994796 -0.0016068164 -0.01669299 4289213218
0.014917806 -0.0015604468 -0.016812708 4288951589
0.016840599 -0.0015140455 -0.016932389 4288689703
0.018564455 -0.00067259418 -0.017693637 4288689703
0.019879729 0.0017585629 -0.019737462 4288951079
0.02158688 0.0025997902 -0.020497613 4289015848
0.024322972 -0.00053296564 -0.018051567 4288753963
0.027080558 -0.0036651203 -0.015606798 4287183418
-0.0087202266 -0.010880202 -0.01060886 4287251503
-0.0069313645 -0.010036232 -0.011373446 4287316274
-0.0048213825 -0.010788252 -0.010853122 4288231724
-0.0030383021 -0.0099442136 -0.011617193 4288623914
-0.00075440109 -0.0114938 -0.010455089 4288297004
0.0010256022 -0.010649623 -0.011218888 4288624934
0.0028000176 -0.0098055294 -0.011982225 4289147939
0.004391849 -0.0081638247 -0.013386539 4289016868
0.006511651 -0.00891505 -0.012866409 4288951589
0.0084543303 -0.0088685602 -0.012987616 4288820774
0.010026582 -0.0072270678 -0.01439052 4288820774
0.011587784 -0.0055857049 -0.015792707 4288820774
0.013519019 -0.0055392431 -0.015913017 4288951589
0.015450098 -0.0054927017 -0.016033256 4288820518
0.017380938 -0.0054460932 -0.016153425 4288755239
0.018914238 -0.0038051787 -0.017553635 4288820518
0.020235054 -0.0013673396 -0.019593008 4288754984
0.021743506 0.00027311733 -0.020991566 4288361518
0.024275109 -0.0020712728 -0.01919169 4288361263
-0.0048683137 -0.012347864 -0.012009163 4288166444
-0.0029192641 -0.012301764 -0.012131172 4288885799
-0.00097037852 -0.012255574 -0.012253099 4289343523
0.00097833574 -0.012209291 -0.012374944 4289016869
0.0027526915 -0.01136302 -0.01313666 4289016613
0.0046983361 -0.011316636 -0.013258182 4288754473
0.0062845796 -0.0096706478 -0.014658863 4289344033
0.0082244277 -0.0096242186 -0.014779888 4288820774
0.0097939894 -0.0079784188 -0.016179448 4288951589
0.011728063 -0.0079319691 -0.016299995 4289148449
0.013661921 -0.0078854635 -0.016420484 4289147938
0.015595585 -0.0078388788 -0.016540896 4289213219
0.01752907 -0.007792226 -0.016661245 4288624424
0.019263759 -0.0069462145 -0.017419972 4288951589
0.020388797 -0.0037024815 -0.020093104 4288493098
0.022104062 -0.002856788 -0.020850508 4288492589
0.024227284 -0.0036093993 -0.020331683 4288099379
0.0021830648 -0.010514114 -0.016205976 4287315763
0.0042972788 -0.011269955 -0.015688831 4287904048
0.0062372014 -0.011223632 -0.01580994 4288230958
0.0081769451 -0.011177217 -0.015930967 4288231213
0.0099315345 -0.010328927 -0.016689597 4288296494
0.011868209 -0.010282446 -0.016810328 4288427819
0.013804697 -0.010235896 -0.016930996 4288297004
0.015741006 -0.010189267 -0.017051589 4288100653
0.017677113 -0.010142546 -0.017172096 4288100653
0.01941447 -0.0092942547 -0.017929416 4288624170
0.020743705 -0.0068432582 -0.019959604 4288689449
0.022668384 -0.0067966375 -0.020079272 4288296239
0.024592891 -0.0067499601 -0.020198883 4288295474
0.0056513995 -0.010364018 -0.018870074 4288427564
0.007765092 -0.011121867 -0.018354381 4288099633
0.01006896 -0.012683565 -0.017202882 4288492079
0.01200825 -0.012637027 -0.017323781 4288296238
0.013947368 -0.01259041 -0.017444609 4288296493
0.015693247 -0.011739963 -0.018200932 4288230959
0.017433472 -0.010889528 -0.018956888 4288296494
0.019168124 -0.010039188 -0.019712392 4288623914
0.020695955 -0.0083853304 -0.021102538 4288689194
0.022824481 -0.0091422666 -0.020587355 4288362029
0.024338342 -0.0074885744 -0.021976577 4287249209
0.011397943 -0.011771358 -0.020377446 4286530109
0.013519071 -0.01253101 -0.019863689 4287577139
0.015259497 -0.011678526 -0.020618062 4286661178
0.017190002 -0.011631996 -0.020738263 4287510838
0.019120343 -0.011585422 -0.020858418 4288427054
0.020849369 -0.010733014 -0.021611933 4288558124
0.022776626 -0.010686398 -0.021731809 4288362538
0.024083987 -0.0082227355 -0.023750901 4286071873
0.018477529 -0.010707396 -0.023900289 4290128413
0.020399459 -0.010660989 -0.024019893 4287904048
0.022321209 -0.010614514 -0.024139434 4287903284
-0.02164425 -0.0078498544 -0.017309155 4282665583
-0.023756742 -0.0086311102 -0.018969577 4280177038
-0.016848095 -0.0059563592 -0.02377837 4282666094
-0.022486787 -0.0084274858 -0.023915032 4282667878
0.0070629269 -0.0082220528 -0.032375675 4282863718
