# .PCD v0.7 - Point Cloud Data file format
VERSION 0.7
FIELDS x y z rgba
SIZE 4 4 4 4
TYPE F F F U
COUNT 1 1 1 1
WIDTH 958
HEIGHT 1
VIEWPOINT 0 0 0 1 0 0 0
POINTS 958
DATA ascii
0.0097666755 -0.001556064 0.045672536 4289276968
0.012078919 -0.0030266638 0.046902541 4289146919
-0.006981656 0.00028758217 0.042054046 4288818223
-0.0052479506 0.0018506469 0.040589992 4288884269
-0.0031252466 0.0011336757 0.04114629 4289342758
-0.00099724531 0.00041690003 0.041702416 4289800738
0.00058081746 0.0027397564 0.039566707 4290847513
0.0024254173 0.0035427893 0.038777541 4290781978
0.0044086426 0.0035860809 0.038661335 4290847513
0.0069795474 0.00059081707 0.041234862 4290847513
0.0092726797 -0.00088463444 0.042462688 4290062624
0.011424072 -0.0016002143 0.043017875 4289407784
0.013580747 -0.0023156139 0.043572877 4289603368
0.01605837 -0.0045495774 0.045471147 4289798953
-0.0091453008 -0.00058924686 0.04031441 4289799209
-0.007536564 0.0017403262 0.03818148 4290258464
-0.005552642 0.0017830925 0.038064826 4290193184
-0.0034355782 0.0010638433 0.038619857 4289669923
-0.0011772439 -0.00041723717 0.039846092 4289604898
0.00053689629 0.0011500427 0.038386706 4290193693
0.0023814216 0.0019552736 0.037599187 4290717209
0.0043645054 0.0019985838 0.037483003 4290781978
0.0066412166 0.00051832292 0.038708474 4290324509
0.0089286566 -0.00096163992 0.039933439 4289669924
0.011074416 -0.001679494 0.040487356 4289800483
0.01307036 -0.0016354853 0.040370733 4289538599
0.014908306 -0.00082977396 0.039584059 4289472298
0.017061628 -0.001547155 0.040137764 4290518563
0.019709952 -0.0045487946 0.042700756 4288359478
-0.012575276 -0.0060915696 0.042719875 4287508544
-0.0111809 -0.0022258395 0.039248582 4289015085
-0.0096888617 0.00087485369 0.036449518 4290716954
-0.0078354403 0.001681936 0.035662632 4290455324
-0.0057265982 0.0009601796 0.036216483 4290913304
-0.0036124773 0.00023870636 0.036770079 4290585884
-0.0013571084 -0.001246796 0.037993241 4289474083
0.00063163787 -0.001203577 0.037876572 4290063134
0.0026202127 -0.0011602277 0.037760008 4290128414
0.0046086162 -0.0011167983 0.037643518 4290128159
0.0064499751 -0.00030923542 0.036857966 4289866529
0.0085848495 -0.0010296041 0.037410829 4290324509
0.010420389 -0.00022195373 0.036625776 4289800993
0.012405321 -0.00017816294 0.036509812 4289997343
0.014232308 0.0006294949 0.035725407 4290847769
0.016535021 -0.00085400511 0.03694652 4290389788
0.018848456 -0.0023372313 0.038167108 4290126373
0.02150435 -0.0053473031 0.040723257 4291434268
-0.015091926 -0.004671433 0.038969856 4288295219
-0.01333591 -0.003095238 0.037513901 4289539618
-0.011835467 1.4277175e-05 0.0347207 4290194458
-0.010231964 0.0023567416 0.032597754 4289408549
-0.0082618035 0.0023991279 0.032481853 4288688939
-0.0061613396 0.0016750628 0.033034544 4289670178
-0.0039224215 0.00018476136 0.034255367 4289866784
-0.0018086508 -0.00053882226 0.034807492 4290128414
0.00044902414 -0.0020285146 0.036027368 4290193949
0.002434738 -0.0019852212 0.035910975 4290128158
0.0044202805 -0.0019418364 0.035794664 4290258973
0.006112054 -0.00036593713 0.034343369 4289932064
0.008091785 -0.00032246485 0.034227561 4289801249
0.0099190772 0.00048724189 0.03344458 4290259228
0.011895709 0.00053086691 0.033329118 4290259229
0.013556786 0.0021064924 0.031879917 4289473828
0.015687972 0.0013842937 0.032431696 4289146663
0.017987534 -0.00010357052 0.033649866 4290193184
0.020297773 -0.0015910566 0.034867451 4289146663
0.022450104 -0.0023125005 0.035418209 4288360243
0.024607681 -0.0030337186 0.03596874 4286463299
-0.017700184 -0.0024639056 0.03456394 4288360499
-0.01571871 -0.0024217502 0.034447018 4289014574
-0.013737388 -0.0023794533 0.034330215 4289474849
-0.012000598 -0.00079920702 0.032878716 4290324764
-0.010274857 0.00078089349 0.031428006 4290782743
-0.0084324926 0.0015920838 0.030645074 4290586649
-0.0063349605 0.00086579844 0.031196328 4290586393
-0.0042321309 0.00013974961 0.031747364 4290979094
-0.0019881874 -0.0013546851 0.03296474 4290063134
0.00012795627 -0.0020802785 0.033515189 4290063134
0.0022493675 -0.0028055762 0.034065388 4289997343
0.0040880442 -0.0019938108 0.033283163 4290390044
0.0057743564 -0.00041362084 0.031835396 4289801249
0.0077485144 -0.00037024729 0.03171993 4289735969
0.0095702931 0.00044149254 0.030938951 4290390299
0.011386462 0.0012531895 0.030158361 4290782744
0.013039358 0.0028330609 0.028712863 4290193949
0.015001863 0.0028765742 0.028598372 4289800993
0.017290294 0.0013841242 0.029813962 4290193438
0.019423611 0.00066000875 0.030364154 4290324253
0.021562174 -6.3909218e-05 0.0309141 4289539364
0.02353473 -1.9764528e-05 0.030799324 4289341993
-0.020057917 -0.0017762566 0.031505648 4288883759
-0.018198632 -0.0009631142 0.030722907 4289800228
-0.016228221 -0.00092116557 0.030606659 4289408294
-0.01401908 -0.0024213977 0.031822324 4289801249
-0.012165625 -0.0016080132 0.031040197 4289735969
-0.010317754 -0.00079464354 0.030258479 4290455578
-0.0086030811 0.00078974292 0.028811717 4291240723
-0.0066388026 0.00083214417 0.028696265 4291306769
-0.0045416169 0.00010375958 0.029246056 4290717718
-0.0024391338 -0.0006243661 0.02979557 4290128668
-0.00033137947 -0.0013522534 0.030344868 4290128668
0.0013580099 0.00023209769 0.02890004 4290063134
0.003180258 0.0010457691 0.028120395 4290455579
0.0049968958 0.0018593548 0.027341174 4289866784
0.0072560906 0.00036140997 0.028554866 4289605154
0.0093738735 -0.00036572665 0.029103968 4290128414
0.011032403 0.0012185369 0.027661316 4290062878
0.012837417 0.0020322977 0.026883096 4290716954
0.014636807 0.0028460054 0.02610526 4290913048
0.016756527 0.0021193353 0.026654568 4290454814
0.018881515 0.0013928656 0.027203629 4289080619
0.02084329 0.001436675 0.027089413 4288884269
-0.022290297 -0.0018483857 0.029121356 4288294963
-0.020544909 -0.00025970582 0.027675489 4290388769
-0.018582698 -0.00021805149 0.027559636 4290716443
-0.016387321 -0.0017230762 0.028772835 4290651418
-0.014181178 -0.0032277191 0.029985437 4289670434
-0.012208439 -0.0031854743 0.029869238 4290259484
-0.010235839 -0.0031431234 0.029753128 4289605408
-0.0083909221 -0.0023275055 0.028973304 4290063644
-0.006421335 -0.0022849664 0.028857561 4289670944
-0.0045848899 -0.0014693113 0.028078398 4289801759
-0.0027540475 -0.00065361522 0.027299613 4290128668
-0.00092879683 0.00016203057 0.026521284 4290128668
0.00074967742 0.0017505139 0.025080357 4290390299
0.0027048588 0.0017932728 0.024965851 4291044374
0.0046598613 0.0018361472 0.024851445 4291044374
0.0069133565 0.00033377018 0.026062192 4290586394
0.0088734478 0.00037697237 0.025947649 4289866784
0.010678589 0.0011928165 0.025170974 4289932063
0.012478098 0.0020086439 0.024394706 4289997089
0.014432177 0.0020520026 0.024280731 4289800738
0.016549021 0.0013230862 0.024828579 4289604134
-0.026061904 -0.0050558737 0.02951386 4288164404
-0.024405673 -0.0026869178 0.027406612 4289081894
-0.02265748 -0.0010939864 0.025963774 4289212708
-0.02092031 0.0004988946 0.024521647 4289931808
-0.018852558 -0.0002352763 0.025069335 4289866529
-0.016779486 -0.00096917432 0.025616752 4290781978
-0.014462467 -0.0032538855 0.027489334 4289735459
-0.012495324 -0.0032117525 0.02737347 4289997599
-0.010528322 -0.0031695133 0.027257696 4289539619
-0.0085614547 -0.0031271693 0.027142009 4289343780
-0.0067249388 -0.0023093852 0.026364351 4289082149
-0.0048940219 -0.0014916575 0.025587151 4289932573
-0.0030686967 -0.00067393016 0.024810364 4289997854
-0.0013873577 0.00091891736 0.023372393 4290324763
0.00028292835 0.0025115814 0.021935185 4290128414
0.0022298023 0.0025541857 0.021821188 4290716954
0.0041765124 0.0025968812 0.021707272 4290520603
0.0065708458 0.0003150804 0.023576235 4290913304
0.0086773708 -0.0004166346 0.024122773 4289866273
0.010479718 0.00040133018 0.023347883 4289997343
0.012433872 0.00044461619 0.023233848 4289735969
0.014067531 0.0020372709 0.021799302 4289735459
0.016178742 0.0013060551 0.022345863 4289015339
-0.028477591 -0.0035618269 0.025811298 4288621873
-0.026721071 -0.0019645793 0.024371048 4289210923
-0.024764292 -0.0019234056 0.024255244 4289800738
-0.023024321 -0.00032621343 0.022816118 4290455068
-0.021184277 0.00049295649 0.022039304 4289212198
-0.019122194 -0.00024346728 0.022585662 4288885289
-0.017054774 -0.00097966567 0.023131792 4289343013
-0.014862783 -0.0024933429 0.024338804 4290716698
-0.012903951 -0.0024513849 0.024223432 4289997599
-0.010945268 -0.0024093115 0.024108155 4289801248
-0.0089867152 -0.0023671207 0.023992976 4289474083
-0.0070283078 -0.0023248256 0.023877885 4289409059
-0.0050700456 -0.0022824132 0.023762895 4289539874
-0.0031119399 -0.0022398965 0.02364799 4289801248
-0.0015689209 0.00013456587 0.021553317 4290520859
0.00023966283 0.00095432997 0.0207793 4290258973
0.0020426363 0.0017740736 0.02000569 4288754474
0.0041329786 0.0010396354 0.020551413 4289343269
0.0060793832 0.0010824464 0.020437606 4289931808
0.0083294734 -0.00042859279 0.021642154 4289800993
0.010280967 -0.00038546696 0.021528201 4289735969
0.011917531 0.0012114644 0.020096697 4289866274
0.013382927 0.0035850657 0.018007189 4289407273
-0.030968193 -0.0012691692 0.021459941 4288491568
-0.029219795 0.00033213757 0.020023318 4289146154
-0.027071018 -0.0011874922 0.02122906 4289866019
-0.025017008 -0.0019266224 0.021774011 4290062879
-0.023174215 -0.0011053439 0.020998562 4290716954
-0.02155903 0.0012760656 0.018903658 4290913559
-0.019505322 0.00053724088 0.01944893 4291109653
-0.017446283 -0.00020130072 0.019993942 4291306004
-0.015143543 -0.0024993047 0.021857627 4290389788
-0.013190318 -0.0024574585 0.02174259 4290062623
-0.011237226 -0.002415508 0.02162764 4289932064
-0.0095389895 -0.00081407465 0.020194868 4289408804
-0.0074615367 -0.001551629 0.020739237 4289408804
-0.0055115819 -0.0015094066 0.020624725 4289408803
-0.0034262501 -0.0022465624 0.0211688 4289801504
-0.0016121194 -0.0014246097 0.020395996 4290193693
0.00019638985 -0.00060266256 0.019623611 4290716954
0.0018556044 0.000998592 0.018193629 4290455323
0.0037965924 0.001041187 0.018080063 4290586138
0.0057374313 0.0010838881 0.017966591 4291109398
0.0079818293 -0.00043164007 0.019168226 4290128158
0.0099277496 -0.00038861297 0.019054616 4289212199
-0.032768469 -0.0044316649 0.021738391 4288949039
-0.031203799 -0.00126094 0.018986018 4290454559
-0.029460892 0.00034465455 0.017552929 4290651163
-0.027317829 -0.0011794847 0.018755814 4289997089
-0.025163963 -0.0027032327 0.019958111 4290128158
-0.023324002 -0.0018798085 0.019184468 4289670433
-0.021600556 -0.00027417112 0.017752865 4289801504
-0.019660745 -0.00023296196 0.017638357 4290128414
-0.017488223 -0.0017558588 0.018839963 4290193694
-0.015304942 -0.0032783663 0.020040981 4289997344
-0.013476431 -0.0024546087 0.019268446 4289932064
-0.011528932 -0.0024127699 0.019153833 4290128159
-0.0099634826 -2.5198795e-05 0.017067237 4289670689
-0.0078943893 -0.00076515228 0.017610518 4290651928
-0.0058200024 -0.0015048357 0.018153531 4290193693
-0.0037403069 -0.00224429 0.018696317 4289539619
-0.001931712 -0.0014202492 0.017925484 4289997344
1.218915e-05 -0.0013778219 0.017811576 4289670179
0.0018123165 -0.00055376999 0.017041383 4290651418
0.0036068112 0.00027030241 0.016271554 4290716953
0.0053957105 0.0010943357 0.01550219 4290259228
0.0073307976 0.0011370033 0.015389122 4289081129
0.0091111884 0.0019610366 0.014620392 4288556849
-0.034946945 -0.0044635804 0.019379998 4288164404
-0.033282124 -0.0020688344 0.017291306 4290128158
-0.031633724 0.0003256686 0.015203739 4290651419
-0.029801764 0.0011507729 0.014431871 4290651418
-0.027667139 -0.0003778981 0.015632017 4290520348
-0.025521722 -0.0019061659 0.016831579 4289539619
-0.023581848 -0.001865196 0.016716888 4289670688
-0.021863881 -0.00025534909 0.015288902 4289539874
-0.019816045 -0.00099858269 0.01583126 4289735714
-0.017762862 -0.0017415928 0.016373385 4290128158
-0.015585285 -0.0032686209 0.017571537 4289997343
-0.013762314 -0.0024427995 0.016800953 4289735969
-0.011944935 -0.0016169203 0.016030753 4289932064
-0.010260362 -7.0789829e-06 0.014605263 4291044884
-0.0083268955 3.4696423e-05 0.014491653 4290979348
-0.006393563 7.6589175e-05 0.01437814 4291175188
-0.0043249615 -0.00066527724 0.014919961 4290717208
-0.0025273338 0.0001606876 0.014151379 4289866784
-0.0004535839 -0.0005808603 0.014693053 4289866529
0.0013382882 0.00024520513 0.013924977 4289670434
0.0034171566 -0.00049600191 0.01446652 4289473573
0.0049052089 0.0018972885 0.012389975 4288162364
-0.039057054 -0.004526319 0.017143231 4288163893
-0.037203096 -0.0036990806 0.016371308 4288949038
-0.035446417 -0.0020849258 0.014943631 4289343013
-0.033606209 -0.0012577921 0.014172731 4289146919
-0.03186876 0.00035625696 0.012746343 4289408549
-0.030042328 0.0011833673 0.011976458 4290193694
-0.028016098 0.00043701287 0.01251811 4289997088
-0.025879119 -0.0010958211 0.013714978 4289735713
-0.023839451 -0.0018416448 0.014256019 4289736224
-0.021905284 -0.0018006805 0.014141753 4289670688
-0.019971222 -0.0017595869 0.014027592 4289866528
-0.017920971 -0.002504841 0.014568264 4290128413
-0.015984412 -0.0024634465 0.014454139 4290128413
-0.014047965 -0.0024219458 0.014340101 4290193949
-0.012360573 -0.00080780499 0.012917599 4290651674
-0.010811396 0.0015924983 0.010841697 4289932319
-0.0090188533 0.0024201786 0.010074774 4289343268
-0.006834019 0.00088958628 0.011269659 4289932063
-0.0047737807 0.00014535524 0.011810344 4290193949
-0.0028463192 0.00018734578 0.011697344 4290062624
-0.00091901422 0.00022944249 0.011584433 4289670178
0.00086462498 0.0010574711 0.010818435 4289473829
0.0027889013 0.0010997215 0.010705866 4289276968
-0.039442293 -0.0029208525 0.013371643 4288491058
-0.037510343 -0.0028809006 0.013256788 4289407784
-0.035853602 -0.00047339033 0.011178201 4290193439
-0.034024391 0.00035570003 0.010409584 4289800994
-0.032297876 0.0019738823 0.0089870859 4289081384
-0.030482449 0.0028029382 0.0082194731 4289604643
-0.028364711 0.0012652148 0.0094141439 4290455068
-0.026130833 -0.0010609627 0.011262011 4290520859
-0.023880702 -0.0033867103 0.013109058 4289801248
-0.022057462 -0.0025569969 0.012341348 4290062879
-0.020239785 -0.0017272513 0.011574008 4289932064
-0.018427659 -0.00089753233 0.010807136 4289670434
-0.016383182 -0.0016449569 0.011346625 4289997343
-0.014333364 -0.0023921928 0.011885928 4290128414
-0.012651451 -0.00077374931 0.010466965 4290913559
-0.011107668 0.0016328907 0.0083962586 4290128413
-0.0093206726 0.0024626963 0.0076312567 4288820008
-0.007274095 0.0017158501 0.0081710946 4289604899
-0.0050869323 0.00018106028 0.009362679 4290193438
-0.0031650513 0.00022292789 0.0092500057 4289931809
-0.0013840646 0.001052998 0.0084857233 4289473319
-0.039482243 -0.0044634654 0.012226406 4287837238
-0.037639387 -0.0036321194 0.011458373 4289211433
-0.036077 -0.00042686332 0.0087318737 4289604644
-0.034158967 -0.00038695987 0.0086180251 4290258973
-0.032338113 0.00044430699 0.0078515764 4290716954
-0.030422941 0.00048440415 0.0077380869 4290913559
-0.028302755 -0.0010576099 0.0089293811 4290520859
-0.026171755 -0.0025992431 0.010120075 4290324509
-0.024137951 -0.0033495361 0.010658229 4289539363
-0.022320252 -0.002517757 0.009892473 4289735714
-0.020621561 -0.0008951528 0.0084754229 4289539618
-0.018701516 -0.00085423142 0.0083621833 4289670688
-0.016781591 -0.00081321411 0.0082490202 4289736224
-0.014618538 -0.0023534093 0.0094383862 4289801504
-0.01281774 -0.0015214281 0.008674046 4290520859
-0.011149578 0.00010111835 0.0072592399 4290978838
-0.0093626603 0.00093308557 0.0064958534 4291109398
-0.0074487999 0.0009745555 0.0063834828 4291109653
-0.0053998381 0.00022570137 0.0069216467 4291044884
-0.0036215 0.0010578213 0.0061590155 4289015848
-0.039349884 -0.0075930124 0.012384739 4287641143
-0.037857182 -0.0035852054 0.0090119131 4288492333
-0.036208585 -0.0011647902 0.0069435411 4289211943
-0.034293421 -0.0011249678 0.0068298471 4289408549
-0.032475382 -0.00029162783 0.0060652276 4289669923
-0.030463319 -0.0010449104 0.0066027823 4289866274
-0.028343398 -0.0025912942 0.0077908426 4289866529
-0.026317883 -0.003344059 0.0083277766 4289604643
-0.024287019 -0.0040965732 0.0088644978 4290062879
-0.02269347 -0.0016765222 0.0068000485 4289800993
-0.021002986 -4.9671158e-05 0.0053867013 4291175444
-0.019091252 -8.9379027e-06 0.0052739424 4291109909
-0.016941961 -0.0015539732 0.0064608096 4290324763
-0.014781896 -0.0030986024 0.0076470966 4289540128
-0.012983907 -0.0022645015 0.0068845446 4289866783
-0.0114455 0.00015513413 0.0048238398 4290062878
-0.0095343739 0.00019641872 0.0047115353 4290062879
-0.0077558234 0.0010304563 0.003950391 4290259228
-0.0058476888 0.0010719085 0.0038384357 4289146663
-0.0043533668 0.0034910273 0.0017806455 4288884014
-0.040826693 -0.013954416 0.015253346 4286921024
-0.039303839 -0.0099352356 0.011886727 4287445049
-0.037719466 -0.0067122187 0.0091717299 4287904049
-0.0360654 -0.0042852266 0.0071079195 4288035119
-0.034239218 -0.0034496691 0.0063443412 4288885033
-0.032418557 -0.0026140525 0.0055811452 4289539108
-0.030603409 -0.001778475 0.0048184074 4289800993
-0.028691351 -0.0017383443 0.0047051753 4289800993
-0.026569057 -0.0032888902 0.005889962 4289932063
-0.024651725 -0.0032484024 0.0057765995 4289735714
-0.023066334 -0.00082195085 0.0037174514 4290390043
-0.021384042 0.00080903061 0.0023078662 4290978838
-0.019480627 0.00084958691 0.0021955972 4290913558
-0.017102215 -0.0022901013 0.0046759602 4291109909
-0.015188131 -0.0022490812 0.0045632385 4289735968
-0.013398398 -0.0014129812 0.0038027926 4289736734
-0.011614226 -0.0005768938 0.0030427515 4289606174
-0.0098356269 0.00025921408 0.0022831438 4289473829
-0.0080626048 0.0010952819 0.0015239234 4288819244
-0.040866911 -0.01551364 0.014095766 4286463553
-0.039257891 -0.012281597 0.011385718 4287379768
-0.037581969 -0.0098477267 0.0093253162 4287511093
-0.035922449 -0.0074140383 0.0072660069 4287838768
-0.034185119 -0.005778424 0.0058557508 4288231469
-0.032458764 -0.0041428623 0.0044462038 4288950568
-0.030743375 -0.002507457 0.0030374341 4289735204
-0.028834194 -0.002467372 0.0029243832 4289735714
-0.026819997 -0.0032247244 0.0034587486 4289605154
-0.024908267 -0.0031843497 0.0033457228 4290586138
-0.023438841 4.5946799e-05 0.00064474647 4289670434
-0.021764744 0.001681081 -0.00076113397 4289539619
-0.019753654 0.00092414487 -0.00022622605 4289408549
-0.017499775 -0.0014271373 0.0016015333 4290455579
-0.015594009 -0.0013863184 0.0014892833 4289670944
-0.013688356 -0.0013453588 0.0013771479 4289932573
-0.012036603 0.0002899291 -2.7020462e-05 4289671199
-0.010266244 0.0011280002 -0.00078455021 4289277734
-0.041156903 -0.014672089 0.010997349 4286594624
-0.039212059 -0.014632037 0.010881606 4287510838
-0.037444696 -0.012991618 0.009472603 4287773234
-0.035596848 -0.012151409 0.0087108668 4287707698
-0.033942826 -0.0097112069 0.0066568167 4287904304
-0.032305215 -0.0072712949 0.0046038539 4289081893
-0.030684013 -0.0048315297 0.0025519361 4288885544
-0.02897691 -0.0031918306 0.0011469836 4288819754
-0.027070694 -0.0031516845 0.0010341995 4289539363
-0.025272328 -0.0023117526 0.00027595856 4290128158
-0.023810983 0.0009270506 -0.002418081 4290651673
-0.021918658 0.00096726697 -0.0025297725 4290193949
-0.019910485 0.0002080733 -0.0019963263 4289800993
-0.017778326 -0.0013503218 -0.00081819668 4290586138
-0.015878137 -0.0013096025 -0.00093010208 4289735714
-0.013978072 -0.001268778 -0.0010419204 4289539108
-0.012331776 0.00037068035 -0.0024425006 4288032059
-0.041446548 -0.013817168 0.0079087857 4287183419
-0.039338179 -0.01538193 0.009084031 4287903029
-0.037484936 -0.01453951 0.0083234608 4287641908
-0.035637185 -0.013697115 0.0075633586 4287904049
-0.033794954 -0.012854709 0.006803676 4288035118
-0.032055061 -0.011210174 0.0053997943 4288755239
-0.030425671 -0.0087637659 0.0033522821 4288558633
-0.028914969 -0.0055155889 0.00066152611 4288427564
-0.027111165 -0.0046735043 -9.5520169e-05 4289212199
-0.02542061 -0.0030295076 -0.0014961095 4289539109
-0.023851465 -0.00058388989 -0.0035397015 4290193949
-0.021959282 -0.00054371264 -0.0036514113 4290586139
-0.020067196 -0.00050339196 -0.0037630084 4290455833
-0.018056612 -0.0012645954 -0.0032312376 4290586138
-0.016283337 -0.00042246096 -0.003985961 4288819243
-0.014515631 0.00041974243 -0.0047402913 4289145899
-0.04173585 -0.012949004 0.0048300517 4286594624
-0.039635926 -0.014518262 0.006002584 4287575608
-0.037613757 -0.015282726 0.0065310593 4287903539
-0.035677522 -0.015242557 0.0064160465 4287904049
-0.033741347 -0.015202305 0.0063010999 4288035118
-0.031998765 -0.013553436 0.0049003158 4288362283
-0.030366641 -0.011100386 0.0028574686 4288165933
-0.028955344 -0.0070393435 -0.00046964083 4287970094
-0.027151637 -0.006195073 -0.0012250524 4288558123
-0.025461107 -0.0045467494 -0.002622419 4289277478
-0.023781557 -0.0028985948 -0.0040190159 4289015848
-0.022113003 -0.0012505045 -0.005414912 4289800993
-0.020107955 -0.0020141359 -0.0048844609 4289997853
-0.018334672 -0.0011698967 -0.0056376932 4289931808
-0.016566914 -0.00032569654 -0.0063904654 4288753454
-0.03791954 -0.01440811 0.0034583621 4287380024
-0.035900362 -0.015174737 0.0039855256 4287511093
-0.033875804 -0.015941054 0.0045124441 4287838769
-0.032039281 -0.015094315 0.0037564142 4289212964
-0.030307714 -0.013441158 0.0023595737 4288100654
-0.02868925 -0.010981827 0.00032249768 4288035118
-0.026982337 -0.0093289325 -0.0010726936 4288296748
-0.025393996 -0.0068700099 -0.0031078185 4288492844
-0.023822073 -0.0044112694 -0.0051419251 4288492589
-0.022266582 -0.0019527609 -0.0071749743 4288950569
-0.020611752 -0.00030054245 -0.0085666962 4289407783
-0.036031768 -0.015906647 0.0022016591 4286856508
-0.034010142 -0.016675256 0.002727163 4288099889
-0.032176446 -0.01582635 0.0019728844 4288558124
-0.030447628 -0.014168931 0.00057949545 4288165423
-0.028729774 -0.012511671 -0.00081318989 4288100399
-0.027022902 -0.010854425 -0.0022051395 4288165934
-0.02532699 -0.0091973729 -0.0035963384 4288100398
-0.023862578 -0.005923741 -0.0062646833 4288231469
-0.022420038 -0.0026504728 -0.008931661 4288492333
-0.020999368 0.00062245689 -0.011597255 4288491313
-0.0343321 -0.015783161 -0.00033131288 4287379514
-0.032410067 -0.015743095 -0.00044533983 4287772214
-0.030488104 -0.015702887 -0.00055925618 4287641398
-0.028566215 -0.01566256 -0.00067307893 4288099378
-0.026853926 -0.014000927 -0.0020620932 4288034353
-0.025260087 -0.011528827 -0.0040878961 4287969328
-0.023682673 -0.0090569472 -0.0061126328 4288100399
-0.022234596 -0.0057748887 -0.0087734815 4287838259
-0.032739982 -0.014837934 -0.0034934955 4285940804
-0.030727077 -0.015610843 -0.0029705374 4287641143
-0.028708808 -0.016383477 -0.0024478519 4287837493
-0.026894569 -0.015530331 -0.0031974439 4287903283
-0.025193285 -0.013864421 -0.0045825257 4287838259
-0.023613114 -0.011386017 -0.0066025392 4287838513
-0.022162225 -0.0080952346 -0.0092571061 4287838258
-0.028953198 -0.016284786 -0.0048538549 4287248188
-0.027039856 -0.016244523 -0.0049670842 4287444538
-0.025233954 -0.015389282 -0.0057144947 4287707189
-0.023433577 -0.014534032 -0.006461483 4287641398
-0.021977156 -0.011234435 -0.0091099031 4288165169
-0.027498748 -0.014502886 -0.0086317323 4287837493
-0.025381904 -0.016096879 -0.0074789519 4287510839
-0.02358434 -0.01523952 -0.0082241613 4288034863
-0.022130553 -0.011931309 -0.010865971 4288165169
-0.025636971 -0.015980717 -0.0098710777 4287576118
-0.023734968 -0.015940487 -0.0099834837 4288230959
-0.022283811 -0.01262366 -0.012618685 4287445303
-0.024215195 -0.014172841 -0.013627248 4286987834
-0.022662196 -0.011668878 -0.015626278 4286660158
0.028539211 -0.0045375326 0.034555148 4282929254
0.024418443 0.0030644583 0.025535783 4280697494
0.026550755 0.0023385314 0.026084697 4278862258
0.029046938 7.3090196e-05 0.027958216 4282142323
0.019956507 0.0037271949 0.022616431 4282204799
0.021562167 0.005315165 0.021180566 4279388834
0.025269821 0.0061744759 0.020293854 4278401473
0.027567402 0.0046741255 0.021502811 4278401473
0.033487432 -0.0037288386 0.02854248 4281618044
0.017632812 0.0036730124 0.020252332 4281549193
0.019406982 0.0044908468 0.019479454 4279520159
0.02083344 0.0068574352 0.017387643 4278864553
0.022590905 0.0076750563 0.016615856 4279126439
0.024342701 0.0084927203 0.015844453 4279585184
0.026447266 0.0077618631 0.016391851 4278731188
0.028920881 0.0054830005 0.018256996 4278995114
0.031410605 0.0032045785 0.020121336 4279258529
0.034103759 0.00015256554 0.022643475 4280045970
0.015320249 0.0036281748 0.017894281 4281484678
0.016760796 0.0060013654 0.015806407 4279389344
0.018521301 0.0068211285 0.015035911 4278733738
0.022025444 0.00846045 0.013496185 4279520924
0.023945458 0.0085036317 0.013384627 4279455644
0.025865287 0.0085468935 0.013273144 4279126438
0.027966738 0.0078139203 0.013819125 4278798764
0.030073419 0.0070811687 0.01436488 4279061159
0.032559916 0.0047962237 0.016224608 4279193759
0.035252512 0.0017355923 0.018740375 4282078064
0.038352087 -0.0028765961 0.022568477 4282339949
0.012538791 0.0059294933 0.013571139 4281550469
0.014299653 0.0067512104 0.01280215 4279324319
0.016054869 0.0075729126 0.012033569 4278734249
0.018140838 0.006836989 0.012578513 4278800038
0.021634012 0.0084804194 0.011042666 4278269638
0.023195758 0.010080741 0.0096192062 4278466243
0.025104605 0.01012376 0.0095083639 4278400454
0.027013235 0.010166847 0.0093975887 4278338488
0.02947519 0.0078747338 0.011253817 4278602669
0.031765997 0.0063614557 0.012453657 4278537643
0.034067497 0.0048484625 0.01365298 4278734504
0.036572278 0.0025575934 0.015506854 4278866084
0.039483935 -0.0012892094 0.01866989 4282667368
0.010571435 0.0043475078 0.012540851 4281550214
0.015514843 0.0083810845 0.0089289472 4278406573
0.017760627 0.0068618068 0.010127764 4278669478
0.019333676 0.0084665501 0.0087067503 4278603434
0.021069244 0.0092902416 0.0079411212 4278273718
0.024881452 0.0093760891 0.0077197053 4278925498
0.026968986 0.0086384742 0.0082632732 4279453604
0.029246211 0.0071204165 0.0094606485 4278472109
0.031159766 0.0071637938 0.0093497206 4278603179
0.033073105 0.0072072493 0.0092388671 4278734504
0.04079219 -0.00046492461 0.015439004 4281814139
0.008295238 0.0043327073 0.010202512 4279258529
0.0098991394 0.0059420178 0.0087825898 4278536623
0.013073787 0.0091600837 0.0059449603 4278859964
0.017212585 0.0076787407 0.0070302621 4279127203
0.019289859 0.0069384007 0.0075725694 4278865573
0.021025367 0.0077642659 0.0068085627 4278472874
0.02275525 0.0085901031 0.0060449555 4278538154
0.024479486 0.0094158994 0.0052817427 4278603434
0.026379764 0.0094588073 0.0051714596 4278668714
0.0286486 0.0079362569 0.006366042 4278799528
0.030366786 0.0087621631 0.00560336 4278406318
0.032079361 0.0095880134 0.0048410608 4278337723
0.036463812 0.0073269354 0.0065764305 4278728384
0.038964912 0.0050230464 0.0084209628 4278270658
0.041883454 0.0011547767 0.011567503 4278403004
0.044828959 -0.0027128025 0.014712542 4282601834
0.0042661279 0.0034992639 0.0086348578 4282794103
0.0057268664 0.0058985865 0.0065648458 4279847834
0.0074799061 0.0067263683 0.0058009517 4278733738
0.0090702102 0.0083397375 0.004385069 4278799018
0.010649472 0.0099529019 0.0029699327 4279913369
0.012380235 0.010780499 0.002207573 4279520924
0.014435939 0.010037291 0.0027493597 4278470324
0.016664915 0.0085089868 0.0039426414 4278996134
0.018733874 0.0077662086 0.004483832 4278865063
0.020634629 0.0078089004 0.0043733516 4278865063
0.02253519 0.0078516481 0.0042629275 4278865319
0.024435535 0.0078945002 0.004152596 4278537644
0.026335716 0.0079374062 0.00404232 4278668203
0.028235689 0.0079804054 0.0039321263 4278798763
0.031655505 0.009636295 0.0024109678 4279125674
0.033356965 0.010464138 0.0016509811 4279191208
0.035443142 0.0097225392 0.0021916847 4279715233
0.040233076 0.0058861198 0.0052218745 4279519904
0.042546451 0.0043606889 0.0064110528 4279913880
0.045488611 0.00048223604 0.0095482469 4281160063
0.0018687844 0.0042890413 0.0056555495 4282336123
0.0034786388 0.0059068417 0.004241575 4278996389
0.0050774291 0.0075245546 0.0028282874 4278537389
0.010127127 0.010801344 -0.00010603666 4278861238
0.012012169 0.010843317 -0.00021587638 4278601393
0.018348902 0.0078199627 0.0020549004 4278603433
0.020417504 0.0070751449 0.002594525 4278799784
0.022315226 0.0071178479 0.0024842806 4278472109
0.024033949 0.0079478743 0.0017246285 4278734249
0.025928587 0.0079906592 0.0016146756 4278733994
0.027823023 0.0080335243 0.0015047963 4278799783
0.032927901 0.010523413 -0.00077054009 4279517864
0.034813389 0.010566386 -0.00087966828 4279257509
0.037094362 0.0090357335 0.00030804775 4279060904
0.039185427 0.0082921972 0.00084694638 4278406063
0.041485012 0.0067620939 0.0020336788 4278734504
0.044001207 0.0044457223 0.0038677165 4278866084
0.047785744 -0.0025896886 0.0095874555 4279194014
-0.00051177293 0.0050925799 0.0026852274 4281812098
0.00094939023 0.0075047268 0.00062480383 4279323554
0.0026917532 0.0083364667 -0.00013541733 4279192739
0.0042769462 0.0099581769 -0.0015446359 4278734759
0.0078852177 0.010831426 -0.002413535 4278271423
0.015906498 0.0086299581 -0.00090598478 4279060393
0.017964214 0.0078825923 -0.00036736822 4278669224
0.01985389 0.0079250047 -0.00047722796 4278406829
0.021743365 0.0079675084 -0.00058700389 4278603434
0.023275115 0.0095890043 -0.0019924564 4278472109
0.025340252 0.0088421805 -0.0014540653 4278603688
0.027226441 0.0088848574 -0.0015634664 4278538154
0.029486254 0.0073490841 -0.00037797715 4278800294
0.039140888 0.0067755328 -0.00027863099 4278734248
0.041440263 0.0052410848 0.00090488349 4278668969
0.043956198 0.0029181931 0.0027340869 4278342058
0.047531426 -0.0033480832 0.0077931467 4279980944
-0.0027349107 0.0051174024 0.00037240982 4281549958
-0.0012708232 0.0075360509 -0.0016834674 4278994604
0.0042345747 0.008452733 -0.0026620233 4278537643
0.0059629604 0.009286481 -0.0034196309 4278603688
0.0079996288 0.0085360659 -0.0028817819 4279061413
0.0095625594 0.010161924 -0.0042862473 4278405043
0.011601597 0.0094117364 -0.0037484067 4279320748
0.013645902 0.0086617609 -0.0032108037 4279257254
0.015695475 0.0079119736 -0.0026734553 4278733994
0.017750315 0.0071624098 -0.002136332 4278537899
0.019637153 0.0072047645 -0.0022460218 4278603433
0.021347821 0.0080388775 -0.0030020315 4278992308
0.026814379 0.008957942 -0.0039759055 4279190954
0.028881669 0.0082091419 -0.0034391496 4278603689
0.030764677 0.0082518877 -0.003548261 4278603688
0.036610179 0.0075893691 -0.0032300507 4278406318
0.038895942 0.0060501909 -0.0020490387 4278931619
0.041598685 0.0029292507 0.00042108144 4279194523
0.04769443 -0.005683749 0.0072912616 4282340459
-0.0049467944 0.0051515484 -0.0019343855 4280764303
-0.0036203302 0.0083712554 -0.0046324683 4278733739
0.0018634275 0.0092893606 -0.0056084199 4278268364
0.0059205368 0.0077834399 -0.0045352262 4278995878
0.0078001395 0.0078250775 -0.004644908 4278930854
0.0095199719 0.0086610196 -0.0054002395 4278734504
0.011234194 0.0094969822 -0.0061552105 4278735013
0.013272904 0.0087446356 -0.0056188786 4278538664
0.015484616 0.007198547 -0.0044375439 4278538154
0.017536558 0.0064467499 -0.0039018667 4278538154
0.019074187 0.0080768159 -0.005301306 4278406573
0.026218511 0.0098336199 -0.0070261024 4278268873
0.028464295 0.0082888165 -0.0058462862 4278799784
0.030341752 0.0083314395 -0.0059550731 4278669223
0.032603443 0.0067872042 -0.0047760978 4278472619
0.034485966 0.0068300711 -0.0048850835 4278537899
0.036961243 0.0044929339 -0.0030633658 4278603433
0.039252229 0.0029495554 -0.0018859454 4279325338
0.042163141 -0.00097320415 0.0012206077 4280701829
0.044895217 -0.0041021467 0.0036825766 4281095293
-0.0072824657 0.0059918324 -0.0048806397 4280568208
-0.0055397153 0.0068296297 -0.0056363069 4278996644
-0.0023574084 0.010098704 -0.0084366146 4279061669
-0.00063686073 0.010936349 -0.0091907345 4278865829
0.0015240759 0.009384132 -0.0080101602 4278732718
0.003392987 0.00942533 -0.0081193689 4278929578
0.0055699348 0.007873659 -0.0069395853 4278537133
0.0074439719 0.0079151737 -0.0070489417 4278669224
0.0091583282 0.0087531349 -0.0078023602 4278603434
0.010867052 0.0095910942 -0.008555362 4278734760
0.012900136 0.0088365069 -0.0080203498 4278865829
0.015106179 0.0072858939 -0.006841884 4278669223
0.017152518 0.0065317871 -0.0063075079 4278472619
0.020381726 0.0090042511 -0.008455433 4279454624
0.022251673 0.0090463674 -0.0085640363 4278865574
0.024302736 0.0082927002 -0.0080296863 4278995369
0.025991052 0.0091308607 -0.0087810075 4278402494
0.028047167 0.0083774505 -0.0082468465 4278668203
0.030108556 0.0076241931 -0.0077128899 4278603434
0.032367319 0.0060755098 -0.0065370053 4278472109
0.034441896 0.0053227404 -0.0060037472 4278472108
0.037114479 0.0021835556 -0.003544952 4278603943
0.039608292 -0.00015960913 -0.0017291091 4279391893
0.042321235 -0.0032977662 0.00072743208 4281487994
0.045055673 -0.0064353044 0.0031827497 4281160319
-0.010955594 0.0036084736 -0.0051309187 4283252083
-0.0094690397 0.006046745 -0.0071738702 4278931364
-0.0078639463 0.0076856492 -0.0085717812 4278538409
-0.0059944466 0.0077263666 -0.0086813914 4278669223
-0.0026853196 0.010204858 -0.010830812 4278401984
-0.00097027421 0.011044555 -0.011582991 4279320749
0.0010363683 0.010286623 -0.011048494 4278273464
0.0050655678 0.0087713832 -0.0099801458 4278537388
0.0069313273 0.0088127097 -0.010089021 4278669224
0.0084779784 0.010451264 -0.011482893 4278538409
0.010175772 0.011291145 -0.012233645 4278735014
0.012362726 0.009735669 -0.011057368 4278669479
0.014392756 0.0089789042 -0.010523748 4278603944
0.016598396 0.00742405 -0.0093484828 4278407339
0.022029981 0.0083483038 -0.01031588 4279715744
0.02389694 0.0083904294 -0.010424251 4279060904
0.027630314 0.0084749153 -0.010640781 4278667439
0.029496737 0.00851727 -0.010748941 4278865063
0.032131322 0.0053683762 -0.0082945302 4278668713
0.034592666 0.0030178325 -0.0064818216 4279324828
0.037662677 -0.0017254399 -0.0027490011 4280767109
0.040364601 -0.0048726024 -0.00029833918 4281422713
0.042885095 -0.0072215749 0.0015111105 4281488249
0.045010358 -0.0079751415 0.0020399811 4281816434
-0.013007008 0.0028647417 -0.0067798127 4282990454
-0.01151485 0.0053095473 -0.0088183228 4280568209
-0.010171346 0.0085554281 -0.011498272 4279324319
-0.0084449388 0.0093970979 -0.012249835 4278800804
-0.0064487942 0.0086363843 -0.011716619 4278604454
-0.0025836788 0.0079166098 -0.011292737 4278270914
0.00270392 0.0096413894 -0.012902409 4279320493
0.004715547 0.0088815792 -0.012369677 4278668969
0.0064190403 0.00972356 -0.013119295 4278734758
0.0081169605 0.010565524 -0.013868505 4278603944
0.010133535 0.0098061031 -0.013335858 4278472874
0.012155421 0.0090469057 -0.012803439 4278407339
0.014014974 0.0090884427 -0.012911694 4278800803
0.016044654 0.0083295433 -0.012379564 4278735269
0.017906606 0.0083713224 -0.012487821 4278733738
0.023672581 0.0076968437 -0.012172559 4278401729
0.027586937 0.006981059 -0.011749467 4278799783
0.029642567 0.0062233461 -0.01121847 4278668969
0.032087512 0.0038657859 -0.0094096856 4279652759
0.034743324 0.00070871506 -0.0069629471 4280767873
0.037618123 -0.0032476173 -0.0038786801 4281357434
0.040319711 -0.00640349 -0.0014344768 4281225853
0.042637065 -0.0079592932 -0.00026827736 4281488248
0.044965073 -0.0095147882 0.00089735352 4282274923
-0.013681632 0.0053807665 -0.011100821 4278602159
-0.010740884 0.010282577 -0.015165498 4278400453
-0.0064899884 0.0071494626 -0.012820309 4279192228
-0.0044887252 0.0063867336 -0.012288902 4278865829
-0.0026251934 0.0064275032 -0.012398027 4278603944
-0.0011990592 0.0088780141 -0.014427349 4278341549
0.00050754845 0.009721932 -0.015175756 4278407084
0.0025109723 0.0089596892 -0.014644222 4278603688
0.0045196861 0.0081976363 -0.014112944 4278406829
0.0063770562 0.0082387617 -0.014221344 4278537644
0.0079155788 0.0098857628 -0.015608246 4278602669
0.011783443 0.0091654314 -0.015185056 4278399943
0.013637468 0.0092068473 -0.015292989 4278597059
0.015491329 0.0092483433 -0.015400847 4279388323
0.017517954 0.0084873037 -0.014870157 4278538409
0.019549862 0.0077264765 -0.014339702 4278472619
0.021408647 0.0077683339 -0.014447663 4278341039
0.025493346 0.0062474916 -0.013387639 4278537388
0.027543582 0.0054873861 -0.01285802 4278865318
0.030166812 0.0023207506 -0.010415964 4279455898
0.032811575 -0.0008453019 -0.0079750847 4280636294
0.035477914 -0.0040108189 -0.0055354214 4281029759
0.037771009 -0.0055716718 -0.0043711644 4281487993
0.040074736 -0.0071321931 -0.0032074577 4281684343
0.042389192 -0.0086924769 -0.0020443015 4281421693
-0.017456267 0.003809453 -0.011987906 4282073474
-0.015961066 0.0062671239 -0.014017068 4278865318
-0.0069437586 0.0080794217 -0.015840663 4279453604
-0.004670348 0.0057033952 -0.014032857 4278733994
-0.0028096624 0.0057440856 -0.014141832 4278865574
-0.0012404919 0.0073956279 -0.015527643 4278734248
0.00046606362 0.0082417103 -0.016274435 4278865319
0.0023181587 0.0082825245 -0.01638267 4278734249
0.0043239892 0.0075182272 -0.015852848 4278995878
0.0061785132 0.0075592818 -0.015961086 4278799784
0.0080328956 0.0076004313 -0.016069245 4278733229
0.0098871365 0.0076416479 -0.016177341 4278467519
0.011411741 0.0092929164 -0.017560098 4279450544
0.017302468 0.0078073805 -0.016608961 4278537898
0.01915589 0.0078490125 -0.016716689 4278341549
0.021187462 0.0070860749 -0.01618778 4278603434
0.023224294 0.0063233254 -0.015659126 4278734248
0.025817655 0.0031471634 -0.013221923 4278800039
0.031069063 -0.0032034777 -0.0083511099 4280307599
0.03334327 -0.004769261 -0.007189109 4281422714
0.035628177 -0.0063347584 -0.0060276235 4281357179
0.037726447 -0.0070956773 -0.0055022044 4281619319
0.039829947 -0.0078564323 -0.0049770544 4281684598
-0.01960057 0.0038950238 -0.014261482 4281943169
-0.01798135 0.005551029 -0.015647721 4279520924
-0.014775883 0.0088627087 -0.018418051 4279521179
-0.01293103 0.0089025563 -0.018526465 4278800038
-0.011218328 0.0097503373 -0.01927245 4279126183
-0.0072596967 0.0082149366 -0.018213902 4278733484
-0.0052724108 0.0074475789 -0.017684968 4278668458
-0.0031369068 0.0058727758 -0.016519228 4278603179
-0.0014275461 0.0067209685 -0.017264657 4278734760
0.00027621537 0.0075692059 -0.018009711 4278341294
0.0019744188 0.0084173689 -0.01875433 4278668203
0.0039746165 0.0076507824 -0.018225789 4278603434
0.0059801266 0.0068843374 -0.017697465 4278341039
0.0096830726 0.0069665546 -0.017913405 4279389089
0.01120498 0.0086220847 -0.019292789 4278800549
0.012883253 0.0094703184 -0.020035863 4278537643
0.014896132 0.0087045459 -0.019507665 4278733484
0.017087109 0.0071319556 -0.018344428 4278406318
0.018937714 0.0071735075 -0.018452004 4278865829
0.021144673 0.0056014853 -0.017289612 4278603688
0.023362316 0.0040297611 -0.016127728 4278603688
0.025958069 0.00084499083 -0.013697186 4279587224
0.028575346 -0.0023392662 -0.011267802 4280963203
0.031214207 -0.0055229641 -0.0088396147 4280110483
0.033682764 -0.0078995926 -0.0070467894 4281552764
0.035583802 -0.0078563932 -0.0071569132 4281815158
0.037681915 -0.0086195273 -0.0066331304 4281946739
-0.019759152 0.0032191128 -0.016001558 4279324574
-0.018263757 0.0056896973 -0.018021122 4278865829
-0.013229929 0.0090494817 -0.02089241 4279257509
-0.011522733 0.0098993527 -0.021636505 4278864043
-0.0095517039 0.0091291862 -0.02110837 4278468794
-0.0078501925 0.0099791484 -0.021851972 4278537133
-0.0058739632 0.0092093116 -0.021323981 4278668969
-0.0038924366 0.0084397132 -0.020796284 4278734248
-0.0020511746 0.008480086 -0.020904038 4278668969
-0.00035832822 0.0093301879 -0.021646813 4278668969
0.0013289303 0.010180295 -0.022389239 4278865063
0.003164351 0.010220804 -0.022496454 4278603179
0.005468972 0.0078329416 -0.020699721 4278275504
0.0094791576 0.0062960433 -0.019646145 4279385774
0.010833763 0.0087650856 -0.021656243 4279716509
0.012506567 0.0096153626 -0.022397388 4279322789
0.01669915 0.0072702477 -0.020710209 4279061158
0.018719696 0.0065026088 -0.020183977 4278865319
0.021458313 0.0024990942 -0.017124562 4278669478
0.024042986 -0.00069469493 -0.014699904 4279653523
0.026465632 -0.0030791229 -0.012909448 4280963713
0.028904393 -0.0054631112 -0.01111987 4281422203
0.031170204 -0.0070378482 -0.0099639073 4281356413
0.0336385 -0.0094210347 -0.008175943 4280503439
0.035539448 -0.0093778605 -0.0082860794 4281749879
-0.019680984 0.0009228047 -0.016467799 4278471598
-0.018303856 0.004212385 -0.019117739 4278668968
-0.016824853 0.0066891732 -0.021131383 4278931363
-0.008165475 0.010136736 -0.024208754 4278537899
-0.006334953 0.010176645 -0.02431605 4278603688
-0.004361771 0.0094047142 -0.023789464 4278603688
-0.002674289 0.010256742 -0.024530403 4278735014
-0.0011406168 0.011920647 -0.025904434 4278407339
0.00083489716 0.01114899 -0.025377743 4278603944
0.0028157011 0.010377596 -0.024851331 4278538409
0.0049582124 0.0087947538 -0.023692174 4278865574
0.010462821 0.0089169992 -0.02401316 4278269893
0.016656861 0.0057947924 -0.021805283 4279061413
0.019028097 0.0034024436 -0.020016871 4278603434
0.021593586 0.00019937754 -0.01759761 4279586969
0.024180651 -0.0030031274 -0.015179547 4280832133
0.02642215 -0.0045829499 -0.01402555 4281226109
0.028674349 -0.0061624413 -0.012872105 4281357179
0.030937269 -0.0077416827 -0.011719204 4281421693
0.033210836 -0.009320558 -0.010566901 4280767108
0.035106264 -0.00927753 -0.010676732 4281356923
0.03719867 -0.010045236 -0.010155851 4282471273
-0.020658128 -0.0071204812 -0.012390723 4282467959
-0.019366406 -0.003006998 -0.015669851 4279586459
-0.017981026 0.00029141363 -0.018313836 4279259039
-0.016493823 0.002774951 -0.020323142 4278865829
-0.015149448 0.0060726432 -0.02296452 4278735779
-0.013568696 0.0077412156 -0.024338599 4278473639
-0.010171015 0.0094492221 -0.025819236 4278472363
-0.0084805079 0.010303245 -0.026558992 4278538154
-0.0065155327 0.009528785 -0.026033599 4278407339
-0.0046879761 0.0095687183 -0.026140654 4278800039
0.00049212575 0.011316993 -0.027724791 4278596293
0.0024673417 0.010543277 -0.027199691 4279387813
0.0047604889 0.0081420848 -0.025412019 4278472363
0.006592676 0.0081826719 -0.025518935 4278538154
0.014089905 0.0075322976 -0.025315305 4278602923
0.016614616 0.0043194555 -0.022900268 4278929578
0.019160897 0.001107174 -0.020486429 4279258019
0.022084899 -0.0037312047 -0.016813545 4280635784
0.024318203 -0.0053156973 -0.015662337 4281160574
0.026378714 -0.0060865968 -0.015141521 4281160573
0.028816916 -0.0084836762 -0.013361644 4281357179
0.031082325 -0.010067184 -0.01221218 4281619574
-0.020814095 -0.0078065619 -0.014138566 4282207093
-0.019524936 -0.0036822981 -0.017409476 4279456409
-0.018021271 -0.0011920249 -0.019415004 4279194269
-0.016534019 0.0012979945 -0.02141949 4278866084
-0.014810491 0.0021544313 -0.022159845 4278734759
-0.013350647 0.0046440493 -0.024162505 4279128733
-0.011907246 0.0071334364 -0.02616418 4278865319
-0.010211252 0.0079895752 -0.026902694 4278668969
-0.0085208081 0.0088457623 -0.027640834 4278603688
-0.0064160638 0.0072527593 -0.026486337 4278472874
-0.0047285818 0.0081090303 -0.027224116 4278668714
-0.0015184209 0.010637692 -0.029328788 4278793663
0.00045130402 0.0098615801 -0.028805055 4278268873
0.0045629293 0.0074939495 -0.027128506 4278668714
0.0063923001 0.0075344564 -0.02723527 4278538154
0.008059822 0.0083909025 -0.027971424 4278603434
0.010050587 0.0076157143 -0.027448582 4278603688
0.012213804 0.0060249371 -0.02629688 4278537898
0.014387734 0.0044344468 -0.025145689 4278799783
0.017090112 0.0003973823 -0.022108613 4279979158
0.019644201 -0.002823425 -0.019701703 4280372624
0.022397868 -0.0068591954 -0.016667498 4279192994
0.024455681 -0.0076324432 -0.016148226 4281225853
0.026518755 -0.0084054908 -0.015629202 4281291389
0.028773241 -0.0099937236 -0.014482362 4281291643
-0.020969916 -0.0084881447 -0.015883071 4281159043
-0.019447066 -0.005991058 -0.017884964 4279718548
-0.017698925 -0.0051321466 -0.018625317 4279718293
-0.015956324 -0.0042732502 -0.019365268 4279652249
-0.014471855 -0.0017766757 -0.021364668 4279127968
-0.013003811 0.00071963295 -0.023363037 4278866084
-0.01181566 0.0048531154 -0.026619524 4278931364
-0.010251466 0.0065301219 -0.027986012 4279127968
-0.0085610822 0.0073884474 -0.028722556 4278669479
-0.0033779591 0.009144756 -0.030300863 4278996134
-0.0017070919 0.010002992 -0.031035937 4278865319
0.0020783916 0.0092647048 -0.030619949 4278732463
0.0043655336 0.0068503106 -0.028841656 4278668203
0.0061920732 0.0068907263 -0.028948275 4278668459
0.0080184713 0.0069312239 -0.029054824 4278603688
0.010009065 0.0061538303 -0.028533608 4278603688
0.012339145 0.0037407102 -0.026757581 4278866084
0.014855146 0.00051023904 -0.024355091 4281094529
0.017392747 -0.0027197311 -0.021953767 4281160573
0.019776717 -0.0051313979 -0.020180693 4281160573
0.022354752 -0.0083603133 -0.01778161 4281094783
0.024593055 -0.0099533629 -0.016637217 4280308364
0.026842088 -0.011546175 -0.015493378 4281422714
-0.021010254 -0.0099863978 -0.016995259 4280766088
-0.019487366 -0.0074828183 -0.01899232 4279390874
-0.017618503 -0.0074428529 -0.019102443 4279587223
-0.015996769 -0.0057607093 -0.020469414 4279652504
-0.014386021 -0.0040786294 -0.021835683 4279521434
-0.012915213 -0.0015757382 -0.02382936 4279128478
-0.011460822 0.00092683826 -0.025821963 4278538409
-0.010022864 0.003429208 -0.027813569 4278931619
-0.0086013302 0.0059312982 -0.029804153 4278866083
-0.0070563965 0.0076124175 -0.031166138 4278669734
-0.0020436123 0.010193369 -0.033366799 4278733994
-8.238852e-05 0.0094126435 -0.032845795 4278406574
0.005991973 0.0062515801 -0.030657956 4278865063
0.0079771429 0.0054717232 -0.030138092 4278537898
0.010296173 0.0030517839 -0.028366389 4279192993
0.012631401 0.00063226186 -0.026595512 4280373899
0.015152499 -0.002606859 -0.024199767 4280898434
0.017522745 -0.0050254459 -0.022430813 4281291644
0.019733958 -0.0066236369 -0.021288222 4281357179
0.022133797 -0.0090414211 -0.019520886 4281161339
0.024369173 -0.010638905 -0.018379575 4281947504
0.02643194 -0.011416382 -0.017863825 4281947503
0.028313942 -0.011373979 -0.017973118 4282078828
-0.022927642 -0.011524385 -0.017996538 4282993769
-0.021165878 -0.010661041 -0.018734688 4280438413
-0.019527644 -0.0089744106 -0.020099554 4279390874
-0.017779652 -0.0081111984 -0.020836696 4279718549
-0.016037196 -0.0072479891 -0.021573426 4279586969
-0.014426466 -0.005561593 -0.022936482 4279652248
-0.0128267 -0.0038753673 -0.02429877 4278734249
-0.008504495 0.0036513349 -0.03025955 4278865829
-0.0073761605 0.0078054843 -0.033496179 4278866339
-0.0058476627 0.0094907125 -0.03485395 4278405808
0.0038150847 0.0063990792 -0.032882918 4278799273
0.0059508607 0.0047943797 -0.031739525 4278668714
0.0082588866 0.0023675393 -0.029972062 4280504969
0.01058308 -5.8851205e-05 -0.028205471 4281029759
0.013090394 -0.0033070808 -0.025815474 4281029758
0.015449628 -0.0057324627 -0.02405083 4281226619
0.017652646 -0.0073353476 -0.022911044 4281357944
0.01986637 -0.0089378413 -0.021771841 4281554293
0.022090815 -0.010540073 -0.020633172 4282078573
-0.032155819 -0.014871837 -0.017299833 4281288584
-0.021436576 -0.010505653 -0.021096447 4282602854
-0.019685853 -0.0096403193 -0.021832213 4279718549
-0.017940652 -0.0087750219 -0.022567594 4279914388
-0.016201001 -0.0079096686 -0.023302594 4279456154
-0.014466878 -0.0070443647 -0.024037139 4279324829
-0.01299597 -0.0045285122 -0.026021177 4278668968
-0.011278361 -0.0036633811 -0.026754616 4279259294
-0.0098348521 -0.0011479519 -0.028736843 4278931363
-0.0084077679 0.001367257 -0.030718075 4278538409
-0.0072765276 0.0055322945 -0.033946816 4278800038
-0.0056028701 0.0063968534 -0.034677394 4278931873
-0.0037896186 0.0064364662 -0.034783617 4278603943
0.0016494244 0.0065558432 -0.035101835 4278537133
0.0037742332 0.0049464162 -0.033961136 4278734504
0.0062272474 0.0016880678 -0.031574603 4279062178
0.0087018833 -0.0015697554 -0.029189302 4279850128
0.011033937 -0.0040024682 -0.027428081 4281029758
0.013215281 -0.0056103389 -0.026290383 4281226365
0.015576951 -0.0080422834 -0.024530733 4281095038
0.01761014 -0.0088250954 -0.024016736 4281554294
0.019648612 -0.0096077183 -0.023502998 4282209899
-0.019843925 -0.01030173 -0.023561535 4282340203
