# .PCD v0.7 - Point Cloud Data file format
VERSION 0.7
FIELDS x y z rgba
SIZE 4 4 4 4
TYPE F F F U
COUNT 1 1 1 1
WIDTH 956
HEIGHT 1
VIEWPOINT 0 0 0 1 0 0 0
POINTS 956
DATA ascii
-0.0082591027 0.0002984032 0.043520641 4290258464
-0.0063812248 0.0010926798 0.042746305 4290586394
-0.0046301298 0.0026451331 0.04129523 4289408804
-0.002394449 0.0011648405 0.042552792 4289605154
-0.00040130317 0.0012010988 0.042456184 4290390299
0.0018504038 -0.00027872808 0.043713175 4289867293
0.0039807484 -0.0010001715 0.044293098 4289474849
0.0063860044 -0.0032373876 0.046225831 4289081128
0.0083947852 -0.0032004067 0.046128787 4289669160
0.01040338 -0.0031633344 0.046031825 4286921534
-0.012068022 -0.0028944388 0.043886952 4288294963
-0.010404933 -0.00057691336 0.04176167 4289407528
-0.0085269958 0.00021940097 0.040988915 4289866019
-0.0066546462 0.0010157097 0.040216498 4290717209
-0.0047879145 0.0018120427 0.039444447 4291044374
-0.0028029233 0.0018480457 0.039348152 4291109909
-0.00081810355 0.0018841662 0.039251953 4290848023
0.0011665598 0.0019203667 0.039155826 4289932063
0.0032830834 0.0011965092 0.039734814 4289670688
0.0055396482 -0.00028729066 0.040988497 4289539109
0.0076694414 -0.0010107514 0.041567028 4289211943
0.0095240399 -0.00021382608 0.040796094 4290192674
0.011658914 -0.00093696453 0.041374553 4291107613
0.014090359 -0.0031797588 0.043301471 4290714914
-0.014536113 -0.0014829896 0.040102962 4288360499
-0.01276543 7.8104436e-05 0.038657054 4289277223
-0.01089289 0.00087639317 0.037886091 4289081128
-0.0087946765 0.0001493562 0.038463861 4289801249
-0.0068095289 0.00018513389 0.038367391 4289670178
-0.0048245192 0.00022104196 0.038271025 4290063134
-0.0029634871 0.0010195859 0.037500963 4290063134
-0.00085498393 0.0002931729 0.038078558 4289932063
0.0011295378 0.00032939576 0.037982456 4290194203
0.0031138733 0.00036575831 0.037886471 4290193949
0.0049633384 0.0011645202 0.037117284 4289932319
0.0069446042 0.0012010261 0.037021592 4290063134
0.0089256763 0.0012376234 0.036925979 4290586139
0.011049449 0.00051215664 0.037503328 4290062879
0.013324104 -0.00097525306 0.038753223 4290716954
0.015757799 -0.0032244809 0.040675327 4288819754
0.018056557 -0.00471122 0.041924223 4288426544
-0.01635376 -0.0046437271 0.040369779 4288556593
-0.014894307 -0.00078310072 0.036907535 4289276204
-0.013131868 0.00078229327 0.03546524 4290716699
-0.011154741 0.00081771147 0.035369001 4291109143
-0.0090621859 8.8387169e-05 0.035945434 4290520859
-0.0072009377 0.00088891294 0.035176821 4289539364
-0.0051032118 0.00015989039 0.035753157 4289997343
-0.0031239651 0.00019583572 0.035657175 4289997343
-0.00089188665 -0.0012975093 0.036905393 4289997343
0.00096327811 -0.00049665198 0.036137402 4289801503
0.0029447749 -0.00046034809 0.036041547 4289735969
0.004656747 0.0011051418 0.034602448 4290390299
0.0066324174 0.0011415565 0.034507036 4290324763
0.0084678084 0.0019424818 0.033740319 4288885544
0.010583222 0.0012146858 0.034316465 4289212198
0.012703903 0.00048709381 0.034892436 4289343014
0.015126429 -0.0017688889 0.036810242 4289539363
0.016961031 -0.00096755382 0.036043875 4289015848
0.018943727 -0.00093038846 0.035948578 4287507523
-0.016808223 -0.0031739189 0.036504246 4289079598
-0.015144866 -0.00083696004 0.034393311 4289210923
-0.01338793 0.00073267054 0.032954562 4290716698
-0.011303596 8.8848174e-07 0.033529688 4290062624
-0.0092139579 -0.00073065143 0.034104664 4290781978
-0.0073555298 7.2007999e-05 0.033337802 4290258973
-0.0053817146 0.00010774471 0.033242002 4290128158
-0.003408052 0.00014357455 0.033146281 4289801249
-0.0011816844 -0.0013541812 0.034391522 4290128413
0.00079710782 -0.0013180273 0.034295723 4290128669
0.0026438534 -0.00051500928 0.033529852 4289997343
0.0044849664 0.00028800219 0.032764319 4289670433
0.0063204467 0.0010910286 0.031999152 4291044883
0.0082903579 0.0011274675 0.031904113 4291044628
0.010260098 0.0011639996 0.031809155 4290652183
0.012375146 0.00043412298 0.032383785 4290913813
0.014643684 -0.0010619937 0.033627626 4290586138
0.016319104 0.00050777569 0.032194026 4288294453
-0.018727515 -0.005568828 0.036098272 4288687408
-0.017053138 -0.003225218 0.033991568 4289799718
-0.015395239 -0.00088181254 0.031885803 4290193183
-0.013643801 0.0006921133 0.030450499 4289146664
-0.011677884 0.00072736014 0.03035483 4289146664
-0.0094811209 -0.00077579264 0.031597983 4289866274
-0.0075100288 -0.00074021984 0.031502232 4290128158
-0.005539082 -0.00070453156 0.031406574 4290128158
-0.0035682917 -0.00066873711 0.031311005 4290193694
-0.0015976466 -0.00063283835 0.031215528 4290063389
0.00024371594 0.00017216615 0.030451456 4290128668
0.0022113025 0.00020823069 0.030356282 4289932319
0.0043132752 -0.00052446034 0.030929642 4289670433
0.0064205304 -0.0012569707 0.031502809 4289932573
0.008253023 -0.00045169238 0.030739492 4289997854
0.010079898 0.00035357848 0.029976515 4290455578
0.012046583 0.00039016828 0.029881788 4290128159
0.014013089 0.00042686425 0.029787149 4289473828
-0.021147557 -0.0041091973 0.032346912 4287901753
-0.019272182 -0.0033025686 0.031581935 4289146663
-0.017506912 -0.0017243046 0.030149052 4290258463
-0.015538152 -0.0016892385 0.03005307 4290847514
-0.013789497 -0.00011098385 0.028621132 4290651163
-0.011713743 -0.00084724557 0.02919348 4290651163
-0.0096326619 -0.0015833341 0.029765695 4290847514
-0.0075462759 -0.0023191841 0.030337689 4290782233
-0.0056963637 -0.0015121568 0.029574582 4290259229
-0.0038520545 -0.00070509221 0.028811777 4289932064
-0.0021396801 0.00087315869 0.027382156 4290258973
-0.000180237 0.00090898294 0.02728731 4290193949
0.0017790422 0.0009449115 0.027192554 4290586393
0.0041416883 -0.0013323072 0.029098371 4289997598
0.0062460303 -0.0020670453 0.029670073 4289539618
0.0082156882 -0.0020306008 0.029575055 4289801248
0.010042474 -0.0012231134 0.028813722 4289670689
0.01200904 -0.0011865254 0.028718999 4289669923
0.013531007 0.0011626771 0.026625866 4288294199
-0.023352601 -0.0041792514 0.029941807 4287967543
-0.021777026 -0.0010488825 0.027177671 4288950313
-0.019816373 -0.0010141889 0.027081916 4289277223
-0.017751347 -0.0017531794 0.027652908 4289604389
-0.015680984 -0.0024919631 0.028223727 4289669923
-0.013825167 -0.0016831271 0.02746159 4290062368
-0.011862259 -0.0016479064 0.027366087 4290520348
-0.0097841099 -0.0023861886 0.027936792 4290716954
-0.0077006407 -0.0031243134 0.028507356 4290128159
-0.0058535412 -0.0023151175 0.027745953 4290324508
-0.004012052 -0.0015059523 0.026984947 4290128414
-0.002302438 7.6627359e-05 0.025558697 4289670433
-0.00060389191 0.0016591679 0.02413303 4291306259
0.0014788061 0.00092165265 0.024704019 4291109909
0.0037012622 -0.00058895443 0.025940079 4291109909
0.0059344321 -0.0020992165 0.027175656 4290520858
0.0077586025 -0.0012897123 0.026415972 4289735713
0.0097197741 -0.0012533087 0.026321448 4289735714
0.011390053 0.0003292961 0.024897654 4289145643
-0.023965169 -0.0011008577 0.024784802 4288360243
-0.022207964 0.00048578437 0.023358608 4290324254
-0.020156663 -0.00025574304 0.023928575 4290585884
-0.017995585 -0.0017730882 0.025163459 4289997089
-0.015930872 -0.0025141449 0.025732944 4289604388
-0.013970725 -0.0024791011 0.025637479 4289473573
-0.012010686 -0.0024439381 0.02554211 4289539109
-0.010050792 -0.0024086577 0.025446834 4289408549
-0.0080910362 -0.00237326 0.025351657 4289539364
-0.0061314143 -0.002337758 0.025256565 4290193694
-0.0044189766 -0.00075081643 0.023833288 4290063134
-0.0027175806 0.00083597843 0.022410659 4290390299
-0.0010272264 0.0024226746 0.020988647 4290062878
0.00091543049 0.0024583312 0.020894717 4289735969
0.003261134 0.00016777217 0.022791648 4290717208
0.0054859072 -0.0013470398 0.024024457 4289539618
0.0075815395 -0.0020861668 0.024593456 4289997599
0.0092547014 -0.00049919914 0.023172632 4289276714
0.010771476 0.0018628668 0.021089397 4287574080
-0.02586158 -0.0034786495 0.024390133 4289079854
-0.02428855 -0.00033097714 0.021638939 4290062368
-0.022539578 0.0012599025 0.020216316 4290716698
-0.020598307 0.0012942776 0.020121526 4290781978
-0.018552765 0.00055053551 0.020690285 4290913049
-0.016394783 -0.00097105373 0.021922147 4289604643
-0.014335848 -0.0017142557 0.022490406 4289539364
-0.012271579 -0.0024572494 0.023058487 4289474084
-0.010317288 -0.0024220734 0.022963485 4289212198
-0.0084811337 -0.0016088597 0.022205802 4289474084
-0.0064090975 -0.0023513688 0.022773761 4289539363
-0.0045786798 -0.0015380327 0.022016523 4290063134
-0.002880048 5.3090975e-05 0.020597266 4290913304
-0.0014502779 0.0031996109 0.017854095 4289801248
0.00061568618 0.0024574352 0.018422676 4289474083
0.0028213412 0.00093780365 0.019653106 4289605154
0.0051747635 -0.0013590306 0.021544924 4290455834
0.0069851503 -0.00054540206 0.020789143 4289670179
-0.027854022 -0.0050798985 0.023330236 4288229173
-0.02626995 -0.0019234046 0.020584879 4289799719
-0.024515487 -0.00032819062 0.019165115 4289865764
-0.022673141 0.00048650336 0.01840814 4289343014
-0.02073475 0.00052079652 0.018313468 4289539108
-0.018796463 0.00055523124 0.018218907 4290389534
-0.01675123 -0.00019052066 0.01878613 4289866529
-0.014590889 -0.0017163381 0.020014796 4289604643
-0.012532271 -0.0024616169 0.020581538 4289735714
-0.010583568 -0.0024265321 0.020486811 4289212198
-0.0087529607 -0.0016112402 0.019731009 4289212198
-0.006927941 -0.00079592038 0.018975569 4289604899
-0.0051085167 1.9449741e-05 0.018220445 4289932064
-0.0031685457 5.4836273e-05 0.01812648 4290782233
-0.0013575926 0.00087024923 0.017371982 4290782744
0.0007109195 0.00012594648 0.017938834 4291109909
0.0029190481 -0.0013979953 0.019165928 4291109398
0.0047268197 -0.00058233645 0.01841181 4290455324
0.0063891709 0.0010130825 0.0169979 4289277734
-0.028251145 -0.0035154549 0.01953108 4288949039
-0.026584566 -0.0011331728 0.017453438 4289865254
-0.024646122 -0.0010991078 0.017358592 4290650909
-0.022806611 -0.00028229319 0.016603364 4289997089
-0.020871092 -0.00024803542 0.016508844 4289931553
-0.01893568 -0.00021364726 0.016414424 4290585628
-0.016786363 -0.0017441148 0.017640261 4290651163
-0.014626265 -0.0032743094 0.018865708 4290520603
-0.012455381 -0.0048041353 0.020090684 4289800993
-0.010734469 -0.003204328 0.018676465 4289474084
-0.0091424994 -0.00082229916 0.016603254 4289343269
-0.0073257498 -4.9453229e-06 0.015849831 4289735714
-0.0053912252 3.0243769e-05 0.015756061 4289343014
-0.0033307597 -0.0007166015 0.016321532 4289866274
-0.0013938062 -0.00068114605 0.016227808 4289735459
0.00080607086 -0.0022097281 0.017451981 4289801248
0.0026138946 -0.0013919231 0.016699372 4289735969
0.0042791441 0.00020775013 0.0152885 4289277224
-0.030583624 -0.001967086 0.015839877 4288687408
-0.02873848 -0.0011483682 0.015085703 4289341994
-0.026898883 -0.00032957271 0.014331858 4289866019
-0.024968777 -0.00029563252 0.014237438 4290716443
-0.022939976 -0.0010464462 0.014802011 4290781978
-0.020905826 -0.0017969953 0.015366375 4290651163
-0.018970564 -0.0017626109 0.015271965 4290978329
-0.016928453 -0.0025127879 0.01583611 4290062369
-0.014771324 -0.0040473812 0.01705849 4289997344
-0.012715824 -0.0047970647 0.017622171 4289735714
-0.011115547 -0.0024084379 0.01555332 4289866529
-0.009531755 -1.9985251e-05 0.013485363 4290586138
-0.0077232569 0.00079939049 0.012733945 4290978328
-0.0057970509 0.00083443057 0.012640579 4291109143
-0.0036189072 -0.00069911219 0.013862434 4290324254
-0.0018162951 0.00012055039 0.013111518 4290062368
0.00037516654 -0.001412522 0.014332896 4289866274
0.0020405427 0.00019145664 0.012925123 4289342759
0.0036948696 0.0017953021 0.011518012 4289341484
-0.032468155 -0.00433665 0.015450476 4287705659
-0.030881088 -0.0011541834 0.012724127 4288819498
-0.02904423 -0.00033343118 0.01197197 4289146408
-0.027119633 -0.00029972475 0.011877718 4289473573
-0.025099114 -0.0010529412 0.012440955 4289539108
-0.023171976 -0.0010189293 0.012346772 4289735714
-0.021143477 -0.0017717518 0.012909806 4289800993
-0.019109625 -0.0025244257 0.013472694 4289735203
-0.017177355 -0.0024899705 0.01337852 4289866529
-0.01513556 -0.0032422035 0.013941167 4289931808
-0.013200786 -0.0032074661 0.013847046 4289800993
-0.011496324 -0.0015991786 0.012440037 4289735714
-0.0098028742 8.9528039e-06 0.011033669 4291043864
-0.007879395 4.3838285e-05 0.010940359 4290716698
-0.0060792975 0.00086536724 0.010191052 4290978328
-0.0040328316 0.00011390541 0.01075398 4290847513
-0.0022384673 0.00093555544 0.010005117 4289931553
-0.00018685311 0.0001844177 0.010567967 4289604644
0.0013334453 0.0025789132 0.0085084038 4288816184
-0.034604982 -0.0043419278 0.01308901 4287771449
-0.033012345 -0.0011507766 0.010368736 4289081128
-0.031353816 0.001250755 0.008305815 4290455068
-0.029349681 0.00049484801 0.0088680787 4290913304
-0.027433418 0.00052840728 0.0087742331 4290520603
-0.025325313 -0.0010163998 0.0099920994 4289539363
-0.023403775 -0.00098250341 0.0098981783 4289670178
-0.021279518 -0.0025267093 0.011115414 4289539620
-0.019352734 -0.0024925 0.011021399 4289800993
-0.017319191 -0.0032471567 0.011582766 4289735713
-0.015499491 -0.0024236781 0.010833687 4289932064
-0.013685349 -0.0016001584 0.010084982 4290193438
-0.011876781 -0.00077664573 0.0093366168 4290389533
-0.010191556 0.0008357605 0.0079338429 4289473829
-0.0082763843 0.00087047461 0.0078409193 4289408294
-0.006361343 0.00090530608 0.0077480925 4290127648
-0.004320506 0.00015152525 0.0083097285 4290062368
-0.0025316887 0.00097530056 0.0075627053 4290258718
-0.00074846298 0.001799033 0.0068160715 4289080873
-0.034720868 -0.0050962204 0.011293788 4288687409
-0.033130921 -0.0018964582 0.0085801175 4289735203
-0.031387389 -0.0002799686 0.0071767513 4290389533
-0.029564377 0.00054493081 0.0064285165 4290128158
-0.027467344 -0.0010045161 0.0076435665 4291044118
-0.0254554 -0.00176227 0.008204055 4290193694
-0.023536738 -0.001728422 0.0081102764 4290390044
-0.021719541 -0.00090310443 0.0073626367 4289735713
-0.019699715 -0.0016603572 0.0079230079 4290063134
-0.017674547 -0.0024173683 0.0084831519 4289866529
-0.015753578 -0.0023830035 0.0083896127 4289997344
-0.013944983 -0.0015574163 0.0076427786 4289997344
-0.012026973 -0.0015228828 0.0075495457 4290716699
-0.010344509 9.3840994e-05 0.0061501339 4290847513
-0.0084322058 0.00012849644 0.0060573444 4290062623
-0.0065200292 0.00016329437 0.0059646675 4290193438
-0.0046079867 0.00019817241 0.0058720605 4290912793
-0.0028246939 0.0010239799 0.005126955 4289866018
-0.03700234 -0.0034976336 0.0076366095 4288754219
-0.035330057 -0.0010830285 0.0055824975 4289539618
-0.03358924 0.00053760037 0.0041824328 4289735459
-0.031771716 0.0013644844 0.0034359295 4289015849
-0.029778875 0.00060397107 0.003995562 4289146664
-0.027594402 -0.001743542 0.0058603911 4290193439
-0.025585391 -0.0025034901 0.0064193653 4290128159
-0.023768187 -0.0016761813 0.0056732716 4290258973
-0.021956537 -0.00084883068 0.0049275523 4289997344
-0.019942362 -0.0016083121 0.0054865526 4290128159
-0.017922841 -0.0023675971 0.0060453666 4289997344
-0.016007464 -0.0023333356 0.0059520965 4289801249
-0.0140922 -0.0022989549 0.0058589205 4289931808
-0.012291998 -0.0014712289 0.0051141875 4290258973
-0.010497358 -0.00064349826 0.0043698018 4290651163
-0.008828681 0.00097741187 0.0029744103 4290913049
-0.0069248118 0.0010120254 0.0028821125 4290716953
-0.0050210804 0.0010467684 0.0027899181 4289866529
-0.0032460429 0.0018746434 0.00204678 4288819243
-0.03903117 -0.0042690448 0.0059471745 4287182909
-0.037512314 -0.0002558725 0.0025939753 4289081385
-0.035609838 -0.00022301916 0.0025004621 4289735459
-0.03396216 0.0021977499 0.00045250438 4290389534
-0.032067999 0.0022306824 0.00035956444 4290127903
-0.030083548 0.0014678854 0.0009179546 4290193439
-0.027814452 -0.0016821595 0.0034295109 4290847514
-0.025811095 -0.0024443832 0.003987154 4290847768
-0.023900904 -0.0024106852 0.0038937882 4290062879
-0.022193331 -0.00078555476 0.0024991087 4289866528
-0.020080816 -0.0023429575 0.0037073197 4289866528
-0.018277641 -0.0015133256 0.0029638109 4289932064
-0.016261145 -0.0022747344 0.0035212433 4290193694
-0.014351472 -0.0022404692 0.0034283285 4289801248
-0.012327038 -0.003001485 0.0039855596 4289474084
-0.010414883 -0.0029669274 0.0038927074 4289539619
-0.0087435171 -0.0013416586 0.0025003704 4289931553
-0.0068370625 -0.001306979 0.0024079615 4289800738
-0.0050565191 -0.00047697499 0.0016661293 4289212199
-0.0035385676 0.0019434066 -0.00037415879 4288686899
-0.039447606 -0.0018098354 0.0015654811 4288425778
-0.037783466 0.00061755721 -0.00047860231 4288949293
-0.035971463 0.0014484366 -0.0012218098 4289408293
-0.034164965 0.0022793338 -0.0019645891 4289997089
-0.032276407 0.0023121499 -0.0020572678 4290651163
-0.030207284 0.0007489901 -0.00085054967 4290585628
-0.027941257 -0.0024098195 0.0016547202 4290913304
-0.025940821 -0.0031742719 0.0022108972 4290259229
-0.023935016 -0.0039385161 0.0027668958 4289800993
-0.022126287 -0.0031068753 0.0020245272 4289866528
-0.020115227 -0.0038707708 0.0025804595 4289735969
-0.018312145 -0.0030390061 0.0018385316 4291044373
-0.016514622 -0.002207201 0.0010969788 4291175189
-0.014610536 -0.0021730154 0.0010043513 4291109909
-0.012821414 -0.0013410971 0.00026332762 4290913558
-0.010802735 -0.0021043513 0.00081933499 4289604899
-0.0090193041 -0.0012722984 7.8762998e-05 4290323999
-0.0072414353 -0.0004402874 -0.00066142168 4289604389
-0.0055948757 0.0011891276 -0.0020491572 4288227133
-0.039327063 -0.0049317544 0.0017409844 4287837238
-0.037578121 -0.0032981196 0.00034995284 4287968309
-0.03567595 -0.0032653078 0.0002564285 4288754218
-0.034028299 -0.0008314494 -0.0017818564 4289343014
-0.032309528 0.00080203824 -0.0031711285 4290062368
-0.03042119 0.00083498191 -0.0032636987 4289473573
-0.028346941 -0.00073232409 -0.0020603621 4289932064
-0.026166163 -0.0030993856 -0.00020975014 4289932064
-0.024166007 -0.0038659517 0.00034495664 4289800993
-0.022261657 -0.0038322415 0.00025196129 4290128159
-0.020357404 -0.0037984252 0.00015905069 4290389788
-0.018559869 -0.002964511 -0.00058101886 4290193693
-0.016767893 -0.0021306514 -0.0013207102 4290062878
-0.014981456 -0.0012967624 -0.0020600373 4290717464
-0.012971021 -0.0020623938 -0.00150535 4290520859
-0.01107277 -0.0020281123 -0.0015975458 4289735713
-0.0091746338 -0.001993713 -0.0016896473 4289735203
-0.0077684447 0.0012393519 -0.004367406 4288818223
-0.039206702 -0.008062127 0.0019101775 4287117118
-0.037293725 -0.0080292458 0.0018160352 4287837493
-0.035626952 -0.0055886377 -0.00021844578 4288362029
-0.033807047 -0.0047531342 -0.00095872587 4288623404
-0.032167651 -0.0023127832 -0.0029917019 4289015849
-0.03036423 -0.0014772862 -0.0037309658 4289277223
-0.028473396 -0.0014441935 -0.0038235805 4289670434
-0.026391301 -0.0030155908 -0.0026237527 4290062879
-0.024396796 -0.0037843953 -0.0020704246 4289801249
-0.022599153 -0.0029486092 -0.002809043 4289866529
-0.020807065 -0.0021127947 -0.0035472964 4290847768
-0.01912709 -0.00047478825 -0.0049308282 4289539619
-0.01723953 -0.00044104178 -0.0050227572 4289343013
-0.015576098 0.0011968249 -0.0064052921 4289735969
-0.013464734 -0.00037321821 -0.0052063502 4289735969
-0.011577506 -0.00033912901 -0.0052980063 4289735969
-0.0096904039 -0.00030492246 -0.0053895665 4289408293
-0.03900997 -0.012005812 0.0027186433 4287706679
-0.037088979 -0.011972799 0.0026241017 4287773234
-0.03541404 -0.00952549 0.00059399335 4288230959
-0.033586062 -0.0086877076 -0.00014502869 4288166189
-0.032113396 -0.004631401 -0.0034634934 4288362284
-0.030397534 -0.002989151 -0.0048461109 4288427308
-0.028692637 -0.0013470091 -0.0062280539 4289081638
-0.026616238 -0.0029228269 -0.0050312146 4289670178
-0.024725717 -0.0028894874 -0.0051236274 4289735458
-0.022936348 -0.0020516552 -0.0058602225 4289277479
-0.02115253 -0.0012138179 -0.0065964693 4290651163
-0.019480765 0.00042832084 -0.0079763643 4290193439
-0.017601516 0.00046190713 -0.0080678966 4289670179
-0.015834335 0.0012998534 -0.0088031078 4290062623
-0.013613969 -0.0010788301 -0.0069634616 4290651674
-0.011964418 0.00056337472 -0.0083419308 4289212198
-0.010085616 0.00059742201 -0.0084330961 4289408039
-0.040816359 -0.015188312 0.0029686086 4287509818
-0.039043024 -0.013541369 0.0015859758 4287641143
-0.037042961 -0.014315296 0.0021351748 4287838513
-0.035365306 -0.011861433 0.00010974042 4288034608
-0.033534713 -0.011021427 -0.00062780012 4288165934
-0.031884436 -0.0085678091 -0.0026516458 4288100398
-0.030160457 -0.0069210515 -0.0040314347 4288362283
-0.028447438 -0.0052744369 -0.0054105762 4288689194
-0.026554257 -0.0052411738 -0.0055032102 4289081383
-0.02495604 -0.0027879542 -0.0075242016 4289604898
-0.023172218 -0.0019480437 -0.0082589174 4288950313
-0.021497685 -0.00030156877 -0.0096358536 4289931809
-0.019727666 0.00053831842 -0.01036973 4290389533
-0.017854009 0.00057180133 -0.010460993 4290781978
-0.015980452 0.00060540251 -0.010552163 4290651674
-0.013992369 -0.00016719941 -0.010001243 4290258974
-0.012351021 0.001479187 -0.011376115 4289343014
-0.010480523 0.0015130732 -0.011466885 4288685623
-0.040996797 -0.015109561 0.00054811104 4289013298
-0.03899961 -0.015885849 0.0010957436 4287640889
-0.037076205 -0.015852809 0.0010010733 4287968818
-0.035234753 -0.015010576 0.00026450632 4288035119
-0.033483453 -0.013359236 -0.0011135874 4287904304
-0.031830456 -0.010899064 -0.0031327591 4288165933
-0.030103799 -0.0092479121 -0.0045094667 4288165934
-0.028388109 -0.0075968914 -0.0058855172 4288231468
-0.026492354 -0.0075635975 -0.0059782881 4289212709
-0.02469492 -0.0067214021 -0.0067121573 4289801504
-0.023003999 -0.0050704167 -0.0080867754 4289016359
-0.021531455 -0.001802139 -0.010742622 4288820264
-0.019655108 -0.0017687082 -0.01083409 4289146664
-0.01788801 -0.00092660356 -0.011566148 4289670178
-0.016014583 -0.00089301635 -0.011657319 4289800993
-0.014141276 -0.00085929874 -0.011748388 4289931808
-0.012502689 0.00079138111 -0.013119918 4288554298
-0.041250728 -0.014210464 -0.0025066393 4288751159
-0.039261915 -0.014989071 -0.0019602014 4287444538
-0.037346832 -0.014956179 -0.0020544662 4288033844
-0.03534995 -0.015734449 -0.0015082054 4287838003
-0.033601426 -0.014078839 -0.0028829728 4287838513
-0.031776559 -0.013234456 -0.0036169244 4288165933
-0.029957201 -0.012390068 -0.0043505309 4288100398
-0.028236125 -0.010734572 -0.0057236822 4288231469
-0.026239585 -0.011512237 -0.005176953 4288558633
-0.02443409 -0.01066768 -0.0059096506 4289474593
-0.022735041 -0.0090122335 -0.0072814021 4288427818
-0.021357909 -0.004924268 -0.010570557 4288296748
-0.019689001 -0.0032690768 -0.011940703 4288558379
-0.018031083 -0.0016140407 -0.01331021 4288819498
-0.016048703 -0.002391207 -0.012762309 4289015849
-0.014519136 7.4455515e-05 -0.01476978 4288295219
-0.035710469 -0.01401346 -0.0051939441 4287314489
-0.033719301 -0.014793837 -0.0046489621 4287772213
-0.031722747 -0.015574019 -0.0041041672 4287903539
-0.029990748 -0.013914114 -0.0054746624 4288100399
-0.028177008 -0.013067553 -0.006206315 4288100399
-0.026273374 -0.013034117 -0.0062994687 4288428073
-0.024271671 -0.013813723 -0.0057545677 4288820518
-0.022567227 -0.012153802 -0.0071234191 4288427819
-0.021080956 -0.008867885 -0.0097670816 4288166189
-0.019510236 -0.006395279 -0.011771971 4288231468
-0.017737865 -0.0055487365 -0.012501076 4288361774
-0.015971046 -0.0047021415 -0.013229873 4288295728
-0.033837061 -0.015504282 -0.0064115906 4287314234
-0.031843431 -0.016286692 -0.0058682626 4287706679
-0.029934347 -0.016253432 -0.0059618829 4287838003
-0.028117985 -0.015404634 -0.0066920454 4287772979
-0.026116397 -0.016186532 -0.0061488301 4288558634
-0.024305645 -0.015337609 -0.0068785539 4288820518
-0.022500418 -0.014488647 -0.0076079052 4288362538
-0.021011367 -0.011193981 -0.010245275 4288231723
-0.019331656 -0.0095299231 -0.011609538 4288231469
-0.017553937 -0.0086811231 -0.012337307 4288165169
-0.015893463 -0.0070172362 -0.013700431 4287903283
-0.032312654 -0.013724072 -0.01017027 4286725693
-0.030417331 -0.013691061 -0.010263223 4287968308
-0.028522082 -0.013657907 -0.010356067 4287968564
-0.026436251 -0.015259724 -0.0091790231 4288558123
-0.024437644 -0.016043803 -0.008637161 4288623914
-0.022635248 -0.015192682 -0.0093648164 4288231469
-0.020838376 -0.014341602 -0.010092085 4288296748
-0.019153249 -0.012673163 -0.011453373 4288100654
-0.017261229 -0.012639379 -0.011545551 4288034864
-0.015815962 -0.009336479 -0.014174124 4287641908
-0.028740656 -0.01353311 -0.01274025 4286202689
-0.026755787 -0.014319727 -0.012199413 4288818734
-0.024569545 -0.016745405 -0.010392456 4288099379
-0.02266923 -0.016711833 -0.010485304 4287969074
-0.020872448 -0.015858598 -0.011210974 4287969328
-0.019187361 -0.014185821 -0.012569053 4287904049
-0.017404377 -0.013332536 -0.013293908 4287969583
-0.015961774 -0.010021025 -0.01591588 4287576884
-0.023005225 -0.015765455 -0.013499959 4288033843
-0.0210099 -0.016553685 -0.012961038 4287968818
-0.019221466 -0.01569831 -0.013684611 4287838258
-0.017329723 -0.015664566 -0.013776801 4288035118
-0.015772764 -0.013165878 -0.015761638 4287642163
-0.019467689 -0.015562819 -0.016059181 4287641398
-0.01769032 -0.01470537 -0.016780537 4287510838
-0.015918478 -0.013847918 -0.017501546 4286790208
0.020769745 -0.00012902822 0.035182767 4283253868
0.022590101 0.00067236926 0.034417257 4280831624
0.0242429 0.0022377297 0.032981798 4281685108
0.017676033 0.0036101807 0.029422766 4282402423
0.019167379 0.005945975 0.02732162 4279193248
0.028480597 -0.00080121402 0.032963634 4281420929
0.017023697 0.0051118052 0.025592994 4280436629
0.018347859 0.0082224347 0.022829838 4278733229
0.020286322 0.0082589816 0.022736829 4278664633
0.022224598 0.0082956199 0.022643898 4279058099
0.026936732 0.0045277346 0.025792569 4279257253
0.0297378 0.00072368048 0.029032907 4279717274
0.032220483 -0.0015433235 0.030938765 4282142579
0.015036449 0.0035116598 0.024533592 4279717019
0.016371779 0.0066311508 0.021776292 4278732719
0.019930661 0.0082454085 0.020258956 4279455134
0.022025116 0.0075113829 0.020831795 4279258528
0.023960344 0.0075480808 0.020739097 4278864809
0.026229754 0.0060438905 0.021976991 4278732463
0.028339908 0.0053104199 0.022549272 4279061414
0.030627906 0.003806822 0.023786373 4278734248
0.033101968 0.0015331311 0.025687901 4278537899
0.035414025 3.0140392e-05 0.026923968 4280110994
0.037736744 -0.0014726138 0.02815962 4279127204
0.012753077 0.0034578592 0.022145344 4280960399
0.014244936 0.0058131618 0.020058582 4279061668
0.015873812 0.0073952805 0.01863699 4278537134
0.019575179 0.0082408655 0.017787669 4279122868
0.021340646 0.0090500545 0.01703139 4278469304
0.027452439 0.0076145437 0.018082138 4278799528
0.029554069 0.0068788379 0.018653294 4278603434
0.031836212 0.0053708404 0.019887511 4278799784
0.033951014 0.0046355063 0.020458199 4278930599
0.040699072 0.00088613387 0.023494495 4282142834
0.011975668 0.005775149 0.017681129 4279585694
0.013604701 0.0073615965 0.01626265 4278799783
0.015376128 0.0081728119 0.015507499 4278931109
0.025318272 0.0068049319 0.016370997 4279322789
0.027074918 0.0076164119 0.015616953 4278406828
0.02917093 0.0068784319 0.016186778 4278734249
0.030921705 0.0076899696 0.015433142 4278406319
0.036690295 0.0078008678 0.015157934 4278400964
0.042045675 0.0016798293 0.020262763 4280306579
0.044947192 -0.0021543182 0.023474572 4281094529
0.010008052 0.0041915653 0.016632747 4281680773
0.011494733 0.006559765 0.014555836 4278668203
0.01472535 0.0097409468 0.011726779 4279454114
0.016792476 0.0089997258 0.012295993 4278931108
0.018864863 0.0082586259 0.012865048 4278538154
0.021104082 0.0067406595 0.014094556 4278341549
0.022861071 0.0075541697 0.013341994 4278472874
0.024779439 0.0075906627 0.013250186 4278472874
0.026527852 0.0084041618 0.012498148 4278603688
0.028443091 0.008440746 0.012406603 4278537644
0.030533314 0.0077005662 0.012975154 4278339764
0.032450855 0.0077373553 0.012883619 4278667439
0.034368187 0.0077742264 0.012792156 4278535859
0.036285289 0.0078111663 0.012700758 4278337979
0.040874034 0.0047788518 0.015155694 4279062689
0.043567382 0.0017100135 0.017700993 4278538153
0.046670713 -0.0029112734 0.021563571 4279849363
0.0093903616 0.0057627494 0.012852231 4279126693
0.01277741 0.0081730764 0.010688793 4278268873
0.014535092 0.0089884326 0.009937549 4278268873
0.016443238 0.00902435 0.0098459497 4278274738
0.018510014 0.0082810242 0.010413633 4278734759
0.020582035 0.007537894 0.010981133 4278407339
0.022495061 0.0075741783 0.010889504 4278865573
0.024407879 0.0076105576 0.010797955 4278603434
0.026320495 0.0076470282 0.010706488 4278930854
0.028060496 0.0084626451 0.009956535 4278472109
0.031701408 0.0093148276 0.0091159074 4278535349
0.033788338 0.0085725747 0.0096831359 4279192993
0.035697192 0.0086093545 0.0095921298 4279389343
0.037977889 0.0070885215 0.010817025 4279061158
0.040457956 0.0047892341 0.012699188 4278472108
0.04314556 0.0017115613 0.015238315 4278669478
0.046243064 -0.0029229568 0.019091478 4278931618
0.0055142269 0.0041530253 0.011902696 4282335104
0.0071491823 0.005752393 0.010493401 4279650718
0.0087730736 0.0073516294 0.0090847667 4278273463
0.010681652 0.0073872786 0.008992943 4278404788
0.012439445 0.0082047079 0.0082432255 4279060139
0.016094223 0.0090579465 0.0074025206 4278536114
0.018155381 0.0083123352 0.0079688616 4278995878
0.020060323 0.0083484035 0.0078775734 4278472619
0.022293463 0.0068216845 0.0091009894 4278734504
0.024203457 0.0068580154 0.009009582 4278603434
0.026113249 0.0068944283 0.0089182463 4278538154
0.027678125 0.0084934514 0.0075131096 4278538409
0.029757164 0.0077486858 0.0080789672 4278471599
0.033569887 0.0078219362 0.0078970371 4278467263
0.03529267 0.0086397529 0.0071497727 4278270403
0.037567742 0.0071144756 0.0083716596 4278402239
0.040042132 0.0048084995 0.010249306 4278603178
0.042915419 0.00094108563 0.013438282 4279063198
0.046009757 -0.0037065721 0.017281931 4281816434
0.0049191788 0.0057512922 0.0081407921 4280305558
0.0064008534 0.0081388354 0.0060784863 4278864553
0.0099059567 0.0097775664 0.0045825616 4278798763
0.011800617 0.0098130461 0.0044914745 4279127713
0.013695098 0.009848645 0.0044004852 4278996134
0.015589409 0.0098843127 0.0043095574 4278339254
0.017642237 0.0091363601 0.0048746848 4278799273
0.019700333 0.0083886012 0.0054396279 4278733993
0.021927841 0.0068573896 0.0066601485 4278472108
0.023999155 0.0061100647 0.0072245933 4278537899
0.025736526 0.0069299266 0.0064779418 4278472874
0.027295947 0.0085332487 0.0050762426 4278800294
0.029019341 0.0093530025 0.0043303743 4278734759
0.031092577 0.0086060334 0.0048949625 4278800038
0.032990597 0.0086425282 0.0048044166 4278992819
0.034888394 0.0086791031 0.0047139451 4278664634
0.036971904 0.0079325177 0.0052782558 4278799783
0.03981515 0.0040535601 0.0084605599 4278931619
0.043068014 -0.0013909619 0.012950475 4279195034
0.046358772 -0.0068347557 0.017438659 4282471273
0.0029741377 0.00418685 0.0071051586 4283252338
0.0043245554 0.0073672365 0.0043919235 4278669224
0.006080009 0.008188691 0.0036453276 4278668459
0.0097218603 0.009045478 0.0028080463 4278401474
0.013505325 0.0091164652 0.0026262528 4278399433
0.017288104 0.0091877878 0.0024447506 4278733994
0.01917921 0.0092235822 0.0023541157 4278733994
0.021234229 0.0084736757 0.002917662 4278602923
0.023127675 0.0085096899 0.0028270429 4278995879
0.028631926 0.0094037913 0.001902028 4279582378
0.03087727 0.0078689996 0.0031187248 4279258273
0.032772467 0.0079054497 0.0030283195 4278472618
0.034667455 0.0079419669 0.0029379784 4278734758
0.036748096 0.0071931873 0.0035007724 4278669224
0.039588265 0.0033032605 0.0066751605 4278997408
0.043029256 -0.0029419065 0.011806792 4282012528
0.0023907274 0.005811966 0.0033623746 4279258274
0.0038698986 0.0082124509 0.0013097855 4278734504
0.0057593808 0.0082475599 0.0012187432 4278669223
0.0095378533 0.0083180442 0.0010368889 4278995624
0.011276402 0.0091416668 0.00029294053 4278993839
0.013162501 0.0091770794 0.00020233355 4278667184
0.015048414 0.0092125982 0.00011181412 4278734249
0.017092757 0.0084601305 0.00067413133 4278734248
0.018981025 0.0084958803 0.00058363751 4278799784
0.020869136 0.0085316841 0.00049319537 4278602923
0.022757046 0.008567594 0.00040284358 4278667694
0.026360087 0.0094274636 -0.00042975921 4278924988
0.028244711 0.0094635468 -0.00051977992 4278728128
0.030306771 0.0087120049 4.2124186e-05 4278602668
0.032374106 0.0079605766 0.00060385733 4278734759
0.034629717 0.0064217951 0.0018169703 4278538154
0.036896028 0.004883226 0.0030296512 4278735013
0.04011558 -0.00059255119 0.0074985353 4280898943
0.043372981 -0.006067574 0.011965705 4282602598
0.00032296777 0.0050477562 0.0016807455 4282335358
0.0016709864 0.0082454439 -0.0010195534 4278930853
0.0073227361 0.0083504245 -0.0012918999 4278538154
0.0093539804 0.0075951666 -0.00073083548 4278669223
0.011240117 0.0076304972 -0.00082150719 4278603688
0.0132792 0.0068755709 -0.00026068202 4278669223
0.014856078 0.0084917396 -0.0016538929 4278735013
0.016738988 0.0085272677 -0.0017442177 4278341549
0.018299177 0.010143293 -0.0031365007 4278406828
0.022053212 0.010214612 -0.0033162255 4278272954
0.023929961 0.010250375 -0.0034059952 4279782298
0.025978655 0.0094962418 -0.0028451798 4279127968
0.029736631 0.009568261 -0.0030246326 4278799019
0.031795658 0.008814536 -0.0024641543 4278799784
0.034408957 0.0056916131 4.61319e-05 4278603433
0.037229598 0.0017794333 0.0032052852 4278669478
0.040454112 -0.0037115319 0.0076626381 4282406249
-0.0017391331 0.0042883484 2.3161992e-06 4281418379
-0.00024872273 0.0067019016 -0.0020413122 4279519649
0.0029615313 0.0099427849 -0.0048249899 4278268874
0.0049766079 0.0091848411 -0.0042649093 4278269129
0.0090226158 0.0076694787 -0.0031452687 4278799784
0.010903195 0.0077047162 -0.0032356638 4278603688
0.012783609 0.0077400245 -0.0033259969 4278472619
0.014663868 0.007775424 -0.0034162509 4278800294
0.016385436 0.0086033363 -0.004155979 4278866084
0.018101394 0.009431297 -0.0048953961 4278472874
0.020139635 0.0086744651 -0.0043358537 4278338488
0.021849789 0.0095024761 -0.0050748754 4278270913
0.023893088 0.0087459181 -0.0045154444 4278863279
0.025769547 0.0087817721 -0.0046051289 4279913114
0.027471006 0.0096098445 -0.0053435666 4279191719
0.029521897 0.0088536628 -0.0047843275 4278404788
0.031578034 0.0080977101 -0.0042253179 4278930343
0.034554265 0.0033820616 -0.00042459718 4278865318
0.037377253 -0.00054097455 0.0027263879 4280112524
0.040792458 -0.0068390621 0.0078205094 4281815923
-0.0020371042 0.0043636011 -0.0024135634 4280240278
0.00091640651 0.0092033241 -0.0064897304 4279191974
0.0026472211 0.010032933 -0.0072287777 4279781534
0.0085438862 0.0085476302 -0.0062015783 4278471343
0.01056648 0.0077879038 -0.0056432812 4278668969
0.012594335 0.0070283599 -0.0050850995 4278406829
0.014160313 0.0086530745 -0.0064713946 4278603688
0.016190551 0.007893797 -0.005913239 4278668969
0.017742574 0.0095183793 -0.0072986931 4278735014
0.01993908 0.0079648104 -0.0060928501 4278930598
0.027084477 0.0096963514 -0.0077455724 4278270403
0.029307269 0.0081436802 -0.0065406924 4278339253
0.031540759 0.0065912455 -0.005336226 4278930599
0.034699492 0.0010683518 -0.00089839508 4278734504
0.037896119 -0.0044537773 0.0035377305 4281553274
0.040942229 -0.0091810087 0.0073255645 4282143344
-0.00421625 0.0044131968 -0.0047318586 4279454879
-0.0024660118 0.0052450169 -0.0054704724 4278931109
0.00074445456 0.0085031278 -0.0082414337 4278467518
0.0026118085 0.008537706 -0.0083314972 4280043929
0.0044790283 0.0085723791 -0.0084214825 4279716254
0.0082130134 0.0086420029 -0.0086012194 4279191719
0.010229975 0.0078800023 -0.0080442531 4278930854
0.012252234 0.0071182083 -0.0074874619 4278472619
0.013968416 0.0079502854 -0.0082237776 4278669223
0.015837401 0.0079855379 -0.0083134435 4278472874
0.017545097 0.0088176206 -0.0090492303 4278734759
0.01941102 0.0088530015 -0.0091386111 4278538408
0.02127675 0.0088884644 -0.0092279203 4278669734
0.026872896 0.008995302 -0.009495452 4278340784
0.029270202 0.0066417623 -0.0076482538 4278734248
0.031863771 0.0034922054 -0.0051564267 4279324063
0.035210356 -0.0028422084 -8.4900297e-05 4281356413
0.038043514 -0.0067868931 0.0030494586 4279914133
0.040903628 -0.010730956 0.0061826073 4282470763
-0.0047650002 0.0061054956 -0.0084271422 4278800294
-0.0028946139 0.006139813 -0.0085175866 4278407084
-0.0012920499 0.0077730976 -0.0098997382 4278602413
0.0022978336 0.0086414032 -0.010725365 4278400963
0.0043015033 0.0078766458 -0.010169541 4278400709
0.0078823343 0.0087453537 -0.01099431 4279191719
0.0098937079 0.0079810452 -0.010438628 4278733994
0.011757456 0.008016007 -0.010528185 4278668714
0.013776675 0.0072520524 -0.0099728014 4278537898
0.020907238 0.0089910235 -0.011619193 4278930853
0.022598043 0.0098252166 -0.012352375 4278734759
0.024455167 0.0098606441 -0.012441177 4278603688
0.026661456 0.0082987957 -0.011241981 4278734759
0.02923315 0.0051400485 -0.0087556662 4278930854
0.032186612 0.00038459338 -0.0049828757 4280831369
0.035355285 -0.0051686172 -0.00056806329 4282208369
0.037819758 -0.0075272638 0.0012712763 4282012019
0.040300302 -0.0098854322 0.0031099 4282274669
-0.0069215819 0.0061778631 -0.010730007 4279193249
-0.0055700317 0.0094188321 -0.013398543 4278996389
-0.0035850406 0.0086512137 -0.012843749 4279062178
-0.0018623136 0.0094869826 -0.013577743 4278734759
-8.6724758e-06 0.0095211808 -0.013667238 4278602923
0.0058407858 0.0080215707 -0.012647688 4278340784
0.0076993033 0.0080562551 -0.012737125 4278668714
0.0097077861 0.0072897281 -0.012182978 4278799528
0.0118744 0.0057220897 -0.010985607 4278733994
0.013585031 0.0065583903 -0.011718457 4278406063
0.016828485 0.0090320967 -0.013826174 4278466243
0.018683314 0.0090672243 -0.013915055 4278269383
0.022392452 0.0091377478 -0.01409259 4278602924
0.024418652 0.0083722416 -0.013538784 4278472109
0.026799336 0.0060051605 -0.01170049 4278668969
0.029550768 0.0020369058 -0.0085784905 4280243083
0.032689281 -0.0035322257 -0.004173574 4282208878
0.035682902 -0.0082999188 -0.00041231478 4282602344
-0.008821208 0.0046515251 -0.011740295 4281157514
-0.0073330067 0.0070973802 -0.013759918 4279127458
-0.0059895478 0.010346893 -0.016421638 4278470324
-0.0024321564 0.01121849 -0.017242748 4278340274
-0.0004530549 0.010448748 -0.016689157 4278603433
0.0015313625 0.0096792039 -0.016135752 4278865319
0.0036629811 0.0081061851 -0.014940187 4278603179
0.0055160895 0.0081406608 -0.015029443 4278537644
0.0075163841 0.0073716994 -0.014476591 4278603179
0.0095219761 0.0066029336 -0.013923921 4278603179
0.011380069 0.0066377781 -0.014013212 4278340784
0.014462829 0.0099211 -0.016757637 4279520158
0.016470522 0.009152703 -0.016204825 4278799528
0.01848349 0.0083844531 -0.015652156 4279126184
0.02050171 0.0076164454 -0.015099706 4278535859
0.022356115 0.0076517221 -0.015188452 4278537133
0.024382159 0.0068840086 -0.014636269 4278799784
0.027111664 0.0029043527 -0.011521335 4278669224
0.030045435 -0.0018776734 -0.0077670366 4279390873
0.033191659 -0.0074619828 -0.0033737402 4281357434
0.035462216 -0.0090310946 -0.0021839661 4282733159
-0.0091013685 0.0047717653 -0.014124034 4279585948
-0.00048787147 0.0089717861 -0.017778417 4278799273
0.001357235 0.0090059265 -0.017867425 4278406318
0.0032021999 0.0090401489 -0.017956365 4278602668
0.0050470233 0.0090744663 -0.018045226 4278471599
0.0071862936 0.0074974503 -0.016853165 4278537133
0.0091862828 0.0067263376 -0.016301807 4278537643
0.011191562 0.0059554558 -0.015750682 4278602923
0.014110714 0.010052843 -0.019128349 4278467008
0.015951902 0.010087626 -0.019216638 4278470579
0.018120177 0.0085116606 -0.018025596 4279060904
0.020132802 0.0077413432 -0.017474508 4278339763
0.022150718 0.0069711488 -0.016923582 4278406574
0.024517447 0.0045907022 -0.015094373 4278931109
0.027249336 0.00060017873 -0.011987618 4279324318
0.030539833 -0.0058052237 -0.0069650775 4281880948
0.033513799 -0.010599512 -0.0032223274 4282274669
-0.01099515 0.0032504005 -0.015131009 4279324319
-0.00950405 0.0057092486 -0.017141208 4278406064
-0.0080294013 0.0081678387 -0.019150507 4278340784
-0.0063148104 0.0090097655 -0.019879445 4278537643
-0.0044748746 0.0090434998 -0.019968435 4278601904
-0.00052266568 0.0074950512 -0.018867509 4278864809
0.0013223141 0.0075291656 -0.018956529 4278602669
0.0031671673 0.0075633619 -0.019045481 4278668203
0.0047228336 0.0092135351 -0.020412253 4278537644
0.006856434 0.0076320618 -0.019223133 4278472109
0.0088508204 0.0068587009 -0.018673165 4278603434
0.010697804 0.0068933051 -0.018761948 4278472364
0.021607466 0.007910138 -0.01993094 4279127968
0.024480954 0.0031006588 -0.016193196 4279062689
0.027561352 -0.0025155805 -0.011819419 4280569994
0.030679628 -0.0081309853 -0.0074474439 4280373389
0.03347601 -0.012131011 -0.0043517039 4280963203
-0.013006024 0.0025400156 -0.016776383 4283253869
-0.011629328 0.005815939 -0.019420646 4279062689
-0.0083144829 0.0083145108 -0.021514408 4278930088
-0.0066054165 0.009158494 -0.022241486 4279193503
-0.0046401769 0.0083817299 -0.021692228 4278931108
-0.0026696175 0.0076051373 -0.021143097 4278995624
-0.00069373846 0.0068287514 -0.020594217 4278470833
0.0011484027 0.006862808 -0.020683106 4278733994
0.0029904023 0.0068969466 -0.020771924 4278799528
0.004687801 0.0077413023 -0.021498004 4278668969
0.0065268129 0.00777556 -0.021586549 4278472364
0.0083656833 0.0078098979 -0.021675026 4278669223
0.01020439 0.0078443661 -0.021763397 4278406828
0.011887603 0.0086888354 -0.022488588 4278734503
0.013723299 0.0087233875 -0.022576712 4279258273
0.015398048 0.0095678363 -0.023301318 4278534073
0.017067216 0.010412257 -0.024025604 4278732718
0.019063257 0.0096372198 -0.023476975 4278734248
0.021740355 0.0056236964 -0.020383824 4278800293
0.024787836 -8.4964558e-06 -0.016019799 4279195034
0.027873188 -0.005639866 -0.011657584 4281684853
0.030465119 -0.0088418992 -0.0092044314 4282012784
0.032539167 -0.0096150935 -0.0086592715 4282144110
0.03670302 -0.011160972 -0.0075694751 4282275434
-0.013391722 0.0034934543 -0.019782819 4280896649
-0.012143057 0.0075906776 -0.023057181 4278866085
-0.010308463 0.0076239631 -0.023146171 4278275504
-0.0067676976 0.0085034613 -0.023960413 4278468793
-0.0048053525 0.0077244565 -0.02341263 4278861749
0.00083560497 0.0070134252 -0.023042375 4278734759
0.0026720539 0.0070474483 -0.023130935 4278734248
0.0045083761 0.0070815552 -0.023219427 4278669224
0.0061974153 0.0079279896 -0.023943452 4278339764
0.0097113252 0.008808678 -0.024755152 4279122869
0.011541627 0.0088430196 -0.024843095 4279519139
0.0135298 0.0080654211 -0.024295872 4278800039
0.015201792 0.0089119617 -0.025018767 4278603688
0.016868189 0.0097584799 -0.025741328 4278472619
0.019193701 0.0073574279 -0.023924794 4278734503
0.022042073 0.0025211563 -0.020205218 4279064218
0.025266126 -0.0039379415 -0.015218317 4281619574
0.02801051 -0.0079609333 -0.012136328 4282340203
0.03007371 -0.0087366421 -0.01159228 4282602598
-0.014701743 -0.0020932709 -0.017605344 4282597498
-0.012296721 0.0069382191 -0.024774738 4278800549
-0.010464974 0.0069714468 -0.024863597 4278670243
-0.008508008 0.0061899573 -0.024317317 4278734504
-0.0051011667 0.0078864507 -0.025764471 4278271168
-0.0032726154 0.0079200324 -0.025852866 4278667694
-0.0013079643 0.0071390644 -0.025306679 4278668969
0.00038412958 0.0079874434 -0.026029456 4278603688
0.0023539588 0.0072067771 -0.025483368 4278733993
0.0041847229 0.0072407667 -0.0255716 4278406318
0.013178468 0.0082261935 -0.026645178 4278602923
0.015005656 0.0082606282 -0.02673286 4278537899
0.016996115 0.0074810181 -0.026187267 4278472619
0.019656338 0.0034452844 -0.023109483 4278800804
0.022681296 -0.0022179373 -0.018766994 4281029248
0.025744162 -0.0078803226 -0.014426304 4282339694
0.027799219 -0.0086584073 -0.013883582 4282471018
-0.014621355 -0.00439945 -0.018069487 4282009468
-0.013576619 0.0013542883 -0.02259706 4279651994
-0.011970945 0.0030218326 -0.02395409 4279127713
-0.010253705 0.0038723014 -0.024676954 4278668968
-0.0084167533 0.0039057098 -0.024766 4279193759
-0.0068358928 0.0055731218 -0.026121592 4279128734
-0.0051353276 0.0064235441 -0.026843382 4278472874
-0.0035737678 0.0080908444 -0.028197935 4278538409
-0.0016147457 0.0073075797 -0.027653096 4278603944
7.186085e-05 0.0081580244 -0.028374007 4278800294
0.002177678 0.006558286 -0.027196592 4278472108
0.0056863651 0.0074428692 -0.028005164 4278930599
0.0070620403 0.009926552 -0.02998979 4278472108
0.0088786781 0.0099605024 -0.030077178 4278471853
0.013143212 0.0067630429 -0.027724205 4278602669
0.015130937 0.00598111 -0.027180158 4278668969
0.017123953 0.0051993486 -0.02663631 4278734759
0.019786552 0.0011527464 -0.023566706 4278931364
0.022813767 -0.0045256964 -0.019235604 4278736288
0.025535859 -0.0085709998 -0.016168721 4282142579
-0.014655378 -0.0058903992 -0.019169131 4281813118
-0.013376318 -0.0017600916 -0.022421001 4279848599
-0.011765223 -8.8095665e-05 -0.023775075 4279455133
-0.010042619 0.00076458231 -0.024496567 4279127968
-0.008450795 0.0024364777 -0.025849596 4278669734
-0.0068699569 0.0041082045 -0.027201997 4278341804
-0.0053001344 0.0057799071 -0.028553808 4279062944
-0.0037413053 0.0074514523 -0.02990498 4278996388
-0.0017851591 0.0066659451 -0.029361617 4278996898
-0.0001013577 0.0075184908 -0.030080805 4278734758
0.0020015389 0.0059143789 -0.028906513 4278734249
0.006877616 0.009291077 -0.031692892 4279390108
0.0088438615 0.0085062888 -0.031149628 4279062179
0.010815404 0.0077216681 -0.030606564 4278995879
0.015095562 0.0045159208 -0.028260684 4278734248
0.017415039 0.0020949673 -0.026458407 4278735013
0.020082705 -0.0019624461 -0.023397107 4280439688
0.022777423 -0.0060192849 -0.020337055 4281684598
0.027377054 -0.010039828 -0.017368121 4282405483
-0.013176192 -0.0048830668 -0.022251206 4279586458
-0.011559684 -0.0032065846 -0.023602374 4279455643
-0.0099541619 -0.001530258 -0.024952905 4279455899
-0.0081092864 -0.0014967434 -0.025042361 4278998173
-0.0066482089 0.0010008402 -0.02702208 4278801824
-0.0036420412 0.0051741553 -0.030349022 4278472618
-0.0016833507 0.0043864874 -0.029807419 4278997154
-0.00013565272 0.0060623437 -0.031154715 4278932384
0.0018255115 0.0052749058 -0.030613091 4278735014
0.0033593625 0.0069506932 -0.031959582 4278406574
0.0085043162 0.0086939353 -0.033479884 4278402748
0.012599349 0.0062994733 -0.031767961 4278471853
0.014899686 0.0038715443 -0.029969655 4278865828
0.017542705 -0.0001973249 -0.026915293 4280571014
0.020378694 -0.0050861882 -0.023233887 4281880948
0.02290979 -0.0083332788 -0.020810263 4282340204
-0.030876175 -0.014938073 -0.016136106 4283122289
-0.0144949 -0.010519233 -0.020109722 4282206838
-0.012976229 -0.0080144843 -0.02208771 4279652249
-0.011354309 -0.0063336454 -0.023435922 4279652758
-0.0097433776 -0.0046528438 -0.024783555 4279325339
-0.0080183148 -0.0037957137 -0.025501909 4279586969
-0.0061709471 -0.0037620505 -0.025591411 4279194268
-0.0047153905 -0.0012580249 -0.027565951 4278800803
-0.0030097142 -0.00040091202 -0.028283192 4278603943
-0.001445584 0.0012794696 -0.029628161 4278866084
0.00010752678 0.0029598149 -0.03097255 4278603689
0.0017910898 0.0038167434 -0.031688482 4279258783
0.0033249259 0.0054968344 -0.033031799 4278670499
0.0051415265 0.0055305446 -0.033119358 4278275759
0.010125406 0.008101169 -0.035263214 4278537644
0.012406588 0.0056662383 -0.033468895 4278931364
0.015185401 0.00076304842 -0.029794535 4279128479
0.017996669 -0.004139442 -0.026121667 4281619064
0.020840436 -0.0090413131 -0.022450285 4282274413
0.022704862 -0.0090060644 -0.02253967 4282668134
-0.032793097 -0.016476382 -0.017154168 4282530943
-0.014871527 -0.0095362561 -0.023094894 4280045204
-0.013127182 -0.0086769285 -0.023812817 4279586968
-0.011388373 -0.0078175962 -0.024530394 4279718549
-0.0095327608 -0.0077840257 -0.024620475 4279259549
-0.0078023262 -0.0069246385 -0.025337491 4279586969
-0.0060774423 -0.0060652113 -0.026054209 4279062688
-0.0043580979 -0.0052058492 -0.02677056 4278997664
-0.0026443265 -0.0043464839 -0.027486561 4279194014
-0.0012080222 -0.0018360489 -0.02945525 4279193759
0.00035053492 -0.00015134644 -0.030796682 4278472874
0.0035787523 0.0023924029 -0.032851696 4278537899
0.0051070154 0.0040768022 -0.034191478 4279062943
