# .PCD v0.7 - Point Cloud Data file format
VERSION 0.7
FIELDS x y z rgba
SIZE 4 4 4 4
TYPE F F F U
COUNT 1 1 1 1
WIDTH 957
HEIGHT 1
VIEWPOINT 0 0 0 1 0 0 0
POINTS 957
DATA ascii
-0.015728269 -0.0010205274 0.042846605 4290061603
-0.013612162 -0.0017371168 0.043390796 4290191909
-0.011490755 -0.0024535069 0.043934774 4288818479
-0.009364035 -0.0031696269 0.04447845 4289145133
-0.0070968978 -0.0046477439 0.04569266 4289602858
-0.0052325949 -0.0038389629 0.044894461 4289668393
-0.0035145059 -0.0022680713 0.043426279 4287968054
-0.0018074661 -0.00069729891 0.041958835 4289994793
0.0003265962 -0.0014126645 0.042502481 4290060328
0.0029122084 -0.004413628 0.045055624 4290452519
-0.023391988 -0.0050888853 0.044185672 4288164404
-0.021974325 -0.0012189476 0.040705759 4289276204
-0.020109113 -0.00040877331 0.039908525 4289277479
-0.018249489 0.00040144753 0.0391117 4289277734
-0.016395435 0.0012116116 0.03831536 4289408548
-0.014293157 0.00049253833 0.038858816 4290586139
-0.012055948 -0.00099088345 0.040071573 4289931809
-0.0098079965 -0.0024739085 0.041283678 4289997089
-0.0076843649 -0.0031921519 0.041826021 4289800483
-0.0058310479 -0.0023814188 0.041030165 4289800738
-0.0041238517 -0.00080642384 0.039565928 4289866274
-0.0025709644 0.0015327055 0.037433807 4290585374
-0.00059669465 0.0015790276 0.037308257 4290651164
0.0018234998 -0.0006669322 0.039187688 4290061094
0.0042598397 -0.0029123523 0.041066144 4290062113
0.006095767 -0.0021013757 0.040271875 4288884268
-0.023890723 -0.0036179726 0.040323254 4288098868
-0.02236785 -0.00050443038 0.0375209 4289407274
-0.020392239 -0.00045922771 0.037394412 4290455324
-0.01853814 0.00035300292 0.03659961 4289735968
-0.016565509 0.00039838068 0.03647349 4289604899
-0.014593005 0.00044386275 0.03634746 4289800993
-0.012361526 -0.0010439977 0.0375573 4290390043
-0.010251563 -0.0017648637 0.038098872 4289997599
-0.0082713217 -0.0017188694 0.037972596 4289997343
-0.0064289793 -0.00090615265 0.037179038 4290128158
-0.0047326982 0.00067297183 0.035718758 4289800738
-0.0029042736 0.001485521 0.034926277 4289212198
-0.0010814741 0.0022980692 0.034134246 4289408293
0.0011815801 0.00081171468 0.035342645 4289931808
0.0033039898 9.1962516e-05 0.035883967 4289474594
0.0051235408 0.00090474077 0.035092372 4288817714
-0.024162639 -0.0036679585 0.03780866 4288033589
-0.022529252 -0.0013150238 0.035680294 4289210923
-0.020793717 0.00026843231 0.03422007 4290716699
-0.018826548 0.0003135493 0.0340942 4290455578
-0.016735464 -0.00041021034 0.034635071 4290782744
-0.014639053 -0.0011337716 0.035175659 4290913304
-0.012407847 -0.0026259776 0.036382284 4290193693
-0.010562543 -0.0018112827 0.035590027 4289997598
-0.0085878931 -0.0017653834 0.035464134 4290128413
-0.0067510642 -0.00095066987 0.034672584 4289604899
-0.0050602332 0.00063269865 0.03321591 4290913559
-0.0032373443 0.0014473526 0.03242537 4290258973
-0.0014200658 0.0022619711 0.031635333 4289866529
0.00083729625 0.00077109318 0.032840896 4290062624
0.0028027892 0.00081743952 0.032716081 4290586138
0.0047681034 0.00086389016 0.032591354 4288883759
-0.024208143 -0.005251857 0.036632147 4287837238
-0.022690523 -0.0021209903 0.03384313 4289670178
-0.020957749 -0.00053318124 0.032386292 4289539109
-0.018993452 -0.00048809033 0.032260638 4289735459
-0.016905297 -0.0012141624 0.032800097 4290258718
-0.014558401 -0.0034822449 0.034668915 4289931553
-0.012454174 -0.0042076595 0.035207491 4290324509
-0.010741111 -0.0026197601 0.033752393 4289735969
-0.0090390891 -0.0010319939 0.032298092 4289932063
-0.0072105154 -0.00021523144 0.031508658 4289539619
-0.0053875297 0.00060146768 0.030719707 4290717209
-0.0037132055 0.0021889135 0.029267414 4291109653
-0.0017583892 0.0022348017 0.029143123 4291044119
0.00064174086 -3.1116419e-05 0.031009233 4290520349
0.0024531707 0.00078574102 0.030221337 4289669668
0.0044129044 0.0008320706 0.030096974 4289079854
-0.024479706 -0.0052881278 0.034127668 4287510074
-0.022967435 -0.0021486739 0.031345483 4289603878
-0.021240123 -0.00055668131 0.029892279 4289343014
-0.019160222 -0.0012851758 0.030430533 4289866274
-0.017198935 -0.001240042 0.030305151 4289604644
-0.014857814 -0.0035148226 0.032169521 4289735459
-0.012888614 -0.0034692567 0.032043822 4289932064
-0.011051647 -0.0026503922 0.03125535 4289801248
-0.009355098 -0.0010583429 0.029804608 4289801503
-0.0073944964 -0.001012641 0.029679708 4289735969
-0.0055743121 -0.00019382685 0.02889256 4289605154
-0.0039027184 0.001397972 0.027443657 4290128414
-0.0020964667 0.0022166893 0.026657566 4289997344
0.00029790401 -5.5951998e-05 0.028519208 4289997089
0.0024061203 -0.00078254845 0.029056581 4289670178
0.0042118505 3.6481768e-05 0.028270762 4289668394
-0.024638046 -0.0060912929 0.032292351 4287836984
-0.023244094 -0.0021674149 0.028854553 4289341994
-0.021522257 -0.00057112705 0.027404919 4290258463
-0.019569155 -0.00052630249 0.027279975 4291109143
-0.017616183 -0.00048134755 0.027155135 4290978328
-0.015410155 -0.0019873399 0.028353602 4290389788
-0.013322689 -0.0027174749 0.028890017 4289800993
-0.011361938 -0.0026719933 0.028764941 4289801248
-0.0094013251 -0.0026264088 0.028639952 4290259483
-0.0075783469 -0.0018054452 0.027854178 4290259483
-0.0059011653 -0.0002092598 0.026408091 4290063134
-0.0042350218 0.0013867356 0.024962831 4289670689
-0.002288647 0.0014324319 0.024839079 4289866784
-4.5701861e-05 -7.1735121e-05 0.026035838 4289342758
0.0020568818 -0.00080067385 0.026571993 4289865508
0.0037033036 0.00079531409 0.025128255 4289276204
-0.024909165 -0.0061117881 0.029799664 4288360244
-0.02340487 -0.0029550954 0.027030971 4289407529
-0.021685787 -0.0013545174 0.025584757 4290258463
-0.019735556 -0.0013097543 0.025459997 4290389533
-0.017909255 -0.0004871022 0.024675213 4290716699
-0.015835468 -0.0012198538 0.02521079 4290913559
-0.013885621 -0.0011747163 0.02508634 4289801248
-0.011671972 -0.0026846407 0.026281258 4289932063
-0.0097169429 -0.0026391735 0.026156634 4290063389
-0.007899493 -0.0018161042 0.025372803 4290128668
-0.006367892 0.00056162197 0.023271244 4290193949
-0.0045670643 0.0013844548 0.022488659 4291306259
-0.0026262701 0.0014300561 0.022365287 4291109653
-0.00038903207 -7.8609213e-05 0.023559157 4290716954
0.0017079115 -0.00080979615 0.024094019 4289604389
0.0033488795 0.00079040136 0.022653932 4289276458
-0.025180031 -0.0061232788 0.027313594 4288164404
-0.023681093 -0.0029579885 0.024551738 4289996579
-0.021967467 -0.0013532387 0.023109153 4289539363
-0.020264864 0.00025144126 0.021667333 4289081384
-0.018325798 0.00029609632 0.0215434 4289605154
-0.016133934 -0.0012189122 0.022736294 4289997599
-0.013931323 -0.0027335193 0.023928542 4290324763
-0.011981748 -0.0026882812 0.023804191 4289932319
-0.010032326 -0.0026429258 0.023679938 4290194204
-0.0083577223 -0.0010382636 0.022240451 4290063134
-0.0068342462 0.0013458645 0.020144245 4289866783
-0.0050416514 0.0021707062 0.019363822 4290520858
-0.0029636472 0.0014366852 0.019898111 4290128159
-0.00073209405 -7.6499768e-05 0.021089148 4290978840
0.0013591871 -0.00080998521 0.021622756 4289735203
0.0029947311 0.00079448242 0.020186218 4289211178
-0.025676209 -0.004561061 0.023519004 4287968053
-0.023957048 -0.0029519619 0.022079211 4289538598
-0.022485357 0.00022154115 0.019325685 4290847513
-0.020672709 0.0010481039 0.018544922 4290716699
-0.018741962 0.0010925671 0.01842152 4290782488
-0.016432151 -0.0012089657 0.020268414 4291175189
-0.014364362 -0.0019461242 0.020801269 4290193949
-0.012159437 -0.0034649 0.021990221 4289998110
-0.010347426 -0.0026377523 0.021209946 4289867294
-0.0086782947 -0.0010288088 0.019774016 4290324763
-0.0073002018 0.0021434408 0.017027147 4290586649
-0.0053731278 0.0021886267 0.016904579 4288951079
-0.0033007488 0.0014522476 0.017437642 4289408549
-0.0010749251 -6.536115e-05 0.01862577 4289670435
0.0010107383 -0.00080116745 0.019158108 4289931809
0.002640821 0.00080748461 0.017725201 4289145388
-0.026059158 -0.0037657479 0.020393565 4289670178
-0.024348203 -0.0021524271 0.018957507 4289538853
-0.022648249 -0.00053927209 0.017522292 4290193694
-0.02083841 0.00028945506 0.016743297 4290782488
-0.01878693 -0.00045046862 0.017275408 4290782488
-0.016603779 -0.0019743154 0.018462351 4290390043
-0.014538933 -0.0027136523 0.018993743 4289735713
-0.012600537 -0.0026686667 0.018870112 4289408803
-0.01066228 -0.0026235739 0.018746566 4289474339
-0.0089985989 -0.0010104347 0.017314279 4289735968
-0.0074858963 0.0013864879 0.015228479 4290979094
-0.0057043359 0.0022154432 0.014452019 4290455324
-0.0034922212 0.00069303066 0.015637683 4290716953
-0.0012693703 -0.0008290289 0.016822809 4290651164
0.00066253543 -0.00078342948 0.01670016 4290389788
-0.026329078 -0.0037437789 0.017932352 4289408293
-0.024508223 -0.0029129018 0.017154135 4289931554
-0.022811018 -0.0012954073 0.015722303 4289670433
-0.020883162 -0.0012511387 0.015598989 4290128158
-0.018831883 -0.0019932278 0.016129505 4289735713
-0.016775284 -0.0027350378 0.016659725 4289604898
-0.014842346 -0.0026903003 0.016536349 4289343269
-0.012909546 -0.0026454339 0.016413081 4289343523
-0.01097687 -0.0026004631 0.016289899 4288820264
-0.0091814883 -0.0017692391 0.015514009 4289343524
-0.0075315759 -0.00015192665 0.014085873 4290259484
-0.0056074858 -0.00010681804 0.013963492 4290389789
-0.0036835596 -6.1604194e-05 0.013841199 4290651418
-0.0013156459 -0.0023739934 0.015675373 4289866273
0.00046537817 -0.0015425533 0.014900806 4289212198
0.001933828 0.00086039677 0.012823083 4287441988
-0.026486162 -0.00450174 0.016130613 4289473573
-0.024668109 -0.0036687488 0.0153542 4289539109
-0.022855617 -0.0028357352 0.014578183 4289670178
-0.020927913 -0.0027914569 0.014454889 4290128158
-0.018876847 -0.0035357391 0.014983789 4289539619
-0.017072853 -0.0027025482 0.01420859 4289604898
-0.01514551 -0.0026579201 0.014085586 4289801249
-0.013349939 -0.0018247552 0.013311125 4289409059
-0.011291206 -0.0025683474 0.013839846 4289474594
-0.009090066 -0.0041000661 0.015019537 4289343524
-0.0074374378 -0.0024783323 0.013594476 4289474339
-0.0059383586 -6.8603083e-05 0.011519396 4289735969
-0.0040200055 -2.3511238e-05 0.011397467 4289605154
-0.0019538254 -0.0007663928 0.011926111 4289735969
-0.00018373877 6.693881e-05 0.011153842 4289408803
0.0015807375 0.00090025924 0.010382018 4288097084
-0.026755635 -0.0044640098 0.013681105 4289146664
-0.024943121 -0.0036289617 0.012906674 4289473829
-0.023018185 -0.0035848869 0.012783454 4290978838
-0.021214038 -0.0027497928 0.012009735 4291240468
-0.019292045 -0.0027055298 0.011886894 4290978838
-0.017244022 -0.0034518735 0.012414429 4289932063
-0.015319545 -0.0034073312 0.012291594 4289670433
-0.013395187 -0.0033626705 0.012168856 4289539618
-0.011605263 -0.002527345 0.011396463 4289735969
-0.0094098374 -0.0040634898 0.012573249 4289539363
-0.00762292 -0.0032280013 0.01180122 4289539619
-0.0059840307 -0.0016021775 0.010380396 4289997599
-0.004356198 2.3540109e-05 0.0089603122 4290128414
-0.0022956431 -0.00072168559 0.0094877416 4289735969
-0.00022981316 -0.00146663 0.010014876 4289735969
0.0016879514 -0.0014212523 0.0098932078 4288424503
-0.026799921 -0.0060038045 0.012537357 4289800739
-0.025333051 -0.0027871053 0.0098164845 4289735459
-0.02341643 -0.002743186 0.0096938219 4290193694
-0.021499909 -0.0026991721 0.0095712366 4290258973
-0.019583501 -0.0026550405 0.009448749 4290455068
-0.017667212 -0.0026107822 0.0093263658 4290455069
-0.015751034 -0.0025664307 0.0092040617 4290324509
-0.013703465 -0.0033147428 0.0097301677 4290128413
-0.011919063 -0.0024773739 0.008959746 4289800993
-0.0098663121 -0.0032253256 0.009485702 4289801249
-0.0079479404 -0.0031804712 0.0093635926 4289604898
-0.0063145161 -0.0015503783 0.0079463171 4291174934
-0.0046921074 7.9525635e-05 0.0065298686 4291044119
-0.0026372001 -0.00066798646 0.0070559764 4291044374
-0.00042644888 -0.0022076126 0.0082289977 4289670433
0.0013351887 -0.0013699811 0.007460543 4288490293
-0.027181402 -0.0051571764 0.009450038 4289210923
-0.025722601 -0.0019319151 0.0067361239 4290781978
-0.02404999 -0.00029763021 0.0053188684 4289343013
-0.022026658 -0.0010491451 0.0058445544 4289081383
-0.019997995 -0.0018004114 0.0063699922 4289539363
-0.017963998 -0.0025514448 0.0068951719 4290062368
-0.016053412 -0.0025072126 0.0067732316 4290389788
-0.014011495 -0.0032578353 0.0072980742 4290128158
-0.012232609 -0.0024184091 0.006529633 4289997343
-0.010459296 -0.0015790192 0.0057616159 4289735459
-0.0086915605 -0.00073963031 0.0049940501 4289800993
-0.0067870617 -0.00069497898 0.0048729149 4290128159
-0.0050277561 0.00014440808 0.0041060313 4290062879
-0.0029784963 -0.00060537551 0.0046309042 4290585883
-0.00092392415 -0.0013549495 0.0051555037 4289539364
0.0006762594 0.0002790764 0.0037439289 4288424503
-0.027337831 -0.0058923676 0.0076652127 4289539108
-0.025881648 -0.0026584743 0.0049579432 4290062368
-0.024211776 -0.0010198886 0.0035440424 4290978838
-0.022432394 -0.00017884932 0.0027767611 4291175188
-0.020535327 -0.00013515912 0.0026555127 4291043864
-0.01851242 -0.00088862982 0.0031797756 4290716954
-0.016612865 -0.00084464718 0.0030585427 4289997344
-0.014319245 -0.0031920169 0.0048726732 4289997344
-0.012411766 -0.0031476486 0.0047510862 4289604899
-0.010778077 -0.0015091356 0.0033401377 4290390043
-0.0092949681 0.00092624314 0.0012853902 4290586139
-0.0075437501 0.0017674994 0.0005205553 4289081384
-0.0056531392 0.0018119346 0.00040038495 4289212198
-0.0036149397 0.0010596905 0.00092432136 4289604643
-0.0017218888 0.0011043809 0.00080414442 4289735969
-0.00013528764 0.0027424768 -0.00060337142 4288294453
-0.029407773 -0.0066665481 0.0060063987 4287771703
-0.027718674 -0.0050234487 0.0045943763 4289210923
-0.026155561 -0.0025807535 0.002538594 4289342758
-0.024373438 -0.0017375872 0.0017726752 4289997599
-0.022596844 -0.00089447014 0.0010071702 4290717209
-0.020579491 -0.0016503548 0.0015300837 4290193693
-0.018556789 -0.0024059927 0.0020527476 4289801248
-0.016528755 -0.0031614443 0.0025751931 4289735969
-0.014626738 -0.0031173127 0.002453872 4290128414
-0.012724835 -0.0030730525 0.0023326566 4289931808
-0.0110966 -0.0014302842 0.00092524698 4290324509
-0.0096188709 0.0010114573 -0.0011243237 4290716698
-0.0080153793 0.0026538363 -0.0025299424 4290913304
-0.0062779747 0.0034970427 -0.0032922048 4291109398
-0.0043985024 0.0035413103 -0.0034115966 4290847768
-0.0023688003 0.0027868142 -0.0028886492 4289474083
-0.00063999742 0.0036301343 -0.0036501293 4288556848
-0.029561058 -0.0073925173 0.004228191 4287771959
-0.027986921 -0.0049432018 0.0021765223 4289472809
-0.02642921 -0.0024941098 0.00012594496 4289866274
-0.024534948 -0.0024507307 4.6921195e-06 4289539363
-0.022761162 -0.0016054865 -0.00075900089 4289866783
-0.020623632 -0.0031652991 0.00040484051 4289735969
-0.018726956 -0.0031215101 0.00028369756 4289932319
-0.016701858 -0.0038791518 0.00080467411 4289735969
-0.014933962 -0.0030336045 4.1684369e-05 4290128158
-0.013171624 -0.0021880567 -0.00072085473 4289931808
-0.011414848 -0.0013425453 -0.0014829697 4290062623
-0.0096636526 -0.00049701054 -0.00224469 4289866274
-0.0079180151 0.00034847576 -0.00300592 4290127903
-0.0061779618 0.0011939136 -0.0037667346 4290586139
-0.0044434741 0.0020393403 -0.0045271064 4290324509
-0.0024139732 0.0012826407 -0.0040057842 4289670435
-0.00068520755 0.0021281354 -0.0047656409 4288884268
-0.029933061 -0.0065055639 0.0011701499 4287771959
-0.028479204 -0.0032457975 -0.001517652 4289473573
-0.026817463 -0.0015944792 -0.0029214066 4289604388
-0.025049109 -0.00074732024 -0.0036832332 4290324764
-0.023045667 -0.0015079742 -0.0031627454 4290128158
-0.020913843 -0.0030723079 -0.0020017354 4289408549
-0.01889699 -0.0038324464 -0.0014819504 4289866784
-0.01687482 -0.0045923507 -0.00096242258 4289866528
-0.015240908 -0.0029410212 -0.0023638387 4290062623
-0.01335017 -0.0028970367 -0.0024843551 4290193438
-0.011596192 -0.0020493753 -0.0032447157 4290062623
-0.0099871308 -0.00039831735 -0.0046443199 4289539363
-0.0081049241 -0.00035421737 -0.0047640586 4289735713
-0.0063676573 0.00049334764 -0.0055230623 4289539618
-0.0044884384 0.00053758547 -0.005642456 4289343013
-0.0024591237 -0.00022129342 -0.0051227417 4289735459
-0.00088337809 0.0014295001 -0.006519842 4289146153
-0.030304689 -0.0056053242 -0.0018780964 4288033589
-0.028858893 -0.0023370543 -0.0045589088 4289473319
-0.027205337 -0.00068163313 -0.0059588691 4290389534
-0.02544523 0.00016755983 -0.0067185862 4290978838
-0.02369066 0.0010166802 -0.007477832 4291175189
-0.021572698 -0.00055232644 -0.0063191801 4290913559
-0.019569661 -0.0013149492 -0.0058001271 4289866529
-0.017432876 -0.0028832392 -0.004642542 4289997344
-0.015416466 -0.0036453237 -0.0041241716 4290258974
-0.013528578 -0.0036014132 -0.0042445115 4290324253
-0.011777386 -0.0027516955 -0.0050030393 4290062879
-0.01017106 -0.0010963585 -0.0063992329 4289800993
-0.0082916915 -0.0010523442 -0.0065188054 4290193693
-0.0064124726 -0.0010082023 -0.0066382699 4290324764
-0.0043859258 -0.0017694347 -0.0061200857 4289735714
-0.0025042519 -0.0017250357 -0.0062395586 4289604644
-0.0010813996 0.00073544588 -0.0082707154 4289211179
-0.030675929 -0.0046918341 -0.0049165008 4288295219
-0.029014137 -0.0030320161 -0.006313853 4289604134
-0.027248573 -0.0021806974 -0.0070723537 4289735459
-0.025723487 0.00028730463 -0.0091061955 4290520858
-0.023974426 0.0011384701 -0.0098634716 4289800738
-0.021985099 0.00037323311 -0.0093452549 4290978328
-0.019864798 -0.0011998937 -0.0081899371 4289669923
-0.017990418 -0.0011565369 -0.0083095944 4289997344
-0.015854005 -0.0027291253 -0.0071551083 4289866529
-0.013840623 -0.003493343 -0.0066380803 4289997344
-0.012094948 -0.0026415922 -0.0073946472 4290128158
-0.010494061 -0.00098202378 -0.00878732 4290913559
-0.0086202696 -0.00093812868 -0.0089065302 4291175698
-0.0067466162 -0.00089413114 -0.009025651 4291175188
-0.0045783073 -0.0024653394 -0.0078727212 4290782233
-0.0028495789 -0.0016134754 -0.0086278291 4289669924
-0.031046774 -0.0037651276 -0.0079450151 4288295219
-0.029393174 -0.002101101 -0.0093386406 4289866018
-0.027635857 -0.0012478214 -0.010095012 4290062623
-0.026001472 0.00041594822 -0.011487198 4288819753
-0.024257939 0.0012692176 -0.012242532 4289473828
-0.022151403 -0.00030875951 -0.011089638 4289669923
-0.020159651 -0.0010759877 -0.010573101 4290520348
-0.018034279 -0.0026532374 -0.0094212666 4290193694
-0.016160149 -0.0026097782 -0.009540827 4289997344
-0.014018681 -0.0041864882 -0.0083898222 4289932319
-0.012412228 -0.0025225449 -0.009779687 4289997598
-0.010677621 -0.0016687978 -0.010533868 4290193948
-0.0090904497 -5.1250681e-06 -0.011922298 4290259739
-0.0072250776 3.86592e-05 -0.012040907 4290520858
-0.0050651878 -0.0015370697 -0.010890738 4291044374
-0.0031946376 -0.0014929464 -0.011009513 4289539364
-0.031417243 -0.0028251363 -0.010963735 4288098868
-0.02977182 -0.0011570062 -0.012353567 4289473063
-0.02790812 -0.0011144644 -0.012472967 4290586139
-0.026161853 -0.00025911722 -0.013226974 4290455068
-0.024301056 -0.00021639932 -0.013346006 4290586139
-0.022317566 -0.00098618306 -0.01283063 4291174679
-0.020454235 -0.0009431839 -0.012949659 4290127903
-0.018334568 -0.0025249301 -0.011800711 4290193694
-0.01633507 -0.003293952 -0.011286138 4289997344
-0.014330249 -0.0040627522 -0.010771831 4289932319
-0.012729246 -0.0023946343 -0.012158071 4290782744
-0.011139233 -0.00072670542 -0.01354356 4289997598
-0.0094184056 0.00012903847 -0.01429521 4288885799
-0.0077031329 0.0009847125 -0.015046388 4289278244
-0.0058461726 0.001028399 -0.015164388 4289408803
-0.0038393661 0.00026023947 -0.014649764 4289931808
-0.0316782 -0.002686983 -0.013339032 4289079853
-0.030150078 -0.00019963644 -0.015358709 4289538599
-0.028294683 -0.00015729759 -0.015477585 4289931809
-0.026322093 -0.00092968438 -0.014963338 4289997344
-0.024464149 -0.00088705216 -0.015082203 4291044373
-0.022606302 -0.00084431376 -0.01520098 4290521114
-0.020748552 -0.00080148224 -0.015319681 4290128414
-0.018634588 -0.0023877379 -0.014173557 4289605154
-0.016771603 -0.0023445664 -0.014292429 4289997598
-0.014775135 -0.0031157215 -0.013779199 4289670433
-0.013045978 -0.0022578854 -0.014529893 4290193949
-0.011183336 -0.0022143982 -0.014648503 4291175444
-0.0097460747 0.00027203094 -0.016661491 4290652183
-0.008036308 0.0011297241 -0.017410718 4290455834
-0.006184902 0.0011732671 -0.017528374 4290782489
-0.0041837171 0.00040280074 -0.017015016 4289800993
-0.031829838 -0.0033570793 -0.015075816 4288688174
-0.030192614 -0.0016804831 -0.016458675 4289669413
-0.028337359 -0.001638148 -0.016577542 4289081383
-0.026364971 -0.002412702 -0.016064893 4289016104
-0.024747048 -0.00073621236 -0.017446266 4289474083
-0.023017436 0.00012331828 -0.018195808 4289277989
-0.021167982 0.00016595889 -0.018313976 4289081638
-0.01906243 -0.001424863 -0.017170575 4289474084
-0.017207742 -0.0013818825 -0.017288916 4289866784
-0.015353158 -0.0013387958 -0.017407171 4289866784
-0.013498679 -0.001295629 -0.017525356 4289604898
-0.011505358 -0.0020688474 -0.01701341 4290193949
-0.0099317729 -0.00039253663 -0.01839132 4290913559
-0.0080803707 -0.00034912489 -0.018509075 4290782744
-0.0063762292 0.00051075406 -0.019256288 4289931808
-0.0045277923 0.00055428129 -0.019373717 4289212199
-0.031763338 -0.0056614792 -0.015548501 4288621873
-0.030123416 -0.0039804289 -0.016928334 4289996323
-0.028265581 -0.0039380495 -0.017047377 4289277734
-0.026290677 -0.0047147372 -0.016536521 4288820263
-0.024789911 -0.0022147493 -0.018544484 4289081638
-0.022937778 -0.0021721581 -0.018662909 4289277989
-0.021211058 -0.0013104295 -0.01941058 4288689448
-0.01910577 -0.002905596 -0.018270392 4289016359
-0.01751272 -0.0012248624 -0.019646659 4289016359
-0.015530225 -0.0020007761 -0.019135769 4289016359
-0.013678603 -0.001957682 -0.019253777 4289016359
-0.011549279 -0.0035518287 -0.018114854 4289212199
-0.0098340586 -0.0026897984 -0.018861292 4289212198
-0.0079800636 -0.0026463307 -0.018979214 4289212198
-0.0065673813 -0.00014728401 -0.020980813 4289473828
-0.0047217906 -0.00010384247 -0.021098072 4289080363
-0.0036388189 0.0040315157 -0.024353074 4287639359
-0.031696953 -0.007969982 -0.016024306 4287902008
-0.029942676 -0.0071060583 -0.016772501 4288818988
-0.02807954 -0.0070635658 -0.016891889 4289212199
-0.026099395 -0.0078423265 -0.016383005 4288754729
-0.024353515 -0.0069782734 -0.017130421 4288689449
-0.022613179 -0.0061141737 -0.017877426 4288558889
-0.020878367 -0.0052501438 -0.018623963 4288689703
-0.018893145 -0.0060283537 -0.018115077 4288624424
-0.017294653 -0.0043432224 -0.019488437 4289147684
-0.015440337 -0.0043001664 -0.019606693 4288624424
-0.013586119 -0.0042570163 -0.01972487 4288428073
-0.011454329 -0.0058554732 -0.018589357 4289409058
-0.0095948912 -0.00581202 -0.01870773 4289997598
-0.0077355839 -0.00576845 -0.018826008 4289212453
-0.0064643919 -0.002442115 -0.021449398 4289539364
-0.0047659054 -0.0015780432 -0.022192959 4289407529
-0.0035302863 0.0017476324 -0.024813956 4287639103
-0.03163068 -0.010282634 -0.016503196 4287771703
-0.029873755 -0.0094165029 -0.01724996 4288165168
-0.027893726 -0.010197561 -0.016742777 4289343268
-0.026025377 -0.010154848 -0.016862426 4288754728
-0.024037365 -0.010935495 -0.016355582 4288558634
-0.022166464 -0.0108925 -0.016475227 4288362283
-0.020546027 -0.0092027495 -0.017846923 4288623913
-0.018680748 -0.0091596842 -0.01796606 4288427563
-0.017076839 -0.0074700513 -0.019336578 4288623913
-0.015083857 -0.0082500763 -0.018829603 4288428074
-0.01322161 -0.0082067773 -0.01894832 4288820519
-0.011220694 -0.0089863827 -0.018441748 4289147428
-0.0094974451 -0.0081198644 -0.019185491 4289801758
-0.0076355338 -0.0080762506 -0.019303948 4288428073
-0.0062145516 -0.0055640223 -0.021296393 4288623913
-0.0046603456 -0.0038748626 -0.022663236 4289343524
-0.033541758 -0.011815951 -0.017490771 4287052094
-0.031564511 -0.012599471 -0.016985197 4288099124
-0.029693417 -0.012556938 -0.017105199 4288230448
-0.027708147 -0.013340047 -0.01659997 4288623658
-0.02595146 -0.012471543 -0.017344946 4289212453
-0.023960922 -0.013254311 -0.01683989 4288558634
-0.022087444 -0.013211272 -0.016959712 4288493354
-0.020214044 -0.013168139 -0.017079456 4288362539
-0.018468592 -0.012299458 -0.017823389 4288231724
-0.016728677 -0.01143079 -0.018566882 4288362029
-0.014727741 -0.012212795 -0.0180621 4288428074
-0.012721464 -0.012994567 -0.017557576 4288754984
-0.0109873 -0.012125734 -0.018300481 4288624424
-0.0092586726 -0.011256939 -0.019042965 4289147938
-0.0075355992 -0.010388166 -0.019785017 4288493609
-0.0058180802 -0.0095194411 -0.020526651 4288362794
-0.0042557046 -0.0078257667 -0.021890791 4289278243
-0.033478204 -0.014134853 -0.017974095 4287509818
-0.031389687 -0.015748572 -0.016846372 4287968309
-0.029513292 -0.015705924 -0.016966721 4288099633
-0.027636975 -0.015663169 -0.017086985 4288230703
-0.025877647 -0.014792398 -0.01783056 4289016359
-0.024004206 -0.014749504 -0.017950486 4289082148
-0.02200852 -0.015534265 -0.017447256 4288428074
-0.0202576 -0.014663386 -0.018190071 4288231724
-0.018512215 -0.013792543 -0.018932387 4288493353
-0.016772363 -0.012921736 -0.019674283 4288427564
-0.014771618 -0.013705921 -0.019171108 4288493353
-0.012629595 -0.015317364 -0.018046027 4288493353
-0.010892779 -0.014446264 -0.018787533 4288559144
-0.009302862 -0.012747968 -0.020150386 4289540639
-0.0075798407 -0.011877069 -0.020890847 4288559144
-0.0058623664 -0.011006194 -0.021630878 4288558888
-0.0042999908 -0.0093081817 -0.022991784 4288623403
-0.033626683 -0.014797362 -0.019705407 4288686644
-0.031323783 -0.018075932 -0.017336192 4288033335
-0.02944481 -0.018033253 -0.017456725 4288099123
-0.027794156 -0.016330231 -0.018821057 4288165424
-0.026037615 -0.015457414 -0.019562807 4288492589
-0.024167039 -0.015414594 -0.019682556 4289015848
-0.022174265 -0.016201569 -0.019180816 4288558124
-0.020426128 -0.015328635 -0.019921796 4288100144
-0.018683523 -0.014455725 -0.020662349 4288230959
-0.016816027 -0.014412552 -0.020781584 4288296238
-0.015081771 -0.013539607 -0.02152143 4288623914
-0.012945455 -0.015155487 -0.020399269 4288362284
-0.01107553 -0.01511195 -0.020518431 4288689704
-0.0092057101 -0.015068346 -0.020637535 4289147939
-0.0074800327 -0.014195226 -0.021376558 4288428330
-0.0056131557 -0.014151469 -0.021495309 4288362283
-0.0041947886 -0.011619769 -0.023473036 4288362029
-0.024568699 -0.014410914 -0.022651218 4286464829
-0.022584274 -0.015200256 -0.022150563 4287314743
-0.020719431 -0.015157379 -0.022269806 4287838004
-0.019109994 -0.013450429 -0.023627866 4288034098
-0.017120399 -0.014239419 -0.023127299 4288885034
-0.015258551 -0.014196284 -0.023246106 4288099888
-0.013396807 -0.01415308 -0.023364849 4288035120
-0.011535168 -0.014109759 -0.023483502 4288689448
-0.0095323771 -0.014897987 -0.022983506 4289212963
-0.0075242743 -0.015685994 -0.022483777 4289015848
-0.005804196 -0.01481076 -0.023220772 4288231213
-0.004388459 -0.012272639 -0.025193501 4288492843
0.0089528412 0.0033397768 0.035346624 4278865829
0.010595962 0.0049141692 0.033887055 4278275504
0.016652048 0.0042910529 0.034181539 4278271169
0.019135781 0.0020475723 0.036057588 4279651994
0.021283813 0.0013314802 0.036599562 4279128223
0.02325844 0.0013790056 0.03647488 4280242573
0.025232844 0.0014266074 0.036350276 4281094018
0.027207024 0.0014743134 0.03622577 4282142323
0.02936776 0.0007588435 0.036767244 4282404719
0.0311547 0.0015699137 0.035976946 4280370839
0.03351263 9.1684982e-05 0.037183788 4282076279
0.0081076622 0.0055943774 0.03084654 4278865318
0.0097371787 0.0071728127 0.029391093 4278929834
0.013465993 0.0080316225 0.028479006 4278338743
0.017875597 0.0058276514 0.030228432 4279323809
0.020004414 0.0051089432 0.030770011 4278669224
0.021959901 0.0051560188 0.03064655 4278734759
0.023733869 0.0059686871 0.029858569 4278865574
0.02568619 0.0060158642 0.029735437 4278472108
0.029400714 0.0068758233 0.028825292 4278663359
0.031541787 0.0061578723 0.029366514 4278663869
0.034077816 0.0039098291 0.031234929 4279322278
0.037025087 0.00013199821 0.034429587 4279717274
0.011143453 0.0079634311 0.026117096 4280175508
0.013083324 0.0080097755 0.025994355 4279782555
0.015193313 0.0072882632 0.026535371 4279257253
0.017135501 0.007334861 0.02641263 4278667183
0.019253261 0.0066137211 0.026953293 4278668969
0.021197759 0.0066605331 0.026830528 4278799273
0.023142017 0.0067074643 0.026707867 4278799273
0.025086068 0.0067544477 0.026585264 4278601649
0.027216561 0.0060339617 0.027125383 4278666673
0.028973512 0.0068486789 0.026340306 4279256743
0.033249676 0.0054085003 0.027419904 4278603179
0.035988107 0.0023868168 0.029945221 4278996898
0.0057458207 0.0039603338 0.02732099 4280306068
0.007216163 0.0063177543 0.025209265 4278734248
0.010766588 0.0079507334 0.02363872 4278270403
0.016741902 0.0073196283 0.023933722 4278668203
0.018854044 0.0065961415 0.024473166 4278668458
0.020792983 0.0066428604 0.024350779 4278537644
0.022731707 0.0066896463 0.024228459 4278733483
0.026421927 0.0075532543 0.023323003 4278863024
0.02835729 0.0076002078 0.023201082 4279323809
0.030484438 0.006877617 0.023739977 4279323043
0.032422066 0.0069247996 0.023618041 4278274228
0.034951814 0.0046636425 0.025477193 4278996644
0.038298346 -0.00067472272 0.029976159 4280045969
0.0055421665 0.0031734146 0.025501452 4280306068
0.0070098639 0.0055373618 0.023394728 4278865319
0.0087851137 0.0063559739 0.022611072 4278406573
0.014417492 0.0072669694 0.021583537 4278864298
0.016521476 0.0065410836 0.022121781 4278472619
0.018279441 0.0073597515 0.021339571 4278472364
0.02003175 0.008178384 0.020557789 4278472108
0.021959491 0.0082249315 0.020436184 4278341294
0.027741447 0.0083650099 0.020071791 4278269638
0.031789646 0.0076870928 0.020488152 4278863278
0.034310959 0.0054191696 0.022343019 4278930343
0.03804896 -0.0014777826 0.028148301 4279521178
0.0051821321 0.0031659203 0.023025664 4280633744
0.0068036914 0.0047615273 0.021583652 4278733993
0.0087381452 0.0048075886 0.021461139 4278472619
0.010178313 0.0071776221 0.019361185 4278800038
0.012104236 0.0072236685 0.019239351 4278800038
0.013689689 0.0088187503 0.017799951 4278668968
0.016128331 0.0065415623 0.019654619 4278538409
0.017880782 0.0073623369 0.018874347 4278406829
0.019805923 0.0074087335 0.018752841 4278603434
0.021368816 0.0090036532 0.017315147 4278406573
0.023104355 0.0098242396 0.016536186 4278734249
0.025207147 0.0090965861 0.017073207 4278864299
0.027315147 0.0083691617 0.017609978 4278994858
0.029428378 0.0076419348 0.018146474 4279257509
0.031157628 0.0084626982 0.017368149 4278865063
0.0336705 0.0061880434 0.019218685 4278930598
0.037599675 -0.0015024506 0.025666876 4282274413
0.0048223361 0.0031674402 0.020556496 4280632978
0.0065976605 0.0039903205 0.019776015 4278996133
0.0080435351 0.0063669318 0.017680498 4278603433
0.013642691 0.0072815372 0.016658347 4278537133
0.015908211 0.0057744617 0.017851109 4278537899
0.017833434 0.0058207782 0.017729534 4278537899
0.019580223 0.0066436538 0.016951362 4278799784
0.021140426 0.0082428651 0.015517088 4278406573
0.022873223 0.0090655563 0.014739914 4278734759
0.025159493 0.0075594084 0.015931681 4278800294
0.027267337 0.0068298047 0.016466843 4278800039
0.029188566 0.0068765497 0.016345911 4278734504
0.030915089 0.0076994309 0.015569385 4278734504
0.03362219 0.0046421736 0.018070737 4278800039
0.037350632 -0.0022941614 0.023847446 4281029758
0.0044628158 0.0031778822 0.018094031 4281287564
0.0059143826 0.0055610714 0.016002951 4278799783
0.0090971589 0.0087685296 0.013136005 4278399433
0.011006519 0.0088141942 0.013015231 4278530759
0.013255686 0.0073022516 0.014205765 4278530759
0.015515529 0.0057906797 0.015395634 4278799273
0.017610632 0.0050581638 0.015929656 4278733993
0.019354664 0.0058831414 0.015153276 4278668459
0.020912178 0.0074866666 0.013722435 4278734249
0.0228258 0.0075329607 0.013601784 4278602924
0.030672692 0.0069407159 0.013774007 4279846813
0.033376701 0.0038747191 0.016269093 4278865829
0.036901809 -0.0023031263 0.021377685 4280702083
0.0041035265 0.0031973422 0.015638191 4281353353
0.0053906962 0.0063681817 0.012897642 4278339508
0.0069794655 0.0079761622 0.011467583 4279323554
0.0087216794 0.0088027986 0.010692584 4279127204
0.010625467 0.0088483552 0.010572181 4279322533
0.014950454 0.0065968418 0.012292973 4278537134
0.01703722 0.0058619203 0.012825955 4278865319
0.018773049 0.0066889217 0.012051671 4278865063
0.020503253 0.0075158393 0.011277854 4278537388
0.022411324 0.0075620255 0.011157573 4278668203
0.025660008 0.0099962642 0.0089589087 4278924478
0.027942672 0.0084815053 0.010144552 4278531014
0.030236006 0.0069670947 0.011329593 4278405553
0.033131324 0.0031118933 0.014470813 4278996643
0.03625346 -0.0015229015 0.018262524 4280045968
0.0032757297 0.0055762781 0.011229346 4281615749
0.0047084168 0.0079720272 0.009149231 4278535349
0.0081820115 0.0096293809 0.0076030786 4278731699
0.010077536 0.0096747121 0.0074831764 4278732718
0.011803009 0.010503332 0.0067110136 4278534584
0.014040612 0.0089825438 0.0078958217 4278601649
0.015938304 0.0090282327 0.0077760103 4278865063
0.018013828 0.0082909418 0.0083081378 4278996133
0.021630198 0.009165735 0.0074170018 4278338488
0.023154758 0.010777314 0.0059948303 4279651739
0.025046043 0.010823245 0.0058757216 4278800038
0.027320333 0.0093039395 0.0070586605 4278405808
0.029799633 0.0070023173 0.0088918237 4279127204
0.032689072 0.0031361263 0.012025331 4278865573
0.036005035 -0.0022943374 0.01645815 4279587224
0.0030733943 0.0048344322 0.009443284 4281681539
0.0043445155 0.0080222944 0.0067167194 4278471343
0.0060786232 0.0088530229 0.0059454283 4278271169
0.0078071281 0.0096836919 0.0051745446 4278269383
0.013476476 0.009819611 0.0048161829 4279061159
0.015365899 0.0098650726 0.0046968749 4278538154
0.017255142 0.0099106366 0.0045776581 4278538409
0.019505531 0.0083860727 0.0057586152 4278668203
0.032050118 0.0039540101 0.0089373942 4278864808
0.035157658 -0.00070723519 0.012710577 4280635784
0.038499989 -0.0061521432 0.01713042 4282733414
0.0027150512 0.0048850449 0.0070106555 4282008959
0.0041397288 0.0072936853 0.0049407217 4278603688
0.0057094917 0.0089142909 0.0035215393 4278603944
0.007432498 0.0097470162 0.0027526347 4278406829
0.0094839185 0.00900451 0.0032827547 4278668968
0.011370875 0.0090497388 0.0031634723 4278538154
0.013257645 0.0090950495 0.0030442649 4278669223
0.015144236 0.0091404608 0.0029251492 4278603944
0.017030656 0.0091859428 0.0028060991 4278800803
0.019097485 0.0084441984 0.0033356124 4278603944
0.031608485 0.0039982647 0.0065067788 4278865574
0.034510456 0.00011069886 0.0096233441 4279455643
0.037844092 -0.0053496929 0.014032429 4282405993
0.0028252006 0.0025744727 0.0065297596 4282401913
0.0042526722 0.0049896995 0.0044645057 4278603688
0.005502142 0.0081945444 0.0017523513 4278669479
0.009270899 0.0082846051 0.001513909 4278472364
0.011324696 0.0075400574 0.0020423161 4278603689
0.013211347 0.0075853756 0.001923125 4278472619
0.015097827 0.0076307869 0.0018040168 4278341804
0.016984142 0.007676254 0.001684963 4278603688
0.018870257 0.0077218218 0.0015660039 4278735015
0.020939432 0.0069780489 0.0020938148 4278538409
0.022827893 0.0070238253 0.0019748188 4278865829
0.024904855 0.0062804343 0.0025022095 4278865573
0.026987046 0.0055372519 0.0030293318 4278668969
0.02888035 0.005583371 0.0029101975 4278537898
0.030773453 0.0056295926 0.0027911572 4278603688
0.033863693 0.0009418726 0.0065459413 4279128223
0.037390873 -0.0053228759 0.011589687 4282471529
0.0026232004 0.0018442292 0.0047523146 4282794104
0.0040480271 0.0042658998 0.0026920775 4278538154
0.010600105 0.0091981823 -0.0016622191 4278667183
0.012820423 0.007659574 -0.00048928906 4278472619
0.014876388 0.006913078 3.7490157e-05 4278407084
0.016937628 0.0061668037 0.00056400633 4278734504
0.018643163 0.007004003 -0.00020014704 4278538154
0.02070947 0.006257995 0.00032615679 4278537899
0.022409193 0.0070952242 -0.00043750252 4278536879
0.024480559 0.0063495142 8.8613247e-05 4278992309
0.026557148 0.0056039551 0.00061449024 4279844774
0.028639004 0.0048586493 0.0011400593 4278865574
0.03052929 0.0049047871 0.0010211839 4278734758
0.033416852 0.00099511165 0.004122443 4278538409
0.036937974 -0.0052871942 0.0091535971 4282013039
0.0019535348 0.0035017543 0.0010428072 4279913625
0.0032088906 0.0067240214 -0.0016568442 4278471599
0.012257516 0.0085367272 -0.0035392307 4278733738
0.013955221 0.0093757315 -0.0043014046 4278799783
0.016002692 0.0086269258 -0.0037756586 4278996390
0.018055424 0.0078783156 -0.0032501174 4278668714
0.019930281 0.0079236785 -0.0033683185 4278668458
0.027621828 0.0073124105 -0.0031976788 4279387813
0.030088574 0.0049779825 -0.0013880137 4279061668
0.033369116 -0.00052943546 0.0029903362 4278275758
0.037091739 -0.0076224273 0.00865079 4281816178
0.0014402717 0.0043803463 -0.0020100861 4279913369
0.0043969899 0.0084521053 -0.0054643936 4278667949
0.0057727024 0.010885815 -0.0075116754 4278865828
0.0076321885 0.010930299 -0.0076292865 4279126439
0.0094915032 0.01097485 -0.0077468343 4278798254
0.011522844 0.010223282 -0.007221763 4278471343
0.013384543 0.010268087 -0.0073393136 4278537899
0.015423693 0.0095169125 -0.0068146549 4278668714
0.017468102 0.0087659499 -0.0062902682 4278406319
0.019334696 0.0088110985 -0.0064079589 4278733229
0.021386892 0.0080604954 -0.0058839363 4278270403
0.022878878 0.009697414 -0.0072845835 4279515824
0.025124624 0.0081512975 -0.0061193095 4278793408
0.029844798 0.0042644423 -0.0031496231 4279257509
0.033122055 -0.0012582736 0.0012175939 4278471853
0.036841266 -0.0083708903 0.0068637007 4281684854
0.00077160448 0.0060709408 -0.0056950352 4280175253
0.0055634901 0.010197318 -0.0092574283 4279319984
0.0072534606 0.01104021 -0.01001608 4278729404
0.011132948 0.010330775 -0.009609526 4279256999
0.012989111 0.010375426 -0.0097267441 4278864554
0.01502265 0.0096219322 -0.0092033595 4278602924
0.020597704 0.0097567765 -0.009554876 4279781279
0.022267289 0.010599836 -0.010311751 4278865573
0.024504669 0.0090491055 -0.0091491612 4278864809
0.026365027 0.009094418 -0.0092662238 4279257254
0.029208027 0.0051509654 -0.0061865211 4278865064
0.032675862 -0.0011848481 -0.0011909892 4279913879
0.036186956 -0.0075195739 0.00380192 4282601833
0.0008822009 0.0037745414 -0.0061654081 4280044183
0.0021216944 0.0070224246 -0.0088446103 4278799273
0.0090619102 0.0096021192 -0.011234256 4278338488
0.011087447 0.0088460753 -0.010712124 4278865063
0.012943506 0.0088907229 -0.010829334 4278471854
0.014976867 0.0081350515 -0.010307559 4278668458
0.016655102 0.0089802342 -0.011063552 4278603179
0.019994728 0.010670428 -0.012574298 4278270148
0.028375186 0.0068506794 -0.0098513626 4278930854
0.031831533 0.00049719401 -0.0048680697 4279520923
0.035129212 -0.0050553926 -0.00052476313 4282143089
0.00068131834 0.0030801874 -0.0079162 4280044183
0.0017598346 0.0071397489 -0.011227322 4278537643
0.0032943562 0.0087898569 -0.012621589 4278734758
0.0049816594 0.0096369432 -0.013376974 4278538154
0.0069964975 0.0088782562 -0.012855869 4278603689
0.0090165883 0.008119815 -0.012335084 4278537898
0.010698006 0.008966987 -0.013089849 4278407084
0.012723222 0.0082088588 -0.012569245 4278472364
0.014753699 0.0074509131 -0.012048931 4278472108
0.016609311 0.0074956948 -0.012166006 4278472364
0.018099055 0.0091454135 -0.013556933 4278406828
0.025691077 0.0085228356 -0.013386653 4278537133
0.027935766 0.0069637755 -0.012230936 4278800038
0.031386063 0.00059272163 -0.007260168 4278538409
0.03487964 -0.0057772319 -0.0022920878 4282144108
0.00032499433 0.003195622 -0.010300692 4280240789
0.0015566126 0.0064607142 -0.012966508 4278537643
0.0030884072 0.0081151379 -0.014357414 4278407084
0.0067848936 0.0082033789 -0.014591353 4278406829
0.0086328983 0.0082476372 -0.0147082 4278734759
0.010652676 0.0074870484 -0.014188913 4278603433
0.01250308 0.0075315135 -0.0143058 4278472108
0.014530689 0.0067713326 -0.013786919 4278734249
0.01602333 0.0084254155 -0.015174905 4278537643
0.017870523 0.0084700631 -0.015291398 4278538409
0.019346558 0.01012385 -0.016678184 4278734758
0.021376185 0.009364021 -0.016159203 4278800549
0.023029231 0.010213227 -0.016910156 4278800549
0.024870321 0.010257994 -0.017026065 4278538154
0.027300321 0.0078899572 -0.015238389 4278537644
0.030741818 0.0015013367 -0.010280072 4278668968
0.034226626 -0.0048862081 -0.0053243879 4282471529
-0.00018660724 0.0041274112 -0.013314082 4280372114
0.0013535246 0.0057862224 -0.01470232 4278472109
0.0045644194 0.0082961498 -0.016841598 4278267343
0.0064070374 0.0083401622 -0.016958192 4278268109
0.010263659 0.0076213917 -0.01655674 4279323298
0.012283094 0.0068587521 -0.016039031 4278406573
0.014307827 0.0060962485 -0.015521569 4278668714
0.015977785 0.0069477549 -0.016272256 4278603179
0.017642178 0.0077991402 -0.017022502 4278537898
0.019115515 0.0094572054 -0.018405883 4278864554
0.020954154 0.0095017767 -0.018521737 4278468283
0.022792585 0.0095464038 -0.018637534 4279191208
0.024824455 0.00878458 -0.018120222 4278931363
0.027057856 0.0072165066 -0.016970308 4278603434
0.034179233 -0.0064009833 -0.0064492417 4282078064
-0.00069779158 0.00507244 -0.016317639 4280699279
0.00099239498 0.0059258519 -0.01706847 4278799019
0.0041923895 0.0084419502 -0.019202191 4278269893
0.0098749399 0.0077645862 -0.018917924 4279191719
0.01153978 0.008617905 -0.019666767 4278602923
0.013553448 0.0078530135 -0.019150266 4278733994
0.015212536 0.0087063638 -0.019898618 4278668458
0.017231338 0.0079417387 -0.019382337 4278471853
0.022556126 0.0088841142 -0.020361548 4278399178
0.026423134 0.0081647793 -0.019961361 4278996389
0.029653616 0.002549625 -0.015659301 4278472363
0.03352689 -0.0054900688 -0.0094667766 4281946739
-0.0010531545 0.0052188868 -0.018679103 4279257509
0.0023106709 0.0069297021 -0.020176446 4279323809
0.0039842129 0.0077850865 -0.020924533 4278931108
0.0056521744 0.0086404094 -0.021672135 4278995113
0.0074835569 0.0086841909 -0.02178799 4278535349
0.0094865113 0.0079166899 -0.021272564 4278864299
0.011145867 0.0087720426 -0.022019448 4278537389
0.013153963 0.0080048302 -0.021504223 4278668203
0.014987454 0.0080489935 -0.021619966 4278537388
0.017003372 0.007282068 -0.021105086 4278405808
0.020486966 0.0081819231 -0.021966785 4279318708
0.022510543 0.0074154148 -0.021452216 4278990523
0.024345964 0.0074599879 -0.021567808 4278270403
0.026181176 0.007504628 -0.021683333 4279258018
0.029209502 0.002684921 -0.018021876 4278734504
0.033076592 -0.0053766454 -0.011845149 4279586713
-0.0014082268 0.0053741829 -0.021033995 4279388833
0.0021054223 0.0062752673 -0.021897214 4278664634
0.0037762001 0.0071327081 -0.022643467 4278863278
0.0057738423 0.0063627129 -0.022129469 4278667184
0.0072699636 0.0080337944 -0.023504997 4278403005
0.0090983734 0.0080776075 -0.023620587 4278537134
0.01057791 0.0097484989 -0.024994986 4278668203
0.01257769 0.0089788372 -0.024480836 4278864808
0.014582731 0.0082094213 -0.023967007 4278668203
0.018423416 0.0074844537 -0.023568884 4279323809
0.020253621 0.0075287474 -0.023684261 4278931108
0.021893002 0.0083862031 -0.024427958 4278799784
0.023913562 0.0076175155 -0.023914844 4279126949
0.025743276 0.0076619899 -0.024030047 4278799784
0.02896452 0.0020161374 -0.019750038 4278931364
0.032425091 -0.0044415477 -0.01484473 4279390364
-0.0019182935 0.0063545043 -0.024011347 4279454369
-0.00024726987 0.0072139194 -0.024756148 4278930343
0.0088821426 0.0074316366 -0.025334081 4278668459
0.010533281 0.0082911262 -0.026077291 4278734504
0.012532897 0.0075192759 -0.025564762 4279061669
0.014537781 0.0067476807 -0.025052542 4278930343
0.019832589 0.0076953983 -0.026025346 4278339253
0.025697753 0.0061978819 -0.025117299 4278733993
0.028520964 0.0021669585 -0.022101166 4278407594
0.031774051 -0.0034932918 -0.017834472 4282537063
-0.0021174997 0.0057113981 -0.025724089 4279979159
-0.00029131025 0.0057546841 -0.025839891 4278930853
0.0013740882 0.0066162506 -0.026582709 4278932129
0.0030339137 0.0074777221 -0.027325073 4278735014
0.0048542619 0.0075211087 -0.027440326 4278604198
0.0070120692 0.005928603 -0.026302414 4278669988
0.0090091005 0.0051543666 -0.025791528 4278669989
0.01031445 0.0076517584 -0.027785657 4278604199
0.01195728 0.0085132206 -0.028526647 4278669224
0.013594523 0.0093746362 -0.029267222 4278472618
0.015955709 0.0069654128 -0.027504733 4278472874
0.021230847 0.007914965 -0.028474571 4278270403
0.025260359 0.006368543 -0.027454069 4278996644
0.028276391 0.0015093582 -0.023821032 4278341803
0.031526215 -0.0041662119 -0.019565485 4282340458
-0.0018510893 0.0026114332 -0.025556153 4279257764
-0.00017745048 0.0034752088 -0.026297918 4278472364
0.0011694431 0.0059796618 -0.028290154 4278471854
0.0029898286 0.0060229423 -0.028405489 4278341039
0.0067989156 0.0052896077 -0.028011035 4278996643
0.0089645088 0.003692992 -0.026876818 4278995878
0.010618314 0.0045567947 -0.027616957 4278996134
0.013729572 0.0071041482 -0.029720269 4278603943
0.015728571 0.0063280752 -0.02921091 4278734503
0.017547809 0.0063719647 -0.029325699 4278866594
0.01917915 0.0072355596 -0.030064171 4278997408
0.020995378 0.007279505 -0.030178677 4279324063
0.022811458 0.0073234821 -0.030293144 4278997408
0.025019147 0.0057285847 -0.029161133 4278537898
0.02763477 0.0024951054 -0.026783673 4278800038
0.031077251 -0.0040152455 -0.021916065 4282078319
-0.0014298186 -0.0013197651 -0.024770373 4279782553
0.00025194138 -0.00045365095 -0.025511054 4279127458
0.0019281134 0.0004124511 -0.026251366 4278865063
0.0069232732 0.0030103689 -0.028469665 4278276014
0.010921918 0.0014533401 -0.027454637 4278276269
0.014044069 0.0040073926 -0.02955384 4278276779
0.017687954 0.0040951464 -0.029783878 4278472363
0.019322008 0.0049609616 -0.030520916 4278341293
0.021140873 0.0050049275 -0.030635621 4278537899
0.022959583 0.0050489502 -0.030750267 4278603434
0.024973951 0.0042713685 -0.030243278 4279127714
0.027589247 0.0010291571 -0.027872298 4279325084
0.030628599 -0.0038555576 -0.024260098 4282078319
-0.0014739782 -0.0027893521 -0.02586182 4279521179
0.00036547333 -0.0027458393 -0.02597853 4278996389
0.0022047982 -0.0027022571 -0.026095178 4279389598
0.0037176237 -0.001009291 -0.027455825 4278537644
0.0053853542 -0.00014112517 -0.028193841 4278603178
0.0072161183 -9.7488053e-05 -0.028309753 4278865573
0.0092180818 -0.00087817013 -0.027804069 4278865829
0.011225335 -0.0016587134 -0.027298635 4278603688
0.012884371 -0.00079038739 -0.028035901 4278669223
0.014537841 7.7830628e-05 -0.028772721 4278669224
0.016550086 -0.00070231967 -0.028267475 4278538408
0.018197827 0.00016589463 -0.029003831 4278538153
0.019652396 0.0018580947 -0.030360255 4278537898
0.025320344 0.0011665877 -0.030085338 4278931363
0.027940698 -0.0020842031 -0.027721167 4279718039
0.030783832 -0.0061581065 -0.024738673 4282536553
-0.0030530766 -0.0059562908 -0.025594164 4283187569
-0.001518093 -0.0042588203 -0.026953179 4279586714
0.00047892332 -0.0050422498 -0.02644914 4279521434
0.0023208484 -0.0049986239 -0.026565965 4278997154
0.0058384761 -0.0040843883 -0.027419634 4278800549
0.0076772943 -0.0040405779 -0.027536072 4278866338
0.0096872523 -0.0048232875 -0.027032543 4278604199
0.011354536 -0.0039527402 -0.02776875 4278866338
0.013192952 -0.0039087236 -0.027884999 4278932129
0.014851823 -0.0030382266 -0.028620558 4279128479
0.016869359 -0.0038204724 -0.028117303 4278997409
0.018522508 -0.0029499796 -0.028852401 4278866338
0.020170107 -0.0020795101 -0.029587144 4278996899
0.028291963 -0.0052060899 -0.027576443 4280702084
0.030737869 -0.0076390398 -0.025838427 4281816433
0.033199906 -0.010071548 -0.024101388 4282536299
-0.041575413 -0.01081291 -0.022340618 4282798183
-0.0029449984 -0.0082591511 -0.026069146 4281682559
-0.0015621781 -0.0057281679 -0.028044453 4279914643
0.00043465942 -0.0065137758 -0.027542021 4279325593
0.0022764876 -0.006470188 -0.027658869 4279259038
0.0041181892 -0.0064265071 -0.027775634 4278538409
0.0057939813 -0.0055538397 -0.028510951 4279062688
0.0078011826 -0.0063389032 -0.028008955 4279128223
0.0096424893 -0.0062949802 -0.028125508 4279062688
0.011483647 -0.0062509999 -0.028242009 4278866338
0.013148069 -0.0053783385 -0.028976407 4278997409
0.014986254 -0.0053342674 -0.029092599 4279128734
