# .PCD v0.7 - Point Cloud Data file format
VERSION 0.7
FIELDS x y z rgba
SIZE 4 4 4 4
TYPE F F F U
COUNT 1 1 1 1
WIDTH 955
HEIGHT 1
VIEWPOINT 0 0 0 1 0 0 0
POINTS 955
DATA ascii
-0.011024572 -0.0017160005 0.018268373 4290128158
-0.0093104206 -0.00012122281 0.016850717 4290324253
-0.0076072924 0.0014733933 0.015433712 4290716954
-0.0059152283 0.0030679805 0.014017306 4290193183
-0.038384706 -0.0045536407 0.0191253 4287640634
-0.036756117 -0.0013902737 0.016383559 4289341738
-0.034892105 -0.00057382323 0.015625738 4289996579
-0.033122133 0.0010248618 0.014207482 4289081128
-0.031089462 0.00027708523 0.014771845 4289277478
-0.029239338 0.0010937257 0.014014959 4290062624
-0.027104724 -0.00043573417 0.015239596 4290062624
-0.025158111 -0.00040088035 0.01514332 4290258718
-0.023211602 -0.00036595762 0.015047103 4289931808
-0.021370064 0.00045098364 0.014291054 4289604898
-0.01931892 -0.00029568188 0.014855009 4289997343
-0.017262451 -0.0010421304 0.015418792 4290259229
-0.014974575 -0.0033518421 0.017301537 4289866529
-0.013133526 -0.0025344072 0.016545812 4290324509
-0.011298057 -0.0017169956 0.015790492 4289931553
-0.0097105913 0.00066353753 0.013717221 4290847513
-0.0078917556 0.0014809119 0.012962844 4290062879
-0.0060785078 0.0022982536 0.01220887 4290847768
-0.0041414797 0.0023342045 0.012114013 4289473574
-0.0022046119 0.0023702467 0.012019232 4287573314
-0.040302262 -0.0069385548 0.018721808 4287182908
-0.038659945 -0.0037663803 0.015985744 4288360499
-0.036873512 -0.0021633413 0.014569765 4289342248
-0.035098065 -0.00056034233 0.013154371 4290585884
-0.033333592 0.0010425709 0.011739675 4289669923
-0.031488933 0.001861128 0.010984631 4288950313
-0.029555913 0.0018954566 0.010888821 4289604644
-0.027429737 0.00036156271 0.012110615 4290455069
-0.02519339 -0.0019561984 0.013990618 4290193439
-0.023247033 -0.0019212533 0.013894428 4289801248
-0.021405593 -0.0011021383 0.01314 4289474083
-0.01956971 -0.00028297305 0.012385882 4289997343
-0.017518889 -0.0010317499 0.012948364 4290062623
-0.015236769 -0.0033480311 0.014826518 4289931554
-0.013401259 -0.0025285603 0.014072727 4289997089
-0.01168976 -0.00092528481 0.012661625 4290651163
-0.010110464 0.001461681 0.010593571 4289539108
-0.0082998835 0.0022810465 0.0098412652 4288819753
-0.0063682944 0.0023167767 0.0097465832 4289539363
-0.0041781925 0.00078545418 0.010966275 4290259228
-0.0019773319 -0.0007456406 0.012185536 4290455068
-0.00030487031 0.00085765403 0.010776825 4289604388
-0.040414073 -0.0077199638 0.016901467 4287903029
-0.038774453 -0.0045391126 0.014172018 4288034099
-0.037073761 -0.0021451232 0.012101557 4289015849
-0.03530382 -0.0005379077 0.010689713 4289735459
-0.03345646 0.00028275326 0.0099360626 4290520348
-0.031614639 0.0011034794 0.0091827326 4290847513
-0.029684499 0.0011377707 0.0090870745 4290847513
-0.027561292 -0.00040056463 0.010305833 4291043864
-0.025427278 -0.0019385633 0.011524089 4290062623
-0.023588557 -0.0011174483 0.010771317 4289604899
-0.021860149 0.00048990175 0.0093621816 4289931808
-0.020035271 0.0013110507 0.0086102262 4289997344
-0.017995536 0.00055991113 0.0091716498 4289866019
-0.015724622 -0.0017631021 0.011045508 4289931553
-0.013900105 -0.00094166119 0.010293871 4289669923
-0.012081176 -0.00012019183 0.009542603 4290389534
-0.010510035 0.0022731591 0.0074797994 4291109143
-0.0087077208 0.0030945539 0.0067295195 4290716954
-0.0067844354 0.0031301193 0.006635238 4290847769
-0.0044734553 0.0008084802 0.0085076783 4290913049
-0.0021462888 -0.0015127105 0.010379359 4290520859
-0.00034185499 -0.00069086161 0.0096292831 4289997344
0.0011820868 0.0017022919 0.007569294 4289080619
-0.040525787 -0.0084967408 0.015084561 4287510584
-0.038808689 -0.0060960408 0.013018055 4287510838
-0.037190907 -0.0029067351 0.010296253 4288296749
-0.035423748 -0.0012952103 0.0088877864 4289211943
-0.033579234 -0.00047237054 0.0081358552 4289539108
-0.031740237 0.00035043713 0.007384324 4290127903
-0.029812977 0.00038466882 0.0072888019 4290062368
-0.027692743 -0.0011580833 0.0085044671 4289866274
-0.025561709 -0.002700475 0.0097196475 4289735714
-0.023725815 -0.0018772292 0.0089686364 4289670178
-0.022104885 0.00052285101 0.0069077029 4289931808
-0.020392988 0.0021343883 0.0055027115 4291174933
-0.018251482 0.00059266109 0.006717728 4290258719
-0.016099177 -0.00094880397 0.0079323389 4290062368
-0.014051724 -0.0017016935 0.0084919035 4290062368
-0.012235601 -0.00087811844 0.0077423765 4289735459
-0.010425072 -5.4456294e-05 0.0069931899 4290324254
-0.0084963404 -1.8883497e-05 0.0068985703 4290781978
-0.0064412318 -0.00077123893 0.0074581257 4291109143
-0.0043808334 -0.0015233508 0.0080174562 4290520348
-0.0023151487 -0.0022752322 0.008576626 4290127904
-0.00051349401 -0.0014512516 0.0078283083 4290454813
0.0011451393 0.00016057305 0.0064267949 4290127649
0.0023723617 0.0041355137 0.003065771 4289342248
0.0040007234 0.0057469411 0.0016659382 4288229939
-0.040482603 -0.01085098 0.014580803 4287183418
-0.038842916 -0.0076527181 0.011864278 4287510583
-0.037142247 -0.0052456758 0.0098035131 4287838768
-0.035372429 -0.0036297278 0.0083981622 4287969583
-0.033436988 -0.0035955864 0.008302059 4288885289
-0.031592645 -0.0027705007 0.0075518829 4289473829
-0.0298476 -0.001154582 0.0061479895 4289800739
-0.027727615 -0.0027017058 0.0073604253 4289539363
-0.025696032 -0.0034577907 0.0079186112 4289539364
-0.023862965 -0.0026324145 0.0071693598 4289801249
-0.022454079 0.0013552932 0.0038064136 4290782744
-0.020643018 0.002180553 0.0030583818 4291109909
-0.018617313 0.0014247894 0.0036172508 4290913049
-0.016473442 -0.00012111105 0.0048290207 4290716698
-0.014434349 -0.00087635219 0.0053873635 4289931553
-0.01250821 -0.00084106252 0.0052926983 4289800738
-0.010582209 -0.00080565549 0.0051981281 4289997344
-0.0085326061 -0.0015603523 0.0057562147 4289474084
-0.006477695 -0.0023148879 0.0063141636 4289408294
-0.0045466609 -0.0022790376 0.0062196064 4290128158
-0.0026157796 -0.0022431053 0.006125119 4290127904
-0.00081965327 -0.0014169919 0.0053786584 4290258463
0.00083351135 0.00019903481 0.0039806864 4290389278
0.0021954849 0.0033948384 0.001279762 4290717208
0.0038210973 0.0050105629 -0.00011670543 4290455578
0.0054356605 0.006626212 -0.0015126113 4287770684
-0.040516861 -0.012416094 0.013420764 4287248699
-0.038797066 -0.010002308 0.011363804 4287575863
-0.037010878 -0.0083818519 0.0099607743 4287969839
-0.035150141 -0.0075545651 0.0092112012 4288100398
-0.033383183 -0.0059341546 0.0078092706 4288427563
-0.031718191 -0.0035208133 0.0057554203 4288623403
-0.030069627 -0.0011077221 0.0037024911 4289997344
-0.02795535 -0.0026592361 0.0049119503 4289866529
-0.025929421 -0.0034175818 0.0054688132 4289866784
-0.024101902 -0.0025901431 0.0047214399 4290455578
-0.022489149 -0.00017716922 0.0026706704 4289343268
-0.020678189 0.00065025501 0.0019242517 4289866783
-0.018652674 -0.00010768883 0.0024815141 4289801248
-0.016621824 -0.00086536678 0.0030385642 4290455579
-0.014701154 -0.00083028758 0.0029440853 4290193694
-0.012780607 -0.00079509011 0.0028497013 4289735714
-0.010497335 -0.0031371252 0.0047086594 4289932064
-0.0085688792 -0.0031015449 0.004614064 4289277734
-0.006387759 -0.0046506161 0.0058212155 4288754218
-0.0045832507 -0.0038224375 0.005075837 4289735714
-0.002652511 -0.0037864838 0.0049813739 4290455324
-0.00099103898 -0.0021660225 0.0035860999 4290193439
0.00065936893 -0.00054567307 0.0021915096 4290455069
0.0021587163 0.0018666796 0.0001473208 4290717208
0.0040697977 0.0019026762 5.4124743e-05 4290390043
0.0058352724 0.0027307337 -0.00068889605 4290389534
0.0077432916 0.0027668709 -0.00078179594 4288164149
-0.040628418 -0.013185533 0.011609295 4287445049
-0.038671274 -0.013151402 0.011511823 4287641399
-0.036796942 -0.01232176 0.010763075 4287838513
-0.03501362 -0.01069689 0.0093635023 4288035119
-0.033241272 -0.0090720803 0.0079645701 4287969838
-0.031661756 -0.0058569564 0.0052643423 4288493098
-0.030104138 -0.0026421132 0.002565281 4288951078
-0.028182879 -0.002607849 0.0024701594 4289408804
-0.026261698 -0.0025734794 0.0023751217 4289539364
-0.024442457 -0.0017440007 0.0016297814 4290390043
-0.022837881 0.00067539234 -0.00041578198 4289932063
-0.020820629 -8.4941275e-05 0.00014015101 4289277989
-0.018908042 -5.0246716e-05 4.5892783e-05 4289539618
-0.016882833 -0.00081019429 0.0006016111 4290324764
-0.015083212 1.9506551e-05 -0.00014233124 4290128413
-0.013052799 -0.0007401281 0.00041329395 4289932319
-0.011017073 -0.0014995891 0.00096878782 4289670688
-0.0089760236 -0.0022588074 0.0015240549 4289670688
-0.0070560127 -0.0022232849 0.0014299471 4289474338
-0.005136136 -0.0021876432 0.0013359343 4289539619
-0.0030846074 -0.0029463526 0.0018909224 4289670433
-0.0012968257 -0.0021160822 0.0011481447 4290586394
7.3634088e-05 0.0010971772 -0.0015403493 4289931809
0.0018420592 0.0019272808 -0.0022820355 4288688939
0.0038902536 0.0011689346 -0.0017265687 4289343013
0.0059437305 0.00041080825 -0.0011712709 4289800993
0.0077062324 0.0012410767 -0.001912463 4289996578
0.0096139684 0.0012773052 -0.0020052772 4288883503
0.011060812 0.0036957003 -0.0040416848 4288358459
-0.043141373 -0.0091984663 0.0059976815 4287117118
-0.040894382 -0.012355153 0.0085011795 4287117628
-0.03878561 -0.013916234 0.0097038783 4287575864
-0.036996827 -0.012287023 0.008307185 4287838513
-0.035133582 -0.011455341 0.0075607202 4287904304
-0.033364017 -0.009826188 0.0061651166 4288362283
-0.031605426 -0.0081971455 0.0047701928 4288885798
-0.029951431 -0.00577085 0.0027266522 4288689704
-0.028313868 -0.003344744 0.00068407692 4288951079
-0.026593685 -0.0017159833 -0.00070871925 4289212453
-0.024680935 -0.0016816221 -0.00080323406 4290259229
-0.022977289 -5.2979216e-05 -0.0021950067 4290586393
-0.021177422 0.00077856984 -0.0029375935 4290979094
-0.019163199 1.6128644e-05 -0.0023830361 4290978838
-0.017256312 5.0823204e-05 -0.002476936 4291175189
-0.015234146 -0.00071124732 -0.0019226009 4290063134
-0.013324779 -0.00067624729 -0.0020164307 4289866784
-0.011173833 -0.0022347723 -0.00081447931 4289735969
-0.0095064193 -0.00060595665 -0.0022038487 4289997854
-0.0075974427 -0.00057062879 -0.0022974098 4289539619
-0.0056885891 -0.00053523015 -0.0023909109 4289343524
-0.0035164058 -0.0020928881 -0.0011896482 4289670433
-0.0017368719 -0.0012606364 -0.0019304371 4290193693
-0.00023728609 0.0011646431 -0.0039649662 4290716954
0.0016655251 0.0012003714 -0.0040578432 4290258974
0.0037108213 0.00043979939 -0.0035038479 4290324509
0.0057613924 -0.00032056402 -0.0029500297 4290651674
0.0076691806 -0.00028445479 -0.0030429352 4290193184
0.0095768124 -0.00024826359 -0.0031357708 4289734693
0.011023685 0.0021766527 -0.0051673371 4289407273
-0.041160062 -0.011511496 0.0054029007 4286332738
-0.03889985 -0.014676506 0.0078993868 4287510328
-0.037113853 -0.013043035 0.0065060328 4287707698
-0.035253439 -0.012209209 0.0057613361 4287642419
-0.033398546 -0.011375332 0.0050169523 4288100909
-0.031458348 -0.01134098 0.0049207066 4288820518
-0.029705346 -0.0097075682 0.0035293796 4288297003
-0.028155901 -0.0064753322 0.00084374426 4288297004
-0.026529331 -0.0040427456 -0.0011934023 4288492843
-0.024715733 -0.0032090419 -0.0019352511 4288950568
-0.023012143 -0.0015760092 -0.0033237597 4289212453
-0.021212362 -0.00074231997 -0.0040647513 4290128414
-0.019308243 -0.00070777908 -0.0041585919 4290389788
-0.017291591 -0.001472238 -0.003605685 4290324509
-0.015384965 -0.0014374279 -0.0036994827 4289997343
-0.013478469 -0.0014025006 -0.0037931853 4290193949
-0.011813693 0.00023054332 -0.0051793247 4290063134
-0.009912882 0.00026559178 -0.0052725812 4290651928
-0.0080122091 0.00030074548 -0.0053657503 4290782744
-0.0061116666 0.00033601653 -0.0054588239 4289866784
-0.004079558 -0.00042745471 -0.0049060797 4289604898
-0.0021765754 -0.00039193965 -0.0049991254 4290193694
-0.00041087717 0.00044241454 -0.0057375589 4290586138
0.0013492331 0.001276698 -0.006475619 4291044374
0.0032463223 0.0013124021 -0.0065681548 4291240723
0.0052885637 0.00054968707 -0.0060155597 4290979094
0.007336095 -0.00021287054 -0.0054631038 4290193949
0.0093889013 -0.00097519439 -0.0049108816 4290128159
0.011140056 -0.00014058128 -0.0056481347 4289539364
0.012729399 0.0014923671 -0.0070296107 4289342503
0.014148787 0.003923431 -0.009054888 4288622384
-0.037313387 -0.012992522 0.0040617618 4287510839
-0.035373196 -0.012958433 0.0039653215 4287838003
-0.03334501 -0.013725989 0.0045152768 4288165933
-0.031402241 -0.013691595 0.0044189035 4288820263
-0.029553063 -0.012855384 0.0036766105 4288166189
-0.028094355 -0.0088127786 0.00035130372 4288035373
-0.026366103 -0.0071752071 -0.0010353825 4288166189
-0.024648845 -0.0055376766 -0.0024214832 4288231469
-0.022838168 -0.0047017233 -0.0031614783 4288885288
-0.021247298 -0.0022629462 -0.005191714 4289735714
-0.019453183 -0.001427019 -0.0059307623 4290128158
-0.017552026 -0.0013924316 -0.0060243825 4290062879
-0.015535682 -0.0021590008 -0.0054729492 4290062879
-0.013750076 -0.0013228925 -0.0062113288 4290258973
-0.011970025 -0.00048680417 -0.0069493004 4289997598
-0.01019555 0.00034928694 -0.0076869205 4291502353
-0.0081742592 -0.00041672122 -0.007135456 4291175188
-0.0064054839 0.00041949004 -0.007872629 4290978838
-0.0042473786 -0.0011471594 -0.0066771591 4289931808
-0.0023472458 -0.0011116909 -0.0067700618 4289932319
-0.0004472509 -0.0010761544 -0.0068629035 4289997599
0.0013127849 -0.00023969356 -0.0075993426 4289932319
0.0032097548 -0.00020399038 -0.0076918723 4290259228
0.0053970814 -0.0017696391 -0.0064974185 4289997599
0.0071512088 -0.00093295425 -0.0072333948 4289735969
0.0090504289 -0.00089690275 -0.0073258067 4290324509
0.01079607 -6.0251914e-05 -0.0080612004 4290062623
0.012536123 0.00077639148 -0.0087962514 4290651418
0.014270552 0.0016130125 -0.0095309634 4290651419
0.015837796 0.0032500559 -0.010908013 4288818479
-0.035322268 -0.015311072 0.0034623384 4287968819
-0.033203553 -0.016884647 0.0046551372 4288362029
-0.031255487 -0.01685014 0.0045585143 4288689449
-0.02949442 -0.015207907 0.0031732298 4288035118
-0.027840529 -0.012761906 0.0011443291 4288035119
-0.02620307 -0.010316084 -0.00088367378 4287970094
-0.024480402 -0.0086741671 -0.0022667823 4288100653
-0.022873092 -0.0062286556 -0.0042931233 4288493353
-0.021282222 -0.0037833573 -0.0063185175 4289343524
-0.019598003 -0.0021417337 -0.0076995059 4289801249
-0.017812241 -0.0013037203 -0.008436406 4289997343
-0.015801542 -0.002072549 -0.0078863716 4290128158
-0.013903487 -0.0020377738 -0.0079796575 4290520603
-0.012246948 -0.0003962405 -0.0093589006 4289474083
-0.01060142 0.0012452295 -0.010737576 4289997598
-0.0085884854 0.00047689211 -0.010187315 4289735969
-0.00657022 -0.00029129628 -0.0096372049 4290716954
-0.0042834878 -0.0026654601 -0.0078023216 4289866784
-0.0022491589 -0.0034331414 -0.0072528427 4290455579
-0.00048361719 -0.002594471 -0.0079880618 4289997343
0.0012763515 -0.0017558578 -0.0087228976 4289932064
0.0030307174 -0.00091724144 -0.0094573814 4290390044
0.005215086 -0.002487259 -0.0082660606 4289997343
0.0069664419 -0.0016485131 -0.0090002585 4290520859
0.0088628232 -0.0016125455 -0.0090925545 4290389788
0.010298967 0.00083170738 -0.011109088 4289997598
0.012342952 6.4976513e-05 -0.01055951 4290782233
0.014233418 0.00010112021 -0.010651303 4290782998
0.016123712 0.00013733376 -0.010743034 4290782743
0.017849594 0.00097616855 -0.011475641 4289670178
0.019235946 0.0034198454 -0.013489407 4287901243
-0.033326171 -0.017633475 0.0028596683 4288164914
-0.031380981 -0.017599054 0.0027631638 4287510583
-0.029529285 -0.016758505 0.0020240066 4287903538
-0.027779259 -0.015111933 0.00064256415 4287969328
-0.026040211 -0.013465496 -0.0007382161 4287969583
-0.024413738 -0.011013239 -0.0027607516 4288035118
-0.022803701 -0.0085611613 -0.004782388 4288035373
-0.021210101 -0.0061092963 -0.0068030767 4288362283
-0.019632954 -0.003657598 -0.008822931 4288885543
-0.018297203 0.00040525198 -0.012125488 4289670179
-0.016412783 0.00043963268 -0.012218213 4289932063
-0.014528483 0.00047415495 -0.012310823 4290651163
-0.012523651 -0.00029672217 -0.011761941 4289931553
-0.0108836 0.0013489407 -0.013137084 4289147174
-0.0090023875 0.0013837218 -0.013229309 4289081384
-0.0069924742 0.00061324053 -0.01268045 4289931553
-0.0047141835 -0.0017676684 -0.010849971 4290717209
-0.0025539473 -0.003342886 -0.0096609974 4289801504
-0.00065692514 -0.0033073984 -0.0097536892 4290259229
0.0012399331 -0.0032718298 -0.009846312 4289997343
0.0029942319 -0.002431049 -0.010579184 4290128158
0.0050332397 -0.0032003759 -0.010031294 4289997343
0.0066339299 -0.0015545315 -0.011403833 4290324508
0.0085247606 -0.0015186681 -0.011495857 4290324509
0.0099555105 0.00093198009 -0.013507305 4290193693
0.01183787 0.00096785836 -0.013598787 4289277989
0.013878793 0.00019904133 -0.013050639 4289146919
0.015925005 -0.00056961551 -0.012502705 4290127904
0.017483942 0.0010759644 -0.013872819 4289735203
0.01903183 0.0027214214 -0.015242333 4289342248
0.020907916 0.0027576014 -0.015333196 4288425523
-0.031687651 -0.016726885 -0.00031137001 4286267713
-0.029750869 -0.016692506 -0.00040738052 4287707189
-0.027910251 -0.015849857 -0.0011442807 4287838003
-0.026075162 -0.015007204 -0.0018808329 4287904049
-0.024347164 -0.013356453 -0.0032577906 4287838513
-0.02283866 -0.010089828 -0.00591532 4287838768
-0.021138072 -0.008439377 -0.007290706 4288166188
-0.019558191 -0.0059810998 -0.0093058469 4289801503
-0.018219609 -0.00190735 -0.012600489 4288950568
-0.016562905 -0.00025736541 -0.013973467 4289408804
-0.014799334 0.00058480166 -0.014705891 4289997089
-0.012800131 -0.00018835906 -0.014158351 4290847513
-0.01116557 0.0014616027 -0.015530031 4290717208
-0.0092899278 0.0014962442 -0.01562201 4290913049
-0.007156875 -8.4079802e-05 -0.014435049 4290978328
-0.0048815981 -0.0024715248 -0.012609309 4290782488
-0.0028585196 -0.0032437728 -0.012062514 4290324509
-0.0011040121 -0.0024010031 -0.012793996 4290062879
0.00078457594 -0.002365584 -0.01288621 4289800994
0.0025306344 -0.0015228107 -0.013617085 4289866273
0.0045613199 -0.0022944659 -0.013070403 4289997344
0.0063016564 -0.0014516083 -0.013800856 4290324509
0.0081869215 -0.0014158743 -0.013892627 4290128158
0.0093057603 0.002655318 -0.017175378 4290979094
0.011021174 0.003497988 -0.017904406 4290651673
0.012889639 0.0035336465 -0.017995181 4290128159
0.015403621 0.00034174137 -0.015534589 4290324509
0.017446809 -0.00042908359 -0.014988076 4290586139
0.019161522 0.00041390955 -0.015716821 4289736224
0.021040238 0.00045009796 -0.015807845 4289605408
-0.028137177 -0.015772855 -0.0035671641 4287183674
-0.026110109 -0.016548663 -0.0030232633 4287838258
-0.024280671 -0.015703771 -0.0037578729 4287772979
-0.02266518 -0.013238619 -0.0057700691 4287969328
-0.020959195 -0.011583675 -0.0071425322 4288492844
-0.019264203 -0.0099288896 -0.0085143484 4289081893
-0.017804962 -0.0066541359 -0.01116275 4288166189
-0.016367611 -0.0033796509 -0.013809977 4288558379
-0.014952153 -0.00010547042 -0.016456056 4289081639
-0.013076406 -7.1031041e-05 -0.016548192 4289997599
-0.011324037 0.00077330694 -0.017278301 4290848023
-0.0094512515 0.00080790091 -0.017370136 4290913559
-0.0073211528 -0.00077682734 -0.01618626 4290520859
-0.0053117387 -0.0015515652 -0.015640531 4290324254
-0.0034311712 -0.0015165308 -0.015732527 4290193438
-0.0016876012 -0.00067182444 -0.01646181 4289931808
0.00018996 -0.00063663675 -0.016553504 4289800993
0.0020674095 -0.00060135545 -0.016645122 4290389788
0.0039447099 -0.00056596845 -0.016736651 4289539619
0.0058218464 -0.00053048879 -0.016828101 4289735969
0.0078493282 -0.0013042204 -0.01628276 4289801504
0.009422496 0.00035000779 -0.017647419 4290848023
0.010828704 0.0028132545 -0.019647898 4290979094
0.012535729 0.0036579855 -0.020374868 4290913048
0.014721222 0.0020754598 -0.019192906 4291044373
0.016917437 0.00049321912 -0.018011406 4290651674
0.018957563 -0.00027979724 -0.017466253 4289539619
0.021002978 -0.0010526078 -0.016921353 4288689449
-0.026441183 -0.015652612 -0.0060785315 4287510839
-0.024417136 -0.01643049 -0.0055360552 4287838258
-0.022596043 -0.015583524 -0.0062685246 4288362029
-0.020887379 -0.01392424 -0.0076378589 4288231214
-0.019189712 -0.012265019 -0.0090066241 4288231214
-0.017615352 -0.0097937323 -0.011011683 4287969583
-0.016057443 -0.0073226243 -0.013015918 4287970094
-0.014751524 -0.0032275217 -0.016292654 4288558634
-0.013111461 -0.0015689014 -0.017658249 4288885544
-0.011359178 -0.00072238687 -0.018386737 4289605154
-0.0096124522 0.00012411922 -0.019114882 4289801248
-0.0073566474 -0.0022769189 -0.017297938 4290193438
-0.0054787919 -0.0022420376 -0.017389879 4289997089
-0.0036010742 -0.0022070389 -0.017481722 4290128159
-0.002133958 0.00026324019 -0.019480875 4289735714
-0.00026466697 0.00029827747 -0.019572161 4291043864
0.00160449 0.00033339672 -0.019663377 4291175189
0.0036184862 -0.00044296309 -0.019119142 4290913559
0.0056378022 -0.0012191273 -0.018575093 4290521113
0.0076623932 -0.0019951672 -0.018031212 4289539618
0.0092328191 -0.00033662934 -0.0193925 4289605154
0.010792248 0.001321678 -0.020753194 4290324763
0.012499213 0.0021685744 -0.021478554 4289932063
0.014845788 -0.0002295766 -0.019665236 4289997853
0.017044544 -0.0018161768 -0.018487057 4289473828
0.019420721 -0.0042136074 -0.016675064 4288885289
0.021304674 -0.004177344 -0.016766362 4286921789
-0.024553485 -0.017152663 -0.0073108678 4286790718
-0.022526994 -0.01793256 -0.0067700422 4288165169
-0.020708818 -0.017083358 -0.0075006685 4287903794
-0.019005742 -0.015419738 -0.0088664331 4288034864
-0.017538205 -0.012127473 -0.011502352 4287904049
-0.015862573 -0.010464072 -0.01286663 4287904049
-0.014551088 -0.0063580368 -0.016135598 4288166188
-0.012905605 -0.0046950178 -0.017498193 4288297004
-0.011394292 -0.0022179252 -0.019495059 4288558889
-0.0095217675 -0.0021833475 -0.019586891 4289539618
-0.0076493509 -0.0021486883 -0.019678654 4289866529
-0.0060397238 -0.00048593152 -0.021039193 4290193438
-0.004307054 0.00036279205 -0.021764809 4290324509
-0.0024431944 0.00039759651 -0.02185593 4289669923
-0.00043996423 -0.00038132444 -0.021312919 4290716699
0.0014263466 -0.00034627598 -0.021404009 4290062623
0.0034374669 -0.0011248854 -0.020861264 4290324764
0.0054538772 -0.0019032997 -0.020318704 4291175189
0.0074755698 -0.002681518 -0.019776331 4289604898
0.0093494803 -0.0026459605 -0.019867521 4289670433
0.011067428 -0.0017967992 -0.020591889 4289932063
0.013096854 -0.0025746017 -0.020049691 4289866274
0.015131563 -0.0033522798 -0.019507661 4289931553
0.017499499 -0.0057564885 -0.017700182 4288819244
0.019716889 -0.007347038 -0.016526107 4287053113
0.021775588 -0.0081239585 -0.015985092 4286856764
-0.022978332 -0.016202353 -0.010445466 4287445048
-0.020850793 -0.017801087 -0.0092718303 4287772468
-0.019150484 -0.016133148 -0.010634286 4287838259
-0.017685607 -0.012832287 -0.013263581 4288100399
-0.015897773 -0.011981089 -0.013990897 4288034864
-0.014350832 -0.0094970847 -0.015984792 4288100654
-0.012579549 -0.0086459592 -0.016711123 4288035373
-0.011060033 -0.006162256 -0.01870352 4288493609
-0.0095569864 -0.0036786958 -0.020695066 4288886054
-0.007941816 -0.0020116107 -0.022052741 4289474084
-0.0063376576 -0.00034457911 -0.023409838 4290258974
-0.0046105124 0.00050620828 -0.024133576 4290128158
-0.0027521998 0.00054088328 -0.024224441 4290193693
-0.00075460225 -0.00024034455 -0.023682792 4289146664
0.0012483448 -0.0010214359 -0.0231413 4289015848
0.0032565668 -0.0018022712 -0.022600025 4289670434
0.0051224977 -0.0017670738 -0.022690982 4290062878
0.0069882646 -0.0017317715 -0.022781851 4289735713
0.0088539198 -0.0016963994 -0.02287266 4289801248
0.010719411 -0.0016609221 -0.022963382 4289932063
0.013060182 -0.0040723677 -0.021159571 4289604644
0.015417136 -0.0064834589 -0.019356441 4288492333
0.017954178 -0.0097097028 -0.016922796 4286856763
0.02034615 -0.01211996 -0.015121242 4286202689
-0.019513998 -0.015204577 -0.013663296 4287380024
-0.017720703 -0.014351277 -0.014389319 4287707188
-0.015818052 -0.014316604 -0.014482969 4287773744
-0.014150757 -0.012644596 -0.015840333 4287904304
-0.012374103 -0.011791275 -0.016565295 4288297003
-0.010849141 -0.0093009127 -0.018553166 4288689448
-0.0092148297 -0.0076292371 -0.019908633 4289147684
-0.007848531 -0.0043208296 -0.022526212 4288950823
-0.0065041333 -0.0010127258 -0.025142644 4289146663
-0.0050476715 0.0014767703 -0.027126856 4290258973
-0.0031976551 0.0015112842 -0.027217323 4290913559
-0.0013477504 0.0015459033 -0.027307704 4290455068
0.00078622997 -5.5739656e-05 -0.026136629 4290258974
0.0026413128 -2.0830892e-05 -0.02622712 4290717208
0.0044962466 1.4147721e-05 -0.026317548 4290586393
0.0065013021 -0.00076877419 -0.025777625 4289932063
0.0086646602 -0.0023694974 -0.024607712 4289670434
0.01083874 -0.0039698747 -0.02343829 4289342758
0.013181992 -0.0063878582 -0.021639416 4287904049
-0.019877207 -0.014262743 -0.016682552 4287053114
-0.017867912 -0.015049148 -0.016145481 4287248954
-0.016082961 -0.014193751 -0.01686942 4287904048
-0.014303565 -0.013338326 -0.017592993 4288165933
-0.01265002 -0.011662118 -0.018946376 4289213219
-0.010884445 -0.010806732 -0.01966911 4288362538
-0.0093758889 -0.0083101215 -0.021651236 4288428074
-0.0080122352 -0.0049931062 -0.024262259 4288427818
-0.0064081289 -0.0033174129 -0.025612921 4288820009
-0.0049488991 -0.00082139671 -0.027592391 4289343269
-0.0032329038 3.3607706e-05 -0.028312374 4289801249
-0.0015224591 0.00088855438 -0.029031973 4290390043
0.00046654046 0.00010286365 -0.028493097 4291109909
0.0024608299 -0.00068267854 -0.027954368 4291109909
0.0043129399 -0.00064777117 -0.028044673 4290390043
0.0063151121 -0.0014329311 -0.02750623 4289539363
0.0086284727 -0.0038581854 -0.025710881 4288950568
0.010802358 -0.0054629454 -0.024544699 4287380789
0.013303705 -0.0087074796 -0.022122398 4286334014
-0.018239144 -0.014096524 -0.019156145 4287707189
-0.016347647 -0.014062086 -0.01924927 4288558124
-0.014573786 -0.01320455 -0.019971002 4288885543
-0.012685221 -0.013169957 -0.020063827 4288624424
-0.010919724 -0.012312431 -0.020784967 4288297259
-0.009159781 -0.011454901 -0.021505754 4288035373
-0.0075337924 -0.0097746179 -0.022854308 4288100909
-0.0059188157 -0.0080944113 -0.024202302 4288362283
-0.0047163777 -0.003946363 -0.02743323 4289212454
-0.0032681152 -0.0014439365 -0.029407326 4288885544
-0.0016970262 0.00023570657 -0.030752908 4289800738
0.00028906018 -0.00055224542 -0.030215532 4289866274
0.0022804812 -0.0013399776 -0.029678322 4289866784
0.0044246539 -0.0029499815 -0.028514098 4289343014
0.0067297369 -0.0053820023 -0.026723254 4289277734
0.0092038587 -0.0086358814 -0.024306254 4286922808
0.013583682 -0.011853505 -0.021981848 4286268479
0.015628636 -0.012639713 -0.021446867 4286071874
0.017678916 -0.013425816 -0.020912072 4286202178
0.019567996 -0.01338966 -0.021003768 4286071363
-0.014843762 -0.013061943 -0.022342391 4287575863
-0.012840588 -0.013852542 -0.021808051 4287968818
-0.010954976 -0.013817927 -0.021900674 4288099889
-0.0091951154 -0.012958232 -0.022619851 4288100399
-0.0075691454 -0.011273642 -0.023965204 4288165679
-0.005692035 -0.011238869 -0.024057176 4288100398
-0.0040826425 -0.0095543396 -0.025401611 4288362284
-0.0028937683 -0.0053956416 -0.028623778 4288623658
-0.0014537647 -0.0028867596 -0.030592564 4289408294
0.00025370717 -0.0020274827 -0.031308763 4289473829
0.0026789755 -0.0052913036 -0.028896008 4289604644
0.0048310906 -0.0069055306 -0.027735418 4289015848
0.0071440563 -0.0093438821 -0.025949843 4287576628
0.0093203783 -0.010957479 -0.024790302 4286857273
0.011662968 -0.013395132 -0.023006069 4286791738
0.014021747 -0.015832435 -0.021222515 4286791484
0.015752748 -0.014972119 -0.021939419 4286464318
-0.015230943 -0.012083178 -0.025332719 4286071363
-0.013115957 -0.013703397 -0.024174247 4287706678
-0.011113059 -0.014496094 -0.023641447 4287576118
-0.0092304088 -0.014461432 -0.023733851 4288034608
-0.0074761622 -0.013599604 -0.02445109 4288165168
-0.0057274699 -0.012737786 -0.025167989 4288296494
-0.0041180812 -0.011048938 -0.026509214 4288231214
-0.0026561618 -0.0085332897 -0.028474277 4288493098
-0.0014890507 -0.004364029 -0.031687312 4288950824
0.00036026537 -0.0043294202 -0.031777661 4288558124
0.0026433393 -0.006775137 -0.029995605 4288427053
0.0052372441 -0.010873912 -0.026966322 4287249718
0.0075581148 -0.013318724 -0.025185965 4286399294
0.011781864 -0.015727377 -0.023498245 4286595644
0.013826683 -0.016518142 -0.022966567 4287380278
0.015554912 -0.015655687 -0.02368178 4287511094
-0.011271015 -0.015169758 -0.025378883 4287379258
-0.0092656761 -0.015964486 -0.024847744 4287706678
-0.0075114965 -0.01510053 -0.0255634 4287968818
-0.0058938526 -0.013407297 -0.026901886 4288099889
-0.0041535087 -0.012543381 -0.027616702 4288296493
-0.0028279647 -0.009192111 -0.030199897 4288362029
-0.0013851449 -0.0066702594 -0.032159153 4287968818
0.00046679378 -0.0066356421 -0.032249663 4288164913
0.0030414164 -0.010745746 -0.029227583 4287314743
0.0054958463 -0.014026359 -0.026829125 4286071873
0.009400472 -0.0147844 -0.02638993 4286071873
0.011434391 -0.015577624 -0.025859466 4286529598
-0.009677358 -0.01497292 -0.027827026 4287248698
-0.0076749995 -0.015769849 -0.02729726 4287379769
-0.0059291795 -0.014903748 -0.028010871 4287772979
-0.0044561736 -0.012375017 -0.029966917 4288100399
-0.0028632581 -0.010677733 -0.031300843 4288165679
-0.001281321 -0.0089806411 -0.03263415 4287968818
0.00085680187 -0.010608349 -0.031482767 4287903539
0.0030057058 -0.012235826 -0.030331815 4286857019
0.0074856654 -0.016320881 -0.027410697 4286071874
0.009211503 -0.015454479 -0.028122757 4286595134
-0.0079665221 -0.015601061 -0.029647933 4287445558
-0.0059644654 -0.016400043 -0.029119745 4287968308
-0.0043578371 -0.014698354 -0.030451188 4288885288
-0.0027622059 -0.012996763 -0.031782016 4288623658
-0.0010385364 -0.012128638 -0.032492734 4288492589
0.00082131475 -0.012093926 -0.032583669 4287511349
0.0031144693 -0.014559085 -0.030816682 4286791738
0.0051294267 -0.015357301 -0.030288737 4286464063
0.0069998056 -0.015322138 -0.030379998 4286529854
-0.0043930933 -0.016190231 -0.031556785 4288230703
-0.0026612133 -0.015319949 -0.032266341 4288296238
-0.0010738671 -0.01361407 -0.033593535 4287903794
0.000644207 -0.012743883 -0.034302302 4287969074
0.0026455298 -0.013544649 -0.033775389 4288099888
0.0047993287 -0.015180685 -0.032631099 4287183929
-0.0029689074 -0.015133984 -0.034603246 4286595133
-0.0013870001 -0.013423936 -0.035926931 4287575863
0.00018393248 -0.011713974 -0.037250064 4287052603
-0.0016998723 -0.013224932 -0.038253821 4287771959
0.0019350201 0.0054201726 0.047696717 4279848088
-0.0018731877 0.002232125 0.048062604 4282601579
-0.00050572306 0.0060237832 0.044556681 4279848599
0.0028246418 0.0098519931 0.040954724 4278469048
-0.0044275448 0.003591679 0.044243995 4282012018
-0.0029297322 0.0066411132 0.041425858 4279586714
-0.0014539063 0.0096902503 0.038608883 4278274739
0.00026548654 0.011233066 0.03715232 4279126694
0.0022448003 0.011269831 0.037055407 4279651994
0.0045003965 0.0098008579 0.038317367 4278341039
0.0067666918 0.0083322125 0.039578818 4278864554
0.009187378 0.0061110361 0.041518979 4278537133
0.011624232 0.0038902648 0.043458417 4279455644
-0.008479625 0.0019111447 0.043250382 4281815923
-0.0070814118 0.0057249395 0.039758891 4280242829
-0.0054615363 0.0080275936 0.037625752 4278997408
-0.0037309155 0.009574783 0.036171731 4278538664
-0.00017019361 0.011913619 0.033943668 4278861493
0.0018008202 0.011950254 0.033847183 4279191209
0.0040479973 0.010476816 0.035106275 4278732974
0.0085744709 0.0075308112 0.037623174 4279127203
0.010707416 0.0068132067 0.038203575 4278603688
0.013292842 0.0038311267 0.040815491 4279259803
0.015748054 0.0016043689 0.04274933 4281160828
-0.0095883533 0.0071232142 0.035966054 4279586203
-0.0080927946 0.01018986 0.033160843 4278341294
-0.0061212331 0.010226089 0.033064023 4278866084
-0.0041498281 0.010262421 0.032967292 4278669479
-0.0021786019 0.01029887 0.032870654 4278274994
0.0081055462 0.0082111442 0.034416374 4278931364
0.010083824 0.008248345 0.034319855 4278603689
0.01221095 0.007528537 0.034899056 4278735014
0.014495045 0.006051979 0.036153518 4279062689
-0.013136547 0.0024245428 0.037688129 4281815414
-0.011840429 0.0070200171 0.033536449 4279192739
-0.0084947944 0.010891221 0.029965457 4278270403
-0.0045684613 0.010963502 0.029772736 4278734504
-0.0023457333 0.00948055 0.031026378 4278538409
-0.00024492294 0.0087575158 0.031604763 4278603944
0.0017258227 0.0087941801 0.031508319 4278472874
0.0036963671 0.0088309525 0.031411968 4278407339
0.0056667402 0.0088678291 0.031315703 4278538154
0.0076369122 0.0089047989 0.03121952 4278603688
0.0094606578 0.0097011765 0.030449316 4278472109
0.013242856 0.010534749 0.029583767 4278401729
-0.015499365 0.0030795867 0.034581468 4280176529
-0.013967782 0.006164032 0.031787213 4279127204
-0.012341965 0.0084861675 0.029668096 4278471853
-0.01049475 0.009284093 0.028897569 4278930088
-0.0087748207 0.010843967 0.027453713 4279453858
-0.0048596784 0.010916085 0.027261578 4278799528
-0.0026426464 0.0094287163 0.028512217 4278734758
-0.00041488558 0.0079416325 0.029762477 4278603434
0.0015529916 0.0079782782 0.029666197 4278800039
0.0035207048 0.0080150021 0.029569987 4278603688
0.0052066967 0.0095750531 0.028128311 4278734504
0.0071685836 0.0096118962 0.028032556 4278472619
0.008984074 0.010410312 0.027264386 4278340529
0.012901388 0.010484378 0.027073562 4279254958
0.015014112 0.0097602149 0.027650364 4278665143
0.019894533 0.0052675372 0.03149078 4280176273
0.022684 0.001499434 0.034753334 4281946738
-0.016200155 0.0060771992 0.029368594 4279783064
-0.014344577 0.0068772826 0.028599076 4279061669
-0.010769103 0.0092415744 0.026388988 4278994604
-0.0090546682 0.010805775 0.024948612 4279257254
-0.007102605 0.010841687 0.024852781 4278534838
-0.0052777641 0.011641729 0.024085233 4278536623
-0.0029393509 0.0093858493 0.02600478 4278799784
-0.00071730465 0.007894366 0.027252052 4278734504
0.0012449995 0.0079309037 0.027156044 4278669223
0.0030691624 0.0087313792 0.026388858 4278735014
0.004746981 0.010295647 0.024950832 4278800038
0.0068439692 0.0095685916 0.025526542 4278472619
0.010756001 0.0096423673 0.025335833 4278469049
0.012408517 0.011206587 0.023899361 4279651483
0.014667228 0.0097165378 0.025145471 4279389854
0.016465478 0.010517274 0.024380032 4278995369
0.018897146 0.0082642762 0.026295871 4278799019
0.02134493 0.0060116807 0.02821099 4279061923
0.02430445 0.0014695851 0.032135252 4280963714
-0.016347069 0.0052687973 0.027530342 4282465918
-0.014607694 0.0068374174 0.026091754 4279717018
-0.0054415204 0.010848315 0.022259237 4279126693
-0.0032358766 0.0093520442 0.023503987 4278799783
-0.0010194853 0.0078560626 0.024748348 4278603944
0.0008020252 0.0086585982 0.023982784 4278538409
0.0027558431 0.0086951153 0.023887292 4278604199
0.0044281855 0.010263613 0.022452822 4278603944
0.006519556 0.0095343338 0.023027163 4278603944
0.012219027 0.010410639 0.022073099 4278401729
0.018219776 0.0097562866 0.022457754 4279192228
0.020493984 0.0082625011 0.023700116 4278537899
0.022943996 0.006003553 0.025610309 4278603944
0.025577992 0.0029795421 0.028188035 4279194269
0.028404161 -0.000809344 0.03143286 4282340459
-0.014643937 0.0052692918 0.024929605 4281354373
-0.013031725 0.0076108361 0.022825755 4281484933
-0.011317216 0.0091836164 0.021391818 4279127458
-0.0096137635 0.010756363 0.019958479 4278602924
-0.007548634 0.010023621 0.020531965 4278800294
-0.0056051835 0.010059522 0.020436669 4278735014
-0.0034025013 0.0085588591 0.021678342 4278603944
-0.0013215095 0.0078267949 0.022251267 4278668969
0.0042501837 0.009472453 0.020629395 4278990268
0.006338641 0.0087409439 0.021202264 4278865574
0.0082863271 0.0087776585 0.021107303 4278603688
0.018021829 0.0089626638 0.02063375 4278734504
0.020130686 0.0082322368 0.021206142 4278603434
0.022079691 0.0082696313 0.021111602 4278669223
0.02402845 0.0083071524 0.021017175 4278863788
0.026488654 0.0060420102 0.022922201 4278796469
0.029311493 0.0022422615 0.026159164 4281486719
-0.011353504 0.0076266984 0.020237995 4280044694
-0.0096500888 0.0092038149 0.018807901 4278996643
-0.0078335367 0.010010169 0.018045556 4278603434
-0.0058956631 0.010045965 0.017950529 4278603434
-0.0038283169 0.0093113771 0.018522438 4278733738
-0.0017556697 0.0085769268 0.019094188 4278733484
-0.0002181381 0.010924445 0.016999459 4278664379
0.0017163604 0.010960602 0.016904911 4278990779
0.0060145855 0.0087224403 0.018714631 4278535604
0.0079566911 0.0087590599 0.018619953 4278800039
0.0098986179 0.0087957988 0.018525369 4278735014
0.011537477 0.010372845 0.017099274 4278669223
0.013473555 0.010409663 0.017005121 4278866084
0.015566334 0.0096765636 0.017576538 4278603688
0.017664358 0.0089436145 0.018147809 4278341549
0.019605279 0.0089807892 0.018053615 4278537898
0.021380946 0.0097879553 0.017294368 4278275504
0.030538246 0.0037804926 0.02223588 4279060649
-0.0096864253 0.0076515423 0.017657526 4280110229
-0.0078699589 0.0084600942 0.01689682 4278669223
-0.0060590915 0.0092686387 0.016136462 4278538154
-0.0041242391 0.0093045058 0.016041676 4278668969
-0.00066014379 0.011694365 0.013857491 4279453859
0.001266025 0.011730396 0.013763376 4279715998
0.0056906864 0.0087129669 0.016233625 4279060904
0.0076272264 0.0087494971 0.016139224 4278668714
0.0095635876 0.0087861298 0.016044913 4278734504
0.011348367 0.009595138 0.015286535 4278603688
0.013281628 0.0096319104 0.015192525 4278734759
0.015371501 0.0088965716 0.015762461 4278800294
0.01746662 0.0081614545 0.01633223 4278537644
0.020682633 0.01132396 0.013490235 4278995113
0.022609428 0.011361058 0.013396868 4278799529
0.024706453 0.01062627 0.01396684 4278865573
0.029267907 0.0076136896 0.016432105 4279126184
0.032100432 0.0037925309 0.019652562 4279323554
0.035141237 -0.00079970807 0.023534488 4279586715
-0.0079063773 0.0069102598 0.015748264 4282923900
-0.0060956031 0.0077209929 0.014989534 4279979414
-0.0045495071 0.010081534 0.01290394 4278996643
0.00081600994 0.012513491 0.010631768 4279388578
0.0027337074 0.012549466 0.01053814 4278993329
0.0049375519 0.011036321 0.01177047 4278273719
0.0071521178 0.0095234746 0.013002349 4278733738
0.0092287809 0.0087854033 0.01357116 4278800294
0.011008054 0.0095965443 0.012814635 4278734504
0.013089776 0.0088587506 0.013383335 4278603688
0.015020005 0.0088955583 0.013289537 4278669223
0.016950004 0.0089324685 0.013195833 4278537899
0.022403516 0.010592056 0.011591649 4278666673
0.024327263 0.010629197 0.011498507 4279060139
0.026250809 0.010666394 0.011405421 4278273463
0.030811422 0.007645282 0.013864404 4278733994
0.033288985 0.0053612459 0.01575431 4278865573
0.035966627 0.0023037558 0.018304441 4280504713
-0.004586 0.0085407095 0.011762077 4279717530
-0.0027919561 0.0093535548 0.011005968 4278537389
0.0047573522 0.010274508 0.0099689737 4278864043
0.0068231374 0.0095340079 0.010536589 4278603433
0.0090427175 0.0080170082 0.011765068 4278603688
0.010970473 0.0080535943 0.011671262 4278603944
0.012744032 0.0088668661 0.010916755 4278735014
0.014825419 0.0081270309 0.011483885 4278669479
0.016593143 0.0089403847 0.010729805 4278734758
0.018517412 0.0089772688 0.010636441 4278603433
0.022365309 0.0090513201 0.010449961 4278401729
0.027959876 0.0099391611 0.0095110461 4279058354
0.03005863 0.0092003839 0.01007787 4278734504
0.032162651 0.0084617762 0.01064449 4278669223
0.034455821 0.0069472715 0.011870278 4279062435
0.037132911 0.0038811546 0.01441404 4279848598
0.040020928 3.9625913e-05 0.017615883 4282340458
-0.0025642291 0.0062568309 0.011186404 4282794104
-0.00063556433 0.0062928097 0.011092091 4279652249
0.0010177344 0.0078870738 0.0096779503 4278799783
0.0026599765 0.0094812261 0.0082644206 4278734504
0.0041480884 0.011854268 0.0061917449 4278537898
0.0062027797 0.011111406 0.0067583011 4278472363
0.0085597858 0.0088109104 0.0086435508 4278734504
0.014317594 0.0089205066 0.0083636139 4278267343
0.016077124 0.0097358627 0.0076115369 4278994858
0.018155217 0.0089939898 0.0081773568 4278865574
0.020073712 0.0090308757 0.0080843549 4278603434
0.025482029 0.010698852 0.0064892382 4278733738
0.027570002 0.0099575622 0.0070549478 4278669223
0.029663168 0.0092164902 0.007620417 4278538154
0.031580456 0.0092538456 0.0075278417 4278472364
0.033313625 0.010069459 0.0067776083 4279061413
0.035227746 0.010106905 0.0066852984 4278271934
0.037898876 0.0070320778 0.0092228875 4280371603
0.041167632 0.0016235551 0.013731558 4282273904
-0.00040271133 0.0031876974 0.011266051 4279322789
0.0012559965 0.0047864569 0.0098548327 4279127968
0.0026230961 0.0079474887 0.0071278443 4278537899
0.0041112378 0.010327087 0.0050600362 4278537643
0.0060200542 0.010363118 0.0049670073 4278537899
0.0082255676 0.0088371625 0.0061897193 4278274994
0.011899292 0.0096908668 0.0053459932 4278990013
0.013653494 0.010508218 0.0045957309 4278530504
0.015561394 0.010544724 0.0045031128 4278401474
0.017469093 0.010581325 0.0044105747 4278537898
0.019706167 0.009056502 0.0056321495 4278537898
0.021618932 0.0090933656 0.0055394904 4278603433
0.023531474 0.0091303205 0.0054469132 4278669223
0.025097944 0.0107285 0.0040411293 4278603944
0.027004659 0.01076549 0.0039489432 4278341294
0.029089525 0.010022088 0.0045132064 4278472109
0.030817449 0.010839709 0.0037647909 4278799018
0.03462939 0.010914213 0.003580905 4278269383
0.042682022 0.0016644485 0.011172663 4281945973
0.002726458 0.0056305937 0.0066480353 4279520669
0.0039314628 0.0095834481 0.0032720049 4278996388
0.0056917593 0.010402731 0.002522795 4278734249
0.0097999275 0.0089085391 0.0036496962 4279519903
0.011708088 0.0089448458 0.0035569142 4279586713
0.013302945 0.010547412 0.0021526036 4278733738
0.015364558 0.0098007889 0.0027159317 4279126183
0.017107435 0.010620308 0.0019679903 4278733738
0.019174106 0.0098739481 0.0025311974 4278865574
0.020911165 0.010693527 0.0017836639 4278537899
0.022812732 0.010730264 0.0016916138 4278537899
0.024714097 0.010767068 0.0015996271 4278668968
0.026615292 0.010803952 0.0015077111 4278407084
0.028694548 0.010058268 0.0020706295 4278537898
0.032133766 0.011697681 0.00057787029 4278667694
0.034217902 0.010952248 0.0011407426 4278602669
0.036496431 0.0094246222 0.0023576324 4278535604
0.041085459 0.0063701216 0.0047900374 4279062178
0.043790661 0.0032787137 0.0073132529 4278996899
0.04691755 -0.0013766703 0.011142891 4281027974
0.0025493652 0.0048807366 0.0048552244 4283249278
0.004037559 0.0072734011 0.0027971151 4280371859
0.0056549013 0.0088803498 0.001394649 4279258274
0.016907923 0.0098831216 0.00018591806 4278537133
0.018971734 0.0091345115 0.00074770814 4278668969
0.020706013 0.0099562453 1.8761493e-06 4278537899
0.022434629 0.010777933 -0.00074356236 4278668969
0.024503291 0.010029691 -0.00018187752 4278668969
0.026226103 0.010851414 -0.00092692394 4278407084
0.028121524 0.010888276 -0.0010184962 4278538154
0.034179457 0.0094298767 1.270324e-05 4279324064
0.036457792 0.007897879 0.0012263614 4278734504
0.038171202 0.0087198643 0.0004820982 4278864809
0.039684385 0.010326345 -0.00091425236 4278865318
0.042172976 0.0080103083 0.00095120165 4278865829
0.045477711 0.002557002 0.0054242839 4278735013
0.048820272 -0.0028955205 0.0098956525 4281619318
0.0053269118 0.0089335693 -0.0010395511 4282990454
0.0073725656 0.0081819063 -0.0004789629 4280371859
0.0091214925 0.0090055233 -0.0012242417 4278340018
0.014652871 0.0099015022 -0.0021531498 4278272954
0.016384751 0.010725156 -0.0028973303 4278668969
0.018440224 0.0099742441 -0.0023368017 4278669224
0.019998945 0.011585229 -0.0037326657 4278603688
0.021886699 0.011621698 -0.0038240459 4278865574
0.023774266 0.01165825 -0.003915356 4278733738
0.025837146 0.010907759 -0.003354904 4279062435
0.02790527 0.010157487 -0.0027946925 4278473129
0.036040992 0.0079449667 -0.0012067454 4278402494
0.039256707 0.010379738 -0.0033419954 4278996644
0.041739635 0.0080570364 -0.0014811349 4278866084
0.045238428 0.0018018149 0.0036314162 4278997153
0.048983149 -0.0052390671 0.0093923211 4280571269
0.0092354566 0.0066982768 -0.0016975477 4279717529
0.011135094 0.006734442 -0.0017899009 4279127203
0.012408972 0.0099291606 -0.0044861007 4279061668
0.014138229 0.010754843 -0.0052286116 4278865574
0.016023733 0.010791025 -0.0053200661 4278472363
0.018238194 0.0092483098 -0.0041102851 4278406828
0.019961461 0.010074192 -0.004852348 4278471598
0.023563862 0.010936496 -0.0056852107 4278267343
0.025448412 0.010973056 -0.0057763238 4278269638
0.02786728 0.008642097 -0.0039175744 4278930599
0.02939783 0.010257269 -0.0053085638 4278538409
0.03165172 0.0087159043 -0.0041002533 4278668968
0.03335733 0.0095419353 -0.0048410231 4278929833
0.035624422 0.008000995 -0.0036333022 4278733483
0.037518643 0.0080381827 -0.0037245555 4278799783
0.039607145 0.0072865738 -0.003166616 4278931363
0.0487407 -0.0060093831 0.0075884187 4282472039
0.0091984197 0.005178811 -0.002823516 4279385773
0.010944329 0.0060067931 -0.0035653652 4279258273
0.012215555 0.0092101796 -0.0062549636 4278931110
0.013783 0.010829697 -0.0076449635 4278406574
0.015501156 0.011657433 -0.0083852541 4278799528
0.017707236 0.010110271 -0.0071783243 4278472108
0.019589528 0.010146554 -0.0072695017 4278929833
0.027116865 0.01029241 -0.0076335566 4278864299
0.028998241 0.01032905 -0.0077244118 4278734249
0.031062931 0.0095745204 -0.0071671465 4278930598
0.032760359 0.010402569 -0.0079059042 4278537643
0.035208076 0.0080658933 -0.0060532112 4278603434
0.037671879 0.0057296883 -0.0042012529 4278866339
0.040346205 0.0026027672 -0.0017024698 4280111758
0.042844936 0.00026729889 0.00014791917 4280701828
0.045559622 -0.0028587095 0.0026448458 4279784338
0.012334883 0.0069078198 -0.0067249755 4280371859
0.013746016 0.0093256561 -0.0087594818 4278537644
0.015625842 0.0093617188 -0.0088506676 4278733994
0.017505527 0.0093978392 -0.0089418022 4278274994
0.019384995 0.0094340509 -0.0090328548 4278273719
0.021094404 0.010264047 -0.0097709186 4279585949
0.022798173 0.011094066 -0.010508684 4279258784
0.024496339 0.011923981 -0.011246102 4278273719
0.026723035 0.010373215 -0.010043067 4278799019
0.02859886 0.010409749 -0.010133652 4278865063
0.030657962 0.0096529266 -0.0095777409 4278406573
0.032349937 0.010483013 -0.010314641 4278472109
0.03516981 0.0065530604 -0.0071741776 4278472108
0.038016655 0.0026236884 -0.0040349755 4279783575
0.041084848 -0.0020982898 -0.00025110599 4280832643
0.043397129 -0.0036468646 0.00094810966 4281226109
0.045720071 -0.0051951911 0.002146916 4281620083
0.014026955 0.0062296735 -0.0085818358 4280107679
0.015427098 0.0086539192 -0.010610892 4278930854
0.017303944 0.0086899931 -0.010701884 4278602924
0.020717382 0.010354151 -0.012174652 4278535348
0.022243127 0.011982008 -0.013555843 4278537133
0.02428364 0.011222399 -0.013000833 4278601904
0.02819971 0.010499402 -0.012536333 4278864808
0.030253246 0.0097402716 -0.011981783 4278669224
0.032498196 0.0081857061 -0.010782719 4278537899
0.035509303 0.0034494139 -0.0070058964 4279455644
0.038361229 -0.0004907269 -0.0038750086 4280832643
0.041045845 -0.0036349087 -0.0013896888 4281356923
0.043160915 -0.0043924996 -0.00083785923 4281422714
0.045480974 -0.0059452537 0.00035784021 4282602598
0.017431155 0.0063903499 -0.011170374 4281223559
0.018976301 0.008022801 -0.012549446 4279127458
0.022378415 0.0096911984 -0.014018282 4278270658
0.02424629 0.00972741 -0.014108608 4278271168
0.026291899 0.0089658024 -0.013555402 4278601904
0.028342791 0.0082043661 -0.013002397 4278865318
0.030949034 0.0050497018 -0.010519944 4278603688
0.033576876 0.001895505 -0.0080384985 4280701828
0.036226235 -0.0012581781 -0.0055580228 4281029758
0.038705617 -0.00361377 -0.0037213634 4281226618
0.041006863 -0.0051713241 -0.0025281229 4281423223
0.0431218 -0.0059311311 -0.0019779303 4281620594
0.018939152 0.0065237004 -0.013660286 4279651484
0.020473234 0.0081603108 -0.015035501 4279586714
0.022168741 0.0089966068 -0.015768014 4279324064
0.0240338 0.0090327477 -0.015858214 4279192739
0.026254438 0.0074688243 -0.014664646 4278865574
0.02866637 0.0051051229 -0.012829775 4278800038
0.031461097 0.0011418695 -0.0097124595 4279914643
