# .PCD v0.7 - Point Cloud Data file format
VERSION 0.7
FIELDS x y z rgba
SIZE 4 4 4 4
TYPE F F F U
COUNT 1 1 1 1
WIDTH 956
HEIGHT 1
VIEWPOINT 0 0 0 1 0 0 0
POINTS 956
DATA ascii
0.0028426722 -0.00063548889 0.0091194622 4289276714
0.0042894408 0.0017681532 0.0070572272 4288622638
0.005392924 0.0057460275 0.0036938072 4287573313
-0.031943046 -0.0029104636 0.0099432748 4288425524
-0.030458231 0.00029141083 0.0072235512 4289211179
-0.028652281 0.0011214977 0.0064619286 4289473318
-0.02696896 0.0027420456 0.0050485805 4289212199
-0.02493728 0.0019913502 0.0055917716 4289604898
-0.022777751 0.0004505096 0.0067865439 4289801249
-0.020356983 -0.0026704906 0.009284026 4289670178
-0.018426407 -0.0026300964 0.0091744792 4289670178
-0.016495958 -0.0025895978 0.009065019 4289997344
-0.014965877 -0.00017869845 0.0070021544 4289800993
-0.013043877 -0.00013814587 0.0068933461 4289735459
-0.011399724 0.0014824402 0.0054829326 4290847513
-0.0094834715 0.0015230728 0.0053745992 4289735714
-0.0075673684 0.0015638117 0.0052663535 4289212198
-0.0053573996 2.5073998e-05 0.0064589689 4289866529
-0.0031367019 -0.0015133242 0.007651059 4290258718
-0.0009052828 -0.0030514686 0.0088426378 4290258719
0.0010264963 -0.0030099754 0.0087338211 4290454814
0.0028001964 -0.0021788324 0.0079753138 4290128159
0.0044076592 -0.00055818539 0.0065675247 4289474083
0.0056773797 0.002641201 0.0038615006 4290455323
0.0074233562 0.0034720264 0.0031047638 4290454559
0.0091636926 0.0043028276 0.0023484153 4290061859
-0.032309588 -0.0020751609 0.0068463357 4289014318
-0.030721307 0.00034256 0.0047843345 4290389024
-0.028920889 0.0011746939 0.0040246332 4290978328
-0.02712604 0.0020068288 0.0032653331 4290716698
-0.024977542 0.0004613502 0.0044573825 4289735459
-0.022695813 -0.0018763337 0.0062990906 4289735459
-0.02052306 -0.0034210705 0.0074899346 4289735714
-0.018595342 -0.0033807433 0.0073805451 4289604899
-0.016929012 -0.0017556669 0.0059718695 4289670178
-0.015140358 -0.00092298072 0.0052134264 4289670179
-0.013221219 -0.00088249519 0.0051047746 4289931553
-0.011441015 -4.9744733e-05 0.0043469928 4290585628
-0.0098079145 0.0015750788 0.0029404543 4290978328
-0.0077531636 0.00082368869 0.0034814624 4291109909
-0.0056931078 7.2450377e-05 0.0040222723 4291109653
-0.0033284202 -0.0022623385 0.0058600605 4291175189
-0.0014047623 -0.0022211443 0.0057516079 4290324764
0.00051873177 -0.0021798215 0.0056432635 4290128158
0.002442047 -0.0021384195 0.0055349916 4290324764
0.0042046383 -0.0013052644 0.0047787828 4289735968
0.0059616119 -0.0004721228 0.0040229717 4290979348
0.0077129677 0.00036097132 0.0032675311 4290128414
0.0096274167 0.00040255114 0.0031600303 4290390043
0.011541694 0.00044421107 0.0030526023 4290259228
0.013107456 0.002068771 0.0016507364 4289212199
0.015015915 0.0021104636 0.0015437526 4288949549
0.016744584 0.0029435288 0.00078993174 4288556593
-0.03427235 -0.0036508543 0.00581697 4288885289
-0.03267578 -0.0012265737 0.0037592438 4289539618
-0.031095643 0.0011974638 0.0017026009 4291174679
-0.029303487 0.0020316029 0.0009449881 4290193439
-0.027282987 0.0012761969 0.0014854849 4290585884
-0.025137465 -0.00027369335 0.0026744704 4290651163
-0.022981182 -0.0018233038 0.0038629577 4289997344
-0.020689003 -0.0041671158 0.0056992816 4289866529
-0.018892001 -0.0033322964 0.004941822 4289474084
-0.017100569 -0.0024974882 0.0041847583 4289866529
-0.015448011 -0.00086820079 0.0027801313 4289996833
-0.013534449 -0.00082782237 0.0026718022 4289997089
-0.011621021 -0.00078736292 0.0025635439 4289735459
-0.0098492131 4.7476031e-05 0.0018079213 4289670434
-0.0079388097 8.8092871e-05 0.0016999978 4290521113
-0.0058816746 -0.00066533219 0.0022393197 4290651928
-0.0036696121 -0.0022126879 0.0034254517 4289997598
-0.0017515197 -0.0021715998 0.0033173223 4290324764
-0.0001437217 -0.00054244231 0.0019158355 4290193949
0.0017685965 -0.00050127413 0.001808184 4290324764
0.0035202503 0.00033382326 0.0010542104 4290455579
0.0052662939 0.0011688843 0.00030061603 4289081383
0.0071726516 0.0012101904 0.00019349623 4289016104
0.0094161481 -0.00033575017 0.0013783339 4289735713
0.011670366 -0.0018814481 0.0025626493 4289866529
0.01358705 -0.0018396466 0.0024551533 4289866529
0.015326746 -0.0010042763 0.0017022474 4289669923
0.017060801 -0.00016889349 0.00094968244 4289539363
0.018789269 0.00066639204 0.00019752677 4289145389
0.020142153 0.0030882563 -0.0018443018 4288949038
0.021478534 0.0055098999 -0.0038851758 4287638849
-0.034630056 -0.002795286 0.0027344546 4288688938
-0.032932896 -0.0011618054 0.0013297948 4290062369
-0.03135819 0.0012686569 -0.00072175357 4288819754
-0.029685747 0.0029018782 -0.002124819 4289212199
-0.027556717 0.0013471749 -0.00093822042 4289735459
-0.025416899 -0.00020724721 0.00024788035 4289931809
-0.023388661 -0.00096443202 0.00078649656 4289866529
-0.021355089 -0.0017213826 0.0013249016 4289735714
-0.019060627 -0.0040716338 0.0031563474 4289670179
-0.017141487 -0.0040313755 0.0030475261 4289866019
-0.015355714 -0.0031943792 0.0022924978 4289408294
-0.013847422 -0.00076428242 0.00024547917 4290258719
-0.011800915 -0.0015204097 0.00078355963 4289669923
-0.010031886 -0.00068348367 2.9689865e-05 4289670434
-0.0078361109 -0.0022356738 0.0012133301 4289866783
-0.0059232712 -0.0021949024 0.001105346 4289605154
-0.0038610175 -0.0029503568 0.0016428635 4289212453
-0.0020980537 -0.002113082 0.00088961725 4288754473
-0.0003406778 -0.001275877 0.00013679708 4289343524
0.0015688092 -0.0012348113 2.927403e-05 4290324764
0.0031572282 0.00039843749 -0.0013676976 4291044374
0.0048977807 0.0012355577 -0.0021193644 4290258974
0.0067985877 0.0012767436 -0.0022261704 4289670178
0.009205021 -0.0010695397 -0.00039994461 4289866529
0.011456273 -0.0026196367 0.00078131561 4290651674
0.013544187 -0.0033736429 0.0013179805 4290062623
0.015283838 -0.0025361204 0.00056667766 4289866274
0.017017864 -0.0016985745 -0.00018427544 4289670434
0.018928468 -0.0016566855 -0.00029126811 4290062624
0.020653978 -0.00081921928 -0.00104159 4290585884
0.021998614 0.0016090777 -0.0030780409 4290389023
0.023897767 0.0016509378 -0.0031842261 4290192929
-0.036893785 -0.0019654548 -0.00022931793 4289145133
-0.035199299 -0.0003277557 -0.001630723 4288949038
-0.033407122 0.00051048771 -0.0023852875 4290781978
-0.031731889 0.0021479968 -0.0037853671 4290455068
-0.029953532 0.0029862253 -0.0045390176 4290193694
-0.02771337 0.00062788744 -0.002709657 4290585884
-0.025456965 -0.0017299945 -0.00088113244 4291044374
-0.023551203 -0.001690364 -0.00098945294 4290128158
-0.021520562 -0.00244956 -0.00045250519 4289932064
-0.019484591 -0.0032085455 8.4213214e-05 4289735714
-0.017443307 -0.0039673098 0.00062071183 4289997089
-0.015796222 -0.0023294915 -0.00077710347 4290716698
-0.014160164 -0.00069180131 -0.0021742159 4291305494
-0.012257889 -0.00065157935 -0.0022818455 4291043864
-0.010355778 -0.00061125308 -0.0023893858 4290651673
-0.0083097294 -0.0013693636 -0.0018527444 4289605154
-0.0061116293 -0.0029257666 -0.00067240419 4289605154
-0.0042017847 -0.0028849812 -0.00078016147 4289539873
-0.0022920892 -0.0028440789 -0.00088782096 4289409059
-0.00069244951 -0.0012064534 -0.0022823496 4289736223
0.0010538176 -0.00036723819 -0.0030328713 4289605154
0.0026340857 0.0012702188 -0.004426199 4290390299
0.0046926141 0.0005130535 -0.0038897581 4291044374
0.0064247772 0.0013522273 -0.0046392931 4291305494
0.0088254958 -0.0010007578 -0.0028175602 4291174679
0.010899812 -0.0017573326 -0.0022818232 4290716698
0.013153382 -0.0033116071 -0.0011039097 4290193693
0.014710873 -0.0016741804 -0.0024955384 4290128158
0.016616113 -0.0016324907 -0.0026022908 4289997599
0.018339068 -0.00079299184 -0.0033509175 4290455579
0.020241231 -0.0007512169 -0.003457384 4289997344
0.021580517 0.0016835192 -0.0054887356 4290127903
0.023474142 0.0017252499 -0.0055946182 4289932063
0.025367618 0.0017670365 -0.0057004471 4290782489
0.027456582 0.0010114722 -0.0051650172 4289146663
0.029947646 -0.0013387133 -0.0033477366 4289211688
0.032857113 -0.005283053 -0.00024951063 4288622639
-0.037139304 -0.0018847226 -0.0026478143 4288491314
-0.03555619 0.00055868737 -0.0046902709 4289277478
-0.03366366 0.00059747882 -0.0047982596 4289800993
-0.031882569 0.0014378298 -0.0055505303 4290586139
-0.02999296 0.0014767917 -0.0056581805 4290847769
-0.027753111 -0.00088809524 -0.0038336655 4291043864
-0.025616523 -0.0024512759 -0.0026538414 4291044374
-0.023713626 -0.0024116882 -0.0027619868 4290128158
-0.021935806 -0.0015708385 -0.00351365 4289866529
-0.020035874 -0.0015310925 -0.0036214634 4289735459
-0.018136062 -0.0014912528 -0.0037291986 4290258718
-0.016369492 -0.00065034349 -0.0044799298 4290127903
-0.01474433 0.00099146739 -0.0058731916 4290258973
-0.012714524 0.00023060571 -0.0053374227 4290258973
-0.010961965 0.0010715453 -0.0060871183 4290978838
-0.0087829977 -0.00048973411 -0.004909019 4290193949
-0.0067400113 -0.0012499965 -0.0043737567 4289539873
-0.0045422986 -0.0028107134 -0.0031965203 4289605409
-0.0027903318 -0.0019694022 -0.0039458973 4289474849
-0.0011988506 -0.0003275685 -0.005336782 4289670688
0.00038159639 0.0013141027 -0.0067269146 4289539618
0.0024319664 0.00055446103 -0.0061917249 4289670433
0.0044875965 -0.00020496175 -0.0056567527 4289408803
0.006548509 -0.00096418569 -0.0051220153 4290390043
0.0084462166 -0.00092299981 -0.0052285958 4290324764
0.010686144 -0.0024820571 -0.0040531782 4289604899
0.012762852 -0.003240692 -0.0035191439 4289931808
0.01431492 -0.0015990385 -0.0049072392 4289997598
0.016214631 -0.0015574782 -0.0050136885 4290128413
0.018114187 -0.00151585 -0.0051200753 4290782744
0.019643962 0.00012557767 -0.0065068007 4290258974
0.021350205 0.00096702855 -0.0072527677 4288623403
0.023241028 0.001008681 -0.0073585054 4289670435
0.025517553 -0.0005489327 -0.0061847344 4289932063
0.027804747 -0.0021062694 -0.0050114547 4289670689
0.030499354 -0.0052624084 -0.0025598898 4289539618
0.033014409 -0.0076184859 -0.00074879755 4288950569
-0.037178367 -0.0034026061 -0.0037732844 4288294963
-0.035595227 -0.00095268805 -0.0058109057 4288557104
-0.033702843 -0.00091391196 -0.0059188944 4288885034
-0.031810559 -0.00087502971 -0.0060267975 4289277734
-0.029804379 -0.0016395394 -0.0054920316 4290062623
-0.027909573 -0.0016003698 -0.0055999029 4289800993
-0.025895413 -0.0023644986 -0.0050654309 4289735459
-0.024120271 -0.0015216907 -0.00581537 4289997089
-0.022225797 -0.0014821803 -0.0059229648 4289931554
-0.020586673 0.00016398914 -0.0073140701 4289997089
-0.01869788 0.0002035927 -0.0074211843 4290716698
-0.016942274 0.001046434 -0.0081696874 4289931809
-0.015056454 0.0010861838 -0.0082764775 4289212199
-0.013032284 0.00032304786 -0.0077419905 4289473828
-0.01114402 0.0003630612 -0.007848762 4289866783
-0.0091119483 -0.00039976649 -0.0073145432 4290521113
-0.007074587 -0.0011623497 -0.0067805997 4289735969
-0.0050319508 -0.0019246875 -0.0062468564 4289670433
-0.0032881945 -0.0010813931 -0.0069941645 4289998110
-0.0017048791 0.0005646022 -0.0083813649 4289605154
2.4959445e-05 0.0014077984 -0.0091277417 4290979094
0.0020697042 0.00064587034 -0.0085938442 4290979094
0.0044457018 -0.0017209011 -0.0067805732 4290193949
0.006506443 -0.0024823062 -0.0062474441 4289735969
0.0085724592 -0.0032435618 -0.0057145106 4289997598
0.010643743 -0.0040045856 -0.0051818597 4289997343
0.012546428 -0.0039631356 -0.005288606 4289932064
0.014095798 -0.0023171571 -0.0066733649 4289997343
0.01581341 -0.0014735269 -0.0074185347 4290324764
0.017525427 -0.00062996894 -0.0081633525 4290520859
0.019047081 0.0010156222 -0.0095463963 4291240468
0.020745143 0.0018590335 -0.010290316 4290913559
0.02281788 0.0010986114 -0.0097573223 4290913559
0.02508878 -0.0004635239 -0.0085864309 4290716953
0.027565941 -0.0028271577 -0.0067781419 4290716954
0.030059189 -0.0051903166 -0.0049707359 4290194204
0.032568567 -0.0075531052 -0.0031641477 4286660413
-0.038716655 -0.0081829624 -0.0022230328 4286658884
-0.037320469 -0.0041143545 -0.0055401688 4288164404
-0.035528481 -0.0032697152 -0.0062899655 4287903029
-0.03352502 -0.004036705 -0.0057568462 4288623658
-0.031627435 -0.0039977096 -0.0058650477 4288492844
-0.029843893 -0.0031528976 -0.0066141058 4288558124
-0.028182566 -0.001502391 -0.0080035925 4288492589
-0.026412833 -0.00065762829 -0.0087516895 4289211943
-0.024648659 0.00018711109 -0.0094993999 4289408294
-0.022765215 0.00022639707 -0.0096063633 4289735203
-0.02088188 0.00026578922 -0.00971324 4289604644
-0.018868394 -0.0005000988 -0.0091800271 4290716698
-0.017115586 0.00034485292 -0.0099267587 4290781978
-0.015232615 0.00038453657 -0.010033392 4290193949
-0.013488229 0.0012295293 -0.010779484 4290717208
-0.011467084 0.00046421867 -0.010246394 4290848023
-0.0092967674 -0.0011059353 -0.009074267 4290194458
-0.0072623119 -0.0018708105 -0.0085417433 4289998110
-0.005222559 -0.0026354059 -0.0080094673 4290128413
-0.0036336482 -0.00098505616 -0.0093938364 4290259739
-0.0020557493 0.00066511799 -0.010777464 4290193948
-1.6458333e-05 -9.9197961e-05 -0.010244949 4291437074
0.0021883175 -0.0016681044 -0.0090743108 4290913813
0.0044038221 -0.0032366258 -0.0079042353 4291306259
0.0061331168 -0.0023910012 -0.0086487662 4290324763
0.0081935227 -0.0031545297 -0.0081171915 4289932319
0.010259211 -0.0039178492 -0.0075858431 4289735714
0.01215636 -0.0038765417 -0.0076922942 4289997343
0.013700329 -0.0022263969 -0.0090734912 4289997344
0.015233226 -0.00057639182 -0.010454067 4289800993
0.01711899 -0.00053508766 -0.010559698 4289997599
0.018635266 0.0011146823 -0.011939172 4289866784
0.02070263 0.00035184901 -0.011407584 4290848023
0.022775218 -0.00041079987 -0.010876236 4291175444
0.025238715 -0.0027813236 -0.0090720793 4290587159
0.027522802 -0.0043474757 -0.0079051275 4290194714
0.030015796 -0.0067171822 -0.0061025694 4289409059
-0.038655493 -0.010517273 -0.0027145359 4287117374
-0.037050445 -0.0080539929 -0.0047438084 4288033589
-0.035250377 -0.0072070337 -0.0054924651 4287968564
-0.033347402 -0.0071680425 -0.0056010596 4288165679
-0.031444516 -0.0071289334 -0.0057095597 4288688939
-0.029655617 -0.0062817824 -0.0064573404 4288623404
-0.027988873 -0.0046268771 -0.0078438753 4288557869
-0.026333123 -0.0029720399 -0.0092297401 4288361518
-0.024810418 -0.00050964486 -0.011253718 4287969073
-0.022929825 -0.00047044922 -0.011360543 4287576629
-0.021049351 -0.00043112412 -0.011467263 4289146408
-0.019038778 -0.001199245 -0.010935499 4289931554
-0.017288756 -0.00035220571 -0.011680477 4290128158
-0.015408643 -0.000312577 -0.011786945 4290913304
-0.01380543 0.0013419343 -0.013169253 4290782233
-0.011648819 -0.00023302715 -0.011999634 4290717208
-0.0096252859 -0.0010003732 -0.011468232 4290063134
-0.0075964481 -0.0017674863 -0.010937039 4289932319
-0.0058608353 -0.00092012482 -0.011680735 4290390299
-0.0041308179 -7.277634e-05 -0.012424038 4290259484
-0.0024063736 0.00077452604 -0.013166972 4289474338
-0.00037269294 7.9004094e-06 -0.012635766 4289867038
0.0018264204 -0.0015654443 -0.011468092 4289409059
0.0040362477 -0.0031384998 -0.010300903 4290652183
0.005925633 -0.0030976404 -0.010407127 4289997598
0.0078148618 -0.0030566645 -0.010513252 4289801504
0.0097039342 -0.0030156435 -0.010619333 4290128413
0.011592828 -0.0029745302 -0.010725331 4289866784
0.013305105 -0.002126744 -0.011467099 4289932064
0.01447428 0.0011404241 -0.014115395 4289735459
0.016167209 0.001987935 -0.01485597 4289669923
0.01822371 0.0012225732 -0.014325402 4289211943
0.020660125 -0.001155192 -0.012524744 4290062878
0.022732563 -0.0019200207 -0.011995006 4289539618
0.025003068 -0.0034909076 -0.010830591 4289932063
0.027479686 -0.0058676377 -0.009031998 4289736479
0.029774234 -0.0074378364 -0.0078688832 4287641399
-0.038895085 -0.010424682 -0.0051245699 4287901753
-0.037089586 -0.0095755616 -0.0058720121 4287968309
-0.035183944 -0.009536651 -0.0059808595 4287968818
-0.033170003 -0.010307781 -0.0054515763 4287969584
-0.031372923 -0.0094584757 -0.0061982716 4288165678
-0.029695224 -0.007799054 -0.0075823162 4288296748
-0.027911954 -0.0069498098 -0.0083280597 4288165679
-0.026134226 -0.0061005526 -0.0090733925 4288688939
-0.02448405 -0.0044413726 -0.010455626 4288950569
-0.022720151 -0.0035921768 -0.011200005 4288688939
-0.02096181 -0.0027430039 -0.011943999 4288427053
-0.019078854 -0.0027035475 -0.0120508 4287903538
-0.017461795 -0.0010446799 -0.013430797 4287576373
-0.01572014 -0.00019546878 -0.014173631 4288099889
-0.013984054 0.00065365899 -0.014916049 4289277223
-0.011830397 -0.00092573743 -0.013749513 4289604388
-0.0098097697 -0.0016952921 -0.013219541 4290062114
-0.0080768019 -0.00084593659 -0.013961565 4290193184
-0.0062002018 -0.00080590835 -0.014067482 4289866274
-0.0047795326 0.001662015 -0.016080048 4289932063
-0.0029113889 0.001702073 -0.016185332 4290390043
-0.0010433942 0.0017422112 -0.016290545 4289016359
0.001304701 -0.00064485613 -0.014490343 4289016358
0.0035061389 -0.0022224025 -0.013325959 4289866784
0.0053872615 -0.0021817377 -0.01343173 4290390043
0.0072682276 -0.0021409793 -0.013537421 4289866784
0.0091490448 -0.0021001408 -0.013643039 4290193949
0.011029683 -0.0020592101 -0.013748578 4289932319
0.012910172 -0.0020182338 -0.013854071 4289997343
0.014432281 -0.00035982486 -0.015227545 4290716699
0.016125165 0.00048983749 -0.015966516 4291043863
0.017812446 0.0013393806 -0.016705098 4290913049
0.02005589 -0.00023658201 -0.015542501 4289801248
0.022500001 -0.0026206467 -0.013747083 4289997344
0.024960257 -0.0050043296 -0.011952474 4289801248
0.027436614 -0.0073876074 -0.010158729 4290063134
0.029929079 -0.0097704213 -0.008365877 4286791229
-0.038934119 -0.011948222 -0.0062542474 4288490294
-0.036922935 -0.012721822 -0.0057266005 4288426033
-0.035011996 -0.01268281 -0.0058357548 4287903539
-0.033101138 -0.012643667 -0.0059448066 4287969584
-0.031301428 -0.011792158 -0.0066900542 4288165678
-0.029621031 -0.01012839 -0.0080709886 4288165933
-0.027718626 -0.010089099 -0.0081793191 4288558634
-0.026054766 -0.0084253978 -0.0095591825 4288820263
-0.024279945 -0.0075739478 -0.010302674 4289016614
-0.022510678 -0.0067224726 -0.011045747 4288558123
-0.020874359 -0.0050590248 -0.012423807 4288492589
-0.019118931 -0.0042076232 -0.013165934 4288557868
-0.017501876 -0.0025444375 -0.01454272 4288492589
-0.015624743 -0.0025049015 -0.014649042 4288230449
-0.013886005 -0.0016535101 -0.015390043 4286595134
-0.011870861 -0.0024255263 -0.014861431 4286333504
-0.009994112 -0.0023857104 -0.014967516 4286922044
-0.0082639232 -0.001534184 -0.0157078 4289734693
-0.0066884682 0.00012874138 -0.017081773 4289538853
-0.0051240176 0.0017915284 -0.018455055 4290128159
-0.0034160167 0.0026428448 -0.01919389 4290651674
-0.0017135888 0.0034940792 -0.019932309 4290325019
0.00046331435 0.0019115275 -0.018769799 4290913814
0.0028136671 -0.00048190728 -0.016974568 4291044884
0.0048492774 -0.0012526102 -0.016446533 4290913559
0.0067219809 -0.0012120469 -0.01655177 4289997599
0.0084236413 -0.00036038551 -0.017289817 4289997599
0.010293327 -0.00031973701 -0.017394772 4290128413
0.012162842 -0.00027900748 -0.017499655 4289932063
0.014032193 -0.00023820903 -0.017604476 4291240468
0.01571963 0.00061342958 -0.01834151 4291436818
0.017770395 -0.00015639514 -0.017813919 4291175445
0.019826464 -0.00092605921 -0.017286591 4290913559
0.022077672 -0.0025061676 -0.016127637 4289997599
0.024532206 -0.0048964676 -0.014337608 4289800739
0.027002878 -0.0072864094 -0.012548404 4289145643
0.029489674 -0.0096759461 -0.010760066 4286856764
-0.039173353 -0.011842191 -0.0086543187 4287770938
-0.037064988 -0.013432708 -0.0074928477 4288295219
-0.035051364 -0.01420833 -0.0069668801 4288099889
-0.033140656 -0.014169214 -0.0070759407 4287773488
-0.031452022 -0.012501067 -0.0084542148 4288297259
-0.029660661 -0.011647433 -0.0091972798 4287969838
-0.027874842 -0.01079375 -0.0099399816 4288296748
-0.026094556 -0.009940126 -0.010682253 4288493354
-0.024197944 -0.0099007189 -0.010790079 4289212964
-0.022301428 -0.009861229 -0.010897836 4288362283
-0.020405032 -0.0098215993 -0.01100548 4288558634
-0.018768836 -0.0081537757 -0.012380203 4288427563
-0.017010882 -0.0073000295 -0.013120844 4288427563
-0.015258476 -0.0064463294 -0.013861045 4288427563
-0.013373438 -0.0064065466 -0.013967754 4288492589
-0.011629455 -0.0055528167 -0.014707323 4288230704
-0.010034673 -0.0038853581 -0.016079323 4288753709
-0.0085972846 -0.0014042421 -0.018083291 4286595134
-0.0068781748 -0.00055076275 -0.018821249 4286791739
-0.0053164512 0.0011163251 -0.020191211 4288165169
-0.0036112145 0.0019696942 -0.020928247 4289866529
-0.0017543212 0.0020095594 -0.021032861 4290586138
0.00042235851 0.00042260252 -0.019873608 4290455324
0.0026097521 -0.0011639935 -0.018714935 4290651674
0.0044770837 -0.0011236412 -0.018819939 4290193693
0.0063442513 -0.0010832199 -0.018924884 4290128413
0.0078696162 0.00058364961 -0.020292304 4290259228
0.0097310394 0.0006241044 -0.020396808 4290259739
0.011416033 0.0014777537 -0.021132246 4290521114
0.013632409 -0.00010778382 -0.019974807 4289801504
0.015496068 -6.7046843e-05 -0.020079263 4289932063
0.01735957 -2.6253052e-05 -0.020183664 4290455579
0.019410044 -0.00079825008 -0.019657664 4290717208
0.021655612 -0.0023828084 -0.018501682 4290062624
0.024297036 -0.0055925502 -0.01608612 4289865764
0.026764743 -0.0079891039 -0.014301615 4287771958
-0.037206911 -0.014139035 -0.0092557147 4287314489
-0.035301704 -0.014100168 -0.009364563 4287707189
-0.033504803 -0.013244478 -0.0101065 4287904303
-0.031824384 -0.01157211 -0.011481117 4288035373
-0.029700276 -0.01316626 -0.010323412 4288100908
-0.027914543 -0.012310426 -0.011064509 4288100908
-0.026015233 -0.012271087 -0.011172579 4288297259
-0.024237856 -0.011415257 -0.011913001 4289212963
-0.022216935 -0.012192114 -0.011388479 4288427563
-0.020190679 -0.012968786 -0.010864131 4288558634
-0.018419072 -0.012112709 -0.011604025 4288558889
-0.016653027 -0.011256678 -0.012343478 4288558889
-0.01489253 -0.010400658 -0.013082539 4288689703
-0.013137601 -0.0095446613 -0.013821214 4288427563
-0.011388257 -0.0086886166 -0.014559523 4288623658
-0.0099316314 -0.0062007559 -0.016559796 4289473574
-0.008491464 -0.0037131039 -0.018559108 4288884778
-0.0069187209 -0.0020415825 -0.019926496 4288950313
-0.0050534904 -0.0020017368 -0.020031726 4289277479
-0.0033428669 -0.0011460995 -0.020767465 4288361518
-0.0014806539 -0.0011061439 -0.020872395 4286857018
0.00038143247 -0.0010661194 -0.020977266 4287184184
0.0022433698 -0.001025978 -0.021082038 4289474084
0.0039398074 -0.00017027836 -0.021816781 4289932064
0.0057987273 -0.00013005082 -0.021921271 4290258974
0.0071451887 0.0023563299 -0.023914678 4289932319
0.009169139 0.0015812283 -0.023389071 4290128413
0.010845959 0.0024367906 -0.024122419 4290913559
0.013053961 0.00084673893 -0.022967808 4289866783
0.015091024 7.2140247e-05 -0.022442775 4288950824
0.017317735 -0.0015173969 -0.021289054 4289539619
0.019368052 -0.0022915732 -0.020764668 4289605154
0.021423638 -0.0030655763 -0.02024053 4290323998
0.023869537 -0.0054692351 -0.018459732 4289539363
0.026331522 -0.0078724064 -0.016679807 4286725694
-0.033976771 -0.011487624 -0.013758888 4287184439
-0.029853474 -0.013866115 -0.012080728 4287511348
-0.027837884 -0.014645647 -0.011557735 4287903793
-0.025935993 -0.014606271 -0.011665964 4288362028
-0.024155982 -0.013748165 -0.012404959 4288950824
-0.022008039 -0.015345722 -0.011251508 4288492843
-0.020103738 -0.015305975 -0.011359638 4288362539
-0.018199559 -0.015266124 -0.011467679 4288231724
-0.016428143 -0.014407825 -0.012205835 4288493353
-0.014797654 -0.0127312 -0.013573677 4288428074
-0.012901988 -0.012691213 -0.013681003 4288493354
-0.011147253 -0.01183296 -0.014417986 4288820518
-0.0096851513 -0.0093384394 -0.01641378 4289212964
-0.008239463 -0.0068442225 -0.018408535 4288755239
-0.0066613033 -0.0051682307 -0.019773066 4288689704
-0.0049424246 -0.0043103425 -0.020507729 4289343523
-0.0029203296 -0.005088266 -0.019984085 4289343013
-0.0012071878 -0.0042303321 -0.020718299 4289015848
0.0006602332 -0.0041902172 -0.020823486 4288622893
0.0023649335 -0.0033322894 -0.021557095 4287838258
0.0040640682 -0.0024744086 -0.022290336 4288034608
0.0055896044 -0.00079891225 -0.023651432 4288819754
0.0069334134 0.0016939361 -0.025639914 4289604644
0.0087810755 0.0017340425 -0.025743678 4290062368
0.01080472 0.00095674768 -0.025219606 4290193694
0.012654789 0.00099706743 -0.025323387 4290913304
0.014686272 0.00022012554 -0.024799693 4291044119
0.016723029 -0.00055660773 -0.024276223 4291044119
0.018952079 -0.0021504057 -0.023125842 4290978840
0.021191828 -0.0037438436 -0.021976041 4289408039
0.02382718 -0.0069711655 -0.019573104 4288884014
-0.027993869 -0.015343201 -0.013313138 4286399549
-0.026213828 -0.014483087 -0.014050568 4287904049
-0.024317615 -0.014443759 -0.014158422 4288099888
-0.022421505 -0.014404302 -0.014266174 4287903793
-0.020271197 -0.016006058 -0.013116016 4288165423
-0.018240001 -0.016786855 -0.012595167 4288230959
-0.016468652 -0.015926395 -0.01333171 4288427308
-0.014702864 -0.015065931 -0.014067925 4288362029
-0.012804609 -0.015025895 -0.0141754 4288493353
-0.011187971 -0.013345074 -0.015539048 4289213219
-0.0094388574 -0.012484702 -0.016274052 4288558888
-0.0076953322 -0.011624284 -0.01700869 4288624424
-0.0059573501 -0.01076396 -0.017742923 4289213218
-0.0042249486 -0.0099036461 -0.01847676 4289147939
-0.0024981275 -0.0090433452 -0.019210204 4288820009
-0.00093394518 -0.0073630405 -0.020570517 4288819754
0.00077901781 -0.0065028723 -0.021303058 4288819754
0.002323918 -0.0048228903 -0.022662144 4288361773
0.0040230006 -0.0039628576 -0.02339378 4289081639
0.005548574 -0.0022830553 -0.024751678 4289277989
0.0070631206 -0.00060345046 -0.02610885 4289146919
0.0089133903 -0.00056331791 -0.026212785 4288688684
0.010763519 -0.00052312762 -0.026316669 4289212199
0.012613498 -0.00048283301 -0.026420463 4289473828
0.014281794 0.0003770031 -0.027150095 4290389788
0.016312994 -0.0004021097 -0.026627917 4290586139
0.018536411 -0.0020003701 -0.02548052 4290127648
0.021149859 -0.0052369395 -0.023082875 4289472809
0.023592494 -0.0076537468 -0.021311615 4287902774
-0.022710241 -0.014272595 -0.01664358 4286791483
-0.02043853 -0.016701579 -0.014869089 4288230703
-0.018540051 -0.016661897 -0.014976846 4288165424
-0.01664168 -0.016622098 -0.015084506 4288230959
-0.015149169 -0.01411429 -0.017072545 4288296238
-0.013121229 -0.014897043 -0.016552914 4289343524
-0.011510037 -0.013211961 -0.017913075 4289344034
-0.0094796047 -0.013994534 -0.017393414 4288493609
-0.0075899959 -0.01395441 -0.017500201 4288886309
-0.0055516586 -0.01473658 -0.016980886 4289278753
-0.0038111508 -0.013873935 -0.017713577 4288754984
-0.0020762309 -0.013011299 -0.018445946 4288754984
-0.0006608814 -0.010504363 -0.020429054 4288362029
0.00089775026 -0.0088197878 -0.021785792 4288427308
0.0024453625 -0.0071354117 -0.023141809 4288492844
0.0044774413 -0.0079171751 -0.02262174 4288820009
0.0060111806 -0.0062329206 -0.023976842 4289278244
0.0075339079 -0.0045487946 -0.02533132 4288755239
0.0092189386 -0.003686687 -0.026060399 4288820519
0.010898374 -0.0028246273 -0.026789108 4289212454
0.012572244 -0.001962638 -0.027517468 4288950824
0.014421985 -0.0019223359 -0.027621239 4288492588
0.016271576 -0.0018819766 -0.027724959 4289081128
0.0184948 -0.0034845956 -0.026580788 4289146153
0.020918317 -0.0059084436 -0.024813378 4289014574
0.023742639 -0.0099746883 -0.021799613 4286987324
-0.017211989 -0.014838651 -0.018710017 4286922299
-0.015459925 -0.013974192 -0.019442197 4287706934
-0.013299674 -0.015584059 -0.018298786 4288950313
-0.011550568 -0.01471943 -0.019030698 4288296494
-0.0096636787 -0.014679503 -0.019137435 4288820008
-0.007484749 -0.016288666 -0.017994849 4289540129
-0.0054438785 -0.017072964 -0.0174773 4289016869
-0.0035492033 -0.01703259 -0.017584266 4288493353
-0.0019631088 -0.015343346 -0.018939449 4288362539
-0.00038803369 -0.013654161 -0.020293947 4288427564
0.0010163933 -0.011140916 -0.022271577 4288558123
0.0025667325 -0.0094521213 -0.02362458 4288820009
0.004436262 -0.0094118454 -0.023729801 4289540129
0.0061378479 -0.0085473992 -0.024458338 4288558634
0.0078338683 -0.0076830001 -0.025186509 4288689703
0.0096975416 -0.0076426459 -0.025291249 4288558889
0.011209138 -0.0059542833 -0.026641773 4288754729
0.013067074 -0.0059139086 -0.026746083 4288623914
0.0145621 -0.0042258152 -0.028095532 4288623914
0.016414315 -0.0041854414 -0.028199431 4288820009
0.018640056 -0.0057924138 -0.027058678 4288753709
0.020876497 -0.0073991087 -0.025918417 4287968053
0.023508169 -0.010652672 -0.023534719 4286529344
-0.016175814 -0.011344349 -0.02367612 4287054388
-0.012012795 -0.013746146 -0.022018081 4287184439
-0.0099908859 -0.014533212 -0.021501217 4289473828
-0.0079636499 -0.015320079 -0.020984594 4289146919
-0.0059311017 -0.016106749 -0.020468205 4288296238
-0.0040446892 -0.016066581 -0.020574728 4288231469
-0.0021584108 -0.016026344 -0.020681188 4288296749
-0.00042915344 -0.015159477 -0.021409929 4288100399
0.0011349469 -0.013466196 -0.022760514 4288820008
0.0028503463 -0.012599463 -0.02348835 4289016613
0.0047252253 -0.012559131 -0.023593921 4288951078
0.0062644407 -0.010866089 -0.024942961 4288754728
0.0079631433 -0.0099994987 -0.025669694 4288623913
0.0096562505 -0.0091329413 -0.026396051 4288689703
0.011343792 -0.0082664434 -0.027122047 4288296748
0.013204366 -0.0082260417 -0.027226526 4288689449
0.015064821 -0.0081855692 -0.027330948 4288689449
0.016741037 -0.0073190625 -0.028056195 4288296493
0.018598482 -0.0072785402 -0.02816036 4288426798
0.020834722 -0.0088896407 -0.027023358 4286660414
-0.0065665916 -0.014298573 -0.024070548 4286791739
-0.004388392 -0.015916266 -0.022934327 4287445814
-0.002353549 -0.016704913 -0.022419576 4287903283
-0.00047022104 -0.016664673 -0.022525821 4288230959
0.0010938793 -0.01496706 -0.023873189 4288689449
0.0029715151 -0.014926786 -0.023978997 4288689194
0.0045190454 -0.013229325 -0.025325354 4288558123
0.006390959 -0.013189016 -0.025430724 4288558889
0.0079219267 -0.011491837 -0.026776023 4288624169
0.0097881407 -0.011451471 -0.026880935 4288428074
0.011478372 -0.01058278 -0.027605496 4288493354
0.013341591 -0.010542364 -0.027710158 4288558634
0.015023395 -0.0096737267 -0.02843415 4288362283
0.016699605 -0.0088051027 -0.029157823 4288492844
0.018743671 -0.0095926877 -0.028642874 4288230448
0.020793021 -0.010380088 -0.028128244 4285875268
-0.002702564 -0.016548084 -0.024773948 4286792248
-0.00082479417 -0.016507985 -0.024879899 4286987834
0.0010528639 -0.016467806 -0.024985779 4288230703
0.0027682036 -0.015596827 -0.025710456 4288296238
0.004642874 -0.015556537 -0.025816038 4288296238
0.0063497722 -0.014685517 -0.026540149 4288492843
0.0078807771 -0.012984032 -0.027882244 4288493353
0.0097468942 -0.012943702 -0.027987178 4288428074
0.011437111 -0.012072895 -0.028710168 4288493353
0.013300233 -0.012032516 -0.028814849 4288297258
0.014982015 -0.011161739 -0.029537249 4288689703
0.016658209 -0.010290986 -0.030259337 4288427308
0.018702142 -0.011080798 -0.029746033 4288099633
0.0041071922 -0.014556434 -0.028778248 4287118649
0.0059734955 -0.014516318 -0.028883357 4287380278
0.0076693818 -0.013643367 -0.029605158 4287838513
0.0095326975 -0.013603151 -0.029709976 4288427819
0.011395887 -0.013562903 -0.029814759 4288231214
0.013258934 -0.01352256 -0.029919464 4288558634
0.014940694 -0.012649667 -0.030640289 4288493609
0.016616881 -0.011776784 -0.031360794 4287838514
0.01847408 -0.011736374 -0.031465024 4287903794
0.008972764 -0.012588407 -0.032659549 4288100399
0.010827728 -0.012548364 -0.032763891 4288493098
0.013039321 -0.014177795 -0.031638734 4288231214
0.014718331 -0.013302766 -0.032357849 4288362028
0.016207986 -0.011593258 -0.033690993 4288099889
0.016166903 -0.013074531 -0.034789104 4288491314
-0.010057688 0.0042473963 0.048628725 4282208623
-0.0080487877 0.0042895777 0.048514843 4281945719
-0.014634348 0.0055668885 0.044947982 4280242573
-0.013294496 0.0093741026 0.041440621 4279323809
-0.0067823976 0.0064874515 0.043816511 4279977883
-0.0039322078 0.0020124046 0.047772624 4281224579
-0.016548768 0.0031697992 0.044552647 4281094784
-0.015450004 0.0084988102 0.039697729 4278866084
-0.0052581355 0.0071969461 0.040489361 4278734504
-0.0026909038 0.0042190533 0.043082625 4278603944
-0.00039800256 0.0027516186 0.044322245 4279652759
0.0017549172 0.0020393366 0.0448853 4280371860
0.0037596747 0.002082088 0.044772144 4282668134
-0.017473754 0.0068708323 0.038633909 4280110994
-0.014431328 0.01225582 0.033680007 4278864809
-0.012468997 0.012296965 0.033568721 4279521179
-0.010506831 0.012338219 0.033457525 4278996134
-0.0084051117 0.011622312 0.034021515 4278799019
-0.0062981173 0.010906564 0.034585312 4278734504
-0.0038955063 0.0086767711 0.036498405 4278735014
-0.0016246438 0.0072044842 0.037736088 4278735013
0.0005062893 0.0064896066 0.03829873 4278866085
0.0021824166 0.0080459397 0.03683817 4280503183
0.0043156892 0.0073312707 0.037400872 4278993329
0.0066129863 0.0058600102 0.038637329 4280240278
0.009243995 0.0028753858 0.041220985 4282733414
-0.018145863 0.0090831947 0.034086488 4278800803
-0.016692981 0.01216306 0.031278379 4278471853
-0.012913555 0.013004662 0.030382574 4278401729
-0.006482929 0.010090625 0.032743998 4278930343
-0.0043735802 0.0093728807 0.03330614 4278668968
-0.0022589788 0.0086553898 0.033868019 4278603688
-0.00013913959 0.0079381187 0.034429681 4278341549
0.0033362582 0.010299819 0.032189608 4278269638
0.010374635 0.005113855 0.036562644 4280372368
0.012857005 0.0028800406 0.038466979 4281487739
0.015355512 0.00064661913 0.040370516 4282733159
-0.019539144 0.0036571193 0.036394365 4279128479
-0.018439449 0.0090319198 0.03157334 4278669478
-0.016863219 0.011358527 0.029444486 4278669479
-0.015172046 0.012923043 0.027989 4278536623
-0.011001565 0.011481529 0.029112142 4278336703
-0.0089084059 0.010761078 0.029673446 4278733228
-0.0068099648 0.010040876 0.030234478 4278537643
-0.0044161305 0.0077977907 0.0321384 4278603434
-0.0025973022 0.008601116 0.031355876 4278603434
0.0010234714 0.010207621 0.029792096 4279388323
0.0031372979 0.0094882753 0.030352648 4279715999
0.0050976947 0.0095303524 0.030242197 4278994094
0.0072192848 0.0088113584 0.030802455 4279190954
0.0093461275 0.0080925245 0.031362526 4278799528
0.011478186 0.0073739458 0.031922333 4278865318
0.013954602 0.005133572 0.033822224 4279062433
0.015930258 0.0051764576 0.033711269 4279587479
0.017905705 0.0052194344 0.033600397 4282405994
-0.020196933 0.0058921576 0.031862769 4278866083
-0.018732816 0.0089895949 0.029066913 4278668203
-0.016904689 0.0097945482 0.028284922 4279321769
-0.015213545 0.011363443 0.026832692 4278865319
-0.013131142 0.010640416 0.027392784 4278734758
-0.011180274 0.010681463 0.027282255 4278603688
-0.0089504793 0.009194972 0.028512344 4278668968
-0.0067099556 0.007708827 0.029741846 4278537899
-0.0046037138 0.0069867419 0.030300912 4278538153
-0.002787672 0.0077921394 0.02952021 4278668968
0.00098069757 0.0086393952 0.028629471 4278401729
0.0027825609 0.0094448105 0.027849806 4279123633
0.0047373846 0.0094868056 0.027739696 4278273464
0.008646436 0.0095710494 0.027519707 4278733738
0.01076743 0.0088500716 0.028078526 4278734504
0.01306317 0.0073661115 0.029305663 4278734760
0.014852889 0.0081718452 0.028527107 4278734504
0.018415332 0.0097832121 0.026971158 4278269893
-0.022206254 0.0042766742 0.030807193 4281814904
-0.02085416 0.0081493594 0.027347535 4278406828
-0.013440929 0.010611163 0.024897253 4278930343
-0.01149565 0.010652127 0.024787067 4278603689
-0.0094110444 0.0099271946 0.025345583 4278668968
-0.0071789399 0.0084365271 0.026572328 4278734503
-0.005081065 0.0077120513 0.027130298 4278603690
-0.0031255931 0.0077536535 0.027019849 4278603434
-0.0014710873 0.0093269497 0.025573464 4278734249
0.0043772906 0.0094523057 0.025243828 4278467263
0.0063263625 0.0094942749 0.025134115 4279255214
0.0079472214 0.011067284 0.023690021 4278603434
0.010057159 0.010343906 0.024247859 4278603434
0.012172319 0.0096207429 0.024805481 4278341294
0.014292724 0.0088977665 0.025362862 4278274994
0.016068563 0.0097054821 0.024586787 4278796979
0.018016361 0.0097479653 0.024477547 4279452074
0.020144254 0.0090254284 0.025034716 4278402748
0.02478721 0.0060508819 0.027480405 4279651994
0.027124673 0.0045640534 0.02870246 4280044949
0.029855169 0.0015477845 0.031255398 4281684089
-0.022969794 0.0073138941 0.025631368 4279061923
-0.021387715 0.0096600056 0.023516659 4278405808
-0.019444682 0.0097004957 0.023406282 4278275504
-0.017501809 0.0097410865 0.023295993 4278734249
-0.013750501 0.010590944 0.022408348 4279323044
-0.011674091 0.0098635107 0.022965671 4278537899
-0.0097318366 0.0099045485 0.022855759 4278537899
-0.0073632747 0.0076412912 0.024746438 4278668968
-0.005558081 0.008450754 0.023969539 4278472619
-0.0034633055 0.0077241976 0.024526114 4278669223
-0.0018142462 0.0093016978 0.02308332 4278734759
0.00012983382 0.0093432851 0.022973681 4279259039
0.002073735 0.0093849618 0.022864124 4278472874
0.0041759387 0.0086589567 0.02342057 4278473129
0.0059609339 0.0094686076 0.02264527 4278342314
0.0077402964 0.010278221 0.02187035 4278407594
0.0096806735 0.010320213 0.021761283 4278341804
0.011959612 0.0088272132 0.022982908 4278603179
0.015675358 0.0096792933 0.022099564 4278928559
0.017262511 0.011256441 0.020660909 4280306324
0.019559629 0.0097641367 0.021881813 4279454624
0.021684431 0.0090394504 0.022437606 4278995368
0.023814417 0.0083149597 0.022993168 4279061158
0.025949635 0.0075906515 0.023548488 4278537899
0.028090052 0.0068665026 0.024103625 4278668969
0.030623406 0.0046085725 0.025986353 4278996389
0.032386504 0.0054188557 0.025213106 4279454879
0.033944637 0.0069959601 0.023776591 4279321258
0.036299728 0.0055055935 0.024994668 4278927539
0.039279625 0.0017152084 0.028202239 4282010743
-0.024844568 0.0049416702 0.025251644 4281028994
-0.023492038 0.0088360254 0.021808134 4278734249
-0.019737329 0.0096874181 0.020921459 4279978904
-0.017928518 0.010498507 0.020145508 4279652249
-0.015862901 0.0097684972 0.020701623 4279519903
-0.014059834 0.010579677 0.019926155 4278273718
-0.012125723 0.010620426 0.019816617 4278537388
-0.010052398 0.0098909233 0.020372549 4278537899
-0.0079738051 0.0091616549 0.020928277 4278472364
-0.0058899149 0.0084325261 0.021483796 4278537899
0.0018753856 0.0085984878 0.021045761 4278538409
0.0038162395 0.0086401924 0.020936444 4278604199
0.0059180558 0.0079121329 0.021491392 4278735014
0.0075334832 0.0094938204 0.020054067 4278800293
0.0093044192 0.010305533 0.019281317 4278800293
0.011239037 0.01034751 0.019172654 4278406829
0.016864121 0.011243464 0.018183885 4278270148
0.023213521 0.0090623125 0.019847868 4278799783
0.025152065 0.0091049634 0.019739423 4278538154
0.027090363 0.0091476813 0.019631045 4278603179
0.02922225 0.0084212907 0.020185059 4278471854
0.032704651 0.010045392 0.018644286 4278401728
0.034841307 0.0093192682 0.019198228 4278401473
0.037597105 0.0062865587 0.021737045 4278403514
0.040374428 0.0032543605 0.024274757 4280962183
0.043383338 -0.0005461378 0.027472714 4282076533
-0.025355589 0.0064707762 0.021432858 4279914643
-0.02377332 0.0088299159 0.019327743 4278406828
-0.017969623 0.0089509077 0.018998098 4278400708
-0.016035344 0.0089914557 0.018888397 4278269129
-0.014101215 0.0090320986 0.018778777 4279255213
-0.012303829 0.0098454524 0.018005338 4278734759
-0.010233417 0.0091137178 0.018559823 4278735015
-0.0082997754 0.0091546867 0.018450478 4278406574
-0.0026500747 0.010050515 0.017459834 4278530759
0.0016771406 0.0078166593 0.019230766 4278798763
0.0036151484 0.0078583434 0.019121641 4278734758
0.0055529773 0.0079001077 0.019012591 4278669223
0.0073267817 0.0087139793 0.018241236 4278603689
0.0090949386 0.0095278397 0.017470283 4278668968
0.010857455 0.010341652 0.016699703 4278735015
0.012614325 0.011155497 0.015929483 4278799783
0.014190838 0.012741033 0.014497903 4278275504
0.020682476 0.0097806193 0.016820448 4278471853
0.022612967 0.0098230205 0.016712399 4278406829
0.024543248 0.0098655131 0.016604433 4278537899
0.026473321 0.0099080615 0.016496524 4278668458
0.030529216 0.0092220791 0.016941477 4279060904
0.032262132 0.01003615 0.016173227 4278865573
0.03929282 0.0055383928 0.01981022 4278930598
0.04207772 0.0024977038 0.022341074 4278996389
-0.025396291 0.0049168924 0.020280747 4282663033
-0.023814 0.0072825886 0.018180506 4280109719
-0.022002347 0.0080978535 0.017407456 4279913113
-0.019945003 0.0073631182 0.017960653 4279454113
-0.014410216 0.0090344846 0.016306635 4278865063
-0.012618363 0.0098499227 0.015535145 4278472619
-0.010553591 0.0091159046 0.016088337 4278472874
-0.0086255297 0.0091567636 0.015979318 4278471343
-0.0068423375 0.0099723339 0.015208553 4278995113
-0.004917331 0.010013338 0.01509986 4279455389
-0.0029924959 0.010054436 0.014991253 4278865319
0.001012221 0.0093625803 0.015435536 4278799529
0.0027809069 0.010178341 0.014665957 4278734504
0.0051881224 0.0078970119 0.016540481 4278734504
0.0067926645 0.0094871968 0.015110261 4278734760
0.0088855699 0.0087547433 0.015662661 4278538154
0.0101377 0.011892969 0.012912448 4278734248
0.013798572 0.012750454 0.012037088 4278602923
0.016068026 0.011244487 0.01324976 4278669223
0.018168069 0.01051265 0.013802028 4278538154
0.020638943 0.0082334392 0.015673524 4278735015
0.022383831 0.0090495665 0.01490594 4278603434
0.024311297 0.009092005 0.014798139 4278734504
0.026047587 0.009908149 0.014031111 4278603179
0.031620719 0.010809314 0.01304997 4278732718
0.0339453 0.0093051922 0.014260105 4278732718
0.036075942 0.0085747335 0.014811181 4278405043
0.038419075 0.0070712063 0.016020341 4278799019
0.041612752 0.0024751723 0.01986176 4278537133
0.044626094 -0.0013469276 0.023043338 4281095549
-0.019860387 0.0050388984 0.017474955 4281877889
-0.018051822 0.0058565252 0.016703879 4280307089
-0.016510919 0.0082283374 0.01461118 4279258528
-0.014718991 0.0090458356 0.013841215 4279062178
-0.012796175 0.0090863779 0.013732339 4278603688
-0.010873526 0.0091270283 0.013623553 4278603688
-0.0089510381 0.0091677681 0.013514849 4278471343
-0.0033346713 0.010067299 0.012529367 4279388069
-0.0012627691 0.0093317889 0.013080939 4278339508
0.0025802925 0.0094143711 0.012864486 4278996133
0.0046625137 0.0086793806 0.013415697 4278865318
0.0064226091 0.0094973221 0.01264836 4278603434
0.0083434731 0.0095389523 0.012540434 4278340784
0.011840895 0.011174824 0.0110074 4278399178
0.016024955 0.0097062513 0.012109451 4278668969
0.018124826 0.0089722481 0.012660119 4278472364
0.02004718 0.0090144202 0.012552488 4278406829
0.021969326 0.0090566743 0.012444935 4278406573
0.023703091 0.0098748393 0.011679667 4278800039
0.0256221 0.0099171512 0.011572383 4278472619
0.035418265 0.0093543082 0.011693867 4278732718
0.038167447 0.0062953737 0.01421374 4279061923
0.041357934 0.0016862517 0.018045584 4278668968
0.04458081 -0.0029221163 0.02187572 4282537064
-0.012701042 0.0067691766 0.013251099 4280503184
-0.011054091 0.008368047 0.011824342 4279783064
-0.00899259 0.0076297186 0.01237457 4279323553
0.00046119839 0.0086137205 0.011174445 4278865318
0.0022215918 0.0094336756 0.010408585 4278538409
0.0042982027 0.0086963885 0.010958496 4278668969
0.0062164292 0.0087378733 0.010850652 4278537899
0.0083008185 0.0080009289 0.011400254 4278864299
0.015627384 0.0097247623 0.0096557708 4278470833
0.017541699 0.0097666755 0.0095485272 4278471854
0.019455813 0.009808667 0.009441359 4278668969
0.021555111 0.0090726521 0.0099905739 4278406573
0.023283392 0.0098928772 0.0092272358 4278472364
0.025006011 0.010713086 0.008464219 4278603944
0.026723005 0.011533212 0.0077016242 4278734758
0.028434344 0.012353269 0.0069393832 4278406829
0.034965366 0.0093694851 0.0092417067 4278734504
0.037501656 0.0070793498 0.011100283 4278931364
0.041103251 0.0009018667 0.016232844 4280112014
-0.0091759488 0.0068731392 0.01057734 4280569228
-0.0076901987 0.0092573967 0.0084978798 4280700044
-0.0056319535 0.0085170548 0.0090468461 4280568463
-0.0038683563 0.0093389601 0.0082822042 4279781533
-0.0019576773 0.0093798805 0.0081744883 4279061924
0.00010821968 0.0086399987 0.0087232413 4278865573
0.0020212606 0.0086811576 0.0086155301 4278341804
0.0039341152 0.008722432 0.0085079186 4278406829
0.0091644898 0.011188606 0.0062186979 4279521178
0.011240162 0.010449473 0.0067673028 4279521434
0.013321087 0.0097105596 0.0073156925 4278930344
0.015230052 0.0097522829 0.0072086966 4278667694
0.017138831 0.0097940788 0.0071017658 4278799784
0.018864788 0.010616269 0.0063400548 4278799528
0.020955764 0.0098779052 0.0068881279 4278668714
0.022487819 0.011480324 0.0054723145 4278538154
0.028390907 0.010826427 0.0058075711 4278603434
0.030693315 0.0093087573 0.0070091626 4278800294
0.032804787 0.0085712299 0.0075564496 4278603688
0.035125792 0.007054098 0.0087570949 4278603944
0.037871607 0.003977661 0.011264201 4278734758
0.041268267 -0.0014373651 0.015730176 4278407593
0.044915259 -0.0076311901 0.020847311 4281815668
-0.0018468723 0.0070679095 0.0076960009 4281682558
6.622076e-05 0.0071089976 0.0075882319 4280307088
0.001979135 0.0071501657 0.0074805375 4278930854
0.0037310794 0.0079743844 0.0067184567 4278996389
0.0051503479 0.010364415 0.0046481639 4278930088
0.0087841675 0.011229767 0.0037805324 4278270403
0.012929551 0.0097470898 0.0048749717 4278269128
0.016556375 0.01061292 0.0040082727 4278733994
0.018456705 0.010654612 0.0039018772 4278472364
0.020356797 0.010696394 0.0037955653 4278537644
0.02225671 0.010738233 0.0036893089 4278799273
0.02605591 0.010822127 0.0034770018 4278268109
0.028151326 0.010081995 0.0040234383 4278530504
0.030450828 0.008559892 0.0052219462 4279319729
0.032559417 0.0078201704 0.0057677338 4278603433
0.035081804 0.0055165645 0.0076173749 4278472874
0.038034298 0.0016494701 0.010769909 4278932129
0.041433185 -0.0037808097 0.015224458 4282209643
0.0038496405 0.0056606708 0.006238115 4280765068
0.0049447641 0.0096275024 0.0028670889 4280175763
0.0066772401 0.010453667 0.0021078631 4279978139
0.0085729882 0.010494839 0.0020014129 4278600118
0.012538262 0.009792598 0.00244083 4278271168
0.014613196 0.0090492535 0.0029864304 4278864298
0.016693398 0.008306127 0.0035317407 4278669224
0.018231347 0.0099172816 0.0021219228 4278603434
0.020128638 0.0099589862 0.0020157567 4278406828
0.023731977 0.010827105 0.0011524574 4279519393
0.025432572 0.011653397 0.00039563188 4279388068
0.029810846 0.0093842205 0.0021366894 4278732973
0.032314181 0.0070736334 0.0039824452 4278472108
0.035037816 0.0039792452 0.0064778132 4278734759
0.038610779 -0.0022511906 0.011573087 4279521688
0.04138831 -0.0053442698 0.014065531 4282537063
0.010769352 0.0074444264 0.0020714051 4281683579
0.012495764 0.0082729626 0.001314305 4279389344
0.014393561 0.0083144493 0.0012079414 4278996133
0.016291156 0.008356005 0.0011016412 4278733994
0.018006124 0.0091844779 0.00034539565 4278406829
0.019900605 0.0092261173 0.0002393832 4278340783
0.023307793 0.010882961 -0.0012715382 4278532289
0.025196239 0.010924699 -0.0013770402 4280109463
0.027084492 0.010966493 -0.0014824864 4279650464
0.029568732 0.0086489022 0.00035944209 4278732718
0.031666175 0.0079045184 0.00090264366 4278602923
0.034993865 0.0024421178 0.0053383922 4279193503
0.038359359 -0.0030194242 0.0097721182 4280439943
0.014350981 0.0067950152 8.1573147e-05 4280437138
0.016428128 0.0060474295 0.00062386249 4279716763
0.017963409 0.0076672062 -0.00077935494 4279062178
0.019857794 0.0077088568 -0.00088535342 4278668458
0.021376371 0.0093283597 -0.0022874917 4279191719
0.026845485 0.010242324 -0.0032516723 4278531269
0.031622723 0.0063828528 -0.00022531929 4278865064
0.034745783 0.0016937554 0.0035519528 4279455899
0.038314879 -0.0045715729 0.0086215688 4281292664
0.02152136 0.0070245788 -0.0027623605 4281222793
0.023222074 0.0078573227 -0.0035143998 4280436629
0.025110349 0.0078990459 -0.0036199009 4279125164
0.02699843 0.0079408009 -0.0037253643 4278666928
0.029084906 0.0071918163 -0.0031848634 4278733738
0.031579286 0.0048614051 -0.0013531231 4279127204
0.03490594 -0.00063149165 0.0030600305 4279980433
0.038063653 -0.0053328173 0.006825706 4282405994
0.025067419 0.0063865073 -0.0047411188 4281680774
0.027151257 0.0056351973 -0.0042021545 4279716764
