# .PCD v0.7 - Point Cloud Data file format
VERSION 0.7
FIELDS x y z rgba
SIZE 4 4 4 4
TYPE F F F U
COUNT 1 1 1 1
WIDTH 955
HEIGHT 1
VIEWPOINT 0 0 0 1 0 0 0
POINTS 955
DATA ascii
0.015474871 -0.002443538 0.037676387 4290389789
0.017962955 -0.0046824859 0.039567024 4289866019
0.020133115 -0.0053984327 0.040117554 4289341739
0.022647977 -0.0076365294 0.042006712 4287641144
-0.016281273 -0.006277903 0.039742578 4288294963
-0.01500196 -0.0016475702 0.035597723 4289408804
-0.013385322 0.00068894494 0.033466637 4289015849
-0.011406846 0.00073213037 0.033347886 4289735714
-0.0092996769 1.1087395e-05 0.033899497 4289670178
-0.00718721 -0.00070967246 0.034450848 4290586139
-0.0052037388 -0.00066603813 0.034332041 4289932063
-0.0029464066 -0.0021505142 0.035552841 4289670433
-0.001097545 -0.0013425024 0.034764301 4289997343
0.0010306016 -0.0020624558 0.035315055 4289932064
0.0030188486 -0.0020182831 0.035196289 4289931808
0.0050069094 -0.0019739931 0.035077624 4289997344
0.0069947913 -0.0019296007 0.034959052 4289931808
0.0086757764 -0.00035761204 0.033503015 4290847513
0.010657839 -0.00031314697 0.033384942 4290455068
0.012639679 -0.0002685776 0.033266962 4289146663
0.014782846 -0.00098747294 0.033817355 4289604643
0.017095491 -0.0024696654 0.035035629 4290258974
0.019418806 -0.0039515467 0.036253396 4290258719
0.021752805 -0.0054330444 0.037470557 4289932064
0.023925066 -0.0061509414 0.038019549 4289080363
0.02610255 -0.0068685925 0.038568255 4287313978
-0.018904187 -0.0040898812 0.035326686 4287574589
-0.017032422 -0.0032801037 0.034537718 4288622128
-0.015407454 -0.00093696266 0.032410923 4289670178
-0.013552301 -0.00012730528 0.031623129 4290520603
-0.011576694 -8.4166415e-05 0.03150456 4289539363
-0.0096012354 -4.0921383e-05 0.031386081 4289277734
-0.0076259151 2.4167821e-06 0.031267677 4290128413
-0.0056507625 4.5894645e-05 0.031149395 4290390043
-0.0034018606 -0.0014431495 0.032367509 4290063134
-0.0014215782 -0.0013993513 0.032249067 4289866528
0.00070094317 -0.0021216087 0.03279854 4289866528
0.0025384724 -0.0013114344 0.032012474 4289473828
0.0046660826 -0.0020333473 0.032561809 4289343013
0.0064978153 -0.001223091 0.031776249 4289931808
0.0083239153 -0.00041279383 0.030991077 4290390043
0.010144383 0.00039744098 0.03020636 4290978838
0.012276672 -0.00032398291 0.030755702 4290913048
0.014414206 -0.0010452028 0.03130487 4290913049
0.016556993 -0.0017661732 0.03185375 4290651163
0.01870501 -0.0024869312 0.032402392 4289866274
0.020858251 -0.0032074754 0.032950789 4290193184
0.022672042 -0.0023968033 0.032166909 4289800484
0.024655245 -0.0023516081 0.032049287 4289210668
0.026993774 -0.0038370681 0.033263158 4290649378
0.029703982 -0.0068528755 0.035807569 4289144879
-0.017900679 0.00051302463 0.028684817 4288229174
-0.015812587 -0.00021304935 0.02923407 4289080873
-0.013719164 -0.00093892962 0.029783059 4290258463
-0.011872414 -0.00012713671 0.028997499 4290128414
-0.0097738281 -0.00085264817 0.029546369 4290717208
-0.0078013875 -0.00080933422 0.029428173 4290979094
-0.005963251 2.5946647e-06 0.028643366 4289735713
-0.0037200674 -0.0014908677 0.029858552 4289801504
-0.0017453656 -0.0014471738 0.029740464 4289539363
0.00037148595 -0.0021717176 0.030288663 4289408549
0.0022035241 -0.0013594804 0.029504552 4290324254
0.0041777045 -0.0013154605 0.029386748 4290127903
0.0063022003 -0.0020395182 0.029934727 4289604644
0.0081255138 -0.0012271339 0.029151391 4289800738
0.01009915 -0.0011828141 0.029033851 4289604898
0.012072586 -0.0011384031 0.028916392 4289931553
0.01404582 -0.0010939138 0.028799009 4289866274
0.016347095 -0.0025850758 0.030011546 4290127904
0.018325359 -0.002540268 0.029894013 4289997089
0.020303428 -0.0024953578 0.029776577 4290062368
0.02193673 -0.00091496203 0.02833036 4289866274
0.023733944 -0.00010240451 0.027549148 4290716953
0.026058629 -0.0015925076 0.028760616 4290520349
0.028574429 -0.0038498365 0.030635465 4290323489
0.031289466 -0.0068741315 0.033173192 4291172638
0.033840172 -0.0091304639 0.035046119 4287313724
-0.012167916 -0.00016103964 0.026497096 4289146408
-0.0099463165 -0.00165971 0.027710125 4289997343
-0.0079767369 -0.0016164538 0.0275921 4289932063
-0.006141413 -0.00080238283 0.026809108 4289997089
-0.0040380284 -0.0015296284 0.027356323 4289801249
-0.0023480207 5.5179931e-05 0.025909066 4289670434
-0.00038451701 9.8745339e-05 0.025791734 4290585884
0.0015788078 0.00014242623 0.025674507 4290913048
0.0035419613 0.00018618535 0.025557347 4290847769
0.005504936 0.000230073 0.025440298 4290913049
0.0076209158 -0.00049628131 0.025987286 4289473829
0.0097421333 -0.0012223646 0.026534006 4289539363
0.011868611 -0.0019482207 0.027080495 4289343269
0.013838999 -0.0019037873 0.026963286 4288819754
0.015809193 -0.0018592142 0.026846193 4288688939
0.017779186 -0.001814587 0.026729159 4289604643
0.019918472 -0.0025397642 0.027275175 4290324509
0.021718554 -0.0017250311 0.02649536 4290847768
0.023338057 -0.00014053844 0.025053326 4289473829
0.025479428 -0.00086539984 0.025599413 4289277734
0.027806386 -0.0023597265 0.026807569 4289931299
0.030327097 -0.0046233535 0.028677355 4289865508
0.032678097 -0.0061169546 0.029884215 4289145643
0.035039723 -0.007610267 0.031090554 4288622128
-0.012589034 0.00058708619 0.02333948 4287967033
-0.01024729 -0.0016890978 0.025213495 4288884269
-0.0081519783 -0.0024189334 0.025759473 4289343014
-0.0061854124 -0.0023756307 0.025641717 4289474084
-0.0043557733 -0.0015593423 0.024860729 4289997344
-0.002671212 2.9661693e-05 0.023417089 4290324764
-0.00085549802 0.00084582251 0.022637147 4289539364
0.00095459074 0.0016620019 0.021857567 4290193438
0.0029067174 0.0017055413 0.021741085 4290128158
0.0050090626 0.00097661279 0.022287201 4290716954
0.0074228644 -0.0012969626 0.024157666 4289473829
0.0098528191 -0.0035701264 0.026027277 4289604899
0.011823289 -0.0035257526 0.025910016 4289932064
0.01363229 -0.0027090199 0.02513101 4289343270
0.015599646 -0.0026645157 0.025014084 4289343270
0.017566808 -0.0026199445 0.024897221 4289408549
0.01970318 -0.0033473466 0.025441807 4290258973
0.021328345 -0.00175846 0.024002608 4290913304
0.023117289 -0.00094163325 0.023225125 4290782488
0.02507817 -0.000896818 0.023108926 4289997599
0.027219161 -0.0016238261 0.023653522 4289866784
0.029548369 -0.0031223292 0.024858397 4290717208
0.031702526 -0.00384882 0.0254023 4289866784
0.033861861 -0.0045750886 0.025945976 4289473573
0.036026426 -0.0053011868 0.026489452 4289670944
0.038196199 -0.0060270634 0.027032621 4288164658
-0.0067653395 -0.00084830262 0.021827169 4288425779
-0.0046732575 -0.0015801182 0.022371843 4289408293
-0.0031336024 0.00078811776 0.020270232 4290455578
-0.0011839867 0.00083140004 0.02015375 4289997598
0.00033083558 0.0031992514 0.018053822 4288165423
0.0022719577 0.0032425523 0.017938003 4289081383
0.0045135394 0.0017365618 0.019143987 4289997344
0.0070719123 -0.0013184287 0.021670818 4290389789
0.0093403533 -0.0028236145 0.022875354 4289997343
0.011302523 -0.0027794195 0.022758592 4289670178
0.013103299 -0.001960665 0.021981716 4289474083
0.015062362 -0.0019163545 0.021865282 4289735714
0.017187893 -0.0026462832 0.02240881 4289932063
0.019318655 -0.0033760327 0.022952147 4290324764
0.020938367 -0.0017828457 0.021516487 4290651674
0.022547044 -0.00018987991 0.020081583 4290913304
0.024322115 0.00062890258 0.019306615 4291306004
0.026812539 -0.0016485602 0.021168415 4291044374
0.028953135 -0.0023776107 0.02171145 4290651928
0.03128463 -0.0038803699 0.022913054 4290193949
0.033061586 -0.0030612755 0.022138253 4289866784
0.035023987 -0.0030159871 0.022022288 4290258718
0.036598489 -0.0014231633 0.020589802 4289669924
0.03914468 -0.0036988403 0.022448681 4291370009
0.041507669 -0.0052004722 0.023648649 4290976034
0.044285268 -0.0082488488 0.026163686 4289340208
-0.0076126345 0.0022512861 0.016705312 4288033079
-0.0054004453 0.00073970295 0.017909449 4288884523
-0.0034562424 0.0007827431 0.017793205 4289473828
-0.0013701171 4.88488e-05 0.018336784 4290193693
0.0002868399 0.0016461853 0.016901448 4290062878
0.0020802915 0.0024664775 0.016126201 4290913304
0.004318893 0.00095603615 0.017329179 4291175188
0.0068741739 -0.0021077301 0.019849714 4290259229
0.0089839473 -0.0028405748 0.020392276 4289997343
0.010782123 -0.0020197928 0.019617107 4289932319
0.012574673 -0.001199008 0.018842299 4289670433
0.014689326 -0.0019314736 0.019384842 4289800993
0.016642638 -0.0018871948 0.019268818 4289670433
0.018765055 -0.002619246 0.019811008 4290062623
0.020548671 -0.001798328 0.019037049 4289931808
0.022501379 -0.0017537624 0.01892129 4290193694
0.024453878 -0.0017091166 0.018805601 4290782233
0.026586369 -0.0024406034 0.01934744 4290782743
0.028724067 -0.0031718784 0.019889038 4289866784
0.030866995 -0.0039029368 0.020430401 4290063388
0.032826789 -0.0038577751 0.020314541 4289932574
0.034595333 -0.0030365996 0.019541927 4290193438
0.035970673 -0.00066367071 0.017456342 4290913559
0.03791894 -0.00061853696 0.017341338 4290389788
0.040066235 -0.0013491716 0.017882757 4290650909
0.04302638 -0.0051823906 0.021048639 4291500823
0.045604184 -0.0074636 0.022900917 4286529344
-0.001698181 5.0168484e-05 0.015865147 4287835453
0.00024283677 9.3372539e-05 0.015749265 4289276714
0.0021836907 0.00013669394 0.015633482 4290521113
0.004274562 -0.00059894659 0.0161754 4289866783
0.0065236315 -0.0021133712 0.017374538 4290324509
0.0084721223 -0.0020695617 0.017258536 4290128158
0.010262094 -0.0012468072 0.016485464 4289997599
0.011885345 0.00035475381 0.015055838 4290521113
0.013988927 -0.00038010627 0.015597372 4291371539
0.016097754 -0.0011147233 0.016138684 4291044884
0.018042594 -0.0010705339 0.016023245 4291044373
0.019987248 -0.0010262402 0.015907895 4289866529
0.022106364 -0.0017603738 0.016448781 4289931808
0.024230719 -0.0024942746 0.016989447 4290324508
0.026360303 -0.0032280423 0.017529882 4290389788
0.028312303 -0.0031832401 0.01741435 4290063389
0.030264065 -0.0031383354 0.017298911 4290390298
0.032215618 -0.0030933749 0.017183531 4290259483
0.033975966 -0.0022701556 0.016412988 4290717464
0.035343245 0.0001090914 0.014332793 4290193693
0.037086859 0.00093203224 0.013563392 4290128159
0.039223112 0.00019901991 0.01410381 4290258973
0.041970134 -0.0028674658 0.016607698 4290651419
0.044329509 -0.0043776967 0.017801542 4289014828
0.046906821 -0.0066654412 0.019649066 4288818223
-0.00023523718 0.00088495295 0.012628256 4288426288
0.001844734 0.00014678482 0.013169129 4289277479
0.0039299726 -0.00059113465 0.013709783 4289997089
0.0060204864 -0.0013289098 0.014250218 4290193184
0.0079606995 -0.0012852922 0.014134704 4290259229
0.0097424164 -0.00046047941 0.013363714 4290193693
0.01167956 -0.00041674264 0.013248523 4289997599
0.013616495 -0.00037289225 0.013133432 4289866784
0.015719719 -0.001109872 0.013673489 4289670433
0.017659001 -0.0010657962 0.013558387 4290913558
0.019941874 -0.0025830986 0.014752804 4289670434
0.021886222 -0.0025387378 0.014637525 4290455324
0.024007685 -0.0032748943 0.015176729 4290128158
0.025954328 -0.0032302728 0.015061471 4290455323
0.02808354 -0.0039660828 0.015600345 4290193948
0.029847011 -0.0031408155 0.014831162 4290128413
0.031793021 -0.0030959779 0.01471611 4290259483
0.033166058 -0.00071013346 0.012640384 4290913558
0.034909844 0.00011496246 0.011872503 4290586394
0.036451638 0.0017201323 0.010451778 4289015848
0.038977735 -0.00057552382 0.012297316 4289277478
0.041116305 -0.0013105702 0.012836046 4289342759
0.043464623 -0.002825425 0.014027293 4289409058
0.045823574 -0.0043400154 0.015218 4289212708
0.048822984 -0.0081938887 0.018365517 4289210158
0.0056705177 -0.001314451 0.011789956 4289276204
0.0077606663 -0.0020542443 0.012328844 4289604644
0.0095396191 -0.0012273584 0.011559683 4290456088
0.011634849 -0.0019668341 0.012098419 4290782999
0.013408013 -0.001139909 0.01132973 4289081893
0.01534193 -0.0010960363 0.011214886 4288754728
0.017275654 -0.0010520704 0.011100125 4289474338
0.019552857 -0.0025739018 0.012291676 4290651673
0.021666199 -0.0033125053 0.012829679 4289866529
0.023784779 -0.0040508979 0.013367441 4289800993
0.025728591 -0.0040063453 0.013252349 4290259229
0.027489506 -0.0031790487 0.01248487 4289997343
0.029430218 -0.003134416 0.012370073 4290128414
0.03118255 -0.0023071496 0.011603226 4289932319
0.032738388 -0.00069740228 0.010184765 4290324764
0.034283131 0.00091213174 0.0087670619 4290782488
0.035816826 0.0025215019 0.0073500071 4291109653
0.038135469 0.0010014307 0.0085397102 4291044374
0.040464766 -0.00051829219 0.0097287856 4290716953
0.042804711 -0.0020377403 0.010917326 4289605663
0.045569614 -0.005121036 0.01340727 4288886053
0.0070944205 -0.0004621977 0.0085690413 4288556594
0.00917878 -0.0012042345 0.0091067739 4289343013
0.011268377 -0.0019460227 0.0096442159 4290782998
0.013036035 -0.0011170115 0.0088775009 4290521114
0.014798068 -0.00028799474 0.0081111435 4291109654
0.016892575 -0.0010294328 0.0086485483 4291175188
0.019335859 -0.0033408166 0.010488627 4290979094
0.02162081 -0.0048667346 0.011676549 4289997598
0.023384795 -0.0040373555 0.010910386 4289932063
0.025143139 -0.0032079718 0.010144585 4289801248
0.026895866 -0.0023786873 0.00937921 4289932319
0.028828308 -0.0023342334 0.0092649097 4290521114
0.030760534 -0.0022897013 0.0091506857 4289670689
0.032501772 -0.0014604479 0.008386163 4289408803
0.034237362 -0.00063123554 0.0076220417 4289735713
0.035967305 0.00019795634 0.0068582622 4290521114
0.038288467 -0.0013264157 0.0080445725 4290586648
0.040418588 -0.0020659976 0.0085805692 4289735714
0.043167099 -0.0051585077 0.011064981 4289998364
0.045937099 -0.0082504163 0.013548202 4287183928
0.012500763 -0.0002976656 0.0057815174 4289539364
0.014420852 -0.00025411882 0.0056674834 4290128158
0.016509749 -0.00099781156 0.0062035639 4290194459
0.018775605 -0.0025286125 0.0073893089 4290128158
0.021052144 -0.0040590283 0.0085744504 4289997599
0.022807918 -0.0032276637 0.0078103915 4289997598
0.024558082 -0.0023963396 0.0070467303 4290128414
0.026302598 -0.0015650243 0.0062834192 4291175444
0.028412096 -0.0023077605 0.0068187155 4291306259
0.030338809 -0.0022633746 0.0067048017 4291175444
0.032456025 -0.0030057388 0.0072397087 4290259484
0.033998139 -0.0013875309 0.0058285911 4289735969
0.036117688 -0.0021297401 0.0063635111 4289866784
0.038043573 -0.0020850608 0.0062498786 4289866784
0.040574029 -0.0044000829 0.0080806008 4289474338
0.04332491 -0.0075012264 0.010558408 4287380278
0.011965886 0.00053493679 0.0026953677 4288294199
0.014043912 -0.00021131802 0.0032304442 4289277734
0.016127184 -0.00095730089 0.0037652496 4289932319
0.018215701 -0.0017030686 0.0042998139 4289866528
0.020483851 -0.0032380549 0.005482194 4289997343
0.022408523 -0.0031940332 0.0053681657 4289866784
0.024153203 -0.0023606457 0.0046064593 4290390043
0.02589225 -0.0015273336 0.0038451236 4290193949
0.027810909 -0.0014832076 0.0037316326 4289801248
0.029917307 -0.0022280756 0.004265503 4290782743
0.032219633 -0.0037618205 0.0054462757 4290848789
0.03375905 -0.0021393131 0.0040385593 4290324764
0.035875723 -0.0028837342 0.0045719799 4290062879
0.038196459 -0.0044168192 0.0057518389 4289735714
0.04113242 -0.0083158826 0.0088705691 4287772468
0.013334922 0.0014239959 -0.00049390155 4289145643
0.015576005 -0.00011612009 0.00068672653 4289473829
0.017484628 -7.264968e-05 0.00057351124 4289866274
0.01956737 -0.00082065351 0.0011068536 4289473829
0.021655366 -0.0015684869 0.0016399948 4290062624
0.023389131 -0.000733166 0.00088048354 4290716953
0.024934806 0.00089347176 -0.00052455999 4288427053
0.027210124 -0.0006453516 0.00065441802 4288754729
0.029496104 -0.0021838993 0.0018328633 4289212708
0.031792775 -0.0037220754 0.0030106944 4289867038
0.033326797 -0.0020954087 0.0016065603 4289735459
0.035829961 -0.0044242558 0.0034290762 4289997089
0.038547978 -0.0075437259 0.0058957515 4289734949
0.041690439 -0.01224452 0.0096510118 4286267968
0.016582564 0.0023692213 -0.0037847208 4288032058
0.018825784 0.00082491711 -0.0026072985 4289014574
0.021079667 -0.00071897823 -0.0014304612 4289669414
0.02316457 -0.0014689323 -0.00089873653 4290716954
0.024707578 0.0001619691 -0.002300404 4290455323
0.026609741 0.00020570215 -0.002412932 4290389788
0.028887339 -0.0013373569 -0.0012372786 4290520858
0.031175628 -0.0028801132 -6.2142964e-05 4290651418
0.033088058 -0.0028358968 -0.00017509377 4289539109
0.035784207 -0.0059645982 0.0022863066 4289146153
0.038700566 -0.0098859882 0.0053899912 4286529599
0.020150602 0.0017355224 -0.0057772351 4288948529
0.022580974 -0.00060858484 -0.0039604483 4289341994
0.024298176 0.00023078732 -0.0047156801 4290193184
0.026194796 0.0002743965 -0.004827877 4290978583
0.028278992 -0.00047758128 -0.0042975289 4290782489
0.030749373 -0.0028203763 -0.002482892 4290455324
0.03323587 -0.0051627974 -0.00066913059 4289342504
0.036326192 -0.0098910136 0.0030696248 4288164658
0.025965102 -0.00044590607 -0.0065951976 4289473573
0.028421804 -0.0027956851 -0.0047846409 4289539108
0.030704223 -0.0043472433 -0.0036156802 4289408293
0.033769809 -0.0090891598 0.00011476595 4287053114
0.04114823 -0.015335324 0.0048946002 4286136899
0.025550663 -0.00036163256 -0.0089985151 4288556339
0.0283769 -0.0043179798 -0.005914045 4289080873
0.031039782 -0.0074737417 -0.0034701726 4289408294
-0.024175528 0.0011257352 0.0258728 4281224323
-0.022889771 0.005795096 0.021756496 4279454114
-0.021061677 0.0066082412 0.020973295 4280500634
-0.018768117 0.0043370258 0.02285476 4281877378
-0.016578816 0.0028373282 0.024069414 4283316853
-0.026284389 0.00029037613 0.024163179 4281618299
-0.024984695 0.0049730251 0.020055629 4278865064
-0.021563955 0.0081499955 0.01716356 4278729914
-0.017223909 0.0051409239 0.019588683 4280566423
-0.028699521 0.0017870534 0.020465788 4279717784
-0.027073853 0.0041557746 0.018357977 4278865319
-0.025355171 0.0057485877 0.016914569 4278733229
-0.023423128 0.0057902234 0.016798202 4278799784
-0.02172102 0.0073829899 0.015355946 4278865574
-0.017627679 0.0059158122 0.01644966 4279257509
-0.015326846 0.0036319979 0.018321119 4278995624
-0.013135608 0.0021238383 0.019529402 4279323809
-0.031092163 0.0033020386 0.016780306 4281814903
-0.029573057 0.0064550126 0.014015413 4278603688
-0.027649131 0.0064962236 0.013899348 4278536368
-0.02380158 0.0065790294 0.013667529 4278601649
-0.021992821 0.0073982673 0.012890403 4278276269
-0.020072047 0.0074398788 0.012774878 4278865319
-0.015861783 0.0051910346 0.014526739 4278930344
-0.013807461 0.0044557182 0.015071762 4279061925
-0.011747826 0.0037206868 0.01561652 4279781789
-0.0095516816 0.0022085626 0.016821407 4282270334
-0.033068549 0.0017145043 0.015749659 4280898689
-0.031740703 0.0064365612 0.011669363 4278800548
-0.030133974 0.0088178115 0.0095723206 4278603944
-0.028010588 0.0072987145 0.010777565 4278669479
-0.018674631 0.009065141 0.0088824062 4278864808
-0.016519208 0.007547454 0.010086259 4278734504
-0.014478706 0.0068096453 0.010630484 4278603179
-0.012304474 0.0052925954 0.011833373 4278996389
-0.010381766 0.0053348439 0.011718174 4279387049
-0.0084591918 0.0053772079 0.011603071 4280040614
-0.00626361 0.0038609589 0.012804928 4281352589
-0.03399539 0.0072098607 0.0086702472 4278800548
-0.030590463 0.01042042 0.0058043785 4278276269
-0.028265115 0.0073322887 0.0083243232 4278735014
-0.026355214 0.0073733544 0.0082092229 4278735013
-0.024445407 0.0074145058 0.0080941897 4278864808
-0.022879917 0.0098018823 0.0060048494 4278733484
-0.020861033 0.0090611102 0.0065485192 4278864808
-0.019077208 0.0098844497 0.0057762722 4278733993
-0.016930208 0.0083621694 0.0069774231 4278537899
-0.01514934 0.0091856262 0.0062055653 4278341294
-0.012988992 0.007663914 0.0074060475 4278340784
-0.0072625466 0.0077901138 0.007063223 4279383733
-0.0050755329 0.0062694466 0.0082624462 4281746563
-0.03585073 0.0048585152 0.0083107902 4279127713
-0.032732517 0.010431352 0.0034782412 4278401729
-0.026505873 0.0066314815 0.0064198216 4278734759
-0.024710897 0.007456827 0.0056482926 4278800039
-0.023036148 0.0090664355 0.0042206561 4278603434
-0.021137599 0.0091075832 0.0041064825 4278603434
-0.019359298 0.0099329362 0.0033362322 4278603434
-0.017340858 0.0091902567 0.0038784388 4278603434
-0.013416324 0.0084894793 0.0043064561 4278930343
-0.011515681 0.0085312566 0.0041925889 4278471853
-0.0098826364 0.010140686 0.0027680779 4279060904
-0.0058145747 0.0086572403 0.0038515385 4279453858
-0.0030630603 0.0039977646 0.0076673618 4279258018
-0.001002185 0.0032569123 0.0082076946 4280175508
0.001358673 0.00094932504 0.010056884 4282987904
-0.039176479 -0.0014718594 0.011346615 4281291389
-0.037804224 0.0032899305 0.0072924998 4279127968
-0.036273655 0.006477586 0.0045525394 4278602923
-0.032874152 0.0097051905 0.0016997722 4278471853
-0.026874758 0.0074672429 0.0033233613 4278865574
-0.025088038 0.0082946075 0.0025539678 4278472364
-0.023192257 0.0083355932 0.0024398826 4278668968
-0.02117924 0.0075903768 0.002980615 4278800294
-0.019280955 0.007631653 0.0028665541 4278603434
-0.017382786 0.0076730577 0.0027525993 4278537899
-0.015610252 0.0085006831 0.0019844817 4278274994
-0.01195094 0.0093699051 0.001103417 4279060394
-0.010192424 0.010197618 0.00033635786 4278799784
-0.0036737546 0.0056084646 0.0039172033 4279061413
-0.0016239434 0.0048651779 0.0044565666 4278996388
0.00057840347 0.0033364724 0.0056486409 4279061923
-0.039847516 0.0025108065 0.0056197224 4279194268
-0.03830862 0.0057072258 0.0028856508 4278800038
-0.035001803 0.0097323051 -0.00061542075 4278800039
-0.033015661 0.008983626 -7.5214077e-05 4278931618
-0.031127814 0.0090239597 -0.00018917816 4279389345
-0.027352393 0.0091050072 -0.00041680667 4278603434
-0.025464822 0.009145706 -0.00053047738 4278800039
-0.023462802 0.0083979582 9.2121772e-06 4278668968
-0.021455433 0.0076504154 0.00054871896 4278734760
-0.01956274 0.0076915668 0.00043499237 4278734760
-0.017792888 0.008521243 -0.00033147028 4278538409
-0.01590316 0.0085625732 -0.00044483761 4278407084
-0.0061783083 0.0071947286 0.00029330095 4278926518
-0.0040003844 0.0056609297 0.0014834446 4278537388
-0.002100721 0.0057032248 0.0013700384 4278668203
-0.00020121038 0.0057456261 0.0012567216 4278865063
0.0016981363 0.0057881298 0.0011434946 4279126439
0.0035973117 0.0058307378 0.0010303585 4281219988
0.0059625134 0.0035104547 0.0028698449 4282595968
-0.04171047 0.00015391316 0.0052567199 4279586714
-0.040157817 0.0033591958 0.0025281939 4279193759
-0.038627021 0.006564145 -0.00019891374 4278735015
-0.027720485 0.0099695278 -0.0034918478 4278735013
-0.025617696 0.0084284889 -0.0023013607 4278472874
-0.023733102 0.0084692249 -0.0024147786 4278669479
-0.021848604 0.0085100895 -0.0025280931 4278866085
-0.020084169 0.0093416655 -0.0032926546 4279061668
-0.018079959 0.0085921688 -0.002754434 4278865319
-0.016195808 0.0086333612 -0.0028674779 4278734758
-0.014311779 0.0086746709 -0.002980426 4278472363
-0.0066379905 0.0080507947 -0.0027811227 4278603179
-0.0046102032 0.0073025664 -0.0022437579 4278471854
-0.0024326742 0.0057644537 -0.0010567193 4278602923
-0.00098022819 0.0081767878 -0.0031188631 4278930343
0.0027908385 0.0082612848 -0.0033435908 4278332624
0.0049868077 0.0067239767 -0.0021573594 4279513018
0.0070354193 0.005976825 -0.0016207804 4282270333
-0.041837923 -0.00057989825 0.0034715491 4279586459
-0.040377844 0.0034274505 9.8128337e-05 4279127969
-0.038667127 0.0050542625 -0.0013194471 4278603433
-0.036872003 0.0058875969 -0.0020850413 4278800548
-0.03518049 0.007514189 -0.0035012427 4278865064
-0.031726845 0.0099739479 -0.0056807203 4278471343
-0.029853001 0.010014118 -0.0057937396 4278865319
-0.027761262 0.0084683252 -0.0046058716 4278472874
-0.025770452 0.0077158799 -0.0040688249 4278538154
-0.023774289 0.006963673 -0.0035320071 4278669224
-0.020125579 0.0078382855 -0.0044082496 4278727619
-0.016362887 0.0079204356 -0.0046340842 4279191208
-0.014737826 0.0095469384 -0.0060453592 4278735014
-0.012600679 0.0080030328 -0.0048595499 4278735013
-0.010853261 0.0088369912 -0.0056210412 4278603688
-0.0087027811 0.0072936537 -0.0044359011 4278669223
-0.0068194196 0.0073353807 -0.0045484882 4278341294
-0.0046528913 0.0057926206 -0.003364142 4278603179
-0.0027643666 0.0058346549 -0.0034768935 4278537389
-0.0011702105 0.0074611874 -0.0048857136 4278733738
0.002290085 0.0091296611 -0.0064056488 4278990779
0.0043223798 0.0083798477 -0.005869804 4278399944
0.0063599274 0.0076302858 -0.0053341761 4279649699
0.0087241605 0.0052971421 -0.0035041866 4280502674
0.011104539 0.0029644808 -0.0016751431 4283316599
-0.041965261 -0.0013091043 0.0016897963 4280242573
-0.040328048 0.0011178525 -0.00037555816 4279718548
-0.03852205 0.0019534873 -0.0011402699 4278669478
-0.035220724 0.0060110604 -0.0046167411 4279259294
-0.033741735 0.0092326785 -0.0073274923 4279258783
-0.031974163 0.010067965 -0.0080895312 4279127713
-0.029999707 0.009312761 -0.0075532887 4278800038
-0.027910966 0.0077625802 -0.0063685346 4278931110
-0.02592307 0.0070078513 -0.0058328887 4278341549
-0.024158597 0.0078436127 -0.006594413 4278733738
-0.016905643 0.0095966598 -0.0083406633 4278601649
-0.015035495 0.0096376641 -0.0084527787 4278800039
-0.01290407 0.0080893515 -0.0072698891 4278669479
-0.011028737 0.0081306761 -0.0073821628 4278735014
-0.0090173781 0.0073774746 -0.0068471702 4278603944
-0.0071395896 0.007419101 -0.0069594067 4278866084
-0.005261939 0.0074607944 -0.0070715817 4278472619
-0.0033844411 0.0075026052 -0.007183658 4278340274
0.00022034347 0.0083808592 -0.0080539165 4279323809
0.0020946786 0.0084228953 -0.0081655858 4278865318
0.0039688498 0.0084650321 -0.0082771648 4278733739
0.005842872 0.0085072508 -0.008388672 4278863533
0.0078773573 0.0077554723 -0.0078543834 4278864554
0.010243841 0.0054159919 -0.0060293577 4278931109
0.012626469 0.0030768951 -0.0042052008 4279585694
0.014856443 0.0015321793 -0.003027149 4281417358
-0.041918308 -0.0036293655 0.0012083906 4280045714
-0.040188536 -0.0019936534 -0.00020394102 4279783829
-0.038469732 -0.00035796035 -0.0016155257 4279062688
-0.036666621 0.00047988724 -0.0023783699 4278668969
-0.035064992 0.0029129982 -0.0044364305 4278538154
-0.033479769 0.0053458242 -0.0064933766 4278800549
-0.031807542 0.0069809826 -0.0079018082 4278996643
-0.030040149 0.0078185713 -0.0086621195 4278800039
-0.028060541 0.0070614154 -0.0081277238 4278931364
-0.02618717 0.0071018049 -0.0082405442 4278538154
-0.022206649 0.005588497 -0.0071725533 4279258273
-0.02044791 0.0064265234 -0.0079319552 4278931109
-0.01869471 0.0072644716 -0.0086909179 4278537133
-0.017072279 0.0088994456 -0.010095613 4278536623
-0.015077073 0.0081434408 -0.009561548 4278668714
-0.012945898 0.0065907454 -0.0083819004 4278603688
-0.011070702 0.0066320812 -0.0084941564 4278669223
-0.0093317293 0.0074703032 -0.0092518302 4278603944
-0.0074595101 0.0075117676 -0.0093637612 4278669223
-0.0055874437 0.0075533604 -0.009475586 4278603944
-0.0038597658 0.0083916178 -0.010232371 4278996133
0.007512942 0.0078471201 -0.010256104 4279257509
0.0097103715 0.0062970957 -0.009079447 4278734759
0.011752516 0.0055435365 -0.0085471421 4278865574
0.013968647 0.0039941641 -0.0073715006 4278996643
0.015681125 0.0048330473 -0.008126663 4282794359
-0.041784436 -0.0067537683 0.0013707667 4280503693
-0.040139012 -0.0043136124 -0.00068531744 4279586969
-0.038417518 -0.0026735598 -0.002093863 4279128224
-0.036611781 -0.0018334594 -0.0028552304 4278538663
-0.034811556 -0.00099338498 -0.0036161987 4279128733
-0.033117507 0.00064646918 -0.0050227977 4278866338
-0.031537782 0.0030858209 -0.0070744697 4278406828
-0.029868398 0.0047254032 -0.0084793903 4279128224
-0.02799236 0.0047657266 -0.0085924631 4278801314
-0.026339486 0.0064051179 -0.0099961925 4278669733
-0.020848278 0.0073260805 -0.010978464 4278927284
-0.019103322 0.0081660515 -0.011735293 4278927284
-0.015374374 0.0082476763 -0.011958946 4278931109
-0.013379481 0.0074895835 -0.011426412 4278472619
-0.011512581 0.0075307256 -0.011538178 4278538154
-0.0097818449 0.0083709126 -0.012293763 4278735014
-0.0079179257 0.0084122187 -0.012405178 4278734758
-0.0060541406 0.0084535973 -0.01251653 4278669223
-0.0043347068 0.009293898 -0.01327124 4278538664
-0.002473928 0.0093354424 -0.01338224 4278341548
0.005283311 0.007905527 -0.012540231 4278471598
0.0071487725 0.007947634 -0.012651171 4278602923
0.0091772974 0.0071915155 -0.012119732 4278406828
0.011045143 0.0072338721 -0.012230665 4278668459
0.013081513 0.0064780926 -0.011699574 4278928558
0.016995922 0.0057652323 -0.011279774 4280039338
0.019575819 0.0026158979 -0.0088247908 4281876613
-0.041824721 -0.0082822219 0.00023642555 4280177038
-0.040089589 -0.0066377092 -0.0011697654 4280045968
-0.038272992 -0.0057953428 -0.0019302762 4279718039
-0.036461901 -0.0049529695 -0.0026903611 4278669479
-0.034460604 -0.0057144812 -0.0021608598 4279193759
-0.032655101 -0.0048719929 -0.0029204339 4279324829
-0.031061742 -0.0024257777 -0.0049681114 4279062689
-0.029484808 2.0189211e-05 -0.0070147226 4278669223
-0.028033044 0.0032676589 -0.0097041614 4279128224
-0.026491668 0.0057130596 -0.011748405 4278801824
-0.024852529 0.0073566688 -0.013148022 4278734758
-0.017280079 0.0067173867 -0.012952383 4278863788
-0.015543614 0.0075595891 -0.013706977 4278669224
-0.013551634 0.0067992164 -0.013175845 4278407084
-0.011820853 0.0076415157 -0.013929932 4278538154
-0.0023693442 0.0070471866 -0.013844151 4278669223
-0.00080525875 0.0086905556 -0.015238223 4278800293
0.0012046769 0.0079314513 -0.014707587 4278472108
0.0030649006 0.007973236 -0.014818366 4278799784
0.005240418 0.0064138127 -0.013647034 4278406829
0.0071057677 0.0064559383 -0.013757948 4278603434
0.0088077933 0.0072986269 -0.014509481 4278602923
0.010670096 0.0073408475 -0.014620095 4278471598
0.016430058 0.0066677434 -0.014311465 4278662593
0.018647946 0.0051099276 -0.013142239 4278663359
0.020876512 0.0035524154 -0.011973529 4280960398
-0.043947794 -0.0082418164 -0.0020692244 4281160318
-0.04195191 -0.0090061165 -0.001541385 4279980178
-0.040129907 -0.008161596 -0.0023007051 4280177039
-0.038128693 -0.0089255124 -0.0017729874 4279848854
-0.036407333 -0.0072766989 -0.0031749282 4278865829
-0.034501325 -0.0072362358 -0.003290182 4279520923
-0.032595389 -0.0071956068 -0.003405307 4279455898
-0.030896038 -0.0055468455 -0.0048056822 4278931874
-0.029207654 -0.0038982211 -0.0062052491 4279521434
-0.027856324 0.0001619868 -0.0095310397 4278604198
-0.026309475 0.0026140651 -0.011570809 4278538154
-0.024893191 0.0058696745 -0.014251482 4278932128
-0.023148205 0.0067137489 -0.015005262 4279194524
-0.02128917 0.0067541571 -0.015116974 4279127204
-0.019430235 0.0067946827 -0.015228591 4278996133
-0.017446399 0.0060317619 -0.014698803 4278669224
-0.01584046 0.0076795081 -0.01609274 4278538154
-0.013984598 0.0077203074 -0.016203918 4278668714
-0.012128849 0.0077611757 -0.016315039 4278537388
-0.0084177256 0.0078432513 -0.016536996 4278400963
-0.0065623634 0.0078844586 -0.016647832 4278400709
-0.002852045 0.0079671266 -0.016869288 4279519394
-0.0009970963 0.0080086002 -0.016979896 4278472108
0.00085770339 0.0080501912 -0.017090404 4278603434
0.0028673187 0.0072889784 -0.016561314 4278472364
0.0048822165 0.0065279948 -0.016032457 4278603179
0.0067420155 0.0065699602 -0.016143069 4278603434
0.008438535 0.0074146995 -0.016892657 4278406574
0.011814818 0.0091040703 -0.018390629 4279389344
0.013837077 0.0083437013 -0.01786188 4278865828
0.015864603 0.0075835073 -0.017333396 4279061413
0.020294294 0.0044590877 -0.015000949 4278930089
0.022707313 0.0020951042 -0.013197631 4278733738
0.02532132 -0.0010706158 -0.010757514 4279323553
0.028519571 -0.0066422215 -0.0064057121 4281941638
-0.042165831 -0.0089188702 -0.0039577833 4282208879
-0.040259793 -0.0088787647 -0.004073306 4280701829
-0.038169209 -0.010451365 -0.0029053742 4279783574
-0.036352865 -0.0096045444 -0.0036625504 4278930599
-0.034542039 -0.0087577282 -0.0044193091 4279455133
-0.032837197 -0.0071046217 -0.0058168704 4279521434
-0.031143311 -0.0054516657 -0.007213633 4279324829
-0.029354487 -0.0046049361 -0.0079687778 4279325338
-0.027788468 -0.0021460485 -0.010004941 4278931873
-0.026127499 -0.00049344823 -0.011399459 4278997153
-0.024705682 0.0027709659 -0.014074003 4278472618
-0.023072131 0.0044232495 -0.015466738 4278669224
-0.021330044 0.0052695246 -0.016218659 4278932384
-0.01947125 0.0053100483 -0.016330268 4278539174
-0.017612569 0.0053506522 -0.016441807 4278668969
-0.016009368 0.0070026936 -0.017832335 4278668969
-0.014156353 0.007043411 -0.017943356 4278537898
-0.010314845 0.0063196765 -0.01752609 4278406318
-0.0085980408 0.0071661444 -0.018275935 4278341039
-0.0068868212 0.0080126645 -0.019025393 4278995113
-0.0050371587 0.0080538159 -0.019135837 4278732719
-0.0033343658 0.0089002969 -0.019884605 4278274994
-0.0014876947 0.0089415805 -0.019994725 4278668714
0.00051099807 0.0081778625 -0.019466665 4278668203
0.0025150105 0.0074143028 -0.018938821 4278472364
0.004366681 0.0074559851 -0.019049026 4278472364
0.006378524 0.0066928463 -0.01852154 4278603434
0.0080695748 0.007539616 -0.019269198 4278537644
0.013622731 0.0076656891 -0.019598898 4278995114
0.015647389 0.0069032637 -0.019071858 4278929834
0.017853938 0.0053364793 -0.017908443 4278273974
0.020071186 0.0037699835 -0.016745556 4278471853
0.022299141 0.0022038482 -0.01558329 4278733994
0.025276914 -0.0025794609 -0.011876948 4279061413
0.028474644 -0.0081662973 -0.0075364411 4281026699
-0.038209721 -0.011977002 -0.0040376009 4282078828
-0.036393475 -0.011128007 -0.0047931517 4278733994
-0.034778114 -0.0086620357 -0.0068278061 4279520924
-0.032978341 -0.0078131473 -0.0075821802 4279063454
-0.031287208 -0.00615593 -0.0089755617 4279390873
-0.029289488 -0.0069236839 -0.0084504336 4279128734
-0.027503558 -0.0060747531 -0.0092037199 4278997919
-0.02583446 -0.0044175885 -0.010595535 4279259549
-0.024290353 -0.0019524731 -0.012625317 4278800549
-0.019390069 0.0030176798 -0.016793525 4278931618
-0.017778609 0.0046741087 -0.018181417 4278603434
-0.01617815 0.0063304463 -0.019568613 4278800039
-0.01458868 0.007986621 -0.020955019 4278537899
-0.0089167319 0.0073012123 -0.020648833 4279389853
-0.0073522404 0.008957251 -0.022033431 4278865064
-0.0055108629 0.0089982105 -0.022143386 4278273974
-0.0036696196 0.0090392502 -0.022253271 4278340529
-0.0016791224 0.0082730735 -0.021726418 4278865319
1.2464821e-05 0.0091216462 -0.022472776 4278734249
0.0021629408 0.0075485623 -0.021309774 4278603179
0.004009068 0.0075901086 -0.021419652 4278537644
0.0060153008 0.0068246434 -0.020893469 4278537899
0.007863842 0.0068664169 -0.021003366 4278669479
0.0095465332 0.0077152671 -0.021748841 4278669224
0.017633915 0.0046563195 -0.01964663 4278599353
0.020027518 0.0022787182 -0.017851964 4278996898
0.022437237 -9.8377466e-05 -0.016058225 4279128224
0.02560202 -0.0057012704 -0.011727152 4280176783
0.028617166 -0.010496699 -0.0080326814 4283058029
-0.036718797 -0.010219073 -0.0078384811 4281225598
-0.035111576 -0.0077468213 -0.0098677669 4280767364
-0.033219699 -0.0077065369 -0.0099820755 4279587734
-0.031327903 -0.0076661343 -0.010096291 4279455644
-0.029436186 -0.0076256138 -0.010210412 4279455644
-0.027653072 -0.0067745284 -0.010961954 4279521434
-0.025875479 -0.0059234831 -0.011713032 4279194014
-0.024217378 -0.0042621521 -0.013100833 4278735013
-0.022570264 -0.0026008878 -0.014487921 4278407594
-0.020814728 -0.0017499905 -0.015237425 4279194014
-0.019308973 0.00072113983 -0.017259808 4278932639
-0.017694816 0.0023820214 -0.018644666 4278604454
-0.016219221 0.0048527448 -0.020665124 4278997408
-0.01462977 0.0065132352 -0.022048317 4278996898
-0.0093735978 0.0082548903 -0.023650758 4278403259
-0.0038579926 0.0083775492 -0.023980137 4278406573
-0.0020197257 0.0084186243 -0.024089769 4278734504
-0.00018158555 0.0084597701 -0.024199337 4278538154
0.0015016347 0.00931047 -0.024943549 4278537899
0.0034942552 0.0085423989 -0.024418194 4278930088
0.0053319633 0.0085838223 -0.024527524 4279323298
0.0073324516 0.0078161368 -0.024002556 4279062178
0.0090069324 0.0086669466 -0.024745941 4278603944
0.011349238 0.0062813601 -0.02295338 4278276269
0.01706104 0.0055985386 -0.022648308 4279062689
0.019804671 0.0015964936 -0.019591471 4278800803
0.022575282 -0.0024047904 -0.016536197 4280112014
0.025926866 -0.0088315383 -0.011583706 4282405228
-0.044443578 -0.011082594 -0.0091407541 4282667879
-0.033360541 -0.0084037324 -0.011739053 4281291644
-0.031265575 -0.0099888463 -0.010580692 4279521689
-0.029371276 -0.0099482732 -0.010694971 4279063198
-0.027585521 -0.0090950057 -0.011445018 4279521178
-0.02591648 -0.0074291611 -0.012830369 4279521434
-0.024258401 -0.0057635149 -0.014214957 4278931619
-0.022378061 -0.0057227705 -0.014328044 4278997153
-0.020617161 -0.0048695873 -0.015076256 4278735268
-0.018983867 -0.0032040603 -0.016459119 4278800803
-0.017486338 -0.00072652102 -0.018476103 4278538664
-0.016005259 0.0017508538 -0.020492032 4278538664
-0.014540602 0.004227954 -0.022506911 4278341548
-0.012959436 0.0058927247 -0.023886286 4278997663
-0.011253592 0.0067453301 -0.024630729 4279389598
-0.0096917003 0.0084099146 -0.026008848 4279124909
-0.0079997033 0.0092624286 -0.026752301 4278536114
-0.0063132793 0.010114943 -0.027495336 4278668714
-0.0041927695 0.0085321506 -0.026337266 4278537644
-0.0020615384 0.0069496846 -0.025179703 4278472364
-0.00022352487 0.0069908286 -0.025289267 4278537388
0.0031372607 0.0086964434 -0.026774045 4278398668
0.0048092902 0.0095491642 -0.027515825 4278398668
0.0087988675 0.0080092466 -0.0264684 4278603434
0.0109699 0.0064282799 -0.025312755 4278603944
0.012809612 0.0064700888 -0.025421951 4278604199
0.0148229 0.005700835 -0.024899129 4278866085
0.017017908 0.0041207001 -0.023744766 4278735014
0.019940279 -0.00070323609 -0.020064358 4279521944
0.023076952 -0.0063372469 -0.015754376 4281684344
-0.029623516 -0.0098305726 -0.013085858 4281423988
-0.027734891 -0.0097900191 -0.01319972 4280176528
-0.025957465 -0.0089346608 -0.013947573 4279455388
-0.024185568 -0.0080793062 -0.01469501 4278996643
-0.022419207 -0.0072239446 -0.015442018 4279193504
-0.020539105 -0.0071831211 -0.015555029 4279390364
-0.018903114 -0.0055132229 -0.016934842 4279063454
-0.017278098 -0.0038434747 -0.018313855 4278932128
-0.015791528 -0.0013595093 -0.020325299 4279063199
-0.014061049 -0.00050438382 -0.021069746 4278538154
-0.01260189 0.0019792058 -0.023079377 4278276013
-0.010887966 0.0028341636 -0.023822688 4278996388
-0.0095945634 0.0061314525 -0.026462972 4279586714
-0.0078999102 0.0069861887 -0.027204979 4279061923
-0.006498348 0.0094689103 -0.029210862 4278865574
-0.0043808222 0.0078816703 -0.028055806 4278799784
-0.0025509372 0.0079225404 -0.028164949 4278800039
-0.00056926906 0.0071496917 -0.027642392 4278537133
0.0011084303 0.0080045136 -0.028383039 4278537133
0.0085909739 0.0073560094 -0.028187476 4279257509
0.010759041 0.0057706302 -0.02703489 4278800039
0.012424998 0.006625752 -0.027774494 4278472874
0.014606364 0.0050408216 -0.026622586 4278472619
0.017151192 0.0018297248 -0.024210889 4278603434
0.020254895 -0.0038203434 -0.019910339 4280045968
0.023396477 -0.0094695352 -0.015611952 4281684854
-0.027992453 -0.0096636256 -0.015583658 4281684853
-0.025887378 -0.011256808 -0.014432148 4279783573
-0.024226625 -0.0095824152 -0.01581043 4278866338
-0.022460349 -0.0087249028 -0.016555831 4279456153
-0.020818833 -0.00705066 -0.017932836 4279587479
-0.019066349 -0.0061932234 -0.018677242 4279325339
-0.017444067 -0.0045192386 -0.020052895 4278932129
-0.015832782 -0.0028453209 -0.021427833 4279259803
-0.014102373 -0.0019880449 -0.022170674 4278669479
-0.0093592517 0.0030325158 -0.02628931 4278406318
-0.0078002103 0.004705783 -0.027660746 4278800548
-0.0063958652 0.0071950303 -0.029661916 4278865574
-0.004715126 0.0080518508 -0.030401383 4278931109
-0.0027416497 0.0072764782 -0.029879998 4278865319
-0.00076287985 0.0065013813 -0.02935889 4278274738
0.0010666251 0.0065424005 -0.029467896 4278405808
0.0025813803 0.0082152477 -0.030836266 4278931618
0.0044051781 0.0082563171 -0.030944798 4278931618
0.0063915625 0.0074816877 -0.03042385 4278799274
0.0083832294 0.0067073284 -0.029903173 4278734248
0.010380194 0.0059331404 -0.029382776 4278602924
0.012382433 0.0051591629 -0.028862622 4278734758
0.01781334 -0.0029116618 -0.022794385 4278604199
0.020927362 -0.0085767172 -0.018505774 4281291388
0.02335228 -0.010979692 -0.016732376 4282077808
-0.026150387 -0.011126006 -0.016812388 4282011763
-0.024267659 -0.011085357 -0.01692573 4282340713
-0.022617899 -0.0094067855 -0.018300064 4280372879
-0.020859968 -0.0085471226 -0.019043304 4279914388
-0.01910755 -0.0076875235 -0.019786097 4279325083
-0.017360684 -0.0068279412 -0.020528477 4279587223
-0.015619364 -0.0059683756 -0.021270446 4279390873
-0.013883576 -0.005108838 -0.022012018 4278800548
-0.012286123 -0.0034306929 -0.023382753 4278997154
-0.010699648 -0.0017527333 -0.024752717 4279258529
-0.0092623681 0.00074356515 -0.026751224 4278669734
-0.0075596832 0.0016028024 -0.027490489 4278472618
-0.0061498359 0.0040987013 -0.0294872 4278734759
-0.0044637099 0.0049577476 -0.030225348 4279193759
-0.0027831346 0.0058167642 -0.030963093 4279258784
-0.00095633417 0.0058575952 -0.031072032 4278734248
0.0025396273 0.0067576328 -0.031917781 4278273974
0.01016973 0.0052866647 -0.031096622 4278734248
0.012681566 0.0020572627 -0.02869603 4278800293
0.015562057 -0.0028068945 -0.025042437 4280570249
0.01829876 -0.0068526505 -0.022017669 4281750388
0.021062456 -0.010897717 -0.018994451 4281422204
0.023126416 -0.011672164 -0.018479355 4280898178
-0.022775322 -0.010084062 -0.020040955 4282013038
-0.021020178 -0.009222351 -0.020782381 4280176019
-0.019148741 -0.0091816317 -0.020894807 4279718039
-0.017401945 -0.0083199106 -0.021635592 4279390619
-0.015533425 -0.008279047 -0.02174769 4279259549
-0.014054976 -0.0057756375 -0.023744043 4279062944
-0.012327533 -0.004914009 -0.02448342 4279259804
-0.010876488 -0.0024109986 -0.026477978 4278997664
-0.0093037225 -0.00072894059 -0.027843848 4278997153
-0.0076010898 0.00013244804 -0.028581511 4278603943
-0.0059040189 0.0009938078 -0.029318769 4278603688
-0.002675578 0.0035368297 -0.031419113 4278865574
-0.00099790096 0.0043980237 -0.032155015 4279062689
0.00067419559 0.0052592354 -0.032890555 4278341039
0.0078028888 0.0062434664 -0.033950631 4279389088
0.010295503 0.0030048164 -0.031555455 4278996388
0.012980461 -0.0010531442 -0.028535828 4280373899
0.016039401 -0.0067501031 -0.024266683 4281750134
0.018607639 -0.0099868048 -0.021875825 4281946483
0.020839632 -0.011583491 -0.020736601 4281815158
-0.021180253 -0.0098930821 -0.022518121 4282340459
-0.01931167 -0.0098524559 -0.022630401 4280309129
-0.01744318 -0.0098117124 -0.022742584 4279127969
-0.015702002 -0.0089478325 -0.023481335 4278931364
-0.014096294 -0.0072609601 -0.024846207 4279063199
-0.012368917 -0.0063971928 -0.025583986 4279259549
-0.010782443 -0.0047105886 -0.026947517 4279324829
-0.0092069618 -0.0030240887 -0.028310362 4278997154
-0.0075016804 -0.0021604933 -0.029046588 4279062689
-0.0059454627 -0.00047425274 -0.030408081 4278538154
-0.004254017 0.00038925465 -0.031143386 4278537898
-0.0025681183 0.001252708 -0.031878237 4278471853
-0.00088778138 0.0021160962 -0.032612715 4278799274
0.00078700483 0.0029794676 -0.033346776 4279389343
0.0022990927 0.0046651987 -0.034705359 4278932128
0.0038002059 0.0063507417 -0.036063168 4278735524
0.0057779253 0.0055693844 -0.035546638 4278603433
0.0079262033 0.00396604 -0.034405988 4278668968
0.010589175 -0.00010343641 -0.031393174 4279062944
0.013279147 -0.0041721514 -0.028381933 4281553274
0.015996166 -0.0082401996 -0.025372256 4282012273
0.018387921 -0.010663621 -0.02361162 4282012528
-0.036171768 -0.011705726 -0.022723667 4282798439
-0.019352742 -0.011344051 -0.023737252 4282668134
-0.017733239 -0.0096528083 -0.025099851 4281228403
-0.015997577 -0.0087868422 -0.025836699 4280179334
-0.014527168 -0.0062706927 -0.027822886 4279522199
-0.012675431 -0.0062300251 -0.027933847 4278931874
-0.010823812 -0.0061892644 -0.028044734 4278800038
-0.0089722835 -0.0061483979 -0.028155532 4279259039
-0.0074023604 -0.004457586 -0.029514745 4279259039
-0.0058434233 -0.0027669976 -0.030873209 4278931364
-0.0042954795 -0.0010764981 -0.032230981 4278930598
-0.002460748 -0.001035613 -0.032340482 4278930854
-0.00077773631 -0.00017000549 -0.033073511 4278929579
0.00089970976 0.0006955713 -0.033806134 4278732463
0.0022575036 0.0032102056 -0.035784934 4279389598
0.0039183795 0.0040756026 -0.036516432 4279062688
0.0058986619 0.0032920949 -0.036001693 4278800548
0.0082146451 0.00086003635 -0.034241632 4278735523
0.011218444 -0.0048687211 -0.029992022 4281095039
0.013407007 -0.00647541 -0.028856855 4281685364
0.015779622 -0.0089059509 -0.027099982 4282012528
0.01816839 -0.011335998 -0.025344051 4282471528
-0.038080573 -0.01323665 -0.02371734 4282076023
-0.019393798 -0.012835514 -0.024844006 4281947504
-0.014568247 -0.007749171 -0.028919976 4280505734
-0.01271664 -0.0077085299 -0.029030949 4278931619
-0.010729898 -0.0084949676 -0.028518885 4278734248
-0.0090137348 -0.0076269563 -0.029252652 4278930598
-0.0074438043 -0.0059318393 -0.030608661 4279521179
-0.0058848634 -0.0042369221 -0.031963907 4279520924
-0.0041907988 -0.0033690822 -0.032696117 4279127459
-0.0025023073 -0.0025012475 -0.03342798 4278865064
-0.0008193329 -0.0016334895 -0.034159403 4278864299
0.0010123402 -0.0015925467 -0.034268629 4278602159
0.0025299191 0.00010189228 -0.035621077 4278275758
0.0041961744 0.00096957479 -0.036351357 4278340529
0.0063441545 -0.00064262375 -0.035217196 4278800803
0.0086679906 -0.00308104 -0.033462465 4280047243
0.011511572 -0.0079983994 -0.029845644 4281554039
0.013705328 -0.0096092764 -0.028714061 4281619573
0.015736535 -0.010393581 -0.02820373 4282406248
-0.021303028 -0.014367367 -0.025838338 4282667879
-0.010906436 -0.0091461707 -0.030238841 4280963968
-0.0090551525 -0.0091053806 -0.030349679 4280503948
-0.0072039813 -0.0090644732 -0.030460417 4279848344
-0.0057829432 -0.0065358751 -0.032433648 4278996389
-0.0040862113 -0.0056658532 -0.033164438 4278865573
-0.0023950338 -0.0047958596 -0.033894822 4278865318
-0.00070940703 -0.0039258595 -0.034624856 4278930854
0.0011248663 -0.0038848761 -0.034734253 4279193248
0.0028021038 -0.0030149384 -0.035463616 4278996898
0.0044737756 -0.0021450426 -0.036192585 4279521434
0.0064646006 -0.0029326882 -0.035681736 4279456154
0.0087908804 -0.0053775953 -0.033932019 4281028993
0.01146891 -0.0094793141 -0.030944426 4280766089
0.013662435 -0.011094584 -0.029816095 4280569483
-0.00923438 -0.0097521199 -0.032066178 4280634253
-0.0072454847 -0.01054277 -0.03155734 4279848854
-0.005537834 -0.009670388 -0.032287281 4278864809
-0.003981702 -0.0079667978 -0.033635858 4279324319
-0.0022878498 -0.0070946226 -0.034364823 4279061924
-0.00059956312 -0.006222452 -0.035093371 4279062179
0.0010831803 -0.0053502982 -0.035821579 4278931364
0.002760388 -0.0044782208 -0.036549348 4279127968
0.0044320077 -0.0036061853 -0.037276722 4278801314
0.0064226612 -0.0043960465 -0.036767509 4280176785
0.0085836574 -0.0060166381 -0.035640586 4281553784
0.011258557 -0.010129312 -0.032660902 4281619063
0.013278708 -0.010918277 -0.032153271 4282340714
0.015304171 -0.011707064 -0.031645909 4279455643
-0.023948908 -0.012385167 -0.031654466 4281750388
-0.0094134472 -0.010394431 -0.033779323 4280635019
-0.0055793561 -0.011146413 -0.033382509 4282339948
-0.0040232204 -0.0094385175 -0.034727883 4279981199
-0.00218077 -0.0093975961 -0.03483795 4279652504
-0.00064116716 -0.0076898942 -0.036182206 4278603944
0.0010415316 -0.0068156002 -0.03690882 4278931619
0.0027186871 -0.0059413835 -0.037634995 4278734248
0.0045497939 -0.0059003681 -0.037744123 4278996899
0.0062185526 -0.0050261794 -0.038469676 4280046223
0.0083765835 -0.0066511463 -0.03734586 4281946738
-0.026180644 -0.011393825 -0.034493074 4282405483
-0.0095923506 -0.011032314 -0.035489183 4280111504
-0.0039188266 -0.011745743 -0.035203971 4279783064
-0.0023709312 -0.010033652 -0.036545593 4280767364
-0.00083402544 -0.0083216624 -0.037886526 4278997663
0.00084590912 -0.0074453326 -0.038611341 4279259549
0.0025203079 -0.0065690442 -0.039335761 4279128734
0.004189156 -0.0056928075 -0.040059801 4279325338
0.0060146078 -0.00565186 -0.04016855 4281226364
