# .PCD v0.7 - Point Cloud Data file format
VERSION 0.7
FIELDS x y z rgba
SIZE 4 4 4 4
TYPE F F F U
COUNT 1 1 1 1
WIDTH 974
HEIGHT 1
VIEWPOINT 0 0 0 1 0 0 0
POINTS 974
DATA ascii
0.15406275 -0.10608399 0.67700005 4289702564
0.15474761 -0.10529338 0.67200005 4289439392
0.15563807 -0.10465955 0.66800004 4289965982
0.15768512 -0.10480913 0.66900003 4290163615
0.15926051 -0.10464539 0.66800004 4290097821
0.16107136 -0.1046383 0.66800004 4289703316
0.162882 -0.10463123 0.66800004 4289967001
0.16493896 -0.10478081 0.66900003 4289769369
0.16725034 -0.10508697 0.671 4289704352
0.16957237 -0.10539312 0.67300004 4289835937
0.17215969 -0.10585584 0.67600006 4289440665
0.14422844 -0.10748342 0.67400002 4289357416
0.14562444 -0.10715734 0.67200005 4290532691
0.14744815 -0.10715017 0.67200005 4291318345
0.14971587 -0.10746188 0.67400002 4291451214
0.1515445 -0.10745469 0.67400002 4291453260
0.15246263 -0.10680982 0.67000002 4290729808
0.15220748 -0.10536798 0.66100001 4292919656
0.15283519 -0.10456392 0.65600002 4292793427
0.15414259 -0.10423812 0.65400004 4292990281
0.15615416 -0.10439051 0.65500003 4293056325
0.15817089 -0.10454287 0.65600002 4293253444
0.15994902 -0.10453588 0.65600002 4293056579
0.16148037 -0.10436954 0.65500003 4293055812
0.16375382 -0.10468124 0.65700001 4293253705
0.16628985 -0.10515223 0.66000003 4292991047
0.16960593 -0.1061011 0.66600001 4292857177
0.17269693 -0.10689059 0.671 4291398746
0.17581485 -0.10768001 0.67600006 4291655529
0.17764568 -0.10767293 0.67600006 4292182402
0.17921084 -0.10750661 0.67500001 4291986557
0.180234 -0.10702185 0.67200005 4291790459
0.18232438 -0.10717418 0.67300004 4291789431
0.18469363 -0.10748576 0.67500001 4292709249
0.18679723 -0.10763813 0.67600006 4292184703
0.18834801 -0.10747207 0.67500001 4292317317
0.190175 -0.1074653 0.67500001 4292251530
0.19228628 -0.1076178 0.67600006 4291133564
0.13446903 -0.10886619 0.671 4279383160
0.1358854 -0.10853465 0.66900003 4279448182
0.13790813 -0.10868978 0.67000002 4280234355
0.1403531 -0.1091693 0.67300004 4280365169
0.14336532 -0.10866833 0.67000002 4287439410
0.14388372 -0.10768808 0.66400003 4289931032
0.14568572 -0.10768094 0.66400003 4290259222
0.14748745 -0.10767379 0.66400003 4290522392
0.14996344 -0.10815308 0.66700006 4289800214
0.15086262 -0.10749733 0.66300005 4287767554
0.15104909 -0.10635529 0.65600002 4292651854
0.15143032 -0.10537551 0.65000004 4292396855
0.15248582 -0.10488217 0.64700001 4292727867
0.15447837 -0.10503728 0.648 4293121598
0.15671723 -0.10535446 0.65000004 4293253178
0.15847911 -0.10534747 0.65000004 4292332337
0.15974769 -0.10501635 0.648 4292596027
0.16125447 -0.10484734 0.64700001 4293187904
0.16351146 -0.10516451 0.64900005 4293055807
0.16679771 -0.10612978 0.65500003 4293580880
0.1703736 -0.10725695 0.66200006 4287254272
0.17372717 -0.108222 0.66800004 4289865249
0.17527363 -0.10805297 0.66700006 4289733410
0.17681444 -0.10788397 0.66600001 4289143581
0.17781326 -0.10739108 0.66300005 4290195239
0.17987929 -0.10754617 0.66400003 4290061853
0.18195061 -0.10770128 0.66500002 4289996574
0.18402717 -0.1078564 0.66600001 4289537051
0.18582995 -0.10784963 0.66600001 4289799456
0.18791439 -0.10800483 0.66700006 4289799454
0.19028848 -0.10832199 0.66900003 4289273883
0.19296044 -0.10880107 0.67200005 4285480532
0.13386077 -0.11019693 0.66800004 4278461292
0.13526897 -0.10985991 0.66600001 4278723691
0.13748933 -0.11018267 0.66800004 4278590814
0.13972029 -0.11050537 0.67000002 4279773032
0.14293019 -0.1101611 0.66800004 4287830822
0.1434432 -0.10916448 0.66200006 4290192149
0.14480095 -0.10882751 0.66000003 4290257682
0.14659183 -0.10882035 0.66000003 4289798671
0.14905691 -0.10930777 0.66300005 4289471248
0.15085542 -0.10930056 0.66300005 4288433168
0.15104195 -0.10813941 0.65600002 4291534394
0.15142328 -0.10714326 0.65000004 4293645893
0.15224312 -0.10647688 0.64600003 4292660272
0.15447134 -0.10679948 0.648 4292594993
0.15646912 -0.10695725 0.64900005 4293318971
0.15798447 -0.10678541 0.648 4293516864
0.1592477 -0.10644882 0.64600003 4292793141
0.16099828 -0.10644184 0.64600003 4292199721
0.16274869 -0.10643488 0.64600003 4293120570
0.16577213 -0.10725168 0.65100002 4294697561
0.16907977 -0.10823313 0.65700001 4290403359
0.17267984 -0.10937923 0.66400003 4288879365
0.17447826 -0.10937218 0.66400003 4290454809
0.17574553 -0.10903576 0.66200006 4289863697
0.17700179 -0.10869939 0.66000003 4289929490
0.17933062 -0.10902187 0.66200006 4289929488
0.18112297 -0.109015 0.66200006 4290192660
0.18346775 -0.10933751 0.66400003 4290126867
0.18470713 -0.10900139 0.66200006 4289798418
0.18678078 -0.10915931 0.66300005 4289930518
0.18857524 -0.10915263 0.66300005 4289274137
0.19123097 -0.10963987 0.66600001 4289214530
0.19419269 -0.11029173 0.67000002 4282656849
0.13345288 -0.11167876 0.66600001 4278923125
0.13505873 -0.11150394 0.66500002 4279118963
0.13686471 -0.11149675 0.66500002 4278985319
0.13929601 -0.11199252 0.66800004 4279772519
0.14132085 -0.11215292 0.66900003 4281015379
0.14270899 -0.11181037 0.66700006 4287306794
0.14321931 -0.11079737 0.66100001 4290784026
0.14457437 -0.11045493 0.65900004 4290586132
0.14614043 -0.11028012 0.65800005 4290455061
0.14860004 -0.11077566 0.66100001 4289405456
0.15062067 -0.110936 0.66200006 4290605356
0.1517255 -0.11042603 0.65900004 4291271474
0.1516491 -0.10907836 0.65100002 4293843273
0.15223606 -0.10823349 0.64600003 4293581625
0.15398754 -0.10822642 0.64600003 4293450557
0.1557388 -0.10821934 0.64600003 4293319483
0.15773363 -0.10837978 0.64700001 4293385276
0.15899417 -0.10803772 0.64500004 4293516864
0.16024365 -0.10769571 0.64300001 4293319483
0.16173403 -0.10752126 0.64200002 4293187391
0.16449195 -0.10818417 0.64600003 4294304591
0.16830073 -0.10951688 0.65400004 4294754157
0.17163256 -0.11051452 0.66000003 4289211149
0.17394571 -0.11084235 0.66200006 4290455061
0.17547305 -0.11066787 0.66100001 4290455061
0.17699485 -0.11049346 0.66000003 4290258196
0.17878196 -0.11048652 0.66000003 4290192403
0.18084247 -0.11064701 0.66100001 4290455575
0.18263198 -0.11064015 0.66100001 4290455575
0.18386336 -0.1102986 0.65900004 4290126869
0.18564719 -0.11029186 0.65900004 4289798930
0.18771531 -0.11045255 0.66000003 4289931034
0.19007583 -0.11078059 0.66200006 4289605414
0.19331658 -0.11161067 0.66700006 4284556871
0.13364607 -0.11366071 0.66700006 4278988918
0.13505155 -0.11331269 0.66500002 4278792567
0.13665169 -0.11313508 0.66400003 4278987377
0.13866319 -0.1132982 0.66500002 4278983517
0.14067984 -0.11346129 0.66600001 4284356913
0.14248773 -0.11345398 0.66600001 4286716455
0.14342876 -0.11276532 0.66200006 4290719004
0.14456715 -0.11224703 0.65900004 4290520853
0.1461332 -0.11206944 0.65800005 4290848283
0.14836797 -0.11240278 0.66000003 4290717465
0.15061338 -0.11273609 0.66200006 4287179783
0.15194848 -0.11238819 0.66000003 4291334972
0.151409 -0.11067816 0.65000004 4292986690
0.15152201 -0.10947912 0.64300001 4293054515
0.15278862 -0.10913152 0.64100003 4293319483
0.15476741 -0.10929468 0.64200002 4293056565
0.15650761 -0.10928762 0.64200002 4293253692
0.15824763 -0.10928056 0.64200002 4292924472
0.15973826 -0.10910332 0.64100003 4292792888
0.16147512 -0.10909631 0.64100003 4293121086
0.16397573 -0.10959989 0.64400005 4293449029
0.16752166 -0.11078411 0.65100002 4293578827
0.17084533 -0.11179808 0.65700001 4286720768
0.17367584 -0.11247161 0.66100001 4289669387
0.17520055 -0.11229439 0.66000003 4290652953
0.17698786 -0.11228736 0.66000003 4289995280
0.17850414 -0.11211027 0.65900004 4290258196
0.180562 -0.11227345 0.66000003 4290192403
0.18262513 -0.11243666 0.66100001 4290324246
0.18385658 -0.11208964 0.65900004 4290258196
0.18507704 -0.11174269 0.65700001 4290389014
0.18685539 -0.11173601 0.65700001 4290323475
0.18920788 -0.1120695 0.65900004 4289472048
0.1921507 -0.11274312 0.66300005 4284296800
0.1954076 -0.11358675 0.66800004 4280559458
0.13303776 -0.11495533 0.66400003 4279183735
0.13443509 -0.11460187 0.66200006 4279250033
0.13602707 -0.1144215 0.66100001 4279708011
0.13823889 -0.11476042 0.66300005 4279113558
0.1402501 -0.11492619 0.66400003 4282913570
0.14226647 -0.11509192 0.66500002 4285733663
0.14298812 -0.11421926 0.66000003 4289471263
0.14434049 -0.11386584 0.65800005 4290257436
0.14568175 -0.11351246 0.65600002 4290717463
0.14813587 -0.11402424 0.65900004 4290586393
0.15015103 -0.11418992 0.66000003 4287308807
0.15171094 -0.11400957 0.65900004 4291595842
0.15116887 -0.11227231 0.64900005 4291801144
0.15104361 -0.11088122 0.64100003 4292988723
0.15206648 -0.11035518 0.63800001 4292332590
0.15403713 -0.11052106 0.63900006 4292069416
0.156013 -0.11068692 0.64000005 4293122106
0.15774761 -0.11067984 0.64000005 4293056058
0.15923284 -0.11049987 0.63900006 4291673901
0.16121621 -0.11066574 0.64000005 4291541546
0.16345948 -0.11100453 0.64200002 4292133938
0.16674264 -0.11203488 0.648 4293777228
0.16979811 -0.11289225 0.65300006 4290416166
0.17288053 -0.11374954 0.65800005 4289931024
0.17466262 -0.11374246 0.65800005 4290324245
0.17617637 -0.11356255 0.65700001 4289601292
0.17795545 -0.11355557 0.65700001 4289929488
0.18000793 -0.11372146 0.65800005 4290455832
0.1820657 -0.11388737 0.65900004 4290061074
0.18384975 -0.11388052 0.65900004 4290192403
0.18478864 -0.11335532 0.65600002 4289929490
0.18656433 -0.1133486 0.65600002 4290258196
0.1883399 -0.11334195 0.65600002 4289406239
0.19098485 -0.11385366 0.65900004 4287574360
0.19393843 -0.11453815 0.66300005 4281673309
0.13283016 -0.11658508 0.66300005 4279578747
0.13422476 -0.11622613 0.66100001 4278590560
0.13581401 -0.11604302 0.66000003 4278260561
0.13781457 -0.11621151 0.66100001 4278916171
0.13960911 -0.11620419 0.66100001 4281997099
0.14161731 -0.11637262 0.66200006 4285012254
0.14276415 -0.11583789 0.65900004 4288683291
0.14389446 -0.11530323 0.65600002 4290388761
0.14567444 -0.11529589 0.65600002 4290388498
0.14790374 -0.11564004 0.65800005 4290191888
0.14991617 -0.1158084 0.65900004 4288488973
0.15170357 -0.11580101 0.65900004 4291396156
0.15139453 -0.11421221 0.65000004 4291142191
0.15150769 -0.11297503 0.64300001 4293909571
0.15205936 -0.1120894 0.63800001 4293450557
0.15378897 -0.11208227 0.63800001 4293451069
0.15551837 -0.11207514 0.63800001 4293385023
0.15724757 -0.11206806 0.63800001 4293450818
0.15897657 -0.11206096 0.63800001 4293582149
0.16095729 -0.11222956 0.63900006 4293252931
0.16319783 -0.11257375 0.64100003 4293384256
0.16622095 -0.11344476 0.64600003 4293318465
0.16979103 -0.1146669 0.65300006 4293909076
0.17261067 -0.11536215 0.65700001 4287897344
0.17465553 -0.11553062 0.65800005 4289800981
0.1759012 -0.11517241 0.65600002 4289734421
0.17767759 -0.11516539 0.65600002 4289536528
0.17945386 -0.11515842 0.65600002 4289602321
0.18150626 -0.11532704 0.65700001 4290127381
0.18328495 -0.11532018 0.65700001 4290061588
0.18450019 -0.11496232 0.65500003 4290061074
0.18598887 -0.1147801 0.65400004 4289864464
0.18775912 -0.11477345 0.65400004 4289668114
0.19039863 -0.11529329 0.65700001 4289868071
0.19305436 -0.11581319 0.66000003 4286458185
0.1340144 -0.11784474 0.66000003 4279052416
0.13560094 -0.11765886 0.65900004 4278921078
0.13739026 -0.11765151 0.65900004 4279442786
0.13939054 -0.11782267 0.66000003 4280161604
0.14118209 -0.11781527 0.66000003 4283701289
0.14254014 -0.11745087 0.65800005 4287832347
0.14366776 -0.11690801 0.65500003 4290585881
0.1450009 -0.1165437 0.65300006 4291044634
0.14722204 -0.11689326 0.65500003 4291045653
0.14922631 -0.11706431 0.65600002 4290455827
0.15146597 -0.1174138 0.65800005 4289740830
0.15138723 -0.11597895 0.65000004 4291205935
0.15150048 -0.1147227 0.64300001 4293843022
0.15181389 -0.11364502 0.63700002 4293121337
0.15329975 -0.11345947 0.63600004 4293187644
0.15526749 -0.11363071 0.63700002 4293253692
0.15699401 -0.11362359 0.63700002 4293253437
0.1587203 -0.11361647 0.63700002 4292990265
0.16019456 -0.11343104 0.63600004 4293450818
0.16217239 -0.11360233 0.63700002 4292991038
0.16518465 -0.11448694 0.64200002 4293187141
0.16900386 -0.11590643 0.65000004 4293841497
0.17234083 -0.11696916 0.65600002 4285079296
0.1746484 -0.11731863 0.65800005 4286324489
0.17616227 -0.11713323 0.65700001 4287504912
0.17767058 -0.1169479 0.65600002 4289537042
0.17889984 -0.11658438 0.65400004 4290126867
0.18067057 -0.11657745 0.65400004 4289930002
0.18272018 -0.11674884 0.65500003 4289995795
0.18393008 -0.11638556 0.65300006 4289995795
0.18541341 -0.11620059 0.65200001 4290258452
0.1871783 -0.11619394 0.65200001 4289864978
0.1895227 -0.11654375 0.65400004 4289931800
0.19217032 -0.11707179 0.65700001 4288557375
0.19542453 -0.11795621 0.66200006 4280231770
0.13538782 -0.11926902 0.65800005 4278986873
0.13675746 -0.11889914 0.65600002 4279641708
0.13874957 -0.119073 0.65700001 4279701835
0.14074686 -0.11924683 0.65800005 4285011742
0.14253272 -0.11923939 0.65800005 4286912793
0.14322171 -0.11832593 0.65300006 4290389534
0.14477147 -0.11813733 0.65200001 4290651674
0.14654036 -0.11812994 0.65200001 4291045400
0.1485365 -0.11830372 0.65300006 4290783511
0.15076798 -0.11865862 0.65500003 4288355843
0.15161277 -0.11792661 0.65100002 4291665212
0.15172882 -0.1166513 0.64400005 4291341865
0.15180671 -0.11537614 0.63700002 4292528435
0.15305158 -0.11500671 0.63500005 4293187644
0.15452911 -0.11481844 0.634 4293122106
0.15624753 -0.11481132 0.634 4293122106
0.15796572 -0.1148042 0.634 4292858934
0.15943189 -0.11461605 0.63300002 4292595509
0.1614016 -0.11479004 0.634 4293384772
0.16389114 -0.11532616 0.63700002 4292923969
0.16821672 -0.11712947 0.64700001 4293909076
0.17180824 -0.11838955 0.65400004 4289756225
0.17490667 -0.11928747 0.65900004 4282975744
0.17615519 -0.11891831 0.65700001 4284880650
0.17739275 -0.11854925 0.65500003 4289011985
0.17807224 -0.11781831 0.65100002 4290127895
0.18011118 -0.11799236 0.65200001 4289930516
0.18215542 -0.11816646 0.65300006 4289995795
0.1839233 -0.11815965 0.65300006 4289995795
0.18483798 -0.11761007 0.65000004 4290062357
0.18602337 -0.11724156 0.648 4289931285
0.18835698 -0.11759683 0.65000004 4290129179
0.19128633 -0.11831395 0.65400004 4286197337
0.19453244 -0.11921197 0.65900004 4281804887
0.13339056 -0.1208809 0.65700001 4279052654
0.13455746 -0.12032159 0.65400004 4278196317
0.13612469 -0.12013024 0.65300006 4278720344
0.13831979 -0.12049075 0.65500003 4279375696
0.14031163 -0.12066728 0.65600002 4283438884
0.14209205 -0.12065982 0.65600002 4285930012
0.14299497 -0.11991668 0.65200001 4289668376
0.14432 -0.11954143 0.65000004 4290454291
0.14608346 -0.11953402 0.65000004 4290585363
0.14807415 -0.11971049 0.65100002 4289995023
0.15030019 -0.12007082 0.65300006 4289275408
0.15137249 -0.11951179 0.65000004 4291859267
0.15148591 -0.1182174 0.64300001 4291340590
0.15156119 -0.11692322 0.63600004 4293843779
0.15280338 -0.11654833 0.634 4292266797
0.15452196 -0.11654114 0.634 4292595760
0.15624037 -0.11653398 0.634 4293450555
0.15770946 -0.11634305 0.63300002 4293516348
0.15917297 -0.11615216 0.63200003 4292858420
0.16063087 -0.11596131 0.63100004 4292265516
0.16336954 -0.11668934 0.63500005 4292726065
0.16716966 -0.11815232 0.64300001 4294304330
0.17153838 -0.11998263 0.65300006 4294040662
0.17641619 -0.12088696 0.65800005 4283176196
0.17711489 -0.12014501 0.65400004 4288488470
0.1780653 -0.1195869 0.65100002 4289142030
0.18010429 -0.11976364 0.65200001 4289405456
0.18214858 -0.11994044 0.65300006 4289733137
0.18363488 -0.11974993 0.65200001 4290061588
0.18454695 -0.11919221 0.64900005 4289666830
0.18544263 -0.11863461 0.64600003 4289405456
0.18806066 -0.11917897 0.64900005 4289339925
0.19069484 -0.11972331 0.65200001 4289212726
0.19364038 -0.12045132 0.65600002 4284494422
0.13297713 -0.12229306 0.65500003 4279973497
0.13413858 -0.12172556 0.65200001 4279052140
0.13570039 -0.12153149 0.65100002 4279379048
0.13789004 -0.12189744 0.65300006 4279179867
0.13987641 -0.12207665 0.65400004 4282717226
0.14165139 -0.12206918 0.65400004 4285405730
0.14298753 -0.12168841 0.65200001 4289273883
0.14475662 -0.12168095 0.65200001 4290455061
0.14607604 -0.12130025 0.65000004 4290913814
0.14783925 -0.12129279 0.65000004 4290520339
0.14960226 -0.12128535 0.65000004 4288751115
0.15136506 -0.12127791 0.65000004 4291001146
0.15194973 -0.12033762 0.64500004 4290878505
0.15179223 -0.11883778 0.63700002 4293909058
0.15279615 -0.11827087 0.634 4293582394
0.15451477 -0.11826365 0.634 4293385276
0.1559868 -0.11806995 0.63300002 4293318969
0.15770234 -0.11806279 0.63300002 4293318969
0.158914 -0.11768265 0.63100004 4293582141
0.16087836 -0.11786206 0.63200003 4293582395
0.16259068 -0.117855 0.63200003 4293515832
0.1656027 -0.11878031 0.63700002 4293449787
0.1699551 -0.12063783 0.64700001 4293910094
0.17710781 -0.12192161 0.65400004 4287964438
0.1775113 -0.12098249 0.64900005 4289930518
0.17954491 -0.12116197 0.65000004 4289930516
0.18158381 -0.12134147 0.65100002 4290127381
0.18334644 -0.12133466 0.65100002 4290126867
0.18425587 -0.12076878 0.648 4290126867
0.18543604 -0.1203894 0.64600003 4289930257
0.18776432 -0.12075552 0.648 4289930518
0.19010343 -0.1211217 0.65000004 4289340960
0.19304359 -0.12186058 0.65400004 4286327620
0.19570746 -0.12241313 0.65700001 4282003549
0.13371974 -0.12311845 0.65000004 4279053176
0.13527611 -0.12292162 0.64900005 4279052919
0.13703796 -0.1229142 0.64900005 4279707492
0.13901347 -0.12309615 0.65000004 4279636543
0.14099415 -0.12327804 0.65100002 4283503909
0.14254145 -0.12308121 0.65000004 4287700246
0.14430512 -0.12307374 0.65000004 4289668891
0.14584385 -0.12287692 0.64900005 4290914330
0.14737692 -0.12268012 0.648 4291044886
0.1495948 -0.12305129 0.65000004 4290719000
0.15135761 -0.12304381 0.65000004 4288687890
0.15217793 -0.12227921 0.64600003 4291009333
0.15178494 -0.12056832 0.63700002 4292198450
0.15254791 -0.11980397 0.63300002 4292858418
0.15377647 -0.11941824 0.63100004 4293253437
0.15573321 -0.1196003 0.63200003 4293319485
0.15719692 -0.11940389 0.63100004 4293253178
0.15865506 -0.11920754 0.63000005 4292464176
0.1603622 -0.11920045 0.63000005 4293253437
0.16181186 -0.11900418 0.62900001 4293319485
0.16429582 -0.11956471 0.63200003 4293186877
0.16863459 -0.12144944 0.64200002 4293646671
0.17682996 -0.12350892 0.65300006 4284685329
0.17723083 -0.12255621 0.648 4289274389
0.17843315 -0.12217104 0.64600003 4289602581
0.18046127 -0.12235329 0.64700001 4290192403
0.1822131 -0.12234648 0.64700001 4290192660
0.18396482 -0.12233976 0.64700001 4290192402
0.18514238 -0.12195496 0.64500004 4290061074
0.18717828 -0.12213746 0.64600003 4290389268
0.18892708 -0.12213097 0.64600003 4290323735
0.19156131 -0.12269169 0.64900005 4290588733
0.19510533 -0.12381956 0.65500003 4285474911
0.1335066 -0.12469234 0.64900005 4279117167
0.13464339 -0.12410855 0.64600003 4278986609
0.13660823 -0.12429325 0.64700001 4279115607
0.13836442 -0.12428579 0.64700001 4279505214
0.14055353 -0.12466252 0.64900005 4281668641
0.1423147 -0.12465502 0.64900005 4287109909
0.14407562 -0.12464753 0.64900005 4289275418
0.14516222 -0.12406387 0.64600003 4290389016
0.14668719 -0.12386436 0.64500004 4290520084
0.14843664 -0.12385692 0.64500004 4289996050
0.15088442 -0.12442552 0.648 4288226058
0.15193494 -0.12384204 0.64500004 4290876978
0.15177763 -0.12229867 0.63700002 4291276327
0.15205872 -0.12113947 0.63100004 4292922940
0.15328187 -0.1207483 0.62900001 4291870764
0.15523319 -0.12093308 0.63000005 4291871017
0.15694065 -0.1209259 0.63000005 4293318463
0.15839611 -0.12072682 0.62900001 4293384256
0.15984601 -0.1205278 0.62800002 4291542052
0.16129033 -0.12032882 0.62700003 4292068145
0.16324897 -0.12051371 0.62800002 4292133677
0.16626355 -0.12146617 0.63300002 4293844556
0.1722241 -0.12452924 0.64900005 4293844556
0.17612989 -0.12354881 0.64400005 4288421392
0.17732143 -0.12315822 0.64200002 4289734421
0.17933881 -0.12334324 0.64300001 4290324760
0.1816431 -0.12372011 0.64500004 4290192660
0.1833895 -0.12371341 0.64500004 4290258196
0.18456171 -0.12332316 0.64300001 4289797645
0.18601277 -0.12312484 0.64200002 4290324760
0.1880433 -0.12331016 0.64300001 4290193176
0.19066946 -0.12387908 0.64600003 4287440957
0.19390753 -0.12483151 0.65100002 4282462564
0.19627094 -0.12520872 0.65300006 4283127690
0.13308775 -0.12606573 0.64700001 4278854509
0.13442756 -0.12566863 0.64500004 4278393959
0.13596739 -0.12546636 0.64400005 4278786128
0.13814312 -0.12584855 0.64600003 4279440705
0.14011289 -0.12603585 0.64700001 4284357146
0.14230718 -0.12641795 0.64900005 4286782742
0.14362414 -0.12602086 0.64700001 4288290841
0.14493005 -0.12562384 0.64500004 4290322968
0.14645231 -0.1254216 0.64400005 4290323475
0.14842919 -0.12560888 0.64500004 4290455832
0.15064411 -0.12599087 0.64700001 4289602835
0.15192749 -0.12559395 0.64500004 4290409258
0.15177029 -0.12402882 0.63700002 4291142443
0.15205146 -0.12285331 0.63100004 4293380936
0.15303098 -0.122262 0.62800002 4293183304
0.1549796 -0.12244948 0.62900001 4293314890
0.15668437 -0.12244229 0.62900001 4293512267
0.15838899 -0.12243515 0.62900001 4293184322
0.16009346 -0.12242802 0.62900001 4293710668
0.16154052 -0.12222631 0.62800002 4293382218
0.16350189 -0.12241388 0.62900001 4293514318
0.16599387 -0.12299071 0.63200003 4294104920
0.17009409 -0.12473506 0.64100003 4293443672
0.17600346 -0.12647219 0.65000004 4283963139
0.17612296 -0.12529778 0.64400005 4288881688
0.17703842 -0.12470722 0.64100003 4290061076
0.1790531 -0.12489494 0.64200002 4289798416
0.18135475 -0.12527725 0.64400005 4290061074
0.18309851 -0.12527055 0.64400005 4290258196
0.1842681 -0.12487489 0.64200002 4290126610
0.18571657 -0.12467387 0.64100003 4289995281
0.18745202 -0.12466744 0.64100003 4289798671
0.19007282 -0.12524451 0.64400005 4289865241
0.19241196 -0.12562716 0.64600003 4287310915
0.19536301 -0.12639877 0.65000004 4281476691
0.133286 -0.12802073 0.648 4279315312
0.13442013 -0.12742062 0.64500004 4278789747
0.13595995 -0.12721559 0.64400005 4279248491
0.13792181 -0.12740566 0.64500004 4278720598
0.14492257 -0.12737566 0.64500004 4290323484
0.14621742 -0.1269732 0.64300001 4290980637
0.14773135 -0.12676828 0.64200002 4290717979
0.15017095 -0.12735315 0.64500004 4290455061
0.15168449 -0.12714824 0.64400005 4288497168
0.15223944 -0.12615366 0.63900006 4291339056
0.1525261 -0.12496179 0.63300002 4290022689
0.15351111 -0.12436232 0.63000005 4289562654
0.15521878 -0.12435508 0.63000005 4290352170
0.15717539 -0.12454525 0.63100004 4289628447
0.15913725 -0.12473542 0.63200003 4289628961
0.16084987 -0.12472825 0.63200003 4289628961
0.16204791 -0.12432643 0.63000005 4289957927
0.16375482 -0.12431937 0.63000005 4290022691
0.16598685 -0.12470697 0.63200003 4290021154
0.16902563 -0.12568653 0.63700002 4287517184
0.17235944 -0.12686332 0.64300001 4288360975
0.17491332 -0.12744816 0.64600003 4289733914
0.17556907 -0.12665205 0.64200002 4289995543
0.17703156 -0.1264479 0.64100003 4290126358
0.17820966 -0.12604658 0.63900006 4290192662
0.18078481 -0.12663159 0.64200002 4290258196
0.18223892 -0.12642767 0.64100003 4290258196
0.18426155 -0.12661831 0.64200002 4290192403
0.18571009 -0.12641455 0.64100003 4290061074
0.18773803 -0.12660533 0.64200002 4290323988
0.18947619 -0.12659898 0.64200002 4289930516
0.19151214 -0.12678988 0.64300001 4289541440
0.19385408 -0.12717807 0.64500004 4280099927
0.19681332 -0.12796064 0.64900005 4284707709
0.13286717 -0.12938011 0.64600003 4279710332
0.13441263 -0.12917234 0.64500004 4279053690
0.13574137 -0.12876433 0.64300001 4279710070
0.13812813 -0.12935759 0.64600003 4279708007
0.14469038 -0.12892707 0.64400005 4289864735
0.14575517 -0.128319 0.64100003 4290651674
0.14795397 -0.12871186 0.64300001 4290980635
0.14969783 -0.12870437 0.64300001 4290456085
0.15144148 -0.12869689 0.64300001 4287899140
0.15199378 -0.12768874 0.63800001 4290876716
0.15275975 -0.12688084 0.634 4290218786
0.1537475 -0.12627317 0.63100004 4289691938
0.15570429 -0.12646602 0.63200003 4289823522
0.15766633 -0.12665886 0.63300002 4289955108
0.15963362 -0.12685172 0.634 4289691936
0.16135171 -0.12684453 0.634 4289955108
0.16306964 -0.12683737 0.634 4289561120
0.16478741 -0.12683024 0.634 4289889315
0.16676773 -0.12702321 0.63500005 4290019620
0.16928393 -0.12761623 0.63800001 4288100608
0.17154825 -0.12800924 0.64000005 4289800214
0.1738233 -0.12840225 0.64200002 4290520347
0.17556214 -0.12839532 0.64200002 4290192151
0.17674853 -0.12798846 0.64000005 4290060563
0.17764512 -0.12738174 0.63700002 4290521114
0.17965175 -0.12757501 0.63800001 4290323989
0.18166369 -0.12776832 0.63900006 4290192403
0.18339399 -0.12776177 0.63900006 4290455061
0.1848345 -0.12755534 0.63800001 4290126096
0.18685439 -0.12774888 0.63900006 4290192660
0.18887965 -0.12794249 0.64000005 4290192922
0.19091026 -0.12813614 0.64100003 4290128935
0.1929463 -0.12832989 0.64200002 4282001752
0.19559424 -0.12892349 0.64500004 4280627557
0.13378 -0.13031493 0.64200002 4278525038
0.13552278 -0.13030747 0.64200002 4278392675
0.13747916 -0.13050292 0.64300001 4278654552
0.13944075 -0.13069835 0.64400005 4279702337
0.14293568 -0.1306833 0.64400005 4286978586
0.14423352 -0.13026994 0.64200002 4289143840
0.1455203 -0.12985663 0.64000005 4290257175
0.14725623 -0.12984915 0.64000005 4290323475
0.14922474 -0.13004455 0.64100003 4290257934
0.15096299 -0.13003708 0.64100003 4289142790
0.15198639 -0.12942107 0.63800001 4291660348
0.15323427 -0.129008 0.63600004 4289819935
0.15471481 -0.12879781 0.63500005 4289950501
0.15618974 -0.12858766 0.634 4289951015
0.15815723 -0.12878321 0.63500005 4289623331
0.15987819 -0.12877595 0.63500005 4289492261
0.16185351 -0.1289715 0.63600004 4289556006
0.16331969 -0.12876154 0.63500005 4289490211
0.16530013 -0.12895718 0.63600004 4289753638
0.16728587 -0.12915282 0.63700002 4290735914
0.16927691 -0.1293485 0.63800001 4287831552
0.17154124 -0.12974694 0.64000005 4289405970
0.17354557 -0.12994267 0.64100003 4290061076
0.17500834 -0.12973304 0.64000005 4290126356
0.17591324 -0.12911807 0.63700002 4289994770
0.17735954 -0.12890862 0.63600004 4290060817
0.17908193 -0.12890194 0.63600004 4290257682
0.18108854 -0.12909801 0.63700002 4290126096
0.18281347 -0.12909147 0.63700002 4290389267
0.18424869 -0.12888238 0.63600004 4290257681
0.18626323 -0.12907866 0.63700002 4289798416
0.18798803 -0.12907238 0.63700002 4289798164
0.19030847 -0.12947144 0.63900006 4289601814
0.19203864 -0.12946533 0.63900006 4284360787
0.19498175 -0.13026972 0.64300001 4280099674
0.13377252 -0.13205811 0.64200002 4279250816
0.13530421 -0.13184492 0.64100003 4278526832
0.13704404 -0.13183743 0.64100003 4279117165
0.13856716 -0.13162427 0.64000005 4279244102
0.14248426 -0.13202053 0.64200002 4286848798
0.14422598 -0.13201299 0.64200002 4288487967
0.14505808 -0.13118301 0.63800001 4290651674
0.14655851 -0.13096996 0.63700002 4290913816
0.1482861 -0.13096249 0.63700002 4290717457
0.15024902 -0.13116065 0.63800001 4290455311
0.15174077 -0.13094765 0.63700002 4289615388
0.15298599 -0.13052915 0.63500005 4288564754
0.15470748 -0.13052179 0.63500005 4288693529
0.1564288 -0.13051447 0.63500005 4288232716
0.158399 -0.1307127 0.63600004 4288104465
0.16012271 -0.13070542 0.63600004 4288237334
0.16184629 -0.1306982 0.63600004 4288105493
0.16356972 -0.13069101 0.63600004 4288565016
0.16529299 -0.13068387 0.63600004 4288366606
0.1672788 -0.13088223 0.63700002 4289608729
0.16900454 -0.13087517 0.63700002 4289538835
0.17126621 -0.13127905 0.63900006 4290193174
0.17299716 -0.13127209 0.63900006 4290126610
0.17445455 -0.13105974 0.63800001 4290455061
0.17563032 -0.1306421 0.63600004 4290520854
0.17735283 -0.13063535 0.63600004 4290323475
0.1790753 -0.13062869 0.63600004 4290257682
0.18108197 -0.13082747 0.63700002 4290389268
0.18252002 -0.13061558 0.63600004 4290389267
0.18424229 -0.13060917 0.63600004 4290455060
0.18567212 -0.13039747 0.63500005 4290126866
0.1876867 -0.13059658 0.63600004 4290061588
0.18970668 -0.13079576 0.63700002 4289864998
0.19173209 -0.13099504 0.63800001 4289407552
0.19467255 -0.13181032 0.64200002 4283379036
0.13334832 -0.13338424 0.64000005 4279315826
0.13466349 -0.13295995 0.63800001 4279054204
0.1361814 -0.13274407 0.63700002 4279447160
0.13812666 -0.13294497 0.63800001 4279246688
0.14029637 -0.13335423 0.64000005 4279570750
0.14399384 -0.13354754 0.64100003 4287438108
0.14459591 -0.13249835 0.63600004 4290455061
0.14563078 -0.13186595 0.63300002 4291044886
0.14758034 -0.13206685 0.634 4291241750
0.14953512 -0.13226774 0.63500005 4291044885
0.15173335 -0.1326769 0.63700002 4290652440
0.15297863 -0.13225296 0.63500005 4290192659
0.15470015 -0.13224562 0.63500005 4290915862
0.15617514 -0.13203003 0.634 4290849296
0.15839171 -0.13243923 0.63600004 4290455052
0.15961196 -0.1320155 0.634 4290192392
0.16133013 -0.13200828 0.634 4289931275
0.16279103 -0.13179292 0.63300002 4290587920
0.16476612 -0.13199399 0.634 4290652690
0.16674653 -0.13219512 0.63500005 4290127120
0.1684669 -0.13218808 0.63500005 4290062357
0.17018718 -0.13218109 0.63500005 4290389267
0.17190734 -0.13217419 0.63500005 4290784026
0.17362744 -0.13216734 0.63500005 4290455061
0.17562354 -0.13236868 0.63600004 4290323475
0.17734614 -0.13236195 0.63600004 4290389268
0.17878716 -0.13214721 0.63500005 4290389268
0.1805069 -0.13214064 0.63500005 4290389267
0.18222658 -0.13213414 0.63500005 4290389521
0.18394624 -0.13212776 0.63500005 4290323728
0.18508108 -0.13170531 0.63300002 4290389268
0.18650016 -0.13149109 0.63200003 4290455575
0.18880719 -0.13190109 0.634 4290389024
0.19112507 -0.13231117 0.63600004 4290458167
0.19406019 -0.13313736 0.64000005 4285608022
0.13313249 -0.13491043 0.63900006 4279381105
0.13423389 -0.13426958 0.63600004 4278788463
0.1355326 -0.13383991 0.634 4279642734
0.13725321 -0.13383247 0.634 4279508571
0.13963126 -0.13445826 0.63700002 4280882226
0.14331241 -0.13465433 0.63800001 4286782237
0.14390641 -0.13359161 0.63300002 4290258969
0.14493322 -0.1329511 0.63000005 4290520086
0.14687462 -0.13315473 0.63100004 4291309600
0.14882128 -0.13335836 0.63200003 4290520853
0.1507732 -0.133562 0.63300002 4290849818
0.15224855 -0.13334365 0.63200003 4290192142
0.15396197 -0.13333634 0.63200003 4290586900
0.15592153 -0.13354002 0.63300002 4290915864
0.15763731 -0.13353275 0.63300002 4290455313
0.15910123 -0.13331456 0.63200003 4290324241
0.16030516 -0.13288553 0.63000005 4290126862
0.16226956 -0.13308932 0.63100004 4290587671
0.16423927 -0.13329315 0.63200003 4290390292
0.16647686 -0.1337079 0.634 4290521621
0.16792931 -0.13349 0.63300002 4290455060
0.16937622 -0.13327219 0.63200003 4290257681
0.17108832 -0.13326533 0.63200003 4290652439
0.17307377 -0.13346936 0.63300002 4290520854
0.17506452 -0.13367346 0.634 4290323475
0.17650296 -0.13345595 0.63300002 4290126096
0.17765437 -0.1330277 0.63100004 4290455061
0.17964762 -0.13323201 0.63200003 4290652439
0.18135928 -0.13322558 0.63200003 4290389267
0.18307088 -0.13321924 0.63200003 4290323474
0.18361299 -0.13236989 0.62800002 4290126096
0.18531367 -0.13236377 0.62800002 4290586393
0.18760997 -0.13277929 0.63000005 4290520861
0.1905181 -0.13361636 0.634 4290325800
0.19284147 -0.134032 0.63600004 4287902540
0.19548158 -0.13465843 0.63900006 4280495446
0.1340154 -0.135782 0.63500005 4279249268
0.13488387 -0.13491927 0.63100004 4278326623
0.13659634 -0.13491184 0.63100004 4279244110
0.13874701 -0.135332 0.63300002 4279899463
0.14308029 -0.13617219 0.63700002 4285274911
0.14389899 -0.13530967 0.63300002 4289210141
0.14492583 -0.134661 0.63000005 4290257689
0.1466345 -0.13465363 0.63000005 4290192149
0.14834298 -0.13464627 0.63000005 4290455061
0.15028948 -0.13485263 0.63100004 4290652440
0.15200035 -0.1348453 0.63100004 4290520853
0.15395465 -0.13505168 0.63200003 4290192402
0.15566793 -0.1350444 0.63200003 4290061327
0.15713203 -0.13482347 0.63100004 4290520337
0.15859058 -0.13460262 0.63000005 4290586130
0.16004357 -0.13438182 0.62900001 4290520853
0.16200534 -0.13458838 0.63000005 4290061073
0.16397235 -0.13479491 0.63100004 4290126866
0.16568212 -0.1347879 0.63100004 4290390038
0.16739181 -0.13478094 0.63100004 4290455060
0.16883336 -0.13456044 0.63000005 4290257681
0.17081079 -0.13476717 0.63100004 4289930257
0.17279358 -0.13497397 0.63200003 4289995281
0.17478171 -0.13518082 0.63300002 4290389268
0.1759387 -0.13474707 0.63100004 4290126867
0.1773663 -0.13452697 0.63000005 4289798930
0.17878842 -0.13430698 0.62900001 4289536528
0.180779 -0.13451414 0.63000005 4289930002
0.1824853 -0.13450785 0.63000005 4290323475
0.1830221 -0.13364768 0.62600005 4290323475
0.18471749 -0.13364162 0.62600005 4289798416
0.18700844 -0.1340626 0.62800002 4289667346
0.18961073 -0.13469714 0.63100004 4289536535
0.19222924 -0.13533171 0.634 4287179068
0.19486405 -0.13596636 0.63700002 4281674070
0.13358586 -0.13707225 0.63300002 4278988411
0.13466269 -0.1364152 0.63000005 4278987383
0.13615596 -0.13619126 0.62900001 4279444068
0.13852036 -0.13683338 0.63200003 4279966805
0.14090085 -0.13747545 0.63500005 4281275699
0.1426236 -0.13746797 0.63500005 4286520346
0.14366424 -0.13681109 0.63200003 4287963671
0.14514849 -0.13658722 0.63100004 4289076500
0.14662713 -0.13636337 0.63000005 4289273618
0.14833562 -0.13635601 0.63000005 4289405456
0.15028213 -0.1365651 0.63100004 4289602835
0.1522339 -0.13677418 0.63200003 4289602321
0.15419093 -0.13698326 0.63300002 4289405455
0.15590698 -0.13697599 0.63300002 4289537041
0.15737382 -0.13675235 0.63200003 4289602834
0.15883513 -0.13652878 0.63100004 4289733906
0.16054532 -0.13652162 0.63100004 4289996050
0.16225538 -0.13651451 0.63100004 4289733392
0.16422516 -0.1367238 0.63200003 4289733137
0.16593771 -0.13671678 0.63200003 4290193688
0.16738486 -0.13649352 0.63100004 4290060816
0.16909447 -0.13648662 0.63100004 4290060816
0.17080401 -0.13647981 0.63100004 4290061073
0.17306025 -0.13690561 0.63300002 4289995795
0.17449893 -0.13668263 0.63200003 4290126610
0.1762109 -0.13667601 0.63200003 4289471249
0.17735982 -0.13623698 0.63000005 4289539611
0.17935051 -0.13644679 0.63100004 4289340177
0.18077269 -0.13622421 0.63000005 4289536788
0.18218942 -0.13600174 0.62900001 4289995283
0.18330835 -0.13556316 0.62700003 4289995283
0.18530162 -0.13577333 0.62800002 4289602328
0.18730029 -0.13598357 0.62900001 4289274389
0.18960491 -0.1364101 0.63100004 4289078041
0.19131395 -0.13640437 0.63100004 4287507005
0.1939407 -0.13704722 0.634 4282395999
0.13336739 -0.13857067 0.63200003 4279250035
0.13444152 -0.13790551 0.62900001 4279448182
0.13636503 -0.13811734 0.63000005 4279708781
0.13851294 -0.13854837 0.63200003 4280823915
0.14560112 -0.13873784 0.63300002 4286978829
0.1470852 -0.13851126 0.63200003 4287241229
0.14879914 -0.13850388 0.63200003 4287306762
0.15098925 -0.13893481 0.634 4286324237
0.15246744 -0.13870834 0.63300002 4286719763
0.1544272 -0.13892013 0.634 4286783499
0.15614597 -0.13891284 0.634 4287111436
0.15933138 -0.1386793 0.63300002 4287177743
0.16104703 -0.13867213 0.63300002 4287177229
0.16250543 -0.13844596 0.63200003 4287112464
0.16447797 -0.13865796 0.63300002 4287046671
0.16593073 -0.13843192 0.63200003 4286980878
0.1676432 -0.13842498 0.63200003 4287111436
0.16962355 -0.13863711 0.63300002 4287111436
0.17133859 -0.1386303 0.63300002 4287046671
0.17332689 -0.13884254 0.634 4287241994
0.17476837 -0.13861687 0.63300002 4287176201
0.17648317 -0.13861029 0.63300002 4286915087
0.17791638 -0.1383848 0.63200003 4286652943
0.17962836 -0.13837838 0.63200003 4286455823
0.18105334 -0.13815311 0.63100004 4286126346
0.18247288 -0.13792795 0.63000005 4286389006
0.18388699 -0.13770291 0.62900001 4286192141
0.18618084 -0.13813473 0.63100004 4286060813
0.18788996 -0.1381288 0.63100004 4285929741
0.18959911 -0.13812299 0.63100004 4285864208
0.19130827 -0.13811728 0.63100004 4283377229
0.19332331 -0.13833058 0.63200003 4280100969
0.13314895 -0.14006351 0.63100004 4278855530
0.13422042 -0.13939023 0.62800002 4278526312
0.13614117 -0.13960476 0.62900001 4279773547
0.13828634 -0.14004125 0.63100004 4279836767
0.14022028 -0.14025573 0.63200003 4279111235
0.14193493 -0.14024831 0.63200003 4284487199
0.1434221 -0.140019 0.63100004 4285733137
0.14536369 -0.14023349 0.63200003 4285601806
0.17790994 -0.14010003 0.63200003 4286062859
0.17962199 -0.14009365 0.63200003 4286128400
0.18104708 -0.1398657 0.63100004 4285733643
0.18246675 -0.13963787 0.63000005 4285666829
0.1841733 -0.13963179 0.63000005 4285536013
0.18676496 -0.14029071 0.63300002 4285469965
0.18818186 -0.1400632 0.63200003 4285208847
0.1895934 -0.13983582 0.63100004 4284946192
0.19069628 -0.13938697 0.62900001 4281670207
0.19270608 -0.13960306 0.63000005 4280101223
0.19472128 -0.13981925 0.63100004 4279118195
0.13442674 -0.14131865 0.62900001 4278660728
0.1363502 -0.14153592 0.63000005 4278853219
0.14147839 -0.14151372 0.63000005 4282979371
0.17563377 -0.14137281 0.63000005 4283439360
0.17762202 -0.14159077 0.63100004 4283241984
0.17904726 -0.14136007 0.63000005 4283571968
0.18075398 -0.14135386 0.63000005 4283834888
0.18246062 -0.14134772 0.63000005 4283373334
0.18445964 -0.14156605 0.63100004 4283307037
0.18616898 -0.14156011 0.63100004 4283307290
0.18758059 -0.14132996 0.63000005 4283110172
0.18898678 -0.14109991 0.62900001 4283177260
0.19069076 -0.14109434 0.62900001 4279574099
0.19208889 -0.14086461 0.62800002 4278590552
0.1940988 -0.14108357 0.62900001 4278856562
0.19611421 -0.14130269 0.63000005 4279974526
0.13569354 -0.14256281 0.62700003 4279316348
0.13887438 -0.14232074 0.62600005 4279510897
0.14102188 -0.14276809 0.62800002 4279246436
0.14249824 -0.14253341 0.62700003 4278786138
0.14442898 -0.14275339 0.62800002 4279378275
0.14589961 -0.14251877 0.62700003 4279706979
0.16000818 -0.14291587 0.62900001 4286156573
0.161713 -0.14290887 0.62900001 4288262714
0.16315795 -0.14267476 0.62800002 4286746657
0.16512239 -0.14289506 0.62900001 4285297170
0.16682695 -0.14288825 0.62900001 4284641044
0.16826345 -0.14265433 0.62800002 4287077431
0.16996513 -0.14264767 0.62800002 4287933490
0.17194012 -0.14286822 0.62900001 4286024470
0.17364433 -0.14286168 0.62900001 4284707853
0.17506978 -0.14262813 0.62800002 4284773648
0.17648976 -0.14239469 0.62700003 4287208493
0.17818844 -0.14238845 0.62700003 4287209007
0.1798871 -0.14238229 0.62700003 4282798848
0.18187536 -0.14260332 0.62800002 4280427567
0.18557304 -0.14281856 0.62900001 4280889190
0.18668163 -0.14235872 0.62700003 4280363618
0.18807986 -0.14212608 0.62600005 4279838816
0.19007896 -0.14234762 0.62700003 4279314020
0.19177768 -0.14234225 0.62700003 4279250286
0.19347644 -0.14233702 0.62700003 4278792314
0.19548653 -0.1425589 0.62800002 4278397041
0.13503696 -0.14357325 0.62400001 4278987124
0.13694938 -0.14379601 0.625 4279250298
0.13842338 -0.14355864 0.62400001 4279249268
0.14056545 -0.14401145 0.62600005 4279642742
0.14226368 -0.14400414 0.62600005 4278458723
0.14373174 -0.14376681 0.625 4279577204
0.14519428 -0.14352953 0.62400001 4279774574
0.14688662 -0.14352231 0.62400001 4279972195
0.14929315 -0.14420509 0.62700003 4285368956
0.15075253 -0.14396791 0.62600005 4285568043
0.15244988 -0.14396074 0.62600005 4287936061
0.15439335 -0.14418358 0.62700003 4288264755
0.15949243 -0.14416246 0.62700003 4288265278
0.16067773 -0.14369568 0.625 4287739441
0.16263147 -0.14391872 0.62600005 4288133431
0.16459057 -0.14414181 0.62700003 4287869492
0.16628975 -0.14413506 0.62700003 4286618929
0.16772094 -0.1438985 0.62600005 4288462154
0.16941725 -0.14389189 0.62600005 4288133431
0.1713869 -0.14411521 0.62700003 4288396090
0.17308579 -0.14410876 0.62700003 4288197691
0.17450589 -0.14387256 0.62600005 4286882091
0.17563906 -0.14340663 0.62400001 4288330296
0.17704552 -0.14317065 0.62300003 4288526908
0.17873347 -0.14316459 0.62300003 4287669857
0.18100055 -0.1436182 0.625 4280364857
0.18327853 -0.14407191 0.62700003 4279312210
0.18438719 -0.14360657 0.625 4279314798
0.18578281 -0.14337116 0.62400001 4279315826
0.18717304 -0.14313591 0.62300003 4279052909
0.18946728 -0.14358999 0.625 4278460770
0.19085482 -0.14335497 0.62400001 4279053170
0.19254558 -0.14334981 0.62400001 4278921588
0.19423641 -0.1433448 0.62400001 4279382906
0.13312252 -0.14504014 0.62300003 4279972467
0.13416408 -0.14433445 0.62 4278392675
0.13584653 -0.14432719 0.62 4278327388
0.13752881 -0.14431995 0.62 4278985318
0.13966002 -0.14477827 0.62200004 4279971699
0.14134739 -0.14477102 0.62200004 4279051111
0.14303462 -0.14476378 0.62200004 4278196056
0.14448905 -0.14452386 0.62100005 4278984288
0.14617328 -0.14451671 0.62100005 4279708262
0.14833355 -0.14497495 0.62300003 4284910930
0.15002294 -0.14496782 0.62300003 4285372717
0.15171219 -0.14496073 0.62300003 4284781080
0.15364756 -0.14518635 0.62400001 4286686251
0.1587224 -0.14516543 0.62400001 4286029080
0.1601567 -0.14492592 0.62300003 4286752552
0.16210508 -0.14515173 0.62400001 4286687020
0.16379629 -0.14514497 0.62400001 4287674419
0.16548744 -0.14513829 0.62400001 4287344958
0.16717848 -0.14513168 0.62400001 4285370915
0.16859885 -0.14489257 0.62300003 4286884914
0.17083374 -0.14535123 0.625 4286949937
0.1725273 -0.14534484 0.625 4287937079
0.17422083 -0.14533855 0.625 4286620707
0.17506996 -0.14463474 0.62200004 4286686246
0.17647113 -0.14439614 0.62100005 4287278896
0.17786682 -0.14415762 0.62 4286753335
0.18012591 -0.14461677 0.62200004 4280498969
0.18210351 -0.14484347 0.62300003 4278392406
0.18379152 -0.14483778 0.62300003 4278920039
0.18518183 -0.14459975 0.62200004 4279052907
0.18686719 -0.14459431 0.62200004 4278789482
0.18855256 -0.14458901 0.62200004 4278855275
0.19023795 -0.14458381 0.62200004 4278263138
0.19192344 -0.14457874 0.62200004 4278986863
0.19360897 -0.14457382 0.62200004 4278856045
0.19655052 -0.14549877 0.62600005 4279316839
0.13311525 -0.14672965 0.62300003 4280037227
0.13437323 -0.14625135 0.62100005 4279445092
0.13562021 -0.14577311 0.61900002 4279642218
0.13752156 -0.14600138 0.62 4279773549
0.13942824 -0.14622967 0.62100005 4280036721
0.14134017 -0.14645791 0.62200004 4279839340
0.14302742 -0.14645071 0.62200004 4279774059
0.14471455 -0.14644353 0.62200004 4279708262
0.14593075 -0.14596552 0.62 4279643491
0.14808834 -0.14642926 0.62200004 4281685822
0.14953426 -0.14618677 0.62100005 4287543129
0.15146163 -0.14641511 0.62200004 4287477311
0.1531481 -0.1464081 0.62200004 4287739708
0.15989284 -0.14638054 0.62200004 4287673913
0.17393586 -0.14679906 0.62400001 4288463421
0.17506386 -0.14632241 0.62200004 4288133950
0.17646512 -0.14608115 0.62100005 4287344181
0.17786093 -0.14583999 0.62 4288330825
0.17983051 -0.14606941 0.62100005 4285695820
0.18151323 -0.1460637 0.62100005 4279577698
0.18319593 -0.14605811 0.62100005 4278986853
0.18487865 -0.14605261 0.62100005 4279446384
0.18626098 -0.14581208 0.62 4279314546
0.18854734 -0.1462772 0.62200004 4279314547
0.18992704 -0.14603692 0.62100005 4279314544
0.19160993 -0.14603195 0.62100005 4279183211
0.19298163 -0.14579196 0.62 4278987114
0.19591786 -0.14672786 0.62400001 4279579504
0.13773617 -0.14792086 0.62100005 4279707475
0.14110576 -0.14790648 0.62100005 4279313230
0.14447474 -0.14789219 0.62100005 4279576149
0.14592364 -0.14764693 0.62 4279773521
0.14784318 -0.14787799 0.62100005 4281618981
0.15820001 -0.14807445 0.62200004 4285237543
0.15988608 -0.14806767 0.62200004 4285040418
0.16157208 -0.14806098 0.62200004 4284843039
0.163258 -0.14805433 0.62200004 4285171497
0.16494386 -0.14804776 0.62200004 4285039911
0.17505781 -0.14801003 0.62200004 4285237031
0.17842883 -0.14799818 0.62200004 4284710703
0.18011436 -0.14799243 0.62200004 4281680672
0.18121532 -0.14751093 0.62 4280099924
0.1834854 -0.14798123 0.62200004 4279771731
0.18487327 -0.14773792 0.62100005 4279379791
0.18655615 -0.14773263 0.62100005 4279314000
0.18823908 -0.14772749 0.62100005 4279510871
0.19022787 -0.14796032 0.62200004 4279116617
0.19160509 -0.14771758 0.62100005 4279380044
0.19328821 -0.14771283 0.62100005 4279707989
