# .PCD v0.7 - Point Cloud Data file format
VERSION 0.7
FIELDS x y z rgba
SIZE 4 4 4 4
TYPE F F F U
COUNT 1 1 1 1
WIDTH 109
HEIGHT 1
VIEWPOINT 0 0 0 1 0 0 0
POINTS 109
DATA ascii
-0.16391136 0.36760309 0.89200002 4293524223
-0.15813071 0.3448559 0.84800005 4293852671
-0.1385126 0.34770355 0.85500002 4293392637
-0.13646199 0.36071956 0.88700002 4294049535
-0.2017473 0.33088601 0.81900007 4293655807
-0.19586286 0.32482103 0.80400002 4293721599
-0.14123306 0.33527955 0.83000004 4293786879
-0.13871796 0.35790539 0.88600004 4293392637
-0.20494473 0.33386752 0.83200002 4293590015
-0.18146554 0.35428959 0.88300002 4293590015
-0.15968345 0.34866944 0.86900002 4293917951
-0.15858795 0.35147846 0.87600005 4293786367
-0.15977255 0.35950357 0.89600003 4293720574
-0.14037852 0.3258014 0.81200004 4293589502
-0.13663945 0.32219109 0.80300003 4293721087
-0.13562843 0.32500061 0.81000006 4293655295
-0.13573247 0.33061898 0.82400006 4293524223
-0.12584887 0.32821649 0.81800002 4282732112
-0.12696202 0.35631016 0.88800007 4282468674
-0.1233717 0.35992515 0.89700001 4282732099
-0.20457588 0.34234676 0.85900003 4293261308
-0.21000731 0.35549513 0.89200002 4293195515
-0.17303878 0.33554783 0.84200007 4293655807
-0.16044638 0.32398972 0.81300002 4293129212
-0.15343618 0.33275804 0.83500004 4293852159
-0.1526143 0.33594683 0.84300005 4293852159
-0.14083095 0.31960934 0.80200005 4293457916
-0.13698077 0.32080698 0.80500007 4293721087
-0.13881098 0.3303726 0.82900006 4293721087
-0.14001653 0.33874282 0.85000002 4293655295
-0.14112943 0.35309267 0.88600004 4293458431
-0.13136207 0.33436355 0.83900005 4292536300
-0.12410439 0.34593004 0.86800003 4282271295
-0.12296113 0.35629621 0.89400005 4282402880
-0.21811317 0.33567989 0.84800005 4292670463
-0.19385575 0.32219368 0.81400001 4293196030
-0.18081076 0.30398354 0.76800001 4292933374
-0.17287949 0.34671399 0.87600005 4293261311
-0.15381493 0.32178017 0.81300002 4293983743
-0.15943655 0.33840421 0.85500002 4293983743
-0.15852608 0.35186422 0.88900006 4293852159
-0.13714437 0.30911916 0.78100002 4293655295
-0.13153677 0.30595523 0.77300006 4293590015
-0.13491888 0.33525121 0.84700006 4292734708
-0.13246785 0.34079638 0.86100006 4293194744
-0.222497 0.33651608 0.85600007 4292275707
-0.20918272 0.32314065 0.82200003 4292801274
-0.19234438 0.32115254 0.81700003 4293261823
-0.17812589 0.31564087 0.80300003 4293261309
-0.1718604 0.33765 0.85900003 4293326845
-0.15141661 0.32389694 0.82400006 4293852158
-0.15859061 0.34433836 0.87600005 4294049023
-0.14557458 0.32586634 0.82900006 4293655295
-0.15023641 0.3415913 0.86900002 4293655295
-0.13216226 0.3376742 0.85900003 4289180857
-0.13164087 0.34239376 0.87100005 4282140745
-0.21859333 0.32832491 0.84100002 4292801019
-0.15939267 0.30681872 0.78600001 4293063673
-0.16525854 0.32243347 0.82600003 4293063419
-0.17130168 0.33882919 0.86800003 4293063419
-0.15968707 0.33922541 0.86900002 4293983743
-0.13759135 0.29667726 0.76000005 4293721599
-0.137674 0.30604917 0.78400004 4293721087
-0.14349566 0.32400793 0.83000004 4293852671
-0.1482164 0.34001514 0.87100005 4293721599
-0.14166257 0.33025786 0.84600002 4293655807
-0.13046744 0.30917957 0.79200006 4292273903
-0.13463312 0.3244065 0.83100003 4292602868
-0.13841401 0.34510151 0.88400006 4292208110
-0.12570253 0.31894791 0.81700003 4282864468
-0.18835567 0.30313894 0.78200006 4293523967
-0.18007645 0.30352068 0.78300005 4291814126
-0.19894519 0.34344548 0.88600004 4291814126
-0.16399631 0.30933365 0.79800004 4292866041
-0.16485919 0.31941375 0.82400006 4292866041
-0.17283572 0.34422493 0.88800007 4293129213
-0.14777564 0.2984845 0.77000004 4293260798
-0.16242389 0.33763951 0.87100005 4293195005
-0.15877494 0.33996901 0.87700003 4293195005
-0.14048553 0.31012374 0.80000001 4293392383
-0.12949367 0.29035521 0.74900001 4293589759
-0.13817851 0.31477973 0.81200004 4293589759
-0.13398737 0.32060158 0.82700002 4292668662
-0.13906717 0.33843693 0.87300003 4292668662
-0.22151667 0.31490171 0.81800002 4293721343
-0.19172597 0.30639866 0.79600006 4293787391
-0.18104163 0.29946631 0.77800006 4291550700
-0.19272456 0.32256055 0.83800006 4291813872
-0.19839968 0.33603197 0.87300003 4291484907
-0.15858302 0.30100745 0.78200006 4292273650
-0.16834365 0.32833934 0.85300004 4292273650
-0.15142134 0.31718504 0.82400006 4290760665
-0.14755222 0.3137227 0.81500006 4290629079
-0.1311803 0.28755099 0.74700004 4291286755
-0.13693003 0.30487558 0.79200006 4291221216
-0.1318844 0.29833382 0.77500004 4291550440
-0.13195485 0.30334052 0.78800005 4291747819
-0.1316251 0.30757743 0.79900002 4292668921
-0.11277989 0.2979719 0.77400005 4282271294
-0.17257853 0.29734895 0.77800006 4292668408
-0.15878698 0.29926547 0.78300005 4292076273
-0.15505801 0.29620922 0.77500004 4291681260
-0.13785575 0.30004907 0.78500003 4291155171
-0.13485771 0.29814041 0.78000003 4290957792
-0.12814294 0.28782257 0.75300002 4291550187
-0.11210881 0.29970011 0.78400004 4282205755
-0.13800044 0.28083226 0.74000001 4290298832
-0.14106181 0.30019432 0.79100001 4290430420
-0.13613784 0.27505672 0.73000002 4290958044
