# .PCD v0.7 - Point Cloud Data file format
VERSION 0.7
FIELDS x y z rgba
SIZE 4 4 4 4
TYPE F F F U
COUNT 1 1 1 1
WIDTH 141
HEIGHT 1
VIEWPOINT 0 0 0 1 0 0 0
POINTS 141
DATA ascii
-0.39792442 -0.1701497 0.59900004 4289571231
-0.38945904 -0.18028729 0.588 4289637023
-0.38866156 -0.19058558 0.57200003 4289703077
-0.4069154 -0.19251329 0.56900001 4289637537
-0.40019101 -0.19235426 0.57000005 4289176987
-0.38864335 -0.19297552 0.56900001 4289373851
-0.3868359 -0.19286662 0.56900001 4289571230
-0.40129215 -0.19693166 0.56300002 4289505951
-0.37550592 -0.19818038 0.56200004 4289440159
-0.40254921 -0.20072782 0.55900002 4289439906
-0.37494558 -0.19944966 0.56100005 4289308573
-0.40197173 -0.20201267 0.55800003 4289570977
-0.40011656 -0.2018702 0.55800003 4289702564
-0.38023475 -0.20434687 0.55500001 4289571231
-0.3784523 -0.20422396 0.55500001 4289702817
-0.37667549 -0.20410308 0.55500001 4289702817
-0.37721086 -0.20510265 0.55300003 4289505184
-0.37679619 -0.20572178 0.55500001 4289505437
-0.37367153 -0.20486028 0.55300003 4289965735
-0.39596358 -0.2113875 0.54800004 4289242526
-0.39268333 -0.21045978 0.546 4289571491
-0.39228708 -0.21107653 0.54800004 4289440159
-0.38142103 -0.21020357 0.54800004 4289439905
-0.3796325 -0.21006638 0.54800004 4289307805
-0.39756846 -0.21379986 0.55000001 4289374366
-0.39283931 -0.21208648 0.546 4289374112
-0.39172491 -0.21231884 0.54700005 4289308573
-0.38847241 -0.21138957 0.54500002 4289374366
-0.3873685 -0.21162672 0.546 4289505951
-0.3812587 -0.2108026 0.54500002 4289439905
-0.38086405 -0.21143498 0.54700005 4289308319
-0.37838346 -0.21090978 0.546 4289373852
-0.39556113 -0.21426809 0.54700005 4289440158
-0.39299759 -0.21371567 0.546 4289242266
-0.38901514 -0.21238424 0.54300004 4289308059
-0.38719907 -0.21222968 0.54300004 4289374112
-0.38070184 -0.21202624 0.54400003 4289439905
-0.379612 -0.21227321 0.54500002 4289571745
-0.39283085 -0.21432616 0.54300004 4289308826
-0.39027783 -0.21376967 0.54200006 4289571231
-0.37778866 -0.21648298 0.53900003 4289374365
-0.37670672 -0.21673487 0.54000002 4289505438
-0.37562454 -0.2169887 0.54100001 4289571230
-0.37794045 -0.21809036 0.53900003 4289374366
-0.37546054 -0.21753442 0.53800005 4289702817
-0.37598994 -0.21847738 0.53600001 4289505437
-0.37953636 -0.22305608 0.53000003 4289374365
-0.37774402 -0.22288515 0.53000003 4289505438
-0.37899348 -0.22423755 0.52900004 4289308572
-0.37791476 -0.22448808 0.53000003 4289571231
-0.37541696 -0.22389431 0.52900004 4289308573
-0.37953073 -0.22516656 0.52700001 4289374365
-0.3791692 -0.22584268 0.52900004 4289571744
-0.37666115 -0.2252406 0.528 4289308572
-0.37416697 -0.22464204 0.52700001 4289571230
-0.33030316 -0.22373261 0.53000003 4289636771
-0.32866311 -0.22362192 0.53000003 4289505185
-0.3680014 -0.22413142 0.51000005 4289702816
-0.36149472 -0.22827026 0.523 4289505691
-0.34678149 -0.22734529 0.52400005 4289768863
-0.36549774 -0.22947766 0.52100003 4289505691
-0.32500061 -0.22799495 0.52600002 4289374366
-0.32113948 -0.22733827 0.52500004 4289506466
-0.323879 -0.22866981 0.52400005 4289637538
-0.3707813 -0.23204124 0.51800001 4289373598
-0.32337645 -0.22977443 0.523 4289505951
-0.37668121 -0.23351792 0.51600003 4289703331
-0.35208336 -0.2271568 0.50600004 4289439645
-0.37542471 -0.23420791 0.514 4289571745
-0.37256891 -0.23425949 0.51500005 4289505698
-0.37078738 -0.23406234 0.51500005 4289374366
-0.37490034 -0.23534764 0.51300001 4289505438
-0.37584046 -0.23740837 0.514 4289637023
-0.36868623 -0.23659205 0.514 4289571492
-0.37751603 -0.23994391 0.51600003 4289571230
-0.37279287 -0.23787263 0.51200002 4289242265
-0.37027949 -0.23720062 0.51100004 4289636770
-0.36217409 -0.23667502 0.51200002 4289637538
-0.36042985 -0.23648655 0.51200002 4289440158
-0.37407202 -0.23921853 0.51100004 4289440158
-0.37373236 -0.23994014 0.51300001 4289703330
-0.37193668 -0.23972897 0.51300001 4289440159
-0.36269757 -0.23752069 0.51000005 4289374365
-0.37103102 -0.23966329 0.509 4289571744
-0.36852047 -0.23898035 0.50800002 4289440158
-0.34806439 -0.2379117 0.51100004 4289505437
-0.34636989 -0.23774166 0.51100004 4289571231
-0.34535596 -0.23803928 0.51200002 4289570977
-0.3436701 -0.23787434 0.51200002 4289702564
-0.34332588 -0.23864056 0.514 4289636771
-0.34098026 -0.23801626 0.51300001 4289636771
-0.35644957 -0.23916021 0.50800002 4289702817
-0.34687406 -0.2385399 0.509 4289505438
-0.3465398 -0.23930472 0.51100004 4289768610
-0.34484857 -0.23913501 0.51100004 4289505184
-0.34316334 -0.23896801 0.51100004 4289702563
-0.34081566 -0.23833635 0.51000005 4289636770
-0.33914521 -0.23817495 0.51000005 4289636771
-0.33317059 -0.23802054 0.51100004 4289439644
-0.31754315 -0.23709431 0.51200002 4289636771
-0.29408017 -0.23666504 0.51500005 4289834402
-0.35767195 -0.24045573 0.50700003 4289571491
-0.35734341 -0.24120915 0.509 4289505952
-0.35421365 -0.24007015 0.50700003 4289702816
-0.34636664 -0.2396307 0.50800002 4289373598
-0.34467658 -0.23945677 0.50800002 4289636770
-0.34366775 -0.23975666 0.509 4289505184
-0.33201745 -0.23863046 0.509 4289768609
-0.32286996 -0.23822816 0.51000005 4289176734
-0.29246676 -0.23678926 0.51200002 4289768609
-0.31594136 -0.23875009 0.509 4289505184
-0.35615239 -0.24374981 0.50400001 4289439644
-0.35371727 -0.24306498 0.50300002 4289571230
-0.35097772 -0.24315466 0.50400001 4289505437
-0.34926659 -0.24296258 0.50400001 4289505691
-0.33647296 -0.24201141 0.505 4289571744
-0.3117789 -0.24059041 0.50700003 4289702817
-0.35047597 -0.24424002 0.50300002 4289505438
-0.34945849 -0.24453075 0.50400001 4289505437
-0.34775087 -0.24433902 0.50400001 4289505952
-0.35720605 -0.24537432 0.5 4289374105
-0.35831046 -0.24712314 0.50400001 4289439898
-0.35514975 -0.24593256 0.50200003 4289505952
-0.34757188 -0.24463755 0.50100005 4289637284
-0.33481276 -0.24365976 0.50200003 4289571231
-0.2957302 -0.241917 0.50600004 4289571744
-0.34267715 -0.24562447 0.50100005 4289308572
-0.34167373 -0.24592747 0.50200003 4289571230
-0.33266464 -0.24454667 0.50100005 4289768356
-0.34049881 -0.24650304 0.5 4289439644
-0.33217269 -0.24560106 0.5 4289571231
-0.3305251 -0.24542913 0.5 4289703331
-0.29479238 -0.24396303 0.50400001 4289505952
-0.33234721 -0.24714689 0.5 4289243549
-0.29587442 -0.24510077 0.50300002 4289636770
-0.2937403 -0.24449392 0.50200003 4289637538
-0.28663385 -0.2444099 0.50300002 4289374366
-0.29481915 -0.24562664 0.50100005 4289636771
-0.29385981 -0.24599555 0.50200003 4289899942
-0.29173332 -0.24538632 0.50100005 4289702816
-0.29435346 -0.24663649 0.5 4289702306
