# .PCD v0.7 - Point Cloud Data file format
VERSION 0.7
FIELDS x y z rgba
SIZE 4 4 4 4
TYPE F F F U
COUNT 1 1 1 1
WIDTH 148
HEIGHT 1
VIEWPOINT 0 0 0 1 0 0 0
POINTS 148
DATA ascii
-0.031312611 0.11197671 0.84200007 4291348166
-0.029007042 0.11197855 0.84200007 4291282371
-0.015171646 0.11198667 0.84200007 4291809484
-0.012850216 0.11185453 0.84100002 4291612103
-0.010546754 0.11185525 0.84100002 4291677384
-0.0082530547 0.11198884 0.84200007 4291611336
-0.005953846 0.11212227 0.84300005 4291348164
-0.0013357663 0.11212273 0.84300005 4291150785
0.00097213127 0.11198974 0.84200007 4291282371
0.0032823344 0.11212261 0.84300005 4291282626
0.010209369 0.11212136 0.84300005 4291019454
0.014827213 0.11211982 0.84300005 4292006349
0.02177934 0.11224944 0.84400004 4291809484
0.024062157 0.11211504 0.84300005 4291677898
0.074903071 0.11218283 0.84400004 4292072142
0.077393264 0.11244419 0.84600002 4291809484
-0.054105446 0.10913088 0.83800006 4292400852
-0.051812235 0.10913402 0.83800006 4292466645
-0.049518831 0.10913701 0.83800006 4292466647
-0.038049262 0.10915006 0.83800006 4292203991
-0.031165745 0.10915628 0.83800006 4292400600
-0.028870992 0.10915808 0.83800006 4292203989
-0.026544416 0.10902949 0.83700001 4292203989
-0.024310144 0.10929154 0.83900005 4292269782
-0.021986119 0.10916269 0.83800006 4292138196
-0.015118512 0.10929631 0.83900005 4292335573
-0.012789878 0.10903662 0.83700001 4292203987
-0.010497232 0.10903732 0.83700001 4292203987
-0.0082143499 0.10916817 0.83800006 4292335061
-0.0059259576 0.10929886 0.83900005 4292203987
-0.0036277408 0.10929915 0.83900005 4292138196
-0.0013279247 0.10916903 0.83800006 4292138196
0.00096872682 0.10929932 0.83900005 4292269266
0.0032708531 0.10942945 0.84000003 4292400852
0.0055718119 0.10942919 0.84000003 4292400852
0.010161547 0.10929797 0.83900005 4292269268
0.012474528 0.10942755 0.84000003 4292269268
0.01477535 0.10942673 0.84000003 4292400854
0.021703247 0.10955368 0.84100002 4292203989
0.024006529 0.1095523 0.84100002 4292072401
0.035521407 0.10954335 0.84100002 4292007124
0.037824016 0.10954116 0.84100002 4292072403
0.054002006 0.10965231 0.84200007 4292269780
0.05630599 0.10964905 0.84200007 4292335573
0.058540162 0.10951544 0.84100002 4292269782
0.074729919 0.10961854 0.84200007 4292072403
-0.067540273 0.10631149 0.83400005 4292138198
-0.06297785 0.10631897 0.83400005 4292203991
-0.058414508 0.10632595 0.83400005 4292203989
-0.051629774 0.10646302 0.83500004 4292335575
-0.049344458 0.10646595 0.83500004 4292335575
-0.037869886 0.10635121 0.83400005 4292269529
-0.028769352 0.10648659 0.83500004 4292269784
-0.026419139 0.10623317 0.83300006 4292138198
-0.024166716 0.10636221 0.83400005 4292269784
-0.021908721 0.10649111 0.83500004 4292203991
-0.015065358 0.10662194 0.83600003 4292203989
-0.012744801 0.10636769 0.83400005 4292203989
-0.010472779 0.10649592 0.83500004 4292138196
-0.0081952382 0.10662402 0.83600003 4292203989
-0.0013264199 0.10675241 0.83700001 4292269782
0.00096532091 0.10662487 0.83600003 4292072403
0.0032554734 0.10662476 0.83600003 4292203989
0.0055522467 0.10675204 0.83700001 4292138196
0.0078451047 0.10675162 0.83700001 4292203989
0.010137932 0.10675108 0.83700001 4292138198
0.012415869 0.10662287 0.83600003 4292203991
0.014705872 0.10662208 0.83600003 4292072405
0.023893777 0.10674503 0.83700001 4292203989
0.026217436 0.10687108 0.83800006 4292138196
0.056108657 0.10696724 0.83900005 4292203987
0.058334745 0.10683644 0.83800006 4292269782
0.060699843 0.10696049 0.83900005 4292006612
-0.049170014 0.10381092 0.83200002 4292203989
-0.028667672 0.10383113 0.83200002 4292072405
-0.026325541 0.10358314 0.83000004 4292203991
-0.024081202 0.10370941 0.83100003 4292203991
-0.015012182 0.10396359 0.83300006 4292138196
0.012386899 0.10408932 0.83400005 4292269784
0.014671558 0.10408854 0.83400005 4292335577
-0.046726175 0.1011746 0.82900006 4292204503
-0.028600411 0.10131377 0.83000004 4292138964
-0.026263621 0.1010712 0.82800007 4292073171
-0.023995651 0.10107264 0.82800007 4292007378
-0.014958983 0.10132126 0.83000004 4292269780
0.012328205 0.10132216 0.83000004 4292138196
0.014602036 0.10132139 0.83000004 4292138196
0.016875813 0.10132048 0.83000004 4292138196
0.014567681 0.098814428 0.82800007 4292269780
0.06989491 0.097778879 0.83900005 4280295707
0.072189674 0.097775109 0.83900005 4280296476
0.074661747 0.098004311 0.84100002 4280493341
0.077327505 0.098466441 0.84500003 4280295962
0.079637885 0.098462328 0.84500003 4280426779
0.081947975 0.098458096 0.84500003 4280360986
0.084158078 0.098337263 0.84400004 4280557851
0.086464852 0.098332845 0.84400004 4280558365
0.088560976 0.098095313 0.84200007 4280426779
0.090969592 0.098207183 0.84300005 4280360986
0.093272723 0.098202467 0.84300005 4280426779
0.095802277 0.098430619 0.84500003 4280295707
0.097878017 0.098192729 0.84300005 4280361755
0.10018017 0.098187707 0.84300005 4280164890
0.10260357 0.098299071 0.84400004 4280099611
-0.033551697 0.095643543 0.84000003 4280361500
-0.030990396 0.094848238 0.83300006 4280493086
-0.02881196 0.095191441 0.83600003 4280361241
-0.026680425 0.095762275 0.84100002 4280492057
-0.024376469 0.095763661 0.84100002 4280492057
-0.022072414 0.095764913 0.84100002 4280492058
-0.019768277 0.095766053 0.84100002 4280360472
-0.017464058 0.095767058 0.84100002 4280426779
-0.015069646 0.095198579 0.83600003 4280229400
-0.012763716 0.09508545 0.83500004 4280295193
-0.010488308 0.095199957 0.83600003 4280295193
-0.0082073798 0.095314346 0.83700001 4280164121
-0.0058997418 0.095086984 0.83500004 4280426779
-0.0036073669 0.094973363 0.83400005 4280295962
-0.0013283835 0.095428996 0.83800006 4280164376
0.0009690614 0.095542885 0.83900005 4280295707
0.069731951 0.09525872 0.83700001 4280295193
0.099947497 0.095657863 0.84100002 4280296215
0.10260868 0.095994085 0.84400004 4280099350
-0.033154041 0.092235781 0.83000004 4280492572
-0.030396765 0.09079279 0.81700003 4280557850
-0.014745972 0.090912297 0.81800002 4279636749
-0.012504529 0.09091302 0.81800002 4279703056
0.00095987291 0.092359722 0.83100003 4280361239
0.10200578 0.093133733 0.83900005 4280296729
-0.033035934 0.089641124 0.82700002 4280427293
0.0009564581 0.089762025 0.82800007 4280492825
-0.039111182 0.085789233 0.81200004 4292072403
-0.032326244 0.074411064 0.80900002 4280821023
-0.027892472 0.074413761 0.80900002 4280623644
-0.025834095 0.074874885 0.81400001 4280492058
-0.023690224 0.075151958 0.81700003 4280558365
-0.021451041 0.075152963 0.81700003 4280492572
-0.019188261 0.075061895 0.81600004 4280492572
-0.016951656 0.075062707 0.81600004 4280558365
-0.014733016 0.075155407 0.81700003 4280558365
-0.012493546 0.075156026 0.81700003 4280624158
-0.010254023 0.07515654 0.81700003 4280952609
-0.0079948409 0.074972965 0.81500006 4280755230
-0.0057536587 0.074881285 0.81400001 4280426265
-0.0035222638 0.074881501 0.81400001 4280557083
-0.0012924396 0.074973606 0.81500006 4280820255
0.00094056106 0.074881613 0.81400001 4280688669
0.0031563852 0.074513555 0.81000006 4280886818
