# .PCD v0.7 - Point Cloud Data file format
VERSION 0.7
FIELDS x y z rgba
SIZE 4 4 4 4
TYPE F F F U
COUNT 1 1 1 1
WIDTH 115
HEIGHT 1
VIEWPOINT 0 0 0 1 0 0 0
POINTS 115
DATA ascii
0.29576939 -0.18194439 0.51000005 4290033841
0.29610959 -0.1812921 0.50800002 4290033587
0.29761252 -0.18135445 0.50800002 4289967794
0.29911828 -0.18141797 0.50800002 4289967794
0.30121872 -0.18183987 0.509 4289967794
0.30273333 -0.18190588 0.509 4290165173
0.30484873 -0.18233059 0.51000005 4290033841
0.30637246 -0.18239912 0.51000005 4290230450
0.28961214 -0.18212968 0.50700003 4290296760
0.28765732 -0.18003237 0.50100005 4289704623
0.30193159 -0.18031462 0.5 4290228650
0.3058604 -0.18182844 0.50400001 4290094491
0.30920666 -0.18298377 0.50700003 4289962132
0.31134847 -0.18341915 0.50800002 4290092176
0.28577524 -0.18375218 0.50800002 4289901748
0.28499976 -0.18236145 0.50400001 4290099127
0.31016737 -0.18247595 0.50100005 4290614407
0.3129341 -0.1832833 0.50300002 4289824637
0.31509137 -0.18372814 0.50400001 4290284164
0.31788671 -0.18453942 0.50600004 4290218371
0.28378704 -0.18476588 0.50700003 4289967795
0.32071936 -0.18514717 0.50300002 4289559403
0.3229126 -0.1856043 0.50400001 4289494123
0.32511613 -0.18606335 0.505 4289364072
0.27348942 -0.18966174 0.51800001 4290033588
0.28124881 -0.18540733 0.505 4290165174
0.32796672 -0.18669176 0.50200003 4289166950
0.33085167 -0.187534 0.50400001 4289035880
0.27003855 -0.19065362 0.51700002 4289968309
0.27257308 -0.19143768 0.51900005 4289968309
0.27353683 -0.19111615 0.51800001 4290034102
0.27449691 -0.19079542 0.51700002 4290033588
0.27705479 -0.19158284 0.51900005 4289968048
0.27908966 -0.19200239 0.52000004 4289968048
0.28113246 -0.19242309 0.52100003 4290099380
0.28101328 -0.19136727 0.51800001 4290165687
0.28196982 -0.1910509 0.51700002 4289968309
0.27872309 -0.1860383 0.50300002 4289902002
0.33147335 -0.18769981 0.5 4289298797
0.33438668 -0.1885553 0.50200003 4289364086
0.26756275 -0.19131544 0.51500005 4289902516
0.27060726 -0.19247624 0.51800001 4289902516
0.27209517 -0.19252349 0.51800001 4289968309
0.27358508 -0.19257168 0.51800001 4289968309
0.27401498 -0.19187713 0.51600003 4290033588
0.27657112 -0.19267093 0.51800001 4289967794
0.27914095 -0.19346611 0.52000004 4289967794
0.28172457 -0.19426268 0.52200001 4290099380
0.35752577 -0.19108102 0.5 4288513647
0.26414427 -0.19229595 0.514 4289770930
0.26561573 -0.19234094 0.514 4289770930
0.2681284 -0.19313541 0.51600003 4289902516
0.26960948 -0.19318239 0.51600003 4289836723
0.27109256 -0.19323032 0.51600003 4289902262
0.27152112 -0.19252999 0.514 4290033848
0.27406484 -0.19332895 0.51600003 4289902002
0.27555412 -0.19337974 0.51600003 4289902001
0.27811936 -0.19418123 0.51800001 4289902001
0.27907899 -0.19385922 0.51700002 4290099380
0.34449887 -0.19152416 0.5 4289168475
0.26514477 -0.19340704 0.51300001 4289968309
0.26713589 -0.19383076 0.514 4289705137
0.26861215 -0.19387838 0.514 4289836723
0.27009043 -0.19392696 0.514 4289836723
0.27104235 -0.19359909 0.51300001 4289968309
0.27305305 -0.19402695 0.514 4289902002
0.27453756 -0.19407842 0.514 4290033588
0.27656126 -0.19450857 0.51500005 4289967794
0.27859288 -0.1949399 0.51600003 4289967794
0.26320684 -0.19442222 0.51200002 4289836723
0.26614383 -0.194516 0.51200002 4289836723
0.26761532 -0.1945643 0.51200002 4289968309
0.26908875 -0.1946135 0.51200002 4289968309
0.27352154 -0.19476701 0.51200002 4289836722
0.27661476 -0.19596168 0.51500005 4289771183
0.27810752 -0.19601616 0.51500005 4290033587
0.27797377 -0.19492948 0.51200002 4289967795
0.28000823 -0.19536653 0.51300001 4290165174
0.26567218 -0.19557382 0.51100004 4290099381
0.26766446 -0.19600569 0.51200002 4289902516
0.26913893 -0.19605578 0.51200002 4290034102
0.27008682 -0.19572382 0.51100004 4289968308
0.27357462 -0.19621192 0.51200002 4289902515
0.27666917 -0.19741599 0.51500005 4289968308
0.27870306 -0.19785482 0.51600003 4289902515
0.26719165 -0.19706258 0.51100004 4289902516
0.26813841 -0.19672772 0.51000005 4289968309
0.26961008 -0.19677949 0.51000005 4289836722
0.27309421 -0.19727202 0.51100004 4289770929
0.2745752 -0.19732688 0.51100004 4290165427
0.27551821 -0.19699651 0.51000005 4289968048
0.26671952 -0.19811505 0.51000005 4289968055
0.26766422 -0.19777814 0.509 4289967795
0.26913401 -0.19783066 0.509 4290165174
0.27557501 -0.1984401 0.51000005 4290099634
0.27705866 -0.19849792 0.51000005 4290165173
0.26520187 -0.19838049 0.50700003 4289835955
0.2666648 -0.19843273 0.50700003 4289836209
0.26812983 -0.19848597 0.50700003 4289836209
0.27455184 -0.19910111 0.50800002 4289967794
0.27711749 -0.19994374 0.51000005 4289967795
0.27205732 -0.19969384 0.50600004 4290165173
0.27569148 -0.20133112 0.51000005 4290033588
0.27826425 -0.20218064 0.51200002 4290295990
0.27757269 -0.20066173 0.50800002 4290098611
0.26864436 -0.20061652 0.505 4290165174
0.27157769 -0.20073149 0.505 4290230967
0.27304772 -0.20079055 0.505 4290099381
0.27560729 -0.20164619 0.50700003 4290230197
0.27708784 -0.20170771 0.50700003 4290032818
0.27256703 -0.20182474 0.50400001 4289967795
0.27403757 -0.20188582 0.50400001 4290296245
0.27605712 -0.20234865 0.505 4290098611
0.27753535 -0.20241207 0.505 4289902002
0.27956855 -0.2028776 0.50600004 4289967795
