# .PCD v0.7 - Point Cloud Data file format
VERSION 0.7
FIELDS x y z rgba
SIZE 4 4 4 4
TYPE F F F U
COUNT 1 1 1 1
WIDTH 119
HEIGHT 1
VIEWPOINT 0 0 0 1 0 0 0
POINTS 119
DATA ascii
-0.53226966 0.053944528 0.87400001 4279241223
-0.53036064 0.053993631 0.87500006 4279701771
-0.53668493 0.051517867 0.87300003 4279241991
-0.53110516 0.051210277 0.86800003 4279175430
-0.52799433 0.051139053 0.86700004 4282925628
-0.51208276 0.046876032 0.83300006 4278978305
-0.52436268 0.04821483 0.85700005 4286083692
-0.52676457 0.048653297 0.86500007 4289636514
-0.5120095 0.044391792 0.82900006 4280225289
-0.52190715 0.045451418 0.84900004 4284172869
-0.53046978 0.04640374 0.86700004 4289635230
-0.5237332 0.043086518 0.84800005 4281278491
-0.5286603 0.040966675 0.85200006 4278190339
-0.49895495 0.035986166 0.79300004 4290630358
-0.51546609 0.034481153 0.80800003 4290036941
-0.51453227 0.034717225 0.81400001 4290102734
-0.51152903 0.034664929 0.81300002 4290759889
-0.51041502 0.034740757 0.81500006 4289574070
-0.52737129 0.036052588 0.84600002 4289574070
-0.49249038 0.030826706 0.77200001 4290563539
-0.511186 0.032135099 0.80500007 4290563539
-0.5071156 0.032156944 0.80600005 4290232514
-0.53169894 0.03386331 0.84900004 4290232514
-0.52860886 0.033814438 0.84800005 4288784034
-0.52739042 0.033885393 0.85000002 4289046178
-0.53063416 0.030800303 0.82800007 4290497750
-0.52451205 0.030707886 0.82600003 4290300367
-0.52786952 0.031173676 0.83900005 4290364101
-0.53106391 0.031499531 0.84800005 4288718758
-0.52552068 0.031445883 0.84700006 4289045662
-0.49529397 0.02685852 0.78000003 4289047726
-0.52082658 0.028365577 0.82400006 4289047726
-0.52786124 0.02887393 0.83900005 4288981930
-0.52365166 0.029022915 0.84400004 4289110941
-0.55304652 0.027365791 0.86300004 4290300626
-0.52966774 0.026549961 0.83800006 4288390310
-0.52116275 0.02658483 0.84000003 4289242527
-0.54417282 0.024809411 0.85700005 4290561480
-0.52234507 0.024232829 0.83800006 4289308319
-0.51970869 0.021266203 0.81100005 4290825166
-0.52317905 0.01900563 0.80900002 4290497745
-0.52852273 0.019281598 0.82100004 4290366159
-0.53251904 0.019510565 0.83100003 4289575613
-0.53237963 0.017152792 0.82700002 4290035387
-0.53186142 0.014681034 0.81500006 4290760917
-0.51815271 0.012121655 0.79400003 4291022282
-0.53074753 0.01246878 0.81700003 4290890437
-0.54109508 0.010251378 0.81800002 4290366160
-0.53033388 0.010131728 0.80900002 4290035905
-0.52532756 0.010078329 0.80500007 4290166714
-0.53778446 0.0079532759 0.81300002 4289970887
-0.56236488 0.0083515095 0.85400003 4289970887
-0.5473749 0.0081629707 0.83500004 4290890698
-0.56170392 0.0059971432 0.85300004 4290167750
-0.54999471 0.0058967406 0.83900005 4290298047
-0.52256656 0.0033839687 0.79000002 4290364354
-0.54655677 0.0035540946 0.83000004 4290364354
-0.51181567 0.0011675007 0.76000005 4288721594
-0.51259756 0.0011789249 0.76800001 4290233543
-0.5156185 0.0011907816 0.77600002 4290166721
-0.52851903 0.001225648 0.79900002 4289640377
-0.53304315 -0.00095958973 0.78800005 4290168785
-0.52026117 -0.00094426959 0.77600002 4289510851
-0.5279488 -0.00096217263 0.79100001 4289247679
-0.53702295 -0.0031794144 0.80100006 4288194223
-0.53262162 -0.0031663564 0.79800004 4289574587
-0.53305131 -0.0096419817 0.78800005 4290824652
-0.54684275 -0.0099318884 0.81200004 4290890445
-0.52625728 -0.0096767051 0.79200006 4289505184
-0.51749617 -0.0096758176 0.79300004 4289308059
-0.53135568 -0.011727248 0.78200006 4290299336
-0.50096929 -0.011772775 0.78900003 4289176733
-0.49929732 -0.01178437 0.79000002 4289308320
-0.55174536 -0.014414862 0.81200004 4289576383
-0.50136787 -0.013887175 0.78600001 4289176987
-0.49779823 -0.013847843 0.78400004 4289176733
-0.49803692 -0.013914567 0.78800005 4289110941
-0.47926101 -0.014290915 0.69600004 4288786090
-0.5052529 -0.015126567 0.73700005 4288852145
-0.49589762 -0.01593635 0.78100002 4289374112
-0.49424887 -0.01595225 0.78200006 4289110940
-0.49385679 -0.016009025 0.78500003 4289308319
-0.50818861 -0.017189685 0.73800004 4289508791
-0.54534155 -0.018595411 0.79900002 4289179826
-0.49653745 -0.018101055 0.78200006 4289111710
-0.49362159 -0.018072801 0.78100002 4289045662
-0.49109876 -0.020110289 0.77700001 4289243041
-0.49009192 -0.020156479 0.77900004 4289243041
-0.55610472 -0.023173964 0.80400002 4288787128
-0.50413924 -0.022251677 0.77600002 4289374113
-0.50120324 -0.022215994 0.77500004 4289374113
-0.48921454 -0.02207458 0.69800001 4288852920
-0.50870138 -0.02304475 0.72900003 4288852920
-0.55023575 -0.025025383 0.79200006 4288721081
-0.53162742 -0.024372816 0.77200001 4288587172
-0.50056374 -0.024312479 0.77400005 4289176734
-0.52023935 -0.025425816 0.73900002 4288787646
-0.49413115 -0.024245059 0.70500004 4288851376
-0.50312936 -0.024784304 0.72100002 4288850347
-0.49566662 -0.026069477 0.70100003 4288786623
-0.51657158 -0.027383253 0.73700005 4288391096
-0.50688821 -0.02875548 0.72000003 4288983992
-0.55233169 -0.031457029 0.78800005 4288918714
-0.55336779 -0.033565905 0.78600001 4288393141
-0.55234629 -0.033636067 0.78800005 4288720820
-0.54573625 -0.033365116 0.78200006 4288652965
-0.54194885 -0.033265259 0.78000003 4288849827
-0.53887182 -0.033208389 0.77900004 4289112224
-0.48452333 -0.032308932 0.76300001 4289439392
-0.50631428 -0.032572642 0.71600002 4288784808
-0.5273338 -0.034058146 0.74900001 4288784808
-0.52683777 -0.03595433 0.74500006 4288719790
-0.52831072 -0.043272067 0.76700002 4289111194
-0.49179342 -0.042138282 0.75000006 4289176733
-0.52626282 -0.045212936 0.76400006 4289242526
-0.49271983 -0.044098049 0.74800003 4289374882
-0.48918498 -0.043965191 0.74600005 4289440159
-0.48762518 -0.044009469 0.74700004 4289637024
-0.48476452 -0.043936227 0.74600005 4289505437
