# .PCD v0.7 - Point Cloud Data file format
VERSION 0.7
FIELDS x y z rgba
SIZE 4 4 4 4
TYPE F F F U
COUNT 1 1 1 1
WIDTH 100
HEIGHT 1
VIEWPOINT 0 0 0 1 0 0 0
POINTS 100
DATA ascii
-0.52674913 0.0917698 0.89400005 4284044366
-0.5283888 0.083539836 0.88400006 4279570694
-0.54066908 0.07980404 0.89600003 4278780672
-0.53869557 0.079874858 0.89700001 4285491038
-0.53763396 0.076918662 0.89100003 4284830798
-0.49672395 0.067288533 0.80400002 4279504649
-0.48824647 0.066434629 0.79400003 4278978048
-0.49023533 0.067003608 0.80100006 4287793795
-0.47839159 0.06296353 0.77800006 4289899685
-0.51653546 0.068287909 0.84400004 4285754726
-0.52080041 0.069161095 0.85500002 4289899685
-0.53986394 0.068650313 0.87800002 4279241991
-0.51345903 0.065584637 0.83900005 4290095781
-0.537839 0.069007367 0.88300002 4290095781
-0.54547715 0.066638477 0.88300002 4283128668
-0.53369838 0.065489843 0.86800003 4283251513
-0.54098195 0.066680513 0.88400006 4289175963
-0.51264411 0.060088471 0.82600003 4288721587
-0.51457357 0.060582008 0.83300006 4288715932
-0.5386011 0.063693173 0.87600005 4288715932
-0.50130975 0.056298949 0.80400002 4289705400
-0.51386988 0.057964195 0.82800007 4288981677
-0.53432536 0.060538739 0.86500007 4288981677
-0.53981507 0.061433058 0.87800002 4288717474
-0.49047908 0.052695855 0.78300005 4289244595
-0.50191861 0.054161839 0.80500007 4289047216
-0.53185236 0.057645287 0.85700005 4289244595
-0.53616327 0.058370143 0.86800003 4288652197
-0.53734082 0.058758814 0.87400001 4289045925
-0.49526364 0.050820857 0.78700006 4290163125
-0.52933776 0.054794677 0.84900004 4289439655
-0.53680235 0.055812627 0.86500007 4289045409
-0.53676641 0.056056295 0.86900002 4288979869
-0.53548217 0.056171183 0.87100005 4289242526
-0.50846481 0.049960699 0.80800003 4289241506
-0.51863843 0.051183283 0.82800007 4289110173
-0.53493464 0.053023491 0.85800004 4289307552
-0.53616762 0.053380258 0.86400002 4289176734
-0.5355171 0.053551849 0.86700004 4289242526
-0.53239465 0.053476665 0.86600006 4289439391
-0.53111786 0.053587031 0.86800003 4289439391
-0.52861565 0.053574201 0.86800003 4289044634
-0.51159763 0.048040103 0.81300002 4289439135
-0.53616285 0.050567091 0.85600007 4289373342
-0.5386616 0.051025987 0.86400002 4289504927
-0.53053737 0.050927743 0.86300004 4289308058
-0.52865767 0.050974283 0.86400002 4289110680
-0.53427958 0.048476219 0.86100006 4289373852
-0.52363878 0.041603316 0.81700003 4289837757
-0.53909302 0.040697418 0.84500003 4288784554
-0.54265243 0.038140956 0.83900005 4289642183
-0.54533184 0.038492676 0.84700006 4289905094
-0.54091936 0.038344681 0.84400004 4289376688
-0.53780538 0.038287856 0.84300005 4288718242
-0.54811805 0.035743248 0.83600003 4289577678
-0.54368228 0.035603218 0.83300006 4289577678
-0.5433889 0.036039084 0.84400004 4289772994
-0.53843242 0.03601744 0.84400004 4288849313
-0.51521927 0.031704124 0.79300004 4289837759
-0.53228176 0.032893106 0.82300001 4288653485
-0.54300785 0.030987861 0.83200002 4290168527
-0.52495492 0.030084264 0.80800003 4288456106
-0.53744584 0.030930841 0.83100003 4288784297
-0.51661676 0.027192835 0.78800005 4289773509
-0.54038757 0.028563768 0.82800007 4290036681
-0.53988844 0.028658008 0.83100003 4288850091
-0.53743649 0.028648958 0.83100003 4289111971
-0.52447516 0.025408138 0.80000001 4290100931
-0.52420813 0.023101157 0.79600006 4289706173
-0.54282349 0.024021778 0.82800007 4289706173
-0.57810825 0.020479457 0.87000006 4290169047
-0.55566865 0.019766359 0.84000003 4289839302
-0.59204841 0.018446183 0.88700002 4289905613
-0.57411444 0.017961465 0.86400002 4290234320
-0.59805143 0.016101446 0.89200002 4291484127
-0.58403265 0.015788836 0.87500006 4289971402
-0.55949008 0.015187959 0.84200007 4290364615
-0.57323915 0.013080012 0.85500002 4291087053
-0.56400359 0.012922332 0.84500003 4289902778
-0.56250763 0.010525796 0.83900005 4281282353
-0.56367594 0.0081998492 0.83700001 4279571733
-0.55512929 0.0081086736 0.82800007 4289242276
-0.55604523 0.0057916804 0.82200003 4279899923
-0.54573786 -0.00099050952 0.81400001 4289702564
-0.56599879 -0.0032704056 0.82200003 4280163092
-0.55498356 -0.0054304418 0.80600005 4286018409
-0.56781673 -0.0077998624 0.82100004 4279241477
-0.56090426 -0.0099433474 0.81100005 4289307805
-0.56547105 -0.012232151 0.81400001 4282136115
-0.55330104 -0.012016656 0.80000001 4289439392
-0.57297951 -0.014499213 0.81400001 4279639061
-0.56836927 -0.014439269 0.81100005 4280228886
-0.56517988 -0.014415089 0.81000006 4279701774
-0.55366713 -0.014177583 0.79700005 4289373599
-0.56066698 -0.016454613 0.80000001 4280557337
-0.54055697 -0.016248886 0.79200006 4289243294
-0.53884095 -0.016262995 0.79300004 4289111963
-0.55995566 -0.01849607 0.79200006 4280032021
-0.56491393 -0.020870185 0.79900002 4279241991
-0.55502558 -0.022676514 0.78500003 4289505185
