# .PCD v0.7 - Point Cloud Data file format
VERSION 0.7
FIELDS x y z rgba
SIZE 4 4 4 4
TYPE F F F U
COUNT 1 1 1 1
WIDTH 963
HEIGHT 1
VIEWPOINT 0 0 0 1 0 0 0
POINTS 963
DATA ascii
0.027190559 0.020723073 0.0099149644 4289669925
0.029087201 0.020770831 0.0097909085 4289277224
0.031400591 0.019320039 0.011015164 4289539108
0.033090942 0.020117292 0.010216979 4289735714
0.0347756 0.020914504 0.0094191693 4290324509
0.036887892 0.020213371 0.0099689793 4290193438
0.039005347 0.019512488 0.010518465 4290716953
0.041350037 0.018062858 0.011740874 4289408293
0.043255769 0.018111287 0.011616554 4289277479
0.045616254 0.016662134 0.012838064 4289866019
0.047296643 0.017459584 0.012040792 4289342503
0.04897134 0.018256908 0.011243979 4289342759
0.050169066 0.020551326 0.0091029163 4289473574
0.052065328 0.020599781 0.0089794118 4289669668
0.054443508 0.019151358 0.010199903 4289865763
0.058538795 0.012464439 0.016122391 4289538089
-0.0034106523 0.010119019 0.018339658 4286920004
-0.0030751824 0.017693141 0.011455344 4288426033
-0.0021455437 0.022255542 0.0072767437 4289669413
-0.0004241541 0.023054378 0.006477125 4289539364
0.0014592335 0.02310068 0.0063531008 4289277734
0.0035127997 0.022394644 0.0069041289 4289604899
0.0055715963 0.021688854 0.0074548963 4290324509
0.0076356307 0.020983225 0.0080054197 4289473828
0.0095263571 0.021030074 0.0078811869 4289211944
0.01123561 0.021829197 0.0070827287 4289408038
0.013123162 0.021876132 0.0069588255 4289735458
0.014637128 0.023427168 0.0054871924 4289866529
0.016708203 0.022722187 0.0060375296 4289800994
0.01840023 0.023521176 0.0052405 4289800993
0.020671114 0.022064665 0.0064639933 4290520093
0.022755094 0.021360187 0.0070136953 4290454813
0.02464398 0.021407651 0.0068900753 4289538853
0.026735619 0.02070356 0.0074393451 4289538853
0.028832451 0.019999666 0.0079883263 4289538853
0.030934468 0.019295989 0.0085370298 4289669923
0.03240823 0.020846689 0.0070685297 4289604643
0.03408473 0.021645868 0.0062729474 4290782233
0.035755545 0.022444991 0.0054777246 4290651418
0.038297869 0.020239187 0.007370092 4290716953
0.040412217 0.019536132 0.00791822 4290193438
0.042756483 0.018082174 0.0091375243 4289146408
0.044883862 0.017379565 0.0096848849 4289080873
0.046786278 0.01742805 0.0095608849 4289146408
0.048455581 0.018227441 0.0087660663 4289473574
0.049648009 0.020528341 0.0066302009 4289931554
0.051538795 0.020576684 0.0065070763 4290716444
0.053911343 0.019123746 0.0077247526 4290585629
0.057513073 0.013918279 0.012292661 4290650909
-0.0034413785 0.017677916 0.0089753792 4288557103
-0.002354756 0.021498436 0.0054807998 4289735203
-0.00063611567 0.022299407 0.0046830066 4290062369
0.0014120117 0.021590995 0.0052327197 4290062369
0.0032950938 0.021637408 0.0051088072 4289604899
0.0053509846 0.020929376 0.0056581497 4289800993
0.0070606396 0.021730503 0.0048612263 4290258974
0.0091215447 0.021022769 0.0054103695 4289343013
0.010825321 0.021823922 0.004613962 4289277734
0.012707345 0.021870745 0.0044904388 4289866273
0.014215901 0.023426035 0.0030224323 4290586139
0.01609204 0.0234729 0.0028994307 4289670178
0.017967932 0.023519823 0.0027765008 4289146919
0.020233147 0.022058832 0.0039971415 4289081384
0.022311531 0.021352092 0.0045455508 4289539109
0.024395093 0.020645583 0.0050937012 4289408038
0.026483856 0.019939227 0.005641602 4289146408
0.028577812 0.019233117 0.0061891731 4289342759
0.030468605 0.019280853 0.0060655922 4289604643
0.031936988 0.020835871 0.004600687 4290651418
0.033608049 0.021637091 0.003807079 4289146663
0.035489939 0.02168482 0.003684245 4289277734
0.037810035 0.020225791 0.0049017966 4290128159
0.039918825 0.019520437 0.0054486878 4289670178
0.042032778 0.018815277 0.0059952848 4289277224
0.044379264 0.017357098 0.0072112493 4289146408
0.046046093 0.018158635 0.0064181611 4289408038
0.047707252 0.018960016 0.0056255087 4289866019
0.049127236 0.020514263 0.0041641761 4289539109
0.051488966 0.019056706 0.0053792484 4289931298
0.053620383 0.018352313 0.0059249438 4289735203
0.056975245 0.01388423 0.009813197 4290389279
0.062333211 0.0033955332 0.0190465 4290323488
-0.0036479682 0.016914586 0.0071745738 4288818988
-0.0027259067 0.021502944 0.0030160248 4289996579
-0.0010127723 0.022306031 0.0022201892 4290520093
0.0010297447 0.021595294 0.0027687205 4290389278
0.003077507 0.020884803 0.0033169184 4289997344
0.0051304847 0.020174539 0.0038648453 4290716954
0.0068373755 0.020977782 0.0030697286 4290062623
0.0085386187 0.021780977 0.0022750581 4289408549
0.010415308 0.02182761 0.0021518422 4289604643
0.012107939 0.02263082 0.0013578292 4289735458
0.013981476 0.022677546 0.0012349505 4290455323
0.015854791 0.022724343 0.0011121444 4290847768
0.017727882 0.022771219 0.00098941103 4290062623
0.019795448 0.022061946 0.0015369272 4290651418
0.021868214 0.021352941 0.002084123 4290913304
0.023946188 0.020644119 0.0026310217 4289931554
0.02623222 0.019179543 0.0038472358 4289538853
0.027912155 0.01998301 0.0030545555 4289473318
0.029794708 0.02003056 0.0029315315 4289996834
0.031255007 0.021589702 0.0014704503 4290716444
0.033131629 0.021637248 0.0013479255 4290193184
0.034791589 0.022440458 0.00055673439 4289473574
0.037103318 0.020976925 0.0017715618 4289211944
0.039203793 0.020269224 0.0023174034 4290127648
0.041534059 0.018806251 0.0035311617 4289473574
0.043647617 0.018098978 0.0040762164 4289277223
0.045306325 0.018902445 0.0032853261 4289211944
0.047192067 0.018950632 0.003162507 4289931554
0.049077585 0.018998848 0.003039727 4290520093
0.05072467 0.019802222 0.0022496711 4289408038
0.05308871 0.018340403 0.0034614503 4288884778
0.055950493 0.015369026 0.0060064439 4288950313
0.061050266 0.0056043938 0.014551049 4289211944
-0.0040241107 0.007757239 0.012883188 4287246403
-0.0036951527 0.015396653 0.0060480479 4288491058
-0.0027728081 0.01999812 0.001899234 4289210923
-0.0010597259 0.020803401 0.0011050422 4289538854
0.00081515312 0.020849561 0.00098162703 4289342758
0.0026898608 0.020895803 0.00085829012 4289539109
0.0047372282 0.020183215 0.0014050314 4289866529
0.0064386204 0.020988571 0.00061187707 4289474084
0.0081343874 0.021793822 -0.00018080231 4289277734
0.010186575 0.021081651 0.00036576949 4289343013
0.012243994 0.020369643 0.00091210101 4289670434
0.014120139 0.020416455 0.00078906585 4289539620
0.015806869 0.021221878 -2.8070062e-06 4289866528
0.017487951 0.022027181 -0.00079421047 4290716953
0.019552618 0.021315748 -0.00024814159 4290847769
0.021819882 0.019846162 0.00096599571 4290520603
0.023897678 0.019135194 0.001511313 4289800739
0.025777899 0.019182576 0.0013883598 4289866018
0.027246885 0.020746173 -7.0131384e-05 4289735204
0.029121198 0.020793544 -0.0001926003 4289669668
0.030995294 0.020840975 -0.00031499844 4289538853
0.032869115 0.020888479 -0.0004373258 4290193184
0.034742728 0.020936022 -0.00055960286 4290651164
0.036616072 0.020983616 -0.0006818166 4290650908
0.038932778 0.019515948 0.00052951463 4290258463
0.041035607 0.018806191 0.0010736221 4289408038
0.043143585 0.018096631 0.0016174428 4289342759
0.044796877 0.018902177 0.00082855579 4289342759
0.04667715 0.018950226 0.00070609432 4289408038
0.048321806 0.019755637 -8.2165003e-05 4290520093
0.049960792 0.020560963 -0.00087001547 4290585629
0.052075669 0.019851817 -0.00032646582 4290062369
0.054926276 0.016871458 0.0022127815 4290062368
0.059521809 0.0085923802 0.0094067622 4290127904
-0.0035831407 0.013117595 0.0055909473 4288294199
-0.0024958774 0.016970875 0.0021207221 4288949040
-0.0011066943 0.01930104 -9.9092722e-06 4288818989
0.00076808035 0.019347219 -0.00013329647 4288885034
0.0026426539 0.019393483 -0.00025661103 4288623148
0.0046898574 0.018678704 0.00028851535 4288688938
0.006566748 0.018725218 0.00016519707 4288754218
0.0082651749 0.019532779 -0.0006260667 4288885289
0.010319926 0.018818462 -8.1229024e-05 4288819753
0.012379885 0.01810441 0.00046328828 4289016104
0.014445052 0.017390585 0.0010075364 4289016104
0.016137198 0.018198291 0.00021698698 4288950569
0.017823681 0.019005934 -0.00057313871 4288950569
0.019699067 0.019052984 -0.00069592614 4289015848
0.021968789 0.017579185 0.00051479414 4289146919
0.023849145 0.017626511 0.00039178506 4289342759
0.025729299 0.017673912 0.0002688542 4289211944
0.027198344 0.019241894 -0.001186383 4289342759
0.02928073 0.018529093 -0.00064281933 4289211944
0.030946568 0.019336732 -0.0014312016 4289211944
0.032820322 0.019384244 -0.001553514 4289408295
0.034261249 0.020951824 -0.0030067572 4289669668
0.036348119 0.020239389 -0.0024633016 4289931298
0.038661897 0.018767266 -0.0012549646 4289800483
0.040761851 0.018055281 -0.00071227551 4289146409
0.042185523 0.019622618 -0.0021641729 4289146408
0.044287719 0.018910797 -0.0016215444 4289211944
0.046162494 0.018958723 -0.0017436333 4289473574
0.048272319 0.018247204 -0.0012014247 4289277223
0.049435318 0.020573629 -0.0033158045 4289800483
0.051785395 0.019102762 -0.0021095909 4289996833
0.054146081 0.01763227 -0.00090405811 4290062369
0.058240339 0.010847455 0.0049456041 4289473064
0.063876301 -0.00049102865 0.014772305 4289342249
-0.0033121407 0.01007078 0.0057984348 4288361008
-0.002219215 0.013935165 0.0023359219 4288950824
-0.00065992028 0.015508508 0.00087708794 4289081384
0.0010555983 0.016318304 8.6124986e-05 4289081383
0.0029355064 0.016364707 -3.7528574e-05 4289146919
0.0049879402 0.015647953 0.00050560944 4289016104
0.0068701729 0.015694598 0.00038193911 4289081383
0.0087521896 0.015741339 0.00025835633 4289146919
0.010634005 0.015788158 0.00013484992 4289016104
0.012699232 0.015072079 0.00067741703 4289147429
0.014583334 0.01511913 0.00055388827 4289147174
0.016278155 0.015929108 -0.00023519434 4289212453
0.018159114 0.015976226 -0.00035840459 4289147174
0.020039842 0.01602344 -0.00048152544 4289016359
0.022117555 0.015308062 6.0510822e-05 4289147174
0.02400054 0.015355492 -6.2639825e-05 4289015848
0.025883317 0.015402967 -0.00018574018 4289146664
0.027560487 0.016212968 -0.00097331963 4289212199
0.029440068 0.016260499 -0.0010961071 4289015849
0.03131941 0.016308108 -0.0012188144 4288754219
0.033198521 0.016355777 -0.0013414659 4288819498
0.034644961 0.01792782 -0.0027917745 4288427053
0.036518164 0.017975451 -0.0029139435 4288688683
0.038612783 0.017261138 -0.0023725405 4288623404
0.040712602 0.016546981 -0.0018314533 4288492333
0.04236345 0.017356804 -0.0026169531 4288557869
0.04400862 0.018166514 -0.0034020497 4288688684
0.046113126 0.017452663 -0.0028611384 4288819499
0.047987618 0.017500652 -0.0029831566 4289015594
0.05009979 0.016787073 -0.0024426766 4288819498
0.052217141 0.016073668 -0.0019025067 4288819499
0.054339692 0.015360447 -0.0013626441 4288819499
0.057451725 0.0116017 0.0018246481 4288753709
0.062829658 0.0009916611 0.0109659 4288426033
-0.0032005087 0.007781351 0.0053336434 4288688939
-0.0019428357 0.010890963 0.0025448976 4288950823
-0.00037809461 0.012468861 0.0010889219 4288820009
0.0015100464 0.012515401 0.00096467603 4289016359
0.0033980012 0.012562035 0.0008405121 4288950824
0.0052857548 0.012608735 0.00071641896 4288820009
0.0073487088 0.011890123 0.0012573637 4289015848
0.0092387721 0.011937091 0.0011332706 4288950569
0.01130949 0.011218889 0.0016737944 4289081638
0.013018303 0.012031248 0.00088530779 4289081638
0.014907748 0.01207844 0.0007614363 4288950824
0.016985953 0.011360692 0.0013016677 4288950824
0.01887767 0.0114081 0.0011777682 4288820009
0.020574741 0.012220496 0.00039029494 4289016359
0.022463314 0.012267994 0.00026672333 4288885289
0.024351642 0.012315566 0.00014322996 4288754474
0.026442334 0.011598514 0.00068293046 4289016104
0.028332934 0.011646273 0.00055938121 4288950569
0.030223288 0.011694105 0.00043591205 4289081383
0.031691961 0.013271017 -0.0010127155 4289016104
0.033576429 0.013318835 -0.0011356967 4288819753
0.03524451 0.014131041 -0.0019208742 4288558379
0.037344657 0.013414631 -0.0013814913 4288950569
0.039006837 0.014226811 -0.0021661893 4288885289
0.040887639 0.01427477 -0.0022887588 4289081384
0.042541198 0.015086865 -0.0030727927 4289277478
0.044418804 0.015134854 -0.0031950716 4289408293
0.046296187 0.015182877 -0.0033173105 4289473829
0.048643619 0.013703248 -0.0021174746 4289212199
0.050763831 0.012987664 -0.0015790956 4289081128
0.053129762 0.011508578 -0.00038040895 4289146664
0.05477646 0.01232077 -0.0011637947 4288950313
0.057893515 0.0085513145 0.0020150272 4288950060
0.062778398 -0.00056205317 0.0098130647 4288819498
-0.0043715015 0.0023689624 0.0076497514 4287051329
-0.0032480136 0.006255772 0.0042014476 4288492589
-0.0018284768 0.008606229 0.002083377 4288884778
6.7904592e-05 0.0086528938 0.0019585295 4288820009
0.0019640997 0.0086996276 0.001833749 4288688939
0.0038600937 0.008746475 0.001709071 4288623659
0.0055832863 0.009561019 0.00092100073 4288754473
0.0074761659 0.0096079651 0.00079665612 4288820009
0.0093688443 0.0096550006 0.0006723972 4288951079
0.011622868 0.0081672836 0.0018740725 4288558634
0.013520554 0.0082146358 0.0017496273 4288623658
0.015231848 0.0090293195 0.00096266437 4288689449
0.017315328 0.0083095301 0.0015009278 4288493098
0.019404039 0.0075899158 0.0020389585 4288493098
0.021303594 0.0076376311 0.0019146279 4288558634
0.023202926 0.0076854136 0.0017903643 4288493098
0.025102027 0.0077332761 0.0016661799 4288623914
0.027203426 0.0070143268 0.0022035632 4288754729
0.029104806 0.0070623849 0.0020793322 4288689193
0.030590057 0.0086440034 0.00063281693 4288689193
0.032064237 0.010225369 -0.00081288349 4288558123
0.034167416 0.0095067453 -0.00027540699 4288492843
0.036059722 0.0095548499 -0.00039883982 4288623914
0.037732974 0.010369448 -0.0011826651 4288623658
0.039622113 0.010417568 -0.0013058214 4288754473
0.041510977 0.010465762 -0.0014288975 4288623658
0.043626562 0.0097477529 -0.00089200679 4288885289
0.045058392 0.011328442 -0.002334645 4288950568
0.047176197 0.010610601 -0.0017978167 4288819753
0.049064137 0.010658966 -0.0019206861 4288623659
0.051427409 0.0091754254 -0.00072509795 4288558379
0.053320304 0.0092240106 -0.00084822252 4288820009
0.055456176 0.0085067376 -0.00031241309 4288623404
0.058580935 0.0047266297 0.0028578229 4287968563
0.063721672 -0.0051783174 0.0112944 4287968563
-0.0045754611 0.0016029477 0.0058467314 4287510583
-0.0034544766 0.0055005699 0.0024066884 4288426034
-0.0017142594 0.006317392 0.0016188119 4288818988
0.0001847297 0.0063641295 0.0014937967 4288754219
0.0022506192 0.0056409705 0.0020311065 4288819754
0.0038122982 0.0072277412 0.00058199558 4288688939
0.0055354461 0.0080444701 -0.00020444114 4288820009
0.007428214 0.0080914255 -0.00032876898 4289016103
0.0094987676 0.0073688123 0.00020848215 4288623913
0.01175525 0.0058767758 0.0014068065 4288427563
0.013472147 0.0066937599 0.00062100962 4288885544
0.015369534 0.0067411754 0.00049663708 4288558634
0.017266713 0.0067886952 0.00037236046 4288623658
0.019355252 0.0060669035 0.00090878177 4288558123
0.021254703 0.00611463 0.00078446604 4288623658
0.023547955 0.0046240613 0.0019807145 4288623913
0.025652111 0.0039029382 0.0025162473 4288754728
0.027559072 0.0039510839 0.0023916122 4288820008
0.029260628 0.0047682747 0.0016073361 4288754729
0.030956537 0.0055853762 0.00082346797 4288623914
0.032646798 0.0064024013 4.0016137e-05 4288492844
0.034331366 0.0072194021 -0.0007430464 4288427308
0.036442325 0.0064988397 -0.0002075946 4288362029
0.038339749 0.0065471306 -0.00033131894 4288492843
0.040236935 0.0065954886 -0.00045497436 4288558379
0.042133898 0.0066438876 -0.00057857763 4288623658
0.044030607 0.0066923406 -0.00070212036 4288558379
0.045697503 0.0075092353 -0.0014837757 4288820009
0.047591023 0.0075577125 -0.0016070325 4288558123
0.049719356 0.0068379585 -0.0010724412 4288492844
0.051852852 0.0061184224 -0.00053819548 4288362029
0.053751111 0.0061671622 -0.00066165812 4288427564
0.055892289 0.0054479204 -0.00012783986 4288623659
0.059513748 0.00012117997 0.0043480899 4288230449
-0.0049354285 0.0016139466 0.0033857711 4287707189
-0.0035019368 0.0039776955 0.0012765024 4288753708
-0.0016001761 0.0040244069 0.0011512376 4288623403
0.00030141324 0.0040712263 0.0010260679 4288689449
0.002202794 0.0041181222 0.00090097077 4288754984
0.0037645027 0.0057092458 -0.00054489914 4288624169
0.005660072 0.0057561789 -0.00066947844 4288624169
0.007730633 0.0050313175 -0.00013390183 4288689449
0.0098064467 0.0043066218 0.00040142704 4288624169
0.011887483 0.0035821963 0.00093644671 4288493353
0.01360707 0.004401397 0.00015214644 4288297259
0.015321009 0.0052205604 -0.00063177571 4288362538
0.017029285 0.0060396492 -0.0014152071 4288427563
0.019114941 0.0053156633 -0.00088024978 4288362284
0.021205813 0.0045918543 -0.00034552347 4288362284
0.023498811 0.0030969512 0.00084751751 4288623914
0.025602832 0.0023736637 0.0013814466 4288493099
0.027509674 0.0024218187 0.0012568291 4288558123
0.029211231 0.0032411832 0.00047417264 4288427308
0.031322718 0.0025183149 0.001007786 4288427308
0.033018403 0.0033376589 0.00022560824 4288427053
0.034921624 0.0033859834 0.00010141917 4288296239
0.037040561 0.0026635174 0.00063470751 4288296239
0.038727395 0.0034828316 -0.00014674943 4288427308
0.040851317 0.0027605742 0.00038627349 4288558123
0.042756356 0.0028092023 0.00026216079 4288623914
0.044434346 0.0036284588 -0.00051859207 4288492843
0.046106696 0.0044476409 -0.0012989296 4288231213
0.048005588 0.0044962503 -0.0014225394 4288362028
0.050139189 0.0037745219 -0.00088993832 4288427564
0.052040339 0.0038233008 -0.0010136105 4288100398
0.054181635 0.0031018388 -0.00048145931 4288492844
0.056571171 0.0016103368 0.00070606545 4288492079
0.060200244 -0.0037314408 0.0051701572 4288426033
-0.0038670152 0.0040040817 -0.0011725659 4288429349
-0.0019708052 0.0040506721 -0.0012974543 4288364068
-7.4796379e-05 0.0040973648 -0.0014222506 4288690723
0.0019880012 0.0033698548 -0.00088799279 4288625699
0.0037166849 0.0041910019 -0.0016716085 4288298023
0.0056121424 0.0042379443 -0.0017961711 4288428838
0.0076825172 0.0035109147 -0.0012621945 4288428583
0.0095803067 0.0035581142 -0.0013867626 4288559653
0.011297353 0.0043793358 -0.0021693399 4288298024
0.013008736 0.0052005127 -0.0029514777 4288494119
0.015086465 0.0044740196 -0.0024177199 4288493864
0.016792014 0.0052951965 -0.0031993641 4288624679
0.018874779 0.004568994 -0.0026658149 4288689448
0.020768605 0.0046165846 -0.0027897591 4288427819
0.023252815 0.0023436006 -0.00094253477 4288297004
0.025353946 0.0016180724 -0.00041002873 4288362284
0.027662598 0.00011936948 0.00077886879 4288362284
0.029776871 -0.0006057322 0.0013106577 4288492589
0.03210409 -0.0021038279 0.002498446 4288164913
0.034021035 -0.0020552073 0.0023733219 4288295728
0.035937756 -0.0020065103 0.0022482779 4288230449
0.037638396 -0.0011847094 0.0014675073 4288099378
0.039551951 -0.0011359882 0.0013427474 4288492079
0.041243985 -0.00031429902 0.00056262128 4288361774
0.043154389 -0.00026554056 0.00043815561 4288296238
0.044837795 0.00055611134 -0.00034134835 4288230959
0.046515577 0.00137759 -0.0011204313 4288231214
0.048187688 0.0021990016 -0.0018990869 4288427308
0.050323866 0.0014751647 -0.0013682712 4288231214
0.05246526 0.00075150281 -0.00083776377 4288100399
0.054611862 2.7971342e-05 -0.00030752271 4288165168
0.05724965 -0.0022400711 0.0015303828 4288099378
0.061131999 -0.0083692279 0.0066365059 4288098868
0.0093543306 0.0028141532 -0.0031715035 4287579178
0.01106859 0.0036375113 -0.0039522592 4287579178
0.012960441 0.0036847424 -0.0040763002 4287710249
0.015038006 0.0029560588 -0.003544162 4288037158
0.016743526 0.0037794355 -0.0043241661 4287971879
0.018634744 0.003826905 -0.0044479799 4288102694
0.020719826 0.0030986648 -0.0039161444 4287512368
0.023400538 4.3429434e-05 -0.0014183624 4287708719
0.031366803 -0.008343013 0.0054119732 4286071364
0.035443723 -0.0090203984 0.0058141202 4286593604
0.037379391 -0.0089712432 0.0056878235 4287313213
0.039099 -0.0081467275 0.0049074087 4287771194
0.04103148 -0.0080975089 0.0047814231 4287967799
0.042521276 -0.0064980462 0.0033478886 4288098358
0.044223942 -0.0056738481 0.0025687357 4288621874
0.0461476 -0.0056246873 0.0024434542 4287771704
0.047841653 -0.0048005357 0.001664917 4287706169
0.049530059 -0.00397655 0.00088680722 4287836984
0.0514476 -0.003927391 0.00076203607 4287968054
0.053602397 -0.0046528913 0.0012900457 4288033589
0.05576247 -0.0053782407 0.001817801 4288164404
0.058413535 -0.0076524764 0.0036499742 4287902263
-0.018349033 -0.015035493 0.010860303 4289412118
-0.016671024 -0.013429757 0.0094156004 4290520858
-0.014864426 -0.012603487 0.0086292438 4290390298
-0.013063431 -0.011777223 0.0078433566 4289735204
-0.011122942 -0.011730169 0.0077150874 4288492334
-0.0088870674 -0.01324122 0.0089009106 4288493863
-0.0073929876 -0.010856654 0.0068019722 4288102949
-0.018262401 -0.017378222 0.010357995 4290261778
-0.016581684 -0.015768014 0.0089163184 4290324763
-0.014772438 -0.014939498 0.0081314147 4289474083
-0.012968782 -0.014110998 0.0073469654 4290652183
-0.010880731 -0.014845213 0.0078741051 4290063389
-0.0089351088 -0.014797911 0.0077455863 4289737499
-0.0074409544 -0.012406809 0.0056515113 4289083933
-0.020658281 -0.016636547 0.0073628761 4290853123
-0.018712062 -0.016589794 0.0072338991 4290782999
-0.01690276 -0.015759207 0.0064505301 4289081893
-0.015238523 -0.014144922 0.0050132796 4289016104
-0.013300896 -0.014098041 0.0048851222 4289605409
-0.011218488 -0.014834613 0.0054110512 4289801759
-0.0089831427 -0.016354378 0.0065904297 4290195223
-0.0074889287 -0.013956735 0.0045012217 4289214238
-0.021099243 -0.015834594 0.0042481199 4289804309
-0.019161347 -0.015788028 0.0041197054 4290848534
-0.017496962 -0.014169565 0.0026856279 4290783254
-0.015704203 -0.013337079 0.0019050669 4290455324
-0.013774876 -0.013290395 0.0017774608 4290652183
-0.01155597 -0.014814997 0.002954619 4290782999
-0.0093263388 -0.016339287 0.004131183 4289409313
-0.0076871887 -0.01472084 0.0026991433 4289344799
-0.021146238 -0.017383983 0.0030981489 4289738009
-0.019476295 -0.015761154 0.001666856 4290390299
-0.017817382 -0.014138415 0.00023634918 4290586648
-0.016169477 -0.012515876 -0.0011933055 4290455579
-0.01396431 -0.014045279 -1.8565916e-05 4290913559
-0.011893183 -0.014786468 0.00050487556 4289997854
-0.0093742311 -0.017890861 0.0029796585 4290129179
-0.007735081 -0.016268063 0.0015508607 4289082659
-0.039489876 -0.013019149 -0.0021048253 4288431133
-0.03779177 -0.011392307 -0.0035355752 4289019418
-0.035656355 -0.012929068 -0.00236037 4288496159
-0.0340841 -0.010511474 -0.0044412902 4288364834
-0.023387764 -0.017398676 0.00077648275 4288952354
-0.021455467 -0.017352378 0.00064834021 4289802014
-0.019790981 -0.015725272 -0.00077938288 4290194204
-0.018000949 -0.014888626 -0.0015566172 4289867038
-0.016216483 -0.014051997 -0.0023333952 4289605154
-0.014153596 -0.014795617 -0.0018111449 4289605154
-0.012230124 -0.014748956 -0.0019382751 4289997598
-0.010011911 -0.016282216 -0.00076743122 4289736479
-0.0082334727 -0.015445244 -0.0015435209 4288690724
-0.039215326 -0.016930023 -0.0012915479 4288494883
-0.037727632 -0.013712517 -0.004019293 4290326804
-0.035925794 -0.012874459 -0.0047964687 4289802014
-0.034129485 -0.012036406 -0.0055731833 4290193949
-0.032338727 -0.011198381 -0.0063494509 4289801503
-0.030313171 -0.011945992 -0.0058270311 4289736223
-0.028036486 -0.014278921 -0.0040069874 4290194969
-0.025492363 -0.018196736 -0.0008904431 4290129943
-0.023434471 -0.018943228 -0.00036991201 4289932829
-0.021633368 -0.018104363 -0.0011464246 4289736224
-0.020105392 -0.015680479 -0.0032189321 4289867039
-0.018184375 -0.015634218 -0.0033461554 4289998110
-0.016263492 -0.015587831 -0.0034732707 4289932573
-0.014342744 -0.01554135 -0.0036003059 4289736479
-0.012422126 -0.015494766 -0.0037272526 4290063389
-0.010354288 -0.016240224 -0.0032067876 4289867038
-0.0082811415 -0.016985469 -0.0026866123 4289344289
-0.0065083653 -0.016146386 -0.0034605786 4290392848
0.011991352 -0.012506044 -0.007305162 4288627738
-0.039047644 -0.020058446 -0.0011361483 4288428074
-0.03766362 -0.016036853 -0.0045059985 4289736224
-0.035859149 -0.015196513 -0.0052817715 4289998108
-0.034289524 -0.012765996 -0.0073527712 4290717464
-0.032384183 -0.012720923 -0.0074795582 4290848279
-0.03023874 -0.014265697 -0.0063112397 4290979094
-0.027959678 -0.016605088 -0.0044962084 4290063134
-0.025789946 -0.018149078 -0.0033293515 4289670688
-0.023865972 -0.018103074 -0.0034570135 4289736224
-0.022204105 -0.016467504 -0.0048781363 4289801248
-0.020419534 -0.01562676 -0.0056518596 4290259228
-0.018640537 -0.014785962 -0.0064251465 4290979094
-0.016588792 -0.015534375 -0.0059054531 4291371538
-0.01467362 -0.01548803 -0.0060321209 4291175444
-0.012613993 -0.016235968 -0.0055128117 4290979603
-0.010991007 -0.014600633 -0.0069309128 4289867294
-0.0087789148 -0.016142623 -0.0057660569 4289605664
-0.0070143491 -0.015301598 -0.0065378859 4290129433
-0.0049444288 -0.016048877 -0.0060189501 4290326039
-0.0033438131 -0.014413657 -0.0074352575 4289736988
-0.0015933067 -0.013572657 -0.0082059223 4290652694
0.00015158951 -0.012731725 -0.0089761652 4290522388
0.0022235736 -0.013478538 -0.0084570572 4290391829
0.0043008327 -0.014225149 -0.0079382453 4289475614
0.0063833594 -0.014971593 -0.007419677 4289868058
0.0081221238 -0.014130368 -0.0081892591 4290195478
0.010209739 -0.014876485 -0.0076708752 4289868568
0.012122668 -0.014828816 -0.0077963681 4289933849
0.013670094 -0.013194069 -0.0092085479 4289540894
0.015206471 -0.011559568 -0.010619908 4289671709
0.017296053 -0.01230526 -0.010101446 4289868568
0.019772507 -0.01463731 -0.0082975607 4289737754
0.022845589 -0.019348474 -0.0045667049 4289737244
0.025558606 -0.022472486 -0.0021228641 4288755238
-0.039199512 -0.020802747 -0.0029274542 4288035119
-0.037818033 -0.016770346 -0.0062890421 4289670433
-0.036128245 -0.015130578 -0.0077093886 4289343778
-0.034449421 -0.013490955 -0.0091289235 4288951080
-0.032429639 -0.014243178 -0.0086094532 4289474339
-0.030284468 -0.015792344 -0.0074443822 4290521113
-0.028251272 -0.016543994 -0.0069256122 4289997598
-0.026087254 -0.018092498 -0.0057615614 4289997854
-0.024168871 -0.018046657 -0.0058888732 4289867038
-0.022381533 -0.017203771 -0.006661234 4290193949
-0.020733405 -0.015564012 -0.008078156 4290455579
-0.01895991 -0.014721258 -0.0088494485 4290324764
-0.016913824 -0.015471935 -0.0083310418 4289997599
-0.014862422 -0.016222352 -0.0078128865 4290128414
-0.012805704 -0.016972613 -0.0072949887 4291306259
-0.011038199 -0.01612949 -0.0080655767 4289605664
-0.0091262981 -0.01608292 -0.0081918016 4289540128
-0.0072145537 -0.016036222 -0.0083179167 4289998364
-0.0054583549 -0.015193112 -0.009087489 4290783508
-0.0037077516 -0.014350067 -0.0098566394 4289801759
-0.001801908 -0.014303202 -0.0099821342 4290390809
0.00010377914 -0.01425627 -0.010107566 4290587414
0.0021755919 -0.01500531 -0.0095901024 4290849298
0.0040836558 -0.014958108 -0.0097155329 4289933339
0.0061632767 -0.015706746 -0.0091984291 4290456598
0.0080737174 -0.015659312 -0.0093238875 4290587924
0.0098068565 -0.014816012 -0.010091376 4290260758
0.011714227 -0.014768479 -0.010216502 4290587668
0.013438858 -0.013925226 -0.010983312 4289736988
0.01497256 -0.012286471 -0.012391277 4290979859
0.017059259 -0.013034401 -0.011874241 4290849298
0.019532673 -0.015373023 -0.010075067 4290455578
0.022602543 -0.02009736 -0.0063536782 4289539618
0.025508627 -0.024025444 -0.0032752445 4290651673
-0.039351232 -0.021542504 -0.0047153141 4287184948
-0.037972316 -0.017499305 -0.0080686454 4289605154
-0.036173459 -0.016654801 -0.0088407677 4290651928
-0.034723725 -0.013411843 -0.011546363 4289670689
-0.032709591 -0.01416638 -0.011028141 4289212453
-0.030570135 -0.015720036 -0.0098658595 4290128413
-0.028419897 -0.017273309 -0.008704274 4290717208
-0.026384301 -0.018026983 -0.0081872139 4289801503
-0.024599638 -0.017182102 -0.0089578629 4289736224
-0.022689678 -0.017136339 -0.0090845255 4289735969
-0.021047 -0.015492436 -0.010497828 4290979094
-0.019279018 -0.014647616 -0.011267118 4289801504
-0.017377581 -0.014601734 -0.011392974 4288950824
-0.015192803 -0.016153362 -0.010233071 4289343524
-0.013286199 -0.016107114 -0.010359089 4289866783
-0.011526905 -0.015262093 -0.0111275 4289736479
-0.0094734058 -0.016014339 -0.010610884 4289540128
-0.0075672269 -0.015967779 -0.010736633 4289997853
-0.005661197 -0.015921136 -0.010862309 4290259738
-0.0040714145 -0.014277553 -0.012271399 4290586649
-0.0021711215 -0.014230847 -0.012396546 4288951079
-0.00010748953 -0.014982343 -0.011880222 4289212708
0.0021276101 -0.016531842 -0.010722969 4290325018
0.0040355623 -0.016484655 -0.010848401 4289474593
0.0061149895 -0.017235462 -0.010332895 4289802269
0.0078509673 -0.016390041 -0.011099045 4289802269
0.0095813423 -0.015544651 -0.011864746 4289802269
0.011485897 -0.015497206 -0.011989701 4290849299
0.013207771 -0.01465185 -0.012754711 4289540129
0.014924027 -0.01380656 -0.013519298 4289540129
0.017010555 -0.014556694 -0.013003889 4290128924
0.019483656 -0.016901838 -0.011209548 4291240213
0.022553019 -0.021639239 -0.0074978443 4290193694
0.025262579 -0.024780745 -0.0050667427 4290062368
-0.03971542 -0.020673987 -0.0077868821 4288950569
-0.03812645 -0.018223647 -0.0098448209 4289539363
-0.036442142 -0.016575346 -0.011258353 4291044373
-0.034883279 -0.014125464 -0.0133141 4290913304
-0.032989271 -0.014080657 -0.01344013 4291044119
-0.030735619 -0.016440339 -0.011638073 4290978583
-0.02871101 -0.017196555 -0.011121982 4290193694
-0.026806414 -0.017151166 -0.01124847 4289997854
-0.024901919 -0.017105646 -0.011374853 4290128669
-0.023128327 -0.016258752 -0.012143071 4289736224
-0.021627333 -0.01380947 -0.014194394 4290717208
-0.019870311 -0.012962744 -0.014961342 4290848023
-0.017701995 -0.014519246 -0.013803684 4290521113
-0.015522916 -0.016075425 -0.012646615 4290390299
-0.013621878 -0.016029313 -0.012772267 4291044883
-0.011573873 -0.016783977 -0.012256989 4290063644
-0.0098202154 -0.015936799 -0.013023318 4289867294
-0.0077670515 -0.016691145 -0.012508237 4289736478
-0.0060191378 -0.015843906 -0.013274037 4290063389
-0.0042768046 -0.014996657 -0.014039434 4290848023
-0.0025400594 -0.014149511 -0.014804365 4290324764
-0.00064548105 -0.014102874 -0.014929081 4289277989
0.0015812218 -0.015656959 -0.013774462 4289605409
0.0038186237 -0.017210662 -0.012620533 4290652438
0.0057235807 -0.01716347 -0.01274571 4289932829
0.0076283813 -0.0171162 -0.012870814 4290063643
0.0091789812 -0.015468592 -0.014273608 4290259994
0.011257738 -0.016221337 -0.013759489 4290652438
0.012794398 -0.014573874 -0.015161293 4290652693
0.014505185 -0.013726554 -0.015923908 4289016613
0.016398236 -0.01367915 -0.016047925 4289081893
0.019053504 -0.016830884 -0.013619871 4289800993
0.021730296 -0.01998199 -0.011193163 4290127903
0.024624631 -0.02393214 -0.0081301751 4289800739
0.026949726 -0.025482737 -0.0069813118 4286857018
-0.039866742 -0.021400154 -0.0095647294 4289146408
-0.03828045 -0.018943431 -0.011617615 4289473574
-0.036598895 -0.01729078 -0.01302775 4289670178
-0.035157103 -0.014030645 -0.015719883 4290324509
-0.033268675 -0.013985986 -0.015845554 4290193694
-0.031260502 -0.014744948 -0.01533005 4290389788
-0.029246986 -0.015503598 -0.014814839 4289539618
-0.027478702 -0.014654898 -0.015581266 4289801249
-0.025587946 -0.014609721 -0.015706748 4290063389
-0.023697313 -0.01456444 -0.015832141 4290063389
-0.021940242 -0.013715609 -0.016597601 4289932063
-0.020052567 -0.013670154 -0.016722616 4290193949
-0.01802611 -0.014427895 -0.016207742 4290651928
-0.015994351 -0.015185336 -0.015693165 4290521624
-0.014101602 -0.015139457 -0.015818294 4290194458
-0.012356043 -0.014290417 -0.016582552 4289605409
-0.010316528 -0.01504735 -0.016068252 4289670688
-0.0082717091 -0.015804071 -0.015554237 4290063389
-0.0063767955 -0.015757713 -0.01567919 4290128668
-0.0046399608 -0.014908485 -0.016442575 4290324509
-0.0029087067 -0.014059322 -0.01720554 4290913304
-0.00085633248 -0.014815442 -0.016691716 4291044374
0.0013674051 -0.016373932 -0.015540202 4291044373
0.0034330636 -0.017129602 -0.015027083 4290194458
0.0053324774 -0.01708257 -0.015151912 4289802014
0.0072317272 -0.017035434 -0.015276651 4289540128
0.0089538619 -0.016185876 -0.01603863 4289867294
0.010850064 -0.016138678 -0.016163064 4290259739
0.01238133 -0.014487043 -0.017561233 4291109909
0.013901554 -0.012835559 -0.018958658 4291109909
0.015974179 -0.013590437 -0.018445538 4290913813
0.018433109 -0.015949024 -0.016660014 4291109653
0.021101385 -0.019109061 -0.01423924 4290781978
0.023791201 -0.022268472 -0.011819812 4289866274
0.026303865 -0.024625499 -0.010037575 4287903283
-0.040230274 -0.020509448 -0.012619826 4287838513
-0.038760997 -0.017240223 -0.015307502 4289146919
-0.037090342 -0.015583498 -0.016713686 4289538853
-0.035316315 -0.014732961 -0.017479228 4289212199
-0.033313695 -0.015494294 -0.016965097 4289277989
-0.03130573 -0.016255423 -0.016451191 4289147174
-0.029292416 -0.017016279 -0.015937604 4289212453
-0.027649436 -0.015359636 -0.017341521 4289408549
-0.025889486 -0.014508852 -0.018105693 4289604899
-0.02400443 -0.014463707 -0.018230718 4289866273
-0.022119496 -0.014418432 -0.018355638 4289604898
-0.020234667 -0.014373054 -0.018480472 4289343524
-0.018349957 -0.014327582 -0.018605225 4289539618
-0.016323842 -0.015087338 -0.018091897 4289474338
-0.014436658 -0.015041607 -0.018216666 4289605664
-0.01254962 -0.014995748 -0.018341327 4289408803
-0.010662705 -0.01494981 -0.018465918 4289735969
-0.0084711015 -0.016513955 -0.017315837 4289800993
-0.0067341626 -0.015662681 -0.018077709 4289997344
-0.0050028339 -0.014811376 -0.01883916 4289539363
-0.0029559135 -0.015569974 -0.018326646 4289539618
-0.0010670125 -0.015523488 -0.018450996 4289343268
0.00098774582 -0.016281648 -0.01793889 4289474338
0.0028790534 -0.016234916 -0.01806326 4289605154
0.0045987666 -0.015383476 -0.01882356 4289605408
0.0066611916 -0.016141178 -0.018311758 4289409314
0.0085520148 -0.016094206 -0.018435908 4289736224
0.010442689 -0.016047142 -0.018559977 4289801504
0.011968553 -0.014391265 -0.019954607 4289997598
0.013853446 -0.014344175 -0.020078171 4290651928
0.015738152 -0.01429703 -0.020201677 4290324764
0.018003613 -0.015858116 -0.019055534 4290193693
0.020086564 -0.016614735 -0.018544653 4290323999
0.022762455 -0.019783221 -0.016130812 4290127648
0.025459863 -0.022951093 -0.013718324 4288100144
-0.040275075 -0.022030529 -0.013748901 4288100398
-0.038805693 -0.018752646 -0.016430138 4289278244
-0.037023503 -0.017899858 -0.01719469 4288558634
-0.035361104 -0.016238885 -0.018597014 4288754728
-0.033475697 -0.016194295 -0.018722484 4288754729
-0.03147066 -0.016957629 -0.018210046 4288493098
-0.029337842 -0.018528732 -0.0170602 4288950568
-0.027444556 -0.018483618 -0.017185941 4289147174
-0.025807124 -0.016822666 -0.018586179 4289081638
-0.024050079 -0.015969675 -0.019348465 4289343269
-0.021898638 -0.017539905 -0.018199537 4289932318
-0.019872479 -0.018302051 -0.017687991 4289278244
-0.018118504 -0.017448805 -0.018449828 4289277989
-0.016370088 -0.016595554 -0.019211268 4289474594
-0.014627237 -0.015742365 -0.019972211 4290193949
-0.01259613 -0.016503971 -0.01946068 4289670434
-0.010559723 -0.017265396 -0.018949388 4289539619
-0.0086703449 -0.017219318 -0.019074082 4289866784
-0.006781131 -0.017173124 -0.019198678 4289801248
-0.0050498322 -0.016319657 -0.019958515 4289408804
-0.0030031055 -0.017080434 -0.019447608 4289343269
-0.00095109642 -0.01784095 -0.018937025 4289539363
0.00094024837 -0.017794315 -0.01906147 4289147429
0.0026627928 -0.016940756 -0.019820428 4289081893
0.0042083636 -0.015280397 -0.021213379 4289147429
0.0060910955 -0.015233725 -0.021337073 4289147429
0.0081504732 -0.015993599 -0.02082663 4289081893
0.010035604 -0.015946694 -0.020950355 4289277989
0.011920556 -0.01589971 -0.021074001 4289670178
0.013805352 -0.015852647 -0.021197576 4289408549
0.015689962 -0.015805505 -0.021321077 4289343269
0.01757443 -0.015758293 -0.021444514 4289539363
0.019651793 -0.016517309 -0.020934876 4289669668
0.02232188 -0.019694638 -0.018527132 4289015338
0.02541054 -0.024483548 -0.014855489 4286791484
-0.040425904 -0.022740882 -0.015514937 4287904049
-0.038741607 -0.021075284 -0.01691566 4288820263
-0.036845293 -0.021030689 -0.017042043 4288754984
-0.034834847 -0.021796305 -0.016531762 4288427818
-0.032935984 -0.021751413 -0.016658138 4288493098
-0.031156845 -0.020896195 -0.017420623 4288624169
-0.029138509 -0.021661265 -0.016910598 4288427818
-0.02723993 -0.021616045 -0.017036706 4288820263
-0.025597058 -0.019950654 -0.018434023 4288885799
-0.023834646 -0.019095369 -0.01919505 4288820264
-0.021811295 -0.019859884 -0.018685035 4289409058
-0.019510675 -0.022243859 -0.016905023 4289343779
-0.018025979 -0.019768715 -0.018935714 4288885544
-0.01627491 -0.018913276 -0.019695671 4289539873
-0.014385276 -0.018867467 -0.019820588 4289343779
-0.012202088 -0.020440696 -0.018676639 4288624169
-0.010157704 -0.021204084 -0.018167552 4288689449
-0.0082603171 -0.02115779 -0.01829276 4288493098
-0.0066730604 -0.019492699 -0.019685619 4289016614
-0.0047813728 -0.019446377 -0.019810328 4289082404
-0.0028898418 -0.019399939 -0.019934937 4288755239
-0.00083530694 -0.020162564 -0.019426137 4288886054
0.0007269159 -0.018497696 -0.020817056 4288755239
0.0026152879 -0.01845108 -0.020941265 4288689449
0.0041608885 -0.016786393 -0.022330992 4288623913
0.0063915551 -0.018357567 -0.021189434 4289212963
0.0084561855 -0.01911951 -0.020680977 4288886054
0.010526098 -0.019881228 -0.020172797 4289344033
0.012054764 -0.018216681 -0.021561131 4289474338
0.013942182 -0.018169582 -0.0216849 4288820518
0.015829414 -0.018122381 -0.021808578 4289147429
0.01771649 -0.018075135 -0.021932209 4288820008
0.019796439 -0.018836234 -0.021424413 4288689194
0.022273101 -0.021213848 -0.019654477 4288361774
-0.040258657 -0.025884783 -0.015371103 4287772979
-0.038568933 -0.024214784 -0.016768929 4288427563
-0.036444474 -0.025795206 -0.015625395 4289343779
-0.034423366 -0.026562748 -0.015117444 4288885799
-0.032630622 -0.025705146 -0.015879299 4288427819
-0.030962985 -0.02403521 -0.017275315 4288166188
-0.029184032 -0.023177654 -0.018036116 4288362538
-0.027410615 -0.022320183 -0.018796444 4288493353
-0.025642727 -0.021462707 -0.019556301 4288362283
-0.023749929 -0.021417413 -0.019681867 4288427819
-0.021590877 -0.022996094 -0.018539947 4288754984
-0.019421052 -0.024574462 -0.017398624 4289409058
-0.017794963 -0.022904653 -0.018791312 4288951078
-0.016038507 -0.022046942 -0.019550033 4288885799
-0.014287625 -0.021189246 -0.020308295 4289343779
-0.011955194 -0.023578549 -0.018534927 4288689449
-0.0099055842 -0.02434396 -0.018027788 4288754984
-0.0080028698 -0.024297584 -0.018153382 4288820263
-0.0064101666 -0.022627972 -0.019543407 4288885798
-0.0045131817 -0.02258152 -0.019668464 4289147429
-0.0026163235 -0.022534963 -0.019793432 4288820263
-0.00055652112 -0.023299716 -0.019286588 4288820263
0.0010111406 -0.021630352 -0.020674691 4288754984
0.0030733496 -0.022394776 -0.020167876 4288885799
0.0047983676 -0.021536775 -0.020923734 4288885799
0.0066917464 -0.021489866 -0.021048147 4288820264
0.0087616518 -0.022253856 -0.020541657 4288951333
0.01047805 -0.021395784 -0.021296738 4289147938
0.012370959 -0.021348646 -0.021420941 4289082404
0.014078885 -0.020490633 -0.022175351 4288493608
0.015968755 -0.020443397 -0.022299225 4288755239
0.018048704 -0.021206778 -0.021793127 4288362283
0.020133898 -0.021969924 -0.021287296 4288427818
0.022420056 -0.023543455 -0.020152165 4288165423
-0.040197566 -0.028222274 -0.015867434 4287904558
-0.038505141 -0.026547886 -0.01726222 4288231469
-0.036600959 -0.026503092 -0.017389117 4288362538
-0.034468699 -0.028087584 -0.016249269 4289082404
-0.032442439 -0.028857067 -0.015743198 4288755239
-0.030649867 -0.027997209 -0.016503358 4288362538
-0.028985061 -0.026322864 -0.017895853 4288689703
-0.027331237 -0.024648624 -0.019287573 4288231469
-0.025560703 -0.023788948 -0.020046014 4288296748
-0.023534931 -0.024557868 -0.019539483 4288166188
-0.021503806 -0.025326621 -0.019033203 4288362538
-0.019331545 -0.026909225 -0.017895317 4289278754
-0.017841287 -0.024420951 -0.019916696 4288755239
-0.016084906 -0.023561066 -0.020673791 4288886053
-0.014190085 -0.023515176 -0.020799085 4289213218
-0.011708565 -0.026724849 -0.018399559 4288624424
-0.0099525452 -0.025864659 -0.019156396 4288493353
-0.0077456906 -0.027445823 -0.018020347 4288558889
-0.0061475188 -0.025771797 -0.01940747 4288755239
-0.0042452142 -0.025725225 -0.019532885 4288755239
-0.0026636422 -0.024051392 -0.020918831 4288297259
-0.00044102222 -0.02563183 -0.019783493 4288558889
0.001295127 -0.02477156 -0.020538598 4288297259
0.0031941384 -0.024724694 -0.020663518 4288297003
0.0049218386 -0.023864409 -0.021417975 4288428074
0.0071656033 -0.025443958 -0.020283755 4288558633
0.009243466 -0.026209967 -0.019779442 4288755494
0.011147298 -0.026162658 -0.019904435 4289213474
0.012868948 -0.025302233 -0.020658206 4288493864
0.014769733 -0.025254825 -0.020782869 4288362538
0.016482919 -0.024394458 -0.021535968 4288428074
0.018380664 -0.024346985 -0.021660328 4288624169
0.020278245 -0.024299433 -0.021784617 4288296748
0.022371277 -0.025064543 -0.021280907 4288296238
-0.042152066 -0.029791515 -0.016871653 4286658883
-0.040454146 -0.028112784 -0.018263668 4287968818
-0.038658608 -0.027251152 -0.019022755 4288165168
-0.03675729 -0.027206445 -0.019149477 4288493098
-0.034742039 -0.027978504 -0.018644398 4289147429
-0.032604702 -0.029567089 -0.017508026 4289539873
-0.030695472 -0.029521847 -0.017635014 4288165933
-0.029152848 -0.027026521 -0.019655475 4288493354
-0.027376868 -0.026164619 -0.020412792 4288296748
-0.025606409 -0.02530277 -0.021169607 4288362283
-0.023580831 -0.026073894 -0.020664699 4288623913
-0.021682974 -0.02602838 -0.020790529 4288362283
-0.019513682 -0.027615461 -0.019655652 4289016868
-0.017749093 -0.026753336 -0.020411769 4288624424
-0.015848853 -0.026707446 -0.020537518 4288558889
-0.014092661 -0.025845258 -0.021292955 4289736734
-0.011755459 -0.028247494 -0.019529622 4288820518
-0.0099995062 -0.027385157 -0.020284854 4288624424
-0.0079449639 -0.028154736 -0.019781234 4288558889
-0.0061947107 -0.027292345 -0.020535946 4289016868
-0.0044500381 -0.026429985 -0.021290211 4288428073
-0.0025506988 -0.026383407 -0.021415375 4288428073
-0.00048856437 -0.027152423 -0.020911975 4288493609
0.00157886 -0.027921215 -0.020408852 4288558888
0.0033148229 -0.027058713 -0.021162279 4288297259
0.0050452054 -0.026196241 -0.021915257 4288624424
0.0071176142 -0.026964668 -0.021412287 4288624424
0.0093718395 -0.028548203 -0.020281989 4289409569
0.011099048 -0.027685562 -0.021034576 4288493353
0.012820661 -0.026822988 -0.021786742 4288558889
0.014721356 -0.026775615 -0.021911427 4288362538
0.01662191 -0.026728189 -0.022036057 4288297259
0.018332176 -0.025865676 -0.022787312 4288362283
0.020422503 -0.026633093 -0.022285094 4288231723
0.022518076 -0.027400322 -0.021783177 4287707443
-0.042815197 -0.026400167 -0.021788284 4288295474
-0.041027829 -0.025536697 -0.022545315 4287837494
-0.038920447 -0.027130686 -0.021410447 4287903028
-0.037024714 -0.027086128 -0.021536808 4288426798
-0.03501511 -0.027860489 -0.02103297 4288492333
-0.033000145 -0.028634649 -0.020529354 4289408038
-0.030860446 -0.030227412 -0.019396294 4288230449
-0.029198375 -0.028544499 -0.020782176 4287903283
-0.027422469 -0.027680423 -0.021537868 4287772468
-0.025652081 -0.026816424 -0.022293076 4287903283
-0.023626715 -0.027589727 -0.021789776 4288165424
-0.021728989 -0.027544215 -0.021915596 4288165424
-0.019695658 -0.028317176 -0.021412633 4288557868
-0.017795436 -0.028271392 -0.021538462 4288885033
-0.015613057 -0.029862272 -0.020407587 4288296238
-0.013851475 -0.028997857 -0.021161748 4288754219
-0.011802316 -0.02976995 -0.020659547 4288557868
-0.010195717 -0.028087284 -0.022040945 4288100144
-0.0081440955 -0.028859127 -0.021538768 4288100144
-0.0063966066 -0.027994648 -0.02229169 4289277478
-0.0044972599 -0.027948203 -0.022416953 4288492589
-0.0027582049 -0.027083684 -0.023169212 4288362028
-0.00069896132 -0.027855001 -0.022667207 4288296749
0.0013655797 -0.028626055 -0.022165528 4288362029
0.0032670945 -0.02857919 -0.022290658 4288558889
0.0051684529 -0.028532222 -0.022415699 4288035374
0.0072434098 -0.029302781 -0.021914527 4289147429
0.009147197 -0.02925558 -0.022039598 4289016614
0.011230007 -0.030025771 -0.021538813 4288362283
0.012772419 -0.028343607 -0.022915184 4288231724
0.014857627 -0.029113591 -0.022414446 4287970093
0.016386151 -0.027431605 -0.023789778 4288558634
0.01828374 -0.027384209 -0.023914183 4288099889
0.020181134 -0.02733672 -0.024038501 4287641398
0.022273861 -0.028106224 -0.02353804 4287314233
-0.031144589 -0.030107386 -0.021782361 4287315254
-0.018118475 -0.028147992 -0.023918815 4287904048
-0.014041908 -0.029697478 -0.022916459 4288950824
-0.01243519 -0.028010517 -0.024294741 4286987834
-0.010690235 -0.027144134 -0.025046034 4287314743
-0.0087988824 -0.027098095 -0.025170924 4288361009
-0.0067530051 -0.027872173 -0.024669927 4289342249
-0.0050165802 -0.027005728 -0.025420455 4287641653
-0.0031256229 -0.026959399 -0.025545096 4288557869
-0.0010720044 -0.027733006 -0.0250444 4288557869
0.00098691881 -0.028506383 -0.024543978 4288754219
0.0030511469 -0.029279595 -0.024043806 4288100144
0.0051206574 -0.030052571 -0.023543974 4288230959
0.0070217699 -0.030005559 -0.023668963 4289146919
0.0087463409 -0.029138783 -0.024418246 4288100144
0.010644443 -0.029091686 -0.024542917 4288165423
0.012360558 -0.028224917 -0.025291571 4287903793
0.014071114 -0.027358275 -0.026039775 4288165423
0.01558882 -0.025672264 -0.0274112 4288492589
0.017665416 -0.026444519 -0.02691143 4288295729
0.0195546 -0.026397273 -0.02703524 4288426289
-0.014375906 -0.029569875 -0.02529276 4286530364
-0.0056545809 0.0016628541 -0.0015160954 4283066698
-0.0042318106 0.0040393956 -0.003614936 4284180793
-0.0058578029 0.00092181936 -0.0033005755 4282157369
-0.004437685 0.0033048708 -0.0053944159 4281112889
-0.0023885071 0.0025724676 -0.0048625851 4281308218
-0.00049816072 0.0026190206 -0.0049870047 4281438268
0.0015588179 0.0018870309 -0.0044555962 4281634363
0.0034515113 0.001933841 -0.0045800246 4281894974
0.0053440109 0.0019807555 -0.0047043618 4281829438
0.0070613548 0.0028061643 -0.0054838457 4281959488
0.0085953623 0.0044099484 -0.0069179558 4281829184
0.010659553 0.0036786012 -0.0063866777 4281762628
0.012545861 0.0037257094 -0.0065103462 4281894208
0.014989533 0.0014383383 -0.0046704253 4282286144
0.016695008 0.0022638887 -0.0054488061 4282154819
0.018586151 0.0023113694 -0.0055726049 4282220864
0.020671077 0.0015809499 -0.0050423788 4282155839
0.023744851 -0.0030387789 -0.0012434814 4282219588
0.027648777 -0.010769011 0.0051678512 4282284869
-0.0057491362 -0.0013767648 -0.0037719337 4282159154
-0.0043262169 0.0010128561 -0.0058610449 4281570103
-0.0022744983 0.00027836859 -0.005331052 4281440053
-0.00038157403 0.00032500364 -0.0054556304 4281505078
0.0015111864 0.00037170947 -0.0055801445 4281831479
0.0034037605 0.00041853823 -0.0057045477 4281701173
0.005123958 0.0012461171 -0.006482658 4281831479
0.0070134476 0.0012930334 -0.0066067362 4281831479
0.0087251067 0.0021206364 -0.0073841838 4281439544
0.010791868 0.0013871193 -0.0068546617 4281112123
0.012863852 0.00065387599 -0.0063254493 4281308218
0.014941067 -7.9143792e-05 -0.0057965107 4281438268
0.016835019 -3.1672418e-05 -0.0059205517 4281372478
0.018537559 0.00079606101 -0.0066970601 4281307453
0.020816244 -0.00071666203 -0.0055160853 4281632069
0.024088874 -0.0061295014 -0.001074845 4281697604
0.028196797 -0.014661304 0.0059719495 4281697348
-0.0056405962 -0.0036795326 -0.0042463234 4281960763
-0.0040563568 -0.0020664595 -0.0056777447 4281766454
-0.0023219064 -0.0012367107 -0.0064554377 4281766198
-0.00042908639 -0.0011900887 -0.006580017 4281832243
0.0014635473 -0.0011433642 -0.0067045051 4281832243
0.0035254285 -0.001879489 -0.0061765872 4281701429
0.0052483007 -0.0010496639 -0.0069532492 4281766198
0.0071403906 -0.0010026749 -0.0070774942 4281896504
0.0086771697 0.00060991012 -0.0085052848 4281375028
0.010743737 -0.00012577511 -0.0079773599 4281374264
0.01281555 -0.00086118653 -0.0074497475 4281375284
0.014892593 -0.0015963987 -0.0069224252 4281375029
