# .PCD v0.7 - Point Cloud Data file format
VERSION 0.7
FIELDS x y z rgba
SIZE 4 4 4 4
TYPE F F F U
COUNT 1 1 1 1
WIDTH 959
HEIGHT 1
VIEWPOINT 0 0 0 1 0 0 0
POINTS 959
DATA ascii
0.01442907 -0.0060102008 0.013587078 4287377983
0.016810119 -0.0082869455 0.015440602 4287050564
-0.052333299 0.008842865 0.0015160912 4287574589
-0.050714467 0.011999695 -0.0012678523 4288425523
-0.048927445 0.012819758 -0.002057014 4289014573
-0.047145873 0.013639828 -0.0028457064 4289015593
-0.045369752 0.014459888 -0.0036339534 4288753963
-0.043670602 0.016058603 -0.0050856168 4288950314
-0.041759681 0.015321521 -0.004545433 4289277223
-0.039843321 0.014584644 -0.0040054768 4289538853
-0.037841871 0.013069646 -0.002802534 4289276968
-0.036076758 0.013890067 -0.0035895833 4289080874
-0.034317136 0.014710499 -0.0043761674 4289146154
-0.032650854 0.0163092 -0.0058250795 4289146153
-0.030814366 0.016351385 -0.0059479992 4289211688
-0.028884631 0.015615584 -0.005408443 4289015594
-0.026949499 0.014879989 -0.0048691127 4289342759
-0.025305241 0.016478663 -0.0063161938 4289408038
-0.023570469 0.017299248 -0.0071005761 4289604389
-0.021737024 0.017341947 -0.007222855 4289473574
-0.019903652 0.017384769 -0.0073450408 4289931298
-0.018070377 0.017427733 -0.0074671111 4290651164
-0.016237181 0.017470775 -0.0075891162 4289146409
-0.014404085 0.017513962 -0.0077110059 4289408038
-0.012571085 0.017557243 -0.0078328196 4289277223
-0.010617651 0.016823167 -0.0072939689 4289080873
-0.0085356012 0.01531188 -0.0060949624 4289080874
-0.0061908178 0.012246331 -0.003576206 4288949804
-0.0039530508 0.0099586304 -0.0017187998 4288426289
-0.0015676543 0.0068942327 0.00079747057 4288360498
0.00083938986 0.0038304683 0.0033123977 4288098868
0.0034049675 -9.7509474e-06 0.0064854533 4287379513
0.0057184175 -0.0022951886 0.008338185 4287248443
0.0077634081 -0.0030261818 0.0088716336 4287248188
0.0096686557 -0.002980059 0.0087458678 4287444539
0.011721507 -0.0037106518 0.0092789587 4287247423
0.014231093 -0.0067712888 0.011787592 4287182144
-0.052432112 0.0081364531 -0.0002510217 4287182398
-0.050876457 0.012082966 -0.0036912654 4288229684
-0.049158249 0.013686089 -0.0051412527 4288753198
-0.04731895 0.01372725 -0.0052651707 4290193184
-0.045617092 0.015330212 -0.0067138299 4290062113
-0.043926142 0.016933089 -0.0081617087 4289866019
-0.04194944 0.015412873 -0.0069604944 4289996833
-0.039961863 0.013893085 -0.0057599526 4290062114
-0.038122643 0.013934838 -0.0058834217 4288949803
-0.036283452 0.013976725 -0.0060067922 4289015338
-0.034614429 0.015579684 -0.007452691 4289277223
-0.032780766 0.015621701 -0.0075755026 4289146153
-0.031037666 0.016444167 -0.0083591808 4289277224
-0.029020356 0.01492578 -0.0071600936 4289146408
-0.027280089 0.015748421 -0.007943403 4289408038
-0.025545333 0.016571058 -0.0087262522 4290258463
-0.023714684 0.01661359 -0.0088484213 4289277224
-0.02188411 0.01665624 -0.008970499 4288426799
-0.019946758 0.015919043 -0.0084326211 4288361263
-0.018113617 0.015961992 -0.0085546933 4288884523
-0.016280569 0.016005045 -0.0086766779 4289669669
-0.014447607 0.016048217 -0.0087985676 4289473063
-0.012614757 0.016091501 -0.0089203622 4289407529
-0.010420565 0.01379591 -0.0070651714 4289080108
-0.0082101524 0.011500871 -0.0052110059 4288491569
-0.0057316646 0.0076472517 -0.0020406046 4287968053
-0.0034833513 0.0053532831 -0.00018875161 4287575865
-0.0010874681 0.0022804271 0.0023203399 4287313723
0.0011959709 -1.2423843e-05 0.0041699992 4287313979
0.00363243 -0.0030840803 0.0066765794 4287248188
0.0053928494 -0.0022591092 0.0058933073 4287313724
0.0074321926 -0.0029923972 0.0064255293 4287444794
0.0090419091 -0.0013882946 0.0049854605 4287445048
-0.052299768 0.0043015871 0.00063147536 4286790463
-0.050796278 0.0090424027 -0.0034626259 4287968308
-0.04919906 0.012216279 -0.0062320679 4288164914
-0.047491778 0.013823593 -0.0076779388 4289473574
-0.045864057 0.016213851 -0.009783823 4290127649
-0.04418131 0.017820856 -0.011227863 4290519839
-0.042138956 0.015513258 -0.0093689263 4290389024
-0.040233925 0.014771765 -0.0088314544 4289342249
-0.03840303 0.014813358 -0.0089543462 4289015084
-0.036736727 0.016420526 -0.010396961 4289146153
-0.034911346 0.016462212 -0.010519318 4289081129
-0.032998282 0.015721438 -0.0099820662 4289146408
-0.031170271 0.015763456 -0.010104397 4289015594
-0.029249128 0.015023051 -0.0095674675 4289342759
-0.027418494 0.015065348 -0.0096898153 4289342759
-0.025686555 0.015890157 -0.010470886 4289996833
-0.023960121 0.016714891 -0.011251474 4290585629
-0.022135142 0.016757404 -0.011373181 4290323998
-0.020096641 0.015235713 -0.010178261 4289669668
-0.018266376 0.015278598 -0.010300137 4290323999
-0.016099468 0.012975531 -0.0084482925 4289800483
-0.014376171 0.013800805 -0.0092282128 4288949804
-0.012187663 0.011498427 -0.0073775984 4288818478
-0.010103334 0.0099784266 -0.0061853426 4288883758
-0.0076388195 0.0061134864 -0.0030221981 4287902518
-0.0053988956 0.0038126968 -0.0011747179 4287510329
-0.0030141734 0.00073076598 0.0013285577 4287379513
-0.00087040663 -0.00078736804 0.0025172057 4287510074
0.0011500902 -0.0015236177 0.0030488004 4287509819
0.0031759068 -0.0022596791 0.0035801656 4287182909
0.0050675608 -0.0022140853 0.0034551458 4287313979
0.0071012601 -0.002949696 0.0039861086 4287249209
0.0088504329 -0.0021225754 0.0032053846 4286595134
-0.052052382 -0.0011169687 0.0028242962 4286332484
-0.050595485 0.0044225883 -0.001920752 4287117883
-0.049113575 0.0091760475 -0.0060035503 4288034354
-0.047466747 0.011573153 -0.0081059411 4288557869
-0.045904864 0.014755184 -0.010866344 4289015593
-0.044150829 0.015581405 -0.011648145 4289146154
-0.042254172 0.014837494 -0.011111848 4289538599
-0.040428851 0.014878815 -0.01123447 4289407529
-0.038683049 0.015705215 -0.012015447 4289407528
-0.03694272 0.016531611 -0.012795966 4289146153
-0.035207883 0.017358003 -0.013576027 4290454814
-0.033303205 0.016614875 -0.013039818 4290520093
-0.031302735 0.015087282 -0.011846172 4289866018
-0.029291414 0.01356001 -0.010653119 4289342759
-0.027460933 0.0136023 -0.010775458 4289211944
-0.025729075 0.014429273 -0.011554912 4289277223
-0.023901446 0.014471738 -0.011676879 4289931298
-0.022073889 0.014514336 -0.011798742 4290323743
-0.020139672 0.013772679 -0.011263845 4290520094
-0.018200092 0.013031287 -0.010729278 4290062113
-0.016142979 0.01150596 -0.0095387036 4289015594
-0.014075056 0.0099809561 -0.0083487201 4288687663
-0.011878721 0.0076722931 -0.0065035126 4288098868
-0.0096661448 0.0053641032 -0.0046592443 4287575608
-0.0073142648 0.0022724494 -0.0021604476 4287706423
-0.0050665177 -3.468059e-05 -0.00031834655 4287379003
-0.0028025471 -0.0023412723 0.0015227194 4287379004
-0.00091608986 -0.0022961292 0.0013978002 4287575353
0.00097025558 -0.0022508837 0.0012729694 4287706678
0.0028564595 -0.002205532 0.0011482281 4287641399
-0.051920865 -0.0049817543 0.0036845137 4286463299
-0.050455526 0.00057316199 -0.0010497328 4287117884
-0.048965238 0.0053399261 -0.005123408 4287445813
-0.047441829 0.0093185846 -0.0085370112 4288100144
-0.045877133 0.012509407 -0.011291103 4288557869
-0.044120464 0.013337852 -0.012071469 4288884524
-0.042369258 0.014166316 -0.012851359 4289146154
-0.040546812 0.01420757 -0.012973797 4289211689
-0.038803823 0.015036104 -0.013752945 4289342504
-0.037066314 0.015864616 -0.014531657 4290258464
-0.035164528 0.015119115 -0.01399697 4290454814
-0.033344939 0.015160805 -0.014118839 4290389278
-0.031435072 0.014415724 -0.013584521 4290585629
-0.029519802 0.013670897 -0.013050467 4290585629
-0.027599148 0.012926323 -0.012516679 4289277223
-0.025870092 0.013755357 -0.013294285 4289277223
-0.024045331 0.013797751 -0.013416069 4289080873
-0.022220645 0.013840279 -0.013537738 4289342759
-0.020289361 0.01309642 -0.013004312 4289277224
-0.018243324 0.011566313 -0.011816289 4289276713
-0.015962251 0.0084638502 -0.0093195885 4288884268
-0.013774328 0.0061483514 -0.0074787629 4288687663
-0.011452604 0.0030470733 -0.0049845995 4287575608
-0.00922947 0.00073260069 -0.003145894 4287445049
-0.0069901049 -0.0015813764 -0.0013081862 4287510074
-0.0049859881 -0.0023227055 -0.00077899382 4287444794
-0.002976533 -0.0030637812 -0.00025006244 4287706168
-0.001224108 -0.0022327993 -0.001028185 4287968308
0.00052276254 -0.0014018212 -0.0018058422 4287641654
0.0024006702 -0.0013566799 -0.0019300424 4286660923
-0.050135024 -0.0056582242 0.0017813151 4287313978
-0.048691206 -8.8436529e-05 -0.0029400522 4287445813
-0.047219779 0.0046910793 -0.007002647 4287576884
-0.045781042 0.0094699394 -0.011062909 4288165423
-0.044090215 0.011090217 -0.012497824 4288557358
-0.042410295 0.012710346 -0.013931854 4289146153
-0.040588003 0.012751607 -0.01405427 4289408039
-0.038845103 0.013582295 -0.014831811 4289473574
-0.037025586 0.013623742 -0.014953855 4289408038
-0.035290927 0.014454482 -0.015730664 4289277223
-0.033561751 0.015285267 -0.016507052 4289408038
-0.031657539 0.01453785 -0.015973926 4290193184
-0.029747928 0.01379071 -0.015441118 4289342503
-0.027832933 0.013043826 -0.014908571 4289342759
-0.026010977 0.013086049 -0.015030243 4289080873
-0.02408793 0.012339579 -0.014498068 4288753963
-0.022055626 0.010804584 -0.013312528 4288884524
-0.020119108 0.010058677 -0.012781065 4288884269
-0.01795857 0.0077357348 -0.010943409 4288818734
-0.015781783 0.0054133292 -0.0091067888 4288687919
-0.013473976 0.0023029149 -0.0066182557 4288360498
-0.011379469 0.00076995604 -0.0054364298 4287640889
-0.0091539621 -0.0015509408 -0.0036027834 4287510074
-0.0070351586 -0.0030830968 -0.0024224012 4287575353
-0.0049055889 -0.00461483 -0.0012426837 4287575353
-0.0032787547 -0.002993552 -0.0026713996 4287706678
-0.0015318543 -0.0021604598 -0.003447559 4287446069
-0.050056197 -0.0087478124 0.0019735713 4287052604
-0.048417773 -0.0055382494 -0.00077268924 4287183418
-0.046998207 4.6407804e-05 -0.0054810233 4287445559
-0.045616776 0.0056302864 -0.010186659 4287576374
-0.044131216 0.0096301455 -0.013581373 4287903284
-0.042451326 0.011254614 -0.015012171 4288099634
-0.040782351 0.01287896 -0.016442144 4288753708
-0.039044991 0.013711734 -0.017217739 4289211944
-0.037395135 0.015335908 -0.018646238 4289408549
-0.0355867 0.015377203 -0.018767463 4289277734
-0.033778302 0.015418632 -0.018888587 4289015594
-0.031879753 0.014668958 -0.018356735 4289146408
-0.030068727 0.014710682 -0.018477857 4289800739
-0.028066458 0.013170274 -0.017293828 4289277223
-0.026151726 0.012421323 -0.016762801 4289277223
-0.024029432 0.010090673 -0.014927741 4289146153
-0.021890866 0.007760467 -0.013093639 4288884779
-0.019736025 0.0054307636 -0.011260539 4288492078
-0.017564945 0.0031015947 -0.0094284769 4287903284
-0.015265618 -1.7857179e-05 -0.0069459565 4287575865
-0.013174009 -0.0015553515 -0.0057672644 4287510328
-0.011189044 -0.0023018271 -0.0052402965 4287640633
-0.0090785809 -0.0038386025 -0.0040627266 4287706169
-0.0069573298 -0.0053750295 -0.0028857305 4287575353
-0.0049509034 -0.0061206557 -0.002359933 4287445048
-0.048207842 -0.010215485 0.00072559435 4287052604
-0.046777111 -0.0046154186 -0.0039721313 4287249209
-0.045384519 0.000983987 -0.0086672194 4287510839
-0.043958984 0.0057887565 -0.012707081 4287641653
-0.042270955 0.0074177515 -0.014135197 4288295729
-0.040746883 0.010634122 -0.016866853 4288818989
-0.039006889 0.011469083 -0.017640971 4288819243
-0.03751827 0.014684876 -0.020370075 4290585629
-0.035882093 0.016313231 -0.021794388 4290193184
-0.034169436 0.017147949 -0.022566384 4290062113
-0.032191843 0.015602386 -0.021384116 4290651164
-0.030203415 0.014057232 -0.020202531 4289800484
-0.028204147 0.012512455 -0.019021574 4288949803
-0.025997428 0.0093815755 -0.01653978 4289015338
-0.023768989 0.0062512998 -0.014059361 4288949804
-0.021518836 0.0031216647 -0.011580293 4288688429
-0.019459929 0.0015787557 -0.010402959 4288164913
-0.017281007 -0.00075681321 -0.0085762432 4287968563
-0.014973916 -0.0038847588 -0.0061007012 4287771958
-0.012874428 -0.0054263566 -0.004925801 4287771958
-0.011233602 -0.0037965048 -0.0063493107 4288098614
-0.0093635842 -0.0037522092 -0.0064734761 4287771448
-0.0073708668 -0.0045004487 -0.0059484728 4287575863
-0.046687633 -0.0077020563 -0.0037785731 4286987068
-0.045152739 -0.003679527 -0.0071604806 4287248954
-0.043716103 0.0011385363 -0.011191381 4287510328
-0.042090949 0.0035681296 -0.013267765 4287576118
-0.04071153 0.0083851535 -0.017294629 4287772468
-0.039206453 0.011609903 -0.020018453 4288295983
-0.037805088 0.015630035 -0.023390921 4288950058
-0.036092475 0.016466787 -0.024161402 4289800739
-0.034297995 0.016507907 -0.024281587 4289866019
-0.032233328 0.014162341 -0.022452714 4289800483
-0.030152375 0.01181733 -0.02062487 4289015083
-0.027959617 0.0086772945 -0.018148724 4288557104
-0.025646884 0.0047425088 -0.015024822 4288360753
-0.023306992 0.00080846809 -0.011902647 4288360498
-0.021147318 -0.0015342943 -0.010079673 4287837495
-0.0190778 -0.0030813087 -0.0089062862 4287640888
-0.01699746 -0.0046279971 -0.0077334912 4287706679
-0.014794469 -0.0069693383 -0.0059131728 4288164403
-0.012689799 -0.0085152332 -0.0047418326 4288163638
-0.010926239 -0.0076758619 -0.0055146432 4288360754
-0.046467371 -0.012393838 -0.0022919124 4286724163
-0.044989668 -0.0075619239 -0.0063159512 4286986559
-0.04340275 -0.004327016 -0.0090390909 4287379514
-0.041837625 -0.0010924656 -0.011760661 4287183418
-0.040447097 0.0037378408 -0.015778573 4287510839
-0.039010152 0.0077695418 -0.019145422 4287576118
-0.037682306 0.012598673 -0.02315894 4288622894
-0.036048904 0.014235651 -0.024576591 4289080619
-0.034164555 0.013479004 -0.024048742 4288950059
-0.03209478 0.011127049 -0.022225056 4288884268
-0.029823245 0.0071802009 -0.019106673 4288884268
-0.027619993 0.0040317196 -0.016637694 4288360498
-0.025395019 0.00088387541 -0.014170064 4288164403
-0.023249235 -0.0014658105 -0.01235115 4287902774
-0.0211908 -0.0030176025 -0.011180313 4287902774
-0.019121557 -0.0045689624 -0.010010138 4287771704
-0.016823355 -0.0077146459 -0.0075470535 4287967798
-0.014727049 -0.0092651863 -0.0063784681 4287968309
-0.012619939 -0.010815306 -0.0052105524 4287771703
-0.010970972 -0.0091765691 -0.0066281315 4287053113
-0.044895131 -0.010656684 -0.0061288662 4286789699
-0.043373566 -0.0066125747 -0.0094935866 4287182908
-0.041732013 -0.0041696299 -0.011561334 4287314233
-0.040259488 -0.00012638606 -0.01492258 4287249209
-0.038893282 0.0047165863 -0.01892909 4287641653
-0.037641548 0.01035901 -0.02358024 4288426288
-0.03592094 0.011200292 -0.024348021 4288557359
-0.033944134 0.009641597 -0.023175539 4288622638
-0.031686626 0.005683437 -0.020064401 4288557358
-0.029401941 0.0017260015 -0.016955001 4288491824
-0.027090086 -0.0022306368 -0.013847297 4288164658
-0.025045408 -0.0037873518 -0.012678968 4287510329
-0.022889074 -0.0061432924 -0.010865598 4287379513
-0.020923588 -0.0068995766 -0.01034422 4287836983
-0.01874017 -0.0092546623 -0.0085324887 4287836474
-0.016649496 -0.010809811 -0.0073668621 4287705148
-0.014436301 -0.013163947 -0.0055569247 4287509308
-0.043132003 -0.011309907 -0.008012848 4286921023
-0.041553088 -0.0080576632 -0.010722408 4287182908
-0.039995968 -0.0048057977 -0.013430418 4287379769
-0.03861865 5.0431117e-05 -0.017427919 4287511094
-0.037274025 0.0049060248 -0.02142315 4287576374
-0.03562434 0.0065520685 -0.022835422 4287707189
-0.033549748 0.0041870587 -0.02102186 4288033843
-0.031189203 -0.00058376789 -0.017274883 4287706933
-0.028981255 -0.003749663 -0.014819259 4287641654
-0.026846912 -0.0061129443 -0.013009431 4287445048
-0.024794351 -0.0076737497 -0.011844887 4287445049
-0.022730961 -0.009234244 -0.010680946 4287641399
-0.020760246 -0.0099925147 -0.01016156 4287967799
-0.018571723 -0.012354039 -0.0083549768 4287705913
-0.016366955 -0.014715032 -0.0065494385 4286921024
-0.041374519 -0.011958566 -0.0098929601 4287182654
-0.039961569 -0.0070886221 -0.013883242 4287313978
-0.038581315 -0.0022192821 -0.017871307 4287314488
-0.037152093 0.0018449444 -0.021213291 4287510839
-0.035243843 0.001082208 -0.020691983 4287576118
-0.033243075 -0.00048465654 -0.019527521 4287968563
-0.03087217 -0.0052683093 -0.015790962 4288034099
-0.028838828 -0.0068342071 -0.014628518 4287903284
-0.026508844 -0.010812187 -0.011538226 4287903029
-0.024347687 -0.013181172 -0.0097349714 4288164914
-0.022170249 -0.015549734 -0.0079326956 4287837748
-0.020286854 -0.015505857 -0.0080582974 4287902263
-0.018191226 -0.017069634 -0.0068995859 4287247423
-0.039774984 -0.010989084 -0.013054214 4286528833
-0.038386345 -0.0061065387 -0.017033076 4287183419
-0.036948796 -0.0020312592 -0.020367531 4287248954
-0.035116911 -0.0019894261 -0.020490328 4287510839
-0.03311098 -0.0035605021 -0.019329511 4287641654
-0.03073515 -0.008357089 -0.01560292 4287641654
-0.028604163 -0.010733538 -0.013802687 4287510584
-0.026171271 -0.015528587 -0.01007975 4287510584
-0.023999566 -0.017903864 -0.0082820663 4287706678
-0.021811582 -0.020278694 -0.0064853434 4287641143
-0.038270552 -0.0091976933 -0.016845092 4287052604
-0.036827404 -0.0051114559 -0.02017186 4287248698
-0.034990221 -0.0050694831 -0.020294996 4287445048
-0.032892145 -0.0074535161 -0.018497569 4287510584
-0.03050868 -0.012262926 -0.014781244 4287314233
-0.028277442 -0.015454327 -0.012346568 4287379769
-0.025834199 -0.020262117 -0.0086340606 4287248698
-0.023651939 -0.022643734 -0.0068419091 4287510329
-0.036543302 -0.0098221153 -0.018704617 4287117628
-0.03486377 -0.0081580561 -0.020105911 4287575608
-0.032586761 -0.012170215 -0.017036611 4287968054
-0.030103296 -0.017803214 -0.012692327 4287575864
-0.027766496 -0.021813743 -0.0096268365 4287183419
-0.025497612 -0.025012862 -0.0072010718 4286463553
-0.023402611 -0.026590129 -0.0060522738 4286593603
-0.034401037 -0.014507511 -0.017374713 4286855998
-0.032021299 -0.019343175 -0.013677621 4287444538
-0.029698528 -0.023365026 -0.010619381 4287640633
-0.031630285 -0.02491598 -0.011611705 4287052094
0.024641663 -0.010418599 0.014445025 4284573239
0.015795611 -0.0067021362 0.0092085116 4280906594
0.011036918 -0.0036390163 0.0043917052 4282347599
0.013384476 -0.0059362315 0.0062327986 4280713049
0.0066284649 -0.0021145046 0.00089902198 4282345048
0.0086590908 -0.0028522369 0.0014286623 4280449633
0.010842592 -0.0043731555 0.0026119719 4279274339
0.0044177696 -0.0020971317 -0.0014012887 4282018904
0.0065822415 -0.0036230162 -0.00022015115 4280842079
0.002491463 -0.0036463607 -0.002392787 4282935118
0.0046503581 -0.005176831 -0.0012145932 4280581468
0.0066780113 -0.0059191026 -0.00068808184 4280123233
-0.0017082915 -0.0028694998 -0.0052101086 4282216273
0.00016402081 -0.0028245915 -0.0053340108 4281105749
0.0023091845 -0.0043598972 -0.0041581909 4280517974
0.0044650882 -0.0058947857 -0.0029830351 4280126549
0.0064898171 -0.0066392999 -0.0024579468 4280190553
-0.0034976676 -0.0052036922 -0.0055479934 4282214998
-0.0016226508 -0.0051588304 -0.0056721587 4280451929
0.00025225058 -0.0051138513 -0.0057962271 4279929688
0.0025362708 -0.0074457712 -0.0039756279 4279474513
0.004279945 -0.006608123 -0.0047480501 4279539283
0.0063017532 -0.007354876 -0.0042243856 4278753883
-0.0052924417 -0.0075420719 -0.0058884663 4280973914
-0.0034147166 -0.0074972454 -0.0060128858 4280385884
-0.0015371218 -0.007452324 -0.0061372244 4279797854
7.3101372e-05 -0.0058181342 -0.007555007 4279668314
0.0019450113 -0.0057731029 -0.0076787844 4279341658
-0.0093329996 -0.007537948 -0.008044946 4283000909
-0.0077060051 -0.0058994982 -0.0094608907 4281170774
-0.0054630116 -0.0082458295 -0.0076476499 4280190043
-0.0034600236 -0.008998001 -0.0071263611 4279862878
-0.01089853 -0.011476393 -0.0070968838 4282479689
-0.009377744 -0.0090340991 -0.0091550415 4281499724
-0.0076281391 -0.0081904847 -0.0099235205 4280520779
-0.0056334361 -0.0089450888 -0.0094034215 4280192083
-0.0037614368 -0.0089004021 -0.0095274635 4279472474
-0.012709349 -0.013824754 -0.0074435142 4282416193
-0.011177529 -0.011375818 -0.0094976546 4282023494
-0.0096621141 -0.008927213 -0.011550587 4281371968
-0.0076729432 -0.0096842228 -0.011031815 4280456773
-0.0058037117 -0.0096397409 -0.011155777 4279799129
-0.0040625595 -0.008793937 -0.011921915 4278556513
-0.014079127 -0.019392386 -0.0052257809 4282871369
-0.012754034 -0.015329132 -0.0085597374 4282089794
-0.011339203 -0.012070039 -0.011250412 4281894464
-0.0099462345 -0.0088113528 -0.013939548 4281436994
-0.0078402273 -0.010374242 -0.012780972 4279933259
-0.0062242597 -0.0087228771 -0.014186449 4278947939
-0.012912959 -0.016027402 -0.010315742 4281500488
-0.011617709 -0.011953875 -0.013639543 4281502019
-0.010110367 -0.0094923824 -0.015682278 4280130374
-0.01177904 -0.012636803 -0.015383922 4281238349
0.020985804 -0.0097413408 0.016505953 4281751153
0.039120376 -0.012406051 0.01799633 4280111759
0.018535443 -0.0090074968 0.013509598 4279451818
0.020461634 -0.0089603458 0.013382837 4280306579
0.022710398 -0.010466104 0.01457195 4281292663
0.036225297 -0.010131761 0.013685156 4280505224
0.037972078 -0.0093076956 0.012902359 4279717783
0.040642448 -0.012363134 0.015401358 4280307344
0.044088565 -0.018521182 0.020523366 4282405484
0.020255044 -0.009723546 0.011582499 4279388579
0.024429254 -0.011186285 0.01264184 4280113033
0.032141097 -0.010995654 0.012135707 4278865574
0.034068584 -0.010947779 0.012009375 4278930599
0.035635196 -0.0093433894 0.010573072 4278469303
0.039478287 -0.0092474744 0.01032153 4278270659
0.045423858 -0.017708495 0.017267657 4281355648
0.017504901 -0.0074052066 0.0072919433 4278470579
0.019573025 -0.0081393421 0.007821111 4278929834
0.021968916 -0.010434979 0.0096593201 4279192993
0.02388905 -0.010387746 0.0095331296 4278734759
0.025809027 -0.010340434 0.0094070099 4279587479
0.027559407 -0.0095123705 0.0086268876 4280636804
0.029648393 -0.010245512 0.0091550425 4279913878
0.031567805 -0.010197912 0.0090291817 4279127968
0.033487014 -0.010150236 0.0089033991 4278536879
0.035225786 -0.009322118 0.0081242938 4279584928
0.037141897 -0.009274343 0.0079988446 4279584418
0.039057799 -0.0092264768 0.0078734811 4279255213
0.043653555 -0.012250951 0.01023373 4279782554
0.046355121 -0.015322754 0.012717921 4281750133
0.015241764 -0.0074137971 0.0049767089 4278405808
0.019050024 -0.0073206332 0.0047260453 4279126694
0.021276236 -0.0088399164 0.005906912 4278669224
0.023349263 -0.0095759053 0.0064342874 4278603433
0.025094345 -0.0087459125 0.0056560473 4278536879
0.027172461 -0.009481594 0.0061832224 4278274738
0.029255837 -0.010217076 0.0067101815 4278997153
0.03116969 -0.010169623 0.0065846792 4278603689
0.03672719 -0.0092441998 0.0055570411 4280174743
0.038637556 -0.0091964789 0.0054320334 4279520924
0.040736094 -0.0099310726 0.0059583797 4278865574
0.042839848 -0.010665406 0.0064844056 4278668713
0.045142598 -0.012181716 0.0076610534 4278735269
0.048045531 -0.016044155 0.010789219 4279522199
0.051573038 -0.02225206 0.015867347 4282471274
0.015041605 -0.0081521552 0.0031943256 4279258784
0.017098635 -0.0088910107 0.0037209117 4279192229
0.018844187 -0.0080591198 0.0029440466 4278865319
0.021067418 -0.0095828455 0.0041218526 4278603689
0.022973724 -0.009535946 0.0039965766 4278603943
0.024879843 -0.0094889682 0.0038713734 4278602924
0.026785798 -0.0094418842 0.0037462614 4278799018
0.028863542 -0.010179632 0.0042719333 4278866849
0.030597165 -0.0093474668 0.0034962711 4278669989
0.032502569 -0.0093001332 0.0033713928 4278341804
0.042217694 -0.0098466529 0.0033976338 4278603434
0.044512071 -0.011367571 0.0045716274 4278800549
0.051124282 -0.022250891 0.013406908 4280309128
0.014841601 -0.0088858753 0.0014153118 4278801058
0.016740113 -0.0088394713 0.001290319 4278341804
0.018796787 -0.0095804501 0.001815429 4278668969
0.020858742 -0.010321157 0.0023402236 4278734249
0.024499021 -0.0094401706 0.0014406848 4278268873
0.030199677 -0.0092990901 0.0010666703 4279258273
0.031922176 -0.0084648803 0.00029339315 4278472874
0.033819139 -0.0084176641 0.00016913703 4278472874
0.037426978 -0.0075362064 -0.00072732382 4278274994
0.039508849 -0.0082755126 -0.00020315964 4278734248
0.04197783 -0.010587905 0.0016164323 4278866084
0.044656552 -0.013686386 0.0040826821 4278866593
0.047945864 -0.019143701 0.0084900428 4280308873
0.051073931 -0.023813618 0.012247719 4282275434
0.012445733 -0.0080816504 -0.0015331532 4279787653
0.014488921 -0.0088252965 -0.0010089704 4278669989
0.016381875 -0.0087790284 -0.0011335972 4278735013
0.018591151 -0.010311877 3.8591679e-05 4278603944
0.020650193 -0.011054896 0.00056198426 4278340529
0.022387132 -0.010218604 -0.00021095714 4278667694
0.023952052 -0.008592993 -0.0016312462 4279257254
0.025844179 -0.0085462686 -0.0017554609 4279126184
0.029627912 -0.0084525384 -0.0020036416 4279127204
0.031342231 -0.0076163933 -0.0027747168 4278603944
0.033230938 -0.0075693969 -0.002898443 4278604199
0.03530214 -0.0083113071 -0.0023753229 4278735015
0.037193172 -0.0082640555 -0.0024990537 4278734758
0.039460301 -0.0097944885 -0.0013299284 4278537898
0.042119831 -0.012902222 0.0011310461 4279259549
0.044994459 -0.01679806 0.0042367238 4280767109
0.048288651 -0.022270532 0.0086324643 4281225854
0.012098968 -0.0080097858 -0.0039496035 4279916173
0.013983771 -0.0079637952 -0.0040737516 4278538663
0.016023897 -0.0087095909 -0.0035509118 4278407338
0.018069312 -0.0094551966 -0.0030283008 4278669479
0.021685116 -0.0085706338 -0.0039231936 4279127713
0.023239195 -0.0069409497 -0.0053395359 4279128478
0.025289372 -0.0076860059 -0.0048169917 4279127204
0.027001299 -0.0068479311 -0.0055864286 4279126694
0.029056571 -0.0075926948 -0.005064094 4278602924
0.031117097 -0.008337222 -0.0045420248 4278603944
0.033182904 -0.0090815835 -0.0040202001 4278930598
0.035253942 -0.009825673 -0.0034986881 4278931108
0.037700959 -0.012151838 -0.0016875032 4278931618
0.040164061 -0.014477455 0.00012266543 4279784083
0.04302486 -0.018384604 0.0032210858 4280439688
0.045525618 -0.020709176 0.0050289412 4281291643
0.048434928 -0.024614954 0.0081243049 4281619574
0.050774358 -0.0261476 0.009285707 4282142834
0.053124472 -0.027679959 0.0104465 4282469743
0.0077045001 -0.006431723 -0.0074035944 4278866848
0.0094313808 -0.0055920091 -0.0081730699 4278996389
0.011452563 -0.0063406322 -0.0076507414 4279455134
0.013326384 -0.0062949471 -0.0077741938 4278931108
0.015510835 -0.0078372564 -0.0066068871 4278669734
0.017389782 -0.0077912416 -0.0067305258 4278669734
0.022859417 -0.0068588592 -0.0077455249 4278599099
0.024903983 -0.0076062288 -0.007224231 4278405808
0.028834507 -0.0083067585 -0.0068265479 4278668969
0.030892134 -0.0090535264 -0.0063059037 4278603688
0.033314757 -0.011387004 -0.0044981115 4278472364
0.035753481 -0.013719967 -0.0026912894 4278471343
0.03857889 -0.017639035 0.00040123053 4279522709
0.041243285 -0.020764064 0.0028488445 4280439943
0.043547794 -0.022302236 0.0040091411 4280767874
0.04605639 -0.024633149 0.0058116172 4281029759
0.048384927 -0.0261705 0.006970434 4282012528
0.0055008866 -0.0063826535 -0.0096809026 4279393423
0.0075140111 -0.0071338806 -0.0091598388 4278996898
0.010956615 -0.0054502692 -0.010694733 4278401474
0.012974747 -0.0062010381 -0.010173748 4278269893
0.015153483 -0.0077477917 -0.0090093445 4278603434
0.017184928 -0.0084980968 -0.0084890593 4278538664
0.018739365 -0.0068598669 -0.009899145 4278669734
0.020773195 -0.0076098684 -0.0093789082 4279059373
0.026563093 -0.0082669966 -0.0091050891 4278340273
0.028786927 -0.0098119769 -0.0079431552 4279324574
0.031198524 -0.012152323 -0.0061395518 4278473638
0.033806041 -0.015287782 -0.0036948472 4278866083
0.036252603 -0.017627038 -0.0018934438 4278276013
0.03927093 -0.02235226 0.0018322091 4278343079
0.041569956 -0.023895001 0.0029895655 4280636804
0.043879636 -0.025437348 0.0041462448 4280898944
0.045813262 -0.025388824 0.0040198811 4280768129
0.047942795 -0.026135456 0.0045346585 4282406249
0.0014452115 -0.0063692052 -0.011829097 4279064473
0.003169626 -0.0055254828 -0.012595452 4279194523
0.0051718019 -0.0062792972 -0.012075321 4278274993
0.007034909 -0.0062341634 -0.012198282 4279060904
0.017138191 -0.0099987155 -0.0096023139 4278668969
0.01869265 -0.0083561484 -0.011009172 4278472874
0.020562887 -0.0083101597 -0.011132098 4278735014
0.022432968 -0.0082640816 -0.011254942 4278668968
0.024471723 -0.0090159457 -0.010736505 4278603944
0.026687331 -0.010565616 -0.0095772976 4278734759
0.029087909 -0.012912832 -0.0077779563 4278997153
0.031681642 -0.016057421 -0.0053388909 4279653779
0.034476638 -0.019999165 -0.0022606971 4280439433
0.036751337 -0.021547029 -0.001105109 4280242574
0.039036699 -0.023094498 4.9800146e-05 4279455134
0.041332766 -0.02464167 0.0012041074 4280963969
0.043258339 -0.024593432 0.0010782066 4280963969
0.045377024 -0.025342556 0.0015919679 4281619829
-0.00059694052 -0.0071023256 -0.013452865 4279197073
0.0012636855 -0.0070575941 -0.013575917 4279194268
0.0028464571 -0.00541085 -0.014981974 4278997154
0.0048429929 -0.0061669461 -0.014463138 4278404788
0.0068448335 -0.0069227666 -0.013944544 4278731444
0.0088519901 -0.0076784305 -0.013426207 4279782553
0.010714695 -0.0076331142 -0.013548998 4278800293
0.012729727 -0.0083883423 -0.013031071 4278406574
0.014750049 -0.0091433302 -0.01251341 4278798508
0.016617745 -0.009097591 -0.012636309 4278668459
0.018485315 -0.009051783 -0.012759143 4278734759
0.020352721 -0.0090058818 -0.012881897 4278537899
0.022386029 -0.0097601498 -0.012364792 4278603434
0.024424613 -0.010514217 -0.01184798 4278473638
0.026639983 -0.012068259 -0.010692007 4278669989
0.029214457 -0.015222125 -0.0082582291 4279588244
0.031987436 -0.019175371 -0.0051867492 4279981708
0.034607768 -0.022327902 -0.0027558331 4280505478
0.036884941 -0.023880027 -0.0016036995 4280701319
0.038987704 -0.02463197 -0.0010906991 4279913878
0.041095719 -0.025383722 -0.00057799974 4280438158
0.043018512 -0.025335569 -0.00070372922 4281422203
-0.0028946288 -0.0062240213 -0.016354429 4279391893
-0.0011755452 -0.0053762905 -0.017117357 4279324318
0.00081015378 -0.0061350539 -0.016599521 4278930089
0.0026623718 -0.0060904361 -0.016721953 4278339763
0.0047975145 -0.0076518282 -0.015564783 4278997153
0.010668702 -0.0091223959 -0.014653875 4278535858
0.012531132 -0.0090770032 -0.014776586 4278667439
0.01625558 -0.0089859217 -0.015021758 4279061413
0.018278144 -0.0097428579 -0.014505737 4278799784
0.020305984 -0.010499544 -0.013989972 4278538154
0.022505105 -0.01205848 -0.01283635 4278865064
0.024714939 -0.013617103 -0.011683323 4279061924
0.027106903 -0.015977662 -0.009893192 4280439434
0.029689156 -0.019140022 -0.0074663917 4280439434
0.032292984 -0.022301756 -0.0050409399 4280439434
0.03455922 -0.023858655 -0.0038913684 4281028739
0.036471546 -0.023811013 -0.0040165982 4280701319
0.038568713 -0.024565291 -0.0035048672 4280308363
0.040858857 -0.026121262 -0.0023566885 4280043418
-0.018023394 -0.020190317 -0.0067378837 4282337654
-0.0160206 -0.020951962 -0.0062237061 4281552509
-0.014235508 -0.020101458 -0.0069900388 4281098609
-0.0067695305 -0.0069871433 -0.017846521 4278739349
-0.0047918558 -0.0077486206 -0.017330032 4279063964
-0.003070008 -0.006898772 -0.018091615 4279126438
-0.0013537183 -0.0060489923 -0.018852703 4279322279
0.00049304962 -0.0060046036 -0.018974848 4279454113
0.0024784282 -0.0067654178 -0.018458588 4279127458
0.0046105869 -0.0083312616 -0.017304409 4278801314
0.010173872 -0.0081963204 -0.017671449 4278402494
0.012028031 -0.0081511345 -0.01779362 4278534073
0.015893683 -0.0088653173 -0.017400652 4279192739
0.01791063 -0.0096245678 -0.01688588 4278734504
0.020259269 -0.011993038 -0.015097924 4279062178
0.022955909 -0.015970275 -0.012037886 4280111504
0.025342286 -0.01833763 -0.010252271 4280701063
0.027402088 -0.019095432 -0.0097400229 4278865063
0.029815316 -0.021461949 -0.0079560382 4280701319
0.032067887 -0.023023576 -0.0068089133 4280897413
0.034331165 -0.024584834 -0.0056624128 4280504714
0.036240675 -0.024537288 -0.0057874792 4280768129
0.038334973 -0.025293866 -0.0052771443 4282668134
0.044456266 -0.026758255 -0.0043827291 4282275179
0.046568871 -0.027514042 -0.0038734179 4282602854
-0.017855819 -0.023319399 -0.0065824874 4281290114
-0.016065288 -0.022466753 -0.0073476825 4280634763
-0.014503222 -0.019997798 -0.009389461 4280308364
-0.0087861083 -0.0077011883 -0.01945816 4279196308
-0.0070641264 -0.0068494491 -0.020218272 4278408868
-0.0050920993 -0.0076131914 -0.01970307 4279651484
-0.0016649626 -0.005909564 -0.021221764 4278270148
0.0024333037 -0.0082433708 -0.019555103 4278797234
0.0045652092 -0.0098135984 -0.018404165 4278538664
0.0064196363 -0.009768717 -0.018526586 4278800549
0.0082739368 -0.0097237425 -0.018648926 4278930853
0.0098290071 -0.0080641937 -0.020043196 4278668204
0.011982143 -0.0096335048 -0.018893359 4278799529
0.013991013 -0.010395324 -0.018379824 4278800038
0.01616291 -0.011963964 -0.017231064 4278603433
0.018185101 -0.012725248 -0.016718248 4279389853
0.020701997 -0.015906999 -0.014300393 4279850384
0.023406327 -0.019894918 -0.011248956 4280767874
0.025800534 -0.022268567 -0.0094687575 4280833154
0.027697019 -0.022221696 -0.0095932307 4280766344
0.029767357 -0.022981413 -0.0090832207 4279717783
0.03201969 -0.024547376 -0.0079393014 4280898179
0.033923849 -0.024500068 -0.0080640968 4282275943
-0.019489881 -0.027312003 -0.0056689857 4281815413
-0.017794438 -0.025646608 -0.0070706233 4280701063
-0.016109966 -0.023981303 -0.0084714815 4280700298
-0.014659256 -0.020695563 -0.011145331 4279651228
-0.013230395 -0.017410215 -0.013817636 4279259549
-0.012057077 -0.012504944 -0.017761482 4279259549
-0.010438219 -0.010840768 -0.019157592 4279324319
-0.0090749077 -0.007556621 -0.021825282 4278538919
-0.0052643269 -0.0082788114 -0.021433648 4279912604
-0.0032898858 -0.0090445429 -0.020920129 4278799018
-0.0015764423 -0.0081905201 -0.021677824 4278603178
0.0040958673 -0.0088669285 -0.021408549 4278603433
0.0056539327 -0.007203212 -0.022799892 4278669479
0.007641267 -0.0079680346 -0.022286782 4278735014
0.0094844401 -0.0079232603 -0.022408338 4278669479
0.011784084 -0.010306347 -0.020627145 4278603944
0.013944969 -0.011879658 -0.019481011 4279128224
0.016431868 -0.015071045 -0.017067809 4279652504
0.018619664 -0.016643504 -0.015923303 4280570760
0.021307386 -0.020642804 -0.012878945 4280701829
0.023856357 -0.023832364 -0.010469599 4280963969
0.025921412 -0.024594568 -0.0099609941 4281094784
0.027649261 -0.023738753 -0.010718638 4281028739
0.029719435 -0.024500664 -0.010210246 4280503694
0.031794861 -0.025262291 -0.0097021582 4280701829
-0.019431323 -0.029647667 -0.0061632548 4281750133
-0.017839082 -0.027165294 -0.0081975041 4280308363
-0.016263247 -0.024683144 -0.010230616 4279193249
-0.014703806 -0.02220124 -0.012262534 4279913623
-0.013160769 -0.019719655 -0.014293235 4279521178
-0.011867702 -0.01561362 -0.017592652 4279455899
-0.010601923 -0.011508087 -0.020890225 4278996898
-0.0091189928 -0.0090275798 -0.022916678 4278472363
-0.0071527138 -0.0097959321 -0.022404427 4278602669
-0.0035952628 -0.008895874 -0.023282804 4279585948
-0.0018873289 -0.0080397986 -0.024038507 4279062178
8.6694956e-05 -0.0088075381 -0.023526447 4278930853
0.0022045821 -0.01038684 -0.022381162 4278602668
0.0037682131 -0.0087187923 -0.023769747 4278406573
0.0054648183 -0.0078625977 -0.024524409 4278800293
0.0075959414 -0.0094412826 -0.023379777 4278538154
0.0095883943 -0.010208048 -0.022868542 4278407849
0.014518343 -0.016609553 -0.018052397 4279455898
0.01685816 -0.018998008 -0.016278578 4280438924
0.019214131 -0.021385923 -0.014505789 4280766598
0.021423273 -0.022962186 -0.013365835 4280766853
0.023643129 -0.024538053 -0.012226561 4280963714
0.025873713 -0.026113573 -0.011087855 4280897668
0.027601548 -0.025255643 -0.011843923 4281291643
0.029497653 -0.025208721 -0.011968326 4282471528
0.031393602 -0.025161728 -0.012092665 4282209643
0.033468716 -0.025925526 -0.011586092 4281226619
-0.019579109 -0.030357851 -0.0079290625 4282535024
-0.01798955 -0.027868962 -0.0099583101 4280897158
-0.016307827 -0.026195124 -0.011352509 4280242319
-0.014637072 -0.024521336 -0.0127459 4280109973
-0.012863267 -0.023662332 -0.013504956 4279651993
-0.011561859 -0.019545268 -0.016796861 4279717273
-0.010287739 -0.015428729 -0.020086868 4279258529
-0.008918751 -0.012127095 -0.022742014 4279717274
-0.0069472305 -0.012897495 -0.02223173 4279193758
-0.0036397353 -0.010366664 -0.02437404 4278403514
4.1965395e-05 -0.010278356 -0.024617683 4278468793
0.0035820268 -0.0093757436 -0.0254927 4278931109
0.0052758455 -0.0085174013 -0.026245601 4278603434
0.0076972581 -0.011728159 -0.023841316 4279193248
0.0098416023 -0.013310816 -0.022700679 4279325594
0.012452871 -0.01733412 -0.019667763 4279653269
0.014626846 -0.018915817 -0.018528976 4279718293
0.016969055 -0.021310747 -0.016760178 4279652249
0.019007012 -0.022078231 -0.016253302 4280831878
0.021050245 -0.022845488 -0.0157467 4280963968
0.023264416 -0.024425883 -0.014610246 4281356668
0.025489315 -0.026005881 -0.013474472 4281946738
0.037401639 -0.028162893 -0.012332758 4282537319
-0.019932855 -0.029429393 -0.010956718 4282274668
-0.018139873 -0.028568143 -0.011715714 4282012018
-0.016569387 -0.026073093 -0.013738772 4280438414
-0.014570437 -0.02684563 -0.013232308 4279979158
-0.012907933 -0.025167618 -0.014621858 4280110739
-0.011256386 -0.023489788 -0.016010549 4279652249
-0.0099739246 -0.019362196 -0.019293025 4278865574
-0.0084745623 -0.016868252 -0.021310933 4279323298
-0.0069916137 -0.014374583 -0.023327662 4279782808
-0.0055250637 -0.011881255 -0.025343193 4279389343
-0.0040749386 -0.00938816 -0.027357593 4278536623
-0.0023752972 -0.0085279774 -0.028109541 4278993329
-0.00040981546 -0.009300271 -0.027600154 4278796978
0.0016993992 -0.010888565 -0.026460761 4279258018
0.0036782511 -0.011660333 -0.025952106 4278930854
0.0056624189 -0.012431885 -0.025443742 4278668714
0.0080915987 -0.01565115 -0.023046443 4279324574
0.010393117 -0.018053886 -0.021280037 4279785104
0.01271081 -0.020456092 -0.019514669 4280112268
0.014735244 -0.021226268 -0.019008663 4280373898
0.016764998 -0.021996267 -0.018502895 4280503694
0.0186399 -0.021950355 -0.018626267 4279454878
0.020840377 -0.023535501 -0.017492274 4281028484
0.022886001 -0.024304787 -0.016987383 4282405739
0.038691968 -0.027191594 -0.015466675 4282471784
-0.016613811 -0.027580321 -0.014857141 4280896904
-0.014726222 -0.027536027 -0.014982786 4280699788
-0.012952581 -0.026672712 -0.015738618 4280372624
-0.011301048 -0.024990542 -0.017124077 4279913878
-0.0097797886 -0.022489691 -0.019138681 4279586203
-0.0081528984 -0.020807894 -0.020522347 4279455133
-0.0066617355 -0.018307524 -0.02253478 4278798764
-0.0055693649 -0.01335167 -0.026434164 4279061924
-0.0042493567 -0.010033529 -0.029072911 4279063198
-0.0026854053 -0.0083527416 -0.030452114 4278603944
-0.00045431033 -0.010764222 -0.028686298 4278800293
0.0015163012 -0.011538479 -0.028178807 4279127968
0.0039154142 -0.014767369 -0.025786148 4279324829
0.0060486197 -0.016359229 -0.024651425 4279849618
0.0084855556 -0.019586988 -0.022261104 4280177803
0.010496482 -0.020359881 -0.021755982 4280439688
0.012664638 -0.021950554 -0.020623388 4280701828
0.01453425 -0.021904988 -0.020746576 4280440199
0.016718462 -0.023495138 -0.019614864 4280897413
0.018593237 -0.02344924 -0.019738238 4281749879
0.023004435 -0.026627913 -0.01747735 4282078573
-0.014881857 -0.028221948 -0.016729871 4280375173
-0.013224814 -0.026535425 -0.018112551 4280241808
-0.011462208 -0.025670083 -0.018865949 4279718294
-0.0098243728 -0.023983773 -0.020247249 4279913878
-0.0081974939 -0.022297636 -0.021627683 4279848599
-0.0068309493 -0.018969946 -0.024263227 4279061668
-0.0057410374 -0.014001113 -0.028152745 4278863533
-0.0042935014 -0.011495093 -0.030157305 4279390108
-0.0025966987 -0.01063067 -0.030905856 4278931364
0.0020247363 -0.016286504 -0.026758233 4278734503
0.0042933486 -0.018703399 -0.024999602 4278996644
0.0062907338 -0.019479008 -0.024495367 4279455643
0.0085862875 -0.02189504 -0.022738358 4280177038
0.010748886 -0.023490286 -0.021608701 4280439689
0.012618504 -0.02344485 -0.021731984 4280439178
0.014642559 -0.02421941 -0.021229209 4280635784
0.016514651 -0.024173716 -0.021352509 4282143599
-0.013383038 -0.027212545 -0.019852867 4281159299
-0.01162323 -0.026345078 -0.020604521 4280307598
-0.0098689422 -0.025477674 -0.021355683 4279783574
-0.0082420707 -0.023787221 -0.022732904 4279389088
-0.0066261739 -0.022096857 -0.024109343 4278537133
-0.0055305697 -0.017114915 -0.027989581 4278537389
-0.0039474703 -0.015425162 -0.029363645 4278930854
-0.0023753531 -0.01373555 -0.03073696 4279063454
-0.00013675541 -0.016159881 -0.028981345 4280176274
0.0019798353 -0.017761007 -0.0278522 4280635274
0.0042481199 -0.020184439 -0.026098406 4280700808
0.0062453188 -0.020962227 -0.025595779 4280241808
0.0083941929 -0.022562321 -0.024468504 4279586460
0.010404743 -0.023339588 -0.023966605 4279848599
0.012572385 -0.024939001 -0.022840476 4278932894
-0.013427433 -0.028710591 -0.020964403 4283059559
-0.011784095 -0.027015597 -0.0223397 4281420418
-0.010032598 -0.026146092 -0.023089064 4279128223
-0.0082866214 -0.025276614 -0.023837985 4279522199
-0.0066707283 -0.023581935 -0.025211209 4279455643
-0.0053203218 -0.020237196 -0.027832709 4279193503
-0.0038617775 -0.017717959 -0.029828278 4279390363
-0.0021542311 -0.016848957 -0.030574324 4280439179
8.9470297e-05 -0.019279655 -0.028823949 4280766598
0.0023493879 -0.021709921 -0.02707454 4280832133
0.0042029172 -0.021665286 -0.02719707 4281160064
0.0060563497 -0.021620547 -0.027319513 4281094528
0.0080559589 -0.022400375 -0.026818605 4280308619
0.010209907 -0.024004625 -0.025694849 4281424244
0.012526311 -0.026432984 -0.023948843 4281686383
0.026120655 -0.028584959 -0.022944726 4282667878
-0.013471808 -0.030208457 -0.022075804 4282269313
-0.010315154 -0.025982531 -0.02544257 4279914644
-0.0084529109 -0.025938433 -0.02556623 4279718803
-0.0067152679 -0.025066845 -0.026312953 4279390874
-0.005237516 -0.022540782 -0.028305056 4279324829
-0.0037761964 -0.020014919 -0.030296003 4279914643
-0.0019333549 -0.019970872 -0.03041807 4279914644
0.00018010661 -0.02158089 -0.029295282 4280832134
0.0021662675 -0.022363577 -0.028795296 4280832389
0.0041577555 -0.023145977 -0.028295621 4280700808
0.005867552 -0.022274403 -0.02903994 4280962693
0.0078642592 -0.023056494 -0.028540473 4282209134
-0.0084973536 -0.027425371 -0.026669493 4281029249
-0.0067597702 -0.026551623 -0.027414601 4279717784
-0.0052819625 -0.024019055 -0.029401867 4279652249
-0.0035608523 -0.023145506 -0.030145742 4279848853
-0.0018452816 -0.022272021 -0.030889122 4280045203
0.00013535097 -0.023057053 -0.030390495 4279652504
0.002259329 -0.02467113 -0.029271536 4279390109
0.0043940693 -0.026284799 -0.028153254 4279914133
0.013531722 -0.025231056 -0.029386139 4282208879
-0.015990108 -0.029087713 -0.027277431 4282863718
-0.0069285966 -0.027204553 -0.029136019 4280176528
-0.005199302 -0.026328802 -0.029878864 4279848599
-0.0034755394 -0.025453065 -0.030621259 4279521689
-0.0018898174 -0.023745835 -0.031982604 4280046734
9.0625137e-05 -0.024533086 -0.031485613 4280964224
0.0019384585 -0.024488769 -0.0316079 4281751409
0.0060639679 -0.026893558 -0.0299963 4282210664
0.013331749 -0.02588282 -0.031104067 4282733414
-0.0053707622 -0.026975168 -0.03159517 4281815924
-0.0036497787 -0.026097305 -0.032335825 4280504204
-0.0018018782 -0.026053179 -0.032458261 4280505223
-8.9228153e-05 -0.025175396 -0.033198193 4282602854
0.0058754012 -0.02754264 -0.031713188 4280898178
0.0052572712 -0.025680514 -0.035273038 4282602854
0.014779136 -0.027128026 -0.03465182 4282273903
0.0049260594 -0.025476409 -0.037592273 4281815413
0.0047382675 -0.026103426 -0.039292876 4282993769
-0.0026407354 -0.027743731 -0.039893966 4281619319
-0.0030811541 -0.02667466 -0.04280958 4281029249
0.0045061968 -0.028188461 -0.042075146 4282667623
0.030735478 0.0066879112 0.050409369 4286016539
0.03254953 0.0074690972 0.049589001 4286212888
0.035225995 0.0045872964 0.052216753 4286277913
0.028204858 0.0072512273 0.047292806 4285624093
0.029509336 0.010239119 0.044409577 4285688863
0.031475104 0.010287227 0.044280201 4285819424
0.033787742 0.0088658836 0.045526717 4285884958
0.036992386 0.0037713721 0.050211292 4286016539
0.025528349 0.0085655469 0.043498166 4285558559
0.027163833 0.010087842 0.041994963 4285951768
0.029124267 0.010135772 0.0418659 4285885979
0.031084485 0.010183787 0.041736927 4285556773
0.033217959 0.0094949286 0.042294309 4285556773
0.035709031 0.0073324721 0.044223666 4285885214
0.038216211 0.0051705204 0.046152048 4285820189
0.018674918 0.0016194209 0.047649473 4284966959
0.019425981 0.0075844061 0.042030953 4285490984
0.021075726 0.0091111269 0.040529914 4285556518
0.022874169 0.0098982025 0.039715238 4285557794
0.025317051 0.0077276472 0.041642539 4285689374
0.026949815 0.0092542488 0.040142842 4285820698
0.028739445 0.010041418 0.039328977 4286148884
0.030523404 0.010828556 0.03851549 4286016793
0.032475114 0.010876494 0.038387168 4286082584
0.034955002 0.0087072458 0.040312417 4286214419
0.037093259 0.0080165323 0.040868014 4285689374
0.039599903 0.0058481339 0.042791646 4285558558
0.042306907 0.0029413458 0.045398232 4285493024
0.017413624 0.0059618484 0.040992092 4285360678
0.018914737 0.0082347933 0.038809583 4286147353
0.020713322 0.0090240408 0.037996437 4286343703
0.022506259 0.0098132137 0.037183784 4286148373
0.024780937 0.0083775241 0.03842289 4285623073
0.02657073 0.0091668498 0.037610538 4285688863
0.028522767 0.0092146378 0.037482079 4285754654
0.030303963 0.010003889 0.036670472 4285951258
0.032426186 0.0093104634 0.037225403 4286083349
0.03455364 0.0086171944 0.037780091 4285885979
0.03650748 0.0086653996 0.037651781 4285623838
0.038461111 0.0087136719 0.037523553 4285624349
0.040598728 0.0080209766 0.038077727 4285492769
0.043115422 0.0058464743 0.039995972 4285295399
0.013583109 0.0035480224 0.040766522 4285163819
0.01510375 0.0058278535 0.038587421 4285557794
0.016910844 0.0066192616 0.037775245 4285754144
0.01855807 0.0081546623 0.036280807 4285819934
0.020351179 0.0089459252 0.0354697 4285885724
0.022298276 0.0089933407 0.035341378 4286082839
0.02440758 0.0082970653 0.035895269 4285688863
0.026522107 0.0076010022 0.036448885 4285623838
0.028306194 0.0083924551 0.035638668 4285623839
0.030255169 0.0084403027 0.03551051 4285558303
0.031857394 0.0099752117 0.034019567 4285623839
0.034152478 0.0085362215 0.035254415 4285623839
0.035743348 0.010071045 0.033764362 4285689374
0.037867427 0.0093757678 0.034317758 4285755164
0.039996684 0.008680718 0.034870885 4286148119
0.042131163 0.007985888 0.035423741 4286409494
0.044650033 0.0058050174 0.037337057 4286212124
0.048146591 -9.0582296e-05 0.04265029 4285950239
0.011424713 0.0026704464 0.039044976 4285359913
0.012513116 0.0071959328 0.034825522 4285492513
0.01431217 0.0079892557 0.034015447 4285952278
0.016257025 0.008036321 0.033887055 4286542094
0.018355824 0.0073373485 0.034439821 4285819423
0.019989274 0.0088768471 0.032949664 4285556519
0.021771193 0.0096701998 0.032140978 4285951514
0.023872145 0.0089715291 0.032693863 4285820188
0.026143365 0.0075272415 0.033926781 4285623839
0.028089739 0.0075749401 0.033798732 4285558558
0.030035883 0.0076227281 0.033670764 4285558813
0.031635389 0.0091619808 0.032183278 4285558813
0.033751585 0.0084641967 0.032735471 4285624093
0.035337023 0.01000333 0.031248996 4285689374
0.037274107 0.01005126 0.0311219 4285820444
0.039395057 0.0093538109 0.03167402 4285754399
0.041708015 0.0079112556 0.032904718 4285819678
0.04384207 0.0072143395 0.033456054 4286081308
0.046365842 0.0050271694 0.03536427 4286016539
0.049880505 -0.00088531524 0.040663414 4285425958
0.012319535 0.0063833836 0.032987356 4285490984
0.013967149 0.00792736 0.03149927 4285557539
0.015755065 0.0087227207 0.030691644 4286279699
0.017845504 0.0080214012 0.031243363 4286278934
0.019627601 0.0088168178 0.030436272 4286082073
0.021563575 0.0088640098 0.030308722 4286082328
0.023661599 0.0081631411 0.030860143 4285754908
0.025929861 0.0067143906 0.03209006 4285689628
0.027873389 0.0067620482 0.031962216 4285624348
0.029475845 0.0083057154 0.030477697 4285624348
0.031067207 0.0098491739 0.028994022 4285624094
0.032999195 0.0098968279 0.02886715 4285689629
0.034752384 0.010692293 0.028062521 4285623839
