# .PCD v0.7 - Point Cloud Data file format
VERSION 0.7
FIELDS x y z rgba
SIZE 4 4 4 4
TYPE F F F U
COUNT 1 1 1 1
WIDTH 974
HEIGHT 1
VIEWPOINT 0 0 0 1 0 0 0
POINTS 974
DATA ascii
-0.0010909215 0.021184139 0.011579497 4290455069
0.00048272312 0.022737827 0.010110911 4290389278
0.0022047013 0.02353666 0.0093177781 4289931553
0.0040831491 0.023580898 0.0091996323 4289735203
0.006126225 0.022870678 0.0097559206 4289277224
0.00800699 0.022915158 0.0096377674 4289408038
0.0097172707 0.023714114 0.0088456646 4289211944
0.011248872 0.025267407 0.0073800916 4289342759
0.013472304 0.023803364 0.0086100977 4289146409
0.015884854 0.021585498 0.010512965 4289081384
0.018132336 0.020122174 0.011741569 4289211944
0.020206578 0.019413326 0.012296373 4289015594
0.02265925 0.017196625 0.014196957 4289015083
0.025885299 0.011964612 0.018787913 4289472553
-0.0062147528 0.016511135 0.013510909 4288035373
-0.0047617629 0.018826686 0.011369787 4289343524
-0.0030229539 0.019627839 0.010577029 4289343269
-0.0012897849 0.020428982 0.0097847115 4289343269
0.00028114766 0.021986965 0.0083195399 4289211943
0.0018410012 0.023544841 0.0068551032 4290062369
0.0037138909 0.023588955 0.006737317 4290454813
0.005916141 0.022119723 0.0079651605 4289342759
0.0077940673 0.022164136 0.0078471899 4289015593
0.0096717924 0.02220865 0.0077293031 4289408038
0.011376359 0.023009799 0.0069392193 4289146408
0.013075292 0.023810871 0.0061496021 4288819243
0.015303716 0.022342678 0.0073761195 4288950568
0.017361678 0.021631215 0.0079302825 4289211944
0.019424886 0.020919941 0.0084841698 4289539364
0.021120213 0.021721255 0.007695023 4290389278
0.023566917 0.01949802 0.0095911492 4290650908
0.026797622 0.014250901 0.014170572 4290454558
-0.008015044 0.014186963 0.013175542 4287120434
-0.007133536 0.019546587 0.0083492044 4288362029
-0.0054000616 0.020349707 0.0075583346 4289146663
-0.0036722124 0.021152861 0.0067678709 4290062369
-0.0019499883 0.021955922 0.0059778625 4289277223
-0.00023340434 0.022758968 0.0051882956 4289015593
0.0014775842 0.023561954 0.0043991366 4289146408
0.003506884 0.022847019 0.004953023 4289996833
0.0055414289 0.022132292 0.0055066412 4289408295
0.007413812 0.022176608 0.0053890394 4289408038
0.0094561279 0.021462247 0.0059423055 4289146408
0.011330821 0.021506794 0.0058246981 4289080873
0.013380907 0.020792749 0.0063776467 4289146408
0.015257895 0.020837527 0.0062600207 4289081384
0.017134674 0.02088239 0.0061424728 4289343269
0.018827461 0.021685809 0.0053550266 4289735458
0.0205146 0.022489145 0.0045680394 4289800993
0.022385277 0.022534087 0.004451043 4289996833
0.025023371 0.019546133 0.0070118904 4289866019
0.028266877 0.014284164 0.011579232 4290322978
-0.0079170018 0.011902798 0.012717349 4287512623
-0.007032454 0.0172778 0.0079021379 4288623403
-0.0055929422 0.019606158 0.0057716276 4288819499
-0.0037168488 0.019649982 0.0056533683 4289866019
-0.0023021922 0.021977909 0.0035246098 4290454813
-0.00059109181 0.022783011 0.0027370173 4290585629
0.00095517933 0.024349332 0.0012799539 4290454813
0.0032999888 0.022109717 0.003172162 4290585629
0.005167 0.022153825 0.0030548433 4289408295
0.00703381 0.022198021 0.0029375991 4289015594
0.0085602552 0.023764234 0.0014820555 4289146408
0.010421216 0.023808483 0.0013653217 4289342759
0.012457535 0.02309195 0.0019175336 4289211944
0.014677316 0.021614917 0.0031380914 4288950568
0.016364865 0.022420287 0.0023525888 4289408548
0.018046737 0.02322562 0.0015675146 4289997343
0.019722961 0.024030913 0.00078279059 4289997343
0.021582671 0.024075639 0.00066651311 4289146663
0.023825839 0.022599526 0.0018859496 4288950058
0.026274204 0.020363458 0.0037723947 4289211688
0.029922336 0.013566006 0.0096627846 4289080364
-0.0072479025 0.0065594669 0.014933184 4287445048
-0.0062038973 0.011186384 0.010797562 4288491823
-0.0050444603 0.015048925 0.0073330263 4288754220
-0.0037614852 0.018147372 0.0045390632 4288622893
-0.0023467541 0.02048184 0.0024151662 4289277224
-0.00063572079 0.021289155 0.001629224 4290127648
0.00091056526 0.022859834 0.00017540716 4290062113
0.0030932054 0.021376997 0.0013947096 4289604389
0.0049573779 0.02142106 0.0012775846 4288950314
0.0066540614 0.022228446 0.00049276743 4289146408
0.0080050677 0.024561994 -0.0016266867 4289146408
0.0096850172 0.02536916 -0.0024103145 4289408038
0.012061194 0.023124222 -0.00052458979 4289146408
0.014097109 0.02240565 2.6057474e-05 4288950568
0.016138256 0.021687232 0.00057647936 4289212454
0.017633773 0.023257539 -0.00087353541 4290128159
0.019490868 0.02330213 -0.00098969741 4290651418
0.021347761 0.023346782 -0.0011058035 4290520093
0.023396187 0.022628929 -0.00055562425 4290323999
0.025644347 0.021148674 0.00066033099 4290585629
0.028297573 0.018143848 0.0032074098 4289800483
0.031572089 0.01285236 0.0077502187 4289211434
-0.031531788 -0.014759447 0.032249928 4288101673
-0.0068649352 0.0027265642 0.015797723 4287510328
-0.0055215731 0.0058349464 0.013006296 4288622639
-0.004792884 0.012006171 0.0075470936 4288557614
-0.003655225 0.015879232 0.0040921364 4288754220
-0.0026985928 0.020517487 -2.8024428e-05 4288753964
-0.00099304318 0.021326851 -0.00081200153 4289211944
0.00054781139 0.022901747 -0.0022621732 4288950314
0.0027247518 0.02141447 -0.0010457877 4289015594
0.0045833588 0.021458417 -0.0011625551 4289408038
0.0062745512 0.022267822 -0.0019453494 4289277223
0.0076202005 0.02460783 -0.0040596402 4290454814
0.0092946813 0.025417022 -0.0048412471 4290847259
0.011489697 0.023930646 -0.0036256458 4290520093
0.013517298 0.023209661 -0.0030760518 4290193438
0.015550107 0.022488941 -0.0025267499 4288950568
0.017221063 0.023298379 -0.0033078915 4289343014
0.019072622 0.023342866 -0.0034236885 4289604644
0.021112956 0.02262257 -0.0028746771 4290323999
0.023158506 0.021902468 -0.0023259409 4290520093
0.025209293 0.021182586 -0.0017774617 4290193184
0.02746243 0.019698203 -0.0005649766 4289211944
0.030125946 0.016684975 0.0019750241 4289015593
0.033013545 0.012907807 0.0051776227 4289407783
-0.033767149 -0.014855236 0.029860491 4288754983
-0.032099228 -0.01250385 0.027728749 4288951589
-0.030125987 -0.01245956 0.027603017 4289476379
-0.02793289 -0.013952888 0.028813602 4288496668
-0.014086027 -0.013637817 0.02793449 4288431133
-0.011844877 -0.015129138 0.029142777 4289084699
-0.0098619945 -0.015083423 0.029017331 4290130199
-0.006625019 -0.00035108998 0.015986763 4287902773
-0.0052760914 0.0027661528 0.013201479 4288427053
-0.0042453259 0.007418951 0.0090862531 4288361518
-0.003398262 0.012839098 0.0043076398 4288558123
-0.0024359226 0.017490529 0.00019690441 4288688683
-0.0010375679 0.019837871 -0.0019161738 4288557613
0.00050330162 0.02141713 -0.0033630971 4289146408
0.002518259 0.020693194 -0.0028147539 4289146408
0.0045384988 0.019969467 -0.002266679 4289342759
0.0060624778 0.021548614 -0.0037123263 4289473574
0.0079151541 0.021592617 -0.0038285777 4289931554
0.0095950216 0.022404172 -0.0046089347 4290258463
0.011795253 0.02091353 -0.0033968529 4290323999
0.013472013 0.021725126 -0.0041768551 4290454814
0.015685424 0.020235032 -0.0029655024 4289997089
0.017359056 0.021046728 -0.0037451787 4289669923
0.019027039 0.021858364 -0.0045244452 4289538853
0.020878293 0.021902934 -0.0046401601 4289669925
0.022920959 0.021180615 -0.0040928395 4289800738
0.025357589 0.018924646 -0.002220178 4289343014
0.027416132 0.018202864 -0.0016737385 4289015849
0.029479906 0.01748126 -0.0011275862 4289343013
0.031548873 0.01675988 -0.00058168499 4289277223
0.033623047 0.016038671 -3.6066864e-05 4289866018
0.036742173 0.011484727 0.0038190568 4290520603
-0.03777463 -0.016528346 0.02893802 4288034610
-0.036090158 -0.014170292 0.02680991 4289735459
-0.034320377 -0.012583778 0.025349973 4290782488
-0.032561589 -0.010997321 0.023890803 4290716954
-0.030385014 -0.012495556 0.025099138 4290521114
-0.028307565 -0.01322231 0.025640363 4289999384
-0.026112109 -0.014719819 0.026847644 4289149469
-0.014260978 -0.014449731 0.026095552 4289674003
-0.01228625 -0.014404313 0.025970543 4289476123
-0.010446113 -0.013588282 0.025180703 4289212964
-0.0090230629 -0.010460944 0.022396971 4287903539
-0.0065279827 -0.0026668385 0.015505083 4288361774
-0.0051762015 0.00045918487 0.012726102 4288558634
-0.0038463697 0.0035848096 0.0099485889 4288427308
-0.0028400198 0.0082502384 0.0058447244 4288492844
-0.0018665269 0.012915015 0.0017430158 4288819498
-0.0006134212 0.016039137 -0.0010294463 4288950569
0.00061772764 0.019162849 -0.0038004471 4288427053
0.0023119226 0.019976526 -0.0045803022 4289211944
0.0040004775 0.02079019 -0.0053597894 4289342759
0.0060176179 0.020064291 -0.0048130061 4290062113
0.0077003613 0.020878017 -0.005591983 4289473574
0.0093774647 0.021691635 -0.0063705053 4289146409
0.011224203 0.021735691 -0.0064862408 4289211944
0.013248734 0.021010369 -0.005939696 4289800739
0.015278511 0.020285193 -0.0053933896 4289800738
0.017313488 0.019560274 -0.0048473878 4289997088
0.018795297 0.021143436 -0.006286731 4289015594
0.020643741 0.021187946 -0.0064022653 4289146408
0.022491962 0.02123253 -0.0065177213 4289343014
0.024728559 0.019738983 -0.0053107282 4289539108
0.026778795 0.019014832 -0.0047653783 4289800738
0.029033996 0.017521873 -0.0035594427 4289343014
0.030894928 0.017567076 -0.0036754594 4289539364
0.032550476 0.018381175 -0.0044519724 4290454814
0.03461615 0.017657615 -0.0039073508 4290062113
0.03795056 0.012322169 0.00059794169 4289865764
-0.039800275 -0.018156813 0.027889388 4288688429
-0.038107526 -0.015792172 0.02576551 4289015849
-0.036332242 -0.014201309 0.02430837 4288950314
-0.034567952 -0.012610489 0.022852004 4289931553
-0.032814637 -0.011019855 0.02139646 4289997599
-0.030750927 -0.011749209 0.021936852 4290781978
-0.028462149 -0.014024821 0.023806786 4289736478
-0.026269704 -0.015526748 0.025011024 4290391828
-0.024297081 -0.015482089 0.024885619 4289215769
-0.016155392 -0.016847983 0.025712641 4289871119
-0.014435798 -0.015257017 0.024260053 4289868824
-0.012595598 -0.014438919 0.023471745 4290194968
-0.010760989 -0.013620817 0.022683887 4290586903
-0.0093432628 -0.010484873 0.019906987 4290521369
-0.0082271248 -0.005804196 0.015805561 4288231724
-0.0067161694 -0.0034417044 0.013694778 4288624169
-0.0050764531 -0.0018518548 0.012247708 4288493098
-0.0034477785 -0.00026221015 0.010801449 4288296748
-0.0021316037 0.0028719027 0.0080313487 4288492844
-0.0008373782 0.0060056169 0.0052627195 4288296493
0.00027876347 0.0099110939 0.0018336093 4288427309
0.0013675168 0.013816021 -0.0015937076 4289015849
0.0025904626 0.016948353 -0.0043576322 4288295728
0.004120104 0.01853627 -0.0057972129 4289015594
0.0056386665 0.02012407 -0.0072360653 4289800484
0.0073159337 0.02093979 -0.0080130398 4290389278
0.0088150874 0.02252727 -0.0094504915 4290193184
0.010653555 0.022571132 -0.0095657036 4289866018
0.01266975 0.021843445 -0.0090202484 4290454814
0.015052453 0.019572791 -0.0071542524 4290192928
0.01726792 0.018074073 -0.0059494106 4289931298
0.018749744 0.019661613 -0.0073854988 4289277223
0.020409308 0.020477504 -0.0081609227 4289211689
0.022063211 0.02129335 -0.0089359256 4289342759
0.024294138 0.019795373 -0.0077318419 4289735204
0.026338808 0.019068867 -0.0071877241 4289473574
0.028388664 0.018342614 -0.0066439109 4289800483
0.030039012 0.019158661 -0.0074184798 4290455069
0.031888783 0.019203659 -0.0075337514 4289473828
0.033530518 0.020019665 -0.0083077354 4289146408
0.036219224 0.016981222 -0.0057885177 4289604389
0.03978239 0.01086016 -0.00063705212 4290454814
-0.042097829 -0.017457306 0.024847591 4288360754
-0.040218093 -0.016637851 0.024057111 4289342503
-0.038247708 -0.016594127 0.023931192 4289735203
-0.036574088 -0.014223234 0.021813501 4289932063
-0.034815274 -0.012628236 0.020360759 4288623658
-0.032963108 -0.011808843 0.019572377 4289147174
-0.030902334 -0.012540483 0.02011138 4289867294
-0.028726418 -0.014047247 0.021313349 4290260249
-0.026539683 -0.015553697 0.022514755 4289998873
-0.024687916 -0.014733822 0.021726765 4290327060
-0.022841703 -0.013913992 0.020939259 4289345563
-0.020759672 -0.014644505 0.021477316 4289281048
-0.018672314 -0.015374814 0.022015171 4290195479
-0.016579632 -0.01610484 0.022552734 4290325783
-0.014868233 -0.014509648 0.021103878 4290259738
-0.013036285 -0.013689564 0.020317711 4289997853
-0.011209909 -0.012869486 0.019531986 4290456599
-0.0098002478 -0.0097250063 0.016762082 4289149979
-0.0054124445 -0.0018432047 0.0097832307 4287972134
-0.0036413074 -0.0010238532 0.0090014078 4288558889
-0.0020264238 0.00056998245 0.0075593032 4288362283
-0.00042258948 0.0021636207 0.0061180145 4288427563
0.00085800141 0.0053058341 0.0033568023 4288754473
0.0019578338 0.0092219152 -6.3107815e-05 4288558123
0.0030302852 0.01313746 -0.0034812144 4288754218
0.0042395964 0.016278289 -0.0062377206 4288753963
0.0057609007 0.017870501 -0.0076735094 4288950058
0.0069317669 0.021010552 -0.010427432 4290062369
0.0084254891 0.022602316 -0.011861335 4290716444
0.010083295 0.023419954 -0.01263532 4290716444
0.012446865 0.02114217 -0.010773015 4290389278
0.014465407 0.020412464 -0.010229252 4289669925
0.016489185 0.019682944 -0.0096857753 4289408038
0.018146202 0.020500883 -0.010459469 4289604389
0.019986287 0.020545222 -0.010574453 4289277223
0.021634728 0.021363117 -0.011347495 4289211688
0.023665853 0.020634096 -0.010804232 4289342759
0.025702178 0.019905258 -0.010261253 4289146408
0.027743749 0.01917664 -0.0097185308 4289081129
0.029183619 0.020767901 -0.011148404 4290520093
0.031022437 0.020812646 -0.011262989 4290716444
0.032861046 0.020857431 -0.011377521 4289866273
0.035330787 0.018583182 -0.0095211994 4289604389
0.03802979 0.015536353 -0.0070090513 4289604389
0.041613847 0.009398438 -0.001871808 4289734693
-0.042141523 -0.019034676 0.023677593 4287510329
-0.040355273 -0.017435089 0.02222606 4289081129
-0.038483884 -0.016613465 0.02143779 4289473574
-0.036815681 -0.014236209 0.019325346 4290193693
-0.035062362 -0.012636939 0.017876148 4290651928
-0.033111446 -0.012593247 0.01775177 4290848789
-0.030839588 -0.014882423 0.019612974 4291110674
-0.028770957 -0.015615903 0.0201499 4289933084
-0.026809428 -0.015571577 0.020025138 4289605918
-0.02484801 -0.015527157 0.019900454 4289998618
-0.023122516 -0.013927814 0.018453626 4290522389
-0.0212874 -0.013105901 0.017668489 4289933083
-0.019087803 -0.014615916 0.018866209 4290259228
-0.017003492 -0.015348308 0.019402685 4289736224
-0.015042689 -0.015303291 0.019278495 4290521369
-0.013213534 -0.014481077 0.018494138 4290128668
-0.011255722 -0.014435908 0.018370301 4288951588
-0.0038346946 -0.0017808322 0.0072047533 4288231723
-0.0020719469 -0.00095938705 0.0064251628 4288558889
-0.00031481683 -0.00013795681 0.0056460155 4288231468
0.0011246577 0.0022365116 0.0035498124 4288231214
0.0023888871 0.0053871553 0.00079618674 4288492844
0.0034696981 0.009313792 -0.0026143352 4288558123
0.0048515126 0.011687152 -0.0047066528 4288885034
0.0058830008 0.015612796 -0.0081139477 4288688684
0.0070567429 0.018761672 -0.010861611 4289015593
0.0083808601 0.021133989 -0.012950135 4289866019
0.010213688 0.021177731 -0.013064981 4289538853
0.012224086 0.020445563 -0.012522392 4289800483
0.014239758 0.019713558 -0.011980033 4290192928
0.016260661 0.018981799 -0.01143799 4289996834
0.017914914 0.019801859 -0.012209885 4289669668
0.019563526 0.020621933 -0.012981392 4289800483
0.021397866 0.020666208 -0.013095964 4290258463
0.02323202 0.020710565 -0.013210459 4289865763
0.025459595 0.019203816 -0.01201256 4289146409
0.027298756 0.019248433 -0.012127263 4289669925
0.028733239 0.020843983 -0.013553588 4289866018
0.030566543 0.020888597 -0.013667826 4290454814
0.032607324 0.02015793 -0.01312649 4290716444
0.034863696 0.018652283 -0.011930159 4290651164
0.037130721 0.01714696 -0.010734444 4290323999
0.039839998 0.014091741 -0.0082293656 4289277223
0.042789333 0.010262091 -0.0050707739 4289276968
-0.042094614 -0.021391949 0.02316905 4287575864
-0.040585652 -0.0174475 0.019737346 4288034608
-0.038815856 -0.01584379 0.018290203 4289016103
-0.037155811 -0.013460143 0.016183095 4289670433
-0.035207693 -0.01341664 0.016058797 4290128923
-0.033051215 -0.014932789 0.017255349 4289802014
-0.030883919 -0.016448611 0.018451344 4290194713
-0.028815504 -0.017184261 0.018986674 4289409569
-0.026966516 -0.016360259 0.018202052 4289605919
-0.025353342 -0.013976905 0.016098494 4289278498
-0.02352092 -0.013153041 0.015315099 4289801759
-0.02169406 -0.012329165 0.014532162 4289277988
-0.0196262 -0.013064206 0.015067993 4289735969
-0.017679013 -0.013019623 0.014944574 4289866784
-0.015603233 -0.013754265 0.015480062 4290455068
-0.01352213 -0.014488665 0.016015304 4291044373
-0.01156991 -0.014443617 0.015891828 4290522388
-0.0022679865 -0.0017096661 0.0046337806 4288625699
-0.00036040694 -0.0016648881 0.0045136921 4288559143
0.0010791346 0.00071611069 0.0024223439 4288623913
0.0025021806 0.003096804 0.0003321711 4288296748
0.0039087236 0.0054772291 -0.0017569484 4288623914
0.0051346421 0.0086358767 -0.0045015384 4288820009
0.0061718002 0.012572549 -0.0079010846 4288885289
0.0071815476 0.016508661 -0.011298846 4288492589
0.0085084885 0.018887579 -0.013382687 4288623148
0.010518938 0.018153094 -0.012841753 4289277224
0.012356907 0.018197067 -0.012956841 4289342759
0.014014229 0.019019283 -0.013727453 4289604389
0.015849084 0.019063346 -0.013842225 4289604389
0.017497875 0.019885454 -0.014612161 4289473318
0.019518211 0.019151688 -0.014071563 4290781979
0.021161176 0.019973814 -0.014841015 4290651164
0.022798494 0.020795893 -0.015610045 4290454558
0.025020383 0.019284718 -0.014415057 4290193184
0.027053505 0.018551506 -0.013874998 4289342503
0.028889671 0.018596105 -0.013989473 4289211944
0.030315831 0.020195886 -0.01541198 4289604389
0.032146133 0.020240501 -0.015525977 4289866019
0.034607187 0.017952926 -0.013678798 4289931554
0.036658242 0.01722049 -0.013139678 4289211944
0.03893026 0.015711006 -0.011947462 4288950314
0.04099448 0.014978983 -0.01140902 4289080874
0.04350625 0.012692936 -0.0095648598 4289276713
0.046481863 0.0088531543 -0.0064159175 4289473064
-0.043762591 -0.026144303 0.024763523 4286136643
-0.042047821 -0.023753293 0.022657493 4287379513
-0.040535994 -0.019797899 0.0192337 4288165679
-0.039051477 -0.01584297 0.015811758 4288362284
-0.037298135 -0.014235152 0.014368994 4289016359
-0.035454337 -0.013409587 0.013585949 4289605409
-0.033303585 -0.014930209 0.014779631 4289801759
-0.031248908 -0.01566845 0.015314141 4289671198
-0.029188871 -0.016406467 0.015848385 4289736734
-0.027460493 -0.014798572 0.014407685 4289998363
-0.025858164 -0.012408957 0.012309657 4291045138
-0.023918949 -0.012364902 0.012186488 4290979094
-0.021859333 -0.013102476 0.012721172 4290913559
-0.019671176 -0.014621392 0.013913112 4290324764
-0.017598193 -0.01535839 0.014447074 4289473829
-0.015648559 -0.015313637 0.014323587 4289669923
-0.01369907 -0.015268756 0.014200209 4289932063
-0.011883829 -0.014442388 0.013420058 4290456344
-0.00055917352 -0.0024106205 0.0027259104 4288364068
0.0011895075 -0.0015849434 0.0019505974 4288689704
0.002615355 0.00080238655 -0.00013493747 4288689449
0.0041860119 0.0024086721 -0.0015642243 4288493098
0.0057456344 0.0040147342 -0.0029927148 4288427564
0.0066270977 0.0087431855 -0.0070396513 4288623658
0.0078147352 0.01190982 -0.0097752213 4288688939
0.0088082254 0.015856512 -0.013163803 4288754475
0.010648981 0.01590047 -0.013279123 4288950314
0.012489565 0.0159445 -0.013394382 4289538853
0.014329955 0.015988611 -0.013509564 4289669413
0.015987054 0.016813032 -0.01427844 4289931043
0.017452724 0.018417619 -0.015700551 4289734949
0.019472905 0.017681655 -0.015161574 4289800484
0.021115832 0.018505968 -0.015929395 4289473575
0.022559181 0.020110209 -0.017349891 4290062114
0.024581455 0.01937452 -0.016810879 4290650653
0.026808359 0.017859202 -0.015619375 4289538853
0.028641716 0.017903745 -0.015733667 4289342759
0.030474864 0.017948359 -0.015847893 4289277224
0.03210029 0.018772658 -0.016614318 4289080873
0.03414055 0.018037744 -0.016076172 4289015594
0.036186054 0.017302968 -0.015538274 4288623149
0.038021073 0.017347857 -0.015652442 4289015594
0.039855897 0.017392818 -0.015766546 4289342504
0.041911602 0.016658511 -0.015229193 4289800484
0.044420168 0.014365897 -0.013389656 4290257953
0.047624446 0.0097361133 -0.0095978025 4290258463
-0.043806411 -0.02773172 0.023586063 4286594114
-0.042001143 -0.026118774 0.022142937 4287771958
-0.040486448 -0.022152439 0.018727055 4287773234
-0.038903132 -0.018970985 0.015970692 4287642673
-0.037045732 -0.018143013 0.015188271 4288558634
-0.035295233 -0.01653076 0.013749035 4289212454
-0.033555705 -0.014918632 0.012310589 4289474339
-0.031399872 -0.016443379 0.013500793 4289474594
-0.029342778 -0.017183624 0.014033617 4289474594
-0.027504873 -0.016355505 0.013252946 4289605154
-0.026132502 -0.012391347 0.0098468903 4290193949
-0.024081167 -0.013131358 0.010380352 4289932063
-0.022024486 -0.013871131 0.010913556 4290324764
-0.019962486 -0.01461071 0.011446556 4290913559
-0.018021036 -0.01456625 0.01132351 4289735713
-0.015951112 -0.015305348 0.011856154 4289343014
-0.014138538 -0.014476979 0.011077706 4289277988
-0.012331553 -0.013648577 0.01029966 4288428074
0.0028869286 -0.0022791345 4.8602931e-05 4288427563
0.0047855824 -0.0022342615 -7.0696697e-05 4288493098
0.006192103 0.00015928037 -0.0021499814 4288296748
0.0072487369 0.0041181706 -0.0055345669 4288362284
0.0084473938 0.0072937794 -0.0082643442 4288492843
0.0094519705 0.011251628 -0.011645519 4288623914
0.010953769 0.012861107 -0.013066892 4289081383
0.012444519 0.014470339 -0.014487488 4288296239
0.013924189 0.016079456 -0.015907351 4289146154
0.015575834 0.016905915 -0.016674276 4289211689
0.017036118 0.018514678 -0.01809277 4289931298
0.019050695 0.017776407 -0.01755506 4289080874
0.020688161 0.01860277 -0.018320916 4289211944
0.022319995 0.019429106 -0.019086415 4289146409
0.024535999 0.017909076 -0.017897464 4289473574
0.026962034 0.015607323 -0.016058017 4289996833
0.028798021 0.015651949 -0.016172461 4289538853
0.03042905 0.016478546 -0.016937703 4289277223
0.032054447 0.01730502 -0.017702505 4289669668
0.034094565 0.016567927 -0.01716597 4289081129
0.035501219 0.018176071 -0.018580612 4289342503
0.037112437 0.019002385 -0.019344395 4289407783
0.038717993 0.01982867 -0.020107821 4289604389
0.041202098 0.017528825 -0.018271623 4289604389
0.043702252 0.015229434 -0.016436379 4290258463
0.0462185 0.012930527 -0.01460214 4289866018
0.049209163 0.0090694018 -0.011470218 4290127393
-0.044113312 -0.026958449 0.02043906 4287052093
-0.042135421 -0.026914777 0.020312496 4287902774
-0.040250741 -0.026084309 0.019529812 4287642419
-0.03865917 -0.022893986 0.016779386 4287511858
-0.036892276 -0.021277161 0.015342232 4287577138
-0.035338994 -0.018087428 0.012594445 4288296749
-0.03370354 -0.015684478 0.010503674 4288819753
-0.031764232 -0.015640901 0.01038014 4289212454
-0.029825013 -0.015597207 0.010256702 4289539363
-0.02788588 -0.015553407 0.01013335 4290193949
-0.026291661 -0.013150941 0.0080456082 4289212453
-0.02436091 -0.013107081 0.0079229781 4289081639
-0.022309888 -0.013849154 0.0084549282 4289670433
-0.020130437 -0.015376974 0.009640947 4289866784
-0.018191863 -0.015332563 0.0095180925 4289866529
-0.016253419 -0.015288061 0.00939532 4289539109
-0.014183827 -0.016029282 0.0099264849 4289081638
-0.012376912 -0.015198703 0.0091500636 4288296748
0.0028412864 -0.0037988108 -0.0010783169 4287906344
0.0049010366 -0.0045390818 -0.00054565165 4288363304
0.0064742714 -0.0029239282 -0.0019685486 4288493098
0.0077031776 0.00026101992 -0.0046938104 4288493098
0.0090795085 0.0026605669 -0.006766201 4288362284
0.010267265 0.0058447085 -0.0094887521 4288231469
0.0116079 0.0082436241 -0.011558817 4288492844
0.012932025 0.010642245 -0.01362777 4289146664
0.014239661 0.013040505 -0.015695594 4288819244
0.015347831 0.016223095 -0.018412903 4289407783
0.016805425 0.017836176 -0.019828044 4290127649
0.018440351 0.018664576 -0.020592181 4290520093
0.020260744 0.018708542 -0.02070586 4290193184
0.02208095 0.018752541 -0.0208195 4290454814
0.024294049 0.017228074 -0.019633617 4290651164
0.026517786 0.015703972 -0.018448394 4289604389
0.028550237 0.014964327 -0.017913144 4289408038
0.030178539 0.015792992 -0.018676551 4289342503
0.031593829 0.017405577 -0.020088583 4289277223
0.033418253 0.017450109 -0.020202165 4289342759
0.03502965 0.018278569 -0.02096444 4289146408
0.036419876 0.019890726 -0.022374775 4289473318
0.038017325 0.020718936 -0.02313604 4290454814
0.040272027 0.019196063 -0.021952396 4289931554
0.042537399 0.017673448 -0.020769337 4289146408
0.044587001 0.016934741 -0.020234767 4289146409
0.047100045 0.01462923 -0.018405117 4289408039
0.050556473 0.0091905668 -0.013986424 4289538599
0.05475425 0.0014028531 -0.007627998 4288622384
-0.044244576 -0.027749795 0.018611914 4287052093
-0.042179212 -0.028495101 0.019140309 4288033589
-0.040201548 -0.028451303 0.019013856 4287576629
-0.038319755 -0.0276186 0.018233066 4287511859
-0.036542002 -0.025997179 0.016798461 4287511603
-0.035078991 -0.022009823 0.013402373 4287512114
-0.03364329 -0.018022968 0.010008108 4288231469
-0.031808116 -0.017190758 0.0092306267 4288885034
-0.029978469 -0.016358595 0.0084536318 4289343270
-0.028042216 -0.016314844 0.0083304737 4290586394
-0.026450682 -0.013905859 0.0062477253 4290455579
-0.024640396 -0.013073785 0.0054722195 4289866784
-0.022595041 -0.013818155 0.006002917 4289735969
-0.020667385 -0.013774122 0.0058806622 4290782488
-0.018614072 -0.014518131 0.0064110635 4290128158
-0.016683944 -0.014473793 0.0062888358 4289604899
-0.014622722 -0.015217346 0.0068188654 4289866528
-0.012690127 -0.015172729 0.006696647 4288950823
0.0064284578 -0.004441157 -0.0030936324 4288494884
0.0079906583 -0.0028218608 -0.004512486 4288166699
0.0092032254 0.00037148036 -0.0072301901 4288427563
0.010909908 0.0012032669 -0.0079975771 4288362284
0.012436211 0.0028220229 -0.0094140209 4288427564
0.013596579 0.0060143918 -0.01212825 4288754473
0.014194503 0.011566795 -0.016788356 4289015593
0.015119977 0.015544854 -0.020148134 4288753964
0.016389288 0.017948918 -0.022208629 4289277224
0.018018745 0.018779367 -0.022970803 4290193184
0.019642591 0.019609734 -0.023732588 4290389278
0.021842055 0.018080562 -0.022549186 4290454814
0.02405218 0.016551711 -0.021366399 4290323999
0.026273012 0.01502315 -0.020184185 4289080873
0.028100699 0.015067548 -0.020298131 4289211943
0.02951894 0.016684532 -0.0217072 4289343014
0.030718796 0.019087426 -0.02376291 4289343014
0.032532305 0.019131679 -0.023875823 4289277479
0.034132861 0.019962013 -0.024635756 4289407783
0.03594324 0.020006306 -0.024748389 4289277223
0.037535235 0.020836588 -0.025507746 4289866019
0.039784342 0.019309182 -0.02432695 4290716444
0.04159683 0.019353673 -0.024439603 4290454814
0.043635465 0.018612497 -0.023905987 4289735204
0.045908354 0.017085873 -0.022726595 4289277224
0.048887186 0.013202727 -0.019610099 4289866019
0.052596301 0.0069638267 -0.014558118 4289865509
-0.042403597 -0.028493 0.016661985 4286529088
-0.040431537 -0.028449334 0.016535886 4287118138
-0.038459539 -0.028405538 0.016409887 4287184183
-0.036684558 -0.026779808 0.014978709 4287511348
-0.035021733 -0.024363313 0.012895813 4287511348
-0.03358316 -0.020365514 0.009509461 4287511604
-0.031958632 -0.01794963 0.00742919 4288362029
-0.030131798 -0.017115362 0.0066539859 4288623403
-0.028310511 -0.016281094 0.0058792289 4289408549
-0.02672438 -0.013865707 0.0038016764 4289932063
-0.024919629 -0.013031576 0.003028146 4290521113
-0.022879921 -0.013778241 0.0035575898 4290782744
-0.020834882 -0.014524688 0.0040867692 4290259228
-0.018784516 -0.015270876 0.004615712 4289801248
-0.016985662 -0.014436404 0.0038429098 4289997344
-0.015192382 -0.013601943 0.0030705472 4289800994
-0.013404675 -0.012767494 0.0022986233 4289539619
-0.011622537 -0.011933068 0.0015271315 4289736988
-0.0097066797 -0.011888616 0.001406136 4288430368
0.0077783614 -0.0035451502 -0.0062825568 4288689958
0.0093268305 -0.0019217581 -0.0076972586 4288755239
0.011036165 -0.001087714 -0.0084631816 4288362284
0.012739889 -0.00025371835 -0.0092286877 4288558379
0.014083236 0.0021583959 -0.01128915 4288820009
0.01504989 0.0061482135 -0.01464349 4288885289
0.015806355 0.010926422 -0.018643357 4288884778
0.016715556 0.014915071 -0.021994021 4288623149
0.01797393 0.017325431 -0.02404888 4289080874
0.019597739 0.018157985 -0.024809033 4289800484
0.021796986 0.016624428 -0.023628874 4289538853
0.023614094 0.016668461 -0.023742242 4289473318
0.025431037 0.016712524 -0.023855573 4289604389
0.027247779 0.016756661 -0.023968829 4289277478
0.028655209 0.018377677 -0.025373958 4289343013
0.030051596 0.01999855 -0.026778379 4290585884
0.031856872 0.020042591 -0.02689079 4290716699
0.033874668 0.019298468 -0.02635769 4290258463
0.035897695 0.018554483 -0.025824836 4289342759
0.037489705 0.019386932 -0.026582584 4289669925
0.039076082 0.020219259 -0.027339896 4289931298
0.041103929 0.019475594 -0.026807265 4290651164
0.043137021 0.01873206 -0.026274884 4290454814
0.045862235 0.015625283 -0.023809517 4290716444
0.048608989 0.012519035 -0.02134541 4289931298
0.052080408 0.0070502758 -0.016950246 4289080619
-0.040940166 -0.026058741 0.012110408 4286987323
-0.038503524 -0.029980963 0.01524136 4287183674
-0.036531754 -0.029937051 0.015115466 4287445558
-0.0346612 -0.029099984 0.014338827 4287380278
-0.033211585 -0.025091056 0.010959866 4287446069
-0.031576131 -0.022668423 0.0088837389 4287707699
-0.029847793 -0.021038895 0.0074591367 4288950823
-0.028354503 -0.017823895 0.0047349706 4289408549
-0.026768338 -0.015401992 0.0026622666 4289343524
-0.025081139 -0.013773021 0.001240558 4289343523
-0.023044363 -0.01452195 0.0017685546 4289408803
-0.021002255 -0.015270635 0.0022963034 4289408803
-0.018954813 -0.016019074 0.0028238064 4289604898
-0.017287116 -0.0143901 0.0014036698 4289997344
-0.015630443 -0.012761206 -1.5714206e-05 4290455069
-0.013984777 -0.011132499 -0.0014342791 4290389788
-0.012213606 -0.010296144 -0.0022034538 4289736224
-0.010030288 -0.011836245 -0.0010268828 4288692253
0.0073997602 -0.0034723915 -0.0086959116 4288233764
0.0092811212 -0.0034276359 -0.0088139065 4288754984
0.011162303 -0.0033828262 -0.0089318473 4288820519
0.01286871 -0.0025465954 -0.0096959071 4288754729
0.014392182 -0.00091913342 -0.011105645 4288558123
0.01536449 0.0030817091 -0.014452239 4288689194
0.0161267 0.0078730639 -0.018442787 4288623403
0.017041571 0.01187269 -0.021785665 4289015594
0.018305488 0.014289748 -0.023836063 4288753709
0.0197438 0.015915513 -0.025240144 4289015083
0.021558329 0.015959375 -0.025353424 4289538599
0.02317629 0.016794115 -0.026111484 4289407784
0.024987713 0.016838044 -0.026224468 4289342759
0.026798941 0.016882021 -0.026337404 4289408038
0.028405473 0.017716713 -0.027094649 4289604643
0.030213602 0.01776078 -0.027207268 4290520093
0.03202153 0.017804861 -0.027319858 4290651164
0.033829279 0.017849017 -0.027432384 4290650908
0.03563682 0.01789321 -0.027544858 4290323999
0.037226118 0.01872772 -0.028300785 4289277224
0.039030574 0.018771946 -0.02841299 4289408038
0.040834822 0.018816225 -0.028525136 4289211944
0.04331746 0.01649031 -0.026708219 4288950314
0.04604508 0.013374839 -0.024249436 4289604389
0.049025826 0.0094700083 -0.021149304 4289080874
0.052736469 0.0031962693 -0.016123287 4288818734
-0.036674235 -0.030716978 0.013297718 4287314234
-0.03470543 -0.030672986 0.013172122 4287445559
-0.033048075 -0.028243441 0.011099376 4287380533
-0.031407148 -0.025814163 0.0090277549 4287642674
-0.029782642 -0.023385148 0.0069573261 4289343779
-0.028286517 -0.02016142 0.0042394279 4288035118
-0.026812281 -0.016938049 0.0015230216 4288558378
-0.025242522 -0.01450986 -0.00054368796 4289736224
-0.0233288 -0.014466267 -0.00066515105 4289801248
-0.021415193 -0.014422556 -0.00078651728 4289735713
-0.019501697 -0.01437873 -0.00090778852 4289866528
-0.01771662 -0.013540224 -0.0016764812 4289669924
-0.015937097 -0.012701739 -0.0024447441 4290847513
-0.014163151 -0.011863242 -0.0032125497 4290455323
-0.012394771 -0.011024795 -0.0039799423 4290782743
-0.010353617 -0.011774981 -0.0034532347 4289474848
-0.0083071515 -0.012524948 -0.0029267892 4289868313
-0.006110765 -0.014068885 -0.0017541228 4289084953
0.010944694 -0.0040949751 -0.010693129 4289148958
0.012648344 -0.0032566395 -0.011455401 4288886564
0.014346384 -0.0024183299 -0.012217315 4288623658
0.016038783 -0.0015800912 -0.012978755 4288558379
0.016812161 0.0032245927 -0.016960284 4288754219
0.017738156 0.0072353445 -0.020295784 4288688428
0.01882492 0.010452341 -0.022985768 4288885033
0.020271413 0.012082689 -0.024387168 4288819499
0.021706879 0.013712816 -0.025787771 4288688428
0.023131289 0.015342735 -0.027187644 4289146153
0.024743639 0.016179599 -0.027943743 4289473574
0.026148692 0.017809171 -0.029342316 4289996833
0.027951494 0.017853003 -0.02945468 4288753963
0.030168377 0.016311511 -0.02828184 4288688428
0.03197623 0.016355596 -0.028394425 4289146409
0.033783898 0.016399745 -0.028506944 4290062113
0.035160847 0.018028926 -0.029903552 4290193184
0.03696271 0.018073034 -0.030015634 4289473574
0.03876438 0.018117189 -0.030127669 4289342759
0.04101266 0.016576763 -0.02895656 4288819243
0.043723889 0.013452128 -0.026503278 4288688428
0.046914279 0.0087437015 -0.022768814 4288688429
0.049905479 0.0048282482 -0.019677427 4288557104
0.053860657 -0.0022546984 -0.014024133 4287313978
-0.037209731 -0.028302539 0.0088921431 4286136899
-0.034951668 -0.030650953 0.010710312 4287314233
-0.032988541 -0.030606974 0.010585163 4287380534
-0.031238399 -0.028968396 0.0091655403 4288100654
-0.029608425 -0.026532702 0.0070995716 4289147429
-0.028218661 -0.022503011 0.0037408685 4287642929
-0.026741602 -0.019270876 0.0010307562 4287839278
-0.025169067 -0.016836192 -0.0010312712 4288950824
-0.023492914 -0.015198607 -0.0024457565 4289408548
-0.021704957 -0.01435809 -0.0032131854 4289866528
-0.019922558 -0.013517595 -0.003980184 4290128159
-0.018017489 -0.013473841 -0.0041008303 4289997089
-0.01611254 -0.013429981 -0.0042213891 4289343014
-0.014207713 -0.01338604 -0.004341878 4289670178
-0.012439407 -0.012545404 -0.005107638 4290128158
-0.010537565 -0.012501276 -0.0052277474 4289670688
-0.0084940158 -0.013253493 -0.0047027422 4289998363
-0.0064451769 -0.014005466 -0.0041779801 4289412374
0.012951516 -0.0063490979 -0.011282539 4288952098
0.014654949 -0.0055085197 -0.012043126 4288820518
0.016172864 -0.0038724132 -0.013445984 4288754473
0.017131858 0.00014988706 -0.016775545 4288688939
0.01806353 0.0041716415 -0.020103315 4288623404
0.019532017 0.0058067422 -0.021502871 4288754218
0.020607896 0.0090322364 -0.024185661 4289146664
0.021661863 0.0122573 -0.02686701 4288950314
0.022693925 0.015481874 -0.029546963 4289080874
0.024300821 0.016320728 -0.030301072 4289211944
0.025902122 0.01715951 -0.031054782 4290193184
0.027702138 0.017203283 -0.031166967 4289408038
0.029709034 0.016452204 -0.030638164 4288884778
0.031511404 0.016496148 -0.030750412 4288753964
0.033526056 0.015745405 -0.030221986 4288950314
0.035330765 0.015789494 -0.030334312 4289538853
0.037135266 0.015833661 -0.030446567 4289735204
0.039160237 0.015083294 -0.029918687 4289211688
0.041637108 0.012744129 -0.028111158 4289146154
0.044808239 0.00802215 -0.024385307 4288884268
0.048011743 0.003300976 -0.02066138 4287314234
0.051016115 -0.00062505528 -0.017578918 4286398785
-0.033240121 -0.030576192 0.0081303641 4287445559
-0.031389073 -0.029732808 0.0073599936 4288492589
-0.02965267 -0.028090004 0.0059445472 4287969839
-0.028039072 -0.025648082 0.0038846023 4287773744
-0.026441906 -0.023206379 0.0018257415 4287577393
-0.024861179 -0.020764897 -0.00023196172 4288100654
-0.023536883 -0.016725482 -0.0035781651 4288231213
-0.021871738 -0.015083755 -0.0049886089 4289670179
-0.020217586 -0.013442108 -0.006398303 4289932064
-0.018446267 -0.012599579 -0.0071628965 4290585884
-0.016549625 -0.012555921 -0.0072829369 4289931553
-0.014519494 -0.013310947 -0.0067589432 4289277478
-0.012620367 -0.013267009 -0.0068789748 4289605154
-0.010721382 -0.013222964 -0.0069989171 4290586904
-0.0089642964 -0.0123802 -0.0077621918 4290063898
-0.0069238096 -0.013134564 -0.0072385371 4290391829
-0.0048780069 -0.013888742 -0.0067150975 4290327059
0.014786161 -0.0078094415 -0.012516521 4287841064
0.016486652 -0.0069666756 -0.013275245 4288820009
0.017633885 -0.0037310012 -0.015956197 4288754473
0.018759198 -0.0004957784 -0.018635727 4288558124
0.019862607 0.0027389992 -0.021313827 4288688939
0.021134801 0.0051758196 -0.02335011 4288819754
0.02219712 0.0084097572 -0.026025532 4288623404
0.02304136 0.012440551 -0.029339544 4288753709
0.024255998 0.014876213 -0.031372137 4288557614
0.025655717 0.016514342 -0.032763913 4289538600
0.027044378 0.018152297 -0.034155004 4290454558
0.028835997 0.018195927 -0.034266621 4290062114
0.030837141 0.017442588 -0.033739042 4290127648
0.033055961 0.015892468 -0.032572702 4290062113
0.035285421 0.014342736 -0.031407006 4289866018
0.037307724 0.013590075 -0.030880623 4289342504
0.0397764 0.011244114 -0.029077493 4289080619
0.042707697 0.0073052943 -0.025998671 4288753198
0.046117939 0.0017739423 -0.021645151 4288033844
0.049108535 -0.0021633487 -0.018569959 4286856509
0.052126072 -0.0060999207 -0.015496397 4286267713
-0.033698682 -0.028933089 0.0043937182 4286725948
-0.03164595 -0.029690959 0.0049137818 4287838004
-0.029696904 -0.029647054 0.00478971 4287511604
-0.027971502 -0.028000072 0.0033783298 4287642674
-0.026257087 -0.02635318 0.0019676927 4287642929
-0.024670865 -0.023905134 -8.5494481e-05 4287904303
-0.02322102 -0.020656001 -0.0027807732 4288100654
-0.021670397 -0.018208476 -0.00483156 4288623403
-0.020136192 -0.015761264 -0.0068811849 4289408549
-0.018490341 -0.014115347 -0.008287034 4290389534
-0.016855486 -0.012469638 -0.0096920803 4290651163
-0.014964547 -0.012425995 -0.0098116733 4290913559
-0.012937453 -0.013183166 -0.0092890309 4290979094
-0.01090505 -0.013940106 -0.0087666418 4290652438
-0.0091507472 -0.013095236 -0.0095281266 4289736989
-0.0072576031 -0.013051126 -0.0096475501 4290195479
-0.0052174479 -0.013807554 -0.0091254041 4290326549
-0.0033218712 -0.013763188 -0.0092448331 4289804309
0.016800202 -0.010069366 -0.013110829 4288166189
0.017953023 -0.0068248753 -0.015785675 4288493098
0.018898733 -0.0027810838 -0.019098178 4288688938
0.020192981 -0.00033728592 -0.021131044 4288688939
0.021470703 0.0021062214 -0.023162877 4288623404
0.02273196 0.0045494083 -0.025193619 4288819243
0.023584619 0.0085912496 -0.028500089 4288819244
0.024608746 0.011833053 -0.031166585 4288884524
0.02540946 0.015873786 -0.034469701 4288622638
0.026795477 0.017515965 -0.035857365 4289342504
0.028377399 0.018358707 -0.036606573 4290192928
0.030792236 0.016004723 -0.034805156 4290258208
0.033010848 0.014450256 -0.033642031 4290193184
0.035885334 0.010498997 -0.030567896 4289735204
0.03813342 0.0089453887 -0.029406583 4289277223
0.041053675 0.0049953554 -0.026335213 4288557104
0.044000842 0.0010460317 -0.023265483 4287445304
0.047426827 -0.0045001712 -0.018924277 4286660158
0.050204672 -0.0076492587 -0.016494546 4286202434
-0.032115102 -0.028032646 0.0011893045 4287183929
-0.029959116 -0.029596433 0.002350525 4287445813
-0.028015759 -0.029552542 0.0022269003 4287642419
-0.026186928 -0.028704947 0.0014614509 4287642674
-0.024480794 -0.027053783 5.4657925e-05 4287707953
-0.022785649 -0.025402794 -0.0013513076 4287904303
-0.021346692 -0.022145115 -0.0040393528 4288623658
-0.020054922 -0.018084478 -0.0073671499 4289146919
-0.018662442 -0.014827636 -0.010052079 4289473573
-0.017161086 -0.012374382 -0.012094643 4289735969
-0.015142243 -0.013134016 -0.011573168 4289932319
-0.013118058 -0.013893485 -0.011051927 4290325018
-0.011088572 -0.014652663 -0.010530969 4289932829
-0.0090537816 -0.015411632 -0.010010283 4289606174
-0.0073024035 -0.014564553 -0.010769888 4289867803
-0.0054095238 -0.014520342 -0.010889214 4290129688
-0.0036665946 -0.013673276 -0.01164815 4289933083
-0.0019292459 -0.012826199 -0.012406703 4289475358
-4.2229891e-05 -0.012781812 -0.012525428 4289150999
0.018271923 -0.0099273063 -0.015621422 4286530363
0.019038178 -0.0050705876 -0.019563667 4288295728
0.020335227 -0.0026201885 -0.021591924 4288492589
0.021996938 -0.001773756 -0.0223448 4288492079
0.02326645 0.0006761495 -0.024371209 4288622638
0.024323501 0.0039273836 -0.027033336 4288361264
0.025159955 0.0079797488 -0.030330673 4288623149
0.025767662 0.012833036 -0.03426272 4288819244
0.027159162 0.014479734 -0.035647538 4288426799
0.028746501 0.015324768 -0.036395472 4289276968
0.031376071 0.012162995 -0.033963252 4289276968
0.033602625 0.010604374 -0.032803938 4289342249
0.036269844 0.007443646 -0.030373968 4289080619
0.038958602 0.0042834748 -0.027945317 4288230194
0.041889302 0.00032280572 -0.024882702 4287052858
0.044846945 -0.0036371648 -0.021821734 4286464063
0.047831535 -0.0075964201 -0.018762399 4285940803
-0.030438922 -0.027925108 -0.0013634139 4286202434
-0.028283309 -0.02949309 -0.00020535756 4287314233
-0.026345633 -0.029449213 -0.00032853568 4287838259
-0.02464224 -0.027793815 -0.0017318842 4287642419
-0.022830021 -0.026944194 -0.0024944912 4288427563
-0.021023355 -0.026094535 -0.0032566986 4289082149
-0.019723251 -0.022022849 -0.006576946 4288297004
-0.018450469 -0.017951686 -0.0098953862 4288754474
-0.017074324 -0.014686405 -0.012572724 4289604643
-0.015319787 -0.013837525 -0.013331243 4289801249
-0.013434675 -0.013793932 -0.013450406 4289801759
-0.011410836 -0.01455542 -0.012930713 4289932573
-0.0093816593 -0.015316756 -0.012411261 4289867294
-0.0074914917 -0.01527271 -0.012530493 4289867549
-0.0057484806 -0.014423538 -0.013287943 4291241489
-0.0038613081 -0.014379364 -0.013406839 4291110929
-0.0021267235 -0.01353024 -0.014163571 4291110929
-0.0002425611 -0.013485939 -0.014282131 4289410078
0.0016414747 -0.013441558 -0.014400618 4289477399
0.019732706 -0.0097765354 -0.018124729 4287771448
0.021040723 -0.0073194103 -0.020148788 4288360754
0.022522762 -0.0056665111 -0.021536272 4288295729
0.023800574 -0.0032099709 -0.023558337 4288492079
0.024865955 5.0110742e-05 -0.026214553 4288426544
0.025909454 0.0033097621 -0.028869327 4288819754
0.026729695 0.0073726382 -0.032157544 4288623404
0.027930759 0.009827625 -0.034174666 4288819499
0.029322162 0.011478659 -0.035556175 4288688428
0.031959541 0.0083083715 -0.033130914 4288688429
0.03398183 0.0075490307 -0.032609504 4288622383
0.036869071 0.0035763029 -0.029552363 4287641399
0.039783269 -0.00039570779 -0.026496857 4286595133
0.042944767 -0.0051702391 -0.022809323 4286267969
0.045915581 -0.0091407765 -0.019757275 4285875268
-0.028438997 -0.030232785 -0.0019921116 4287379769
-0.026389886 -0.030996902 -0.0014764061 4287772213
-0.024686519 -0.029337164 -0.0028765234 4288557614
-0.022874381 -0.028485367 -0.0036375062 4289147429
-0.020945318 -0.02844134 -0.0037598787 4288231469
-0.019517131 -0.02516642 -0.0064342311 4287969583
-0.018238738 -0.021084268 -0.0097449468 4288100654
-0.016987659 -0.017002638 -0.013053855 4288950313
-0.015363835 -0.015343988 -0.01444846 4289473828
-0.013478864 -0.0153004 -0.014567615 4289801504
-0.011594005 -0.015256729 -0.0146867 4290259483
-0.0095677562 -0.016020235 -0.0141687 4290521369
-0.0078246705 -0.015169039 -0.014924577 4289801759
-0.0059401989 -0.015125042 -0.015043387 4290848789
-0.0042055473 -0.01427386 -0.015798595 4290782998
-0.0021716803 -0.015036784 -0.015280776 4290979348
-0.00013252348 -0.015799485 -0.014763217 4289998364
0.0017541051 -0.01575505 -0.014881874 4289671964
0.018816777 -0.024267063 -0.0088478122 4286595388
0.0228578 -0.0087660877 -0.021371193 4288360499
0.024141148 -0.0063028634 -0.023388807 4288753454
0.025408 -0.0038399678 -0.025405338 4288557614
0.026658431 -0.0013774578 -0.027420763 4288492844
0.027489796 0.0026965272 -0.030701606 4288165679
0.028497845 0.005964078 -0.033347651 4288296493
0.030104183 0.0068138856 -0.034093566 4289146408
0.032542638 0.0044408757 -0.032308202 4288557614
0.034785077 0.0028738622 -0.031156333 4287052858
0.037467904 -0.00030392967 -0.028740315 4286267713
0.040607423 -0.005092131 -0.025061185 4286071619
0.043779321 -0.0098794876 -0.021384027 4285940803
-0.026776876 -0.030114045 -0.0045353649 4287314233
-0.024847753 -0.030070243 -0.0046579111 4287641398
-0.022918731 -0.030026324 -0.0047803614 4287511093
-0.020989813 -0.029982312 -0.0049027344 4287576883
-0.019436385 -0.027508549 -0.0069342274 4287642419
-0.018027239 -0.024225272 -0.0096008293 4287642418
-0.016770542 -0.020132653 -0.012902014 4287773744
-0.015274584 -0.017659891 -0.01492963 4288100398
-0.013523024 -0.016806662 -0.015684674 4289473828
-0.011777028 -0.015953455 -0.016439287 4289997343
-0.010178044 -0.014290768 -0.017828817 4289997599
-0.0083017349 -0.014247078 -0.017947197 4289997599
-0.0062786564 -0.015012658 -0.017430488 4289016103
-0.0043998882 -0.0149687 -0.017548868 4289408803
-0.0025212616 -0.014924672 -0.017667186 4289801248
-0.00033267587 -0.016498875 -0.01651641 4289539619
0.001551114 -0.016454509 -0.016634889 4290390808
0.0034347475 -0.016410053 -0.01675329 4290327060
0.0049918368 -0.014747589 -0.018139619 4289411099
0.014939487 -0.025891209 -0.0097443266 4287971878
0.017031588 -0.026654121 -0.0092311809 4288689959
0.018949449 -0.026608251 -0.0093512824 4286921788
0.023573346 -0.013490817 -0.019947842 4286724928
0.024481483 -0.009404311 -0.023225546 4287771959
0.0257539 -0.0069347899 -0.025237596 4288230449
0.027009875 -0.0044655968 -0.027248569 4288623659
0.027846932 -0.00038064457 -0.030521709 4288492844
0.028860606 0.0028957203 -0.033161655 4288296238
0.030679017 0.0029398855 -0.033275027 4288884779
0.032915995 0.0013683196 -0.032126106 4288034099
0.035375714 -0.0010106694 -0.030346898 4286529598
0.038281165 -0.0050047245 -0.027307091 4286071619
0.041431062 -0.0098057864 -0.023638289 4286071619
-0.025476471 -0.027549861 -0.0089771692 4286529599
-0.023321945 -0.029130565 -0.0078284908 4287314488
-0.021401327 -0.029086743 -0.0079503367 4287314998
-0.01973094 -0.027418738 -0.0093416534 4287577139
-0.01819934 -0.024938878 -0.011366854 4287577139
-0.016684175 -0.022459272 -0.013390923 4287577138
-0.015052199 -0.020791827 -0.014779566 4288166189
-0.013431232 -0.019124473 -0.016167466 4288427563
-0.012098577 -0.015833907 -0.01882242 4289211943
-0.010363657 -0.014978629 -0.019574676 4289539364
-0.008778397 -0.013311857 -0.020960063 4290913559
-0.0069104955 -0.013268262 -0.021077842 4290128413
-0.0050427169 -0.01322461 -0.021195564 4289932063
-0.0030228198 -0.013992232 -0.020680118 4289735969
-0.00053269416 -0.017193679 -0.018266203 4290717719
0.0015059635 -0.017960673 -0.017751796 4289605408
0.0033894926 -0.017916255 -0.017870218 4290195223
0.0054360032 -0.018682901 -0.017356185 4289671453
0.0078194961 -0.021071482 -0.015577913 4288886818
0.010556303 -0.025081681 -0.012536554 4287971369
0.015414901 -0.029856227 -0.0089855064 4287120179
0.01698482 -0.028188696 -0.010369094 4287446323
0.018902592 -0.028142864 -0.010489217 4287248699
0.025014624 -0.01332469 -0.022438157 4286398784
0.025903843 -0.0092277415 -0.025706571 4287314234
0.026964195 -0.0059416872 -0.028343057 4288164913
0.028002657 -0.0026561227 -0.030978147 4288362029
0.029019251 0.00062897615 -0.033611827 4288362029
0.03104692 -0.00013698451 -0.033095695 4288426798
0.033707708 -0.0033328403 -0.030691344 4287248954
0.036814079 -0.0081480807 -0.027029663 4286464064
0.039952837 -0.012962476 -0.023369959 4286006084
-0.02181245 -0.028177937 -0.010988125 4287510583
-0.020025242 -0.027320012 -0.011742543 4287642164
-0.018243577 -0.026462074 -0.012496506 4288231469
-0.016467456 -0.025604172 -0.013250049 4288558378
-0.014696889 -0.02474628 -0.014003152 4288820264
-0.013339534 -0.021446517 -0.016653325 4288754728
-0.011865448 -0.018961044 -0.018669724 4288296493
-0.010407794 -0.016475838 -0.020685002 4289146663
-0.0088225268 -0.014804738 -0.022067171 4289735459
-0.007101506 -0.013947474 -0.022816755 4290586394
-0.005236581 -0.013903882 -0.022934295 4290717208
-0.0033717826 -0.013860186 -0.023051748 4290782488
-0.001042366 -0.016256928 -0.021275274 4290782744
0.0013032183 -0.018653253 -0.019499715 4289605154
0.0036649704 -0.021049101 -0.017725101 4289409058
