# .PCD v0.7 - Point Cloud Data file format
VERSION 0.7
FIELDS x y z rgba
SIZE 4 4 4 4
TYPE F F F U
COUNT 1 1 1 1
WIDTH 957
HEIGHT 1
VIEWPOINT 0 0 0 1 0 0 0
POINTS 957
DATA ascii
-0.020858314 0.022609537 0.013093425 4289931554
-0.018981555 0.022649569 0.012978693 4290323999
-0.016905505 0.021181324 0.01422389 4290258463
-0.014818627 0.019713486 0.015468486 4289996834
-0.013036374 0.020508142 0.014673786 4289277223
-0.011259675 0.021302806 0.013879517 4289146408
-0.0093779378 0.02134352 0.013764905 4289015593
-0.0076096468 0.022138273 0.012971276 4289146663
-0.0056148171 0.021425286 0.01353596 4289015593
-0.0037334412 0.021466339 0.013421627 4289211944
-0.0017306842 0.02075378 0.013985941 4289015594
0.00015316159 0.020795109 0.013871627 4289211944
0.0024177246 0.018575775 0.015792113 4289211689
0.0053469203 0.012589259 0.02110219 4289146409
0.0091140419 0.0020829979 0.030477216 4288884523
0.012687031 -0.0069146678 0.038492229 4288622893
0.018781584 -0.0075353459 0.038809817 4288037924
-0.050071929 0.0076080207 0.025408963 4290583589
-0.048308164 0.0099191312 0.023246488 4289276459
-0.046504769 0.011472719 0.021766122 4289538599
-0.04471229 0.013026239 0.020286473 4289015083
-0.042869281 0.013822446 0.019488251 4288688174
-0.040967569 0.013861584 0.019370927 4288753454
-0.039199658 0.015414936 0.017893121 4289146409
-0.037512302 0.01772519 0.015735893 4289931554
-0.035768986 0.019278264 0.014259774 4289015594
-0.033811383 0.018560605 0.014823772 4289015594
-0.03177055 0.017086366 0.016067145 4289408038
-0.029799383 0.01636924 0.016630493 4289669670
-0.02790607 0.016409053 0.01651432 4289407783
-0.026098805 0.017205616 0.015719114 4289146408
-0.024297051 0.018002192 0.014924338 4289081129
-0.022500824 0.018798759 0.014129985 4289669925
-0.020898471 0.021108313 0.011978785 4290062113
-0.019021858 0.021148359 0.011864068 4289866019
-0.017145328 0.021188525 0.01174945 4290062113
-0.015166529 0.02047248 0.012313019 4289800483
-0.013287451 0.020512922 0.012198411 4289211944
-0.011408478 0.02055349 0.012083899 4289211944
-0.0095296092 0.020594148 0.011969473 4288950058
-0.0076508559 0.020634925 0.011855133 4289146663
-0.0057722218 0.020675814 0.011740889 4288950313
-0.0038937032 0.020716807 0.011626735 4289343014
-0.0021367669 0.021513788 0.010835717 4289212199
-0.00026123598 0.021554938 0.010721905 4290323999
0.0019948445 0.019328887 0.012638114 4290585629
0.0045263767 0.015591858 0.015906308 4290586139
0.0077467561 0.0080773104 0.022554461 4290324509
0.011426702 -0.0017026979 0.03122784 4290062623
0.014901739 -0.0099699609 0.038545042 4289082149
-0.054092355 0.0082712602 0.022465046 4288490294
-0.052415915 0.012108041 0.018947043 4288491059
-0.050665796 0.014425283 0.016790185 4290061348
-0.048825633 0.015223259 0.015993498 4289734948
-0.046934988 0.015261812 0.015876591 4290192928
-0.045102991 0.016059855 0.015080579 4289669668
-0.043153688 0.015339242 0.015643017 4288884524
-0.041263044 0.015378164 0.015526386 4288819244
-0.039439246 0.016176404 0.014731156 4288819243
-0.037760057 0.018493054 0.01257932 4290651164
-0.036024962 0.020050315 0.011106949 4289996833
-0.034150772 0.020089371 0.010991681 4290323999
-0.03204336 0.017851496 0.012910539 4290520093
-0.030000107 0.016373081 0.014150612 4290519839
-0.028029194 0.015653873 0.014712436 4289538598
-0.02631068 0.017211406 0.013241544 4289408038
-0.02451447 0.018010037 0.01244873 4289211688
-0.022815179 0.019567436 0.010979148 4289408038
-0.020938629 0.019607363 0.010864347 4289211688
-0.019159004 0.02040601 0.010072816 4289211944
-0.017285347 0.020446112 0.0099583752 4289211944
-0.015514072 0.0212448 0.0091675203 4289211944
-0.013643321 0.02128507 0.0090534277 4289277224
-0.01177267 0.021325475 0.0089394357 4289277223
-0.0096811689 0.019849366 0.010177517 4288950058
-0.0078052804 0.01989009 0.010063363 4289146663
-0.0060454383 0.020689117 0.0092736445 4289081128
-0.0042911731 0.021488128 0.0084843393 4289211944
-0.0025424883 0.022287128 0.0076954584 4289408038
-0.00067526847 0.022328103 0.007582163 4289996833
0.0015723109 0.020095361 0.0094939694 4289931298
0.0038361065 0.017863059 0.011404928 4290324509
0.0067775436 0.011842037 0.016688373 4290324763
0.010032445 0.0043065883 0.023318302 4290063644
0.013754893 -0.0055007041 0.031968087 4288886054
0.016986165 -0.012275659 0.037916899 4288886564
-0.056130003 0.0082253311 0.020089587 4287378494
-0.054445289 0.012073068 0.016579101 4288491058
-0.052692454 0.014396781 0.014426855 4288884013
-0.050955966 0.016720278 0.012275705 4289277224
-0.049129538 0.017520165 0.011481497 4289080873
-0.047252685 0.017558409 0.011365425 4289800483
-0.04525863 0.016073605 0.012604607 4289473574
-0.04331499 0.015350712 0.013165783 4289342759
-0.041494004 0.016150953 0.012372259 4288884779
-0.039611708 0.016189815 0.012256224 4288753964
-0.037798941 0.01699019 0.011463353 4288950058
-0.036063883 0.018551821 0.0099942423 4289735204
-0.034264803 0.019352103 0.0092024356 4290258464
-0.032315835 0.018630037 0.0097638164 4289996834
-0.030120183 0.015624801 0.012353634 4289015594
-0.028152201 0.014903372 0.012914026 4289277223
-0.026436448 0.016465185 0.011446536 4288884779
-0.024643065 0.017266011 0.010655496 4289080874
-0.022855196 0.018066769 0.0098649058 4289146154
-0.020884737 0.017345874 0.010425502 4289080874
-0.019199256 0.018907534 0.0089602303 4289211944
-0.017425254 0.019708363 0.008170763 4289342504
-0.015759036 0.021269882 0.0067067933 4290650653
-0.013788909 0.020549407 0.0072678044 4290585373
-0.011813436 0.019829212 0.0078285374 4290520093
-0.0098326132 0.019109232 0.0083890166 4289800739
-0.0079595931 0.019149913 0.0082750507 4288753963
-0.0062025599 0.019951055 0.0074871234 4289080873
-0.0044510961 0.020752193 0.0066996212 4289342759
-0.0028265417 0.022313608 0.0052387849 4290454814
-0.00096491352 0.022354497 0.0051258509 4289408295
0.0010233559 0.021635341 0.0056863693 4289015593
0.0032759346 0.019396259 0.0075931451 4289081384
0.0055447146 0.01715765 0.0094990265 4288885034
0.0086394027 0.010359781 0.015441366 4289473574
0.012195993 0.0012834724 0.023399008 4289604389
0.015958216 -0.0085511394 0.032025393 4289016104
0.018646095 -0.012305886 0.035268351 4288036903
-0.056252316 0.0082270298 0.017602004 4286855743
-0.054617841 0.01284959 0.013423178 4288360754
-0.052920807 0.015943652 0.010599697 4289538854
-0.051195212 0.01827343 0.0084541384 4289408038
-0.049379796 0.019075314 0.0076621906 4289277223
-0.047346566 0.016821859 0.0095751565 4289538853
-0.045355503 0.01533266 0.010811228 4289996834
-0.043414794 0.014607487 0.011371005 4289342759
-0.041596636 0.015409907 0.010579245 4288753964
-0.03971722 0.01544871 0.010463387 4288884778
-0.037907269 0.01625116 0.0096723586 4288753964
-0.036102802 0.01705361 0.0088817496 4289081129
-0.034378719 0.018619491 0.0074166465 4289146409
-0.032510318 0.018658543 0.0073018256 4289277223
-0.030481232 0.017171117 0.0085362848 4288950058
-0.028524367 0.016447274 0.0090957377 4288884778
-0.026733741 0.017250055 0.0083064362 4288950058
-0.024948627 0.018052837 0.0075175664 4288818988
-0.023169031 0.018855626 0.0067291274 4289015084
-0.021112962 0.017369362 0.007962374 4288884523
-0.019432964 0.018935272 0.0065006888 4289342248
-0.017763957 0.020501098 0.0050397129 4289734949
-0.016003754 0.021303935 0.0042528012 4289931298
-0.014144201 0.021343989 0.0041394089 4290258463
-0.012177113 0.020621443 0.0046990369 4290323999
-0.0100943 0.019136401 0.0059312056 4290323999
-0.0082268752 0.019176977 0.0058175935 4289015594
-0.0063595586 0.019217646 0.0057040579 4289015593
-0.004610911 0.020020971 0.0049183299 4289080873
-0.0029890873 0.021586647 0.0034609479 4290454814
-0.0015022941 0.023914615 0.0013323599 4290454813
0.00034815446 0.023955369 0.0012201895 4290062369
0.0025867932 0.02170944 0.0031229355 4289604899
0.0049738027 0.018701805 0.0056962273 4290193184
0.0077871308 0.013408383 0.010282101 4289866019
0.010913651 0.0065917503 0.016208017 4289473828
0.014790762 -0.0040337611 0.025485793 4289277734
0.018171702 -0.011609625 0.032075919 4288756003
-0.056248032 0.0059388466 0.017147178 4286071108
-0.054700352 0.012107013 0.011627555 4288033588
-0.053005986 0.015209714 0.0088107083 4289734948
-0.051283106 0.017546022 0.0066701476 4290192928
-0.049417481 0.017583931 0.0065546879 4290323999
-0.047440324 0.016089933 0.007788328 4290323999
-0.045452252 0.014596341 0.0090213511 4289669668
-0.043514486 0.013868934 0.0095796231 4289342759
-0.041699149 0.014673432 0.0087897051 4289211944
-0.039889276 0.015477961 0.0080002211 4289211688
-0.038015485 0.015516752 0.0078847911 4289211688
-0.036141712 0.015555689 0.0077694706 4289146408
-0.03441767 0.017125929 0.0063076182 4289146408
-0.032704577 0.018696101 0.0048464821 4289211944
-0.030841822 0.018735176 0.0047321101 4289800483
-0.028896075 0.018008927 0.0052906279 4290454814
-0.026944928 0.017282883 0.0058489474 4290258209
-0.02516536 0.018087773 0.0050620032 4289146154
-0.023208877 0.01736206 0.0056201643 4289145898
-0.021340949 0.017401824 0.005505906 4289015338
-0.019569771 0.0182069 0.004719744 4289342759
-0.018002909 0.020542091 0.0025904379 4290258463
-0.01624826 0.021347018 0.0018054401 4289080873
-0.014289442 0.020621976 0.0023639216 4288950058
-0.012432851 0.020662067 0.0022507808 4289277223
-0.010466065 0.019937461 0.0028088992 4289146409
-0.0084939338 0.019213071 0.003366767 4289669668
-0.0065164603 0.018488908 0.0039243926 4289015593
-0.0047706105 0.01929432 0.0031405021 4289080873
-0.0031515285 0.020864313 0.0016865521 4289604389
-0.0012956224 0.02090509 0.0015739701 4289800739
0.00043348595 0.021710502 0.00079129916 4290062369
0.0024157763 0.020986957 0.0013490855 4289996833
0.0046675727 0.018734956 0.0032462296 4289800739
0.0070703998 0.015719069 0.0058121621 4288885033
0.010045081 0.0096467566 0.011054857 4288819753
0.014045108 -0.001773797 0.020980312 4288557869
0.017840695 -0.011664162 0.029562617 4288557869
0.020395417 -0.014676236 0.032119688 4287972134
-0.054737955 0.010600677 0.010508912 4287968308
-0.053091042 0.014480455 0.0070251892 4288818989
-0.051270381 0.015286619 0.0062361001 4289080363
-0.049402177 0.01532458 0.006120482 4289473063
-0.047533967 0.015362663 0.0060049514 4289211689
-0.04572418 0.016169032 0.0052167797 4289146154
-0.043858685 0.016207298 0.0051015955 4288950058
-0.041929312 0.015477637 0.0056589018 4288819243
-0.040061105 0.015516205 0.0055437381 4289146408
-0.03819292 0.015554911 0.0054286732 4289407783
-0.036324754 0.015593717 0.0053136884 4288884779
-0.034606211 0.017168259 0.0038553854 4289146408
-0.032898605 0.018742641 0.0023978758 4289866019
-0.031121703 0.01954929 0.0016124477 4290454303
-0.029101366 0.018053045 0.0028410894 4290454814
-0.027241584 0.018092303 0.0027270843 4290454303
-0.025293428 0.017364169 0.0032840115 4290323744
-0.02343104 0.017403712 0.0031700158 4289276968
-0.021568712 0.017443368 0.003056115 4289146408
-0.019803073 0.018250471 0.0022719544 4289211944
-0.018142305 0.019824853 0.00081798667 4290520093
-0.016594581 0.02216628 -0.0013051983 4289866019
-0.014748942 0.022206055 -0.0014177319 4289146663
-0.0129034 0.022245931 -0.0015301779 4289015594
-0.010727238 0.019984854 0.00036603073 4290323999
-0.0087607466 0.019258125 0.0009226664 4289211944
-0.0066732429 0.017764779 0.0021482208 4289015593
-0.004930187 0.018572314 0.001366124 4289015593
-0.0031927153 0.019379837 0.00058445288 4289146408
-0.0013369396 0.019420614 0.00047188764 4288950058
0.0007718727 0.017928181 0.0016964846 4288623148
0.0027621351 0.017202696 0.0022521359 4288688428
0.0048897602 0.015710829 0.0034757736 4288819498
0.0068933517 0.014985865 0.0040307897 4289015593
0.0098646805 0.0088960733 0.0092607327 4289146919
0.013580505 -0.0010244735 0.017826634 4288819754
0.017509919 -0.011709693 0.027055996 4288165935
0.0200588 -0.014730551 0.029606903 4287906599
-0.05473081 0.0083240625 0.010062406 4286987068
-0.053128514 0.012985298 0.0059148609 4288556848
-0.051358148 0.014564151 0.0044557774 4288818989
-0.049545746 0.015372453 0.0036689141 4289146154
-0.047738787 0.016180774 0.0028824867 4288950058
-0.045878902 0.016218809 0.0027675615 4289473318
-0.043957915 0.015486723 0.0033236393 4290062113
-0.042031478 0.014754886 0.0038794787 4289473574
-0.040232711 0.015563508 0.0030939025 4289015594
-0.038300846 0.014832018 0.0036495854 4289146409
-0.036507569 0.01564079 0.0028645457 4289146408
-0.034719776 0.016449569 0.0020799343 4289342759
-0.033014938 0.018028298 0.00062580639 4289669668
-0.031240853 0.018837037 -0.00015777769 4289277224
-0.02930643 0.018106213 0.00039819861 4289146408
-0.027280958 0.016605852 0.0016233777 4289604389
-0.025421379 0.016645199 0.0015094602 4289669669
-0.023561865 0.016684694 0.0013956507 4289407783
-0.021796238 0.017493842 0.00061302213 4289080873
-0.01993959 0.017533509 0.0004995591 4289146408
-0.018281577 0.019112198 -0.00095098885 4289604389
-0.016634542 0.02069073 -0.002400741 4290454814
-0.014789049 0.020730508 -0.0025132559 4290520603
-0.012943644 0.020770399 -0.002625687 4290454813
-0.010877986 0.01927199 -0.0014022165 4290127648
-0.0088015236 0.017773902 -0.00017927075 4289146409
-0.0067142732 0.016276201 0.0010430613 4288884778
-0.0048529468 0.016316867 0.0009299838 4288819243
-0.0028706677 0.015588725 0.0014842791 4288753964
-0.00075923651 0.014091833 0.002705419 4288884779
0.0013629459 0.012595346 0.0039259656 4288688684
0.0033666417 0.011867983 0.0044791833 4288492589
0.005243659 0.01190958 0.0043655937 4288492333
0.007389944 0.010413909 0.005584965 4288296238
0.010371543 0.0043069217 0.01080131 4288296493
0.013957169 -0.0048731472 0.018679466 4288034608
0.017607998 -0.01405168 0.026553819 4287969073
0.019868027 -0.015544354 0.027766583 4288168739
-0.053118564 0.010717744 0.0054748845 4288099124
-0.051495932 0.014618924 0.0020089732 4288949804
-0.049689081 0.015429301 0.0012240834 4288884523
-0.047943272 0.01701224 -0.00023006322 4289604134
-0.046033397 0.016277635 0.00032499107 4290585374
-0.044179119 0.016315682 0.00021050731 4290585374
-0.042261068 0.015581427 0.00076526543 4290389278
-0.040470582 0.016392125 -1.8197577e-05 4289866019
-0.038616333 0.016430529 -0.00013241125 4289146409
-0.036762107 0.016469052 -0.00024653366 4289146409
-0.034907907 0.016507709 -0.00036055734 4289408038
-0.033208556 0.018090645 -0.0018110559 4290454814
-0.031359885 0.018129425 -0.0019245599 4289604389
-0.029511256 0.018168313 -0.002037982 4289015594
-0.027491508 0.01666352 -0.00081573753 4288884523
-0.025637534 0.016702777 -0.00092929183 4289800484
-0.023874657 0.01751394 -0.0017102086 4289865763
-0.022023533 0.017553372 -0.0018234202 4289342503
-0.020268977 0.018364603 -0.002603645 4289277224
-0.018420732 0.018404188 -0.0027165175 4289146408
-0.016674511 0.019215478 -0.0034960622 4289408038
-0.014724486 0.018483749 -0.0029419535 4289211943
-0.012876503 0.018523714 -0.0030545243 4289277223
-0.010808378 0.017021006 -0.0018344498 4288884778
-0.0088422969 0.01628994 -0.0012810123 4288819243
-0.0066397376 0.014016612 0.00060404278 4288884778
-0.0046575218 0.013286131 0.0011566705 4288688684
-0.002548974 0.011784764 0.0023746309 4288492589
-0.00055338442 0.011054842 0.0029265718 4288623404
0.0015739948 0.0095540751 0.0041436036 4288099888
0.0037121326 0.0080536995 0.0053600227 4288099888
0.005729109 0.0073245969 0.005910926 4288295728
0.0080206729 0.0050539579 0.0077912058 4288099633
0.010877896 -0.00029931962 0.012329131 4288034608
0.014053274 -0.0071931202 0.01819383 4287838513
0.0171347 -0.013315077 0.023391344 4287839023
0.019386303 -0.014812295 0.024601446 4289280283
-0.053013999 0.0068963077 0.0063689523 4287379513
-0.051533319 0.013133032 0.00090553612 4288818989
-0.049832191 0.015495164 -0.0012141247 4289080874
-0.048036337 0.016307587 -0.0019966443 4289211944
-0.046071138 0.014796102 -0.00077517703 4289669668
-0.044217009 0.014834134 -0.00088965893 4289604389
-0.042426605 0.015646843 -0.0016715457 4290062369
-0.040708106 0.017234029 -0.0031203558 4289538853
-0.038862191 0.017272266 -0.0032340535 4289342503
-0.037016295 0.017310621 -0.0033476637 4289211944
-0.035095807 0.016574798 -0.0027943295 4289146409
-0.033401944 0.018161973 -0.0042412528 4289538853
-0.031558879 0.018200627 -0.0043544178 4290520093
-0.02979866 0.0190136 -0.0051338584 4290454814
-0.027787346 0.017504232 -0.0039142934 4290192928
-0.025941702 0.017543321 -0.0040273336 4290062114
-0.024005136 0.016808545 -0.0034744595 4289080874
-0.022156883 0.016847918 -0.0035874923 4289276968
-0.020308707 0.016887406 -0.0037004319 4289015594
-0.018460607 0.016927013 -0.0038132784 4288884523
-0.016510706 0.016193001 -0.0032608628 4288622893
-0.014450822 0.014685495 -0.0020436505 4288622893
-0.012487475 0.013952034 -0.0014918614 4288427054
-0.010628823 0.013992334 -0.0016050022 4288950060
-0.008544717 0.012485744 -0.00038904697 4288623150
-0.0063342974 0.010206016 0.0014907089 4288558124
-0.0041076429 0.0079267714 0.0033695796 4288362029
-0.0022276528 0.0079679992 0.0032554832 4288230959
-0.00010040402 0.0064628199 0.004469166 4288034609
0.001784794 0.0065043923 0.0043549263 4287903794
0.00392811 0.0049997922 0.0055678026 4287838003
0.0059503466 0.0042685717 0.0061167995 4288164914
0.00838162 0.0012185313 0.0086551104 4288034099
0.01110914 -0.0033768564 0.012518216 4288100399
0.014149252 -0.0095172413 0.017705185 4287904304
0.016804513 -0.013337987 0.02090152 4287970094
0.019195881 -0.015612428 0.022771202 4289214239
-0.053004362 0.0046162158 0.0059196693 4286725438
-0.051620729 0.01242443 -0.00086441915 4288622638
-0.050027829 0.016346918 -0.0043121791 4289146409
-0.048184767 0.016384484 -0.0044261562 4289277223
-0.046283491 0.015645327 -0.0038738258 4289015594
-0.044437699 0.015683202 -0.0039877845 4289015594
-0.042655569 0.016497901 -0.0047675506 4289015594
-0.040945295 0.01808933 -0.006212641 4289800483
-0.039038599 0.017350791 -0.0056602717 4289211944
-0.037198305 0.017389027 -0.0057735336 4289081129
-0.035283472 0.016650869 -0.0052214344 4289146409
-0.033517815 0.017465888 -0.0059997668 4289342759
-0.031677626 0.017504508 -0.006112738 4289277223
-0.029837474 0.017543225 -0.0062256367 4289604389
-0.027997373 0.017582068 -0.006338431 4289342503
-0.026069127 0.016844777 -0.0057867155 4289080874
-0.024135493 0.016107777 -0.005235272 4288688174
-0.02200917 0.013818821 -0.0033559836 4288622638
-0.020155692 0.013858443 -0.0034692322 4288818989
-0.01810408 0.012346169 -0.0022549331 4288688429
-0.016245309 0.012386134 -0.002368331 4288688174
-0.014177524 0.010874504 -0.0011548754 4288427054
-0.012206193 0.010138983 -0.0006051613 4288688429
-0.010339517 0.010179447 -0.00071879942 4288295728
-0.008360222 0.0094443727 -0.00016943878 4287838003
-0.0061446801 0.0071583036 0.001705131 4288099633
-0.0039128959 0.0048726369 0.0035788235 4288099889
-0.001906693 0.0041384809 0.0041267979 4288034354
-1.8782914e-05 0.0041800141 0.0040123188 4288165169
0.0018689968 0.0042216461 0.0038979216 4287903538
0.0040147863 0.0027127042 0.0051074526 4288034098
0.0060395412 0.0019794106 0.0056546344 4287903029
0.0083386377 -0.000304088 0.0075247553 4287706934
0.010928411 -0.0041373875 0.010716785 4287576118
0.01368523 -0.0087450482 0.014568493 4287968818
0.01633187 -0.012576872 0.017757237 4288165423
0.018423934 -0.013308099 0.018300781 4288297004
0.020521272 -0.014039121 0.018844066 4287382573
-0.051608074 0.010162106 -0.0013007056 4288033843
-0.050065026 0.014874646 -0.0054054903 4288753453
-0.048332974 0.016470386 -0.006849051 4289866019
-0.046437357 0.015728952 -0.0062979818 4290258463
-0.044536285 0.014987709 -0.0057471143 4289277223
-0.042756986 0.015804576 -0.0065251258 4289800739
-0.041115806 0.018179094 -0.008630868 4289931554
-0.039145708 0.016659474 -0.0074158353 4289146408
-0.037236512 0.015918927 -0.0068651517 4289015593
-0.035247382 0.014399914 -0.0056510614 4289015594
-0.033479087 0.015217127 -0.0064278906 4288950314
-0.03163632 0.015255788 -0.0065410314 4288688428
-0.029793594 0.015294569 -0.0066540767 4288622893
-0.027865505 0.014555039 -0.0061040921 4288622893
-0.025843877 0.013037344 -0.0048915902 4288688173
-0.023811407 0.011519974 -0.0036796154 4289146153
-0.021768099 0.010002987 -0.0024682581 4288753708
-0.019810274 0.0092645679 -0.0019197357 4288753453
-0.017847069 0.0085263308 -0.0013714149 4288557359
-0.015878495 0.0077883732 -0.0008233781 4288295728
-0.013800077 0.0062726326 0.00038619945 4288296238
-0.011925276 0.0063131675 0.00027198764 4288230448
-0.010050569 0.006353844 0.00015789038 4288230448
-0.0080633014 0.0056167692 0.00070514763 4288295728
-0.0059553012 0.0041020866 0.0019133114 4287969074
-0.0037183985 0.0018100459 0.0037817885 4288099889
-0.0018277951 0.0018515252 0.0036670635 4288165168
6.2707812e-05 0.0018931124 0.003552428 4288099633
0.0019530691 0.0019348133 0.0034378874 4287903283
0.003972318 0.0011990853 0.0039837589 4287903283
0.0059968755 0.00046362355 0.0045293425 4287968564
0.0080267228 -0.00027161278 0.0050746896 4287510839
0.010473426 -0.0033386126 0.0075991848 4287445048
0.013221581 -0.0079595316 0.011441691 4287575863
0.015716989 -0.011025215 0.013963416 4287117629
-0.051645439 0.0086770561 -0.0024035224 4287445048
-0.050154861 0.014184 -0.0071619647 4288622383
-0.048480947 0.016565224 -0.0092652366 4289473574
-0.046649091 0.016602682 -0.0093784314 4289538853
-0.044817232 0.01664027 -0.0094915293 4290062113
-0.04285828 0.015115818 -0.0082792351 4289866019
-0.041087259 0.015934778 -0.0090549765 4289211944
-0.039114702 0.014410855 -0.0078433352 4289015594
-0.037131261 0.012887245 -0.0066322284 4288753964
-0.035136946 0.011364019 -0.0054217437 4288753964
-0.033440471 0.012964314 -0.0068591004 4288622893
-0.031515226 0.012222299 -0.0063107414 4288884524
-0.02958457 0.011480527 -0.0057626208 4288950059
-0.027563155 0.009958325 -0.0045533897 4288950059
-0.02561897 0.0092170704 -0.0040059295 4288884268
-0.023487784 0.0069150012 -0.0021367022 4288557358
-0.02152737 0.0061743408 -0.0015900466 4288557103
-0.019465322 0.0046535302 -0.00038298173 4288688429
-0.017491426 0.003913397 0.00016302709 4288361264
-0.015512161 0.0031734705 0.00070884963 4288164913
-0.013527535 0.0024338067 0.0012543839 4288099889
-0.011751868 0.0032546856 0.00047971541 4287969073
-0.0098718554 0.0032954607 0.00036528101 4288165168
-0.0078793466 0.0025563296 0.00091060204 4288165168
-0.0057661571 0.0010374468 0.0021151663 4288165168
-0.0037602447 0.00029884093 0.0026598456 4288230704
-0.0018697828 0.00034033135 0.0025451402 4288230704
-0.00010292605 0.0011617262 0.0017715325 4288100399
0.0017845742 0.0012033563 0.0016571595 4288035374
0.0036719404 0.0012451056 0.0015428863 4287643183
0.0056908429 0.00050735101 0.0020871996 4287839789
-0.0515332 0.0048416462 -0.0015204507 4286071364
-0.050086804 0.011147453 -0.0069297953 4288164149
-0.048518062 0.015102198 -0.010351672 4288818478
-0.046686355 0.015139652 -0.010464857 4288819244
-0.044854648 0.015177241 -0.010577946 4288819498
-0.042959455 0.014431695 -0.010029904 4288492333
-0.04105882 0.013686379 -0.0094821109 4288557869
-0.039014854 0.011374971 -0.0076131215 4288557869
-0.03702623 0.0098471623 -0.0064056115 4288884778
-0.035026725 0.0083196666 -0.0051986319 4288819244
-0.033247724 0.0091415029 -0.0059729223 4289146153
-0.031234659 0.0076145213 -0.0047666007 4288622638
-0.02929331 0.006870782 -0.0042207711 4288557358
-0.027261261 0.005344471 -0.0030154183 4288557359
-0.025306385 0.00460127 -0.0024702284 4288426799
-0.023255372 0.0030756183 -0.001265917 4288426799
-0.021380469 0.0031155813 -0.0013805619 4288622639
-0.019409435 0.0023730937 -0.00083608553 4288426799
-0.01753195 0.0024133381 -0.00095071923 4288426799
-0.015451245 0.00088878348 0.0002521961 4288164913
-0.013464101 0.00014700927 0.00079596275 4288165169
-0.011578694 0.0001877863 0.00068111485 4288230959
-0.0098032057 0.0010109693 -9.1824215e-05 4288295983
-0.0078081749 0.0002697017 0.00045171333 4288230704
-0.00592307 0.00031084381 0.00033715973 4288296493
-0.0039200783 -0.00042999722 0.00088040158 4288296748
-0.0021532029 0.0003934633 0.00010833284 4288166444
-0.00026843697 0.00043493323 -5.9506856e-06 4287905069
0.0014900342 0.0012584254 -0.00077734934 4287250993
-0.049966428 0.0073168706 -0.0060438276 4286921533
-0.048389386 0.011282666 -0.0094581181 4288229939
-0.046665631 0.012891361 -0.010891319 4288491823
-0.044770639 0.012143521 -0.010344974 4288819498
-0.042806763 0.010610403 -0.0091394344 4288819498
-0.040898159 0.0098630916 -0.0085937437 4288753963
-0.038915232 0.0083306897 -0.0073892125 4289015849
-0.036921419 0.0067985859 -0.0061852285 4288884523
-0.034991071 0.006052088 -0.0056406041 4288622638
-0.033209436 0.0068761017 -0.0064133988 4288622638
-0.031114129 0.0045597907 -0.0045520868 4288688174
-0.029085021 0.003028933 -0.00334989 4288491824
-0.026959829 0.00071348622 -0.0014902381 4288426288
-0.025170194 0.0015381668 -0.002263152 4288361264
-0.023113992 8.2347542e-06 -0.0010623536 4288491823
-0.021233788 4.8318878e-05 -0.0011773161 4288361008
-0.019257516 -0.00069623627 -0.00063478341 4288492079
-0.01727587 -0.0014405418 -9.2475675e-05 4288361263
-0.015492029 -0.00061535463 -0.00086456863 4288230704
-0.01350509 -0.001359323 -0.00032241922 4288165168
-0.011726875 -0.00053403899 -0.0010940037 4288165679
-0.0097346753 -0.0012776349 -0.00055198278 4287970604
-0.0080745853 0.00033215992 -0.0019794614 4287709228
-0.049898855 0.004261246 -0.0058258232 4285875268
-0.04831624 0.0082380343 -0.0092323609 4288099124
-0.046355352 0.0067003425 -0.0080300737 4288361008
-0.044444218 0.0059506278 -0.0074863643 4288426798
-0.042527635 0.0052011348 -0.0069428361 4288885033
-0.040671721 0.0052394569 -0.0070572416 4288361773
-0.03874699 0.0044904146 -0.006514078 4288623659
-0.036745273 0.0029541682 -0.0053138603 4288361518
-0.034732677 0.0014182478 -0.0041141594 4288296239
-0.03286323 0.0014573485 -0.0042290268 4288295728
-0.030834354 -7.7949837e-05 -0.0030301933 4288230449
-0.028877078 -0.00082567707 -0.0024885605 4288230448
-0.026744029 -0.0031475406 -0.00063421484 4288295728
-0.024858408 -0.0031075981 -0.00074969884 4288361008
-0.022972852 -0.0030675251 -0.00086508133 4288230448
-0.021087347 -0.0030273292 -0.00098037068 4288230448
-0.019201918 -0.0029870439 -0.0010955855 4288230448
-0.017415363 -0.0021597482 -0.0018663155 4288230193
-0.015735872 -0.00054561161 -0.0032921296 4288296493
-0.013858851 -0.00050511584 -0.0034065398 4287708719
-0.011981919 -0.000464499 -0.003520855 4287382319
-0.049726639 -0.00038280524 -0.0043003466 4285875268
-0.048077855 0.0028151404 -0.0070427684 4287314233
-0.046161484 0.002063239 -0.0065010916 4288099634
-0.044300258 0.0021014381 -0.0066159945 4288165168
-0.042375714 0.0013499577 -0.0060746353 4288230958
-0.040511779 0.0013884511 -0.006189527 4288362029
-0.038579084 0.00063736178 -0.0056484286 4288492844
-0.036569458 -0.00090306439 -0.0044519296 4288427308
-0.034548961 -0.0024431329 -0.0032560057 4288296239
-0.032594539 -0.0031934083 -0.0027159723 4288361518
-0.030714383 -0.0031539463 -0.0028313948 4288427053
-0.028669467 -0.0046931487 -0.0016367026 4288164913
-0.026613701 -0.0062319711 -0.00044256635 4288361264
-0.02454708 -0.0077705011 0.00075102784 4288361263
-0.022650778 -0.0077301953 0.00063499156 4288361263
-0.020754533 -0.0076897833 0.00051903725 4288296748
-0.019050406 -0.0060710181 -0.00090522738 4288166188
-0.017357249 -0.0044523906 -0.002328679 4287512369
-0.048005305 -0.00025286339 -0.006834439 4287314234
-0.046025869 -0.001798939 -0.0056397491 4287968819
-0.04415663 -0.0017605722 -0.0057551465 4287904048
-0.04222412 -0.0025140569 -0.0052158912 4287904049
-0.040352169 -0.0024753977 -0.0053312783 4288100399
-0.038342793 -0.0040202979 -0.004138093 4288165679
-0.036322534 -0.0055648927 -0.0029454429 4288230958
-0.034217235 -0.0079008322 -0.0010995148 4288165423
-0.032172509 -0.0094446521 9.1826543e-05 4288099634
-0.030196546 -0.010196483 0.00062896777 4288295728
-0.02821517 -0.010948071 0.001165871 4288230193
-0.026228389 -0.011699441 0.0017025969 4288230449
-0.024148425 -0.013242002 0.0028920886 4287642419
-0.047877923 -0.0041236356 -0.0059788623 4287379513
-0.046006117 -0.004085362 -0.006094526 4287903284
-0.044073816 -0.0048411451 -0.0055569666 4288296239
-0.042072855 -0.0063908678 -0.0043666493 4288099889
-0.040061008 -0.0079401899 -0.0031769467 4287968819
-0.03803828 -0.0094891693 -0.0019878251 4288034098
-0.036076054 -0.010243874 -0.0014516935 4288034098
-0.033960186 -0.012586102 0.0003887401 4288034098
-0.031751163 -0.015721755 0.0028804257 4288099634
-0.029599937 -0.018063053 0.0047189002 4287968563
-0.027679268 -0.018022597 0.0046010991 4287902773
-0.025673637 -0.01877572 0.0051349918 4287379768
-0.047805857 -0.0072107036 -0.0057846922 4287182908
-0.045813337 -0.0087651908 -0.0045972713 4287837238
-0.043689046 -0.011912057 -0.0021074084 4288164403
-0.041669287 -0.013465712 -0.00092154043 4288295218
-0.039638638 -0.015019036 0.00026380923 4287968309
-0.0375285 -0.01736817 0.0020995406 4287182909
-0.029083747 -0.025168147 0.0081328135 4287183673
-0.027061932 -0.025923271 0.0086640455 4286922553
-0.025119673 -0.025882252 0.0085449982 4287249718
-0.029124474 -0.026716398 0.0069832006 4286464318
-0.027102878 -0.027473703 0.007512826 4287315253
-0.025160782 -0.027432688 0.0073937899 4287380789
-0.027308051 -0.027423346 0.0050678509 4286988089
-0.025286727 -0.028182643 0.0055959406 4287118649
0.0076723211 -0.0017433222 0.0015080287 4282415174
0.00997575 -0.0040461328 0.0033633611 4281760844
0.012155604 -0.0055669043 0.0045614601 4280645474
-0.0023157261 -0.00032866746 -0.0016659093 4282218314
-0.00055720657 0.00049689598 -0.0024357704 4281695818
0.0013218373 0.00053836778 -0.0025496115 4280976718
0.003200762 0.00057993084 -0.0026633735 4280715089
0.0054742023 -0.0017302874 -0.00081124296 4280256853
0.0074952953 -0.0024722163 -0.00027020695 4279866703
0.0097956955 -0.0047816653 0.0015804931 4279797854
0.023854647 -0.0083997045 0.0040494767 4283066443
0.025764551 -0.0083562732 0.0039347173 4284115514
-0.0084531829 0.0011901874 -0.005058825 4283787328
-0.0065819882 0.0012310203 -0.0051725367 4282220864
-0.0045930222 0.00048551522 -0.004631687 4281763648
-0.0025987253 -0.00025973469 -0.0040910598 4281174089
-0.00059909374 -0.0010048039 -0.0035506345 4280912459
0.0012798123 -0.0009633489 -0.0036644747 4279801934
0.0031585954 -0.00092176348 -0.0037782115 4279996498
0.0053002313 -0.0024523865 -0.0025845822 4279668824
0.0074526109 -0.0039826371 -0.0013915007 4279602779
0.025561515 -0.0090985838 0.0021485672 4283721538
0.033187982 -0.0089242179 0.0016910271 4284704308
-0.01234363 0.00040277839 -0.0065945573 4282544458
-0.010255817 -0.0011342522 -0.0054015536 4282022474
-0.008606676 0.00048399717 -0.0068218932 4281173578
-0.0065081678 -0.0010525882 -0.0056293821 4281238859
-0.0046345033 -0.0010115728 -0.0057431497 4280651593
-0.0026404075 -0.001759015 -0.0052041379 4280194634
-0.00076423585 -0.0017177239 -0.0053178906 4280389963
0.001237791 -0.0024648029 -0.0047791433 4280127824
0.0032451451 -0.0032116268 -0.0042406935 4279669844
0.0052578039 -0.0039581861 -0.0037024571 4279603034
0.007409934 -0.0054928064 -0.0025126082 4279405664
-0.017693996 -0.0035842676 -0.0054037492 4281761353
-0.016121432 -0.0011704471 -0.0074749463 4280716363
-0.014252871 -0.0011301339 -0.0075888433 4280650574
-0.01227754 -0.0018807463 -0.0070507466 4280193104
-0.010406438 -0.0018401444 -0.0071646222 4280258384
-0.0085354373 -0.0017994232 -0.0072784028 4279931983
-0.0066645294 -0.0017585978 -0.0073920959 4279736908
-0.0044404566 -0.0040900744 -0.0055519184 4280259403
-0.002561599 -0.0040488467 -0.0056659253 4280520779
-0.00043645501 -0.0055888332 -0.0044779973 4280129609
0.0011957809 -0.003966026 -0.0058936435 4279931983
0.0033315755 -0.0055055674 -0.0047062039 4279669843
0.005215399 -0.0054637846 -0.0048201801 4279602523
-0.020183472 -0.016272563 0.0028285137 4283393863
-0.019035785 -0.0098840445 -0.0024961671 4282675529
-0.01773449 -0.0050830338 -0.0065165353 4280847689
-0.016161896 -0.0026626736 -0.0085828658 4279868489
-0.014189411 -0.0034156516 -0.0080463123 4279802698
-0.012211569 -0.0041683763 -0.0075099822 4279867213
-0.010337889 -0.0041277092 -0.0076240082 4280193613
-0.0084643066 -0.0040869359 -0.0077379472 4280062544
-0.0064758547 -0.004839072 -0.0072019962 4279932494
-0.0044820458 -0.0055910274 -0.0066662477 4279867724
-0.0024829172 -0.0063427072 -0.0061307801 4279540559
-0.00060158223 -0.0063012969 -0.0062448429 4279540559
0.0012796298 -0.0062597934 -0.0063588256 4279541578
0.0032893084 -0.0070108864 -0.0058237333 4278885463
0.0053042956 -0.0077617764 -0.0052888962 4279210589
-0.021506524 -0.023412598 0.0063581369 4282411093
-0.020131351 -0.018597262 0.0023428206 4282480454
-0.019076476 -0.011395607 -0.0036184648 4282088519
-0.017873559 -0.0057859886 -0.0082783056 4280130629
-0.016303655 -0.0033591781 -0.010339629 4280260679
-0.014230087 -0.004909832 -0.0091556702 4279998539
-0.012145709 -0.0064601079 -0.0079722647 4279998539
-0.010378912 -0.0056240838 -0.0087349722 4279997009
-0.0085054785 -0.0055833142 -0.0088489028 4279995989
-0.006632138 -0.0055424143 -0.008962729 4279865429
-0.0046412647 -0.0062965583 -0.0084284591 4279539285
-0.002645053 -0.007050531 -0.0078944005 4279147859
-0.00076657906 -0.0070091803 -0.0080082854 4278952019
-0.020358544 -0.018532377 -8.964166e-05 4282150738
-0.019117162 -0.012906918 -0.0047405772 4281958468
-0.017815467 -0.0080798157 -0.0087415492 4280849983
-0.016242817 -0.0056464355 -0.01079819 4279738948
-0.014270749 -0.006403761 -0.010264842 4279609409
-0.012400009 -0.0063632727 -0.010378775 4279607878
-0.010529339 -0.0063226782 -0.010492623 4279343953
-0.008770898 -0.0054845307 -0.011253107 4279343189
-0.0069031417 -0.0054437909 -0.011366624 4279472474
-0.0050354972 -0.0054029003 -0.011480018 4278753629
-0.020492485 -0.019258667 -0.001869183 4281755744
-0.019253574 -0.013617983 -0.0065086652 4281696584
-0.018052854 -0.0079780556 -0.011145696 4280002364
-0.016384441 -0.0063381214 -0.012551374 4279541578
-0.014519203 -0.0062978882 -0.012665073 4279212629
-0.01254743 -0.0070572644 -0.012133229 4278883933
-0.019485526 -0.013522364 -0.0089178029 4281302354
-0.018191602 -0.0086694192 -0.01289886 4280129609
0.014960025 -0.0086765029 0.0095248837 4279976353
0.016881909 -0.0086333323 0.0094090104 4278728638
0.018803623 -0.0085900445 0.0092932358 4280437139
0.021026637 -0.010105038 0.010492234 4280701319
0.014203679 -0.0063057616 0.0051027085 4278465478
0.016257044 -0.0070443638 0.0056437352 4278333388
0.018167753 -0.0070013367 0.0055286144 4278465479
0.020379622 -0.0085209589 0.0067250985 4279782553
0.022448834 -0.0092589157 0.0072653876 4282275433
0.011693124 -0.0047392454 0.0014659432 4280049029
0.013732839 -0.0054804478 0.0020060879 4278930089
0.01797602 -0.007745808 0.003739987 4278339763
0.020034324 -0.0084862839 0.0042792414 4278931108
0.01326238 -0.0046418589 -0.0010806019 4278797488
0.015444133 -0.0061710402 0.00011101179 4278862768
0.019538727 -0.007656958 0.0011875895 4279193759
0.021593954 -0.0083995648 0.0017254935 4278734758
0.023498464 -0.0083563644 0.001610978 4281426538
0.037350152 -0.010406821 0.0027647973 4282276199
0.040150072 -0.014288238 0.005904811 4281818729
0.015255693 -0.0068997145 -0.0016661063 4278271423
0.01744521 -0.0084329676 -0.00047812285 4278666928
0.019344483 -0.0083900783 -0.00059246598 4278865319
0.021396797 -0.0091349669 -5.5963639e-05 4278603433
0.023142535 -0.0083040129 -0.00082089892 4278472363
0.025199968 -0.0090485811 -0.00028455164 4281029758
0.026778568 -0.007429909 -0.0016992185 4281688424
0.028838355 -0.0081741922 -0.0011629141 4280441474
0.030736614 -0.0081307497 -0.0012767673 4278932384
0.032634687 -0.0080872159 -0.0013905372 4280045968
0.036780205 -0.009574594 -0.00031896681 4278929323
0.039216172 -0.011892497 0.0015149233 4279978904
0.042570245 -0.018146066 0.0065934439 4280635018
0.0091194622 -0.0061702374 -0.004397749 4279328909
0.011284675 -0.0077087209 -0.0032117141 4278407338
0.016958538 -0.0075812135 -0.0035537614 4278472619
0.018999938 -0.0083285868 -0.0030183413 4278603433
0.02104662 -0.009075731 -0.0024831574 4278865574
0.024680089 -0.0081997197 -0.0033598605 4278799529
0.026411835 -0.0073667429 -0.0041221385 4278997664
0.028466005 -0.0081133395 -0.0035871251 4278670499
0.030525457 -0.0088597219 -0.0030523564 4278538154
0.032081794 -0.0072369855 -0.0044622086 4278537389
0.033971403 -0.0071935412 -0.0045753941 4278402238
0.035860855 -0.0071500391 -0.0046885251 4278927538
0.041262146 -0.014167301 0.0009128172 4280110229
0.044822935 -0.021226978 0.0066243284 4282405739
0.0089399703 -0.0068851802 -0.0061653345 4279918213
0.010962728 -0.0076355655 -0.0056307199 4278931874
0.013132971 -0.0091781802 -0.0044481475 4278537899
0.015024144 -0.0091357064 -0.0045621768 4278537898
0.016915154 -0.0090930834 -0.0046760803 4278669224
0.018806007 -0.0090503898 -0.0047899215 4278472618
0.020849783 -0.0097997701 -0.0042561786 4278340783
0.022587266 -0.0089647155 -0.0050173514 4279127713
0.024477642 -0.008921722 -0.0051309308 4278734758
0.026367847 -0.0088786371 -0.0052444292 4279062688
0.028585795 -0.010419354 -0.0040641935 4279062944
0.030314427 -0.0095840981 -0.0048245355 4278537134
0.032037448 -0.0087488852 -0.0055844774 4279323298
0.03341062 -0.0063301753 -0.0076367557 4279585694
0.03529181 -0.0062868576 -0.0077493833 4278669223
0.040135209 -0.010949379 -0.0040992233 4278603178
0.043496016 -0.017237503 0.00095305126 4279259039
0.0084872358 -0.0060060751 -0.0092232954 4279260314
0.010501642 -0.0067588408 -0.0086897369 4278604453
0.012805607 -0.0091005806 -0.0068634273 4278997153
0.014691193 -0.009058198 -0.0069770934 4278275759
0.016429063 -0.0082212593 -0.0077368943 4278537133
0.022232044 -0.0088877324 -0.007430946 4278271168
0.02411687 -0.0088448878 -0.0075442088 4278799784
0.02616268 -0.0095961038 -0.0070119905 4278538919
0.028049897 -0.0095530078 -0.0071252496 4278604709
0.031654473 -0.0086725783 -0.0079964362 4278272954
0.033194344 -0.0070414264 -0.0093987556 4280109974
0.034723174 -0.005410431 -0.010800416 4279520159
0.036950875 -0.0069548599 -0.0096236179 4279192229
0.039189268 -0.0084989127 -0.0084474403 4278865064
0.042170037 -0.013217418 -0.0046954323 4279062689
0.045368861 -0.018728672 -0.00030143606 4279390873
-0.023481593 -0.024997607 0.0053301346 4282927724
-0.021818802 -0.02256274 0.0032675811 4281884519
0.00056681409 -0.0052796192 -0.0118197 4279460234
0.0023055561 -0.0044412035 -0.012578469 4279653778
0.004301101 -0.0051968899 -0.012045706 4278800548
0.00616806 -0.0051553547 -0.012158569 4279324318
0.008308135 -0.0067075044 -0.010980847 4279325084
0.010319624 -0.0074624941 -0.010448795 4278473129
0.012478478 -0.0090140682 -0.0092720157 4278473129
0.014358494 -0.0089718364 -0.0093853651 4278406063
0.016090874 -0.008132834 -0.010143206 4278274484
0.017667402 -0.0064972155 -0.011545097 4279060649
0.019691776 -0.0072514024 -0.01101344 4279060903
0.024073135 -0.010351983 -0.0086629465 4278470833
0.025957685 -0.01030906 -0.0087761302 4278996643
0.027842049 -0.010266023 -0.0088892132 4278604199
0.029726256 -0.010222916 -0.0090022339 4278865318
0.031271759 -0.0085873827 -0.010401724 4278468028
0.032634225 -0.0061558746 -0.012443647 4278468539
0.038784396 -0.0084142666 -0.01085143 4278864809
0.04121067 -0.010758334 -0.0090362728 4278866338
0.044580933 -0.01708097 -0.0040104231 4280177549
-0.023435118 -0.027341438 0.0048305546 4282338164
-0.021769591 -0.024899978 0.0027727014 4281357689
-0.0072887018 -0.0045366045 -0.01440885 4278410399
-0.005311843 -0.0052954219 -0.013876981 4279128989
-0.0033296496 -0.0060540475 -0.013345305 4279193503
-0.0013421141 -0.0068123844 -0.0128139 4278538154
0.00027371198 -0.0051725078 -0.014215646 4278995369
0.0038657151 -0.0042908285 -0.015084933 4278401473
0.0059920736 -0.0058478136 -0.013909682 4278270658
0.0081291683 -0.0074044 -0.012735034 4279257509
0.010277025 -0.0089606233 -0.011560944 4278538409
0.012293629 -0.0097176228 -0.011030708 4278407339
0.013881337 -0.0080776159 -0.012430193 4278338488
0.015605483 -0.0072366297 -0.013185922 4278862003
0.017173868 -0.0055969115 -0.014584057 4279128223
0.01918989 -0.0063534584 -0.014053513 4278800804
0.021366809 -0.0079084393 -0.012880739 4278538154
0.023396123 -0.0086644981 -0.012350855 4278537133
0.02543072 -0.0094203912 -0.011821179 4278734504
0.027306814 -0.0093775466 -0.011933769 4278473129
0.029349227 -0.010133013 -0.011404455 4278603944
0.030889306 -0.0084932521 -0.012800453 4278603179
0.036330085 -0.0075657982 -0.013778046 4278996644
0.038559888 -0.0091188122 -0.012607804 4278996644
0.040983137 -0.011469481 -0.010797329 4278931874
0.043979052 -0.016213663 -0.0070656091 4278932128
0.047383826 -0.022552762 -0.0020547467 4281422714
-0.023563756 -0.028084705 0.0030379663 4282076278
-0.021991156 -0.024834558 0.00034027826 4280767109
-0.020626297 -0.019980341 -0.003645296 4280702848
-0.011048377 -0.0061024316 -0.015285127 4278670243
-0.0091889836 -0.0060619731 -0.015398206 4279259294
-0.0074444152 -0.00521967 -0.016154531 4279259294
-0.0053530373 -0.0067823809 -0.014980922 4279325084
-0.0033710375 -0.0075431969 -0.014450862 4278735269
0.00023210421 -0.0066594984 -0.015319578 4279519649
0.0019652508 -0.0058168937 -0.016074797 4279191209
0.003823895 -0.0057756621 -0.016187243 4279124399
0.0099559985 -0.0088561494 -0.013956629 4278341294
0.011966962 -0.0096154055 -0.013427713 4278538154
0.013693903 -0.0087722819 -0.014182067 4278602668
0.025065113 -0.0093191005 -0.014215875 4278865829
0.026935663 -0.009276405 -0.01432815 4278734758
0.02897248 -0.010034199 -0.013800137 4278538409
0.030676279 -0.0091907717 -0.014552483 4278866339
0.03254633 -0.0091478117 -0.014664521 4278734759
0.034416217 -0.0091047827 -0.014776498 4278865573
0.036285941 -0.0090616848 -0.01488841 4278799019
0.040938471 -0.012976259 -0.01191576 4278341548
0.044119362 -0.01853364 -0.0075546536 4279063708
0.047149923 -0.023289956 -0.0038347067 4281489013
-0.025622947 -0.028864315 0.0013670041 4283189863
-0.023604825 -0.029627895 0.001892149 4281094018
-0.022032147 -0.026369058 -0.00079907337 4279259803
-0.020945773 -0.019088611 -0.0067041209 4280179333
-0.016667321 -0.0077076387 -0.01604753 4279391894
-0.015015382 -0.0060592741 -0.017445665 4279391384
-0.012948405 -0.007627314 -0.016274143 4279061924
-0.011307519 -0.0059789382 -0.017671419 4278536369
-0.0093417652 -0.0067425761 -0.017142279 4279519904
-0.0074853338 -0.0067020692 -0.017255098 4279520413
-0.0053942204 -0.0082691237 -0.016084703 4278734248
-0.0035325401 -0.0082282834 -0.016197674 4278275503
-0.0015481152 -0.0089911055 -0.015669297 4278273718
6.4946711e-05 -0.0073426198 -0.017064419 4278929833
0.0019235834 -0.0073014945 -0.017176945 4279651994
0.0037820898 -0.0072602648 -0.017289383 4278931873
0.0056404918 -0.0072189514 -0.017401753 4278341039
0.0076351985 -0.0079809558 -0.01687363 4278536878
0.0096352398 -0.0087427776 -0.016345708 4278668714
0.011498686 -0.0087010171 -0.016458131 4278538154
0.013362002 -0.0086591747 -0.016570484 4278407339
0.022676449 -0.0084484983 -0.017130993 4278997409
0.024860729 -0.010011842 -0.015965013 4278801314
0.02672844 -0.0099692149 -0.01607712 4279062943
0.028762352 -0.010729258 -0.015550556 4278669733
0.030801546 -0.011489083 -0.015024237 4278538663
0.03301781 -0.013051379 -0.013859862 4278407593
0.034895744 -0.013008186 -0.013972336 4278603943
0.036950734 -0.013767401 -0.01344678 4278604963
0.041259166 -0.016087625 -0.011758754 4279783828
0.043888804 -0.01925317 -0.0093217185 4280701064
-0.025917785 -0.027984859 -0.0017028591 4281553528
-0.023908047 -0.0287508 -0.0011788243 4280831369
-0.02216324 -0.0270967 -0.0025798408 4280701064
-0.020986384 -0.02060334 -0.0078287832 4280570758
-0.019757591 -0.014917315 -0.012433654 4280112013
-0.018468712 -0.010038376 -0.016395044 4279193503
-0.015055653 -0.0075392313 -0.018544465 4279913368
-0.011457253 -0.0066526774 -0.01941069 4278401983
-0.0076408461 -0.007378161 -0.018995604 4278995624
-0.0055527128 -0.0089496393 -0.017828273 4278996134
-0.0035738423 -0.0097148372 -0.017301306 4278407849
-0.0017124042 -0.0096738813 -0.017414175 4278473383
0.0017537065 -0.0079801027 -0.018918218 4278602413
0.0036093704 -0.007938955 -0.019030498 4279782554
0.0053312518 -0.0070920493 -0.019781647 4279061413
0.0091756247 -0.0078149028 -0.019366831 4278930598
0.011030782 -0.007773336 -0.019478759 4278603944
0.013174895 -0.0093425233 -0.018314034 4278669479
0.015035231 -0.0093006464 -0.018426131 4278538664
0.017195392 -0.010869312 -0.017262179 4278669989
0.018755469 -0.0092166141 -0.018650087 4278997664
0.020615388 -0.0091744699 -0.018761953 4278735523
0.022633281 -0.009937373 -0.018236212 4278800549
0.024656471 -0.010700026 -0.017710764 4278735014
0.026848499 -0.012267442 -0.016548412 4278407593
0.028718669 -0.012224683 -0.01666061 4278538664
0.031264711 -0.015401321 -0.014225394 4278735268
0.033317167 -0.016162954 -0.013701444 4278866594
0.035374891 -0.016924374 -0.01317774 4278997663
0.037083548 -0.016076257 -0.013926968 4278866083
0.039146353 -0.016837394 -0.013403445 4278472618
0.041214425 -0.017598398 -0.012880154 4279325594
0.043843705 -0.020772628 -0.010449557 4280701574
0.046494525 -0.023946228 -0.0080202231 4282012019
-0.024298241 -0.027051628 -0.00488012 4281685364
-0.022384264 -0.027010972 -0.0049972585 4281160574
-0.020934213 -0.022926565 -0.0083134584 4280570504
-0.019797938 -0.016416617 -0.013546851 4280504714
-0.018508855 -0.011524632 -0.017498542 4279062688
-0.015199583 -0.0082104746 -0.020282324 4279585694
-0.013455007 -0.0073620044 -0.021034054 4279847833
-0.011606846 -0.0073219314 -0.021146556 4279585693
-0.0077962391 -0.0080496594 -0.020732772 4278995369
-0.0058283471 -0.008817412 -0.02020679 4278669479
-0.0038551204 -0.0095849 -0.019681094 4278604199
-0.0019992627 -0.0095440829 -0.019793637 4278735269
-0.00014351681 -0.0095031606 -0.019906091 4278797744
0.0015839785 -0.0086541921 -0.020656135 4278271678
0.0089944825 -0.0084892623 -0.021104069 4278866084
0.010846801 -0.0084477756 -0.021215841 4278931364
0.013132412 -0.010828947 -0.019417476 4278997410
0.014992621 -0.010787108 -0.019529594 4279193758
0.017152544 -0.012360119 -0.018368857 4278996898
0.018865269 -0.011510555 -0.019117322 4278407083
0.020883139 -0.012275684 -0.018593309 4278341293
0.023064371 -0.013847888 -0.017433688 4278538409
0.024934728 -0.013805327 -0.01754605 4279063199
0.027131978 -0.015377036 -0.016387219 4278866593
0.029173698 -0.016141258 -0.015864369 4278997663
0.031558592 -0.018519357 -0.014071364 4279128989
0.033787969 -0.020090051 -0.012914252 4279325338
0.035679299 -0.020046584 -0.013027553 4279521434
0.037570443 -0.020003024 -0.013140771 4279521688
0.03946143 -0.019959409 -0.013253934 4278603688
0.041534763 -0.02072241 -0.012732609 4279456409
0.043798644 -0.022291919 -0.011577274 4281161593
-0.024513416 -0.026956895 -0.0072912113 4282602343
-0.022515047 -0.027727325 -0.0067696432 4281486208
-0.020789431 -0.026064819 -0.0081629232 4281290114
-0.019647405 -0.019537335 -0.013383776 4280832643
-0.018352667 -0.014632274 -0.017326094 4279718804
-0.016888898 -0.011349208 -0.019990889 4278800549
-0.013601605 -0.0080266055 -0.022766691 4279258019
-0.011647265 -0.0087971352 -0.022241807 4279913880
-0.0099110976 -0.0079464689 -0.022991255 4279258019
-0.0061037354 -0.0086762272 -0.022578727 4278734504
-0.0041361526 -0.0094460296 -0.022054324 4278734758
-0.0022858717 -0.0094053382 -0.02216653 4278735014
-0.00043569878 -0.0093645295 -0.02227864 4278473129
0.0031335019 -0.0084725823 -0.023138525 4278277034
0.0049806237 -0.0084315371 -0.023250224 4278734759
0.0068276227 -0.0083903987 -0.023361845 4279520923
0.0089524612 -0.0099689336 -0.022202522 4279193758
0.010804653 -0.009927474 -0.022314303 4278735014
0.013089959 -0.012315202 -0.020520797 4278866084
0.015244324 -0.013892786 -0.019363038 4278407338
0.017259557 -0.014660357 -0.018840643 4278931618
0.019127544 -0.014618156 -0.018953087 4278538409
0.023179073 -0.016152345 -0.017909206 4279063454
0.025212791 -0.01691917 -0.017387602 4279325594
0.02741522 -0.018495064 -0.016232362 4279522454
0.029296037 -0.018452099 -0.016345227 4279325338
0.031683367 -0.020836722 -0.014557194 4279259803
0.033915225 -0.022411682 -0.013403524 4279390364
0.035809156 -0.022368161 -0.013516983 4279652504
