# .PCD v0.7 - Point Cloud Data file format
VERSION 0.7
FIELDS x y z rgba
SIZE 4 4 4 4
TYPE F F F U
COUNT 1 1 1 1
WIDTH 963
HEIGHT 1
VIEWPOINT 0 0 0 1 0 0 0
POINTS 963
DATA ascii
0.0073940754 0.020068234 0.022535963 4289342758
0.0092120022 0.020834589 0.021725764 4289408293
0.011164859 0.020875314 0.021614833 4290389534
0.013690762 0.018013893 0.024298901 4290585628
0.017552666 0.0086235013 0.033268981 4290257698
-0.012069348 0.0034858119 0.036589377 4286136898
-0.011458583 0.012996787 0.02738546 4287118393
-0.010034792 0.016679009 0.023777494 4289211689
-0.0082986988 0.018175701 0.022267608 4289408038
-0.0065736584 0.019672239 0.020758482 4289800483
-0.0049783923 0.021896934 0.018551512 4290455069
-0.00315677 0.022664977 0.017742297 4290585884
-0.00096828863 0.021248562 0.019028084 4290062368
0.0011040494 0.020560591 0.019615257 4289408294
0.003181681 0.019872827 0.020202218 4289277479
0.0051322393 0.019913243 0.020091219 4289277223
0.0069475546 0.020681662 0.01928273 4289277479
0.0087572262 0.021450063 0.018474652 4289539108
0.010561235 0.022218501 0.017666923 4290455069
0.013075888 0.019348117 0.020345168 4290585628
0.016196087 0.013567524 0.025810095 4290192419
0.0258983 -0.013997337 0.052058935 4289864743
-0.011690382 -0.0010511894 0.038187057 4286071363
-0.011068106 0.0084884968 0.029003585 4286791228
-0.00996463 0.014373759 0.023311021 4288753709
-0.0084522106 0.017336024 0.020409873 4289473574
-0.0069617555 0.020297943 0.017510047 4289931554
-0.0053746253 0.022529019 0.015308471 4290389533
-0.0034398995 0.022568731 0.015198098 4290455069
-0.0012571178 0.021147883 0.016480939 4290716699
0.00080957636 0.020457638 0.017066842 4289473573
0.0028815754 0.019767551 0.017652551 4289211943
0.0048265569 0.019807881 0.017541895 4289211943
0.0066363402 0.020578442 0.016735328 4289277479
0.0084404871 0.021348959 0.015929205 4290324254
0.010379463 0.021389453 0.015819108 4289473829
0.012747854 0.019240217 0.017795587 4289015849
0.015424222 0.015631692 0.021161886 4289408038
0.019168213 0.0069150608 0.029392963 4289080363
0.024188466 -0.0076382887 0.043180697 4289080363
0.028701089 -0.019270344 0.054182805 4288752944
-0.010893449 0.0054287333 0.029217171 4286333248
-0.010005008 0.012797246 0.022145817 4288295473
-0.0088318884 0.0179665 0.017164441 4288819499
-0.0072336681 0.020204337 0.014967004 4289081128
-0.0055333823 0.021709317 0.013465839 4289081128
-0.0034801774 0.021016384 0.014050795 4289277479
-0.0015457384 0.021056211 0.01394053 4289931553
0.0003885515 0.021096135 0.01383034 4289343014
0.0024521686 0.020403767 0.014414893 4289146664
0.004388839 0.020443952 0.014304729 4289408294
0.006325338 0.020484233 0.014194647 4289735714
0.0082616583 0.020524601 0.014084646 4290389788
0.010057375 0.021297263 0.013280721 4290520603
0.012133725 0.020605652 0.013864914 4289932063
0.01436118 0.019182203 0.015142603 4290324254
0.017490923 0.013366947 0.020581158 4290389534
0.021874592 0.0016970448 0.031564623 4289669159
0.026961446 -0.012898468 0.045316227 4289015084
-0.010719024 0.0023604762 0.029424557 4286006339
-0.010045405 0.01122102 0.020980837 4287183673
-0.0089851059 0.017140603 0.01531682 4289080618
-0.0075053871 0.020119833 0.012430599 4290258464
-0.0058105662 0.021629063 0.010933066 4289735459
-0.0040055402 0.022403395 0.010129707 4289539108
-0.0019581541 0.021708326 0.01071343 4289604898
9.4536692e-05 0.021013459 0.011296915 4290520859
0.0020230711 0.021053409 0.011187164 4289212198
0.0039514378 0.021093449 0.011077492 4289212198
0.0061494373 0.01966458 0.012353363 4289473828
0.0080829039 0.019704936 0.01224356 4289408549
0.0098758265 0.020479785 0.011441385 4289931808
0.011520013 0.021988893 0.0099474173 4290193693
0.013736337 0.020560848 0.011222502 4290390043
0.016408995 0.016930467 0.014572958 4289407784
0.020318739 0.0074276682 0.023456218 4288884524
0.025531046 -0.0079462845 0.037868716 4288753199
0.030074008 -0.019647541 0.048817359 4288687663
-0.010437284 -0.0014534276 0.030318299 4286006339
-0.0099755265 0.0089079197 0.020508563 4286725948
-0.0091382265 0.01631931 0.013472678 4288688173
-0.0077768862 0.020044325 0.0099009331 4289866274
-0.0060875453 0.02155784 0.0084069576 4290324254
-0.0041668452 0.021597324 0.0082974304 4290586138
-0.0022462979 0.02163692 0.0081879962 4290520859
-0.00019925088 0.020939773 0.0087701995 4289604899
0.0017236918 0.02097963 0.0086607877 4289212198
0.0036464781 0.021019576 0.0085514504 4289212455
0.0058387741 0.019586293 0.0098243896 4289212455
0.008041814 0.018153286 0.011096833 4289277989
0.0098346621 0.018930359 0.010296313 4289016359
0.011621878 0.019707365 0.0094962288 4288754473
0.013549194 0.019747911 0.0093870107 4288820009
0.016367182 0.015370173 0.013419876 4288688684
0.019671246 0.0087842662 0.019521492 4288687918
0.024717361 -0.0058995243 0.03321062 4288687918
0.029402301 -0.018372305 0.044824101 4288164149
-0.009685304 0.0051119756 0.021415072 4286333248
-0.00906533 0.014024084 0.013013436 4287968563
-0.0078168027 0.018499369 0.0087590795 4289211944
-0.0061274804 0.020017276 0.0072683636 4289016103
-0.0042069107 0.020056786 0.0071588624 4289146918
-0.0022864975 0.020096401 0.0070494544 4289343524
-0.00023963675 0.019397086 0.0076300669 4289016358
0.0016831793 0.019436972 0.007520685 4288885544
0.0037378967 0.018738011 0.0081009921 4289081894
0.0059326738 0.017300451 0.0093705822 4289670688
0.0081382021 0.015863145 0.010639662 4289539873
0.01007396 0.015903702 0.01052984 4289605408
0.012009531 0.01594436 0.010420108 4289540129
0.01409059 0.015246479 0.010999309 4289343779
0.016622163 0.012333045 0.013644436 4288950823
0.019628763 0.0072045941 0.018354105 4288754473
0.024211966 -0.0053075105 0.029945711 4288688428
0.028887592 -0.01781762 0.041532196 4288425778
-0.0096157975 0.0027863402 0.020933541 4286333248
-0.0089925453 0.011724731 0.012551209 4287510838
-0.0077411048 0.016213274 0.0083064009 4289015849
-0.0059307069 0.016994243 0.007507572 4289604899
-0.0040048175 0.017033866 0.0073977727 4289866784
-0.001955267 0.016332349 0.0079765562 4289867038
-2.6959926e-05 0.016372247 0.0078667868 4290063388
0.0019011907 0.016412264 0.0077571142 4289867039
0.004225187 0.014229024 0.0097116027 4289867294
0.0064306222 0.012787318 0.010977356 4289998109
0.0086468086 0.01134591 0.012242625 4289998364
0.010593355 0.011386709 0.012132199 4290063643
0.012682602 0.010686731 0.012709258 4290194714
0.014777116 0.0099869836 0.013286108 4289670943
0.017321959 0.0070651267 0.015924031 4289539618
0.020039476 0.0034031291 0.019247739 4289081894
0.02401451 -0.0061834157 0.028064305 4288492334
0.028373227 -0.017249536 0.0382502 4288295474
-0.0095464215 0.00045663491 0.020448999 4286725694
-0.0085813552 0.0071903039 0.014148394 4286529599
-0.0074343681 0.012435777 0.0092253815 4289081384
-0.0057341866 0.013962729 0.0077405106 4289932829
-0.0038029701 0.014002489 0.0076304283 4289998364
-0.0017481409 0.013298875 0.0082073491 4289867548
0.00018548593 0.01333891 0.0080972966 4290194713
0.0023773909 0.011892362 0.0093604382 4289671453
0.0045800433 0.0104461 0.010623092 4290063643
0.0067934133 0.0090002175 0.011885172 4289933339
0.0087427497 0.0090409946 0.011774534 4289671453
0.010831997 0.0083387662 0.012349924 4289932828
0.012783676 0.0083798189 0.01223932 4289932828
0.015026301 0.0069349092 0.013500085 4290325528
0.017279655 0.0054903645 0.014760269 4289605408
0.020298794 0.00033165514 0.01944661 4289278244
0.023663394 -0.0063118264 0.025501186 4288819243
0.027546227 -0.01518248 0.033608116 4288229938
0.030857436 -0.021080796 0.038972013 4287837494
-0.0096972995 -0.00038531609 0.018589387 4287445048
-0.0085090064 0.0048762187 0.013675289 4287118393
-0.0071279854 0.0086454581 0.010134896 4289278244
-0.0054196417 0.010176973 0.0086528119 4289671453
-0.0034803823 0.010216938 0.0085423011 4289998875
-0.0015412867 0.010256993 0.0084318649 4289933339
0.00052409992 0.009551568 0.0090066101 4290326039
0.0025947839 0.0088463258 0.009581184 4290063899
0.0048026294 0.0073958766 0.010840284 4289802268
0.006752003 0.0074365754 0.010729583 4290064154
0.0088385344 0.0067320298 0.011303457 4289802268
0.010790274 0.0067729894 0.011192774 4289736989
0.013027392 0.0053235218 0.012450559 4289933339
0.015129715 0.0046196152 0.013023762 4289867294
0.017533787 0.0024256129 0.014964493 4289998109
0.020255923 -0.0012580939 0.018271783 4289932573
0.02361986 -0.0079212151 0.024311854 4289212198
0.027032621 -0.014583208 0.030349238 4288361008
0.030335054 -0.020499129 0.035700656 4289341483
0.033195242 -0.024179485 0.039000459 4286529089
-0.0098480843 -0.0012225825 0.016733238 4287446579
-0.0085495226 0.0033061542 0.012514876 4287642419
-0.0069374405 0.0055903476 0.010350781 4289735969
-0.0051054731 0.006378388 0.0095556322 4289736223
-0.0032790825 0.0071664061 0.0087608751 4289998873
-0.0014583133 0.0079544764 0.0079664905 4289736988
0.00060961396 0.0072468948 0.0085395295 4289998874
0.0028119199 0.0057918634 0.0097956341 4289998874
0.0048931614 0.0050848257 0.010368036 4290456854
0.0068451166 0.0051256176 0.010257224 4290456854
0.008659631 0.0059140306 0.0094636139 4289933339
0.010888509 0.0044599902 0.010718526 4289933338
0.012985393 0.0037536584 0.011290399 4290195223
0.015232988 0.0023002196 0.012544418 4289998873
0.017491296 0.00084705465 0.013797926 4290064153
0.020363912 -0.0035947971 0.01777927 4289867294
0.023576304 -0.009530331 0.023122726 4289736223
0.026675694 -0.014717645 0.027782002 4289081638
0.029653929 -0.019156972 0.031757586 4289276968
0.032502823 -0.022848479 0.035049938 4288687664
-0.0099987648 -0.002055157 0.014880562 4286923828
-0.0085900575 0.0017364062 0.011354705 4288035374
-0.0067471303 0.0025267918 0.010560425 4289801505
-0.0049097799 0.0033171419 0.0097666103 4290194459
-0.0030780323 0.004107466 0.0089731719 4289802524
-0.0012518726 0.0048978161 0.0081801545 4289671709
0.00069498643 0.0049381908 0.0080693942 4290391574
0.0027707368 0.0042287577 0.0086404253 4290456854
0.0048517734 0.0035195518 0.0092112441 4290129688
0.0066691078 0.0043101404 0.0084190425 4290260503
0.0086180419 0.0043509994 0.008308487 4289933848
0.010706738 0.0036422666 0.0088791046 4289934103
0.012943365 0.0021841116 0.010130482 4289934103
0.01504533 0.001475865 0.010700496 4289999383
0.017300658 1.835078e-05 0.011950931 4289737754
0.020170085 -0.0044367239 0.015922775 4289475869
0.023532718 -0.01113915 0.021933822 4289082658
0.026318982 -0.014843085 0.025221491 4289147428
0.029132262 -0.018546348 0.028507704 4289146153
0.031649068 -0.020750457 0.030432725 4289734184
-0.008630611 0.00016694143 0.010194736 4287838258
-0.0070184693 0.0024642702 0.0080403704 4289801503
-0.0053047352 0.0040090159 0.0065677743 4290260503
-0.0034812503 0.004801441 0.0057764184 4289999383
-0.0015398301 0.0048415922 0.0056658853 4289999383
0.00040143728 0.0048818812 0.0055554677 4290130198
0.0024715513 0.004170116 0.0061252508 4290392849
0.0044152327 0.0042106658 0.0060148481 4290196498
0.0064931847 0.0034993347 0.0065843146 4290196498
0.0084392652 0.003540149 0.006473938 4289870099
0.010525055 0.0028291959 0.0070431139 4289804819
0.025962472 -0.014959469 0.022667604 4288233763
0.028293021 -0.01641937 0.023910904 4289605408
0.030795909 -0.018630318 0.025831861 4288884778
0.03364373 -0.022343518 0.029108217 4287575864
-0.0072895885 0.0024107918 0.0055269878 4288691489
-0.0054633245 0.0032053404 0.0047370065 4288627739
0.025450021 -0.01431316 0.019443499 4290915599
0.027931035 -0.016531199 0.021360783 4291045649
0.030266568 -0.017995242 0.022600656 4290652183
0.032777108 -0.020212442 0.024516432 4289734949
0.035637893 -0.023936158 0.027784059 4286856509
0.022174664 -0.0099163055 0.0129645 4288823579
0.024781764 -0.012897529 0.015553938 4290457874
0.02709274 -0.014366491 0.016791867 4290718483
0.029575996 -0.016590949 0.018704308 4290914069
0.031911053 -0.018059211 0.019941015 4288818989
0.034757808 -0.02179414 0.023201348 4286137153
0.021824799 -0.0099902283 0.010441592 4289738518
0.024270028 -0.012222217 0.012351198 4288755493
0.0265726 -0.013695709 0.013586378 4288820263
0.028885879 -0.015168928 0.014821066 4289539364
0.031374037 -0.017399698 0.016728474 4289603878
0.034045249 -0.020387813 0.019308096 4288622129
0.021934971 -0.012336146 0.0099421646 4290327313
0.023914628 -0.012293803 0.0098304953 4290326294
0.025894083 -0.012251381 0.0097188968 4290717973
0.028196208 -0.013729135 0.010950951 4290717208
0.030673198 -0.015966695 0.012854138 4289866018
0.03350006 -0.019723825 0.016099459 4289734438
0.036184318 -0.022720324 0.018672002 4287313468
0.021738581 -0.013161077 0.0080983769 4289541148
0.023715384 -0.013118803 0.0079868641 4290260759
0.025850654 -0.013838829 0.0085458141 4290849299
0.027829789 -0.013796307 0.0084343161 4290587413
0.030136906 -0.015278192 0.0096629467 4290064153
0.032788366 -0.018284205 0.012230812 4289867549
0.035800479 -0.02281395 0.01613695 4288687408
0.018063806 -0.0063761082 -0.00032229349 4288560929
0.02001074 -0.0063345488 -0.00043218024 4289149214
0.022113346 -0.007057514 0.00012687966 4290654223
0.024697013 -0.010073974 0.0026919004 4290916109
0.027140938 -0.012325388 0.0045872089 4289999894
0.029600985 -0.014576326 0.0064816307 4289999384
0.032077141 -0.016826851 0.0083752703 4289343523
0.035077885 -0.021369902 0.012272371 4288950059
0.03793887 -0.025147898 0.015499765 4286202688
0.031533107 -0.016118329 0.0051994752 4290652693
0.034016922 -0.018375123 0.0070879143 4289866784
0.037033297 -0.022930834 0.010974506 4288361264
0.033126034 -0.016122568 0.0025878903 4290848533
0.035956249 -0.019923022 0.0058008712 4288295729
0.032574348 -0.015389695 -0.00056931004 4289674003
0.035051927 -0.017659575 0.0013098847 4289474338
0.038069852 -0.022241291 0.0051770937 4288164914
0.032361515 -0.016189603 -0.0023932941 4290261778
0.03449215 -0.016920079 -0.0018418226 4289605664
0.037152059 -0.019969169 0.00069351122 4289931554
0.034276538 -0.017717596 -0.003663836 4289344289
0.036933377 -0.020775476 -0.0011347923 4289408549
0.039434448 -0.023057759 0.00073351711 4288099124
0.033889197 -0.017733188 -0.0061407443 4289411608
0.036191128 -0.019245252 -0.0049340986 4289409058
0.03885828 -0.022311535 -0.002412023 4289276204
0.035798363 -0.019256337 -0.0074072722 4290194968
0.038282506 -0.021551983 -0.0055477172 4288622638
0.040962711 -0.024626615 -0.0030327719 4286332484
0.035231389 -0.018476754 -0.010528758 4290654734
0.037529923 -0.019997526 -0.0093283206 4290652693
0.040378794 -0.023862693 -0.0061645657 4288689193
0.043072037 -0.026945625 -0.0036567859 4286202179
0.036954947 -0.01920921 -0.012442684 4290391573
0.039615422 -0.022301702 -0.0099395458 4289016614
0.036203288 -0.017621577 -0.016198773 4289935889
0.03849303 -0.019151179 -0.015004239 4289866529
0.041158393 -0.022252174 -0.012507757 4289145133
0.035452135 -0.016016284 -0.019941811 4290850318
0.037730761 -0.017550493 -0.018749889 4289866783
0.040384918 -0.020660456 -0.016259242 4290126884
0.036969014 -0.015932182 -0.022482442 4289541659
0.039611943 -0.019051066 -0.019997668 4289213218
0.042646579 -0.023749778 -0.016218282 4288753199
0.037105642 -0.018258434 -0.022969281 4288823323
0.039568655 -0.020593606 -0.021137487 4288820519
0.042417824 -0.024513084 -0.018013995 4288034098
0.039707623 -0.022930544 -0.021632338 4287839023
0.042189173 -0.025271768 -0.019806368 4286137154
0.037916936 -0.02531381 -0.022022162 4287513134
0.040028632 -0.026068311 -0.021487122 4287904049
0.038053058 -0.02765904 -0.022523025 4287447343
0.039985225 -0.027616758 -0.02263131 4286987323
-0.011875022 -0.013148556 0.03048352 4282150993
-0.012334675 -0.011778216 0.026545329 4281040214
-0.012689389 -0.011140455 0.023303417 4280321369
-0.01132765 -0.0065975282 0.019091008 4282150484
-0.01304378 -0.010489338 0.02007146 4279668823
-0.011475697 -0.0074385405 0.017231887 4281435464
0.012473479 0.0028702673 0.0069327597 4283987759
0.014567085 0.0021596942 0.0075016487 4283268404
0.016962066 -5.4085627e-05 0.0094283838 4282939198
0.019976348 -0.0052739382 0.014069689 4283788858
-0.011730757 -0.0075200833 0.014696477 4279797344
-0.010409676 -0.0029516239 0.010505924 4282739278
0.0023015067 0.0033662803 0.0042951908 4283203633
0.0042423271 0.0034067892 0.0041849632 4282745143
0.0061829872 0.0034473911 0.0040748212 4282679863
0.0082605854 0.0027339719 0.0046428386 4282744888
0.01020363 0.0027748384 0.0045327153 4282875448
0.012431599 0.0013078284 0.0057780948 4282875704
0.014525004 0.00059508346 0.0063453931 4282679863
0.016771674 -0.0008713603 0.0075899046 4282679863
0.019330509 -0.0038451012 0.010188369 4283072054
0.022524752 -0.0098333247 0.015494032 4284510508
-0.010889355 -0.0014974307 0.0066313166 4281562199
-0.0057397671 0.0031629801 0.0022322498 4282939454
-0.0039246269 0.0039595719 0.0014446527 4282744124
-0.0019916594 0.0039995927 0.0013346411 4282352954
-5.8844686e-05 0.0040397365 0.0012247227 4282156604
0.0020026974 0.0033235028 0.0017917398 4281635129
0.0040695257 0.0026075169 0.0023585577 4281700664
0.006141644 0.0018917266 0.0029251408 4281897014
0.0080820024 0.001932459 0.0028151143 4282093619
0.010301746 0.00046077929 0.0040576961 4282419763
0.012389682 -0.00025433861 0.0046236347 4282680883
0.014628127 -0.0017253663 0.0058652703 4282616113
0.016877279 -0.003196096 0.0071064327 4282615604
0.019438475 -0.0061785132 0.0096982997 4283007028
-0.01103941 -0.002302615 0.0047988836 4280191318
-0.0096519701 0.0015322678 0.001306653 4280653889
-0.0078311898 0.0023309384 0.00052019581 4281307199
-0.0056622773 0.0008530058 0.0017617457 4280981309
-0.0037238523 0.00089306384 0.0016513579 4281176893
-0.0017855726 0.0009331964 0.0015410446 4281373243
0.00015255809 0.00097346306 0.0014308356 4281505589
0.0020905361 0.0010138378 0.001320716 4281570614
0.0040283613 0.0010542981 0.0012106746 4281767219
0.0059660301 0.0010948777 0.0011007302 4281572144
0.0083145052 -0.001139896 0.0030152667 4282093619
0.010539435 -0.0026157666 0.0042542983 4282224943
0.012632646 -0.0033329446 0.0048183259 4282289459
0.014731124 -0.0040499531 0.0053821672 4282616368
0.016982764 -0.0055249352 0.006619921 4282875958
0.019395694 -0.0077578314 0.008531196 4283267894
-0.011299022 -0.0023419112 0.002295183 4280256598
-0.0096921064 -1.854822e-05 0.00016047619 4279933513
-0.0077562928 2.1230429e-05 5.0075352e-05 4280066624
-0.0055849031 -0.001461016 0.0012882501 4281307709
-0.0036438964 -0.0014209095 0.0011777133 4281373243
-0.001579728 -0.002141675 0.0017412566 4281308218
0.00036372244 -0.0021012966 0.0016307458 4281635639
0.0023070164 -0.0020607989 0.0015203357 4281570614
0.0039871931 -0.00049861893 6.3013285e-05 4281897014
0.0059247129 -0.00045801699 -4.690513e-05 4281701939
0.0082728937 -0.0026993379 0.0018628035 4282093619
0.010497563 -0.0041795578 0.0030986276 4282224178
0.01273296 -0.0056594964 0.0043339562 4282486064
0.014833987 -0.0063785743 0.0048960131 4282615349
0.01723592 -0.0086183306 0.0068029966 4283267894
0.019653998 -0.010857581 0.0087091085 4283791663
-0.011339191 -0.0038990024 0.001144357 4280126039
-0.0096199103 -0.0023324341 -0.00031254068 4280128589
-0.0075664409 -0.0030558947 0.00024970248 4280326723
-0.0056254491 -0.003015887 0.00013909489 4280980033
-0.0034435391 -0.0045021884 0.001373576 4281176893
-0.0014973655 -0.0044618435 0.0012628473 4281243193
0.00070060045 -0.0059475303 0.0024965461 4281570104
0.0025232434 -0.0051438492 0.0017136671 4281701173
0.0042088479 -0.0035772044 0.00025933236 4281898034
0.0061516948 -0.0035364889 0.00014911592 4282159920
0.008368127 -0.005021356 0.0013820939 4282485553
0.010455683 -0.0057430752 0.0019431654 4281897778
0.012833148 -0.0079901125 0.0038465168 4282419509
0.014791667 -0.0079486165 0.0037357491 4283008304
0.017341062 -0.010957531 0.0063088369 4284052528
-0.011379361 -0.0054558069 -6.2584877e-06 4279341658
-0.0096601136 -0.0038848557 -0.001459904 4279998283
-0.0074918307 -0.0053760167 -0.00022803992 4280390984
-0.0055482574 -0.0053359345 -0.0003387779 4280719423
-0.0034843497 -0.0060611367 0.00022142194 4280785214
-0.0015383214 -0.0060207807 0.00011071004 4281046588
0.00053348392 -0.0067455675 0.00067064539 4281766198
0.002481956 -0.00670496 0.00055994466 4281898034
0.004298903 -0.005899068 -0.00022088923 4282421038
0.0063784197 -0.0066233613 0.00033885613 4282029869
0.0083264261 -0.0065824147 0.00022843853 4281965099
0.010274261 -0.0065413527 0.00011811778 4282093364
0.012364171 -0.0072651133 0.00067750923 4282223158
0.014314368 -0.0072237886 0.00056721084 4283858219
-0.011419546 -0.0070123114 -0.0011566468 4278557278
-0.0095881037 -0.0062047038 -0.0019373298 4279539794
-0.007532306 -0.0069325287 -0.0013784133 4279997773
-0.005706571 -0.0061247908 -0.0021585859 4279867979
-0.0036455691 -0.0068522617 -0.0015997849 4280586313
-0.001948677 -0.0052769221 -0.0030485652 4280587078
-0.00013695657 -0.0044692028 -0.003827665 4281566788
0.0014119893 -0.0021266639 -0.0059439689 4283925540
0.0034696758 -0.002853699 -0.0053846762 4284122909
-0.0097405463 -0.0069888458 -0.0037539974 4278426209
-0.0079174861 -0.0061791465 -0.0045324508 4279209314
-0.0044084489 -0.0037899725 -0.0067558307 4280453714
-0.0026048496 -0.0029803365 -0.0075329207 4280458813
-0.0013100393 0.00090781972 -0.010978982 4282032419
-0.0068458095 -0.0022847615 -0.010451185 4281689954
-0.0055314191 -0.01445697 -0.022058507 4284180029
-0.0058109239 -0.014396683 -0.024486983 4284507703
-0.025707398 -0.016418794 0.034046687 4282537065
-0.023847766 -0.014885534 0.032554962 4282337653
-0.026602516 -0.010564043 0.025982583 4280174999
-0.024770223 -0.0090269446 0.024495682 4280108699
-0.022767093 -0.0089869648 0.024380563 4281093509
-0.020670425 -0.0096952999 0.02495089 4280504203
-0.032128014 -0.017549153 0.029932989 4280372624
-0.030499903 -0.01375462 0.026393479 4278406573
-0.028816484 -0.010711386 0.02353997 4279126948
-0.021365967 -0.0060478523 0.018976958 4280109719
-0.032630913 -0.014654492 0.024634032 4280504204
-0.031019069 -0.010849358 0.021103548 4278341294
-0.029269345 -0.0085507054 0.018940216 4278995368
-0.027536059 -0.0062522516 0.016777927 4279257763
-0.025643064 -0.0054599065 0.015981564 4279913114
-0.023664806 -0.0054204073 0.015867887 4278797743
-0.021686628 -0.0053807739 0.015754318 4279519394
-0.019708548 -0.0053410362 0.015640831 4278864809
-0.032901861 -0.013999275 0.021399004 4278867359
-0.031377926 -0.0094280913 0.017195804 4278866083
-0.027831435 -0.0055735074 0.013562178 4278470834
-0.021913487 -0.0054553114 0.013222137 4278470069
-0.020133428 -0.0039057285 0.01174826 4279454113
-0.034126632 -0.023975914 0.02780891 4282602599
-0.032864291 -0.016360711 0.020893252 4280374664
-0.031417232 -0.01101891 0.016019931 4279259548
-0.027870782 -0.0071533918 0.0123944 4278403259
-0.022140142 -0.0055207647 0.010696596 4279191974
-0.02026942 -0.0047240909 0.0099050459 4279520924
-0.034166533 -0.025603568 0.026605783 4282339693
-0.032826819 -0.018726248 0.020384541 4280964223
-0.031456545 -0.01260942 0.014844282 4279718294
-0.029882619 -0.0087721422 0.011340356 4278538154
-0.027995313 -0.0079734381 0.010549111 4278669479
-0.026113538 -0.0071746875 0.0097582322 4278538153
-0.02414665 -0.0071353912 0.0096452255 4278603688
-0.022273209 -0.0063365959 0.0088550504 4278668968
-0.020405315 -0.0055377726 0.0080653001 4278799784
-0.018542957 -0.0047389716 0.0072759334 4278340018
-0.034354873 -0.025707003 0.024049332 4281881204
-0.032789461 -0.021095823 0.019872775 4281553784
-0.031336516 -0.015723288 0.015021725 4280373643
-0.029921817 -0.010351416 0.010173025 4278472874
-0.028034613 -0.0095505239 0.0093834084 4278538154
-0.026328646 -0.0072262604 0.0072422232 4278341293
-0.02063714 -0.0055852588 0.0055534523 4278536113
-0.018780336 -0.0047843624 0.0047660377 4278996388
-0.034542985 -0.025801443 0.02149961 4282012019
-0.032752208 -0.023469446 0.019358022 4281553528
-0.031375937 -0.01731756 0.0138433 4280963713
-0.029961016 -0.011930391 0.0090059172 4278931108
-0.02824406 -0.0095994705 0.0068688598 4278407084
-0.026455734 -0.0080326572 0.0054072309 4278472364
-0.022818793 -0.0056629814 0.0031601619 4278400708
-0.019017495 -0.0048207752 0.0022628531 4279584929
-0.016968925 -0.0055449288 0.0028249342 4278408104
-0.034582671 -0.027419429 0.020303627 4282208878
-0.032715064 -0.025847133 0.018840259 4281619829
-0.03133579 -0.019677717 0.013338311 4281160828
-0.029917922 -0.01427521 0.0085120779 4279717530
-0.028283253 -0.011171597 0.0057068225 4278603434
-0.026582722 -0.0088343229 0.0035756659 4278471599
-0.022951376 -0.0064582378 0.0013338253 4278734249
-0.019353084 -0.0040822886 -0.00090580434 4279584929
-0.017414287 -0.0040430389 -0.0010168143 4279258019
-0.034770463 -0.027500104 0.017764008 4282536809
-0.032831583 -0.026692007 0.016975997 4281685363
-0.031375259 -0.02127357 0.012158712 4281095294
-0.029957175 -0.015855778 0.0073437896 4280439178
-0.028577335 -0.010438589 0.0025311094 4278734504
-0.025028216 -0.0072878823 -0.00037750229 4278601393
-0.023176994 -0.0064807218 -0.0011599474 4279388579
-0.021235436 -0.0064416584 -0.0012712963 4279585183
-0.017555226 -0.0048272721 -0.0028343797 4279651484
-0.033101451 -0.025990952 0.013774855 4281554294
-0.031335272 -0.023639727 0.011649365 4281357433
-0.029996425 -0.017436059 0.0061757173 4280702339
-0.028701274 -0.011233132 0.00070467964 4278669989
-0.019530565 -0.0064161662 -0.0038689394 4278470579
-0.017696057 -0.0056068469 -0.0046484992 4278800293
-0.015763108 -0.0055675674 -0.0047590658 4278340528
-0.033524338 -0.023730934 0.0092465449 4281815924
-0.031533599 -0.023691637 0.0091318171 4281619064
-0.030035675 -0.019016039 0.0050078649 4281094783
-0.028825097 -0.012023016 -0.0011183079 4279062944
-0.027400922 -0.0073486269 -0.0052378271 4278669479
-0.025467688 -0.0073099639 -0.0053488687 4278734248
-0.023348466 -0.0088161267 -0.0041246489 4278864809
-0.021314185 -0.0095495116 -0.0035683718 4278996134
-0.019569982 -0.0079655908 -0.0050141383 4278997154
-0.017533146 -0.008698687 -0.0044578314 4279258274
-0.015698832 -0.0078870375 -0.0052356534 4278472363
-0.013870068 -0.0070753973 -0.0060130805 4278672794
-0.0098928809 -0.0077683534 -0.0055672377 4279394444
-0.0081874803 -0.0061844438 -0.0070102829 4279066003
-0.033793442 -0.022998776 0.0060684662 4282340458
-0.031731695 -0.023734573 0.0066209752 4281749879
-0.030074921 -0.020595733 0.0038402248 4281094783
-0.028864011 -0.013583074 -0.002271425 4279587224
-0.027439667 -0.0088955965 -0.0063812546 4278669479
-0.025506588 -0.0088569354 -0.0064922888 4278669734
-0.023573589 -0.0088181328 -0.0066032112 4278800804
-0.021640666 -0.008779224 -0.0067140497 4278472874
-0.019904699 -0.0071910545 -0.0081561469 4278602924
-0.017775089 -0.0087010302 -0.0069354251 4279585949
-0.015842438 -0.0086617433 -0.0070459656 4279258784
-0.014016498 -0.0078479294 -0.007821653 4278538154
-0.010045111 -0.0085431896 -0.007377021 4278603178
-0.0083424672 -0.0069549847 -0.0088166855 4279521689
-0.031850286 -0.024545586 0.0047819521 4281553528
-0.030032147 -0.022952177 0.0033377986 4280701828
-0.028818183 -0.015919831 -0.0027594883 4279587224
-0.027478414 -0.010442264 -0.0075244606 4278604454
-0.025725888 -0.0088497791 -0.0089645553 4278604199
-0.023891419 -0.0080342554 -0.0097395182 4278538408
-0.018016808 -0.0086943023 -0.0094063915 4278598844
-0.016193584 -0.007878527 -0.010180358 4278798254
-0.014269363 -0.0078392848 -0.010290317 4279127204
-0.010197237 -0.0093133505 -0.0091834273 4279062178
-0.008382611 -0.0084972754 -0.0099565461 4278865574
-0.031968772 -0.025351916 0.0029463191 4282012528
-0.029989477 -0.025312692 0.0028323587 4279521944
-0.028603075 -0.019819072 -0.0019240882 4280963714
-0.027342321 -0.013546905 -0.0073413365 4278997154
-0.025854819 -0.0096127419 -0.010767229 4278341294
-0.024208914 -0.0072370209 -0.012865953 4278668714
-0.020573124 -0.0056019183 -0.014410478 4278734504
-0.016544402 -0.0070819445 -0.013304865 4278536368
-0.014521994 -0.0078216754 -0.012752358 4278602924
-0.01260348 -0.0077824201 -0.0128619 4278799784
-0.010461174 -0.0093003213 -0.01164804 4278800038
-0.034140054 -0.02541114 0.00056598149 4282406249
-0.032166321 -0.025372168 0.00045224093 4281553018
-0.030110735 -0.026114464 0.0010003801 4281095040
-0.028557565 -0.022168349 -0.0024214033 4281095039
-0.027293807 -0.01587869 -0.0078259092 4280308874
-0.02589355 -0.011152311 -0.011905175 4278472364
-0.022427071 -0.0079503283 -0.014769901 4278733483
-0.020710297 -0.0063495096 -0.016201165 4279194014
-0.018701553 -0.0070918631 -0.015649687 4279324829
-0.01689487 -0.0062720571 -0.01641947 4278340018
-0.014880858 -0.0070140604 -0.015868112 4278667948
-0.012861494 -0.0077558625 -0.015316993 4278734248
-0.010724898 -0.0092782658 -0.014105988 4278669223
-0.0085775182 -0.010800294 -0.012895558 4278997408
-0.032442786 -0.024599714 -0.0026955176 4282340458
-0.030395588 -0.02534442 -0.0021484885 4281488248
-0.028427575 -0.025305307 -0.0022617113 4281226363
-0.027245395 -0.018214606 -0.0083134603 4281095038
-0.025932275 -0.012691626 -0.013042934 4279193249
-0.024471866 -0.0087360814 -0.016451024 4278275504
-0.015026603 -0.0077593699 -0.017656492 4278865319
-0.01311928 -0.0077203531 -0.017765399 4278406829
-0.011100236 -0.0084642116 -0.017215781 4278800549
-0.0088467151 -0.010773747 -0.015349777 4279587988
-0.030598316 -0.025346754 -0.0046289861 4282013039
-0.028635915 -0.025307737 -0.0047418717 4281357179
-0.027284348 -0.019768894 -0.009462297 4281226364
-0.026150955 -0.01265943 -0.015496619 4279980433
-0.015172232 -0.0085000582 -0.019441452 4278668968
-0.013267789 -0.0084610954 -0.019550193 4278603434
-0.011363443 -0.0084220152 -0.019658841 4278735014
-0.009115696 -0.010738154 -0.017797388 4279587988
-0.030882567 -0.024552114 -0.0077597443 4282536554
-0.028844025 -0.025301225 -0.0072153527 4281422969
-0.027148897 -0.0228986 -0.0092976987 4281161084
-0.026189566 -0.014193834 -0.016630746 4280177293
-0.024734365 -0.010216616 -0.020022403 4278603944
-0.023115747 -0.0078151431 -0.022100076 4278603944
-0.021121155 -0.0085644498 -0.021552728 4278735269
-0.019322842 -0.0077384003 -0.022317277 4278866339
-0.017426524 -0.0076998323 -0.022425724 4278735014
-0.015636571 -0.0068736933 -0.023189602 4278406828
-0.013743166 -0.006834954 -0.023297712 4278472363
-0.01173814 -0.0075834505 -0.022750517 4278735013
-0.028967503 -0.026075749 -0.0090270601 4281488249
-0.027187943 -0.024456723 -0.01044937 4280767364
-0.026228167 -0.015727999 -0.017764697 4279063963
-0.024772849 -0.011739857 -0.02114827 4278735014
-0.023249537 -0.0085420143 -0.023875654 4278734760
-0.021257877 -0.0092935544 -0.02332975 4278603434
-0.01966393 -0.0068858135 -0.025400994 4278864808
-0.015994232 -0.0060192924 -0.026270779 4278467773
-0.013891272 -0.0075598694 -0.025070883 4279519903
-0.012112502 -0.0067315605 -0.025832346 4279325084
-0.0099961162 -0.0082716905 -0.024633015 4281555824
-0.032992952 -0.026923129 -0.010610731 4282994024
-0.031041881 -0.026884472 -0.010723066 4282337909
-0.029090861 -0.026845697 -0.01083531 4278604963
-0.027226988 -0.02601457 -0.011600837 4279981454
-0.025907516 -0.020430457 -0.016285473 4280767108
-0.024626253 -0.014847052 -0.020967798 4279586714
-0.023192678 -0.010848346 -0.024341971 4278668459
-0.02149247 -0.0092260018 -0.025756162 4278603434
-0.019803237 -0.0076038316 -0.027169615 4278797743
-0.016139232 -0.006735215 -0.028037436 4278401729
-0.012374908 -0.0066580717 -0.028252278 4279390364
-0.010264233 -0.0082026348 -0.027055891 4280309639
-0.02929841 -0.026816592 -0.013292089 4282602089
-0.027440097 -0.025983416 -0.014055696 4281356924
-0.025766807 -0.023561511 -0.016122179 4280963968
-0.024572354 -0.01716841 -0.021445032 4280242573
-0.023135934 -0.013158765 -0.024811305 4278669479
-0.019942425 -0.0083172377 -0.028934827 4278668714
-0.018060178 -0.008278951 -0.029042466 4278931363
-0.016071908 -0.0090345684 -0.028499339 4278342059
-0.012413979 -0.0081634242 -0.029364843 4279062689
-0.010417834 -0.0089185201 -0.028821899 4278408103
-0.008182358 -0.011260972 -0.026978981 4280112779
-0.027826937 -0.024350118 -0.01780431 4281357179
-0.025805723 -0.025107944 -0.017265197 4281029503
-0.024610983 -0.018697437 -0.022575175 4280963459
-0.023269594 -0.013880506 -0.026583092 4279127969
-0.021863092 -0.0098604644 -0.029939501 4278668203
-0.018408783 -0.0073953029 -0.032102626 4278864808
-0.016428884 -0.0081532486 -0.031560615 4279063198
-0.014334861 -0.0097071333 -0.030369859 4278537644
-0.010457095 -0.010425789 -0.029935874 4278997664
-0.0083388761 -0.01197878 -0.028746279 4278605218
-0.028213337 -0.022699136 -0.021539852 4281488758
-0.026113581 -0.024258073 -0.020353328 4281095548
-0.024557237 -0.021024846 -0.023056883 4281094783
-0.023403142 -0.01459767 -0.028351499 4280242573
-0.022097051 -0.0097682308 -0.032347672 4279062688
-0.016679518 -0.0080570597 -0.033964574 4278404024
-0.012603529 -0.01037515 -0.032236598 4278473129
-0.010724667 -0.010336487 -0.032343712 4278538663
-0.0087290369 -0.011095831 -0.031803876 4278669479
-0.028338673 -0.023433303 -0.02332145 4282209389
-0.026241908 -0.024996646 -0.022137973 4281423478
-0.024503583 -0.023356436 -0.023541607 4281291643
-0.02344152 -0.016110972 -0.029470006 4280439178
-0.022233024 -0.010467779 -0.03410285 4278604199
-0.014738649 -0.010315157 -0.034531284 4279586969
-0.012642514 -0.011877613 -0.033347033 4279063198
-0.010877907 -0.011038532 -0.034099568 4278735268
-0.0088851862 -0.011800161 -0.03356114 4280045969
-0.02628058 -0.026533626 -0.023274004 4281554549
-0.024357773 -0.026495043 -0.023384353 4281357179
-0.023384903 -0.018426985 -0.029943477 4280832644
-0.022173442 -0.012768467 -0.034565181 4279325084
-0.020799316 -0.0087163318 -0.037895463 4278801569
-0.018936723 -0.0086784568 -0.038001988 4278932639
-0.016862445 -0.010245929 -0.036819875 4278801824
-0.014668766 -0.012615683 -0.034994241 4278539938
-0.0089244545 -0.013302401 -0.034671389 4278800038
-0.0068071 -0.014868367 -0.033491343 4280701063
-0.028328719 -0.02730361 -0.024943203 4282275179
-0.026319241 -0.028070414 -0.024409896 4280767364
-0.024488794 -0.02722666 -0.025163651 4279063963
-0.023233458 -0.021552192 -0.029776702 4279521434
-0.022113964 -0.015073371 -0.035030551 4280045459
-0.020636611 -0.011815277 -0.037709974 4278735014
-0.018768709 -0.011777301 -0.037816804 4278277034
-0.016689256 -0.013348974 -0.036638249 4278669988
-0.014598984 -0.014920367 -0.035460196 4278538663
-0.012609191 -0.015686601 -0.034925044 4278669478
-0.010842029 -0.014843186 -0.035674475 4278538409
-0.008846987 -0.015609093 -0.03513946 4278799784
-0.0066077411 -0.017983962 -0.033320908 4279324573
-0.0043522567 -0.020358447 -0.031503171 4281882224
-0.036198664 -0.027375009 -0.026920862 4282732904
-0.03436261 -0.026529605 -0.027673798 4282733414
-0.024711857 -0.027146338 -0.027581433 4281357688
-0.023366854 -0.022264073 -0.031541202 4281094784
-0.022152193 -0.016575113 -0.036140505 4280111504
-0.020574439 -0.014115508 -0.038172152 4279194014
-0.018703967 -0.014077484 -0.038279131 4278866338
-0.016516265 -0.016460583 -0.036462881 4278669989
-0.014420815 -0.018036166 -0.035288379 4279128479
-0.012425777 -0.018804468 -0.034755137 4278735014
-0.010653257 -0.017958758 -0.035503257 4278996644
-0.0086529702 -0.018726744 -0.034970161 4278996133
-0.0065279603 -0.020301316 -0.033796974 4279193504
-0.0043921731 -0.021875503 -0.032624349 4280308874
-0.025026783 -0.026247589 -0.030632762 4281553783
-0.023310486 -0.024590282 -0.032022212 4281357434
-0.021995317 -0.019695438 -0.035970505 4279849364
-0.020412099 -0.01722919 -0.037997626 4278997409
-0.018639319 -0.016381787 -0.038744509 4279193503
-0.016554918 -0.01796213 -0.03757266 4279390619
-0.014351293 -0.020351261 -0.035762101 4279259549
-0.012131415 -0.022739995 -0.033952352 4278931109
-0.010236934 -0.02270101 -0.034060355 4279586714
-0.0085757636 -0.021043884 -0.035445955 4279324318
-0.0066869296 -0.021004802 -0.035553478 4279323808
-0.0045541078 -0.022583451 -0.034383874 4280634508
-0.025249325 -0.026147244 -0.033035748 4282143598
-0.023633279 -0.023674091 -0.035060048 4281422459
-0.022033628 -0.02120111 -0.037083365 4279914643
-0.020450391 -0.018728359 -0.039105665 4279259548
-0.018574763 -0.018690247 -0.039212957 4278406828
-0.016593557 -0.019463472 -0.038682289 4279062688
-0.014390245 -0.021859135 -0.036876552 4279389853
-0.012281775 -0.023443125 -0.035709143 4279258784
-0.010390162 -0.023404218 -0.035816997 4279258784
-0.0086151995 -0.022553982 -0.036562014 4279324319
-0.0067264996 -0.022514902 -0.03666953 4279324064
-0.0044719465 -0.02490901 -0.034866266 4279783063
-0.0027000085 -0.024058534 -0.03561081 4281093764
-0.025471633 -0.02603801 -0.035432089 4282537318
-0.023576878 -0.025999893 -0.035540756 4280833409
-0.021974497 -0.023520321 -0.03755939 4279391128
-0.020288356 -0.021854751 -0.038940459 4279586714
-0.018613189 -0.020189192 -0.040320821 4279259294
-0.01652658 -0.021778209 -0.039155565 4279128734
-0.014537498 -0.022553295 -0.038626917 4278866083
-0.012320969 -0.024955172 -0.036826663 4278865573
-0.010429494 -0.024916278 -0.036934517 4280306323
-0.0085381195 -0.02487728 -0.037042286 4280373134
-0.0065276287 -0.025651488 -0.036514539 4281027209
-0.0043898858 -0.027238702 -0.035351709 4280636039
-0.0026153028 -0.02638603 -0.036094822 4280179334
-0.023709893 -0.026697852 -0.037294969 4281029503
-0.022012837 -0.025027776 -0.038673565 4279587223
-0.020326734 -0.023357838 -0.040051401 4279652758
-0.018548772 -0.022503808 -0.04079375 4279456663
-0.016459703 -0.024097092 -0.039631903 4279914643
-0.014468096 -0.024874309 -0.03910502 4280503438
-0.012360141 -0.026467001 -0.037944023 4280305559
-0.010468811 -0.026428135 -0.038051888 4281028994
-0.008577574 -0.026389152 -0.038159657 4278932894
-0.023842789 -0.027391221 -0.039045867 4280699789
-0.022051163 -0.026535029 -0.039787598 4280634508
-0.020265047 -0.025678784 -0.040528893 4280897413
-0.018587213 -0.02400456 -0.041902952 4281488249
-0.016603887 -0.024784259 -0.041377313 4282275179
-0.025861692 -0.028118052 -0.040685199 4279979668
-0.01066098 -0.028631302 -0.040917184 4280835193
-0.029758181 -0.02887775 -0.04221322 4282602088
-0.031846207 -0.028769925 -0.044475794 4281620083
-0.012848929 -0.030039454 -0.044295803 4281881969
-0.015094347 -0.029102627 -0.047179502 4281947504
-0.017361138 -0.029643225 -0.051156275 4282209899
0.016412109 -0.0079471543 0.0011263248 4285033769
0.0053986199 -0.0028132368 -0.0054940768 4284910349
0.014893234 -0.0018424224 -0.0067074783 4286410004
0.0290654 -0.013861143 0.0033102352 4287260683
-4.2621046e-05 0.0047955196 -0.014423397 4285493278
0.0017223954 0.0056046937 -0.015198046 4285427999
0.0036158003 0.0056444015 -0.015305437 4285822228
0.0060558431 0.0026066303 -0.012745827 4285624604
0.0078203827 0.0034161545 -0.013520257 4285360679
0.0098636299 0.00268705 -0.012961382 4285492003
0.011622399 0.0034966655 -0.013735323 4285557794
0.013227962 0.0050753932 -0.015174923 4285557539
0.014672153 0.0074231122 -0.017279819 4286147608
0.01625286 0.0090015065 -0.018717866 4286212379
0.018445529 0.007503828 -0.017492667 4286212378
0.021124348 0.0036996249 -0.014271526 4285950239
-0.0021048598 0.004008932 -0.01610388 4284901679
-0.00098210573 0.0086790081 -0.020204887 4286016284
0.0010261536 0.007946549 -0.01964597 4286081563
0.00263796 0.009529287 -0.021083118 4285754399
0.0049219243 0.0072539616 -0.019193966 4285558304
0.00666463 0.0080651771 -0.019965496 4285623839
0.008970052 0.0057905558 -0.018077441 4285624094
0.010712422 0.0066019688 -0.018848795 4285755164
0.012596712 0.0066420306 -0.018955268 4285754399
0.014030054 0.0089960899 -0.021054681 4286016539
0.016058803 0.0082648974 -0.020496309 4286082329
0.017937109 0.0083051454 -0.020602211 4286016539
0.020607345 0.0044898782 -0.017388644 4285950749
0.023626894 -0.00086680613 -0.012849096 4285622563
0.027175948 -0.0085356012 -0.0063208789 4285557029
-0.0060523711 0.0031879991 -0.017673656 4285427234
-0.0044073202 0.0047753174 -0.019109745 4285558559
-0.0028989911 0.0071365479 -0.021209266 4285624093
-0.0014071427 0.0094974991 -0.023307726 4286213399
0.0004616119 0.0095366035 -0.023413783 4286082584
0.002330225 0.009575827 -0.023519743 4286148884
0.0043352693 0.008841401 -0.022962123 4285754398
0.0062063076 0.0088808853 -0.023068065 4285689119
0.0082192048 0.0081468243 -0.022510741 4285623838
0.010092646 0.0081865583 -0.02261667 4285754908
0.011965916 0.0082263965 -0.022722509 4286083094
0.013688818 0.009039795 -0.023490984 4285754144
0.015559025 0.0090797637 -0.023596507 4285622309
0.017740317 0.007573152 -0.022377104 4285754144
0.020090699 0.0052935164 -0.020495944 4285754398
0.022940457 0.00069460459 -0.016629327 4285754399
0.026150316 -0.0054498911 -0.01144051 4285491493
-0.0063324049 0.0032266285 -0.020118147 4285426978
-0.0049386472 0.0063706879 -0.022876021 4285755419
-0.0033155531 0.0079620387 -0.02430753 4285820444
-0.0015751347 0.0087771583 -0.025075993 4285622819
0.00029075891 0.0088162217 -0.025181876 4285622564
0.0021565184 0.0088553783 -0.025287678 4285820188
0.0040221326 0.0088946391 -0.025393393 4285820189
0.0058875903 0.0089340154 -0.025499009 4285689118
0.0080368295 0.007421853 -0.024281403 4285623838
0.0099074095 0.0074615311 -0.024387166 4285623839
0.011630416 0.0082770381 -0.025154086 4286083094
0.013197675 0.0098681804 -0.026581792 4286083094
0.015212461 0.0091323499 -0.026025843 4286082584
0.017232493 0.0083967838 -0.025470151 4286148628
0.019732706 0.0053349603 -0.022932712 4286279698
0.022093482 0.003049152 -0.02105695 4285689119
0.025125392 -0.002337737 -0.016540602 4285491494
-0.0062518753 0.00093888864 -0.020572396 4285361188
-0.0049781427 0.0048701204 -0.023985013 4285558558
-0.0036062077 0.0080225673 -0.026735097 4286017814
-0.0018713176 0.0088397507 -0.027501633 4286083094
-0.00027303025 0.010435151 -0.028928351 4285951513
0.0017154329 0.0096959304 -0.028373085 4286083349
0.0037092157 0.0089569073 -0.027818061 4286017303
0.0057082735 0.0082181152 -0.027263243 4285623838
0.0077126548 0.0074794758 -0.026708625 4285624094
0.0097222924 0.006741127 -0.026154246 4285558558
0.011295147 0.0083366763 -0.027579088 4285689374
0.01285696 0.0099320244 -0.029003209 4286149138
0.01471331 0.0099717323 -0.029107923 4286280463
0.016880535 0.0084560793 -0.027894201 4286214674
0.018900231 0.0077183675 -0.027340002 4285755163
0.021086141 0.0062033292 -0.026127176 4285624348
0.023610115 0.0031335037 -0.023597384 4285558814
0.027320504 -0.0053781569 -0.016458675 4285557539
-0.0062915049 -0.00057232752 -0.021689268 4285690139
-0.0052631944 0.0049309731 -0.02641267 4285493024
-0.0038966238 0.0080920216 -0.029155992 4285755419
-0.0022955053 0.0096917991 -0.030579744 4286016794
-0.00057445094 0.010510994 -0.031343792 4286082329
0.0014083833 0.0097694602 -0.030789835 4286148373
0.0035329387 0.0082478318 -0.029577382 4285689118
0.0055290908 0.0075067822 -0.029024029 4285689373
0.0075305477 0.0067659784 -0.028470878 4285558559
0.0095372945 0.0060253125 -0.027917933 4285558303
0.011254705 0.0068451185 -0.028681338 4285624349
0.012966529 0.0076648314 -0.029444335 4285624348
0.014672756 0.0084845293 -0.030206935 4285689628
0.016528808 0.0085243229 -0.030311562 4285689373
0.018384703 0.008564176 -0.030416135 4285689373
0.020240404 0.0086041559 -0.030520599 4285624094
0.022586815 0.0063050222 -0.028653603 4285558304
0.026113763 -0.0014513154 -0.022188652 4285426723
0.029863991 -0.0099859796 -0.01506987 4286212633
-0.0053025708 0.0034352802 -0.02751806 4285229864
-0.0040613562 0.0073877554 -0.030912586 4285558813
-0.0024629831 0.0089918282 -0.032332961 4285624604
-0.00074472651 0.0098131467 -0.033095229 4285755164
0.0012351945 0.0090693925 -0.032542709 4285689373
0.0030840747 0.0091083292 -0.03264745 4285754909
0.0052109584 0.0075824726 -0.031438302 4285623584
0.0072067678 0.0068393666 -0.030886445 4285623839
0.0093523934 0.0053141695 -0.029678239 4285623838
0.011067048 0.0061360188 -0.030439856 4285624349
0.01292605 0.0061756782 -0.030544797 4285558558
0.014479525 0.0077797044 -0.031961881 4285689884
0.016488135 0.0070373621 -0.031410389 4285755164
0.017869532 0.0094233211 -0.033482414 4286148374
0.019877806 0.008681139 -0.032930776 4286016793
0.022054918 0.0071572457 -0.031723797 4285754399
0.025406711 0.00016077794 -0.025929844 4285491494
0.028976291 -0.0076163225 -0.019483358 4285556264
-0.0053419434 0.0019398406 -0.028623261 4285229864
-0.0041005835 0.0059032273 -0.032009713 4285493533
-0.0025022179 0.0075116437 -0.033426866 4285624859
-0.00065319613 0.007550383 -0.033531766 4285689628
0.001062125 0.0083739217 -0.034292184 4285754909
0.0029081553 0.0084128063 -0.03439676 4285951769
0.0047540367 0.008451784 -0.034501258 4285885978
0.0068832338 0.0069217663 -0.03329543 4285688863
0.0088787228 0.0061765406 -0.032745052 4285623838
0.010732315 0.0062159766 -0.032849766 4285624349
0.012585744 0.0062555168 -0.032954395 4285624094
0.014439024 0.006295139 -0.033058945 4285689884
0.016136773 0.0071191806 -0.033817794 4285755163
0.017828919 0.0079431254 -0.034576233 4286082583
0.019837022 0.0071987975 -0.034026172 4286016794
0.022013888 0.0056705289 -0.032822419 4286082328
0.024700142 0.0017905366 -0.029657975 4286016793
0.027920246 -0.0044407006 -0.024534171 4285490983
-0.0048908442 -0.0027038753 -0.027109861 4285295654
-0.0038891174 0.00284479 -0.031797804 4285295653
-0.0024134032 0.0052447226 -0.033866286 4285624603
-0.00069256872 0.0060704518 -0.034625478 4285689374
0.00075567141 0.0084699523 -0.036692224 4286280718
0.0024598874 0.0092955995 -0.037450351 4286082329
0.0044364296 0.008547591 -0.036900662 4286148628
0.0064182729 0.0077998247 -0.036351249 4286017048
0.0084054023 0.007052267 -0.035802066 4285754654
0.010103583 0.007878134 -0.036559515 4285689374
0.012095839 0.0071309041 -0.036010463 4285689374
0.013940841 0.0071703549 -0.036114547 4285820444
0.015630379 0.0079963449 -0.036871281 4285754398
0.017472312 0.0080359299 -0.036975041 4285622818
0.019474797 0.0072893035 -0.03642628 4285491238
0.021645993 0.0057565942 -0.035225485 4285820189
0.023994066 0.0034379736 -0.033373047 4285688608
0.027033798 -0.002024794 -0.028913483 4285492003
0.030626245 -0.0098448768 -0.0225005 4285360424
-0.0039284453 0.0013563801 -0.0328978 4285031984
-0.0025806874 0.0045520123 -0.035614137 4285493278
-0.00073192641 0.004590733 -0.035719033 4285689373
0.00071635097 0.0069967862 -0.037780929 4285951768
0.0024204925 0.0078246128 -0.038537432 4285951259
0.0041190572 0.0086523686 -0.039293509 4286017048
0.0060952716 0.0079023149 -0.038745388 4286214673
0.0080767795 0.0071524251 -0.038197454 4285754653
0.0097694546 0.0079804007 -0.038953014 4285689118
0.011606298 0.0080195908 -0.039056703 4285689374
0.013595529 0.0072701555 -0.038508989 4285886489
0.015124336 0.0088868607 -0.039914973 4286083094
0.017115928 0.0081377123 -0.039367292 4285951514
0.018952146 0.0081772599 -0.039470669 4285688609
0.021278352 0.00585155 -0.037621904 4285688863
0.023288473 0.0051030684 -0.037075065 4286017558
0.026316807 -0.00037517399 -0.032626148 4285689374
0.029726118 -0.007429067 -0.026878892 4285360678
0.033009924 -0.013693549 -0.021784399 4286082073
-0.0039677657 -0.00013177842 -0.03399761 4285163053
-0.0028758012 0.0046552885 -0.038009632 4285493278
-0.0011632964 0.0054852162 -0.03876511 4285886489
0.00041024014 0.0071064141 -0.040170997 4285820189
0.0021088794 0.0079362448 -0.040925544 4285556773
0.0039407611 0.0079749431 -0.041029237 4285557028
0.0059140697 0.0072226282 -0.040482581 4285688863
0.0077483803 0.0072615761 -0.040586263 4285820189
0.0095825568 0.007300606 -0.040689874 4285689373
0.011566289 0.0065488312 -0.040143576 4285689374
0.013402894 0.0065880958 -0.040247187 4285623583
0.014928997 0.0082090478 -0.041649759 4286017303
0.016601928 0.0090391282 -0.04240226 4285951258
0.018429868 0.0090784896 -0.042505175 4285885468
0.020747602 0.0067461152 -0.040660813 4286083603
0.023081496 0.0044141207 -0.038817257 4286083349
0.025600299 0.0012920704 -0.036325786 4285492514
0.028655112 -0.0042007398 -0.031889647 4285558049
0.031922013 -0.010483041 -0.026807064 4285556264
-0.0038819164 -0.0024133194 -0.034447651 4285360934
-0.0029149093 0.0031804368 -0.039099596 4285295654
-0.0015943088 0.006393021 -0.041801415 4285689628
0.00010438636 0.0072249342 -0.042554419 4285952279
0.001797501 0.0080568809 -0.043307073 4285885468
0.0036238208 0.0080954302 -0.04341048 4285885468
0.0054499991 0.0081340987 -0.043513779 4286017049
