# .PCD v0.7 - Point Cloud Data file format
VERSION 0.7
FIELDS x y z rgba
SIZE 4 4 4 4
TYPE F F F U
COUNT 1 1 1 1
WIDTH 969
HEIGHT 1
VIEWPOINT 0 0 0 1 0 0 0
POINTS 969
DATA ascii
-0.046403795 0.01468954 0.034645215 4289145898
-0.044348016 0.013249708 0.0359146 4289865763
-0.042281311 0.011810238 0.037183352 4288949804
-0.040387861 0.012589382 0.036369752 4288884268
-0.038499881 0.013368538 0.035556577 4288687663
-0.03668423 0.014887055 0.0340502 4288622383
-0.034809932 0.015666177 0.03323805 4288949549
-0.032941122 0.016445277 0.032426301 4289799718
-0.03092772 0.015746115 0.033001162 4289538088
-0.028908897 0.015047176 0.033575781 4289799973
-0.026723653 0.012870377 0.035535727 4289669413
-0.024771785 0.012910975 0.035416931 4288688173
-0.022819975 0.012951689 0.035298225 4289081129
-0.021134317 0.015209159 0.033102807 4289015593
-0.019282255 0.015988743 0.032292698 4289015594
-0.017529879 0.017507059 0.03079107 4289996323
-0.015497874 0.016809212 0.031365495 4289996323
-0.013560113 0.016850213 0.031248078 4290388769
-0.011417769 0.015414184 0.032513607 4290323488
-0.0093696788 0.014716966 0.033087347 4289146154
-0.0074240416 0.014758473 0.032969706 4288818988
-0.0056995712 0.016276924 0.031470235 4289015594
-0.0038728863 0.017056881 0.030662339 4288687919
-0.0022837557 0.019313423 0.028473601 4289406764
-0.00011756271 0.017878519 0.029738225 4290256933
0.0021808259 0.015705841 0.031692524 4290453539
0.0048679449 0.011319244 0.035716359 4290191654
-0.052363858 0.014500169 0.032461945 4288818224
-0.05052099 0.016022777 0.030956533 4289145898
-0.048638597 0.016803408 0.030144881 4288950058
-0.046708494 0.016842281 0.030026466 4288884523
-0.044666622 0.015397793 0.031293452 4289408038
-0.042672433 0.014695341 0.031867336 4289996833
-0.04073412 0.014734732 0.031748679 4288753964
-0.038923953 0.016257392 0.030245803 4288557613
-0.037057914 0.017038411 0.029435687 4288688429
-0.035266884 0.018560858 0.027934182 4289604389
-0.033414543 0.019341832 0.027125087 4289080873
-0.03149271 0.019381477 0.02700787 4289015594
-0.029493198 0.01867996 0.027582046 4289343013
-0.027327383 0.016496247 0.029538259 4289800738
-0.025477944 0.017277623 0.028729677 4289604643
-0.023548113 0.017317882 0.028612312 4289081384
-0.021706985 0.018099325 0.027804419 4288884779
-0.019780027 0.018139778 0.027687415 4290258463
-0.017947238 0.018921258 0.026880182 4289080873
-0.01611999 0.019702753 0.026073389 4289081129
-0.014198739 0.019743407 0.025956973 4289277224
-0.012277588 0.019784184 0.025840655 4289277224
-0.010356538 0.01982508 0.025724433 4289539109
-0.0084355995 0.019866085 0.025608309 4289211944
-0.0064043105 0.019166606 0.026181564 4288950058
-0.004594069 0.019948399 0.025376298 4289342503
-0.0027894191 0.020730244 0.024571408 4289931299
-0.0008716993 0.020771595 0.024455778 4289408295
0.0014100075 0.018591994 0.02640627 4289342759
0.0037079565 0.016412841 0.028355859 4289539109
0.006275773 0.012753701 0.031681217 4289603878
-0.054298155 0.012165835 0.032121729 4287836728
-0.052581877 0.015925219 0.028543919 4288817968
-0.050749961 0.017451925 0.027042463 4290192418
-0.04887858 0.018234579 0.026233084 4290062369
-0.046959545 0.018273221 0.026115339 4290323999
-0.044928849 0.016824139 0.027379762 4290454814
-0.042945784 0.016119273 0.027952701 4289146408
-0.040957257 0.01541465 0.028525405 4288623149
-0.0390913 0.016197721 0.027716827 4288426799
-0.037230812 0.016980818 0.026908681 4289276968
-0.035514753 0.019251203 0.024720557 4290389278
-0.03374289 0.02077776 0.023223571 4290389278
-0.031832121 0.020817174 0.023107033 4290520604
-0.029766068 0.019369802 0.024369951 4290520604
-0.02768914 0.017922705 0.025632322 4289997344
-0.025767589 0.0179627 0.025515392 4289408293
-0.02376025 0.017259536 0.026087746 4289015848
-0.021924665 0.018043032 0.025281798 4288950314
-0.020185925 0.01956976 0.023787402 4289604389
-0.0182701 0.019610105 0.023671165 4290323999
-0.016451124 0.020393601 0.022866491 4290454814
-0.014637697 0.021177115 0.022062253 4290127648
-0.0127276 0.02121768 0.02194662 4290323999
-0.010817606 0.021258349 0.021831073 4289081129
-0.008907713 0.021299122 0.021715611 4288884778
-0.0068875365 0.020597244 0.022287942 4288361263
-0.0049751513 0.020638311 0.022172507 4289081129
-0.0031787604 0.021422101 0.021369778 4290454813
-0.0012693591 0.021463333 0.021254696 4289996833
0.00076121837 0.02076211 0.021826714 4289866274
0.0030452125 0.018576121 0.023772284 4289800483
0.0054721758 0.015648236 0.026403632 4289472808
-0.054378569 0.011358837 0.030278854 4287967543
-0.052709743 0.015875397 0.02601926 4288687154
-0.050978489 0.018898914 0.023141555 4289669158
-0.049168427 0.020429717 0.021644741 4289866018
-0.047210146 0.01972189 0.022217445 4289669668
-0.045134865 0.017522162 0.024168648 4289538853
-0.043218687 0.017560979 0.024051256 4288819244
-0.041180052 0.016107922 0.025312115 4288950314
-0.03925842 0.016147094 0.025194563 4288557358
-0.037336804 0.016186396 0.025077116 4288884523
-0.035692863 0.019209096 0.022205472 4289669668
-0.033926498 0.020739937 0.020712018 4290062113
-0.032021333 0.020779265 0.020595845 4290389533
-0.030038599 0.020072998 0.021167837 4290128158
-0.028050454 0.019367015 0.021739561 4289277733
-0.026139963 0.019406771 0.021623295 4289146918
-0.024057953 0.017955726 0.022882268 4289211943
-0.022053609 0.017250421 0.023453251 4288884778
-0.020317618 0.018781425 0.021962315 4289146409
-0.01859262 0.020312326 0.020472143 4289866018
-0.016781922 0.021097889 0.019669563 4290193184
-0.014777891 0.020392997 0.020240955 4290258463
-0.012972828 0.02117868 0.019438893 4289866019
-0.011068434 0.021219237 0.019323692 4289211944
-0.0091641396 0.021259932 0.019208603 4288819243
-0.0071496032 0.020555707 0.01977969 4288623149
-0.0051297359 0.01985178 0.02035052 4289015594
-0.0033361465 0.020637726 0.019549601 4289670178
-0.0015481487 0.021423714 0.018749069 4290062623
0.000476785 0.020720167 0.019319862 4290520603
0.0026310273 0.019272221 0.020575628 4290258718
0.005176153 0.015590804 0.023886144 4289604133
-0.054542996 0.012053652 0.027062178 4287509819
-0.052882187 0.016583147 0.022812817 4288556849
-0.051159047 0.019615224 0.019942105 4288622639
-0.049357209 0.021150181 0.018449079 4289080873
-0.047354341 0.01969173 0.019708581 4288950058
-0.045340538 0.018233551 0.020967528 4289211944
-0.043315813 0.016775785 0.022225868 4288950058
-0.041341342 0.01606649 0.022796169 4288950314
-0.039425317 0.016105546 0.022678964 4288950058
-0.037509307 0.016144736 0.022561856 4289146408
-0.035801388 0.018428022 0.020384021 4289408038
-0.034037787 0.019963192 0.018894002 4289080873
-0.032135502 0.020002453 0.018777993 4288819498
-0.030155702 0.019293996 0.019348506 4289015849
-0.028170485 0.018585728 0.019918833 4289146664
-0.026262872 0.018625455 0.019802764 4289015849
-0.024183847 0.017169973 0.02105866 4289212199
-0.022270894 0.017210027 0.020942435 4289146408
-0.020540388 0.018745286 0.019455079 4289277224
-0.018914804 0.021027965 0.017283 4289080873
-0.017112371 0.021815525 0.01648261 4289080873
-0.015116725 0.021108335 0.017052859 4288819243
-0.013217822 0.021148684 0.016937923 4289211944
-0.011319023 0.021189151 0.016823079 4289146408
-0.0094203278 0.021229709 0.016708314 4289015593
-0.0071908683 0.019028945 0.018647056 4288884779
-0.00528422 0.019069904 0.018531978 4289015593
-0.0033776909 0.019110987 0.018417001 4289277734
-0.0018267035 0.021393085 0.016250186 4289015848
0.00019257888 0.020687303 0.016819682 4288950569
0.0023411028 0.019234857 0.018072605 4289146408
0.0048803501 0.015542394 0.021375358 4289081384
0.0082229823 0.007370254 0.028776418 4288820009
0.013210706 -0.0097605409 0.04437178 4288754473
-0.054581046 0.010509638 0.025916465 4287379004
-0.052964807 0.015802892 0.020990003 4288753199
-0.051291797 0.019594276 0.017439295 4289669158
-0.049495459 0.021133525 0.015949812 4290193184
-0.047445375 0.018920029 0.017892767 4290323999
-0.045434564 0.01745748 0.019148618 4289604389
-0.04347121 0.016745629 0.019717939 4288819243
-0.041563518 0.016784413 0.019601163 4289146408
-0.039655831 0.016823301 0.019484468 4289211944
-0.037748154 0.016862309 0.019367862 4288950058
-0.03611771 0.019902179 0.016510025 4289146408
-0.034437094 0.022191631 0.014338783 4290323999
-0.032473836 0.021480536 0.014908607 4290127903
-0.030350175 0.01926961 0.016847856 4290127903
-0.028370624 0.018559093 0.017416861 4289343014
-0.026551563 0.019348605 0.01661665 4289211943
-0.024566662 0.01863843 0.017185502 4289342758
-0.022576366 0.017928498 0.017754123 4289146408
-0.020671813 0.017968507 0.017638501 4289081129
-0.019142788 0.021007353 0.014787639 4289146408
-0.017345894 0.021796977 0.013989205 4289996833
-0.015554547 0.022586608 0.013191204 4289800739
-0.013462607 0.02112774 0.014443598 4289342759
-0.011569403 0.021168092 0.014329095 4288884779
-0.0094612874 0.019709757 0.015580722 4289015594
-0.0074526146 0.019001143 0.016148921 4288884779
-0.0054386035 0.018292731 0.01671686 4289015594
-0.0036506206 0.019082954 0.015919551 4289473574
-0.0019866303 0.020622322 0.014440334 4289735204
-9.1414899e-05 0.020663397 0.014326221 4290193184
0.0020514056 0.019206507 0.015576198 4289997089
0.0044581704 0.016252017 0.018189374 4289146409
0.0076625086 0.0088046025 0.024891451 4288491568
0.012505762 -0.0076277796 0.039768718 4288491568
-0.054744963 0.011224648 0.02271485 4287313723
-0.053047307 0.015027309 0.019170646 4288950058
-0.051282074 0.017323939 0.016998291 4290127649
-0.049483046 0.018867614 0.015511896 4290323999
-0.047483418 0.0174003 0.016765121 4290454814
-0.045528468 0.016686017 0.017333206 4290454814
-0.043509718 0.015219355 0.018585455 4289080873
-0.041785356 0.017515739 0.016416036 4288950314
-0.039822217 0.016801996 0.016983889 4289015594
-0.038053185 0.018345734 0.015499904 4289015593
-0.03629509 0.019889416 0.014016639 4289604389
-0.034547932 0.021432942 0.012534163 4290323999
-0.032587606 0.020719616 0.013102545 4290323999
-0.030544428 0.019254321 0.014353878 4290454814
-0.028490374 0.017789317 0.01560467 4290062369
-0.026508348 0.017076811 0.01617201 4289277224
-0.024606541 0.017116526 0.016056377 4289146408
-0.022793144 0.017908351 0.015258321 4289015593
-0.020894196 0.017948257 0.015143053 4289015593
-0.019276736 0.020243874 0.01298122 4290454814
-0.017579189 0.021787437 0.011502559 4290585629
-0.015793383 0.02257912 0.010706506 4290650908
-0.01370715 0.021115782 0.011956009 4290389278
-0.011610113 0.019652797 0.01320495 4289473574
-0.0096097067 0.018941658 0.013771973 4289080873
-0.0076039545 0.01823082 0.014338738 4289080873
-0.0057057664 0.018271634 0.014224199 4289211944
-0.0040389523 0.019815357 0.012747933 4289146409
-0.0023831613 0.021358917 0.011272459 4290585629
-0.00049626082 0.021399835 0.01115886 4290520093
0.0017619357 0.019187169 0.013086555 4290389534
0.0040363334 0.016975025 0.015013321 4290192928
0.0072317608 0.0095056202 0.021699719 4289080364
0.011405449 -0.0032197796 0.033142321 4288622384
0.015536927 -0.015192061 0.043899719 4288360754
0.018106237 -0.018151285 0.046496965 4286071619
-0.054908544 0.011953106 0.019523136 4287706423
-0.053174321 0.015011469 0.016671129 4289604389
-0.051367171 0.016559502 0.01518743 4289015594
-0.049520824 0.017352546 0.014387694 4289080873
-0.047627095 0.017390667 0.014271489 4289211944
-0.0456778 0.016674051 0.014838343 4289342759
-0.043723047 0.015957708 0.015404903 4289277223
-0.041945852 0.017505774 0.013923441 4289015593
-0.039988372 0.016789688 0.014490061 4289080873
-0.038224842 0.018337714 0.013009614 4289146408
-0.036403045 0.019131063 0.012212048 4289408038
-0.034658652 0.020678895 0.010732989 4289211944
-0.032775909 0.020717768 0.010618187 4289146408
-0.030815823 0.020002367 0.011185045 4289800739
-0.028850328 0.019287208 0.011751669 4289538853
-0.026879421 0.01857228 0.012318051 4289342759
-0.024903115 0.017857583 0.012884189 4289277223
-0.023274569 0.020159708 0.010726423 4289015594
-0.02129839 0.019445227 0.011292743 4289342759
-0.019598061 0.020993108 0.0098170759 4289408038
-0.017619308 0.020278929 0.010383421 4289277223
-0.015833586 0.021072818 0.0095890099 4289669668
-0.013849549 0.020358989 0.010155209 4290193184
-0.011860155 0.019645376 0.010721161 4289081129
-0.0098654032 0.018932009 0.011286884 4289080873
-0.0079754181 0.018972548 0.011172767 4289080873
-0.0060855523 0.019013202 0.011058747 4289211944
-0.0044269301 0.020561093 0.0095862756 4289539109
-0.0025427602 0.020601852 0.009472766 4290062369
-0.00077973679 0.021396158 0.0086804042 4289734948
0.0012251958 0.020683678 0.0092460075 4290258464
0.0033619069 0.01921807 0.010489973 4289930533
0.0065429546 0.011726575 0.017161034 4289276458
0.01070185 -0.0010362342 0.02857694 4288622383
0.014549293 -0.011537367 0.037952997 4288622383
0.017099142 -0.014505723 0.040544935 4289014829
0.019250304 -0.015214334 0.041102257 4290453539
0.021549568 -0.016675755 0.042336997 4287706679
0.026095621 -0.009012999 0.035203412 4290455068
-0.055113636 0.013452252 0.015659243 4287771449
-0.053301103 0.015004629 0.014178365 4289473575
-0.051499456 0.016556958 0.012698206 4290389278
-0.04965866 0.017352005 0.011900458 4289408038
-0.047770537 0.017390022 0.011784605 4289604389
-0.045826912 0.016671153 0.012350137 4290258463
-0.043877821 0.015952522 0.01291543 4289604389
-0.042045172 0.01674789 0.012118543 4289211944
-0.040154308 0.016786447 0.012002888 4288950314
-0.038329862 0.017581919 0.0112067 4289080873
-0.036510888 0.018377373 0.010410919 4290454814
-0.034625534 0.018416179 0.010295867 4289735204
-0.032665618 0.01769848 0.010861027 4289015594
-0.030854922 0.018494135 0.01006603 4289604389
-0.02888963 0.017776785 0.010631039 4290193184
-0.027001707 0.017816132 0.010516196 4289473574
-0.024942826 0.016342824 0.011760366 4289211944
-0.023314256 0.018651491 0.009607465 4288753963
-0.021429243 0.018691128 0.0094930558 4289800483
-0.01973168 0.020243356 0.0080207689 4289996833
-0.017755847 0.019526901 0.0085857129 4288950313
-0.015972946 0.020322973 0.0077930754 4288819498
-0.013889961 0.018850805 0.0090363296 4289342758
-0.012109961 0.019647 0.0082440758 4289931554
-0.010120872 0.018931327 0.008808515 4289081129
-0.0083465353 0.019727634 0.0080167772 4288884778
-0.0065777674 0.020523967 0.0072254119 4289342759
-0.0046990626 0.020564506 0.0071121557 4290258463
-0.0027022436 0.01984941 0.0076765073 4289211943
-0.00082106888 0.019890225 0.0075632697 4288754219
0.0010599829 0.019931147 0.0074501196 4289015849
0.003067296 0.01921667 0.0080140559 4289277223
0.00611303 0.012458662 0.01399243 4289277479
0.0099988505 0.0011694413 0.02402797 4289146664
0.013697091 -0.0086071938 0.032705706 4288819499
0.016367517 -0.012339903 0.035968505 4290716443
0.018504858 -0.013050982 0.036525045 4290848023
0.020647474 -0.013761845 0.037081346 4290651674
0.023086332 -0.01598271 0.038989142 4289604644
0.024800293 -0.014427914 0.037517589 4289539873
0.024842851 -0.004568411 0.028615937 4289215513
-0.055276491 0.014209678 0.012489024 4288229428
-0.053472187 0.015766243 0.011011886 4289210924
-0.051678766 0.017322728 0.0095355185 4290323999
-0.049846254 0.01811984 0.0087398654 4290062113
-0.047966469 0.01815767 0.0086245155 4290258463
-0.046031229 0.017436424 0.0091889938 4289408038
-0.044090528 0.016715428 0.0097531667 4289080873
-0.042205267 0.016753742 0.0096377572 4289015593
-0.040320009 0.016792191 0.0095224446 4288819243
-0.038434763 0.016830744 0.0094072158 4288819243
-0.036756776 0.01914621 0.0072555272 4289342759
-0.034951564 0.019943694 0.0064623086 4290193184
-0.033077303 0.019982396 0.0063480241 4290454813
-0.030971283 0.017744942 0.0082688937 4290454814
-0.028928936 0.016266676 0.0095106428 4290062113
-0.027123872 0.017064633 0.0087177837 4289408038
-0.02532433 0.017862612 0.0079253661 4289473574
-0.023618478 0.019419143 0.0064556478 4289015593
-0.021741793 0.019458612 0.0063417507 4289408038
-0.019958807 0.020256588 0.0055505959 4290323998
-0.017988637 0.01953789 0.0061142249 4290193183
-0.016211271 0.020335978 0.0053235842 4290062368
-0.014337629 0.020375839 0.0052102087 4290389534
-0.01256863 0.021173986 0.0044202479 4289277223
-0.010590646 0.020455925 0.0049837595 4289146408
-0.0087173022 0.020496128 0.0048706634 4289015593
-0.0068440773 0.020536447 0.0047576642 4289081129
-0.004970964 0.020576881 0.0046447581 4289800483
-0.0030979738 0.02061742 0.0045319414 4290389534
-0.0012251101 0.02065807 0.0044192141 4290193183
0.00064761937 0.020698817 0.0043065725 4289997089
0.0028992742 0.018466542 0.0062201722 4290258718
0.0058125146 0.012446551 0.01150893 4289735459
0.0095600374 0.0018820595 0.020845484 4289212199
0.013114657 -0.0071656015 0.028827801 4288950313
0.015773736 -0.010909442 0.032083184 4289081383
0.018039964 -0.012380322 0.033313334 4290128413
0.020174213 -0.013093578 0.033868566 4290194204
0.02260457 -0.015321098 0.035771988 4290194458
0.024606638 -0.015276531 0.035652317 4289998618
0.024647169 -0.0053887516 0.026771929 4289085464
-0.055439014 0.014980434 0.0093287649 4288098613
-0.053642936 0.016541244 0.0078553436 4288556593
-0.051810544 0.017340379 0.0070612794 4288950314
-0.049933657 0.01737803 0.0069460152 4289081129
-0.048004095 0.016654411 0.0075090853 4289211944
-0.046124447 0.016692357 0.0073938323 4288753963
-0.044186678 0.015969081 0.0079566063 4288884779
-0.042304296 0.016007351 0.0078413831 4288950314
-0.04035835 0.015284522 0.0084037939 4288819243
-0.038539551 0.016084233 0.0076111918 4288296239
-0.036864273 0.018406173 0.0054645305 4288427054
-0.035133637 0.019966843 0.0039960695 4288623148
-0.03311602 0.018483466 0.005235902 4288623148
-0.031010322 0.016239462 0.0071519213 4288819499
-0.028888304 0.013995966 0.0090670018 4288950058
-0.027163273 0.015556993 0.0075992336 4289146409
-0.025363816 0.016357133 0.0068084309 4289015594
-0.023657996 0.017918041 0.0053419685 4289146409
-0.021781459 0.017957507 0.0052280826 4289081129
-0.01999856 0.018757673 0.0044385595 4289081128
-0.018124897 0.018797314 0.0043250239 4289081128
-0.016350348 0.019597547 0.0035361899 4288950314
-0.014479578 0.019637363 0.0034230025 4289211943
-0.012504425 0.018916948 0.0039849784 4288754219
-0.010631118 0.018957054 0.0038718134 4289146408
-0.0088678561 0.019757496 0.0030840011 4289015593
-0.0069974959 0.019797759 0.0029711751 4289080873
-0.0051272511 0.019838138 0.002858446 4289080873
-0.0031390078 0.019118575 0.0034200568 4289080873
-0.001387123 0.019919215 0.0026332596 4289866019
0.00060631707 0.019200003 0.0031947307 4289604388
0.0027313605 0.017721104 0.0044296971 4289408293
0.005512245 0.012443395 0.0090321405 4288754219
0.0091215894 0.0026080236 0.017672967 4288688683
0.012801629 -0.0072257034 0.026309632 4288623148
0.015729204 -0.012499817 0.030903477 4289800738
0.017995171 -0.013975058 0.032130405 4291371539
0.020129226 -0.01469047 0.032684047 4290913814
0.022413902 -0.016165078 0.033910017 4290521623
0.024116933 -0.01460175 0.032445643 4290195223
-0.055434443 0.01270928 0.0088875508 4287902263
-0.053635683 0.014274454 0.0074172402 4288229428
-0.051800661 0.015075864 0.0066245934 4288491823
-0.049871322 0.014349869 0.0071859872 4288492079
-0.048041712 0.015151421 0.0063938601 4288295729
-0.046106886 0.014425779 0.0069550974 4288295729
-0.044224653 0.014463896 0.0068397736 4288361264
-0.042342424 0.014502173 0.006724569 4288361519
-0.040396687 0.013777168 0.0072853742 4288361519
-0.038577981 0.014579052 0.0064943964 4288230703
-0.036764756 0.015380995 0.0057038134 4288230703
-0.034957007 0.016182909 0.0049136905 4288230703
-0.033080317 0.016221663 0.0047992608 4288230703
-0.030972209 0.013971178 0.0067102788 4288296239
-0.029007541 0.013247283 0.0072704693 4288623149
-0.027202662 0.014049614 0.0064808792 4288950314
-0.025573973 0.016377872 0.0043424694 4289080874
-0.023785578 0.017180109 0.0035540685 4288819498
-0.022002703 0.017982351 0.0027660942 4288819499
-0.019944809 0.016496306 0.0040008686 4288557869
-0.018164804 0.017298719 0.0032132398 4288557869
-0.016291369 0.017338479 0.0030998085 4288427053
-0.014519718 0.018140933 0.0023128493 4288623404
-0.012544762 0.017418353 0.0028732289 4288623404
-0.010671604 0.017458467 0.0027600806 4288557869
-0.0090182945 0.019023499 0.0013007717 4288623149
-0.0070382021 0.018301366 0.0018610926 4288818989
-0.0051680915 0.018341752 0.0017483821 4288818989
-0.0032981075 0.018382257 0.0016357666 4288295728
-0.0015490241 0.019185035 0.00085076969 4288492333
0.00044149533 0.018463569 0.0014107907 4288492333
0.0024373159 0.017742341 0.0019705854 4288492333
0.0053411573 0.01168724 0.0072340025 4288427053
0.0089468434 0.0018235128 0.015853945 4288427054
0.012623239 -0.0080386046 0.024469763 4288361518
0.015410386 -0.012566267 0.028381024 4289277734
0.017530799 -0.013284229 0.028933734 4291175188
0.019799054 -0.014763629 0.030157395 4290390299
0.021932721 -0.01548106 0.03070949 4290129433
0.023923643 -0.015436707 0.030590504 4289868058
-0.055305064 0.0081359725 0.010470307 4287444028
-0.053495437 0.0097057801 0.0090025412 4288491058
-0.051696692 0.011275424 0.0075355573 4288688429
-0.049759381 0.01054745 0.0080947978 4288819244
-0.047869138 0.010585504 0.0079788184 4288622638
-0.045923613 0.0098579545 0.0085377442 4288819244
-0.043972619 0.0091305878 0.0090964688 4288884268
-0.042137634 0.0099347886 0.008305897 4288622893
-0.04024465 0.00997339 0.0081901113 4288950314
-0.038484044 0.011543131 0.006726115 4288753963
-0.036596544 0.011581862 0.0066108434 4289081384
-0.034709066 0.011620725 0.0064956723 4288754474
-0.032821622 0.011659702 0.0063805906 4288885033
-0.030857114 0.010933513 0.0069390824 4288950568
-0.029046837 0.011738034 0.0061507104 4289081129
-0.027159512 0.011777369 0.0060359044 4289081129
-0.02544279 0.013347076 0.0045752255 4289081129
-0.023649041 0.014151642 0.0037880782 4288950314
-0.021860797 0.014956182 0.0030014031 4289081384
-0.019797705 0.013465831 0.0042326497 4288950569
-0.017916154 0.013505662 0.0041186502 4288492844
-0.016034689 0.013545623 0.0040047551 4288688939
-0.014153302 0.013585674 0.0038909344 4288950569
-0.012167647 0.012861142 0.0044490462 4289146663
-0.010390818 0.013666132 0.0036635781 4288950314
-0.0086195432 0.014471179 0.0028785001 4288753963
-0.006741289 0.014511647 0.002765229 4288753963
-0.0048631392 0.014552208 0.0026520323 4289146409
-0.0028671212 0.013828436 0.0032099923 4288950059
-0.0011072196 0.014633691 0.0024259407 4289342503
0.00077055767 0.014674595 0.0023130272 4289277224
0.0026481971 0.01471561 0.0022002105 4289080873
0.005299069 0.010171553 0.0061096763 4289015848
0.0089038387 0.00027948245 0.0147086 4288754218
0.012444947 -0.0088469125 0.022633381 4288754218
0.015228875 -0.013387663 0.026535079 4289343269
0.017206579 -0.013343912 0.026416656 4289670435
0.019326605 -0.014063949 0.026967928 4289736224
0.021597154 -0.015547562 0.028188273 4290063643
0.023582488 -0.01550331 0.028069645 4289933593
-0.055176102 0.0035455264 0.01204034 4287444029
-0.053355616 0.0051198918 0.010575139 4287902518
-0.051546004 0.006694125 0.0091107367 4288099379
-0.049647752 0.0067322087 0.0089941649 4288295729
-0.047749482 0.0067704301 0.0088776918 4288230193
-0.045795981 0.0060408451 0.0094344998 4288427054
-0.043894965 0.0060793702 0.0093180472 4288492334
-0.042115293 0.0076536033 0.007855936 4288492334
-0.040219739 0.0076922569 0.0077399919 4288492334
-0.038456451 0.0092664566 0.0062790317 4288361519
-0.036566377 0.0093052629 0.0061636185 4288623403
-0.034604743 0.0085765887 0.0067204824 4288558123
-0.032563373 0.0070805941 0.0079491874 4288492589
-0.030742237 0.0078873914 0.0071616815 4288688939
-0.029006371 0.0094616432 0.005702856 4288623403
-0.027116468 0.0095010567 0.0055879084 4288688939
-0.025311841 0.01030788 0.0048016822 4288558123
-0.023336833 0.0095802266 0.0053582815 4288623659
-0.021628451 0.011154367 0.0039015431 4288558123
-0.019557446 0.0096598808 0.0051290384 4288362029
-0.017667864 0.0096998829 0.0050145565 4288295983
-0.015679512 0.0089729931 0.0055707069 4288688684
-0.013888948 0.0097802449 0.0047858721 4288688684
-0.011999622 0.0098206047 0.0046716696 4288623148
-0.010217424 0.010627905 0.003887509 4288884778
-0.0084407777 0.011435198 0.0031037703 4288753963
-0.0066696964 0.012242502 0.0023204591 4288623148
-0.0046737604 0.01151648 0.0028766766 4288688684
-0.0026724897 0.010790685 0.0034326604 4288688428
-0.00066589564 0.010065144 0.0039884215 4288819243
0.001222644 0.010106275 0.0038748579 4288950058
0.0031110384 0.010147547 0.0037614079 4288884778
0.0057723187 0.005590653 0.0076605296 4289081384
0.0089923888 -0.0020306259 0.014232066 4289015848
0.012266789 -0.0096505629 0.020800453 4288950569
0.014773466 -0.012672089 0.023356132 4290717208
0.016742855 -0.012628507 0.023238219 4290847768
0.018854521 -0.013350868 0.023788325 4290455833
0.020971455 -0.014072998 0.024338201 4289736478
0.023241572 -0.015560892 0.025555477 4289999129
0.024317391 -0.010921292 0.021432605 4288234529
-0.055130616 0.00047869608 0.01225276 4287248188
-0.053348973 0.0028277989 0.010118256 4288164148
-0.05144272 0.0028659292 0.010001107 4288099379
-0.049536444 0.0029041655 0.0098840343 4288099633
-0.047577709 0.0021723919 0.010438814 4288099634
-0.045723837 0.0029810369 0.0096501829 4288164913
-0.043817524 0.0030196588 0.0095333932 4288296239
-0.041971829 0.0038284343 0.0087454123 4288426798
-0.040131591 0.0046371873 0.0079579027 4288295983
-0.038362887 0.0062158126 0.0064998949 4288230704
-0.036536317 0.0070245769 0.0057133595 4288230704
-0.034500636 0.0055239778 0.0069390805 4288296239
-0.032454081 0.0040237717 0.0081641851 4288427308
-0.030550608 0.0040632077 0.0080482205 4288492844
-0.028806601 0.0056419689 0.0065921964 4288427308
-0.02690867 0.0056815427 0.0064767571 4288557869
-0.025010793 0.0057212375 0.006361411 4288492333
-0.023025088 0.0049916394 0.0069157491 4288492333
-0.021215221 0.0058009923 0.0061310036 4288427308
-0.019317528 0.005841054 0.0060159443 4288427308
-0.017323848 0.0051119998 0.0065700794 4288296238
-0.015324797 0.0043831579 0.0071239648 4288557868
-0.013624929 0.0059619565 0.00567134 4288688939
-0.011727575 0.0060024876 0.0055566551 4288426799
-0.0099372901 0.0068121534 0.0047736363 4288427053
-0.0080428571 0.0068528559 0.0046593016 4288361774
-0.0064858124 0.0092004295 0.0025407346 4288558123
-0.0043694787 0.0077035148 0.0037629614 4288427308
-0.0023602247 0.0069756713 0.0043168804 4288492844
-0.00022505596 0.005479401 0.0055381479 4288623658
0.0015509203 0.006289443 0.0047565037 4288623659
0.0035734028 0.0055622868 0.0053098509 4288558123
0.0061163045 0.0017611533 0.008531482 4288688938
0.0090807937 -0.0043447521 0.01375248 4288623913
0.012088735 -0.010449611 0.01897094 4288558634
0.014455348 -0.012711488 0.020853672 4291044884
0.01641915 -0.012668019 0.020736102 4291240978
0.018667571 -0.01416094 0.021951292 4291175953
0.020781592 -0.01488532 0.022499718 4289475614
0.023196571 -0.01714574 0.024379916 4289868313
0.024272621 -0.012493027 0.020266782 4288365089
-0.055126809 -0.0018240027 0.011788133 4287967543
-0.053342436 0.00053167157 0.0096583096 4287968309
-0.051433612 0.00056985207 0.0095410002 4287903284
-0.049475107 -0.00016423129 0.010094077 4288164658
-0.047511134 -0.00089808926 0.01064691 4288099379
-0.045651909 -8.716993e-05 0.0098595591 4288164913
-0.04379813 0.00072379038 0.0090726605 4288361518
-0.041889247 0.00076259673 0.008955813 4288426798
-0.040043652 0.0015736204 0.008169583 4288426798
-0.03820353 0.0023847129 0.007383748 4288230704
-0.03630013 0.0024237875 0.0072675226 4288492844
-0.034325279 0.0016909931 0.0078203818 4288296239
-0.032345008 0.00095848367 0.0083729709 4288165168
-0.03043624 0.0009980388 0.0082566896 4288361518
-0.02860716 0.0018094927 0.0074720411 4288492333
-0.026701206 0.0018492322 0.00735611 4288295983
-0.024795301 0.0018891003 0.0072402814 4288426798
-0.022801628 0.0011574961 0.0077925203 4288492079
-0.021074239 0.0027408097 0.0063410802 4288492589
-0.019171245 0.0027809776 0.0062256968 4288361774
-0.017268332 0.0028212871 0.0061104251 4288492589
-0.0153655 0.0028616916 0.005995228 4288426799
-0.013665669 0.0044448543 0.0045458516 4288622893
-0.01176846 0.0044853836 0.0044311779 4288295728
-0.0099782646 0.0052972473 0.0036498019 4288230448
-0.0080839694 0.0053379424 0.0035354765 4288296238
-0.006302163 0.0061498974 0.0027547339 4288361774
-0.0041806363 0.0046487115 0.0039734626 4288361774
-0.0022839569 0.0046898294 0.0038592638 4288362284
-0.00026686117 0.0039601494 0.0044111433 4288493099
0.0015090257 0.0047723893 0.003631142 4288689449
0.0036573 0.0032722838 0.0048485557 4288362284
0.0062024854 -0.00053968653 0.0080619501 4288427564
0.0091690794 -0.0066629592 0.013269867 4288427818
0.012044948 -0.012014596 0.017810065 4288493098
0.014274374 -0.013512471 0.019022945 4289016613
0.016235307 -0.013469038 0.018905565 4290063388
0.018338412 -0.014195923 0.019452963 4289867804
0.02059184 -0.015692975 0.020664692 4290129944
0.023151562 -0.0187303 0.023204572 4289344544
0.024378352 -0.014834785 0.019765392 4288430369
-0.055040255 -0.005680291 0.01265888 4287117373
-0.053203553 -0.0040925983 0.011202429 4287771959
-0.051237103 -0.0048288181 0.01175331 4287968309
-0.049314778 -0.0047902688 0.011635249 4287902773
-0.047392435 -0.0047515612 0.011517298 4288099124
-0.045470081 -0.0047127474 0.011399426 4288099124
-0.04354772 -0.0046737883 0.011281666 4288295729
-0.041685861 -0.0038603786 0.010495969 4288426544
-0.03976623 -0.003821224 0.010378563 4288295728
-0.037912577 -0.0030076802 0.0095935175 4288295728
-0.035995699 -0.0029683299 0.0094764633 4288164913
-0.034078844 -0.0029288605 0.0093595004 4288099634
-0.032162022 -0.0028892495 0.0092426455 4288099634
-0.03024523 -0.0028495304 0.0091258744 4288295728
-0.028408071 -0.0020357389 0.0083423508 4288164913
-0.026494091 -0.0019958131 0.0082259467 4288295728
-0.024665207 -0.0011819452 0.0074431086 4288426799
-0.022841837 -0.00036804937 0.006660712 4288492589
-0.021023978 0.00044584647 0.0058787344 4288427053
-0.019118411 0.00048607774 0.0057632001 4288165423
-0.017212922 0.00052641705 0.0056477534 4288688939
-0.015406203 0.001340501 0.004866696 4288230704
-0.013706401 0.0029280148 0.0034205625 4288492589
-0.011809342 0.0029685535 0.0033059055 4288230704
-0.0099123754 0.0030092336 0.0031913621 4288295983
-0.007905934 0.0022766944 0.0037419284 4288361519
-0.0062310547 0.0038641449 0.0022976482 4288099889
-0.0042221025 0.0031318944 0.0028482405 4288231214
-0.0023255646 0.0031730086 0.0027340529 4288231214
-0.00030867755 0.0024411716 0.0032843454 4288362029
0.0014671348 0.0032556001 0.0025059758 4288296238
0.0036151446 0.0017511342 0.0037201652 4288558124
0.0062885508 -0.0028446745 0.0075894119 4288493098
0.0092572346 -0.0089852707 0.01278421 4288362283
0.011867054 -0.012806465 0.015985809 4289016614
0.01381984 -0.012763326 0.015868831 4289016868
0.015772477 -0.012720072 0.015751954 4288624424
0.018009491 -0.014221954 0.016961344 4290129689
0.020547211 -0.017268561 0.019495998 4290522643
0.022663392 -0.017997108 0.02004116 4289279264
0.024032645 -0.0148633 0.017273135 4288692509
-0.04136201 -0.010053538 0.0133562 4287117629
-0.039426178 -0.010014055 0.0132378 4287444539
-0.03749036 -0.0099744424 0.013119497 4287510074
-0.035554554 -0.0099347085 0.013001285 4286856254
-0.033761494 -0.0083422083 0.011551664 4287117884
-0.031905279 -0.0075260904 0.010768414 4287313978
-0.030054547 -0.0067099519 0.0099855987 4287902773
-0.028209312 -0.0058937948 0.009203217 4287575864
-0.026451839 -0.0043015257 0.0077561429 4287641143
-0.024875294 -0.0011573788 0.0049800603 4287707443
-0.023145191 0.0004345756 0.0035348441 4288166954
-0.02142605 0.0020263791 0.0020904243 4288494884
-0.019345209 0.00051469356 0.0033043716 4287838259
-0.017541219 0.0013307333 0.0025250483 4287642164
-0.015841376 0.0029225294 0.0010820227 4287838768
-0.014152516 0.0045141876 -0.00036019366 4288101164
-0.012266513 0.0045544915 -0.00047418382 4287970859
-0.01016701 0.0030438285 0.00073910039 4288101673
-0.0081662089 0.0023089387 0.0012884261 4288297258
-0.0062723234 0.0023497827 0.0011742404 4287970348
-0.0042635761 0.0016153641 0.0017232327 4287904303
-0.0024848767 0.0024318025 0.00094613805 4288101419
-0.00047091767 0.0016977135 0.0014949804 4288297258
0.0013020933 0.0025142748 0.00071841199 4288231979
0.0034471266 0.0010053981 0.0019295458 4288362539
0.005988691 -0.0028284211 0.0051269634 4288427564
0.0090826415 -0.0097616352 0.010971309 4288165423
0.011689294 -0.013593786 0.014164996 4289147174
0.013775982 -0.014325585 0.014709988 4290651418
0.015728466 -0.014282322 0.014593127 4290521624
0.017965227 -0.015788551 0.01579931 4290849043
0.020067766 -0.016519669 0.016343597 4289410079
0.022175588 -0.017250573 0.016887642 4289540894
0.023386404 -0.013333631 0.013465625 4288887838
0.0032792203 0.00026429072 0.0001423629 4287054644
0.005689092 -0.0028032027 0.0026712343 4287250484
0.0086456351 -0.0089789014 0.0078408448 4287119159
0.011243686 -0.012822172 0.011026992 4288753453
0.013321999 -0.013556329 0.011570872 4288557104
0.014987342 -0.011959168 0.010134467 4289015848
0.01721023 -0.013470055 0.011338239 4289016868
0.019154087 -0.013426763 0.011222062 4289213219
0.021392956 -0.014937027 0.012425001 4289344034
0.02274067 -0.011786255 0.0096712457 4289214494
-0.023448203 0.0012505744 0.00041889865 4284508979
-0.024955276 -0.0042027216 0.0027206866 4282935118
-0.02357566 0.00051923469 -0.0013641082 4281240898
-0.021867497 0.0021195207 -0.0028013773 4280848964
-0.019984195 0.0021593012 -0.0029155482 4280783683
-0.018100969 0.0021992028 -0.003029624 4280587079
-0.016217817 0.002239218 -0.0031436048 4280651594
-0.014435969 0.0030593891 -0.0039181635 4280846669
-0.012659665 0.0038796049 -0.0046923417 4280650829
-0.010782223 0.0039198529 -0.0048057162 4280781389
-0.0087954625 0.0031803269 -0.0042587705 4280846669
-0.0066912398 0.0016612951 -0.0030520726 4280586313
-0.0045762211 0.00014261156 -0.0018459391 4281174089
-0.002920717 0.0017429683 -0.0032791384 4280782408
-0.00091533363 0.0010043681 -0.0027329987 4280846923
0.0009723641 0.0010455549 -0.002846458 4280781898
0.0031114295 -0.00047220849 -0.001641402 4280781389
0.0053897239 -0.0027689897 0.0002221074 4280842078
-0.024825629 -0.0072900876 0.0029114047 4282542928
-0.023527913 -0.0017724466 -0.0018238937 4280716874
-0.021726793 -0.00095018558 -0.0025983686 4280588863
-0.020117177 0.0014368426 -0.0046915272 4280522818
-0.018141104 0.00069435872 -0.0041460386 4280326724
-0.01635655 0.0015166271 -0.0049192412 4280652869
-0.014274012 -7.6871365e-06 -0.003714818 4280782409
-0.012596238 0.0015969258 -0.0051465537 4280651594
-0.010609601 0.0008551348 -0.0046013566 4280521033
-0.008726947 0.00089564361 -0.0047149342 4280325448
-0.0066202581 -0.00062770396 -0.0035116347 4280455753
-0.0047323629 -0.00058684871 -0.0036253557 4280653379
-0.0028445758 -0.00054590032 -0.0037389989 4280522054
-0.00095691159 -0.00050482154 -0.0038525374 4280391239
0.001053609 -0.0012453757 -0.0033082422 4280977484
0.0031951405 -0.0027674176 -0.0021065576 4280062289
-0.024865722 -0.0088164434 0.0017789826 4282086478
-0.023392783 -0.004852945 -0.0016284101 4281043528
-0.021586312 -0.0040283985 -0.0024015941 4280913988
-0.019785356 -0.0032037888 -0.0031743823 4280000068
-0.018085578 -0.0015947241 -0.0046044858 4280065349
-0.016200002 -0.0015546475 -0.0047186073 4280521033
-0.014314506 -0.0015144367 -0.0048326263 4280390729
-0.012532923 -0.00068981387 -0.0056038494 4280258893
-0.010650329 -0.00064944662 -0.0057175313 4280258893
-0.0086585432 -0.0013931561 -0.0051741516 4279737164
-0.0066614039 -0.0021366347 -0.0046310127 4280454988
-0.0048883855 -0.0013117027 -0.0054013561 4280260934
-0.0030034631 -0.0012708139 -0.0055148229 4280391239
-0.00099848956 -0.0020137727 -0.0049718972 4280325194
0.0010118335 -0.0027564969 -0.0044292007 4280388179
0.0031530932 -0.0042828862 -0.0032307282 4279733848
-0.024990516 -0.0095556257 -1.0059215e-05 4281957193
-0.023520172 -0.0055813082 -0.0034092059 4280129353
-0.021536218 -0.0063282009 -0.002867599 4279999814
-0.019825513 -0.0047146361 -0.0042952625 4280195398
-0.018030167 -0.0038879011 -0.0050659683 4280261188
-0.016240343 -0.0030611474 -0.0058362372 4280065093
-0.014354993 -0.0030209515 -0.0059502563 4280455498
-0.012677282 -0.0014076401 -0.0073755109 4280193613
-0.010691062 -0.0021537542 -0.0068335007 4280063308
-0.0088086948 -0.0021132734 -0.0069470783 4279867724
-0.006702546 -0.0036453139 -0.0057502035 4280194123
-0.0049296096 -0.0028182063 -0.0065189227 4280390984
-0.0029274374 -0.0035635233 -0.0059775319 4280390983
-0.0011601746 -0.0027363058 -0.0067457352 4280456008
0.00084721297 -0.0034812614 -0.0062044784 4279998539
0.0027343556 -0.0034399778 -0.0063178241 4279800149
-0.025115188 -0.01029019 -0.0017956747 4281827399
-0.023560066 -0.0070940647 -0.0045315255 4280065348
-0.021666422 -0.0070541706 -0.0046463995 4279216708
-0.019772831 -0.0070141684 -0.0047611906 4279803974
-0.017879311 -0.0069740489 -0.0048758877 4279673414
-0.016084142 -0.0061449502 -0.0056448965 4279934024
-0.014395487 -0.0045271795 -0.007067672 4279803208
-0.012717806 -0.0029095244 -0.0084896963 4280390474
-0.010731779 -0.0036578216 -0.0079492927 4279868233
-0.0087404028 -0.0044058915 -0.0074091265 4279542344
-0.0066317916 -0.0059422199 -0.0062156334 4279411783
-0.0047416054 -0.0059013311 -0.0063295029 4279412038
-0.0028515309 -0.0058603119 -0.0064432686 4279348288
-0.0010816306 -0.005030863 -0.0072100125 4279869253
0.00080550462 -0.0049896892 -0.0073234383 4280325959
0.0026925057 -0.0049483851 -0.0074367579 4279866959
-0.025408927 -0.0094375638 -0.0048850798 4280645473
-0.023949217 -0.0054417234 -0.0082674045 4279600738
-0.021976588 -0.0061932206 -0.0077283587 4279276124
-0.020184085 -0.0053623095 -0.0084957415 4278558553
-0.018206131 -0.0061134361 -0.0079568261 4279343189
-0.016419224 -0.0052823871 -0.0087236799 4279342679
-0.014637835 -0.0044513438 -0.0094901137 4279146838
-0.012758315 -0.0044111479 -0.0096036876 4279344208
-0.010666125 -0.0059524272 -0.0084126201 4279474259
-0.0085631199 -0.0074933562 -0.0072221193 4279212629
-0.0065611489 -0.0082432888 -0.0066840756 4279409744
-0.0047829486 -0.0074116886 -0.0074499273 4279280714
-0.0030102879 -0.0065801162 -0.0082153026 4279607624
-0.0012431927 -0.0057485495 -0.0089802556 4279737928
0.00064107031 -0.0057074204 -0.0090934969 4279994968
0.0026506595 -0.0064565782 -0.0085555324 4279927138
0.023509189 -0.008295333 -0.010266982 4284705073
0.037940159 -0.013535785 -0.0065261377 4284704308
0.0083401985 -0.0089622829 0.0053791674 4280833408
0.010664523 -0.011257878 0.0072401175 4280632469
0.012731746 -0.011994448 0.0077830488 4281221774
0.014246821 -0.0096139759 0.0056921551 4281744778
0.016597904 -0.011908645 0.0075517511 4282400638
0.0079038665 -0.0081550702 0.0022668624 4279588243
0.0098181255 -0.0081128553 0.0021521403 4279323044
0.011732243 -0.008070536 0.0020375075 4278596294
0.013506904 -0.0072467215 0.0012662075 4279513274
0.015844069 -0.0095482366 0.0031217737 4279316669
0.018052652 -0.011067976 0.0043199798 4280108699
0.020271994 -0.012587424 0.0055176551 4279913878
0.022051446 -0.011763034 0.0047463449 4281355903
0.0074679144 -0.0073345881 -0.0008355258 4279259549
0.0092400648 -0.006508885 -0.0016052285 4279125929
0.011279672 -0.007250404 -0.0010638731 4278536879
0.01332457 -0.0079916976 -0.00052275136 4278537644
0.019785844 -0.01178103 0.0024085427 4279061159
0.021406956 -0.010171411 0.00098485779 4279456409
0.022864163 -0.0077786222 -0.0010924544 4282405738
0.0070323199 -0.0065007415 -0.0039280741 4278538154
0.010963917 -0.007202711 -0.0035017217 4278799529
0.012864005 -0.0071605686 -0.0036154157 4278996643
0.015047751 -0.0086897183 -0.0024222424 4279584928
0.017386846 -0.011004087 -0.00057645887 4278666674
0.019300073 -0.010961333 -0.00069069955 4278929834
0.021063082 -0.010133016 -0.001457761 4279586969
0.0048358478 -0.0064833425 -0.0062448182 4279720079
0.0068589896 -0.0072297864 -0.0057058698 4279586204
0.010648429 -0.0071460903 -0.0059328759 4278270914
0.019256547 -0.012491537 -0.0018257219 4278930599
0.020719483 -0.01008572 -0.0038937042 4278996899
0.0046655685 -0.0072055086 -0.0080178045 4279065239
0.0065549016 -0.0071639437 -0.0081311073 4278277544
0.0084441118 -0.0071222726 -0.0082443208 4278275504
0.016722038 -0.010904413 -0.0054462748 4279192484
0.018771343 -0.011651808 -0.0049100323 4278930344
0.020376116 -0.010029437 -0.0063230558 4278603179
-0.026935847 -0.014959151 -0.0026326533 4281947503
-0.025617782 -0.009365066 -0.0073126382 4279197838
-0.024163393 -0.0053584632 -0.010686549 4279065238
-0.022376381 -0.0045256205 -0.011452074 4279394444
0.0044954233 -0.007923115 -0.009787336 4278868123
0.0065127239 -0.0086740553 -0.0092512844 4278670243
0.0082682408 -0.0078399964 -0.010013501 4278603943
0.010018181 -0.0070059653 -0.010775313 4278603943
0.011901539 -0.0069642086 -0.010888019 4278865828
0.014068175 -0.0085067302 -0.0097035589 4278669223
0.016101144 -0.0092568491 -0.0091680186 4278603943
0.01813937 -0.010006659 -0.0086327251 4278603179
0.019883133 -0.0091722384 -0.0093937768 4278799528
-0.027139256 -0.014892882 -0.005065185 4281946229
-0.025910873 -0.0084880684 -0.010383887 4278865063
-0.024377324 -0.0052663013 -0.013099016 4279388833
-0.022685776 -0.0036359075 -0.014512621 4278600884
-0.016794033 -0.0059032328 -0.012903036 4279519393
-0.015121814 -0.0042727627 -0.01431511 4279061924
-0.013253491 -0.0042328071 -0.014428006 4279193248
-0.011172719 -0.0057830233 -0.013242715 4278931874
-0.0090811402 -0.0073329471 -0.01205796 4278602923
-0.0069787651 -0.0088824742 -0.010873807 4279520414
-0.005323343 -0.0072517451 -0.012284407 4278404533
-0.0015659444 -0.0071701091 -0.012510499 4278601648
0.00018999353 -0.0063342731 -0.0132715 4279127204
0.0041973591 -0.0078414846 -0.012201213 4278866083
0.006339781 -0.0093893148 -0.011018855 4278735014
0.0080925077 -0.0085531604 -0.0117793 4278734759
0.0095672235 -0.0061279964 -0.013833863 4278472363
0.011442281 -0.0060864072 -0.013946059 4279058608
0.013458863 -0.0068391543 -0.013411225 4279256998
0.015480734 -0.0075916275 -0.012876662 4278865318
0.017507903 -0.0083438847 -0.012342345 4278734504
0.019390531 -0.0083017256 -0.012454695 4278668968
0.02142556 -0.0090535963 -0.011920691 4278473128
0.023310609 -0.0090111848 -0.012033036 4278736289
0.025353469 -0.0097627053 -0.01149937 4278996898
0.027080208 -0.0089260973 -0.012257493 4279980434
0.029128172 -0.0096772872 -0.01172397 4280242318
0.031015284 -0.0096344631 -0.011836166 4280374409
0.033071071 -0.010385364 -0.011302949 4279719569
0.035646841 -0.013517107 -0.008834538 4281425008
-0.027179046 -0.016413312 -0.0061932211 4281945718
-0.025950363 -0.0099911066 -0.011499008 4278667694
-0.024416735 -0.0067606326 -0.014207665 4279322788
-0.020766901 -0.005884083 -0.015082876 4279124653
-0.018898504 -0.0058444962 -0.015196051 4278730169
-0.016932141 -0.0066022668 -0.014661194 4278600628
-0.015262686 -0.0049675126 -0.016069869 4278340783
-0.0073547773 -0.0079960488 -0.013931789 4279520159
-0.0054787919 -0.0079554711 -0.014044806 4278271678
-0.0037200041 -0.0071176738 -0.014804492 4278860983
-0.0018469505 -0.0070769154 -0.014917152 4278534074
-0.0002190806 -0.0054421294 -0.016322631 4279716508
0.0040275268 -0.0085477252 -0.013962312 4278668969
0.0061669797 -0.010100004 -0.012783037 4278276014
0.0077834763 -0.0084650069 -0.014187489 4278537644
0.010844544 -0.0043987688 -0.017639685 4278400198
0.017023951 -0.0074598845 -0.015393893 4278733738
0.01904808 -0.008214321 -0.014860889 4278865319
0.021077476 -0.0089685069 -0.014328178 4278734758
0.022801772 -0.008129986 -0.015084691 4278538154
0.024836287 -0.0088838656 -0.014552142 4279127459
0.030639365 -0.0095522096 -0.014243637 4278863024
0.032520741 -0.0095094182 -0.01435542 4279519904
0.0352595 -0.013445942 -0.011249462 4279391129
0.038722195 -0.020565063 -0.0055715609 4281359473
-0.027137192 -0.018733524 -0.0066737817 4281945719
-0.025989842 -0.011493905 -0.012613951 4279323553
-0.024369061 -0.0090546589 -0.014669189 4278471344
-0.022674866 -0.0074154921 -0.016076472 4279258019
-0.020899085 -0.0065762494 -0.016836379 4279389089
-0.019033564 -0.0065367091 -0.016949371 4278996133
-0.01707013 -0.007296741 -0.01641597 4278930089
-0.015302725 -0.006457299 -0.01717509 4278603434
-0.013540857 -0.0056178123 -0.017933831 4278473128
-0.011572197 -0.0063774027 -0.017400427 4278996643
-0.0077304207 -0.0070964359 -0.016979914 4278733738
-0.0058627501 -0.0070560034 -0.017092405 4278997408
-0.003995169 -0.0070155002 -0.017204838 4278341804
-0.00050530955 -0.0053357929 -0.018719107 4279192228
0.0014817156 -0.0060941968 -0.018186225 4278537133
0.0036019757 -0.0076513384 -0.0170091 4279127204
0.0058636554 -0.010007143 -0.015188159 4278472108
0.0089386292 -0.0059299711 -0.018633282 4278274994
0.010663714 -0.0050898064 -0.019388709 4278865319
0.016687378 -0.0073612779 -0.017792203 4278864554
0.01870586 -0.0081179794 -0.017260529 4278603689
0.020729631 -0.0088744666 -0.0167291 4278668968
0.022758715 -0.0096307881 -0.016197877 4278341294
0.024635203 -0.0095884781 -0.016309645 4278732973
0.028224386 -0.0087053236 -0.017175388 4278470579
0.035043888 -0.014163993 -0.013015851 4279389854
0.038677335 -0.022100747 -0.0067105587 4279652504
-0.027258601 -0.019453444 -0.0084487535 4281815923
-0.026113624 -0.012194309 -0.014374224 4278931619
-0.022804106 -0.0081051849 -0.017828358 4278340273
-0.02093867 -0.0080657657 -0.017941432 4279585948
-0.019168502 -0.0072242934 -0.018699327 4279323553
-0.015342757 -0.0079468209 -0.018280115 4278799784
-0.013374239 -0.0087086745 -0.01774846 4279127458
-0.011612531 -0.0078669563 -0.018505452 4279193249
-0.0060178228 -0.0077462681 -0.018842746 4278667948
-0.0042700991 -0.0069043189 -0.019598572 4278800293
-0.0025279149 -0.0060624462 -0.020353958 4278799528
0.0011900961 -0.0059812255 -0.020577352 4278734249
0.0034325309 -0.0083440933 -0.018760197 4278865319
0.0054299943 -0.0091041634 -0.018229425 4279061413
0.0087607317 -0.0066185314 -0.020380687 4278601904
0.010483045 -0.0057763103 -0.021134295 4279455390
0.01234125 -0.0057350267 -0.021245431 4279323554
0.014343515 -0.0064944625 -0.020714555 4278864299
0.016497985 -0.0080545209 -0.019542139 4278405554
0.01851356 -0.0088134706 -0.019011915 4278538154
0.020686775 -0.01037285 -0.017840499 4278472619
0.022560589 -0.010330713 -0.017952193 4278472108
0.025986724 -0.0086452197 -0.019457217 4279585949
0.027854614 -0.0086029526 -0.019568361 4278865829
0.029722355 -0.0085605811 -0.019679416 4278800038
0.031758592 -0.009318416 -0.019149942 4278864808
0.034314252 -0.012476745 -0.016699772 4278997154
0.037936091 -0.020435497 -0.010409959 4279587479
-0.027461419 -0.01936437 -0.010864439 4282012529
-0.026321523 -0.012085823 -0.016775081 4279062434
-0.019398447 -0.0071032662 -0.021089099 4278469304
-0.01734574 -0.0086718332 -0.019915318 4278469304
-0.015483376 -0.0086321179 -0.020027939 4278865574
-0.013517778 -0.0093962653 -0.019497693 4278603944
-0.011864915 -0.0077485237 -0.020895515 4278931109
-0.010114256 -0.0069047473 -0.021650132 4278603178
-0.00095462054 -0.0058999211 -0.02285051 4278602669
0.00089874119 -0.0058593974 -0.02296184 4278865829
0.0030076094 -0.007425487 -0.021790504 4278669224
0.0049967095 -0.0081879143 -0.021260846 4278603688
0.0067246482 -0.0073436406 -0.022013359 4278274994
0.010163825 -0.0056551397 -0.023517147 4278468793
0.012157865 -0.0064170267 -0.022987464 4278402748
0.016161866 -0.0079402011 -0.021928869 4278930344
0.018321395 -0.0095043899 -0.020759912 4278407339
0.020491637 -0.011068183 -0.019591553 4278407339
0.02220761 -0.010223373 -0.020342752 4278799783
0.02562277 -0.0085338075 -0.021843912 4278665399
0.027321935 -0.0076890253 -0.022593927 4278470834
0.033927798 -0.01237673 -0.019093229 4279128224
0.037195392 -0.018752683 -0.014096333 4279062943
-0.027826931 -0.017653324 -0.014558452 4281487484
-0.026613379 -0.011161936 -0.019811545 4278931619
-0.025008878 -0.0087034684 -0.02185124 4278735524
-0.02324149 -0.007857997 -0.022605874 4279128224
-0.021294896 -0.0086251516 -0.022076488 4279193249
-0.019533068 -0.0077795535 -0.022830604 4279193504
-0.017483348 -0.009352535 -0.021659879 4279062433
-0.015623856 -0.0093129138 -0.021772349 4278670244
-0.013661191 -0.010079226 -0.021243565 4278801314
-0.012011066 -0.0084272586 -0.02263796 4278735524
