# .PCD v0.7 - Point Cloud Data file format
VERSION 0.7
FIELDS x y z rgba
SIZE 4 4 4 4
TYPE F F F U
COUNT 1 1 1 1
WIDTH 964
HEIGHT 1
VIEWPOINT 0 0 0 1 0 0 0
POINTS 964
DATA ascii
-0.0061509684 0.019390013 0.019806039 4289866274
-0.00449121 0.020895075 0.018291324 4290324254
-0.0025530308 0.020940289 0.018166635 4290716699
-0.00046755373 0.020255823 0.018736437 4290258718
0.0017733797 0.018841833 0.020000264 4289277223
0.0038720667 0.018157888 0.020569377 4289080873
0.0058203489 0.018203724 0.020444322 4289408038
0.0076100603 0.018979155 0.019625627 4289604389
0.0090719089 0.021213483 0.017420243 4290454814
0.011172481 0.020529952 0.017989509 4290716443
0.013278291 0.019846577 0.018558539 4290389534
0.01589711 0.016975727 0.021206342 4290585884
0.01991348 0.0082718469 0.029395707 4290193183
0.030980565 -0.020796008 0.056842256 4289015593
-0.0092819966 0.013345193 0.02306496 4288752945
-0.0080041476 0.017051734 0.019471087 4289210923
-0.0063360259 0.0185613 0.017959021 4289081128
-0.0046789832 0.020070668 0.016447797 4289081129
-0.0027436465 0.02011583 0.016323302 4289015593
-0.00095591694 0.02089306 0.015506104 4289669669
0.0012765899 0.019474573 0.016767208 4289408039
0.0035197884 0.018056408 0.018027753 4289408039
0.0054625198 0.018102143 0.017903078 4289539109
0.0072467178 0.018879715 0.017086349 4289735203
0.0087031871 0.021120463 0.014886241 4289932064
0.010798149 0.02043464 0.015454262 4290193694
0.012898318 0.019749038 0.016022023 4290193694
0.015511349 0.016869288 0.018663771 4290585884
0.019693285 0.0074076764 0.02752535 4290455069
0.025342986 -0.0079026874 0.041910958 4289734693
0.030574664 -0.02101649 0.054216702 4288949803
-0.0099965632 0.015443753 0.018441431 4288491568
-0.0085957125 0.018426552 0.015548438 4290062369
-0.0070776641 0.020674597 0.013348635 4290324254
-0.0052923486 0.021453772 0.012533076 4289931554
-0.0032234117 0.020764519 0.013100684 4290062113
-0.0011492223 0.020075474 0.013668012 4290127138
0.0010802969 0.018652547 0.014926143 4289276969
0.003014937 0.018698022 0.014801938 4289277224
0.0049493685 0.01874359 0.014677815 4289408295
0.006725356 0.019523151 0.013863306 4290193184
0.008495681 0.020302709 0.013049182 4289931808
0.01058773 0.019614615 0.013615835 4289016359
0.012685008 0.018926799 0.014182191 4288885289
0.015125789 0.016771879 0.016127884 4289081128
0.0189576 0.0087488927 0.023589551 4289146408
0.024420314 -0.0058741346 0.037252504 4289081129
0.030168988 -0.021227967 0.051597875 4289081129
-0.010576863 0.016827814 0.014524721 4288884013
-0.0090504065 0.019082561 0.012329202 4289277224
-0.0074013583 0.020600434 0.010824934 4290062368
-0.0056215487 0.021381699 0.010011379 4290389278
-0.0037028119 0.021426544 0.0098879971 4290520094
-0.0016369894 0.02073516 0.010454278 4289735204
0.00058411062 0.019307718 0.011709675 4289408039
0.0025104582 0.019353036 0.011586025 4289277224
0.0044365972 0.019398436 0.011462457 4289277224
0.0062043443 0.020180032 0.010650128 4289735203
0.0081273541 0.020225562 0.01052691 4290389788
0.010213785 0.019535225 0.011092283 4289604899
0.012305431 0.018845111 0.011657398 4289604898
0.014740452 0.016683541 0.013598632 4289931553
0.018222377 0.010107893 0.019666903 4289931554
0.023498259 -0.0038234368 0.032610424 4289800483
0.029763542 -0.021430347 0.048985701 4289015084
-0.010755893 0.016013149 0.012687702 4288361008
-0.009095788 0.017535631 0.011185877 4288688684
-0.0075857714 0.019796606 0.0089963935 4288623658
-0.0056669936 0.019841395 0.0088729709 4288885289
-0.0040373728 0.021363456 0.0073733218 4289016360
-0.0018299595 0.019931216 0.0086263493 4289015849
8.8281929e-05 0.019976277 0.0085031763 4288819499
0.0021589994 0.019283034 0.009067677 4289211943
0.0039241835 0.020066664 0.008257065 4289081128
0.0058418289 0.020112 0.0081341416 4289408293
0.0075984225 0.020895675 0.0073241889 4289539363
0.0095129311 0.020941135 0.0072016157 4289801249
0.011593521 0.02024857 0.0077658892 4290193693
0.013679326 0.01955625 0.008329846 4290258719
0.01662901 0.015174411 0.012325469 4289538854
0.021181211 0.0041524991 0.022495009 4289015084
0.028472461 -0.017934663 0.042950045 4289015084
-0.010801297 0.014462098 0.011541333 4289735713
-0.0088686794 0.014507007 0.011416871 4289800993
-0.0070752054 0.01529295 0.010605589 4289539873
-0.0052873529 0.016078845 0.0097948052 4289670944
-0.0036495477 0.017605465 0.0082979463 4289539873
-0.0017285123 0.017650519 0.0081745349 4289539618
0.00019232184 0.01769565 0.0080511943 4289473829
0.0021129698 0.017740905 0.0079279691 4289016103
0.0041887462 0.017045721 0.0084906183 4288820009
0.005953677 0.017831668 0.0076817498 4288950824
0.0078737363 0.01787718 0.0075587556 4288623658
0.009630084 0.018663108 0.0067505725 4288558379
0.011713207 0.017968491 0.0073130466 4288820009
0.01380156 0.017274082 0.0078752413 4288819499
0.016581789 0.013619352 0.01117627 4288557613
0.020435341 0.0055248942 0.018583238 4288295473
0.027359359 -0.015148073 0.037621651 4288295473
-0.01031287 0.0099384524 0.013137586 4289735968
-0.0085056722 0.010726821 0.012326986 4289474339
-0.0067040808 0.011515133 0.011516873 4289933339
-0.0049081221 0.012303416 0.0107072 4289736989
-0.00311777 0.013091661 0.0098979585 4290456854
-0.0013330653 0.013879932 0.0090891197 4289540638
0.00044601411 0.014668122 0.0082807578 4289802014
0.0022194535 0.015456282 0.007472828 4290194714
0.004297778 0.014758997 0.0080337115 4289867294
0.0060653687 0.01554722 0.0072263107 4289605408
0.0078273267 0.016335402 0.0064193383 4289670943
0.0097470582 0.016381036 0.006296467 4289605409
0.011832722 0.015684314 0.0068571717 4289670689
0.013754733 0.015730202 0.0067343004 4289343013
0.016877733 0.010579888 0.011393599 4289146663
0.020910196 0.001719337 0.019465417 4288687918
0.026778154 -0.014561489 0.034361262 4288426288
-0.010091774 0.0068884343 0.013353124 4289605408
-0.0082791857 0.0076790974 0.012543865 4289670944
-0.0063333698 0.0077244863 0.012418676 4289998875
-0.0045292862 0.0085151456 0.011610106 4289867804
-0.0025865361 0.0085606538 0.01148526 4290195223
-0.00079099834 0.0093513839 0.01067736 4290194713
0.00099892169 0.01014204 0.0098699406 4290063898
0.0026307255 0.011677619 0.0083802082 4289867548
0.0045618415 0.011723258 0.0082564093 4289868059
0.0066506639 0.011024177 0.0088151097 4289671708
0.008744739 0.010325309 0.0093735307 4289802014
0.01068069 0.010371365 0.0092496462 4290259994
0.012616426 0.010417502 0.0091258399 4289867293
0.014889568 0.0089745559 0.010365564 4289539619
0.018202551 0.0030649751 0.015693869 4289670178
0.02225589 -0.0058212988 0.023744974 4288949548
0.026905209 -0.016939025 0.033835545 4288818733
0.030378088 -0.02284454 0.039153885 4286463808
-0.011563912 0.0022892673 0.015053429 4287248444
-0.010004289 0.0045775604 0.012880076 4289867038
-0.0081890486 0.0053704865 0.012072273 4289670944
-0.0062406287 0.0054159388 0.01194692 4289933339
-0.0044338927 0.0062088855 0.011139825 4289933339
-0.0023443103 0.0055071302 0.011696476 4289802268
-0.0008373037 0.0077947341 0.0095269084 4290194713
0.0011022463 0.0078403912 0.0094024353 4289802523
0.0028891787 0.0086333081 0.0085969344 4289998873
0.0048256144 0.0086790994 0.0084728114 4289606430
0.0069196969 0.0079779886 0.0090295747 4289999639
0.0090190321 0.0072770417 0.0095861033 4290326293
0.010960311 0.0073232353 0.0094618872 4289933339
0.013067402 0.0066227093 0.010018021 4290064153
0.015179716 0.0059224144 0.010573898 4289736224
0.018497504 -4.5392662e-06 0.015889 4289408804
0.022206984 -0.0074236169 0.022560872 4289015848
0.025970668 -0.014841295 0.029229358 4288623404
0.028890394 -0.018525086 0.032497454 4287052603
0.031290032 -0.019968882 0.033726223 4289407018
0.03407044 -0.022904983 0.03631245 4287182909
-0.011740435 0.0014673285 0.013210818 4287576118
-0.010050207 0.003012361 0.011723254 4289540129
-0.0082350336 0.0038074926 0.010917086 4289736734
-0.0062867589 0.0038529672 0.010791764 4289540894
-0.00448009 0.0046481118 0.0099863075 4290129688
-0.002390705 0.0039442107 0.010541379 4289606173
-0.00058984011 0.0047394373 0.009736456 4289998874
0.0012054071 0.005534634 0.0089319721 4289736988
0.0029950067 0.0063298456 0.0081278756 4290195223
0.0052441582 0.0048771724 0.0093623549 4289671708
0.0071884468 0.0049232692 0.009237811 4289737244
0.0092930421 0.0042203404 0.0097923689 4289606939
0.01123964 0.0042666942 0.0096678399 4289933338
0.013351984 0.0035641398 0.01022204 4289867549
0.015469566 0.0028618127 0.010775983 4289802013
0.018620759 -0.0023336187 0.015399531 4289605408
0.021983944 -0.0082768314 0.020698868 4289081383
0.025213599 -0.013470146 0.025317505 4288427053
0.027762882 -0.015667748 0.027222689 4290258464
0.030145951 -0.017116241 0.028449256 4290061348
0.032909654 -0.0200615 0.03103013 4290061094
0.035507165 -0.022257674 0.032932438 4290518308
0.038120724 -0.024453321 0.034833748 4289863724
-0.012047339 0.0014021229 0.01069231 4287314999
-0.010495767 0.0037033372 0.0085292682 4289540383
-0.0086888447 0.0045005139 0.0077252239 4289147938
-0.006610211 0.0037939362 0.008279264 4289737244
-0.0048090667 0.0045912024 0.0074757561 4290129688
-0.0028694347 0.0046367142 0.0073511675 4289802524
-0.00092997402 0.0046823081 0.0072266534 4289998873
0.0011588559 0.0039763823 0.007780347 4290064663
0.0031006858 0.0040222518 0.0076558478 4289999383
0.0051973164 0.0033167712 0.0082091615 4290130198
0.0071414709 0.0033628941 0.0080846548 4290326294
0.0090854391 0.0034091137 0.0079602376 4290326804
0.011029191 0.003455434 0.0078359097 4289998873
0.013138622 0.0027506463 0.0083886944 4289998618
0.015253305 0.0020460803 0.0089412145 4290128924
0.018401191 -0.0031646769 0.013553668 4289736223
0.021586955 -0.0083743855 0.018163729 4289343778
0.024633832 -0.012832218 0.022095148 4289409058
0.026995122 -0.014285649 0.023319829 4288754729
0.029367059 -0.015738741 0.024543893 4289016103
0.031749658 -0.017191533 0.025767382 4290389024
0.034330532 -0.019394629 0.027665917 4288818479
0.037308216 -0.023098435 0.030914433 4288752944
-0.0012698546 0.004634155 0.0047235545 4289150998
0.00081332773 0.0039259996 0.0052759871 4289935123
0.0027495772 0.0039717387 0.0051518418 4289869589
0.0046856329 0.0040176045 0.0050278082 4289934869
0.0066214949 0.0040635634 0.0049038567 4290262034
0.0087175518 0.0033560805 0.0054557323 4290458384
0.010655753 0.0034022927 0.0053317845 4289803288
0.012925386 0.0019418001 0.0065587871 4290195988
0.015374236 -0.00027160347 0.0084603801 4289998873
0.018524274 -0.0054975785 0.013061378 4289932573
0.021712169 -0.010722488 0.017659988 4288820518
0.024407819 -0.013687076 0.020232089 4290718229
0.026586741 -0.014391914 0.020779233 4290063899
0.028588705 -0.01434353 0.020651687 4289605408
0.030960158 -0.015800875 0.02187264 4289408294
0.033717431 -0.018763609 0.024441082 4289800229
0.03687682 -0.023231301 0.028355923 4288818479
0.010282554 0.0033581201 0.0028343592 4288562204
0.012546487 0.0018932074 0.0040584765 4288757278
0.015158057 -0.0010824036 0.0066292658 4289541659
0.018475987 -0.0070791282 0.011892617 4289475869
0.02183722 -0.01307473 0.017153274 4289082658
0.024358578 -0.015292631 0.019045614 4290260503
0.026178591 -0.014489144 0.018245246 4290980369
0.027992919 -0.013685688 0.017445326 4290455578
0.030171186 -0.014392484 0.017991003 4290455579
0.032917202 -0.017364202 0.020553697 4289800739
0.036255449 -0.022600256 0.025131855 4289930023
0.02161441 -0.01391588 0.015300117 4287709994
0.023956165 -0.015382964 0.016516346 4289279264
0.025770694 -0.014577396 0.015717976 4290063643
0.027579539 -0.013771832 0.014919985 4290063389
0.029752187 -0.014480961 0.015464466 4289474083
0.032304928 -0.016704265 0.017350234 4289145898
0.035824627 -0.022712935 0.022588264 4288556593
0.021391727 -0.014752444 0.013450433 4287972388
0.023730509 -0.016223924 0.01466364 4289540893
0.02536305 -0.014656588 0.013197321 4289932573
0.027348362 -0.01460853 0.013070893 4289474594
0.029518105 -0.015319841 0.013613913 4289081383
0.031880446 -0.016790396 0.014825888 4289145898
0.034823738 -0.020538602 0.018044297 4288818479
0.020995446 -0.014822458 0.010935728 4288822304
0.023328528 -0.016298383 0.012146037 4289279264
0.025134802 -0.015488615 0.011351451 4290979348
0.027299166 -0.016202318 0.011893142 4291044884
0.029468745 -0.0169158 0.012434565 4291044628
0.031830832 -0.018390704 0.013643336 4289211944
0.034583665 -0.02138829 0.016186293 4288885544
0.020946711 -0.016411662 0.0097613372 4289149468
0.0229268 -0.01636387 0.0096351355 4289868058
0.02508577 -0.017079953 0.010175496 4289670433
0.026886329 -0.016268034 0.0093829781 4289997598
0.029050305 -0.016983841 0.009923134 4290978838
0.031406716 -0.018463165 0.011129018 4289735203
0.034153715 -0.021469606 0.013665888 4288885543
0.037114896 -0.025239058 0.016867079 4288755494
0.017892592 -0.01345021 0.0047210455 4288299043
0.020550787 -0.016467996 0.0072566755 4290260758
0.022525333 -0.016420327 0.0071308352 4291307534
0.024678692 -0.017138768 0.0076699816 4289343524
0.026473768 -0.016324729 0.0068794079 4288885544
0.028816581 -0.017808884 0.008082889 4289212453
0.030982852 -0.018526701 0.0086213686 4289604644
0.033724055 -0.021541972 0.011152167 4289212198
0.036294132 -0.023790833 0.013017651 4286006339
0.017673545 -0.014257217 0.0028928984 4288364068
0.020328648 -0.017283835 0.005422309 4289605663
0.022300355 -0.017236225 0.0052966587 4290782744
0.024271853 -0.017188529 0.0051710866 4290848023
0.02606146 -0.016372485 0.0043825191 4290586138
0.028398581 -0.017861076 0.0055831037 4290716953
0.030746371 -0.019349352 0.0067831241 4290455068
0.033484474 -0.02237343 0.0093076453 4289409059
0.035858974 -0.023860838 0.010506053 4286136898
0.019759744 -0.016553782 0.0022673737 4289609998
0.022251673 -0.018818077 0.0041277129 4290391828
0.024044171 -0.017999854 0.0033405237 4290586649
0.026012622 -0.017952126 0.0032152273 4290063389
0.028165184 -0.018674703 0.0037512966 4290651163
0.030509993 -0.020167399 0.0049482808 4290325018
0.033055246 -0.022429969 0.0068055503 4289605408
0.023637801 -0.018033894 0.00085332058 4289540128
0.025600702 -0.017986273 0.0007283967 4289605664
0.027747646 -0.018711152 0.0012632199 4289343014
0.030086786 -0.020208307 0.0024572872 4289538853
0.032815978 -0.023249999 0.0049694739 4289603368
0.021098092 -0.017331339 -0.002161203 4289803288
0.023052931 -0.017284013 -0.0022856854 4290653204
0.025189027 -0.0180114 -0.0017518383 4290783509
0.027330369 -0.018738581 -0.0012182649 4289539363
0.029476948 -0.019465599 -0.00068492442 4289211943
0.032387219 -0.023290819 0.0024790727 4289211943
0.020345911 -0.015790828 -0.0059478804 4289803543
0.022468455 -0.016520821 -0.0054148566 4290783509
0.024596229 -0.017250571 -0.0048820786 4290848534
0.026913375 -0.018757096 -0.0036930889 4290913304
0.029054321 -0.019486379 -0.0031610411 4290063389
0.031958736 -0.023322633 -4.7478825e-06 4289016868
0.020121984 -0.016570549 -0.0077553187 4290393359
0.022063024 -0.016523559 -0.0078789238 4288885799
0.024185188 -0.017255642 -0.0073474217 4289409059
0.026312582 -0.017987493 -0.0068161711 4290455833
0.028631993 -0.019498222 -0.0056304801 4289605918
0.031341039 -0.022566553 -0.0031364039 4288557358
0.021657839 -0.016517296 -0.010336416 4290390553
0.0237744 -0.017251728 -0.0098061208 4290063388
0.025896192 -0.017985905 -0.0092761386 4289932573
0.028396606 -0.020282295 -0.0074402876 4290062879
0.030723736 -0.021797117 -0.0062582642 4288753453
0.03344579 -0.024873743 -0.0037713964 4286725693
0.01949878 -0.017332543 -0.012012227 4291440643
0.021074466 -0.015718546 -0.013439233 4290849299
0.023001492 -0.015671786 -0.013561866 4291176208
0.025480069 -0.017975319 -0.011729529 4291044884
0.027788125 -0.019495044 -0.010549584 4289867038
0.03010685 -0.02101437 -0.0093702879 4289146409
0.018923931 -0.016524572 -0.015108979 4289870863
0.020491496 -0.014906417 -0.016532239 4289997853
0.022772521 -0.016431265 -0.015353958 4290063644
0.025064223 -0.017955819 -0.01417626 4289932319
0.027553186 -0.020265603 -0.012349332 4289408294
0.029868953 -0.021789351 -0.011173073 4289341483
0.018525131 -0.016491354 -0.017546929 4290656264
0.020087294 -0.014869006 -0.018966638 4290586904
0.022362649 -0.016398348 -0.017791227 4289998108
0.024648659 -0.017927336 -0.016616426 4289147174
0.027131878 -0.020243805 -0.014793986 4289407783
0.029631205 -0.022559794 -0.012972504 4289276204
0.01830218 -0.017239422 -0.019330978 4290133004
0.019861624 -0.015612716 -0.020747308 4290979349
0.021953031 -0.016356468 -0.02022187 4291175699
0.024233393 -0.017889973 -0.019049957 4291175699
0.026897289 -0.021003032 -0.016585359 4289146664
0.029393598 -0.023325633 -0.014768534 4289081384
0.031905986 -0.025647711 -0.012952707 4286071619
0.01807937 -0.017982889 -0.021111628 4290200324
0.019636132 -0.01635192 -0.022524577 4290652184
0.021724626 -0.017097864 -0.022000603 4290914069
0.024002038 -0.018635852 -0.020831697 4291174934
0.026476488 -0.020965539 -0.019018415 4290063388
0.028967068 -0.023294825 -0.01720608 4289147428
0.031473733 -0.025623634 -0.015394704 4287052859
0.019410774 -0.01708651 -0.024298437 4289212963
0.02131553 -0.017040316 -0.024419671 4289736734
0.023587257 -0.018582759 -0.023253679 4290063389
0.026055984 -0.020919178 -0.021444848 4289409058
0.028351799 -0.022460861 -0.020280259 4289736224
0.031041741 -0.025590573 -0.017830133 4288164658
0.019007504 -0.017019928 -0.02671128 4290259993
0.021268301 -0.018567061 -0.025547875 4289736733
0.023172773 -0.0185208 -0.025669038 4289867039
0.02526328 -0.01927093 -0.02514833 4290193438
0.027736954 -0.021613682 -0.023344599 4289277734
0.018960528 -0.01854207 -0.027836092 4290391063
0.021040373 -0.019294811 -0.027316453 4290849299
0.022942014 -0.019248625 -0.027437439 4290913814
0.025029644 -0.020001007 -0.026918167 4290062623
0.027500324 -0.022350384 -0.025119105 4289734948
0.016839169 -0.019308839 -0.029479112 4289345054
0.018735632 -0.019262979 -0.02959992 4289605918
0.020812601 -0.020018009 -0.029081667 4289539618
0.02252803 -0.019170972 -0.029841274 4289800738
0.02461008 -0.019925714 -0.029323224 4289604898
0.027075 -0.022281753 -0.027528705 4289537578
0.020946167 -0.022342911 -0.029568883 4289343523
0.022664309 -0.021493694 -0.030327022 4289474084
0.024376817 -0.020644505 -0.031084796 4288884523
0.026461251 -0.021401314 -0.030568473 4288360243
0.026602656 -0.02372808 -0.031057712 4287182908
0.016874015 -0.024674656 -0.032212991 4288755238
0.026743926 -0.026059017 -0.031550031 4286266948
0.014928356 -0.026241617 -0.033216044 4289347603
0.016652301 -0.025385989 -0.033969976 4288493864
0.015053928 -0.02857464 -0.033708628 4289412883
0.016605668 -0.026904844 -0.03509238 4288428584
0.01832401 -0.026047172 -0.035844266 4288297513
0.015179388 -0.030911857 -0.034204315 4288560419
0.01690872 -0.030051839 -0.03495536 4288559398
-0.012614824 0.002854364 0.0068251118 4281499978
-0.011074096 0.005161887 0.0046676267 4283464754
-0.012921102 0.0028115418 0.0043232162 4281371459
-0.011252698 0.0043692216 0.0028468166 4280914754
-0.0093237385 0.0044141673 0.0027226806 4281306178
-0.0073949359 0.0044592433 0.0025986508 4281763138
-0.0056075454 0.0052605476 0.001799332 4282417468
-0.0036817864 0.0053057615 0.0016756561 4282940474
-0.0014628023 0.0038390141 0.0029021557 4283332664
0.00061746687 0.0031286161 0.003453156 4284377909
-0.012966555 0.0012605768 0.0031769108 4280521033
-0.01116515 0.0020640958 0.0023780931 4280065603
-0.0092336014 0.0021091383 0.0022538137 4280588864
-0.007302206 0.0021542665 0.0021296162 4281112634
-0.0056533478 0.0037162099 0.00065796636 4281635128
-0.0034398958 0.0022448655 0.0018815119 4281439544
-0.0013623759 0.0015321467 0.0024310146 4281309494
0.00072042644 0.00081963278 0.0029802434 4281831733
0.0025043413 0.0016234834 0.0021830965 4282027063
0.004282631 0.0024273116 0.001386391 4281635383
0.0060552657 0.0032311417 0.0005900804 4281765688
0.0081427842 0.0025191065 0.0011393484 4281895483
0.010235541 0.0018073525 0.0016883258 4282483259
0.012333535 0.0010958146 0.0022370368 4282939964
0.014942005 -0.0018885639 0.0048015732 4283397179
-0.012751587 -0.0018115826 0.0033765398 4279015769
-0.01081185 -0.0017664507 0.0032516625 4279934023
-0.0091436096 -0.00019994564 0.0017818864 4280392514
-0.0073480159 0.00060583465 0.00098521449 4280915008
-0.0054169297 0.00065110065 0.00086114369 4281112634
-0.0033421367 -6.3976273e-05 0.0014091227 4281439544
-0.0011155158 -0.0015391931 0.0026286487 4281505079
0.00097253174 -0.0022537801 0.0031759832 4281636404
0.0026098117 -0.00068732165 0.0017086267 4281766454
0.0043907538 0.00011876412 0.00091337971 4281637679
0.0061660707 0.00092482381 0.00011857413 4282159154
0.008256115 0.00021073408 0.00066603906 4281570358
0.010188513 0.00025686808 0.00054250099 4281570869
0.012120686 0.00030308031 0.00041904487 4282484534
0.01472605 -0.0026900824 0.0029773209 4282810169
0.018037237 -0.0087218583 0.0082152411 4283921203
-0.014099739 -0.0072264373 0.0057094619 4279796323
-0.012536861 -0.0048922542 0.0035699457 4279865939
-0.010724705 -0.0040841047 0.0027736817 4280651849
-0.0090537556 -0.0025131237 0.0013069306 4280457284
-0.0071171932 -0.0024678241 0.0011824369 4280980544
-0.0053218342 -0.0016597379 0.00038749538 4281176894
-0.0031007454 -0.003139548 0.0016040616 4281177914
-0.0010154396 -0.0038564708 0.0021498911 4281375283
0.0010751411 -0.0045731347 0.0026954059 4281375283
0.0028670952 -0.0037646908 0.0019010082 4281702194
0.004653424 -0.0029562414 0.0011070017 4281572144
0.0064341128 -0.0021478515 0.00031348504 4281637169
0.0085294172 -0.0028639939 0.00085899979 4281702194
0.010304287 -0.0020555463 6.5997243e-05 4282093363
0.012239069 -0.0020092409 -5.7606027e-05 4282288183
0.014678508 -0.0042490307 0.0018252656 4282875193
-0.014272902 -0.0080266204 0.003882708 4279471199
-0.012582604 -0.0064510796 0.0024178345 4279606348
-0.010770526 -0.0056407414 0.0016232003 4280589373
-0.0089640394 -0.004830379 0.00082896277 4280394300
-0.0071631558 -0.0040200669 3.522262e-05 4281046333
-0.0052268803 -0.0039746519 -8.9162961e-05 4281046843
-0.0031470433 -0.0046939552 0.00045527332 4281374264
-0.00091549754 -0.0061777886 0.001668077 4281374264
0.0010284483 -0.0061318856 0.0015434269 4281309239
0.0028203353 -0.0053212382 0.00075066835 4281701939
0.0046065971 -0.0045105983 -4.1710213e-05 4281701939
0.0063872337 -0.0037000161 -0.0008335989 4281507119
0.0084823444 -0.004418321 -0.0002896674 4281962039
0.010419928 -0.0043720379 -0.0004135184 4282158389
0.012522809 -0.0050899908 0.00013011135 4282288183
0.015135556 -0.008100355 0.0026749577 4282353973
-0.014700554 -0.0072874427 0.00072300807 4279211099
-0.013148483 -0.0049403608 -0.0014061388 4281113908
-0.011612888 -0.0025935527 -0.0035341438 4281637679
-0.0099583007 -0.0010142364 -0.0049933046 4282163745
-0.008038342 -0.00096930377 -0.005116716 4282292008
-0.0056957714 -0.0032254215 -0.0032381192 4281702704
-0.0031933561 -0.0062480867 -0.00069331191 4281769003
-0.00081571192 -0.0085032042 0.001183236 4281899564
0.0012799203 -0.0092240833 0.0017252136 4281898288
0.0030771941 -0.0084111299 0.00093372352 4282616113
0.0048688427 -0.0075981934 0.00014268607 4282681393
0.006654866 -0.0067852922 -0.00064792298 4282357288
0.0085952431 -0.0067390334 -0.00077201799 4282551598
0.010698125 -0.007459214 -0.00023011677 4282683689
0.012971684 -0.0089456495 0.00097725727 4282748969
0.015424073 -0.01119817 0.0028496291 4283269169
-0.015636828 -0.0034565497 -0.0050931331 4283066444
-0.011087079 0.0036021676 -0.011458851 4284578083
-0.0093271881 0.0044158902 -0.012246717 4284578083
-0.0018864945 -0.0046797749 -0.004627455 4282756618
0.0056646615 -0.0037281103 -0.0057857893 4282556443
0.0075885877 -0.0036822185 -0.0059088152 4282231828
0.0098375976 -0.0051737223 -0.0047031213 4282103309
0.012428023 -0.0082022026 -0.0021698121 4283336489
0.01520808 -0.011998624 0.0010261722 4283988778
-0.003248848 0.00071702525 -0.011742777 4284508468
-0.0011971742 -9.2200935e-06 -0.011201192 4284640048
0.00070809573 3.5919249e-05 -0.011323251 4284574514
0.0024587959 0.00085225701 -0.012108427 4284249134
0.0038896203 0.0032106861 -0.014219262 4284316963
-0.020480238 0.0022035111 -0.026700117 4284507704
-0.024433352 -0.013520662 0.0355707 4279193248
-0.022627473 -0.011987098 0.034065265 4279191209
-0.016916521 -0.009617772 0.031613115 4279582888
-0.014411259 -0.012545381 0.034228172 4280307599
-0.012636032 -0.011011953 0.032725137 4279783573
-0.012407977 -0.00055845641 0.022991471 4281881969
-0.026296616 -0.016685918 0.035871018 4280307853
-0.025241751 -0.0099260183 0.029569015 4278996389
-0.023343399 -0.0091344099 0.028753452 4278470833
-0.021450624 -0.0083427727 0.027938288 4279252409
-0.01956341 -0.0075511839 0.027123619 4278465479
-0.017681785 -0.0067595951 0.026309397 4278470579
-0.015315767 -0.0089506786 0.028234381 4278865063
-0.013434432 -0.0081588253 0.027420316 4279193758
-0.012454301 -0.0021483172 0.021816395 4279391639
-0.026979405 -0.013827792 0.03056046 4280242318
-0.025614109 -0.0092930719 0.026325956 4278274994
-0.023612496 -0.0092475489 0.02619632 4278930598
-0.021610998 -0.0092018805 0.026066791 4279651739
-0.019843571 -0.0076602064 0.024570514 4280109209
-0.017967489 -0.0068664998 0.023758244 4278469048
-0.015974555 -0.0068206973 0.02362952 4279126439
-0.013856608 -0.007522583 0.024183836 4278931618
-0.012500636 -0.0037378985 0.020641528 4279718803
-0.027449436 -0.012444002 0.026634615 4279652758
-0.025877353 -0.0093970597 0.023775209 4278668204
-0.02177126 -0.01005631 0.024198763 4278401219
-0.019889671 -0.0092604384 0.023387726 4278662083
-0.016020875 -0.0084187426 0.022448376 4278929323
-0.014153324 -0.007622838 0.021638509 4278866084
-0.012802634 -0.0038273409 0.01810465 4279130263
-0.02781304 -0.011794955 0.02340278 4279521434
-0.026140362 -0.0094919801 0.021231085 4278930853
-0.024149954 -0.0094466768 0.021102201 4278274739
-0.022159662 -0.0094012506 0.02097341 4278729148
-0.02028634 -0.008603368 0.020164538 4278268363
-0.018299013 -0.0085577816 0.020036113 4278863533
-0.016311824 -0.0085120648 0.019907795 4278602924
-0.014449798 -0.0077141039 0.019099906 4278866084
-0.013232134 -0.0031556766 0.014895041 4279195544
-0.02807039 -0.011887249 0.020860147 4279651993
-0.02651174 -0.0088231806 0.018014606 4278407084
-0.024529658 -0.0087780412 0.017886277 4278669478
-0.02266176 -0.0079781674 0.017079249 4278996644
-0.020682637 -0.0079328679 0.016951282 4279455388
-0.018584125 -0.0086419489 0.017501842 4278865829
-0.01635804 -0.010105141 0.018730324 4278734248
-0.014621064 -0.0085506532 0.017246027 4278801059
-0.029490326 -0.018071793 0.023875859 4282601833
-0.028327495 -0.011970572 0.018324215 4279717784
-0.026882749 -0.0081409253 0.014807995 4278276014
-0.019107886 -0.0072037596 0.013620656 4278865573
-0.016892985 -0.0086715631 0.014846627 4278537133
-0.015166923 -0.0071129296 0.013366297 4278866594
-0.029845111 -0.017404165 0.020657081 4282470764
-0.028584357 -0.012044825 0.015794992 4278734504
-0.027144905 -0.0082043745 0.012287218 4278537388
-0.019272987 -0.0080243368 0.01177812 4279323043
-0.017061088 -0.0094965659 0.013001058 4279127459
-0.015462611 -0.0071748681 0.010849301 4278277544
-0.030096557 -0.017484566 0.018122859 4282208879
-0.028840985 -0.012110011 0.013272397 4278537899
-0.027406819 -0.0082587432 0.0097730719 4278274483
-0.025666568 -0.0066916272 0.0082978755 4279389599
-0.023823462 -0.0058857538 0.0074973181 4279520413
-0.021752704 -0.0066020936 0.0080447719 4279388068
-0.019557305 -0.0080791786 0.0092654526 4278536113
-0.017473172 -0.0087949298 0.0098121725 4278865829
-0.030450672 -0.016792309 0.014922287 4282208879
-0.029308625 -0.010639155 0.009410847 4278800548
-0.023982324 -0.0066881422 0.005667761 4278271168
-0.019841366 -0.0081250332 0.0067595057 4278665399
-0.017762896 -0.0088430997 0.0073049702 4278733994
-0.03090727 -0.015320913 0.011060234 4281749879
-0.02977578 -0.0091505069 0.005562447 4278668968
-0.024254814 -0.0067203734 0.0031709727 4278339253
-0.022425611 -0.0059103463 0.0023747105 4278667694
-0.020363577 -0.0066310782 0.0029195379 4279127459
-0.018174298 -0.0081168804 0.0041342583 4278734758
-0.031363357 -0.013831751 0.0072113164 4281880439
-0.030136917 -0.0084120538 0.0023967791 4278537899
-0.028191075 -0.0083678085 0.0022707451 4278669479
-0.026356295 -0.0075556971 0.0014755707 4278865829
-0.024527069 -0.0067435522 0.00068080239 4278800548
-0.022703405 -0.0059314538 -0.00011347234 4278604199
-0.02064703 -0.006654473 0.00043012016 4278669734
-0.018463455 -0.0081448276 0.0016420055 4278931618
-0.031716231 -0.013094999 0.0040437076 4279193759
-0.030286789 -0.009200301 0.00057697296 4278406829
-0.028560176 -0.0076160971 -0.00088451616 4278733738
-0.025026314 -0.0052179713 -0.0031375885 4279516844
-0.023213629 -0.0044039302 -0.0039295312 4279454114
-0.021049291 -0.0058991797 -0.0027197059 4278669479
-0.01899597 -0.0066243242 -0.0021774378 4278735524
-0.033017814 -0.020112574 0.0076795742 4281552763
-0.031966083 -0.013117117 0.0015524961 4279127968
-0.030541927 -0.0092116389 -0.0019058157 4278472364
-0.02529794 -0.0052187815 -0.0056111533 4278268873
-0.023490787 -0.0044026934 -0.0064011235 4278269893
-0.021213166 -0.0066743102 -0.0045287162 4278538409
-0.019162767 -0.0074017458 -0.0039878339 4278735524
-0.0178538 -0.0034980755 -0.0074380841 4278933658
-0.032010473 -0.01467923 0.00039783679 4279717528
-0.030691493 -0.0099884104 -0.0037171375 4278340529
-0.02897311 -0.0083956569 -0.0051716156 4278864809
-0.027265716 -0.0068030544 -0.0066252369 4278865829
-0.023767699 -0.0043924004 -0.0088660959 4278864554
-0.021495856 -0.0066707265 -0.006998118 4278471853
-0.019694462 -0.0058523454 -0.0077859182 4278931109
-0.018520609 -0.001164021 -0.011890895 4280702084
-0.032465018 -0.013134362 -0.0034099054 4279651993
-0.027309939 -0.0083430726 -0.0077635273 4278996899
-0.02154053 -0.0082107168 -0.0081363525 4278602159
-0.019982435 -0.0058376584 -0.010246728 4278668203
-0.019062448 0.00041595288 -0.015665481 4281357689
-0.033850458 -0.019404579 -0.00046053156 4282798694
-0.032919068 -0.011571765 -0.0072045419 4279062435
-0.031411037 -0.0084128771 -0.0099756438 4278538664
-0.021941658 -0.0074150059 -0.011256374 4278734249
-0.020391688 -0.0050356332 -0.013361331 4279259549
-0.033270203 -0.010772516 -0.010325948 4278931363
-0.031559978 -0.0091669727 -0.011770278 4278735523
-0.029860742 -0.0075615942 -0.013213757 4278669989
-0.027840737 -0.0082988702 -0.012677765 4278799274
-0.026041996 -0.007474333 -0.013460783 4279127459
-0.02413277 -0.0074305441 -0.013584167 4278931618
-0.0221049 -0.0081672668 -0.013048407 4278800549
-0.020436123 -0.0065619946 -0.014489479 4279194014
-0.034536935 -0.017835885 -0.0067268852 4282798183
-0.033313904 -0.01230953 -0.011462056 4279062433
-0.031708788 -0.0099164778 -0.013561445 4278604709
-0.030120093 -0.0075237397 -0.015659656 4278735524
-0.028216273 -0.0074802954 -0.015782854 4278866083
-0.026425794 -0.0066537242 -0.016563762 4278800039
-0.02429295 -0.0081759356 -0.015371356 4278539174
-0.022149313 -0.0096977334 -0.0141796 4278669734
-0.020601973 -0.0073053427 -0.016274691 4279326103
-0.034879606 -0.017031547 -0.0098452084 4280373643
-0.033562183 -0.012275462 -0.013911736 4278931109
-0.031962477 -0.0098760501 -0.016005892 4278669479
-0.026356474 -0.0089603905 -0.017032139 4279121848
-0.024221186 -0.01048686 -0.015843164 4278800294
-0.02219373 -0.011227951 -0.015310609 4278669478
-0.02113175 -0.0056891907 -0.020023435 4279391639
-0.035321414 -0.015426193 -0.01360914 4280897923
-0.034116894 -0.0098697087 -0.018320534 4278472363
-0.030530378 -0.0082084425 -0.019876637 4279121594
-0.024381224 -0.011227366 -0.017626744 4278536879
-0.022593837 -0.010396333 -0.018404018 4278800294
-0.021418449 -0.0056295674 -0.022451032 4279850638
-0.035862155 -0.01301335 -0.01801382 4280701574
-0.034568809 -0.0082316622 -0.0220594 4278602924
-0.032678884 -0.0081887692 -0.022181872 4278406063
-0.030573815 -0.0097250398 -0.020997625 4279062434
-0.028678611 -0.0096818041 -0.021120274 4278931618
-0.026670437 -0.010427921 -0.020589871 4278866083
-0.024772696 -0.010384357 -0.020712482 4279061924
-0.022756558 -0.011130073 -0.020182433 4278996388
-0.021704875 -0.0055610426 -0.024871973 4280374153
-0.036004759 -0.013746425 -0.019793313 4280111759
-0.03461181 -0.0097436644 -0.023177017 4278734249
-0.029052999 -0.0088229086 -0.02419563 4278799019
-0.022919144 -0.011859234 -0.021957392 4278799783
-0.021748722 -0.0070665106 -0.025984678 4280439688
-0.036445186 -0.012092374 -0.02352125 4279784084
-0.034960929 -0.0088731106 -0.026245717 4278735268
-0.025323179 -0.01024602 -0.025555316 4279192994
-0.023199968 -0.011790099 -0.024378337 4278668969
-0.022155859 -0.0061907265 -0.029044837 4280766854
-0.036488079 -0.013606036 -0.024640106 4280373390
-0.035003725 -0.010378054 -0.027358117 4278473384
-0.033331834 -0.0087428931 -0.028777357 4278801059
-0.031348616 -0.0094964094 -0.028250329 4279129243
-0.029249907 -0.01104571 -0.027075298 4279063964
-0.027253259 -0.011798624 -0.026548995 4278866849
-0.025366846 -0.011755342 -0.02667089 4278735268
-0.023480531 -0.011711951 -0.026792699 4278734758
-0.022562601 -0.0053016543 -0.032095101 4280832643
-0.036630169 -0.014320903 -0.026406212 4279979158
-0.035148438 -0.011084346 -0.029117577 4279586459
-0.033270005 -0.011041714 -0.029239304 4279390363
-0.031284284 -0.011797306 -0.028714094 4279126949
-0.029073037 -0.014149173 -0.026895773 4279257764
-0.027183961 -0.01410594 -0.027017925 4279781789
-0.025179442 -0.01486079 -0.026493624 4279192739
-0.023642588 -0.012422965 -0.028554244 4279718548
-0.036375586 -0.018234042 -0.025585754 4280569738
-0.034783743 -0.015789159 -0.027645629 4279718039
-0.032999143 -0.014945725 -0.02841348 4279455898
-0.031005472 -0.015703302 -0.02789039 4278997154
-0.029006429 -0.0164607 -0.027367534 4278603944
-0.02700204 -0.017217781 -0.02684495 4278931619
-0.025223222 -0.016373992 -0.027612068 4279258019
-0.023568131 -0.014729928 -0.029023334 4278538154
-0.022770379 -0.0074845701 -0.034944382 4282145128
-0.036319509 -0.020554204 -0.026063127 4279717529
-0.034724902 -0.018102806 -0.028118325 4279848854
-0.032833155 -0.018059863 -0.028240908 4279652503
-0.030941486 -0.018016824 -0.028363416 4279389853
-0.029049903 -0.017973658 -0.02848582 4279389853
-0.027271084 -0.017127773 -0.029251458 4279586458
-0.025382388 -0.017084453 -0.029373512 4279848344
-0.023730032 -0.015436137 -0.030781329 4279391639
-0.038069867 -0.023726579 -0.025777306 4282602088
-0.036362551 -0.022073448 -0.027186112 4279521433
-0.034767911 -0.019615525 -0.029236473 4279390364
-0.032771867 -0.020377528 -0.028716858 4279521433
-0.030984797 -0.019529574 -0.029481562 4279718039
-0.029203258 -0.018681571 -0.030245852 4279718039
-0.027427241 -0.01783363 -0.031009659 4279849109
-0.025541417 -0.017790359 -0.031131517 4279718039
-0.023773741 -0.016942382 -0.031894617 4279652759
-0.038305331 -0.023635354 -0.028185653 4280832388
-0.036603481 -0.021978052 -0.029590847 4279980179
-0.034912586 -0.020320835 -0.030995281 4279324318
-0.033023868 -0.020277968 -0.031117674 4279127968
-0.031242326 -0.019427991 -0.031880423 4279783319
-0.029246643 -0.020191928 -0.031362217 4279848854
-0.02758326 -0.018534921 -0.032764487 4279914643
-0.02546975 -0.020105429 -0.031606391 4279717529
-0.024053428 -0.016834848 -0.034287188 4279587223
-0.038348198 -0.025154138 -0.02930831 4280830603
-0.036745269 -0.022683095 -0.031349618 4279848854
-0.034853902 -0.022640316 -0.031472292 4279913624
-0.033171266 -0.020978821 -0.032872882 4279847324
-0.031178437 -0.021745132 -0.032356199 4280240534
-0.029180236 -0.022511266 -0.031839751 4280306069
-0.027176686 -0.023277104 -0.031323597 4280306323
-0.025282986 -0.023233676 -0.031445976 4279848598
-0.023861114 -0.019954247 -0.034120739 4279718293
-0.036689267 -0.025006741 -0.031829573 4282274924
-0.034896877 -0.024152387 -0.032589965 4281554294
-0.033318531 -0.021675099 -0.034624711 4281358708
-0.031328637 -0.022443676 -0.034109466 4280504714
-0.029333372 -0.023212004 -0.033594482 4279715743
-0.027220316 -0.024791393 -0.032442857 4279977629
-0.025326759 -0.024747968 -0.032565229 4279980179
-0.023786902 -0.022270987 -0.034597062 4280242829
-0.03522845 -0.027051259 -0.037207574 4280113289
-0.037156422 -0.028600801 -0.038199157 4279783064
-0.041341599 -0.026902067 -0.041588273 4281356413
-0.0091422722 0.0052068923 0.0045433026 4285359658
-0.014103767 -0.0011033677 -0.007216204 4284972569
-0.015447859 0.0050794668 -0.014997824 4285361444
-0.013693199 0.0058950409 -0.015783891 4285557794
-0.012079477 0.0074821562 -0.017233934 4286081564
-0.010200646 0.0075261369 -0.017354693 4286016028
-0.0077587739 0.0044845622 -0.014819039 4285425193
0.0084900111 -0.00055342354 -0.011147916 4285491749
0.011223577 -0.0043619573 -0.0079571214 4285952278
-0.01750667 0.0042976271 -0.016657051 4285163818
-0.01601164 0.0066630356 -0.018767953 4285492514
-0.014267944 0.0074805394 -0.019551693 4285886233
-0.012394544 0.0075242966 -0.019672176 4286147864
-0.010659304 0.008341819 -0.020455211 4286344213
-0.0085074566 0.0068385303 -0.0192504 4286278678
-0.006488312 0.0061090998 -0.018708445 4285558559
-0.0043177158 0.0046064556 -0.017504688 4285493279
-0.0024341792 0.0046510063 -0.01762541 4285493278
-0.00039917976 0.003922293 -0.017084293 4285493534
0.0011780635 0.0055136457 -0.018528216 4285361444
0.0029013157 0.0063316151 -0.01930994 4286016538
0.0049385205 0.0056032613 -0.018768735 4286212123
0.0071434826 0.0041020662 -0.017566711 4286081309
0.0095243752 0.001828149 -0.015704365 4285425449
0.012425229 -0.0027641598 -0.011860814 4285294888
0.015699878 -0.0089014079 -0.0066981222 4285360169
0.01919122 -0.015810322 -0.00087773241 4287262979
-0.017932042 0.0051165186 -0.019757908 4285164074
-0.016445123 0.0074882433 -0.02186339 4285755163
-0.014709674 0.0083077475 -0.022644972 4285623074
-0.012844577 0.0083513223 -0.022764912 4285556774
-0.01097963 0.008395005 -0.02288476 4285688608
-0.0088334903 0.0068872198 -0.021682817 4285754653
-0.0068199895 0.0061555132 -0.021142162 4285689374
-0.0048012026 0.0054240432 -0.020601768 4285558303
-0.0029259622 0.0054683909 -0.020721961 4285559069
-0.0012024343 0.0062883683 -0.021502223 4285624603
0.0003612116 0.0078837723 -0.022942031 4285623583
0.0019138008 0.009479031 -0.024381116 4286148119
0.0040942207 0.0079727434 -0.023180787 4286212123
0.0066101998 0.0049162917 -0.020662146 4286343704
0.0086522996 0.0041860677 -0.020122726 4286212634
0.011203282 0.0011306293 -0.017606184 4285492258
0.014458232 -0.0050244704 -0.012455191 4285425448
0.018276446 -0.013503519 -0.0053305048 4286082328
-0.018230051 0.0051704384 -0.022188734 4285164328
-0.016748521 0.0075486153 -0.024289064 4285886743
-0.014886156 0.0075920299 -0.024408903 4285951513
-0.013294235 0.0091917217 -0.025847839 4285951004
-0.011437584 0.0092351958 -0.025967162 4285951514
-0.0094404742 0.0085008405 -0.025427137 4286018068
-0.0072947256 0.0069887601 -0.024228271 4285558303
-0.0052843094 0.00625493 -0.023688944 4285624349
-0.0032685846 0.0055213086 -0.023149891 4285558558
-0.0015505701 0.0063433461 -0.023928175 4285689628
-0.00014656782 0.0087206587 -0.026022816 4285885979
0.0015548021 0.0095424801 -0.0267999 4285491239
0.0037295148 0.0080317594 -0.025602467 4285556773
0.0060773119 0.0057438724 -0.023747779 4285754398
0.0079459772 0.0057886764 -0.0238671 4285689119
0.010485709 0.0027242564 -0.021356301 4285558048
0.013899647 -0.0042258315 -0.015560117 4285294124
-0.018654719 0.0060138404 -0.025271473 4285164584
-0.0171813 0.0083983243 -0.027366392 4285558813
-0.015327241 0.0084415413 -0.027485697 4286082584
-0.013743501 0.01004545 -0.028920913 4286016793
-0.011619516 0.0085283071 -0.027724029 4286082838
-0.0097658597 0.0085718371 -0.027843066 4285952278
-0.0076258294 0.0070553273 -0.026647096 4285558303
-0.0056210384 0.0063191801 -0.026109023 4285558558
-0.0036109611 0.0055832099 -0.025571177 4285558558
-0.0018984452 0.0064073317 -0.02634754 4285624093
-0.0004998073 0.0087910332 -0.028436935 4286214674
0.0010391921 0.010394715 -0.029868668 4286082839
0.0030459166 0.0096591152 -0.029330347 4285885723
0.005544804 0.0065848231 -0.026823534 4285951514
0.0075702295 0.0058497936 -0.026286243 4286083604
0.010271877 0.0019970499 -0.023125626 4285558048
0.013682395 -0.0049727317 -0.017343767 4285294124
-0.018952135 0.006087888 -0.027687425 4285427998
-0.017484121 0.0084788501 -0.029777175 4285559068
-0.015635639 0.0085219368 -0.02989612 4285689629
-0.013922315 0.0093475804 -0.030671343 4285689119
-0.012076825 0.0093908161 -0.030789932 4285689374
-0.0099505223 0.0078695305 -0.029596385 4285689884
-0.0079566576 0.0071308017 -0.029059261 4285624349
-0.0058115907 0.0056101363 -0.027866781 4285558559
-0.0039530769 0.0056541227 -0.02798588 4285558304
-0.0020946935 0.0056981891 -0.028104907 4285624093
-0.00039054453 0.0065243393 -0.028879005 4285820953
0.0011511892 0.008132454 -0.030307677 4286214164
0.0028413981 0.0089584887 -0.031080727 4286082328
0.0051749572 0.0066572167 -0.029234799 4286148119
0.0070297867 0.0067016855 -0.029353239 4285755418
0.0098905116 0.0020561423 -0.025545884 4285492768
0.01363568 -0.006496653 -0.018469919 4285360424
0.017613575 -0.015829423 -0.010743796 4285360423
-0.019376107 0.0069557913 -0.030752055 4285427998
-0.017657157 0.0077835247 -0.031526189 4285624859
-0.01581154 0.0078265592 -0.03164494 4285820444
-0.014101002 0.0086543113 -0.032418374 4285820444
-0.012258366 0.0086974949 -0.032536767 4285754908
-0.010275453 0.0079562701 -0.032000676 4285689629
-0.008144103 0.006430842 -0.030810611 4285624093
-0.0061478615 0.005690109 -0.03027517 4285624349
-0.0042949021 0.005733937 -0.030393928 4285558559
-0.0024420917 0.0057778805 -0.03051259 4285624093
-0.00089747459 0.0073903203 -0.031938292 4285624348
0.00079285353 0.0082184225 -0.032709815 4285623584
0.0026370287 0.0082624443 -0.032827713 4285623328
0.0049675554 0.0059545748 -0.030986434 4285623329
0.0068195537 0.0059989803 -0.031104688 4285624348
0.0096770301 0.0013403073 -0.027306808 4285493279
0.01324828 -0.006452702 -0.020900916 4285295143
-0.019419476 0.0054759532 -0.031845793 4285559069
-0.017571151 0.0055189505 -0.03196479 4285690139
-0.015987296 0.0071357824 -0.033390362 4286214163
-0.014144663 0.0071788579 -0.033508833 4286016793
-0.012439769 0.0080087781 -0.034280203 4286148884
-0.010319434 0.0064786226 -0.033092741 4285688863
-0.0084744729 0.0065220743 -0.033211127 4285623584
-0.0064838752 0.0057790726 -0.03267698 4285624093
-0.0046364814 0.0058227703 -0.032795385 4285624349
-0.0026380196 0.0050801411 -0.032261603 4285558303
-0.0010960922 0.0066968314 -0.033683855 4285689374
0.00059144944 0.0075270683 -0.034453567 4285754654
0.0022734031 0.0083572567 -0.035222866 4285820444
0.0047602654 0.0052565895 -0.0327347 4285688864
0.0066094249 0.0053009242 -0.032852776 4285558813
0.0094636828 0.00062907301 -0.029064329 4285493279
0.013031445 -0.0071858037 -0.022674367 4285426724
-0.019589521 0.0047855638 -0.033591393 4285558558
-0.01787344 0.0056175925 -0.034362108 4285558304
-0.016162917 0.0064496063 -0.035132378 4286083094
-0.014323141 0.0064925998 -0.035250686 4286017049
-0.012621041 0.0073246807 -0.036020294 4286082584
-0.010784242 0.007367827 -0.036138244 4285820188
-0.0089475773 0.0074110851 -0.036256094 4285689373
-0.006965328 0.0066656545 -0.035722993 4285624094
-0.0048293471 0.0051318277 -0.034539532 4285558558
-0.0029849485 0.0051755663 -0.034657661 4285689884
-0.0014484674 0.006796483 -0.036076333 4285689373
7.6979399e-05 0.0084172823 -0.037494268 4286214164
0.0020693615 0.0076726303 -0.036961488 4286148119
0.0043910965 0.0053514838 -0.035129335 4286280209
0.0063994527 0.0046074074 -0.034597434 4285821208
0.0090829879 0.00071065128 -0.03146797 4285558814
0.012814745 -0.007914342 -0.024444444 4285492258
-0.019886024 0.004891118 -0.035984054 4285624094
-0.018304795 0.0065165348 -0.037403118 4285821209
-0.016602512 0.0073505379 -0.038171247 4285557028
-0.014771029 0.0073933378 -0.038289014 4285491238
-0.012939673 0.0074362569 -0.038406689 4285688608
-0.011248659 0.0082703158 -0.039173853 4285688864
-0.0092773475 0.0075223856 -0.038641784 4285689628
-0.0074463934 0.0075656176 -0.038759191 4285689883
-0.0053188205 0.0060272254 -0.037578426 4285624094
-0.0033316165 0.0052799527 -0.037047096 4285624093
-0.0018005669 0.006905131 -0.038462237 4285754909
-0.00012400746 0.0077394508 -0.03922803 4286017304
0.0017062053 0.0077831373 -0.039345041 4286016794
0.0040221885 0.005455317 -0.037517365 4286082583
0.0060249344 0.0047089402 -0.036986712 4285754144
0.0088699982 1.0751188e-05 -0.033217117 4285558048
0.012428045 -0.0078478903 -0.026858814 4285360678
-0.020308815 0.0057992004 -0.039018989 4285689883
-0.018865023 0.0082222521 -0.041082967 4285952023
-0.017041713 0.0082647577 -0.041200288 4285885468
-0.01521853 0.008307375 -0.041317515 4285753888
-0.01339547 0.0083500929 -0.041434661 4285885724
-0.011712678 0.0091861263 -0.042199686 4285820953
-0.0097497217 0.0084358491 -0.04166868 4285624349
-0.0077814572 0.0076857582 -0.041137967 4285624348
-0.0058079064 0.0069358759 -0.040607456 4285624348
-0.0038290396 0.0061862618 -0.04007725 4285886744
-0.0021523908 0.0070226565 -0.040841512 4285754653
-0.00048132986 0.0078590587 -0.041605383 4285425704
0.0015025213 0.0071098097 -0.041075245 4285491239
0.003491655 0.006360814 -0.040545419 4285754144
0.0056506768 0.0048194304 -0.039369442 4285688354
0.0084898174 0.00010799244 -0.035609115 4285557793
0.012211703 -0.0085650943 -0.028620515 4285426214
-0.022059593 0.0034951512 -0.039336924 4285230629
-0.020857699 0.0075162984 -0.042691324 4285493279
-0.019166335 0.0083542764 -0.043455608 4285755163
-0.017480515 0.0091922581 -0.044219438 4286214674
-0.015665621 0.0092346519 -0.044336155 4286017049
-0.013850853 0.0092771798 -0.044452768 4286017559
-0.011756048 0.0077290274 -0.043276567 4285689884
-0.0099360831 0.0077718645 -0.043393366 4285624348
-0.0081162676 0.007814832 -0.043510061 4285624348
-0.0061483346 0.0070626512 -0.042980872 4285624603
-0.0041751117 0.0063107237 -0.042451926 4285755673
-0.0025039464 0.0071491823 -0.043214206 4286082839
-0.00052557141 0.0063975602 -0.042685457 4286016793
0.0012989715 0.0064411089 -0.042802103 4285885468
0.0032852069 0.0056898259 -0.042273663 4285951513
0.0051121637 0.0057336073 -0.042390339 4286082838
0.0081098825 0.00021420792 -0.037994556 4285688864
0.011825502 -0.0084830206 -0.031023268 4285426213
-0.022349864 0.0036232993 -0.041713342 4285031983
-0.021026812 0.0068573207 -0.044413708 4285492004
-0.019338235 0.0076974072 -0.045176201 4285426723
-0.017523356 0.007739719 -0.045292981 4285426723
-0.015843179 0.0085798763 -0.04605481 4285492258
-0.013893954 0.0078246295 -0.045526288 4285558048
-0.011939425 0.0070696771 -0.044998057 4285558814
-0.010265052 0.0079099759 -0.045759242 4285558814
-0.0085962527 0.0087502711 -0.046520043 4285558813
-0.0066366717 0.0079956912 -0.045991872 4285624348
-0.0045208894 0.0064440779 -0.044819951 4285624348
-0.0027016178 0.0064872988 -0.044936411 4285886744
-0.00088246912 0.0065306239 -0.045052785 4286214164
0.00093652308 0.0065740272 -0.045169089 4286082584
0.0029171333 0.0058204792 -0.044641949 4286148629
0.004738532 0.0058641285 -0.044758268 4285820443
0.0077302456 0.0003292989 -0.040373359 4285623583
0.011779435 -0.0099857366 -0.032133751 4285492004
0.01538118 -0.017908588 -0.025826622 4286540818
-0.02214535 0.00055987202 -0.041506387 4285557029
-0.02081674 0.0038027186 -0.044200666 4285885724
-0.019122787 0.0046451259 -0.044961881 4285885978
-0.017302603 0.0046875384 -0.045079015 4285820444
-0.015482537 0.00473007 -0.045196056 4285754908
-0.013662584 0.004772706 -0.045313008 4285623839
-0.011702798 0.0040156785 -0.044786744 4285558049
-0.010165721 0.0056579653 -0.046189617 4285492513
-0.0084942579 0.0065004453 -0.046948936 4285558303
-0.0066802576 0.0065433495 -0.047065206 4285624348
-0.0045647435 0.0049873497 -0.045896515 4285624349
-0.0027455688 0.0050305799 -0.04601296 4285492258
-0.00077028573 0.0042745341 -0.04548724 4285425959
0.0010513067 0.004317984 -0.045603722 4285491748
0.0028727502 0.0043615382 -0.045720112 4285557794
0.0046940371 0.0044051949 -0.045836411 4285623583
0.0076851845 -0.0011448991 -0.041462779 4285624094
0.011393674 -0.0098901475 -0.03452659 4285558048
0.014816619 -0.017035931 -0.028876251 4286146843
-0.020354327 -0.00086488947 -0.04270903 4285819679
