# .PCD v0.7 - Point Cloud Data file format
VERSION 0.7
FIELDS x y z rgba
SIZE 4 4 4 4
TYPE F F F U
COUNT 1 1 1 1
WIDTH 960
HEIGHT 1
VIEWPOINT 0 0 0 1 0 0 0
POINTS 960
DATA ascii
0.0097286105 0.020194111 0.0083081219 4290062623
0.011631124 0.020242048 0.0081789047 4289997344
0.014050774 0.018054044 0.010089591 4290324509
0.016836897 0.014375968 0.013358818 4289997089
0.020183697 0.0084630158 0.01866504 4289408294
0.024115644 0.0003158506 0.026006555 4289081129
-0.010746963 0.0046267025 0.020990426 4287835963
-0.0092043057 0.0069199447 0.018814648 4289408294
-0.0073987357 0.0077161957 0.01800116 4289277988
-0.005883649 0.010009015 0.015827382 4289605664
-0.0043850765 0.012301533 0.013654804 4289539873
-0.0030508935 0.015341869 0.010803433 4290128924
-0.0014374703 0.016885603 0.009313304 4289801503
0.00031822175 0.017681139 0.0085036065 4289604898
0.0020682588 0.018476652 0.0076943822 4288885544
0.0036538914 0.020020032 0.0062063243 4288623658
0.0053899512 0.020815393 0.0053981971 4289147174
0.0071203783 0.021610698 0.0045905206 4289801248
0.0091790259 0.02091063 0.0051406771 4290128158
0.011242919 0.020210797 0.0056905542 4290324254
0.013829209 0.01726857 0.0082751531 4290389533
0.017137453 0.011337126 0.013570959 4289931298
0.021022499 0.0031646993 0.020897748 4289080618
0.024786621 -0.0042588059 0.027542794 4288230194
-0.010795455 0.0030609332 0.019829875 4288229173
-0.0091158114 0.0046101455 0.018338086 4289604898
-0.0074472241 0.006159192 0.016847128 4289801503
-0.0057897083 0.0077081267 0.015356975 4290063643
-0.0041432418 0.0092568453 0.013867686 4289932063
-0.0026556551 0.011555763 0.011700828 4290194204
-0.0010340437 0.013104076 0.010213396 4289867039
0.00072973222 0.01390207 0.0094047505 4290455579
0.00233192 0.015450103 0.0079187937 4290063644
0.0040817335 0.016247919 0.0071113035 4289605664
0.005503051 0.018545674 0.0049493201 4289212964
0.007236138 0.019343263 0.0041431077 4288558633
0.0087967068 0.020890685 0.0026602298 4288754474
0.010854989 0.020188509 0.0032089259 4289146664
0.01378005 0.015738023 0.0071408618 4289604389
0.017612733 0.0075402129 0.014453305 4289146409
0.021682814 -0.0014055949 0.022438155 4288687918
0.025457002 -0.0088506322 0.029066311 4286660413
-0.010843962 0.001495447 0.01866954 4288622384
-0.0093011782 0.0038018338 0.016503522 4289539873
-0.007635314 0.0053552333 0.015015962 4289670944
-0.0058382154 0.0061557945 0.014206419 4289801503
-0.0039017014 0.0062037501 0.014074268 4289735968
-0.0022608414 0.0077568348 0.012588719 4289998108
-0.0004805997 0.0085573327 0.011780512 4290325018
0.00098764896 0.010862486 0.0096200369 4290129179
0.0027512088 0.011662746 0.0088131744 4290391573
0.0043504909 0.013215235 0.0073307063 4290129689
0.0059387013 0.0147675 0.00584911 4290064154
0.0073517486 0.017071726 0.0036926586 4289802268
0.0089150816 0.01862357 0.0022129007 4289539618
0.01097586 0.017919341 0.0027597807 4288688938
0.014075369 0.012703938 0.0073569249 4288557868
0.018087573 0.0037304293 0.015326189 4288622894
0.022342548 -0.0059930999 0.023965811 4286856763
-0.011294652 0.0021953583 0.015481243 4287511859
-0.009623196 0.0037531648 0.01399648 4288886309
-0.0078232698 0.0045558754 0.013188289 4289475359
-0.0058867335 0.0046037566 0.013056079 4289606174
-0.00395035 0.0046517178 0.01292395 4290128924
-0.0023094937 0.0062091909 0.011441659 4289409058
-0.0005292967 0.0070118774 0.010635085 4289736224
0.0012452677 0.007814521 0.0098290425 4290129179
0.0031700581 0.0078626107 0.0096980091 4289802013
0.0047775358 0.009419648 0.008218294 4290129689
0.0062126294 0.011730904 0.0060651563 4289737244
0.0077952221 0.013287498 0.0045872685 4290194968
0.0095334649 0.014089717 0.003784053 4290063389
0.011774413 0.012629459 0.0050022546 4289866783
0.014886908 0.0073991586 0.0095871836 4289997088
0.018911771 -0.0016001929 0.017536132 4289604644
-0.010081667 0.0044706091 0.010821899 4288364579
-0.0081505515 0.0045182444 0.010689983 4289737754
-0.0060774274 0.003808992 0.011232056 4289933849
-0.0041439049 0.0038569104 0.011100139 4289802268
-0.0023581535 0.0046617985 0.010294791 4289933339
-0.00042768568 0.0047098622 0.010163248 4290194713
0.0013495311 0.0055148043 0.0093586072 4289671198
0.003432706 0.0048062727 0.009900419 4289736988
0.0052041188 0.0056112856 0.0090963338 4290195480
0.0066474676 0.0079292525 0.0069475584 4290129944
0.0082382485 0.0094904881 0.0054723378 4290260504
0.0099846125 0.010295117 0.0046702083 4290063898
0.012233458 0.0088306759 0.0058846865 4289735713
0.015181415 0.0043415893 0.0097859204 4289539363
0.0188611 -0.0031713825 0.016371736 4288688938
-0.0025543645 0.0038738064 0.0084762089 4289149979
-0.00062676519 0.0039218143 0.0083448738 4289869334
0.0013006702 0.0039699152 0.0082136206 4289803034
0.003383629 0.0032592304 0.0087538473 4289541148
0.0053134337 0.0033076108 0.0086225998 4290129688
0.0070818812 0.0041148402 0.0078204181 4290195479
0.0088447183 0.004921969 0.00701873 4290063898
0.010601901 0.0057290699 0.0062175039 4290063899
0.012861386 0.0042606071 0.0074279923 4289802014
0.015475623 0.0012755841 0.0099783354 4289539618
0.018810414 -0.0047423076 0.015207535 4288231468
-0.00082571059 0.0031383745 0.0065299924 4288431133
0.0012517944 0.0024253279 0.0070688613 4289673238
0.003334567 0.0017124712 0.007607488 4289804054
0.0052642226 0.0017608516 0.0074762497 4290064918
0.0070326254 0.0025702901 0.0066757184 4289606173
0.008959204 0.0026187897 0.0065448359 4290063898
0.010719061 0.0034281611 0.0057450719 4289998108
0.012981005 0.0019553676 0.0069521982 4290129179
0.0154256 -0.00027762726 0.0088272579 4289474339
0.018759727 -0.0063129645 0.014043538 4288362283
0.021959744 -0.011586612 0.018588712 4287774254
0.0048984289 0.0017406978 0.0049942154 4290002189
0.0068223476 0.0017890669 0.0048634671 4290589709
0.0089098066 0.0010745134 0.0054003522 4290784529
0.010836065 0.0011231359 0.005269587 4290194968
0.013100483 -0.00035393238 0.0064733252 4290521879
0.015719362 -0.0033562351 0.0090104081 4289605919
0.018883623 -0.0086460784 0.013546562 4288494118
0.029136918 -0.018358061 0.021674959 4289671964
0.031320401 -0.019069316 0.022205977 4288820263
0.033509098 -0.019780394 0.022736749 4287641653
0.035702996 -0.02049122 0.023267185 4287445048
0.0083694234 0.0018260796 0.0022582579 4289215513
0.010453783 0.0011093859 0.0027938187 4290327060
0.012881584 -0.0011372082 0.0046602897 4290195223
0.01566916 -0.0049132667 0.0078565031 4289083168
0.025810473 -0.014656746 0.015971174 4289607448
0.027786821 -0.014606168 0.015837526 4289475103
0.030139238 -0.016084656 0.017032502 4289867294
0.03231144 -0.016798267 0.017562745 4290389789
0.034682415 -0.018276136 0.018756649 4290127649
0.037260309 -0.020517962 0.020613587 4289603624
0.025393635 -0.014708017 0.013470413 4290064918
0.027179092 -0.013890747 0.012674304 4290129688
0.029335029 -0.014607037 0.013203962 4289605408
0.031305395 -0.014556442 0.013070842 4289343779
0.033662558 -0.016038995 0.014262462 4290259484
0.03603033 -0.017521162 0.015453374 4290520349
0.038607694 -0.019769484 0.017305596 4288753454
0.041604415 -0.023550086 0.020480307 4289799208
0.023371264 -0.016338836 0.012432529 4289150488
0.025342189 -0.01628847 0.012299193 4289999128
0.026942343 -0.014700025 0.010843474 4290718483
0.028907388 -0.014649637 0.010710666 4290325529
0.030681506 -0.013830296 0.0099170785 4288886054
0.033030264 -0.015317386 0.011105975 4289343524
0.035389639 -0.016804099 0.012294231 4289473828
0.037958533 -0.019059155 0.01414218 4289211434
0.040543482 -0.021313721 0.015989101 4289079853
0.043757416 -0.025873302 0.019814851 4286071108
0.02117186 -0.017197961 0.010734709 4289608979
0.023140147 -0.017147735 0.010601496 4289803289
0.025108241 -0.017097421 0.010468367 4289801759
0.026890911 -0.016275849 0.0096756984 4290259483
0.028480016 -0.014683212 0.0082239807 4291175443
0.030248649 -0.013861808 0.007432403 4291175443
0.032398373 -0.014582428 0.0079593807 4290586138
0.034749366 -0.016073758 0.0091450047 4290389788
0.037508577 -0.019106369 0.011647383 4289343269
0.040289305 -0.022138312 0.014148315 4287575863
0.020589761 -0.016455006 0.0075897481 4289804309
0.022370078 -0.015631493 0.0067987312 4289998364
0.024327196 -0.015581465 0.0066663381 4289867039
0.026284084 -0.015531336 0.0065340418 4289735968
0.028240763 -0.015481126 0.0064018238 4289932574
0.030006662 -0.014657645 0.0056120269 4290586648
0.03215348 -0.015380473 0.0061376151 4290128158
0.034501523 -0.016876236 0.0073201954 4289800994
0.037456349 -0.020690627 0.010473398 4289211434
0.040236682 -0.023731291 0.012967883 4288099124
0.018404499 -0.017300133 0.0059011132 4289020183
0.02000808 -0.015698779 0.0044547003 4289803289
0.021600574 -0.014097574 0.0030090641 4289540128
0.023729026 -0.014823405 0.0035340078 4290128668
0.025677659 -0.014773479 0.003402276 4289801503
0.027813889 -0.015498988 0.0039268602 4289474594
0.029764809 -0.015448852 0.0037950855 4289474338
0.031908736 -0.016173933 0.004319245 4289800994
0.034449734 -0.018449342 0.006154472 4289800739
0.037404113 -0.022274638 0.0092996005 4289799974
0.01800549 -0.017312713 0.0034276657 4290000148
0.01960364 -0.015707109 0.0019848105 4289540894
0.02119074 -0.014101719 0.00054282509 4290587414
0.023313589 -0.014829871 0.0010665301 4291110674
0.025441669 -0.015557782 0.0015899613 4291241234
0.027762689 -0.017063182 0.0027677137 4291175445
0.029903941 -0.017790597 0.0032903682 4289866784
0.032243557 -0.019295285 0.0044669677 4289800739
0.034593821 -0.02079968 0.0056429356 4289276713
0.037550464 -0.024635782 0.0087798294 4288360754
0.017258652 -0.015755959 -0.00034697913 4289803033
0.019199505 -0.015706507 -0.0004783906 4290653203
0.020960681 -0.014876917 -0.0012632292 4289278754
0.023080625 -0.015607322 -0.00074095093 4289671199
0.025390737 -0.017117389 0.00043420307 4290848533
0.027711503 -0.018627126 0.0016087536 4291175699
0.029852577 -0.019356709 0.0021298099 4289866784
0.032385029 -0.021645492 0.0039558299 4289604388
0.035129324 -0.024713328 0.0064332206 4289211434
0.03769666 -0.027001033 0.0082570184 4286006083
0.040078826 -0.028508736 0.0094276834 4286071618
0.013157733 -0.016627137 -0.0018889774 4288758808
0.015267394 -0.01736035 -0.0013678987 4289672219
0.017208315 -0.017310971 -0.0014993697 4289671198
0.01897236 -0.016479233 -0.0022828598 4291110674
0.020371936 -0.014083087 -0.0043697665 4290783254
0.022665679 -0.015598001 -0.0031968001 4289605409
0.024785258 -0.016330533 -0.0026759971 4289801759
0.027472734 -0.019408789 -0.0002014339 4289736224
0.029610932 -0.020140676 0.00031823665 4289800994
0.032140352 -0.02243601 0.0021395683 4289800229
0.034881547 -0.025512671 0.0046107378 4285940803
0.011003494 -0.01744407 -0.0035594022 4289606683
0.01293923 -0.017395012 -0.0036906628 4289671708
0.015045978 -0.018130504 -0.0031709522 4289867804
0.016810149 -0.017296635 -0.0039529419 4289670688
0.018392086 -0.015678417 -0.0053849323 4290456089
0.020142302 -0.014844771 -0.006165809 4291044884
0.022068955 -0.014795479 -0.0062961085 4291175188
0.024364978 -0.0163146 -0.0051264679 4291044628
0.026671655 -0.017833391 -0.0039574318 4290913559
0.029179215 -0.020135902 -0.0021395441 4289473828
0.031702891 -0.022437956 -0.00032263994 4288165168
0.010787971 -0.018207308 -0.0053578215 4290194713
0.012720868 -0.018158328 -0.0054888939 4289998618
0.014824696 -0.018896015 -0.0049706372 4289539873
0.016586125 -0.018060092 -0.0057507893 4289735968
0.018165365 -0.016437594 -0.0071793618 4289539619
0.019733548 -0.014815229 -0.0086071519 4289997599
0.021654665 -0.014766091 -0.0087370845 4290128413
0.023944989 -0.016289741 -0.0075702481 4290193693
0.026245981 -0.017812992 -0.0064041121 4289800738
0.028937951 -0.020908497 -0.0039426945 4289408294
0.0078279004 -0.01506899 -0.010262829 4289803034
0.0099101514 -0.015809592 -0.0097448686 4289475358
0.011829324 -0.015760962 -0.0098750116 4289671710
0.014090426 -0.01729013 -0.0087098209 4290848533
0.016014703 -0.017241193 -0.0088401781 4291044884
0.017762311 -0.01640334 -0.0096176956 4290782744
0.019683488 -0.01635427 -0.0097476859 4289604898
0.021604493 -0.016305145 -0.0098776193 4290193438
0.023894571 -0.017833168 -0.0087140137 4290193438
0.026195325 -0.019360766 -0.0075510908 4289736224
0.029457107 -0.024830416 -0.003157068 4288557869
0.0076158717 -0.015812105 -0.012046581 4289475358
0.0096952096 -0.016554959 -0.011530047 4289475103
0.011443287 -0.015715208 -0.012306191 4289671198
0.013869673 -0.018039986 -0.010497833 4291110163
0.015617408 -0.01720006 -0.011273821 4290914069
0.017712362 -0.017942153 -0.010758067 4291371539
0.019275174 -0.016311288 -0.012178997 4290390043
0.021372482 -0.017053133 -0.011663266 4289474084
0.023659594 -0.018585529 -0.01050273 4289539108
0.026519246 -0.022489782 -0.0074080508 4289015339
0.029595837 -0.027183831 -0.0036704317 4286856764
0.0054928586 -0.016598802 -0.013697222 4289673748
0.0072412267 -0.015757069 -0.014471919 4289867038
0.0091494694 -0.015708838 -0.014601409 4290063644
0.010889336 -0.014867119 -0.015375382 4289736224
0.013136342 -0.01640534 -0.014215704 4289277989
0.01504679 -0.016356759 -0.014345126 4289343523
0.017309755 -0.017894445 -0.01318636 4290782998
0.019225284 -0.01784553 -0.013315976 4289736224
0.021322414 -0.018589579 -0.01280187 4289604644
0.023978263 -0.021712285 -0.010357555 4289473573
0.027030073 -0.02642012 -0.0066280421 4288492333
0.029734455 -0.029541411 -0.0041868798 4287249719
0.005603902 -0.018924225 -0.014187286 4289738009
0.0073549226 -0.018080207 -0.014960588 4289932064
0.0094311759 -0.018827558 -0.014447054 4290521369
0.011008322 -0.01718797 -0.015862809 4291109909
0.012916103 -0.017139532 -0.015992107 4289735969
0.01482372 -0.017091027 -0.016121341 4289147429
0.016907424 -0.017837752 -0.015608063 4289409058
0.018817417 -0.017788988 -0.015737312 4289932574
0.021272346 -0.020125788 -0.013940295 4289473828
0.023927823 -0.023257207 -0.011502431 4289539109
0.003169626 -0.018109962 -0.017118689 4289541403
0.0052351132 -0.018859919 -0.016606234 4289997853
0.006980665 -0.018013921 -0.017377514 4289801248
0.0090512782 -0.018763542 -0.016865257 4289735969
0.010623015 -0.017119786 -0.018277366 4290520859
0.012525238 -0.0170715 -0.018406296 4290978838
0.014253825 -0.016225545 -0.019176139 4290848534
0.016329207 -0.016974699 -0.018663945 4290914069
0.018588774 -0.018521039 -0.017511396 4290194203
0.021222301 -0.021661827 -0.015078597 4289081383
0.024246082 -0.026396556 -0.01136666 4286661178
0.00059780478 -0.016481668 -0.020681959 4288955158
0.0024925619 -0.01643407 -0.020810751 4289737499
0.0047068074 -0.017986618 -0.019658817 4289735969
0.0067692399 -0.018738735 -0.019147707 4289605154
0.0086716861 -0.018690661 -0.019276813 4289735969
0.01040598 -0.017842576 -0.020045567 4289605154
0.012305379 -0.01779438 -0.020174319 4289735969
0.014031202 -0.016946301 -0.020942416 4289998108
0.015927553 -0.016898006 -0.021070831 4289932829
0.018181443 -0.0184489 -0.019921102 4289866783
0.021172278 -0.023197616 -0.016216714 4288558124
-6.7688525e-05 -0.014787869 -0.024361704 4290523664
0.0018160567 -0.014740557 -0.024489757 4289409569
0.0038594082 -0.015495411 -0.023979029 4290324763
0.0060705394 -0.017052311 -0.022830063 4290913559
0.0081271827 -0.017806657 -0.022320107 4290848023
0.010189101 -0.018560773 -0.021810438 4290521113
0.01191505 -0.017710658 -0.022576956 4289409314
0.013635397 -0.016860599 -0.023343032 4289539874
0.015526213 -0.016812455 -0.02347108 4289800993
0.018131971 -0.019971427 -0.021049401 4289408294
0.021122284 -0.024733234 -0.017354708 4286922298
-0.0004241094 -0.014685678 -0.026753467 4290064663
0.0014540777 -0.014638531 -0.026881162 4289867038
0.0036514848 -0.016200162 -0.025734598 4290979094
0.0058596507 -0.017761484 -0.024588665 4290848279
0.0079133734 -0.018518085 -0.024080135 4290586393
0.0099723935 -0.019274443 -0.023571882 4291437584
0.011866137 -0.019226424 -0.023700276 4289474593
0.013759725 -0.019178301 -0.023828579 4289800993
0.015653133 -0.019130098 -0.023956807 4290062623
0.018082514 -0.02149377 -0.022177568 4289211943
-0.00047188997 -0.016188134 -0.027866982 4289344289
0.0014061779 -0.016140986 -0.027994666 4290586648
0.003443718 -0.016900364 -0.027486801 4290193949
0.0054865554 -0.017659511 -0.026979219 4289605154
0.0076997429 -0.019224964 -0.025836792 4289474339
0.0095880851 -0.019177176 -0.025964892 4290848279
0.011476278 -0.01912931 -0.026092917 4289016358
0.013537519 -0.019887626 -0.025586314 4289800738
0.015779942 -0.021451939 -0.024445649 4290062113
0.018390365 -0.024628203 -0.022037238 4286202689
-0.0044245943 -0.01697525 -0.029359296 4289807369
-0.0028518885 -0.015310352 -0.030755837 4289605408
-0.00082785636 -0.016072443 -0.030248817 4289539618
0.0012014881 -0.016834363 -0.029742055 4290782744
0.0032361224 -0.017596018 -0.029235631 4290455579
0.0052760541 -0.01835742 -0.028729476 4289081639
0.0074862391 -0.01992726 -0.02759013 4289474338
0.0093717575 -0.01987955 -0.027718041 4289539618
0.011257127 -0.019831769 -0.027845886 4289605154
0.013488613 -0.021400845 -0.026707739 4289735204
0.016258352 -0.02539473 -0.023672018 4289276713
-0.0044719949 -0.018475102 -0.030470908 4290460679
-0.0028992966 -0.016805837 -0.0318642 4288754473
-0.001029484 -0.016759038 -0.03199143 4289605154
0.00099695474 -0.017523155 -0.031486124 4290062623
0.0027097091 -0.016665116 -0.032245602 4290913559
0.0047413036 -0.017428922 -0.031740516 4290651673
0.0067781955 -0.018192558 -0.031235684 4290848279
0.0088203549 -0.018955929 -0.03073119 4290717208
0.010697462 -0.01890834 -0.030858461 4289735203
0.013266683 -0.022103274 -0.028460369 4289211688
0.016033247 -0.026108105 -0.025432514 4287903284
0.018648304 -0.029301673 -0.02303738 4286332738
-0.0042223074 -0.021601591 -0.030319631 4289346074
-0.0027954057 -0.019114513 -0.032341264 4288950823
-0.0010769814 -0.018254369 -0.03309967 4288820009
0.00079256296 -0.01820747 -0.033226799 4288623403
0.0026619807 -0.018160488 -0.033353858 4289016104
0.0043691471 -0.017300352 -0.034111291 4290062623
0.0064004064 -0.018066272 -0.033607747 4289866529
0.0084369481 -0.018831961 -0.033104487 4289997088
0.010819346 -0.021223215 -0.031341694 4289801758
0.013390891 -0.024426779 -0.028950224 4286660413
-0.0038243793 -0.025552213 -0.029544851 4289017889
-0.002238065 -0.023873953 -0.030932633 4289213473
-0.00050881505 -0.023011385 -0.031690173 4289670944
0.0010582358 -0.021333484 -0.03307648 4288820008
0.0026142821 -0.019655704 -0.034461994 4288688938
0.0041593388 -0.017978143 -0.035846643 4288492845
0.0058581457 -0.017115964 -0.036601838 4288819498
0.0080538616 -0.01869916 -0.035471171 4289539109
0.010600716 -0.021912152 -0.033084571 4289014828
-0.0054694004 -0.028745044 -0.029278724 4288561948
-0.003575258 -0.028697863 -0.029407777 4288952099
-0.0021345988 -0.026197469 -0.031420697 4289147938
-9.5017254e-05 -0.02696798 -0.030921213 4288755239
0.0013236478 -0.024467936 -0.032932486 4288493098
0.0028851554 -0.022785762 -0.034315132 4288885799
0.0044356659 -0.021103686 -0.035696968 4288885799
0.006139867 -0.020239217 -0.03645093 4288753963
0.0081733391 -0.021009378 -0.035950731 4288034099
0.011062793 -0.025865436 -0.032317407 4287771958
-0.0058082901 -0.028619345 -0.031654522 4288757279
-0.0039197095 -0.028572317 -0.031783205 4289279518
-0.0021823049 -0.027705267 -0.032538194 4288952098
1.0855496e-05 -0.02929779 -0.031414166 4288689958
0.001588814 -0.027610909 -0.032794811 4288755493
0.0031557828 -0.025924267 -0.034174606 4289278499
0.0045498237 -0.023418164 -0.036179237 4289409058
0.0060920715 -0.021731948 -0.037557211 4288754218
0.0082927123 -0.02332375 -0.036433369 4289080618
-0.0074587092 -0.031820513 -0.031394131 4290330119
-0.0058557838 -0.030129135 -0.032773517 4289541404
-0.0039673261 -0.030082146 -0.032902218 4288821538
-0.0022299811 -0.029212946 -0.033655602 4288559653
-0.00019076467 -0.029987864 -0.033159368 4288755748
0.0013844818 -0.028296717 -0.0345366 4289017379
0.0029487535 -0.026605844 -0.03591302 4288624424
0.0045020357 -0.024915071 -0.037288629 4288427563
0.0063734427 -0.024867959 -0.037415758 4288295983
0.0084119961 -0.025642404 -0.036919117 4287707189
-0.0060487427 -0.030814348 -0.034515925 4287643949
-0.0040149167 -0.031591773 -0.034021087 4288690469
-0.0021266937 -0.031544715 -0.034149718 4289017378
-0.00039222836 -0.03067337 -0.034901254 4288886309
0.0011803284 -0.028978026 -0.036275059 4288559144
0.002900973 -0.028106889 -0.037025481 4288624424
0.0046160594 -0.027235795 -0.037775457 4288231468
0.0064900815 -0.027188648 -0.037902787 4287903794
0.0083639547 -0.027141374 -0.038030013 4287379768
0.010407627 -0.02791778 -0.037535347 4286267968
-0.00406247 -0.033101276 -0.035139866 4287120179
-0.0021743625 -0.033054247 -0.035268508 4288689959
-0.00059352815 -0.031354409 -0.036639761 4288297258
0.00097635388 -0.029654844 -0.038010195 4288493609
0.0028532296 -0.029607799 -0.038137853 4288493354
0.0047299787 -0.029560685 -0.038265444 4288100653
0.0064421818 -0.028687445 -0.039013572 4287838258
0.0081487969 -0.027814191 -0.039761275 4286725693
0.00092875957 -0.031155607 -0.03912247 4287184439
0.002805531 -0.031108601 -0.039250143 4287772723
0.0046821609 -0.0310615 -0.039377742 4288099633
0.0060656071 -0.028529644 -0.041362293 4287902774
0.0024401322 -0.030948138 -0.041597858 4289211944
0.0043112412 -0.030901225 -0.041725114 4287576118
0.0056893602 -0.028363066 -0.043704443 4289668138
-0.013419282 0.001346508 0.013784586 4281689698
-0.013467412 -0.00020938367 0.012631344 4280059739
-0.012060933 0.0028759055 0.0098071471 4280847943
-0.010266457 0.0036828294 0.0090024881 4281566278
-0.0084775686 0.0044896789 0.008198332 4282939708
-0.013646688 -0.0010033138 0.010806877 4279995479
-0.012108948 0.0013290532 0.0086606257 4280782409
-0.010314539 0.0021381564 0.0078575909 4280847943
-0.008525718 0.0029471889 0.0070550647 4281567554
-0.0066004694 0.0029948205 0.0069236532 4282024259
-0.0045306459 0.0022812746 0.0074628145 4282154563
-0.0135637 -0.0033203159 0.01032551 4280779859
-0.011889391 -0.001745034 0.008853497 4280192848
-0.010226116 -0.00016996823 0.0073823556 4280195908
-0.0082954094 -0.00012229383 0.0072505008 4280457794
-0.006506823 0.00068909116 0.0064496696 4279936063
-0.0045791417 0.00073691085 0.0063181855 4280457794
-0.0029464215 0.0023116544 0.0048494544 4281371968
-0.0010245293 0.0023595672 0.0047185402 4281894974
0.001050055 0.0016442761 0.0052559935 4282744379
-0.013742864 -0.0041093044 0.0085047111 4280519249
-0.011937559 -0.0032956935 0.0077041574 4279867724
-0.010137841 -0.0024821144 0.0069040693 4280586824
-0.0082045496 -0.0024343804 0.0067720339 4280325959
-0.0064132959 -0.0016207695 0.0059727002 4280458559
-0.0044830404 -0.001572866 0.0058410559 4280195908
-0.0029949322 0.00077195466 0.0037082955 4280980288
-0.00092310458 5.4338947e-05 0.0042442605 4281046334
0.00084844232 0.00086786784 0.0034465715 4281569338
0.0029253662 0.00015059672 0.0039823502 4282156349
0.0045329109 0.0017295126 0.0025189016 4284116789
-0.013660021 -0.0064301137 0.0080205202 4279669843
-0.011852074 -0.0056142062 0.0072213747 4280390983
-0.010186076 -0.0040303338 0.0057565477 4280196164
-0.0082529299 -0.003982557 0.0056245588 4280653123
-0.0067453869 -0.0016309135 0.0034951903 4280849219
-0.0048207082 -0.0015831403 0.0033639334 4280392514
-0.0031907037 2.9802322e-07 0.0019019023 4280980033
-0.00097182393 -0.0014872681 0.0031017009 4281046334
0.00079967082 -0.00067155063 0.0023056455 4281178169
0.0025655329 0.00014413334 0.0015100539 4281309494
0.0043257922 0.00095979311 0.00071493164 4281962293
0.0060804188 0.0017754659 -7.9765916e-05 4282092343
0.00815662 0.0010562539 0.00045470335 4282679353
0.010238051 0.00033732876 0.00098885782 4283398708
-0.018971086 0.00039583445 -0.00018439069 4282745398
-0.016803037 -0.0010982808 0.0010150149 4281899818
-0.014493365 -0.0033623148 0.0028786771 4281376048
-0.012301065 -0.0048556086 0.0040765908 4281110849
-0.010234326 -0.0055782422 0.0046092607 4280653889
-0.0081622824 -0.0063006133 0.005141668 4280458813
-0.0065102018 -0.0047124941 0.0036812052 4280849984
-0.0047246888 -0.0038945191 0.0028855428 4280718913
-0.0029447675 -0.0030766018 0.0020903945 4280981309
-0.0010205433 -0.0030286107 0.0019593369 4280917049
0.00090351701 -0.0029805154 0.0018283743 4281178933
0.0026720539 -0.0021625701 0.0010342319 4281571635
0.0044349656 -0.0013446473 0.00024056248 4281571635
0.0061922669 -0.00052678213 -0.00055266172 4281962804
0.0081074685 -0.00047849491 -0.00068271905 4281962293
0.010354966 -0.0019690748 0.0005123578 4281830203
0.012951083 -0.0049981643 0.0030314885 4282286908
0.016083792 -0.010334592 0.007535724 4283265853
-0.015456684 0.00050438754 -0.002906872 4283142434
-0.013283726 -0.0009936709 -0.0017108992 4280923169
-0.010963771 -0.0032638069 0.00014740601 4281701429
-0.0086276382 -0.0055333767 0.0020046532 4281308984
-0.0064169839 -0.0070302058 0.0031983443 4280849474
-0.004628811 -0.0062100291 0.0024041645 4281176894
-0.0028462335 -0.0053898133 0.0016104225 4281177660
-0.0010692626 -0.0045696795 0.00081718154 4281307964
0.00085466355 -0.004521586 0.00068622641 4281504569
0.0026231334 -0.003701454 -0.00010628439 4281766454
0.0045440048 -0.003653219 -0.000236867 4281831479
0.0063039586 -0.0028330777 -0.0010286309 4281702449
0.0082217604 -0.0027847216 -0.0011588577 4281897523
0.010471717 -0.0042795725 3.2829121e-05 4281831223
0.013070144 -0.0073172897 0.0025453381 4282287164
0.016204983 -0.012668964 0.007038122 4283333174
-0.0071735866 -0.0047052968 -0.0012533627 4281899563
-0.0052547529 -0.0046576317 -0.0013841949 4281634363
-0.0030419603 -0.0061584935 -0.00019375794 4281569338
-0.00096821785 -0.0068847332 0.00033561885 4281570614
0.0011107996 -0.0076107811 0.00086475909 4281767219
0.0027294308 -0.0060141664 -0.00058655441 4281702194
0.004652895 -0.0059658568 -0.00071731023 4281832244
0.0062548518 -0.0043695047 -0.0021673013 4281440308
0.0083359182 -0.0050950497 -0.0016380399 4281962804
0.010754429 -0.0073680617 0.00020958483 4281832244
0.013526715 -0.01118811 0.0033743978 4282483003
0.01649756 -0.015781086 0.0071963705 4283921968
-0.0084956996 0.00074828416 -0.0083261048 4283660083
-0.0042664669 -0.001487039 -0.0066073621 4281579283
-0.0017655715 -0.0045452751 -0.0041017337 4282486574
0.0010617971 -0.009155672 -0.00028021634 4282354993
0.002990745 -0.0091073215 -0.00041141361 4281963059
0.0046037659 -0.0075063724 -0.0018590204 4280919853
0.006205745 -0.0059056655 -0.003305776 4281570614
0.0082866102 -0.0066333711 -0.0027781017 4281831733
0.010704793 -0.0089129172 -0.0009353105 4281897014
0.013645366 -0.013519815 0.0028789286 4282613563
0.016446903 -0.017349908 0.0060337353 4284512039
0.0026314333 -0.0090949647 -0.0028698258 4284518923
0.0045546368 -0.0090466375 -0.0030005425 4282617643
0.006317161 -0.0082199089 -0.0037876312 4282224178
0.0084005371 -0.0089497091 -0.0032617319 4281963313
0.010821119 -0.011235742 -0.0014239736 4282092598
0.013595179 -0.015077502 0.0017245319 4283202104
0.0011873096 -0.003609065 -0.0099079534 4284708388
0.0064284205 -0.010538234 -0.0042725084 4282621214
0.0088406876 -0.012831084 -0.0024391003 4282486573
0.010937288 -0.013562636 -0.0019156523 4282943024
-0.012077376 0.004734505 0.026183331 4282926448
-0.012257576 0.0039057676 0.024333121 4282857344
-0.015972313 -0.011288046 0.035840899 4278865574
-0.014086973 -0.0104904 0.035021536 4278405553
-0.0129801 -0.0052010249 0.030114809 4279651228
-0.018274199 -0.011446594 0.033423774 4278997154
-0.016638115 -0.0091450596 0.03124599 4278601904
-0.013286669 -0.0052936282 0.027573822 4279388323
-0.020564761 -0.011595751 0.031012574 4279258784
-0.019166779 -0.0077813342 0.027482165 4278734759
-0.01718004 -0.0077330545 0.027345909 4278603179
-0.013592996 -0.0053771716 0.025039481 4278534839
-0.022614017 -0.013246517 0.029962184 4280701064
-0.021672942 -0.0063992292 0.023730071 4278996898
-0.019937992 -0.0048405956 0.022240495 4278667693
-0.017844595 -0.0055479798 0.022782197 4279258783
-0.015619989 -0.0070103463 0.024000248 4278865828
-0.013899054 -0.0054517146 0.022511883 4278800549
-0.02335218 -0.010302527 0.024720063 4279979923
-0.018139213 -0.0056132674 0.020260496 4278401219
-0.016171969 -0.0055653043 0.020125693 4278668969
-0.014333405 -0.0047598369 0.019316124 4279128223
-0.025272235 -0.01269903 0.02435307 4279652503
-0.023974694 -0.0080918986 0.020171722 4278865064
-0.016220417 -0.0071408674 0.018957851 4279062179
-0.014510408 -0.0055736955 0.01747671 4279194268
-0.027416348 -0.013575297 0.022637704 4279783574
-0.025992777 -0.0097169532 0.019137757 4278865829
-0.022405129 -0.0073357392 0.016850119 4278536113
-0.020563617 -0.0065262113 0.016043393 4279127713
-0.018358797 -0.0080022216 0.017253006 4278865063
-0.014687285 -0.0063828658 0.015640771 4279979413
-0.028229203 -0.0098128757 0.016761465 4278735014
-0.026712537 -0.0067083463 0.013942039 4278735013
-0.024758894 -0.0066611748 0.013807824 4278800039
-0.020731758 -0.0073305741 0.014210274 4278271934
-0.016694199 -0.0079991948 0.01461233 4278340783
-0.014864035 -0.0071874037 0.013808271 4278934423
-0.030241303 -0.011432613 0.015730938 4280635274
-0.028822728 -0.0075526908 0.01224748 4278735013
-0.027095716 -0.0059727635 0.01077443 4278669989
-0.025150388 -0.005925769 0.010640804 4278473384
-0.023087796 -0.006644994 0.011176366 4279061923
-0.021139968 -0.006597694 0.011042751 4278931109
-0.019315083 -0.0057840869 0.010240503 4279061923
-0.017244663 -0.0065027513 0.010775806 4279128988
-0.032045797 -0.014589682 0.016037567 4282011764
-0.03082072 -0.0091609489 0.011224266 4278734504
-0.025541503 -0.0051769614 0.0074836444 4278668713
-0.023604609 -0.0051300563 0.0073506832 4278932128
-0.021787863 -0.0043145549 0.0065505505 4279063198
-0.019976676 -0.0034990851 0.0057508685 4279195034
-0.017920088 -0.0042202827 0.0062854886 4279195543
-0.032818493 -0.010768754 0.010201372 4279062689
-0.031293139 -0.0076381303 0.0074005947 4278535859
-0.024472613 -0.0012852866 0.001540564 4281226363
-0.034916867 -0.011602927 0.0085133575 4279653014
-0.033279594 -0.009236698 0.0063835941 4278341294
-0.031446185 -0.0084170476 0.0055851005 4278864808
-0.029727306 -0.0068243314 0.0041222684 4279651993
-0.02813115 -0.0044587143 0.0019956157 4278734249
-0.02655144 -0.002093358 -0.00012980402 4279717529
-0.036813341 -0.013983205 0.0081563834 4282142579
-0.035366587 -0.010059415 0.0047031119 4278735013
-0.029991906 -0.0068190154 0.0016504116 4279126439
-0.037545741 -0.010099534 0.0023634471 4278735268
-0.036017187 -0.0069429129 -0.00041826442 4278538918
-0.033993367 -0.0076745357 0.00011143833 4278801314
-0.039332733 -0.013250018 0.0026733801 4279914643
-0.038081404 -0.0077448208 -0.0020852406 4278997154
-0.036365092 -0.0061394181 -0.0035384838 4278669224
-0.034453023 -0.006093679 -0.0036701616 4278931873
-0.032647114 -0.0052681416 -0.0044618947 4278997664
-0.031281963 -0.0013241395 -0.0078930585 4279457429
-0.041315421 -0.014844707 0.0016589332 4281552763
-0.039949544 -0.010106044 -0.0024304911 4279456153
-0.033223242 -0.002885811 -0.0088865329 4278801314
-0.042007677 -0.010902673 -0.004094067 4279390619
-0.040375456 -0.0085042603 -0.0061994493 4278733738
-0.038564064 -0.0076746158 -0.0069885999 4278271934
-0.036758184 -0.0068449657 -0.007777269 4278993329
-0.033692755 -0.0012654532 -0.012637895 4280243338
-0.044149518 -0.010907755 -0.0064109778 4279325338
-0.04061085 -0.0084577538 -0.0086431243 4278668714
-0.038609564 -0.0091988537 -0.0081185186 4279127969
-0.037004665 -0.0067943111 -0.010216974 4279914643
-0.035519328 -0.0036037751 -0.012969712 4279325084
-0.045846127 -0.014847763 -0.005446787 4282143089
-0.044552609 -0.0092809657 -0.010163311 4278801314
-0.042744011 -0.0084472578 -0.010949196 4278473384
-0.0461514 -0.014009276 -0.0085446695 4280307089
-0.044686917 -0.010009364 -0.011942852 4279194014
-0.042788997 -0.0099644409 -0.012073912 4279063198
-0.040891126 -0.0099194134 -0.012204887 4278800549
-0.04628301 -0.014743891 -0.010329069 4280569483
-0.044731732 -0.01152628 -0.013067381 4279193503
-0.042926043 -0.010688311 -0.013849846 4278800549
-0.041031051 -0.010643348 -0.013980621 4278669734
-0.039721254 -0.00584062 -0.01801753 4279851149
-0.046241358 -0.017064631 -0.010809711 4280045713
-0.044687252 -0.013838273 -0.013541762 4279456664
-0.042694904 -0.014588582 -0.013023159 4279456663
-0.041170843 -0.011362677 -0.015752941 4279456919
-0.040058456 -0.0049567055 -0.021078853 4281358964
-0.046286322 -0.018591918 -0.011941943 4280241044
-0.04473212 -0.015356864 -0.014667533 4279194524
-0.042648043 -0.016906762 -0.013502347 4279522453
-0.041121159 -0.01367211 -0.016225867 4279784593
-0.047991119 -0.02256334 -0.011000413 4282602089
-0.046244845 -0.020918701 -0.012427066 4279652249
-0.044509493 -0.019274229 -0.013852824 4278997919
-0.042509425 -0.020028656 -0.013338026 4279325593
-0.041071597 -0.015985658 -0.016701847 4279850639
-0.046289861 -0.022447664 -0.013560541 4280045458
-0.044465438 -0.021600679 -0.014337921 4278932383
-0.042554691 -0.021555461 -0.014469873 4279129498
-0.041022152 -0.01830329 -0.017180851 4279850383
-0.048248261 -0.024021428 -0.014561525 4281814903
-0.046334863 -0.023976414 -0.014693856 4280045203
-0.044510536 -0.023127241 -0.015469601 4278605218
-0.042599946 -0.02308205 -0.01560156 4279194268
-0.041256256 -0.018213427 -0.019592386 4280373898
-0.044555627 -0.024653599 -0.016601132 4282077553
-0.042736877 -0.023802269 -0.017374789 4280962694
-0.041301273 -0.019726712 -0.020714197 4281226364
-0.044689611 -0.025371358 -0.018372787 4281291389
-0.042873677 -0.024517942 -0.019144649 4282144108
-0.041534975 -0.019623313 -0.023115771 4282013548
0.0031298995 0.00092923641 0.0057931785 4285164074
0.012831852 -0.002683118 0.0035146177 4285098794
-0.023801047 0.0049549025 -0.0063692145 4285229608
-0.022033591 0.005773671 -0.0071626501 4285426469
-0.020021006 0.0050470866 -0.0066282246 4285229354
-0.017746955 0.0027754772 -0.004767037 4284966448
-0.026088733 0.0057216045 -0.0093486253 4285426468
-0.024446536 0.0073173512 -0.010802631 4285951514
-0.022692777 0.0081379805 -0.011593495 4286213144
-0.020819299 0.008183727 -0.01172182 4286147099
-0.018561926 0.0059051942 -0.0098643396 4285885724
-0.016549788 0.0051766504 -0.0093313353 4285360679
-0.014398888 0.0036736969 -0.008137092 4285295908
-0.028359499 0.0065022055 -0.012319239 4285361444
-0.026602883 0.0073248763 -0.013108832 4285623838
-0.024851818 0.0081474986 -0.013897975 4285623073
-0.023106307 0.0089701023 -0.014686655 4285622818
-0.021241136 0.0090156477 -0.014814413 4285885468
-0.01912022 0.0075074043 -0.013621512 4285885723
-0.017119177 0.0067764018 -0.01308937 4285623328
-0.015112821 0.0060456693 -0.012557493 4285427744
-0.012828946 0.0037615988 -0.010706428 4285165349
-0.010667697 0.0022547804 -0.009515957 4284902443
-0.030278735 0.0049579982 -0.013301631 4284901934
-0.02874789 0.007341722 -0.015409078 4285558558
-0.02688254 0.0073869359 -0.015537097 4286083604
-0.025376409 0.009770358 -0.017642705 4285952023
-0.023641858 0.010594876 -0.018429009 4285688609
-0.021787718 0.010640169 -0.018556003 4285754399
-0.0195501 0.0083481539 -0.01670691 4286017558
-0.017557431 0.0076147523 -0.01617576 4285820954
-0.015559454 0.0068816114 -0.015644945 4285624348
-0.013556149 0.0061487369 -0.015114394 4285559069
-0.011547547 0.0054161046 -0.014584122 4285493279
-0.0099580623 0.0070201289 -0.016027331 4285295654
-0.0082354136 0.0078452546 -0.016812149 4285425704
-0.0060775764 0.006334316 -0.01562445 4285294378
-0.0031608194 0.00093069673 -0.011151482 4285886998
-0.030770067 0.0065862853 -0.017045202 4285295909
-0.029135883 0.0081946086 -0.018489081 4285558813
-0.027278852 0.0082396548 -0.018616505 4285755419
-0.025661193 0.0098478626 -0.020059116 4286017304
-0.023932166 0.01067443 -0.020843416 4286083093
-0.022083614 0.010719603 -0.020970011 4285951514
-0.019979574 0.0092021879 -0.019782389 4286083349
-0.01786476 0.0076851938 -0.018595466 4285689374
-0.01587243 0.0069497582 -0.01806587 4285623838
-0.01387478 0.00621452 -0.017536515 4285624604
-0.0121492 0.0070417244 -0.018320119 4285624093
-0.010570601 0.0086498465 -0.019759333 4286083604
-0.0088588968 0.0094768759 -0.020541789 4286147354
-0.0070059188 0.009523036 -0.020668032 4286081563
-0.0044052377 0.0056653172 -0.017516373 4285950494
-0.0016252026 0.0010276753 -0.013711091 4284901169
0.013207786 -0.015074318 -0.00073819421 4284903719
-0.03256911 0.0042676684 -0.017364671 4284967468
-0.031038076 0.0066643897 -0.019462544 4285427488
-0.029295225 0.007493129 -0.020246431 4285558813
-0.027441058 0.0075380858 -0.020373672 4285623329
-0.025706574 0.0083668958 -0.021156855 4285623328
-0.023855332 0.0084120091 -0.021283725 4285754654
-0.022129212 0.0092408042 -0.022066116 4285755164
-0.020153187 0.0085025821 -0.021537185 4285558303
-0.01817181 0.0077645537 -0.021008495 4285624094
-0.016318306 0.0078101736 -0.021135183 4285623838
-0.014464926 0.0078559015 -0.021261785 4285689373
-0.012611676 0.0079017375 -0.021388296 4285820444
-0.01104125 0.009514058 -0.022823749 4285819933
-0.0091937073 0.0095599722 -0.022949703 4285754143
-0.0074930899 0.010389021 -0.023729699 4285951768
-0.0052000359 0.0080861319 -0.021893427 4285951768
-0.0028908327 0.0057838205 -0.020058202 4285558048
-0.00025555491 0.0019163005 -0.016916828 4285361443
0.003037408 -0.0050815232 -0.011163628 4285229863
0.0063791797 -0.012077997 -0.0054136515 4285360934
-0.033157282 0.0067068618 -0.021746039 4285426979
-0.031639814 0.0091097374 -0.023838082 4285885978
-0.029910654 0.0099403393 -0.024619397 4285951769
-0.027953472 0.0091990139 -0.024091136 4285623328
-0.025990948 0.0084579419 -0.02356315 4285623329
-0.023900855 0.0069312993 -0.022381259 4285623839
-0.021924909 0.0061907303 -0.021853989 4285492768
-0.020071305 0.0062361415 -0.021980844 4285558558
-0.018217817 0.0062816683 -0.022107605 4285558558
-0.016497571 0.0071128774 -0.022887768 4285624094
-0.01478288 0.0079440158 -0.023667425 4285689373
-0.013073754 0.0087751243 -0.024446629 4286083349
-0.011370204 0.0096062105 -0.02522536 4285622818
-0.0095282383 0.0096519757 -0.025350943 4285491238
-0.0075396933 0.0089126658 -0.024823904 4285557284
-0.0053964257 0.0073884297 -0.023644831 4285689374
-0.0032424182 0.0058645122 -0.022466378 4285624348
-0.00076793134 0.0027709883 -0.019984638 4285493023
0.0025161356 -0.0042466298 -0.014245391 4285426723
0.0058489814 -0.011262909 -0.0085093761 4285819679
-0.034947656 0.0043934602 -0.022062384 4285295909
-0.03352771 0.0075913761 -0.024803963 4285755418
-0.031907085 0.0092123765 -0.026237316 4286017303
-0.030183449 0.010045005 -0.027016643 4286149139
-0.02823193 0.0093013849 -0.026489601 4286214928
-0.026155613 0.0077699032 -0.02531004 4285623839
-0.024068519 0.0062388238 -0.024131186 4285624093
-0.02197063 0.004708102 -0.022952933 4285558558
-0.020244777 0.0055414047 -0.023732027 4285558814
-0.018654779 0.0071624275 -0.02516263 4285558559
-0.016942766 0.0079955738 -0.025940564 4285558303
-0.015100535 0.0080410335 -0.026066396 4285623583
-0.013258442 0.0080866124 -0.026192132 4286018323
-0.011698894 0.009707367 -0.027620373 4286083094
-0.01000642 0.010540446 -0.028396662 4285885978
-0.0080262348 0.009798741 -0.027870677 4286017814
-0.0055926554 0.0066952836 -0.025392782 4286214419
-0.0032895468 0.0043797009 -0.023566825 4285623584
-0.00066065788 0.00049026497 -0.020441199 4285558048
0.0026253685 -0.006546881 -0.014716651 4285754654
-0.036949448 0.0036572646 -0.02368596 4284902188
-0.035521138 0.0068639275 -0.026421687 4285558558
-0.033789255 0.0076987352 -0.027200177 4285558049
-0.032174092 0.0093239304 -0.028629862 4285557284
-0.030455969 0.010158582 -0.029407205 4285557283
-0.028626744 0.010202942 -0.029532731 4285951768
-0.026558883 0.0086669605 -0.028355859 4285754654
-0.02448022 0.0071312767 -0.027179632 4285558303
-0.022390783 0.0055960435 -0.026004076 4285558558
-0.020545628 0.0056412462 -0.026130352 4285624349
-0.018830832 0.006476542 -0.02690693 4285558303
-0.01725458 0.0081017222 -0.028333325 4285558303
-0.01541793 0.0081470367 -0.02845878 4285623584
-0.01358141 0.0081924628 -0.028584145 4285754654
-0.012027286 0.009817386 -0.030008737 4286083348
-0.010196462 0.0098628942 -0.030133547 4286017303
-0.0080726258 0.0083293859 -0.028959692 4286214929
-0.0056394488 0.0052172132 -0.026488241 4286018068
-0.0030326322 0.0013162438 -0.023369282 4285689373
-8.931756e-05 -0.0041626915 -0.018954571 4285557283
-0.037302829 0.004555719 -0.026734991 4285295909
-0.035776883 0.0069781896 -0.028813267 4285689373
-0.034050524 0.0078150164 -0.029589705 4285886488
-0.032218546 0.0078591872 -0.029715609 4285557029
-0.030500509 0.0086960364 -0.030491311 4285557284
-0.028671425 0.0087404046 -0.03061682 4285820189
-0.026723143 0.007992452 -0.030092716 4285820443
-0.024769507 0.0072447713 -0.029568879 4285624094
-0.022810526 0.0064973142 -0.029045336 4285558558
-0.021101136 0.0073345173 -0.029820025 4285623838
-0.019527476 0.0089638364 -0.031243041 4285623839
-0.017964829 0.010593032 -0.032665268 4285689119
-0.016006295 0.0098460224 -0.032141354 4285557794
-0.013904095 0.0083072465 -0.030969465 4285557538
-0.012073271 0.0083526466 -0.031094354 4285558049
-0.010098796 0.0076063368 -0.030571301 4285623584
-0.0081190057 0.0068602692 -0.030048527 4285492768
-0.005686231 0.0037393924 -0.027583517 4285558303
-0.002775982 -0.0017557181 -0.023177974 4285558304
0.00063616037 -0.009624348 -0.016833548 4285556773
-0.039089859 0.0022434108 -0.027050886 4284966958
-0.037655815 0.0054675341 -0.029774193 4285492769
-0.036032364 0.00710137 -0.031198164 4285690139
-0.034311526 0.007940283 -0.03197265 4286083349
-0.032596208 0.0087791141 -0.032746639 4286017048
-0.03077263 0.0088232104 -0.032871872 4286017049
-0.028949127 0.0088674147 -0.032997016 4286083349
-0.027006488 0.0081171673 -0.03247413 4285689628
-0.0250585 0.0073671173 -0.031951491 4285624093
-0.023229845 0.0074117985 -0.032076728 4285624093
-0.021528699 0.0082510244 -0.032849275 4285689373
-0.019833084 0.0090901796 -0.033621315 4285952023
-0.018143039 0.00992929 -0.034392908 4286148883
-0.016187426 0.0091800261 -0.033870418 4286082839
-0.014226504 0.0084310006 -0.03334821 4285885978
-0.012119249 0.0068881083 -0.032179821 4285623583
-0.010288686 0.006933609 -0.032304611 4285624093
-0.0081653781 0.0053913835 -0.031137194 4285558813
-0.0057329983 0.0022617765 -0.028678644 4285558559
-0.0023677498 -0.0056298766 -0.022347283 4285359658
-0.039033931 -2.8900802e-05 -0.02749674 4285361188
-0.037699886 0.0040011257 -0.030861214 4285493023
-0.036076449 0.0056393277 -0.032281939 4285492514
-0.034572259 0.0080744382 -0.034348927 4285623584
-0.032751456 0.0081183519 -0.034474052 4285754908
-0.031044472 0.0089592766 -0.035245761 4285820698
-0.029226553 0.0090033617 -0.035370514 4285623584
-0.027289569 0.0082508009 -0.034848861 4285624348
-0.025347229 0.0074984562 -0.034327514 4285624093
-0.02339955 0.0067464001 -0.033806413 4285624094
-0.021828517 0.0083842333 -0.035222866 4285755164
-0.02026847 0.010021897 -0.036638491 4285886233
-0.018453877 0.010066574 -0.036762513 4285885724
-0.0166394 0.01011136 -0.036886442 4286017048
-0.014548615 0.0085636396 -0.035720296 4286280464
-0.012588009 0.0078125279 -0.035199612 4285689374
-0.010478429 0.0062654652 -0.034034528 4285689629
-0.008358106 0.0047188047 -0.032870147 4285558814
-0.0056306794 -1.1594966e-05 -0.02912931 4285492004
-0.0021117106 -0.0087209754 -0.022170154 4286146334
0.0011578798 -0.015836921 -0.016502796 4287459329
-0.038978122 -0.0023053531 -0.027945664 4285425449
-0.037538406 0.00093625486 -0.030656386 4285425448
-0.035804052 0.0017796978 -0.031428669 4285557539
-0.034291632 0.0042214803 -0.033491332 4285492258
-0.032684691 0.0058638956 -0.034907565 4285426978
-0.031088717 0.0075061265 -0.036322907 4285493023
-0.029503711 0.0091482643 -0.037737444 4285558814
-0.027572364 0.008393323 -0.037216999 4285559069
-0.025757499 0.0084375646 -0.037341371 4285558813
-0.02369364 0.0068842974 -0.036177017 4285558558
-0.022000797 0.0077276099 -0.036945723 4285821208
-0.020313486 0.0085709076 -0.037713967 4285754909
-0.018631738 0.0094142165 -0.038481791 4285491494
-0.016820118 0.0094589125 -0.038605541 4285557029
-0.014870457 0.0087051932 -0.038085774 4285688864
-0.01277462 0.0071533639 -0.036923118 4285754909
-0.010668036 0.0056019165 -0.03576111 4285689118
-0.0081117861 0.0016559567 -0.032671165 4285426213
-0.0050814115 -0.004683787 -0.027655076 4285557794
-0.0018559322 -0.011820514 -0.021999355 4286934028
-0.038622476 -0.0069906581 -0.026464406 4284900914
-0.037171766 -0.0037400592 -0.029169463 4285360424
-0.035426605 -0.0028942116 -0.029940821 4285491748
-0.034119558 0.0011571497 -0.033287089 4285557283
-0.032396313 0.0020026825 -0.034056783 4285623584
-0.030792184 0.0036494918 -0.035469502 4285295143
-0.029315326 0.0060972981 -0.037524603 4285361189
-0.027616821 0.0069425944 -0.038292326 4285493278
-0.025923856 0.0077879 -0.039059639 4285558813
-0.023862984 0.0062301718 -0.037898269 4285624604
-0.022172928 0.0070755761 -0.038665183 4285689628
-0.020358492 0.0071201194 -0.038789287 4286017814
-0.018809441 0.0087663922 -0.040197633 4285885724
-0.017136026 0.0096117128 -0.040963165 4285820188
-0.015192017 0.0088557396 -0.040444665 4286017813
-0.013242684 0.0080999862 -0.039926454 4285754908
-0.010713972 0.0041424017 -0.036842845 4285558304
-0.0077194907 -0.002215758 -0.03183727 4285492514
-0.0040858239 -0.011774285 -0.024270389 4286476558
-0.038667027 -0.0084780883 -0.027567025 4285032494
-0.036908276 -0.0076298993 -0.028337818 4285360424
-0.035155036 -0.0067817029 -0.029108129 4285491493
-0.033623476 -0.0043263473 -0.03116243 4285491749
-0.031997506 -0.0026748478 -0.032573484 4285491748
-0.030382507 -0.0010234118 -0.033983704 4285557538
-0.028894711 0.0014311634 -0.036034718 4285623329
-0.027185403 0.002278924 -0.036801621 4285558304
-0.025724988 0.0047330484 -0.038850598 4285493023
-0.023907773 0.0047774538 -0.038975045 4285492768
-0.022344921 0.0064281709 -0.040381283 4285623838
-0.020663187 0.0072756577 -0.041145928 4285885979
-0.019119568 0.0089260619 -0.042550653 4285885978
-0.017451651 0.0097734313 -0.043314185 4285952533
-0.015375279 0.0082123298 -0.042156741 4286083858
-0.013147399 0.0058487803 -0.040359944 4285558303
-0.010329556 0.00027501583 -0.036004975 4285492513
-0.0070352592 -0.0077056065 -0.029733645 4286016794
-0.038711566 -0.0099653164 -0.028669495 4285294379
-0.03705547 -0.0083090812 -0.030079633 4285359914
-0.035410337 -0.0066529568 -0.031488977 4285491494
-0.033668127 -0.0058027431 -0.03225683 4285425958
-0.031931438 -0.0049525239 -0.033024207 4285491493
-0.030086804 -0.0049079284 -0.033150889 4285491494
-0.028474618 -0.0032521673 -0.034557577 4285491494
-0.026754498 -0.0024019592 -0.035323597 4285557538
-0.025404766 0.00086438842 -0.038008187 4285557794
-0.023952547 0.0033249483 -0.040051661 4285492004
-0.022389695 0.0049799941 -0.04145468 4285426978
-0.020708032 0.0058296546 -0.042217702 4285493024
-0.019296907 0.0082895253 -0.044258133 4285689883
-0.017631788 0.0091390554 -0.045019887 4285690139
-0.015558384 0.0075734686 -0.04386545 4285624604
-0.013052251 0.0035934672 -0.040796556 4285689119
-0.0099455342 -0.003605213 -0.035176627 4285492003
-0.038656298 -0.012260485 -0.029132221 4285294123
-0.036997512 -0.010599788 -0.030539347 4285359914
-0.035244435 -0.0097472547 -0.03130642 4285425194
-0.033496864 -0.0088947294 -0.032073017 4285425958
-0.031865492 -0.0072343647 -0.033478014 4285426214
-0.030018281 -0.0071896985 -0.033604871 4285491493
-0.028171156 -0.0071449392 -0.033731651 4285491494
-0.026442945 -0.0062924158 -0.034496576 4285557284
-0.024963379 -0.0038247444 -0.036537208 4285623328
-0.023500212 -0.0013574027 -0.038576588 4285557794
-0.022053473 0.0011096951 -0.040614806 4285623583
-0.020623155 0.0035764854 -0.042651825 4285624093
-0.019209243 0.0060429461 -0.044687591 4285426979
-0.017541453 0.0068946313 -0.045447905 4285492768
-0.015603472 0.0061319713 -0.044933852 4285493024
-0.012676045 -0.00028018281 -0.039962709 4285493024
-0.0092752837 -0.0091123777 -0.033084668 4285754143
-0.035183959 -0.01203984 -0.031767748 4285294123
-0.033433747 -0.011185088 -0.032532923 4285425958
-0.031689044 -0.010330357 -0.033297628 4285426213
-0.029836547 -0.010285581 -0.033424862 4285426214
-0.02810017 -0.0094307782 -0.034188874 4285425958
-0.026369318 -0.008576028 -0.034952369 4285557284
