# .PCD v0.7 - Point Cloud Data file format
VERSION 0.7
FIELDS x y z rgba
SIZE 4 4 4 4
TYPE F F F U
COUNT 1 1 1 1
WIDTH 959
HEIGHT 1
VIEWPOINT 0 0 0 1 0 0 0
POINTS 959
DATA ascii
-0.010687795 0.012442084 0.0088548735 4288492333
-0.0089820661 0.013992326 0.0073868427 4288753708
-0.0072873496 0.015542427 0.0059195831 4288622893
-0.0057110041 0.017848006 0.0037742443 4288426543
-0.0040410571 0.019397827 0.0023085717 4288295729
-0.0022693425 0.020192081 0.001522053 4288361518
-0.00015661865 0.018720133 0.0027707685 4288884778
0.0019668899 0.017248528 0.0040189531 4289015593
0.0049480461 0.010490188 0.01001245 4289016104
0.0081018545 0.0029777382 0.016681101 4289081384
0.011689331 -0.0067989659 0.025379624 4289212453
0.014572583 -0.0120434 0.030009203 4290324764
0.016966276 -0.014266652 0.031927291 4288886053
0.018972307 -0.01422443 0.031812921 4289670688
0.020978175 -0.014182088 0.031698652 4289735714
0.0228438 -0.013384723 0.030907553 4289342759
0.024846561 -0.01334224 0.030793611 4290716188
0.026994675 -0.014054471 0.031356368 4290454048
0.029444493 -0.016275838 0.033271704 4291630873
0.031306624 -0.015478157 0.032481164 4287313978
-0.035942618 -0.0085846893 0.026265565 4286921535
-0.034155142 -0.0062703211 0.024111491 4288098868
-0.03238406 -0.0039561 0.021958414 4287968309
-0.030560285 -0.0024005976 0.020485729 4287968309
-0.028603802 -0.0023621265 0.020372171 4288099378
-0.026721904 -0.0015651416 0.019579679 4288099378
-0.024922794 -9.7882003e-06 0.018108737 4288099378
-0.023294671 0.0030621085 0.015281074 4288099378
-0.021605693 0.0053754654 0.013133321 4288230449
-0.019762205 0.0061721876 0.012343423 4288230449
-0.017924245 0.0069689211 0.011553938 4288361264
-0.016182739 0.0085237753 0.010086741 4288427053
-0.014358569 0.0093204845 0.009298237 4288426798
-0.012443565 0.00935922 0.0091878884 4288230704
-0.010528646 0.0093980599 0.0090776272 4288296239
-0.0087156631 0.010194885 0.0082900263 4288688428
-0.0070127919 0.011749538 0.0068255533 4288622638
-0.0054282472 0.014061844 0.0046846122 4288557359
-0.0037501454 0.015616247 0.0032216795 4288884269
-0.0020830706 0.017170506 0.0017595179 4288885035
-0.00019608811 0.017209476 0.0016513802 4288426798
0.0020453632 0.014975952 0.0035728998 4288427054
0.0049076602 0.0089555364 0.0088753048 4288557869
0.0083080567 -9.3568116e-05 0.016880173 4288623403
0.011520971 -0.0076264516 0.023529276 4289997599
0.01427184 -0.012128867 0.027471792 4289605408
0.016527936 -0.01360154 0.028709624 4289147683
0.018525653 -0.013559477 0.028595734 4289735968
0.020385943 -0.01276017 0.027806543 4289735714
0.022240579 -0.011960838 0.027017698 4289408549
0.02423232 -0.011918556 0.026904412 4290062879
0.026223876 -0.011876196 0.0267912 4289539364
0.028511599 -0.013347527 0.028027728 4290651164
0.029904604 -0.010277476 0.025215778 4289014828
0.030353874 -0.0026670787 0.018358208 4289477654
-0.03018436 -0.0085298959 0.023392249 4286463553
-0.02828343 -0.0077304747 0.022600185 4287313723
-0.026537001 -0.0054098163 0.020453684 4287837238
-0.024806984 -0.0030893441 0.018308241 4287837494
-0.02317334 -8.6072832e-06 0.015486747 4288099124
-0.021561578 0.0030718297 0.012666615 4288099378
-0.019630052 0.0031104274 0.012554964 4288361008
-0.017698588 0.0031491295 0.012443399 4288099378
-0.015858065 0.003948221 0.01165548 4288295728
-0.014116675 0.0055075418 0.010191675 4288230448
-0.01228996 0.0063066036 0.0094047412 4288230959
-0.010468792 0.00710571 0.0086181592 4288361774
-0.0086531714 0.0079047885 0.0078320391 4288230448
-0.0068431012 0.0087038595 0.0070463158 4288230449
-0.005038593 0.0095029417 0.0062610041 4288361264
-0.0033496246 0.011061942 0.0048006978 4288426288
-0.0015589744 0.011860969 0.0040163547 4288622638
0.00022608042 0.012659991 0.0032324083 4288492333
0.0024781302 0.010420153 0.0051484648 4288688939
0.0053507462 0.0043825414 0.010437343 4288754474
0.0087612122 -0.004692534 0.018422183 4289212198
0.011984311 -0.012246998 0.025054518 4289539873
0.014229402 -0.013724308 0.026289631 4288821028
0.016353484 -0.014441919 0.026850138 4288428584
0.018079348 -0.012881121 0.02538849 4289932573
0.020068593 -0.012839114 0.025275178 4290194204
0.021777771 -0.01127848 0.023814697 4290979349
0.023761213 -0.01123637 0.023701884 4289735713
0.025889836 -0.011953283 0.024262503 4289474084
0.027727529 -0.011151837 0.023476537 4289866784
0.028503649 -0.0050372053 0.017979722 4290325273
-0.026352415 -0.0092672752 0.021318223 4286855998
-0.024922907 -0.0038891956 0.016474612 4286922045
-0.023291931 -0.00079977699 0.01365976 4287445559
-0.021682832 0.0022893418 0.01084627 4288034608
-0.019754183 0.0023278948 0.010734798 4288100144
-0.01791369 0.0031290539 0.0099484194 4288230704
-0.015987907 0.003167782 0.0098372828 4288361263
-0.014249284 0.0047314093 0.0083768833 4288034354
-0.012232848 0.0040079225 0.0089407675 4287969074
-0.01040905 0.0048092268 0.0081557091 4288230959
-0.0084890611 0.0048483349 0.0080452748 4288230448
-0.0067780912 0.0064119324 0.0065867845 4288099633
-0.0047565922 0.0056890212 0.007150732 4288230448
-0.0029495582 0.0064904727 0.0063669942 4288295728
-0.0012607276 0.0080539044 0.0049100723 4288426799
0.0004170686 0.0096173007 0.0034538377 4288557869
0.002674263 0.0073710252 0.0053647421 4288427309
0.0054309182 0.0020779036 0.0099672694 4288623658
0.0087197348 -0.006261507 0.017259624 4289147174
0.011689603 -0.012314353 0.022530194 4289147684
0.013928995 -0.013796143 0.023762394 4288624678
0.015915707 -0.013754388 0.023649085 4288624934
0.017633379 -0.012189429 0.022191193 4289016614
0.019614324 -0.01214757 0.022078376 4289539873
0.021455169 -0.011344125 0.021293592 4290259483
0.023575649 -0.012063526 0.021853026 4290717463
0.025701381 -0.012782672 0.0224122 4291110164
0.027388185 -0.01121778 0.020956431 4291044883
0.027857654 -0.0035634004 0.01413006 4290329864
-0.021886555 0.0022763051 0.008355692 4287447089
-0.019963516 0.0023147408 0.0082445387 4287773743
-0.018040543 0.0023532901 0.0081334766 4287838768
-0.016026881 0.0016273446 0.0086957384 4288099889
-0.014194813 0.0024307612 0.007911643 4288100908
-0.012175862 0.0017051809 0.0084737893 4288100908
-0.010250483 0.0017442573 0.0083629433 4288165933
-0.0085285231 0.0033123028 0.0069070365 4288100144
-0.0068175793 0.0048802439 0.0054517761 4287969329
-0.0049034059 0.0049194768 0.0053418595 4287838003
-0.002989348 0.0049588121 0.0052320287 4288099889
-0.0013005435 0.0065266266 0.0037783608 4288099889
0.000723131 0.005801959 0.0043408424 4288165423
0.0028701536 0.0043134354 0.0055747516 4288427308
0.0057524778 -0.0017588995 0.010837207 4288427563
0.0088017434 -0.0085941572 0.016768608 4288754728
0.011521317 -0.01313656 0.020683691 4288624423
0.013628799 -0.013858963 0.02124184 4288429349
0.015478257 -0.013053477 0.020457946 4288821028
0.017187737 -0.011484317 0.019003768 4289212708
0.019023262 -0.010678956 0.018220872 4289343778
0.021132804 -0.011400804 0.018779207 4289474594
0.023675293 -0.014413157 0.021348119 4289867294
0.025803551 -0.015134409 0.021905541 4290455578
0.026753083 -0.0097479112 0.017103132 4290194714
-0.012407456 0.0016984511 0.0059899222 4287447598
-0.010586567 0.0025041308 0.0052082464 4287904814
-0.0087712184 0.003309764 0.0044270102 4288035118
-0.0069614239 0.0041153971 0.0036461819 4287838513
-0.0051571839 0.0049210396 0.0028657652 4287904049
-0.0031389296 0.0041938554 0.0034267697 4288230448
-0.0013403669 0.0049996283 0.0026468616 4288034354
0.00068311021 0.0042727701 0.0032077301 4288034608
0.0028298795 0.0027799234 0.004438445 4288362029
0.0057115965 -0.0033098646 0.0096879769 4288427563
0.0086367801 -0.009398615 0.014935125 4289147429
0.010974701 -0.011655916 0.016831968 4288428838
0.013071094 -0.012380674 0.017389096 4289869333
0.014909573 -0.011573255 0.016607512 4289148449
0.016742446 -0.010765816 0.015826274 4289671198
0.018569708 -0.0099584339 0.015045471 4290652694
0.020810671 -0.011448473 0.016271506 4290194459
0.023204833 -0.013703874 0.0181656 4289736223
0.025324725 -0.014427462 0.018721893 4289997854
0.025822558 -0.0067289621 0.011926245 4290587924
-0.0090136826 0.0033161771 0.0019536968 4287382574
-0.0072094314 0.0041238908 0.001174815 4288100908
-0.0055177473 0.0057003163 -0.0002727434 4288100654
-0.0033981428 0.0042021479 0.00095606595 4288165423
-0.001492653 0.0042414498 0.00084683299 4288100144
0.00075826421 0.0019753799 0.0027434062 4287969329
0.0031433217 -0.0010586828 0.0053076241 4288165933
0.0059119873 -0.0063973628 0.0098755155 4288362283
0.0085952878 -0.010966763 0.013773177 4288493864
0.010680716 -0.01169403 0.014329236 4288429603
0.012513824 -0.010884658 0.013549492 4290392339
0.014341336 -0.010075297 0.012770148 4289802013
0.016297493 -0.010034025 0.012658695 4290325529
0.018253483 -0.0099926461 0.012547335 4291045138
0.020488739 -0.011487103 0.013770424 4290849044
0.022734717 -0.012981292 0.014993008 4291240978
0.024410792 -0.011403614 0.013547517 4289540383
-0.0015324317 0.002717182 -0.0002826415 4287250994
0.00071817264 0.0004445985 0.0016091149 4287577648
0.0032207184 -0.003368808 0.0048336796 4287970603
0.0058709793 -0.0079521239 0.0087234769 4288101674
0.0084304884 -0.011764113 0.011944955 4288102439
0.010386962 -0.011723168 0.011833237 4288430369
0.012085781 -0.010141284 0.010389218 4289083169
0.014036503 -0.010100235 0.010277998 4289736988
0.016121283 -0.010829346 0.01083274 4289802013
0.018074423 -0.010788023 0.010721544 4289344033
0.020306706 -0.012286937 0.011941614 4289474849
0.02226495 -0.012245277 0.011830298 4289932829
0.023497552 -0.0083533004 0.0083927531 4289671710
0.0081425458 -0.011784093 0.0094552618 4287710248
0.010219399 -0.012515882 0.01000859 4289148704
0.01178677 -0.010157171 0.0079034436 4289016868
0.013731912 -0.01011623 0.0077925455 4290914068
0.015676893 -0.010075185 0.0076817386 4289932573
0.018032335 -0.012351193 0.009563338 4288623913
0.020264365 -0.013854466 0.010780184 4289213219
0.021795534 -0.011495939 0.0086774584 4290128413
0.022439964 -0.0045042988 0.002593888 4290588944
0.009926036 -0.012529207 0.007524306 4288164914
0.01161664 -0.010938832 0.0060872659 4288426033
0.013427544 -0.0101232 0.0053137094 4289605154
0.015501034 -0.010856929 0.0058659147 4290194459
0.017853431 -0.013139529 0.0077428389 4290063899
0.020082489 -0.014647216 0.0089566223 4290390553
0.021041945 -0.0091843177 0.0042101759 4290587669
0.017537907 -0.013146487 0.005264895 4289668903
0.019342832 -0.012328506 0.0044935923 4290062624
0.019862354 -0.0045207106 -0.0022225101 4289344033
0.018968001 -0.0013796296 -0.0073112212 4286725693
-0.025154429 -0.0054748952 0.012817735 4282543693
-0.023688374 -0.00083403103 0.0086716469 4281760843
-0.021925017 0.00073835254 0.0072159562 4281629773
-0.020087378 0.001543697 0.006432889 4282545223
-0.018167287 0.0015822072 0.0063220058 4283067718
-0.02527003 -0.0062607117 0.010994436 4281955663
-0.023806527 -0.0016068518 0.0068582613 4280715088
-0.021963479 -0.00079933368 0.006076416 4280323664
-0.020125939 8.1956387e-06 0.0052949805 4281303629
-0.018293926 0.00081579946 0.0045139268 4281173068
-0.01637678 0.00085436925 0.0044033043 4282283593
-0.014459714 0.00089307316 0.0042927843 4283002439
-0.025308555 -0.0078133568 0.0098437909 4281630029
-0.023844888 -0.0031464305 0.0057173092 4280388688
-0.021919524 -0.0031080581 0.0056059416 4280389198
-0.020164501 -0.0015269946 0.0041573048 4280324938
-0.018332586 -0.00071721524 0.0033778735 4280063563
-0.016415592 -0.00067864731 0.0032672584 4279998538
-0.014685318 0.00090228766 0.0018203221 4280520524
-0.012773931 0.00094098784 0.0017102119 4280846924
-0.01096141 0.0017508361 0.00093231909 4281369163
-0.0090529285 0.0017897207 0.00082255527 4281499724
-0.0072487704 0.0025996212 4.5306981e-05 4282479943
-0.0054501705 0.0034095719 -0.00073157623 4283395139
-0.025423985 -0.0085921194 0.0080257934 4281238348
-0.023883244 -0.0046857074 0.0045765806 4279931983
-0.02195804 -0.0046473388 0.0044652205 4279997518
-0.020117976 -0.0038353689 0.0036869012 4279802698
-0.018371243 -0.0022499543 0.002242025 4280064329
-0.016544942 -0.0014380328 0.0014646649 4280324938
-0.014724169 -0.00062610023 0.00068772025 4280259659
-0.012908936 0.00018585846 -8.880347e-05 4280521035
-0.010901794 -0.00054855272 0.00046763942 4280651083
-0.0090921745 0.00026352517 -0.00030838884 4280585803
-0.0071839467 0.00030255876 -0.00041802041 4281045568
-0.0053827092 0.0011147 -0.001193393 4281829184
-0.0035870261 0.0019268934 -0.0019683987 4282481473
-0.0016845651 0.0019661374 -0.0020774547 4282740553
-0.025385607 -0.010917808 0.0075431187 4280846924
-0.023842026 -0.0070004556 0.0041018315 4279997774
-0.021996552 -0.0061863456 0.0033247061 4279867724
-0.020156587 -0.0053722002 0.002548011 4279280203
-0.018322138 -0.0045580529 0.0017717145 4279737164
-0.016493216 -0.003743846 0.00099579245 4279671629
-0.014763024 -0.0021541882 -0.00044465996 4279997518
-0.01294788 -0.0013400558 -0.0012195632 4280128843
-0.011138268 -0.00052590854 -0.0019940529 4280324938
-0.0092328191 -0.00048707239 -0.0021036305 4280521288
-0.0073274598 -0.00044810586 -0.0022131037 4280391494
-0.0054221936 -0.00040903501 -0.0023224931 4280521798
-0.0036266111 0.00040535629 -0.0030958578 4280259658
-0.0017242879 0.00044461153 -0.003204897 4280520524
0.0002929382 -0.00029109977 -0.0026500775 4281370184
0.0027864426 -0.0041264575 0.00055883639 4281630283
0.0054275431 -0.0087360404 0.0044297092 4282413643
-0.025731308 -0.0093576321 0.0037358087 4280322389
-0.023959951 -0.0077634268 0.0022957455 4279343444
-0.022199556 -0.0061693136 0.00085641257 4279540303
-0.020280173 -0.0061309263 0.00074548833 4279541323
-0.018448556 -0.0053145979 -2.9053539e-05 4279477573
-0.016622452 -0.0044983011 -0.00080314651 4279475533
-0.014801875 -0.0036819912 -0.0015768278 4279866703
-0.012986828 -0.0028656945 -0.0023501171 4279540303
-0.011078708 -0.0028269142 -0.0024599284 4279736653
-0.0092720054 -0.002010515 -0.003232535 4280194123
-0.0073667988 -0.0019715615 -0.0033420082 4279999049
-0.0056752563 -0.00037766434 -0.0047765747 4280064838
-0.0037757009 -0.00033858232 -0.0048855394 4280260169
-0.0018762499 -0.00029938295 -0.0049944129 4280128843
0.00013804063 -0.001037281 -0.0044410778 4280390218
0.0025107078 -0.0041064341 -0.0019020271 4280715089
-0.018574854 -0.0060665552 -0.0018263496 4279210333
-0.016661204 -0.0060280245 -0.0019367505 4279014749
-0.014840726 -0.0052095428 -0.0027088095 4279668823
-0.013025776 -0.0043910574 -0.0034804652 4279734869
-0.011117812 -0.0043522678 -0.0035902606 4279539794
-0.0093112066 -0.003533693 -0.0043612421 4279539794
-0.0076141506 -0.0019354634 -0.0057929922 4279932748
-0.0058213584 -0.0011169501 -0.0065630171 4279867979
-0.0039246753 -0.0010778997 -0.0066717984 4279737164
-0.0019159168 -0.0018182043 -0.0061198473 4280258638
0.00021308288 -0.0033377018 -0.0049075671 4280257108
0.002470471 -0.0056361407 -0.003035509 4279993948
-0.013160489 -0.0051341821 -0.0052705863 4279145309
-0.011156905 -0.0058773588 -0.0047203954 4279668824
-0.0092491843 -0.0058384426 -0.0048300782 4279407958
-0.0073415451 -0.0057994332 -0.0049396846 4279345229
-0.0057540126 -0.0034150314 -0.0070272852 4279215688
-0.0039641447 -0.0025942884 -0.0077954428 4279215435
-0.0020677112 -0.0025551226 -0.0079041198 4279410763
-5.6538731e-05 -0.0032974239 -0.0073538292 4279930709
-0.0094907507 -0.0057951864 -0.0072761644 4278687583
-0.0076926015 -0.0049723089 -0.0080433376 4278755414
-0.0058999993 -0.0041494109 -0.0088100908 4278688348
-0.0040036105 -0.0041103885 -0.008918873 4278754649
-0.001995258 -0.0048550293 -0.0083701164 4279471708
0.019854255 -0.0079935957 -0.018528376 4284704818
0.021107711 -0.0062747374 -0.022333978 4284049469
0.023279227 -0.0078267455 -0.021148939 4284704819
-0.025923088 -0.0093401186 0.001267055 4278277798
-0.024316173 -0.006181391 -0.0014945623 4278738073
0.0067877918 -0.0086732861 -0.00061395951 4278799274
0.008710999 -0.0086329971 -0.00072374381 4279717019
0.010634072 -0.008592613 -0.00083344989 4278663103
0.012294523 -0.0069940239 -0.0022621993 4278595783
0.01447979 -0.0085115042 -0.0010525826 4281155219
-0.028033867 -0.0093515944 -0.0010838211 4278735779
-0.0264214 -0.0061841831 -0.0038393885 4279390619
-0.024751367 -0.0037993733 -0.0059326813 4278668203
-0.022851327 -0.0037614666 -0.006042555 4278800039
-0.020866472 -0.0045056529 -0.0054917522 4278541468
0.0061319508 -0.0063044112 -0.0050458107 4278864808
0.0081671365 -0.0070457496 -0.0044965474 4278667948
0.0117287 -0.0054028686 -0.0060305065 4278532288
0.014036745 -0.0077061001 -0.0041656867 4278728129
0.016360976 -0.01000891 -0.0023016576 4279842479
0.018004611 -0.0084059928 -0.0037259692 4281614984
-0.029492615 -0.016415428 0.0025095064 4282208114
-0.028219599 -0.0093159471 -0.0035396172 4278997918
-0.022889333 -0.0052797627 -0.0071677249 4278534584
-0.020904688 -0.0060261227 -0.0066185184 4279258274
-0.019002188 -0.0059879404 -0.0067283669 4279258528
-0.017009484 -0.0067339223 -0.0061793961 4279064218
-0.015104391 -0.0066954419 -0.0062892102 4278737564
0.0038213395 -0.0055203643 -0.0080391048 4279126183
0.0058455653 -0.0062642545 -0.0074908705 4278797999
0.0077494308 -0.0062243734 -0.007599555 4278732719
0.0097815543 -0.0069678407 -0.0070516514 4279455388
0.011425607 -0.0053608343 -0.0084730303 4278997154
0.015773218 -0.0084136073 -0.0060652886 4279125929
0.017684549 -0.0083730202 -0.0061739907 4279520158
0.018601574 -0.002850078 -0.010872679 4281816435
-0.029815255 -0.014816677 -0.0012708232 4279783318
-0.028478963 -0.0084845927 -0.0066467142 4278800293
-0.021027656 -0.0067597795 -0.008402463 4278798764
-0.01722848 -0.006683398 -0.0086217225 4278538409
-0.01532899 -0.006645035 -0.0087312199 4278341803
-0.013525233 -0.0058202222 -0.0094973603 4279259039
-0.01162862 -0.0057816636 -0.009606502 4279323553
-0.009833198 -0.0049567837 -0.010371989 4278867868
-0.0078356639 -0.0057041813 -0.009824493 4278608788
0.0036609992 -0.0062547456 -0.0098208692 4279126693
0.0055594034 -0.0062150881 -0.0099293254 4278601393
0.0093558282 -0.0061354451 -0.010145963 4279060138
0.011122759 -0.0053098705 -0.010908863 4279191464
0.017225482 -0.0075457059 -0.0092695812 4279521178
-0.030137459 -0.013200225 -0.0050380332 4279389853
-0.026764538 -0.0083911512 -0.0091976179 4278864809
-0.02502341 -0.0067757796 -0.010619758 4279521689
-0.023129283 -0.0067379996 -0.010729298 4279127714
-0.019341197 -0.0066620819 -0.010948097 4278799528
-0.017447243 -0.0066239461 -0.01105736 4278734503
-0.013659552 -0.0065472946 -0.011275588 4279192994
-0.011765812 -0.006508803 -0.011384569 4278536113
-0.0062981285 -0.0048159976 -0.013019986 4279783574
-0.0040825307 -0.0071418136 -0.011165157 4279063964
0.0019573122 -0.0093881954 -0.0095291408 4278934678
0.0037410222 -0.0085605122 -0.010291768 4279061923
0.0056420043 -0.008520782 -0.010400357 4279323299
0.0072917342 -0.0069052204 -0.011815717 4278469048
0.0093153007 -0.0076532047 -0.01127055 4278403004
0.015008509 -0.00753293 -0.011594801 4278861239
0.016766764 -0.0067050345 -0.012355346 4279588499
-0.032159369 -0.01397724 -0.00671623 4279390874
-0.030530248 -0.01077493 -0.0094470838 4278603943
-0.021357903 -0.0074223187 -0.012614282 4278471598
-0.01937939 -0.0081752408 -0.012069434 4279127968
-0.017485589 -0.0081371069 -0.012178687 4278669988
-0.01549904 -0.0088895625 -0.011634151 4278342569
-0.013698202 -0.0080604497 -0.012396887 4278865828
-0.0064437129 -0.005534362 -0.014790925 4279322789
-0.0043403246 -0.0070763193 -0.013593543 4278471343
0.0016825795 -0.0093295947 -0.011961416 4278931109
0.0035808161 -0.0092900358 -0.012069933 4278538154
0.0053561553 -0.0084602777 -0.012830338 4278603434
0.0071259141 -0.0076305214 -0.013590337 4278603688
0.014831193 -0.0082606412 -0.013370378 4278407083
0.016586661 -0.0074306335 -0.014129151 4280439943
-0.032265082 -0.014711943 -0.008502203 4278931618
-0.030638631 -0.011500989 -0.01122644 4278800803
-0.028886624 -0.0098769227 -0.012642913 4278736034
-0.027221974 -0.0074596908 -0.014711725 4278931108
-0.025415432 -0.0066290312 -0.015473727 4278537643
-0.023450652 -0.0073845983 -0.01492992 4278406829
-0.021395881 -0.0089330198 -0.01373381 4278931108
-0.019504901 -0.008895061 -0.013842987 4278735268
-0.017704019 -0.0080640223 -0.014604295 4278604453
-0.015723122 -0.0088187875 -0.014061064 4278538664
-0.011745196 -0.010327624 -0.012975184 4279455899
-0.010151945 -0.0079107266 -0.015039058 4278866594
-0.0084714517 -0.0062867366 -0.016450392 4278930599
-0.0065891743 -0.0062480941 -0.016558431 4279192229
0.0015253499 -0.010054452 -0.013736334 4279127458
0.0034207329 -0.010014974 -0.013844701 4278734759
0.0067093112 -0.0067667123 -0.016661974 4278407083
0.0087215975 -0.0075193066 -0.016119411 4278800548
0.010477412 -0.0066874381 -0.016876828 4278669734
0.012494881 -0.0074396916 -0.016334388 4278538154
0.014381316 -0.0073997267 -0.016441746 4279127458
0.016545735 -0.008943568 -0.015250124 4281422459
-0.032438863 -0.014646504 -0.010936659 4279783319
-0.030817809 -0.01142693 -0.013654102 4279062944
-0.029071307 -0.0097985929 -0.015067075 4278931363
-0.027412098 -0.0073749796 -0.017130679 4279062944
-0.02545293 -0.0081329644 -0.016588259 4279521944
-0.02348836 -0.0088907117 -0.016046058 4278605219
-0.021518391 -0.0096482243 -0.015504076 4278539685
-0.019804809 -0.0080199707 -0.016914647 4278735014
-0.018012198 -0.0071869139 -0.017673854 4278473384
-0.016039684 -0.0079440195 -0.017131751 4278800548
-0.010392532 -0.0078292023 -0.017456714 4278995878
-0.0086139292 -0.0069958288 -0.018214667 4278864809
-0.0049642622 -0.0061237905 -0.019079905 4279782553
-0.0030877702 -0.0060850345 -0.019187437 4278734504
-0.00098237768 -0.0076354835 -0.017996434 4278406318
0.0010165758 -0.0083909649 -0.017455049 4278800039
0.0062930696 -0.0058896299 -0.019723777 4278400964
0.0081688687 -0.0058502052 -0.019830761 4278270149
0.010044552 -0.0058106985 -0.019937679 4278734759
0.012053672 -0.006565351 -0.01939634 4278407084
0.014340654 -0.0089080604 -0.01755932 4279127969
0.016504832 -0.010456288 -0.016370937 4280177294
-0.032339893 -0.017763054 -0.01076341 4279783319
-0.030713331 -0.014534665 -0.013474703 4279259803
-0.028887842 -0.013699537 -0.014234762 4279128479
-0.027296767 -0.010471618 -0.016943825 4278407593
-0.025253328 -0.012029207 -0.015753701 4278342059
-0.023526063 -0.01039655 -0.017161993 4278604453
-0.021640783 -0.010358833 -0.017270936 4278539429
-0.019929968 -0.0087262783 -0.01867811 4279128478
-0.018230116 -0.0070937555 -0.020084586 4278866849
-0.016448563 -0.0062586386 -0.020841461 4279128223
-0.014577154 -0.0062207077 -0.020949239 4278668713
-0.012607716 -0.0069798119 -0.020408396 4278470324
-0.0051122941 -0.0068262201 -0.020838825 4278866085
-0.0032386705 -0.0067875423 -0.020946208 4278735014
-0.0012507103 -0.0075455345 -0.020405889 4278538154
0.00074260682 -0.008303361 -0.019865761 4278406064
0.0027412474 -0.0090609305 -0.019325903 4278601904
0.0043773763 -0.0074283089 -0.020727675 4279257509
0.006127838 -0.0065924283 -0.021481723 4278533563
0.0098736249 -0.0065136291 -0.021695308 4278668969
0.012013324 -0.0080669224 -0.020508911 4278735015
0.014163781 -0.0096198516 -0.019323101 4278800293
0.016324967 -0.011172418 -0.0181378 4278669479
0.01807192 -0.010335994 -0.018891189 4279653014
0.019524515 -0.0079072006 -0.020935932 4281818729
-0.033895012 -0.024125524 -0.007889891 4282732649
-0.032309208 -0.020088125 -0.011245065 4279652759
-0.030679869 -0.01685101 -0.013950076 4279325338
-0.028851759 -0.016013654 -0.014708671 4279325084
-0.027105385 -0.014376537 -0.01611504 4279259294
-0.025211994 -0.014338914 -0.016224641 4279193503
-0.023563759 -0.011902162 -0.018277759 4278538918
-0.021763058 -0.01106488 -0.019034417 4278407594
-0.020055022 -0.0094279526 -0.020438215 4278276524
-0.018268052 -0.0085906852 -0.021193884 4278735268
-0.016579196 -0.0069539603 -0.022596367 4279324828
-0.01480598 -0.0061167311 -0.023351066 4280308108
-0.012940235 -0.006078802 -0.023458432 4279260569
-0.010873038 -0.0076392833 -0.022272183 4278605474
-0.0090020075 -0.0076009911 -0.022379663 4278473384
-0.007024847 -0.0083617382 -0.021840604 4278473384
-0.0051512755 -0.0083231945 -0.021948082 4278538919
-0.0033894591 -0.0074854549 -0.022701574 4278669223
-0.0014044084 -0.008245714 -0.022162728 4278472874
0.0024618655 -0.008966649 -0.021731334 4278995369
0.0040925369 -0.0073298477 -0.023129532 4279259294
0.0059627406 -0.0072906744 -0.023236297 4278931109
0.0075768493 -0.0056539904 -0.024633378 4278405809
0.0097028166 -0.0072119981 -0.023449561 4278405808
0.011972982 -0.0095683001 -0.021621341 4278669223
0.014123186 -0.011125566 -0.020438733 4278735014
0.016006365 -0.011085591 -0.020545846 4278341549
0.017606206 -0.009448681 -0.021941721 4279061413
0.020772763 -0.0061752088 -0.024731401 4279583653
0.022788808 -0.0069334116 -0.024193278 4280568463
0.024810143 -0.0076914057 -0.023655385 4280046479
0.027147189 -0.010045461 -0.021830354 4281753959
-0.033997867 -0.024861347 -0.0096769035 4282600559
-0.032346651 -0.02161523 -0.012376817 4279521434
-0.030575749 -0.019973513 -0.013781549 4279784083
-0.028742291 -0.01913389 -0.014538847 4279587223
-0.026914326 -0.018294204 -0.015295775 4279587223
-0.02509184 -0.017454529 -0.016052237 4279193758
-0.023438154 -0.015011151 -0.01810083 4279390619
-0.021716474 -0.013369821 -0.019502273 4279325084
-0.01991865 -0.012530286 -0.020257048 4278931618
-0.018036515 -0.012492377 -0.02036562 4278341803
-0.016432077 -0.010049507 -0.022411011 4278342058
-0.014558244 -0.010011531 -0.022518929 4279390619
-0.012880459 -0.0083704479 -0.02391737 4279587224
-0.010810796 -0.0099352244 -0.022734489 4280111503
-0.0089371912 -0.0098969061 -0.022842137 4279980689
-0.0069575086 -0.010659771 -0.022304837 4278866083
-0.0051902384 -0.0098198792 -0.023057126 4278866083
-0.0034285076 -0.0089799995 -0.023809021 4278735014
-0.0015579909 -0.008941262 -0.023916135 4278669733
0.00031241402 -0.0089024315 -0.02402317 4278404788
0.0020629577 -0.0080624446 -0.024774173 4278534584
0.0094014667 -0.0071049649 -0.025843851 4279258273
0.0115325 -0.0086671114 -0.024663474 4278538409
0.013538189 -0.0094282059 -0.024126748 4278735014
0.01568801 -0.010989798 -0.022947252 4278406829
0.017140843 -0.0085480195 -0.024982439 4278469814
0.020438053 -0.0060667023 -0.027122246 4278533054
0.024464212 -0.0075875539 -0.026048798 4279653268
0.026795492 -0.0099482285 -0.024228342 4279195543
0.029458694 -0.01390895 -0.021124888 4280440708
-0.034231111 -0.023983883 -0.012751717 4281879419
-0.032520033 -0.021533536 -0.014799227 4280045714
-0.030613234 -0.021496037 -0.014909896 4279784083
-0.028779883 -0.020654239 -0.015665568 4279653013
-0.026875868 -0.02061653 -0.01577588 4279521944
-0.025208507 -0.018166475 -0.017820505 4279259803
-0.023312749 -0.018128699 -0.017930167 4279390873
-0.021669991 -0.015678903 -0.019973198 4279390873
-0.019869544 -0.014837129 -0.020726498 4279325084
-0.017984835 -0.014799159 -0.020835212 4278997153
-0.016100189 -0.014761106 -0.02094386 4278538409
-0.014215615 -0.014722924 -0.021052405 4279063198
-0.01242904 -0.013880925 -0.021804534 4279063963
-0.01064799 -0.013038963 -0.022556286 4278539174
-0.0087690912 -0.013000518 -0.022664225 4278276779
-0.0068902671 -0.012961969 -0.022772081 4278407849
-0.0051203668 -0.012119825 -0.023522962 4278997663
-0.0034675486 -0.010474331 -0.02491631 4278736288
-0.001597181 -0.010435596 -0.025023414 4278670243
3.9104372e-05 -0.0087902164 -0.026415648 4279193758
0.0017841086 -0.0079481136 -0.02716475 4278273974
0.0035235584 -0.00710609 -0.027913433 4278272188
0.0073694251 -0.0078311395 -0.027483614 4278669223
0.0092309751 -0.0077919532 -0.027589742 4278342059
0.011225715 -0.0085556265 -0.027054064 4278669223
0.013089728 -0.0085161645 -0.027160164 4278865318
0.016675845 -0.0076341201 -0.028013349 4278668203
0.018392526 -0.006791709 -0.02876009 4278668968
0.020397469 -0.0075546149 -0.028224654 4279257509
0.024575621 -0.0098823672 -0.026513841 4279128224
0.026599169 -0.010644565 -0.025979228 4278997663
0.029417038 -0.015418668 -0.022243418 4279522963
0.032588445 -0.021796718 -0.017229078 4281290624
-0.034333631 -0.024706179 -0.014528704 4281619828
-0.032557357 -0.023055816 -0.015927404 4279848599
-0.030650716 -0.02301831 -0.016038055 4280438669
-0.028817466 -0.022174334 -0.016792106 4279522454
-0.026989708 -0.021330299 -0.017545786 4279390873
-0.025246242 -0.01968009 -0.018942216 4279194268
-0.023350637 -0.019642282 -0.019051841 4279325338
-0.02162361 -0.017992079 -0.020447157 4279456409
-0.01973355 -0.017954148 -0.02055629 4279653014
-0.017664123 -0.019528165 -0.019380182 4279128734
-0.015768735 -0.019489883 -0.019489439 4278670499
-0.013968572 -0.018645588 -0.020240847 4279325338
-0.012271807 -0.016995395 -0.021633971 4279259803
-0.010485407 -0.016151128 -0.0223844 4278997663
-0.0087045208 -0.015306858 -0.023134427 4279063454
-0.0067170821 -0.016073929 -0.022600811 4278735523
-0.0050505884 -0.014423924 -0.023991803 4278669989
-0.0033950843 -0.012773987 -0.02538212 4278538664
-0.0017505623 -0.011124202 -0.02677168 4278866338
0.00011684746 -0.01108544 -0.026878547 4280767109
0.0016251728 -0.0086303279 -0.028907862 4280897923
0.0034842081 -0.0085915253 -0.029014092 4279784084
0.0052180178 -0.0077473018 -0.029760733 4278801059
0.0073297508 -0.0093187699 -0.028585881 4278604453
0.0090606101 -0.0084744245 -0.029332217 4278473384
0.010919172 -0.0084351748 -0.02943808 4278473638
0.012777612 -0.0083958581 -0.029543884 4278538664
0.018352129 -0.0082772374 -0.029860742 4278602923
0.020356894 -0.0090423338 -0.029326921 4278800293
0.022366963 -0.0098072439 -0.028793272 4278537643
0.024230018 -0.0097672269 -0.028898891 4278472618
0.026557997 -0.012141031 -0.027087949 4278997664
0.029375389 -0.016928183 -0.023361798 4279325338
0.032867149 -0.02493275 -0.017083285 4279714978
-0.032458939 -0.026195096 -0.015771002 4280504713
-0.030547004 -0.026157463 -0.015881943 4281748604
-0.028855043 -0.023694228 -0.01791849 4279850383
-0.027027387 -0.022848018 -0.018670546 4278932893
-0.025205208 -0.022001851 -0.019422164 4278998683
-0.023307035 -0.021964004 -0.019531947 4279194269
-0.021577323 -0.020309456 -0.020924155 4279783319
-0.019684691 -0.020271476 -0.021033436 4279587224
-0.017702464 -0.021041578 -0.020501696 4279325594
-0.01571485 -0.02181142 -0.019970154 4278735779
-0.014007159 -0.020156829 -0.021360729 4278932639
-0.012310434 -0.018502269 -0.022750609 4279194779
-0.010423582 -0.018463826 -0.022859126 4279325338
-0.0086400695 -0.01761733 -0.023607688 4278932128
-0.0067560934 -0.017578691 -0.023715854 4278801059
-0.0050896332 -0.015924344 -0.025103616 4278539174
-0.0033227243 -0.015077785 -0.025851 4278865828
-0.0015613474 -0.014231284 -0.026597951 4278734759
0.00031136721 -0.01419242 -0.026705131 4278865829
0.0018251725 -0.011730741 -0.028729891 4278472619
0.0035671778 -0.010884256 -0.029475521 4278669223
0.0053036436 -0.01003784 -0.030220725 4280111503
0.0071623139 -0.0099988049 -0.030326756 4279850129
0.0090208612 -0.0099596763 -0.030432709 4279063964
0.010612883 -0.0083059147 -0.031815499 4278735523
0.012465745 -0.0082666911 -0.031920966 4278473639
0.014179833 -0.0074201562 -0.03266453 4278734504
0.018167652 -0.0089555187 -0.031599078 4278272443
0.024036899 -0.010450007 -0.030640017 4278472363
0.026671819 -0.014444102 -0.027559299 4279063453
0.029649153 -0.020051066 -0.023205876 4279587478
0.032664388 -0.025657086 -0.018854581 4281225854
-0.025242977 -0.023517154 -0.020545125 4282341734
-0.023426391 -0.022668799 -0.021294709 4281096569
-0.021531139 -0.022630902 -0.021404242 4280242828
-0.01963594 -0.022592885 -0.021513684 4279849364
-0.017651197 -0.023365092 -0.02098369 4279915153
-0.015938036 -0.02170616 -0.022371439 4279456153
-0.014140785 -0.020857543 -0.0231195 4278801569
-0.012349043 -0.02000895 -0.023867102 4279325593
-0.01036185 -0.020780619 -0.023336887 4279259803
-0.0084724948 -0.020741997 -0.023445453 4278997664
-0.006583225 -0.020703256 -0.023553926 4278931873
-0.0050200075 -0.018234488 -0.025577009 4278866083
-0.0031390786 -0.018195681 -0.025684826 4278735014
-0.001486443 -0.016536996 -0.027068436 4278865828
0.00050567463 -0.017307933 -0.026537962 4279193503
0.0020249523 -0.01483957 -0.028558228 4279062434
0.0038945973 -0.014800538 -0.028665058 4279324574
0.0055141598 -0.013142154 -0.030046415 4279390364
0.0072504245 -0.012293434 -0.030789968 4278866339
0.0088507123 -0.010635241 -0.032170065 4279324063
0.010573141 -0.0097866319 -0.032912623 4279783828
0.012425892 -0.0097474121 -0.033018086 4279980433
0.014278494 -0.0097081224 -0.033123486 4278867103
0.016272299 -0.010478024 -0.032592438 4278604708
0.023996137 -0.011937372 -0.031742003 4278735779
0.026630625 -0.015942339 -0.028669335 4279063453
0.029765069 -0.022373479 -0.023691749 4281094273
-0.019760927 -0.023293242 -0.023272742 4282078064
-0.017958207 -0.022442572 -0.024019673 4280176784
-0.015976448 -0.023216965 -0.02349101 4279848853
-0.014084306 -0.023178624 -0.02359999 4278669478
-0.012289938 -0.022327779 -0.024346184 4279783574
-0.010300215 -0.023101635 -0.023817703 4279587479
-0.0085114464 -0.022250658 -0.024563394 4279390873
-0.0066223182 -0.022211909 -0.024671851 4279325084
-0.0049504824 -0.020548772 -0.026053473 4279062434
-0.0031782836 -0.019697852 -0.026797928 4278538154
-0.0014116354 -0.018846907 -0.027541962 4278865828
0.00034946203 -0.017995924 -0.028285637 4279062689
0.0022245236 -0.017956898 -0.028392863 4279062944
0.0039772652 -0.017105931 -0.029135872 4278931874
0.0057244562 -0.016254943 -0.02987846 4278866338
0.0072107837 -0.013780442 -0.031891774 4278735014
0.0089414269 -0.012929593 -0.03263326 4279324319
0.010799609 -0.012890399 -0.03273914 4279126948
0.016090885 -0.011149284 -0.034325778 4278801058
0.017943114 -0.011109835 -0.034431033 4278867358
0.019941904 -0.011881603 -0.033901736 4279063963
0.021647163 -0.011030597 -0.034641262 4278670754
0.024107516 -0.014235788 -0.032209646 4278866849
0.026899181 -0.019062761 -0.028511208 4278866593
0.030038461 -0.025511228 -0.023546845 4281553019
-0.013932984 -0.026318416 -0.02344781 4282144618
-0.012230922 -0.024650784 -0.024828289 4280571778
-0.010439448 -0.023797721 -0.025572628 4279587734
-0.0086534917 -0.022944668 -0.026316497 4279456408
-0.0066614039 -0.023720371 -0.025789633 4279391128
-0.0048810542 -0.022867223 -0.026533026 4279324319
-0.0031062253 -0.022014074 -0.027276015 4279258274
-0.0015649162 -0.019532461 -0.029288039 4279455133
0.00019339472 -0.018679414 -0.030029904 4279259294
0.0019461624 -0.017826391 -0.030771386 4279259549
0.003937684 -0.01860141 -0.030243974 4279456153
0.0056847967 -0.017748293 -0.030984975 4279194269
0.0074263588 -0.016895151 -0.031725552 4279062943
0.0090320446 -0.015228134 -0.033099562 4279128479
0.01102585 -0.016002748 -0.032571942 4278866083
0.014890943 -0.01673756 -0.032150771 4278603943
0.016474389 -0.015070588 -0.033523198 4278800549
0.018190742 -0.014217382 -0.034261897 4278341803
0.019901522 -0.013364199 -0.035000205 4278471853
0.021756083 -0.013324489 -0.035105437 4279324573
0.024066746 -0.015724961 -0.033312976 4279784339
0.027012706 -0.021378338 -0.02899183 4280832899
-0.014066514 -0.027016364 -0.025204457 4279197838
-0.010578547 -0.024489293 -0.027324133 4282405994
-0.0087953992 -0.023634141 -0.028066238 4280505989
-0.0069120079 -0.023595551 -0.028174397 4279259548
-0.0050286911 -0.02355683 -0.028282451 4279454879
-0.0032566711 -0.022701558 -0.029023658 4278799019
-0.0014901944 -0.021846309 -0.029764483 4279454623
3.7446618e-05 -0.019358367 -0.03177081 4279193759
0.0019067861 -0.019319484 -0.031877734 4279587223
0.0037760288 -0.019280508 -0.031984575 4279063199
0.0056451522 -0.019241426 -0.032091331 4279063199
0.0073866509 -0.018386133 -0.032830305 4278866848
0.0091225877 -0.017530873 -0.033568904 4279128478
0.010985944 -0.017491592 -0.033675089 4278669479
0.01312058 -0.019084057 -0.0325175 4278734758
0.014989138 -0.019044472 -0.032623842 4279193759
0.016716436 -0.018188961 -0.033361621 4278800548
0.018294312 -0.016517706 -0.034730464 4278930854
0.020154327 -0.016478 -0.034836091 4278930854
0.021864913 -0.015622571 -0.035572723 4279128224
0.024330005 -0.018845078 -0.033154313 4279259549
0.02697143 -0.022882547 -0.030106291 4282404718
-0.018072763 -0.02696716 -0.027372625 4281488249
-0.0071623549 -0.023461837 -0.03055257 4282471783
-0.0052846335 -0.023423238 -0.030660307 4281030268
-0.0031846911 -0.025021741 -0.029504683 4280965753
-0.0014155582 -0.024164287 -0.030244062 4280897924
0.00023142621 -0.022488266 -0.031614382 4280177549
0.001748126 -0.019993978 -0.033615127 4280110993
0.0036145151 -0.019955069 -0.033721812 4279587223
0.0056055412 -0.020734381 -0.033197552 4279653268
0.0074744448 -0.020695208 -0.033304226 4279653014
0.0092130266 -0.01983772 -0.03404136 4279128734
0.011078972 -0.019798402 -0.03414771 4278800803
0.012944814 -0.019758988 -0.034253977 4279259294
0.014948886 -0.020537499 -0.033730071 4279324829
0.016817197 -0.020497836 -0.033836335 4278735014
0.018541582 -0.019640155 -0.034572296 4278931619
0.020260416 -0.018782498 -0.035307869 4279718038
0.021973662 -0.01792483 -0.0360431 4279652758
0.024289161 -0.020338235 -0.034260597 4279914898
0.026930176 -0.024386588 -0.031220634 4281550468
-0.0033349805 -0.025704544 -0.031248862 4278869908
7.557869e-05 -0.023164669 -0.033353403 4281815414
0.0018281117 -0.022305153 -0.034090042 4280897669
0.0035751089 -0.021445662 -0.034826301 4279979669
0.0055659488 -0.022227168 -0.034303654 4279783574
0.0074347183 -0.022187997 -0.03441032 4279260059
0.0094335116 -0.022969121 -0.033887967 4278735523
0.011039056 -0.021289065 -0.035252206 4279129244
0.013040345 -0.02206995 -0.034729861 4279390363
0.014632065 -0.020389969 -0.036093153 4278931874
0.016494811 -0.020350425 -0.0361991 4278472618
0.018213697 -0.019490672 -0.036933199 4279652504
0.020073481 -0.019451005 -0.03703884 4278932129
0.022231489 -0.021051262 -0.035888661 4279653013
0.024400234 -0.022651145 -0.034739058 4280242573
-0.022094365 -0.028411448 -0.030649105 4281946484
-0.0054708272 -0.02559842 -0.033510625 4282274669
0.0035357289 -0.0229361 -0.035930671 4282209133
0.005277101 -0.022074455 -0.036664918 4281422713
0.0073950179 -0.023680642 -0.035516307 4280241808
0.0095237046 -0.025286525 -0.034368254 4279193504
0.011264756 -0.024424575 -0.035102252 4279587479
0.01286475 -0.022740211 -0.036462888 4278735269
0.014315497 -0.020233545 -0.03844972 4278669223
0.016172685 -0.020194132 -0.038555361 4279259549
0.018173434 -0.020976916 -0.038034387 4278932129
0.020179503 -0.021759538 -0.037513606 4279390364
0.022190884 -0.022541914 -0.036993101 4279586713
0.02420757 -0.02332407 -0.03647282 4280570759
0.0072280355 -0.02434832 -0.037248038 4282275944
0.011224769 -0.025919247 -0.036209725 4282080359
0.012960218 -0.02505517 -0.036941733 4279653013
0.014413733 -0.02254194 -0.038923893 4279915408
0.016273532 -0.022502523 -0.039029725 4279456154
0.018276826 -0.023287497 -0.038510486 4279062944
0.020285435 -0.024072189 -0.037991501 4279259294
0.022299349 -0.024856705 -0.03747277 4279390109
0.024166815 -0.024816748 -0.037578754 4281028738
-0.0076339394 -0.026975274 -0.036872026 4281356923
0.0070612021 -0.025011498 -0.038976435 4282209644
0.016233455 -0.023988441 -0.040130686 4281684598
0.01823657 -0.024775594 -0.039613053 4280504204
0.020245001 -0.025562514 -0.039095715 4279389853
0.022258759 -0.026349224 -0.0385786 4278996898
0.024277814 -0.027135735 -0.038061723 4282078319
0.0068945102 -0.025670154 -0.040701553 4281816434
0.020204619 -0.027052695 -0.04019982 4281162613
0.0068551004 -0.027155651 -0.041802254 4281619319
0.006688647 -0.027807564 -0.043522306 4282339949
0.021690711 -0.028326878 -0.04375013 4282472294
0.011679091 -0.025831837 -0.047408573 4282602343
0.021352932 -0.028142016 -0.046083957 4282078574
0.011369482 -0.025630891 -0.049732495 4282602088
0.031217538 0.0026720874 0.013526792 4285229863
0.032679133 0.004983807 0.011394424 4285361188
0.034447782 0.0057821274 0.010611074 4285884703
0.036704324 0.0043106936 0.011849796 4285884193
0.029924601 0.007189488 0.0069938023 4285558304
0.031523496 0.0087485071 0.005540058 4285951258
0.033273041 0.0095485654 0.0047594644 4286147354
0.035510279 0.0080724377 0.005996028 4286147609
0.037925392 0.0058379173 0.0079041813 4286016538
0.041036233 0.00056937337 0.012499316 4285623328
0.028425969 0.0033287648 0.0079781208 4285623074
0.029569991 0.0071756039 0.0045134779 4286018068
0.031163447 0.0087388549 0.0030633453 4285754398
0.032907486 0.0095409956 0.0022846963 4285490984
0.034810267 0.0095821861 0.0021770634 4285688098
0.037047073 0.0081018005 0.0034104977 4285819933
0.039464407 0.0058608949 0.0053137485 4285754399
0.041725285 0.004381191 0.0065459367 4285493023
0.044172123 0.0021411125 0.0084476639 4285427488
0.046457037 0.00066213124 0.0096786413 4285362209
0.048752628 -0.00081659108 0.010909112 4284966960
0.02776996 0.004839696 0.0041567739 4285558814
0.029059447 0.0079339128 0.0013703648 4286083094
0.03064473 0.0095014144 -7.6089054e-05 4285951259
0.032380544 0.010305563 -0.00085264817 4285951514
0.034603707 0.0088204462 0.00037825853 4285951513
0.036503442 0.0088616963 0.00027089193 4285951258
0.03874255 0.0073770527 0.0015010666 4285689628
0.040819816 0.0066556688 0.0020620953 4285689629
0.043077521 0.0051716603 0.0032913145 4285624604
0.044990018 0.0052135512 0.0031834953 4285624349
0.046902291 0.0052555092 0.0030757412 4285689373
0.048814341 0.0052975267 0.0029680468 4286278424
0.050726153 0.0053396411 0.0028604437 4286277914
0.053204231 0.0030941255 0.0047558602 4286212379
0.027421199 0.0048373137 0.0016846433 4285558813
0.028861448 0.0071747582 -0.00042714365 4285689118
0.03028518 0.0095119122 -0.0025378661 4285951514
0.032015488 0.010318192 -0.0033125142 4286082583
0.034068719 0.0095938053 -0.0027518934 4286148118
0.036127172 0.0088696834 -0.0021915361 4285951514
0.038021155 0.0089109298 -0.0022984892 4285689628
0.04008738 0.0081871431 -0.0017384421 4285624348
0.042158812 0.00746358 -0.0011786129 4285624094
0.044413373 0.0059751775 4.7648326e-05 4285755164
0.046136789 0.0067818966 -0.00072609819 4285754399
0.047854528 0.0075885933 -0.0014995281 4285754144
0.049566612 0.0083952118 -0.002272523 4285950239
0.051650569 0.0076723192 -0.0017131027 4286081819
0.053931192 0.0061849095 -0.00048799813 4285492003
0.057387635 0.00011016056 0.0047308784 4285295653
0.025018826 0.0055708159 -0.0013395324 4285493023
0.026459336 0.0079146866 -0.0034464868 4285623838
0.028195411 0.0087231006 -0.0042199725 4285623074
0.030084632 0.0087638628 -0.0043269405 4285622818
0.03197366 0.0088047255 -0.0044338172 4285688864
0.034190923 0.0073107351 -0.0032089986 4285689374
0.036084995 0.0073518883 -0.0033160262 4285689884
0.037639558 0.0089278352 -0.0047539799 4285624603
0.039700165 0.0082017127 -0.0041951844 4285690139
0.041941091 0.0067086611 -0.0029714638 4285623583
0.044014879 0.0059830565 -0.0024133166 4285886233
0.045552269 0.0075589139 -0.0038500149 4286017304
0.047261834 0.0083676036 -0.0046212906 4285688353
0.049151711 0.0084092598 -0.0047276402 4285491238
0.051041365 0.0084509868 -0.0048339227 4285754399
0.053313605 0.0069590993 -0.0036116121 4285754908
0.0565672 0.0016334653 0.0009307377 4285492513
0.024525605 0.0063586012 -0.0044620065 4285624094
0.025957994 0.0087088961 -0.0065636756 4286148883
0.027841836 0.0087494683 -0.0066703921 4286082583
0.029884197 0.0080203768 -0.0061125532 4286083094
0.031931825 0.00729152 -0.0055549229 4285689374
0.03382054 0.0073324759 -0.005661712 4285624093
0.035875939 0.0066039097 -0.0051043537 4285624349
0.037597373 0.0074146595 -0.0058750389 4285558814
0.039485492 0.0074558761 -0.0059815859 4285558814
0.041373417 0.0074971747 -0.0060880622 4285689374
0.043438882 0.0067691747 -0.0055310167 4285689373
0.045329086 0.0068107098 -0.0056374827 4286017304
0.047219098 0.0068522971 -0.0057438919 4286017048
0.048737019 0.0084323119 -0.0071761608 4286148884
0.050432518 0.0092430282 -0.0079449108 4286083348
0.052696392 0.0077465978 -0.0067253644 4285492513
0.056329444 0.0008675959 -0.00086886622 4285295909
0.023882225 0.0079318825 -0.008237957 4285689373
0.025610209 0.0087443497 -0.0090077678 4286345999
0.027332552 0.0095568467 -0.0097772153 4286016794
0.029366575 0.008825371 -0.0092204688 4286017303
0.031405866 0.0080941562 -0.0086639887 4286017558
0.033450395 0.0073631313 -0.0081077432 4285689119
0.035333358 0.0074040834 -0.0082141133 4285558558
0.037385657 0.0066734124 -0.0076581705 4285624349
0.039270945 0.006714588 -0.0077645453 4285689884
0.041156031 0.0067558438 -0.0078708464 4285623583
0.043040909 0.0067971647 -0.0079770815 4285689119
0.045105986 0.0060671382 -0.0074215895 4285689118
0.046810046 0.0068800636 -0.0081893187 4285886234
0.048508428 0.0076929536 -0.0089566642 4285952024
0.050389729 0.0077345315 -0.0090624513 4285689629
0.053036004 0.0046912748 -0.0065240357 4285558559
0.057061844 -0.0037494954 0.00063939579 4285427233
0.022255197 0.0048366636 -0.0079234689 4285623073
0.023540176 0.0079742912 -0.010677371 4285951514
0.025415793 0.00801461 -0.01078368 4285557283
0.027135357 0.0088291895 -0.01155131 4285556774
0.029007889 0.0088696387 -0.011657296 4285820188
0.030880235 0.0089101698 -0.01176321 4285820188
0.03275241 0.0089507941 -0.011869042 4285689374
0.034957886 0.0074436087 -0.010653168 4285623838
0.037174046 0.0059367847 -0.0094378786 4285558558
0.039056517 0.005977897 -0.0095440978 4285689884
0.040588945 0.0075665992 -0.010970891 4285755164
0.042287916 0.0083814953 -0.011736859 4286017558
0.04416161 0.0084226634 -0.011842398 4285688864
0.046218187 0.0076903161 -0.011287935 4285689118
0.047908373 0.0085052494 -0.012053242 4285689629
0.050158456 0.0069997143 -0.010839384 4285624349
0.053184114 0.0024009142 -0.0069884388 4285493278
0.057405859 -0.0068371445 0.00081638806 4285427489
0.021475777 0.0072090086 -0.012343766 4285558048
0.023048006 0.0088020917 -0.013770197 4286083094
0.02491533 0.0088422354 -0.013876029 4285885723
0.026470855 0.010435225 -0.015301392 4285622819
0.028490923 0.0096991006 -0.014747085 4285754398
0.030354992 0.0097394753 -0.014852514 4285951769
0.032382853 0.0090037491 -0.014298549 4285624093
0.03441596 0.0082682464 -0.013744799 4285623838
0.03645432 0.0075329412 -0.013191288 4285624094
0.038325794 0.0075738262 -0.013296873 4285689374
0.04019706 0.0076148044 -0.013402379 4286017814
0.041713007 0.0092075784 -0.014824946 4286082584
0.043578446 0.0092485752 -0.014930011 4286083349
0.04562667 0.0085139144 -0.014376737 4285886234
0.047680125 0.0077794511 -0.013823695 4285689373
0.050304189 0.004718231 -0.011297016 4285624604
0.053714447 -0.0014447719 -0.0061402721 4285493279
0.019706741 0.00489101 -0.012689422 4285294379
0.02099213 0.0080459435 -0.015430422 4285493023
0.022706479 0.0088646058 -0.016194711 4285689628
0.02441521 0.0096832458 -0.016958537 4286017813
0.026274085 0.0097233038 -0.017063823 4285951768
0.028291248 0.0089849923 -0.016511004 4285951768
0.030474871 0.0074684639 -0.015300487 4285820698
0.032341346 0.0075089876 -0.015405978 4285689884
0.034540921 0.0059930161 -0.014196279 4285624093
0.036243141 0.0068120454 -0.014959343 4285624094
0.037939712 0.0076310355 -0.015722021 4285754909
0.039630651 0.0084500033 -0.016484311 4285886234
0.041493453 0.0084908772 -0.016589278 4286017049
0.042995609 0.010087835 -0.018007809 4285951769
0.045035541 0.0093508158 -0.017455686 4286083094
0.047080703 0.0086139422 -0.016903758 4285623584
0.050261408 0.0032104049 -0.01241406 4285558559
0.053862177 -0.0037477631 -0.0066140257 4285427488
0.019521102 0.0041708555 -0.014458778 4285228588
0.021098927 0.0057726968 -0.01587911 4285295143
0.022815935 0.0065935776 -0.01664187 4285360934
0.02422139 0.0089759883 -0.018717719 4285426469
0.02607742 0.0090160128 -0.018822823 4285623584
0.027933277 0.0090560932 -0.018927872 4285492259
0.030111209 0.0075351465 -0.017720299 4285558559
0.031972148 0.0075755436 -0.017825484 4285624604
0.03399948 0.0068355165 -0.017274605 4285558558
0.035693467 0.0076566096 -0.018035609 4285689374
0.037553862 0.0076972451 -0.018140575 4285886743
0.039239317 0.008518273 -0.018900936 4285820443
0.04109659 0.008559024 -0.019005587 4285491238
0.04295367 0.0085998606 -0.019110164 4285491238
0.044993438 0.0078606587 -0.018559651 4285688863
0.047224045 0.0063415524 -0.01735446 4285689373
0.050406948 0.00092285126 -0.012876185 4285492768
