# .PCD v0.7 - Point Cloud Data file format
VERSION 0.7
FIELDS x y z rgba
SIZE 4 4 4 4
TYPE F F F U
COUNT 1 1 1 1
WIDTH 972
HEIGHT 1
VIEWPOINT 0 0 0 1 0 0 0
POINTS 972
DATA ascii
0.021594822 0.019186094 -0.013278989 4290062113
0.023425736 0.019232407 -0.013399422 4289800994
0.025456198 0.018501207 -0.012865983 4289735714
0.027289405 0.018547725 -0.012986455 4289408293
0.029943272 0.015484545 -0.010493015 4290324509
0.033658244 0.0085351281 -0.0047345269 4290586138
-0.036791876 -0.029997326 0.028772412 4286921788
-0.03499883 -0.028386317 0.027320804 4286594879
-0.03353025 -0.024429204 0.023894491 4286464319
-0.031981762 -0.021254668 0.02112847 4287183928
-0.030455161 -0.018080469 0.018363977 4288557359
-0.028612439 -0.017252319 0.017574942 4289342758
-0.027006034 -0.014860566 0.015470851 4290455068
-0.025297958 -0.01325083 0.014025485 4289604643
-0.023600891 -0.011641245 0.012581013 4289801503
-0.02154414 -0.012376683 0.013109071 4290913559
-0.019482072 -0.013111871 0.01363687 4290520858
-0.01754367 -0.013065331 0.013507513 4289539873
-0.015473671 -0.013800161 0.014034979 4289409313
-0.013398372 -0.01453469 0.014562143 4288559398
-0.0030969381 -0.0072222035 0.0078880507 4288299299
-0.0014858916 -0.0056133214 0.0064502596 4288624679
-0.00019831955 -0.0024429709 0.0037031998 4288230958
0.00043154508 0.0038500801 -0.0016619572 4288230959
0.0010177344 0.010142159 -0.0070241424 4288427053
0.0020533726 0.014091317 -0.010419749 4288950313
0.0035629347 0.015698139 -0.011850418 4289408038
0.0050614327 0.017304853 -0.013280299 4289539108
0.0067214295 0.018130895 -0.014055373 4289670179
0.0082005486 0.019737296 -0.015483852 4289539363
0.010024555 0.01978289 -0.015604233 4290782233
0.01184839 0.019828539 -0.015724558 4290716954
0.013672031 0.019874271 -0.015844807 4290586139
0.015867725 0.018359877 -0.014658749 4289931808
0.017885245 0.017625891 -0.014126291 4289343013
0.019908026 0.016892105 -0.013594126 4289277734
0.021158926 0.019278061 -0.015672455 4289996833
0.022984304 0.019324251 -0.01579251 4290585629
0.024809472 0.019370478 -0.015912516 4290062623
0.026836865 0.018637124 -0.015380425 4289539363
0.029279791 0.016344689 -0.013544925 4289473573
0.032362334 0.011714131 -0.0097554419 4289538599
-0.037333544 -0.027671441 0.024302172 4286463808
-0.035249025 -0.028409399 0.024826007 4286398784
-0.033367995 -0.027578585 0.024035787 4286529598
-0.031921122 -0.023610959 0.020619132 4286922299
-0.030391689 -0.020428002 0.017860917 4287903283
-0.028884143 -0.01724543 0.015104268 4289342759
-0.027283143 -0.014847236 0.013005355 4290520859
-0.025698591 -0.012449373 0.010907661 4290521114
-0.02376816 -0.012403374 0.010778578 4291175444
-0.021837838 -0.012357255 0.01064959 4290782743
-0.019655213 -0.013878493 0.011831585 4289997854
-0.017719675 -0.013832007 0.011702431 4289474594
-0.015652619 -0.01456902 0.01222845 4289670943
-0.013580237 -0.015305839 0.012754234 4288756004
6.6429377e-05 -0.0055310261 0.0038813888 4288754728
0.0011787713 -0.0015692879 0.00048865238 4288492844
0.0016173944 0.005523432 -0.0055145836 4288362029
0.0021712035 0.011832207 -0.010861604 4288753963
0.0033494383 0.015008997 -0.013594694 4289015593
0.0048452616 0.016619932 -0.015021138 4289473574
0.0065024942 0.01744809 -0.015794402 4289604643
0.0079789162 0.019058783 -0.017219458 4289604899
0.0098000988 0.019104298 -0.017339656 4290913304
0.01162111 0.019149888 -0.017459789 4290258718
0.01344192 0.019195568 -0.017579839 4290455069
0.015448608 0.018459052 -0.017048346 4290585884
0.017460547 0.017722704 -0.016517097 4289408038
0.019669212 0.016204476 -0.015335063 4289604643
0.021111712 0.017814837 -0.016757423 4289604389
0.022740074 0.01864304 -0.017528288 4290454813
0.024562426 0.01868923 -0.017648084 4290651164
0.026586987 0.017953549 -0.017117407 4290651163
0.028821804 0.016436376 -0.015936803 4290585628
0.03148286 0.01335603 -0.013456745 4290062368
0.034586407 0.008713007 -0.0096783191 4289147174
-0.035600603 -0.027636947 0.021682372 4286464063
-0.033623472 -0.02759058 0.02154961 4286594879
-0.031967696 -0.025184998 0.019451639 4287118648
-0.030438162 -0.021993322 0.016699905 4288231214
-0.029043045 -0.018015787 0.013295 4288950569
-0.027559988 -0.014824966 0.010546563 4289604899
-0.025980834 -0.012420649 0.0084540565 4289932063
-0.024055999 -0.012374786 0.008325344 4290193948
-0.022007842 -0.013114781 0.0088507384 4289801758
-0.019828208 -0.014640474 0.010029742 4289670689
-0.017895546 -0.014594053 0.009900786 4289670944
-0.015963018 -0.014547539 0.0097719077 4289343524
-0.013761986 -0.016072322 0.010949707 4289409824
-0.011824265 -0.016025452 0.010820655 4289542934
0.00017481297 -0.0078423386 0.0034014829 4288821028
0.0016077161 -0.0054399297 0.0013200031 4288623913
0.0022165105 0.00088750012 -0.0040177843 4288230958
0.0026173815 0.0079989601 -0.010003883 4288230958
0.003303051 0.013539452 -0.014684439 4288688939
0.0046292245 0.015939604 -0.016758565 4289408038
0.0062836856 0.016769927 -0.017530061 4289539363
0.0077574402 0.018384837 -0.018951677 4290062879
0.0095757991 0.018430281 -0.019071691 4289146664
0.011213429 0.019260388 -0.019841848 4288688683
0.01321198 0.018521409 -0.019311501 4288754474
0.015029781 0.018567104 -0.019431282 4289735203
0.017036118 0.017828476 -0.018901329 4289735203
0.019047685 0.017090078 -0.018371653 4289735204
0.020676218 0.017920349 -0.019140914 4289342759
0.022496 0.017966364 -0.019260624 4289146409
0.024116002 0.018796567 -0.020029219 4289473318
0.026337214 0.017274607 -0.018851029 4290062369
0.028569117 0.01575293 -0.017673453 4289866274
0.030603938 0.015015543 -0.017144989 4288884778
0.032644004 0.014278345 -0.016616831 4288885544
0.036181286 0.0080549903 -0.011552352 4288754729
-0.035850212 -0.027639871 0.019202527 4286529344
-0.033565771 -0.029959491 0.021031203 4286725694
-0.031800218 -0.028335813 0.019591348 4288296238
-0.030265134 -0.025135309 0.016845716 4287969328
-0.028976873 -0.020358369 0.012795394 4287838769
-0.027606182 -0.016370419 0.0094003119 4289211943
-0.026026975 -0.013959573 0.0073126596 4289670178
-0.023981653 -0.014701926 0.0078365374 4289605154
-0.022054352 -0.014655876 0.0077077565 4289408803
-0.020127166 -0.01460971 0.0075790719 4289670689
-0.0184577 -0.012987378 0.0061464212 4290455833
-0.016536202 -0.012941112 0.0060182926 4289867038
-0.014480572 -0.013682636 0.0065419176 4289867804
-0.012419645 -0.014423911 0.0070652799 4290522643
0.0018775091 -0.0085360529 0.0014917632 4288625444
0.0028150827 -0.0037655663 -0.0025336922 4288558379
0.0032273307 0.0033657458 -0.0085059777 4288231469
0.0037573576 0.0097088404 -0.013825443 4288492844
0.0045829341 0.014476847 -0.017843269 4288492588
0.005720377 0.017670199 -0.020560581 4289211943
0.007186003 0.019289318 -0.021978453 4290258719
0.0088183209 0.020121377 -0.022746708 4290127904
0.010806017 0.01937988 -0.022217315 4289735459
0.01298216 0.017851856 -0.021039745 4289669923
0.014983073 0.017110851 -0.020511106 4290389533
0.016989239 0.016370054 -0.019982753 4289669923
0.018809296 0.016415946 -0.020102581 4289604389
0.020629168 0.01646189 -0.020222353 4289669668
0.022252068 0.017294273 -0.020989565 4289408038
0.024068832 0.017340302 -0.021109011 4289342504
0.026289821 0.015813988 -0.019934045 4289211944
0.028316572 0.015074085 -0.019406695 4289408295
0.029933251 0.015906628 -0.020173339 4289015594
0.031333953 0.017525025 -0.021586178 4289015849
0.034002021 0.014427584 -0.01911944 4289408038
0.0382021 0.005829677 -0.012130048 4289276714
-0.03382092 -0.029960075 0.018553492 4287379768
-0.031846907 -0.029913647 0.018421041 4287837749
-0.030311726 -0.026704434 0.01568188 4286856763
-0.029023226 -0.021914445 0.011641251 4287118903
-0.02753723 -0.018706147 0.008905571 4288427309
-0.026073113 -0.015498234 0.0061714579 4289473829
-0.024148576 -0.01545239 0.0060427566 4289735714
-0.022470735 -0.013825731 0.0046126158 4289932319
-0.020677879 -0.012989506 0.003833883 4290193949
-0.018890586 -0.012153226 0.0030555842 4291175188
-0.016977388 -0.01210717 0.0029280004 4291044628
-0.015064318 -0.012060997 0.0028005145 4290782999
-0.013014466 -0.012804768 0.0033230302 4289409823
-0.010959305 -0.013548253 0.0038452358 4289674004
0.0030903369 -0.0068569761 -0.002358885 4288558889
0.0040008277 -0.0020740051 -0.0063727577 4288100654
0.0047117025 0.003497567 -0.011032313 4288427309
0.005045265 0.010646675 -0.016984699 4288623403
0.0058465227 0.015427206 -0.020991145 4288819498
0.0066149756 0.020207006 -0.024995359 4289800738
0.0082391277 0.021041054 -0.025761439 4290455324
0.010218501 0.020297151 -0.025233136 4290782233
0.012752511 0.017186843 -0.022764627 4290913304
0.014750525 0.016443592 -0.022237413 4290455069
0.016753815 0.015700545 -0.021710491 4289473574
0.018379785 0.016535021 -0.022476412 4289211944
0.020194121 0.016580839 -0.022595808 4289408038
0.022008277 0.016626716 -0.022715146 4289996834
0.023822241 0.016672682 -0.0228344 4289473318
0.025636025 0.016718682 -0.022953616 4289538853
0.027654476 0.015976455 -0.022427367 4289604389
0.02926299 0.016810905 -0.023191828 4289473574
0.030865908 0.01764527 -0.02395588 4290258463
0.033102185 0.016115237 -0.022784965 4290585628
0.036211982 0.011433341 -0.019035999 4290716188
0.040883146 0.001236463 -0.010777592 4290454049
0.046288088 -0.011322313 -0.00059078494 4290323234
-0.034075797 -0.029951721 0.016082488 4286333249
-0.03221428 -0.029112518 0.015300158 4286660158
-0.030358307 -0.028273309 0.014518231 4286660414
-0.028844886 -0.025055787 0.011787096 4287118648
-0.027468409 -0.021045944 0.0084078144 4287511348
-0.026119247 -0.017036654 0.0050304341 4289016104
-0.024315368 -0.01619821 0.0042524193 4289670179
-0.022640262 -0.014567284 0.0028256853 4290128414
-0.020850211 -0.013728897 0.0020487229 4289408803
-0.019323058 -0.011305817 -2.5345944e-05 4289604643
-0.01728677 -0.012052272 0.00049624499 4289408548
-0.015245166 -0.012798476 0.0010175738 4290847768
-0.013198249 -0.013544454 0.0015386217 4289474849
-0.011285577 -0.01349805 0.0014113407 4290392084
0.0030426979 -0.0083736936 -0.0034836296 4288886308
0.0044455901 -0.0059522074 -0.0055484474 4288362028
0.0054984838 -0.0019481387 -0.0089046489 4288231213
0.0058461428 0.0052208938 -0.014843399 4288427309
0.005972527 0.013180103 -0.021424754 4288623403
0.0065691099 0.018764261 -0.026065202 4289538853
0.0080155954 0.020391691 -0.02747527 4289866529
0.010172419 0.018854383 -0.026302973 4289604389
0.012339927 0.017317504 -0.025131343 4289866018
0.014332347 0.016571917 -0.024605395 4289408295
0.016141526 0.016617466 -0.024724556 4289211944
0.017759338 0.017453898 -0.025488326 4289408038
0.019565441 0.017499495 -0.025607191 4289408038
0.021371379 0.017545164 -0.025725989 4289800483
0.02357582 0.01600961 -0.024556419 4289800483
0.025386803 0.01605555 -0.024675442 4289538853
0.026992805 0.016892072 -0.025438221 4289473574
0.028800674 0.016938057 -0.025556946 4289866018
0.030608363 0.016984124 -0.025675597 4289866019
0.03284172 0.015449602 -0.024507705 4289931553
0.03487011 0.014705673 -0.023983562 4290062113
0.038650565 0.0076406989 -0.018316621 4290389278
0.043142878 -0.0017932504 -0.010724686 4290520348
0.048819013 -0.015175516 7.5636432e-05 4289996068
-0.03258127 -0.02829805 0.012189098 4286332994
-0.030514438 -0.029046915 0.012706311 4286529088
-0.028779078 -0.02741068 0.011278434 4286595134
-0.0273997 -0.023389928 0.0079070274 4286791739
-0.026047647 -0.019369645 0.0045375065 4287577393
-0.024482012 -0.016939458 0.0024654712 4289212453
-0.022686485 -0.016098939 0.0016897046 4290259484
-0.021022402 -0.014463766 0.00026699202 4290193949
-0.019497909 -0.012034228 -0.0018020472 4288885289
-0.017595883 -0.011988434 -0.0019288815 4289016104
-0.015559923 -0.012736954 -0.0014087982 4289474084
-0.013518658 -0.013485223 -0.00088897673 4290325529
-0.011611566 -0.013438981 -0.0010159058 4290194969
-0.0097046047 -0.013392624 -0.001142737 4289870354
0.0048899576 -0.0098432954 -0.0047336197 4288886309
0.0059512258 -0.0058281571 -0.008082292 4288689193
0.0063075572 0.0013606567 -0.014007052 4288427308
0.0064426661 0.0093418099 -0.020572817 4288296493
0.0068729296 0.01573487 -0.025846656 4289277223
0.0081473291 0.018160082 -0.027897758 4289277223
0.010126367 0.017411817 -0.027372671 4289277223
0.012476616 0.015077364 -0.025560675 4289342759
0.014100179 0.015915956 -0.026323326 4289408038
0.015718132 0.016754497 -0.027085543 4289277223
0.017139353 0.018385977 -0.028490385 4289866019
0.018937215 0.018431351 -0.028608715 4289931554
0.020734899 0.018476821 -0.028726961 4289342759
0.023130238 0.016143929 -0.02691762 4289146408
0.024935722 0.01618972 -0.027036289 4289408038
0.026331581 0.017820891 -0.028439214 4289342759
0.027923815 0.01865926 -0.029199382 4290520094
0.029930718 0.017912492 -0.028675538 4289800484
0.032155715 0.016373448 -0.027510382 4288819498
0.034175806 0.015627135 -0.026987309 4288623404
0.036637716 0.013296302 -0.02518199 4289277224
0.040220685 0.0070046615 -0.020172203 4289407783
0.044965439 -0.0032467879 -0.011960631 4288884013
0.050006934 -0.014288495 -0.0031129026 4288622383
-0.030779921 -0.029018724 0.010250967 4286332738
-0.028713394 -0.029769629 0.010766689 4286660670
-0.027216185 -0.026534978 0.0080496725 4286922554
-0.025858507 -0.022503735 0.0046879067 4287773744
-0.024287384 -0.020066887 0.0026202905 4289081638
-0.022732697 -0.017630333 0.000553919 4289539619
-0.021320261 -0.014397214 -0.0021570653 4290651929
-0.019929707 -0.011164539 -0.0048665283 4290847768
-0.018035986 -0.011118933 -0.0049927994 4290913814
-0.016008403 -0.011869829 -0.0044737761 4290979349
-0.01370208 -0.014213612 -0.0026649355 4289932574
-0.011937268 -0.013370962 -0.003436516 4289344033
-0.010035887 -0.013324728 -0.0035629687 4290065174
0.0062369481 -0.008925165 -0.0079125389 4288754983
0.0069378912 -0.0033081509 -0.012537362 4288427564
0.0070844442 0.0046950355 -0.019087696 4288558379
0.0071764886 0.012696948 -0.025634365 4288819753
0.0081014559 0.016719919 -0.028965678 4289146408
0.010080308 0.015969485 -0.028442191 4289669925
0.012064427 0.015219249 -0.027918996 4289539364
0.013682529 0.016059872 -0.028679674 4289670179
0.015106663 0.017695744 -0.030081568 4290323999
0.016710848 0.018536158 -0.030841222 4290650908
0.018309414 0.019376524 -0.031600442 4290781979
0.020491861 0.017831676 -0.030436 4290716444
0.022684999 0.016287096 -0.029272193 4289473574
0.02468688 0.015537836 -0.028749779 4289080873
0.026080087 0.017173283 -0.030149294 4289604389
0.027669586 0.018013805 -0.030907704 4290257953
0.029463567 0.018059455 -0.031025505 4290257953
0.031257354 0.018105183 -0.031143228 4289539108
0.033050954 0.01815097 -0.031260896 4289015849
0.035280794 0.016607739 -0.030099189 4289866274
0.038184077 0.012681581 -0.0270197 4290127903
0.042008884 0.0055786688 -0.021384742 4289866274
0.047014058 -0.0054944213 -0.012557292 4288753454
0.052324049 -0.01735975 -0.0030958415 4288752689
-0.028984275 -0.029734768 0.0083166882 4287183418
-0.027262665 -0.028090052 0.0068962839 4288033843
-0.025669627 -0.025646288 0.00483196 4287642419
-0.024333645 -0.021604557 0.0014798366 4287250484
-0.023024969 -0.017563391 -0.0018703968 4288427564
-0.021617867 -0.014321724 -0.0045745671 4289539109
-0.020104147 -0.011879408 -0.0066331844 4290324764
-0.018082086 -0.012632734 -0.0061155031 4290455578
-0.016054712 -0.013385811 -0.005598085 4290259484
-0.014022008 -0.014138647 -0.0050809393 4290063134
-0.012262706 -0.013293969 -0.0058505447 4289866783
-0.010224819 -0.014046463 -0.0053335819 4289736989
-0.0081816204 -0.014798765 -0.004816852 4289999638
0.0061893165 -0.010434709 -0.009031944 4288887329
0.0072291419 -0.0063982792 -0.012362957 4288820009
0.0078976676 -0.00076676905 -0.01697425 4288427564
0.0078291669 0.0080550201 -0.024146637 4288362029
0.0085878447 0.012886822 -0.028111322 4288754219
0.0098541453 0.01532492 -0.030152146 4289015849
0.012018219 0.013774879 -0.028990019 4289670179
0.013636298 0.014617678 -0.029749075 4289670178
0.015060477 0.016257878 -0.03114775 4289997344
0.016664639 0.017100472 -0.031905781 4290193438
0.018456906 0.017145701 -0.03202375 4290586139
0.020248987 0.017191 -0.032141656 4290847258
0.022040896 0.017236359 -0.03225949 4290520093
0.023832634 0.017281756 -0.032377291 4289604389
0.025419615 0.01812426 -0.033133935 4289538854
0.027208254 0.018169709 -0.033251435 4289800483
0.028786734 0.019012131 -0.034007419 4290454558
0.030572303 0.019057617 -0.034124628 4290847514
0.032142274 0.019899957 -0.034880031 4290585884
0.034579188 0.017555449 -0.033082779 4290716698
0.037253067 0.014414754 -0.030648718 4289669924
0.040619165 0.0088850893 -0.026302965 4288949548
0.045380734 -0.0014224257 -0.018134546 4288884269
0.050899632 -0.014117335 -0.0080586905 4288621874
-0.031528823 -0.02733236 0.0040728464 4286725439
-0.029366966 -0.028889541 0.0052299215 4288426544
-0.027423933 -0.028843472 0.0050998223 4286987324
-0.025716048 -0.027194569 0.0036836225 4286595388
-0.024259634 -0.023943281 0.00098243961 4286922808
-0.023071036 -0.019089963 -0.0030026068 4287315509
-0.021789495 -0.015038466 -0.0063428553 4289408293
-0.020278446 -0.012589656 -0.0083964886 4289932064
-0.018259309 -0.013345261 -0.0078801811 4289670689
-0.016101006 -0.014901542 -0.0067222086 4289801504
-0.01420508 -0.014855683 -0.0068484773 4289735968
-0.012448564 -0.014008902 -0.0076162815 4289735968
-0.010697622 -0.013162163 -0.0083836466 4289671199
-0.0085180551 -0.014717463 -0.0072267433 4289082914
-0.0064751953 -0.015471807 -0.0067115785 4289020693
0.0076893568 -0.010297045 -0.011555186 4288951334
0.0085383207 -0.005450137 -0.015516266 4288558123
0.0088306069 0.001795914 -0.021393016 4288492843
0.0088964924 0.0098407157 -0.027905552 4288296750
0.0098081976 0.013885148 -0.031219767 4288688683
0.011423692 0.014729992 -0.031977158 4289343013
0.013033591 0.01557475 -0.032734066 4289997344
0.014449678 0.017219037 -0.034128945 4289343270
0.016236603 0.017264038 -0.034246631 4289081383
0.01821699 0.016509641 -0.033726219 4288950313
0.020202637 0.01575546 -0.03320609 4289735203
0.021795377 0.016600139 -0.033961602 4289800483
0.023786113 0.015846193 -0.03344173 4289734948
0.025168575 0.017490048 -0.034834087 4289342504
0.027368866 0.015937187 -0.03367712 4289146409
0.028950073 0.016781807 -0.0344317 4289080873
0.030950934 0.016028367 -0.033912312 4289866274
0.032310963 0.017671868 -0.035303026 4289997089
0.034750327 0.015320912 -0.033510856 4289146664
0.037205793 0.012970362 -0.03171967 4288884778
0.041018344 0.0058279727 -0.026113048 4288426288
0.04555814 -0.0037090629 -0.018601852 4288491824
0.050849624 -0.01564013 -0.0091877589 4288425779
-0.029973306 -0.026423678 0.00086932676 4285875268
-0.027699806 -0.028788682 0.0026650769 4286660158
-0.02587992 -0.027939139 0.0018939669 4286726204
-0.024426114 -0.024679217 -0.00080056861 4286791739
-0.023239985 -0.019812921 -0.0047757477 4286988344
-0.021960985 -0.015750624 -0.0081077442 4289015848
-0.020195905 -0.014901917 -0.0088748401 4289539363
-0.018174257 -0.015659608 -0.0083603691 4289866784
-0.016147289 -0.016417045 -0.0078461636 4290193949
-0.0142515 -0.016371189 -0.007972423 4289539618
-0.012495048 -0.015522245 -0.0087386128 4291436818
-0.010886122 -0.013870364 -0.010144224 4290717719
-0.0089988634 -0.013824413 -0.010269691 4290848788
-0.0071117468 -0.013778321 -0.010395043 4289409824
-0.00507465 -0.014534933 -0.0098810028 4289542168
0.0090065747 -0.0093484474 -0.014708912 4288820519
0.0094821155 -0.0028847922 -0.019933969 4288362029
0.0095594302 0.0051820483 -0.026431147 4288165678
0.010122262 0.010841556 -0.031012662 4288754474
0.011377737 0.01329254 -0.033043053 4288819499
0.012802191 0.014941305 -0.034435302 4289866018
0.014215603 0.01658991 -0.035826817 4290651164
0.015808858 0.017436542 -0.03658092 4289931553
0.017783664 0.016679808 -0.036061775 4289277479
0.019567437 0.01672487 -0.036179151 4289604388
0.02155003 0.015968457 -0.035660353 4290193184
0.023336172 0.016013704 -0.035777789 4289604389
0.024917722 0.016860403 -0.036530927 4289342503
0.027115092 0.01530306 -0.035376973 4289473318
0.02890344 0.015348539 -0.035494424 4289146408
0.031116717 0.013791747 -0.034341484 4288950313
0.03312543 0.013036314 -0.033824164 4288819499
0.035357356 0.011480119 -0.032672357 4288819499
0.037820697 0.0091232322 -0.030886553 4287903283
0.041640677 0.0019614622 -0.025294987 4287903283
0.046187699 -0.00760148 -0.017803755 4287903794
0.050799638 -0.017162737 -0.010316686 4287445049
-0.028090082 -0.027919268 -0.00040304754 4286463808
-0.026043642 -0.028679114 0.00010771863 4286660158
-0.024352215 -0.027021816 -0.0013008416 4286791483
-0.02304028 -0.022947984 -0.0046270383 4286922298
-0.021755651 -0.018874703 -0.0079513369 4287707699
-0.020113483 -0.017218271 -0.0093563003 4289277479
-0.018482324 -0.015561945 -0.010760486 4289866019
-0.016460996 -0.016321745 -0.010247486 4289997599
-0.014707219 -0.015470758 -0.011012002 4290259229
-0.012959 -0.014619847 -0.011776031 4290913814
-0.01121635 -0.013768966 -0.01253961 4290652183
-0.0094792508 -0.012918126 -0.013302751 4290979348
-0.0076004192 -0.012872255 -0.013427567 4289409569
-0.0057217181 -0.012826306 -0.01355231 4290065174
0.008959122 -0.010846508 -0.015819786 4288689958
0.0097840726 -0.0059740711 -0.019759836 4288689193
0.010044634 0.0013103522 -0.025605341 4288362029
0.010616012 0.0069852825 -0.030176101 4288231214
0.011149175 0.012659378 -0.034744322 4288427054
0.012385584 0.015116464 -0.036768563 4288884778
0.01360555 0.017573155 -0.03879163 4290062369
0.015381426 0.017617863 -0.038908601 4290454814
0.017157137 0.017662648 -0.039025497 4290781978
0.019325122 0.016099975 -0.037873104 4290782233
0.021304853 0.015341304 -0.037355818 4290258718
0.023289859 0.014582805 -0.036838774 4289735204
0.025075763 0.014628094 -0.036956161 4289211944
0.027482711 0.012263015 -0.035171755 4289080874
0.029486194 0.011505157 -0.034655798 4289146409
0.031919904 0.0091408864 -0.032873061 4288884523
0.034154572 0.0075802673 -0.031724703 4288165168
0.036399864 0.0060200188 -0.030577037 4287903794
0.038655832 0.0044601113 -0.02943003 4287445558
0.042485952 -0.00272098 -0.023853701 4287314744
0.047042929 -0.0123098 -0.016382497 4287248698
-0.026089896 -0.030222405 -0.0010369187 4286725439
-0.024278428 -0.029368604 -0.001804146 4287510583
-0.022840817 -0.026091564 -0.0044845734 4287510838
-0.021550562 -0.022007288 -0.0078011649 4288296494
-0.020031191 -0.019538755 -0.0098408228 4289015849
-0.018528242 -0.017070493 -0.011879295 4289735203
-0.016640767 -0.017024979 -0.012005107 4290258973
-0.015026148 -0.015364528 -0.013404747 4289604898
-0.013283443 -0.014511588 -0.0141668 4289146919
-0.01154628 -0.01365869 -0.014928414 4289343269
-0.0096701644 -0.013613013 -0.015053144 4289997853
-0.0080886818 -0.011952898 -0.016450306 4289801758
-0.0060683042 -0.012714227 -0.015938438 4290196753
0.0090833977 -0.013150993 -0.016295878 4288166698
0.0099113584 -0.0082654208 -0.020226486 4289147174
0.010352314 -0.0017678086 -0.025423344 4288231214
0.011289202 0.0023098327 -0.028715054 4288230958
0.011651054 0.0088056214 -0.033906583 4288361774
0.012710452 0.012075599 -0.036560263 4288426798
0.013559937 0.016151242 -0.039845988 4289146408
0.015145034 0.017001994 -0.04059634 4289539108
0.016917922 0.017046668 -0.040713083 4289538853
0.019082971 0.015479565 -0.039563734 4289604643
0.021258704 0.013912804 -0.038415033 4288885034
0.023445144 0.012346312 -0.03726697 4289015849
0.025846571 0.0099744499 -0.035487071 4289015593
0.027850084 0.009214364 -0.034972847 4287903538
0.030068561 0.0076489393 -0.033826772 4287641909
0.032510161 0.0052782521 -0.032049399 4287641909
0.034967862 0.0029080957 -0.030273065 4287576629
0.037223816 0.001343701 -0.029129319 4287183929
0.039711013 -0.00102566 -0.027354816 4286987323
0.043107443 -0.0066154916 -0.023056405 4286987324
0.047445633 -0.01542501 -0.016236184 4286855998
-0.024204761 -0.031719469 -0.0023105524 4287117883
-0.022641607 -0.029243581 -0.0043484396 4287576118
-0.021220304 -0.025958166 -0.0070212544 4287642164
-0.02007715 -0.021053605 -0.010964319 4287315254
-0.018705007 -0.017769115 -0.013633665 4288689193
-0.017087556 -0.016104391 -0.015030364 4289669923
-0.015481107 -0.01443977 -0.016426288 4290848023
-0.013746615 -0.013584876 -0.017186189 4290128413
-0.011875946 -0.013539452 -0.017310645 4289604899
-0.010005392 -0.0134939 -0.017434996 4290062879
-0.0081349723 -0.013448278 -0.017559284 4290520858
-0.0062646717 -0.013402564 -0.017683493 4289540384
-0.0043945163 -0.013356722 -0.017807595 4289999128
-0.0023691505 -0.014119924 -0.017297542 4288756513
0.0097224563 -0.017885704 -0.014876047 4289148449
0.010387264 -0.012178243 -0.019430501 4288492843
0.01083681 -0.0056630168 -0.024615053 4288492333
0.011961877 -0.0023828689 -0.027266726 4288296239
0.012152545 0.0049390476 -0.033078413 4287969328
0.013035052 0.0090262778 -0.036358312 4288558124
0.013702311 0.013921227 -0.040268268 4288819243
0.015480727 0.013965942 -0.040385447 4289146408
0.017452352 0.013202563 -0.039870981 4289015593
0.019821398 0.010823168 -0.038093951 4289211943
0.022007771 0.0092522949 -0.03694921 4289015849
0.024204858 0.0076817106 -0.035805088 4288100144
0.026616834 0.0053036157 -0.034030795 4287903794
0.028837994 0.0037337542 -0.032888178 4287576373
0.031069838 0.0021642875 -0.031746238 4287445559
0.033524729 -0.00021260604 -0.029974608 4287445559
0.035565563 -0.00097373687 -0.029464321 4287183929
0.037829459 -0.0025422927 -0.028324343 4287118393
0.040545009 -0.0057254415 -0.02592548 4286921788
0.043951765 -0.011330298 -0.021639049 4286725439
0.047396272 -0.016934101 -0.017355109 4286790464
-0.024490975 -0.031637985 -0.0047245561 4286725693
-0.022565287 -0.031592008 -0.0048532546 4286856509
-0.021266501 -0.027485829 -0.0081542647 4286922298
-0.019995011 -0.023380177 -0.01145336 4286988090
-0.018881615 -0.018463202 -0.01538467 4287446579
-0.017133374 -0.017606014 -0.016144028 4288885033
-0.015663166 -0.015125312 -0.018170472 4289866784
-0.013792507 -0.015079996 -0.018295007 4290390043
-0.011921957 -0.015034587 -0.018419465 4291175445
-0.0099071376 -0.015800619 -0.017910628 4291174934
-0.008034125 -0.015754953 -0.018035101 4289735713
-0.0060114041 -0.016520627 -0.017526589 4289212453
-0.0042884722 -0.015663303 -0.018283781 4289409569
-0.0022605807 -0.016428659 -0.01777547 4290129688
0.0072330013 -0.025975917 -0.010691054 4288626974
0.0093090758 -0.026739545 -0.010185609 4288625444
0.010532603 -0.023448601 -0.0128375 4289017378
0.011037067 -0.016914733 -0.018012825 4289147684
0.011497907 -0.010381866 -0.023185205 4288099633
0.012454309 -0.0062820967 -0.026462022 4288099889
0.013018519 -0.00056166388 -0.030998386 4288034864
0.013544559 0.0051578395 -0.035532139 4288230703
0.014220297 0.010065988 -0.039432988 4288753964
0.015816189 0.010921333 -0.040180903 4289015338
0.018179677 0.0085351914 -0.038408425 4289015594
0.020363301 0.0069597736 -0.037266761 4288230958
0.022756308 0.0045745447 -0.035496175 4287576883
0.025165454 0.0021897368 -0.033726566 4287380279
0.027590722 -0.0001945626 -0.031958014 4287380023
0.029618382 -0.00095845573 -0.031448595 4287314744
0.031860881 -0.0025320351 -0.030310618 4287183929
0.033901736 -0.0032954272 -0.029802017 4286922044
0.035947897 -0.0040586982 -0.029293701 4286790973
0.038434722 -0.0064411741 -0.027529001 4286856509
0.041378506 -0.010442512 -0.024508893 4286856509
0.044572406 -0.015252782 -0.020862503 4286463299
0.04734692 -0.01844305 -0.018473925 4286397508
-0.023101944 -0.029873332 -0.0085263494 4286136899
-0.021187376 -0.02982752 -0.0086542312 4286725949
-0.019784961 -0.026525086 -0.01131278 4286726203
-0.018665887 -0.021594891 -0.015234806 4287054135
-0.017312627 -0.018293476 -0.017889882 4288427308
-0.015981238 -0.014992397 -0.02054343 4289343014
-0.013977256 -0.0157611 -0.020035664 4289604899
-0.011967961 -0.016529553 -0.01952816 4289866784
-0.0098089948 -0.018111551 -0.018389307 4289670178
-0.007786341 -0.018879488 -0.01788255 4289670178
-0.0059081391 -0.018833585 -0.018007286 4289800993
-0.0040300786 -0.0187876 -0.018131951 4289278499
-0.0019969419 -0.019554969 -0.017625656 4289344033
0.00019939989 -0.021135503 -0.016488953 4289278753
0.0025671422 -0.023529073 -0.014722358 4289213983
0.004787676 -0.025108885 -0.013587089 4289345309
0.0071849748 -0.027501468 -0.011822338 4288756514
0.0095984489 -0.029893614 -0.010058556 4288625188
0.011342064 -0.029033015 -0.010814983 4288952864
0.011860549 -0.022481432 -0.015978314 4287707698
0.011981569 -0.014305037 -0.022397581 4286399039
0.012766711 -0.0093813278 -0.02629618 4287903794
0.013519108 -0.0044583995 -0.030192517 4287969073
0.013868608 0.0020892657 -0.035344467 4287838258
0.014550097 0.0070105679 -0.039236017 4288165168
0.016341917 0.0070555825 -0.039354105 4287838258
0.018906474 0.0038505774 -0.036958657 4287511094
0.021296673 0.001458602 -0.035192776 4287511094
0.023305662 0.00069191121 -0.034683935 4287511094
0.025722668 -0.0016991869 -0.032919746 4287249208
0.027951725 -0.0032776482 -0.031784195 4287314489
0.030191444 -0.004855739 -0.03064934 4287052859
0.032441869 -0.0064335186 -0.029515088 4287118138
0.034915194 -0.0088229701 -0.027754435 4286987325
0.037189707 -0.010400075 -0.026621718 4286856509
0.039474882 -0.011976786 -0.025489684 4286790718
0.04221148 -0.015176885 -0.023105141 4286986814
-0.021609299 -0.028907834 -0.011682337 4286660669
-0.019831069 -0.028045835 -0.012440654 4286857018
-0.018711731 -0.023102637 -0.016353024 4286988599
-0.01735834 -0.019792525 -0.019001639 4287773489
-0.016162921 -0.01566669 -0.022279277 4289408294
-0.014023028 -0.017253682 -0.021142604 4289539108
-0.012013927 -0.018024329 -0.020636715 4289800738
-0.0095667094 -0.021242488 -0.01824113 4289931809
-0.0075388104 -0.022012472 -0.01773634 4289801504
-0.005655311 -0.021966461 -0.017861445 4289867038
-0.003771916 -0.021920368 -0.01798648 4289082659
-0.001578398 -0.023505477 -0.016852865 4289082659
0.00062584877 -0.025090188 -0.015719937 4289278753
0.0026802719 -0.025859024 -0.015216539 4289082914
0.0047399774 -0.026627708 -0.014713395 4289345309
0.0071369708 -0.029026827 -0.012953482 4289476378
0.0093814135 -0.030610239 -0.011822915 4288821029
0.011465125 -0.03137799 -0.011321183 4288492843
0.011986792 -0.02480901 -0.016471833 4286530619
0.012719698 -0.010859015 -0.027391931 4287445558
0.013837017 -0.0075530345 -0.030023647 4287838004
0.014192402 -0.00098787621 -0.035163075 4287838258
0.015255108 0.0023169145 -0.037791133 4287969073
0.016867273 0.0031769425 -0.038536865 4287838259
0.019439623 -3.6591664e-05 -0.036148425 4287576118
0.021641791 -0.0016202368 -0.035014525 4287380024
0.023854636 -0.0032035336 -0.033881277 4287314233
0.026480816 -0.0064155348 -0.031496249 4287118138
0.028720498 -0.0079980856 -0.030364636 4286987325
0.031177588 -0.01039461 -0.028607875 4286987325
0.033441372 -0.01197644 -0.027477767 4286987324
0.035927989 -0.014372157 -0.025722831 4286659648
0.038215861 -0.015953232 -0.024594273 4286594114
0.040731989 -0.018348107 -0.022841204 4286528324
-0.021655302 -0.030430565 -0.012811694 4287708463
-0.019877143 -0.029566403 -0.013568396 4288230703
-0.018496342 -0.026247032 -0.016212512 4288230703
-0.01727071 -0.022109743 -0.019484183 4287969328
-0.016072366 -0.017973009 -0.022753956 4287969583
-0.014068779 -0.018746074 -0.022249402 4288558633
-0.011918399 -0.020337053 -0.021116583 4289147939
-0.0094688535 -0.023563853 -0.018727625 4289671198
-0.0074384362 -0.024335956 -0.018224625 4289409824
-0.0057019517 -0.023471965 -0.018977927 4289213728
-0.0036663562 -0.024243761 -0.018475136 4288952099
-0.0014703646 -0.025833176 -0.017344937 4288755748
0.00089413673 -0.028239982 -0.015587922 4289279519
0.0027933121 -0.028193213 -0.015713789 4288429094
0.004692331 -0.028146364 -0.015839582 4289148958
0.0069230795 -0.029734507 -0.014711453 4289410078
0.0091645494 -0.031322293 -0.013583962 4288689194
0.011245377 -0.032092366 -0.013083641 4287707188
0.013790235 -0.0090219174 -0.031112865 4287379769
0.014515966 -0.0040735342 -0.034988075 4287576373
0.015959606 -0.0023939554 -0.036359016 4287772724
0.017772987 -0.0023484547 -0.036478572 4287641654
0.019972362 -0.0039365981 -0.035347786 4287314233
0.02218245 -0.0055244546 -0.034217618 4287314234
0.02460175 -0.0079286536 -0.032463372 4287183419
0.027439646 -0.011965742 -0.029460911 4286986813
0.029692687 -0.013552346 -0.028333448 4286986814
0.032369725 -0.016771644 -0.025958154 4286855488
0.034649581 -0.018357407 -0.024832407 4286789698
-0.022326779 -0.027849561 -0.017081087 4286595388
-0.020306662 -0.028624825 -0.01657957 4287379769
-0.018803347 -0.026117563 -0.018589048 4287838258
-0.017316438 -0.023610624 -0.020597301 4288230704
-0.015845966 -0.021103907 -0.022604408 4287969328
-0.013698436 -0.022699459 -0.021474674 4288362539
-0.01168156 -0.023474293 -0.020972561 4288362538
-0.0093711093 -0.025889391 -0.019217219 4288755238
-0.0073381588 -0.026663674 -0.01871598 4289410078
-0.005299896 -0.027437668 -0.018215051 4289410078
-0.003256321 -0.028211474 -0.017714432 4289410078
-0.0012074485 -0.028985029 -0.017214073 4288756258
0.00084674358 -0.029758416 -0.016713964 4288625188
0.0027458072 -0.029711684 -0.016839849 4288493863
0.004481554 -0.028845033 -0.017591182 4288100908
0.0065434873 -0.029617947 -0.017091377 4288689704
0.0084421337 -0.02957095 -0.017217029 4288034863
0.013925627 -0.011309939 -0.031577721 4287052859
0.015024163 -0.0079870075 -0.034195308 4287576118
0.016475998 -0.006302854 -0.035563614 4287772469
0.018487729 -0.0070763454 -0.035059992 4287510839
0.02069775 -0.0086685792 -0.033933152 4287183419
0.022918493 -0.010260572 -0.032806963 4287052604
0.025546804 -0.013489934 -0.030435113 4286921534
0.02819667 -0.016718738 -0.028064596 4286528833
0.031071976 -0.020765724 -0.025072664 4286201668
-0.020480249 -0.029315747 -0.018328477 4287118139
-0.018588178 -0.02927031 -0.018454732 4287183929
-0.016962595 -0.02757936 -0.019832678 4287184184
-0.015483879 -0.025066014 -0.021835474 4287707443
-0.013744339 -0.024198057 -0.022586081 4287969583
-0.011727653 -0.024975084 -0.022085583 4288297258
-0.0094175301 -0.027396707 -0.020335069 4288558888
-0.0072379895 -0.028995533 -0.019210482 4288886819
-0.0053467005 -0.028949382 -0.019336142 4289671963
-0.0033033043 -0.029725369 -0.018837128 4289148448
-0.0012546182 -0.030501114 -0.018338386 4288624934
0.00048409402 -0.029632505 -0.019088438 4288232234
0.0022172332 -0.028763914 -0.019838033 4287185458
0.015347168 -0.011091919 -0.034034591 4286791228
0.017179519 -0.011046064 -0.034155484 4287511094
0.019582428 -0.013464011 -0.032410011 4287379769
0.022194423 -0.016702695 -0.030043641 4287183419
0.024436638 -0.018298451 -0.028922146 4286463554
-0.018894866 -0.029131807 -0.02082457 4286464063
-0.017141595 -0.028261544 -0.021574624 4287118649
-0.015529696 -0.026566561 -0.022948338 4288427053
-0.013651654 -0.026521176 -0.023073444 4288035118
-0.011632454 -0.027300322 -0.022574738 4287969838
-0.0094639249 -0.028903831 -0.021452779 4287642928
-0.0074313469 -0.02968251 -0.02095478 4288101164
-0.0055428892 -0.029636472 -0.021080285 4288493864
-0.0035023987 -0.030414723 -0.020582709 4288951589
-0.0016114786 -0.030368401 -0.020708213 4287381808
0.018257454 -0.017453585 -0.031518791 4286791228
0.020676345 -0.01987762 -0.02977927 4286856253
-0.019331604 -0.028157413 -0.023810634 4285940804
-0.017453492 -0.028112242 -0.023935908 4286922298
-0.015711248 -0.027240014 -0.024683567 4288165423
-0.013974547 -0.026367782 -0.025430828 4288819753
-0.011960968 -0.027149301 -0.024933338 4288362284
-0.0097981319 -0.028757313 -0.023814248 4288100653
-0.0077711865 -0.029538285 -0.023317551 4287641908
-0.0063363463 -0.02701252 -0.025307393 4286791483
-0.018031079 -0.026295684 -0.027532769 4286856508
-0.016299766 -0.02542155 -0.028278084 4287968308
-0.014297143 -0.02620559 -0.027781615 4286922809
-0.010132037 -0.028601976 -0.026169181 4287185969
-0.016616441 -0.025248166 -0.030621117 4288884013
-0.0093683228 -0.0097748982 0.017763536 4283856944
-0.0077103898 -0.0081783775 0.016312579 4283070524
-0.0094160922 -0.011330373 0.016609963 4283136569
-0.0081864074 -0.0073990626 0.013184655 4282613564
-0.0096038207 -0.012106555 0.014798796 4283137079
-0.0080913045 -0.0097223762 0.01269694 4282614584
-0.0064498484 -0.0081174243 0.011253651 4283069504
-0.0048194379 -0.0065126717 0.0098112207 4284508214
-0.0096515268 -0.013659324 0.013647227 4283464244
-0.0084241703 -0.0097062457 0.010238247 4283006264
-0.0067881644 -0.0080970982 0.0087986123 4282744123
-0.0050151423 -0.0072691608 0.0080153868 4283200318
-0.0099788867 -0.013644971 0.011186745 4283724854
-0.0084716789 -0.011247865 0.0090949573 4283072564
-0.006835673 -0.0096343672 0.0076585631 4282810424
-0.0050627068 -0.0088042673 0.0068769515 4282417469
-0.0034460649 -0.0071909642 0.0054419762 4283592254
-0.010166205 -0.014407284 0.009385867 4284183343
-0.0088041387 -0.011218212 0.0066463663 4283268149
-0.0071735717 -0.0096004829 0.0052135796 4282876979
-0.0054061338 -0.0087682726 0.0044339332 4282483769
-0.0037949085 -0.0071508223 0.0030025751 4282611523
-0.0017346442 -0.0078892903 0.0035280841 4284442424
-0.008709088 -0.013542653 0.0061578187 4283659573
-0.0072209351 -0.011132894 0.0040771333 4282745653
-0.0054535568 -0.010298497 0.0032991194 4282287418
-0.0039929077 -0.0078892009 0.0012204172 4282286398
-0.0017822683 -0.0094173551 0.0023948946 4282546753
-0.007268291 -0.012665066 0.0029408648 4282811699
-0.005648762 -0.011038762 0.0015153205 4282484023
-0.0040402487 -0.0094126798 9.0617221e-05 4282352443
-0.0019831061 -0.010155569 0.0006130971 4282416448
7.9326332e-05 -0.010898233 0.0011352985 4284114748
-0.0074606463 -0.013404955 0.0011570291 4283660848
-0.0056961104 -0.012566329 0.00038247695 4282940983
-0.0040875971 -0.010935907 -0.001038997 4282679609
-0.0020306483 -0.011680965 -0.00051811291 4282548284
-0.00028016418 -0.010842379 -0.001291506 4283135294
-0.0060387477 -0.012505493 -0.0020420463 4283399474
-0.0041349381 -0.012458883 -0.0021684235 4283137588
-0.0023843572 -0.011618238 -0.0029402922 4282941238
-0.00063937157 -0.010777552 -0.0037117316 4282613819
0.0012585372 -0.010730798 -0.0038375035 4282742848
-0.0062335283 -0.013231974 -0.0038156235 4283922223
-0.0043325499 -0.013185462 -0.0039418344 4283268659
-0.0027377903 -0.011546514 -0.0053558731 4283008049
-0.0011540428 -0.0099077765 -0.006769062 4282810168
0.0010525212 -0.011453228 -0.0056071132 4282743358
0.0031086206 -0.01220237 -0.0050891982 4283918654
-0.0043798015 -0.01470583 -0.0050693275 4284509744
-0.00293798 -0.012264231 -0.007122471 4282811953
-0.0013569519 -0.010621179 -0.0085322931 4282548793
0.0003714487 -0.0097765364 -0.0092993109 4282025023
0.0025776252 -0.01132629 -0.0081404559 4282350914
0.0046306476 -0.012077593 -0.0076238895 4283005753
-0.0031380132 -0.012977378 -0.0088856798 4283072819
-0.0017153025 -0.010529632 -0.010932632 4282353464
7.6144934e-06 -0.0096829487 -0.011697666 4282026554
0.0020470321 -0.010436878 -0.011181902 4282155838
0.0044192523 -0.012791056 -0.0093863718 4282352189
-0.0034907386 -0.012883241 -0.011284642 4284445738
-0.0017622933 -0.012034354 -0.012048503 4282875193
-0.00019768625 -0.010382975 -0.013450666 4281698878
0.0018388256 -0.01113916 -0.012936333 4282025279
0.0040443018 -0.012697489 -0.011783877 4282156094
0.0060940906 -0.013453147 -0.011270277 4282940218
-0.0018092617 -0.013538872 -0.013164224 4283071798
-8.6463988e-05 -0.012687863 -0.013926029 4282024513
0.0019525886 -0.013446153 -0.01341348 4281764668
0.0041605309 -0.015008792 -0.012264439 4282220609
0.0062128678 -0.015766606 -0.011752582 4282808894
0.0081013963 -0.01571974 -0.011877478 4283526973
-0.00013346225 -0.014190027 -0.015039995 4282154308
0.0019053966 -0.014950497 -0.014529053 4281763648
0.0042766556 -0.017324282 -0.012748033 4281959999
0.0064977854 -0.018890858 -0.011603037 4283330623
0.0080536529 -0.01723066 -0.012997899 4284312119
-2.2388995e-05 -0.016501037 -0.015519904 4283721284
0.0023405477 -0.018881645 -0.013743259 4282872899
0.004719615 -0.021261699 -0.01196764 4283788604
0.01383651 0.0057754256 0.036119085 4281024403
-0.0086261816 0.0071453881 0.062777787 4285359913
-0.0071639456 0.01009189 0.059849359 4286278679
-0.005298838 0.010864571 0.059017152 4286277914
-0.0024288744 0.0065661743 0.063071892 4286081309
-0.012972269 0.0068839192 0.060452096 4285295398
-0.011359818 0.009112563 0.058226034 4285427234
-0.0097638927 0.011340894 0.056001205 4285623328
-0.0079068355 0.012115493 0.055171106 4285884958
-0.0060554147 0.012890026 0.054341499 4286015773
-0.003632471 0.010758057 0.056298111 4286081563
-0.00045828521 0.0049938522 0.061735019 4285753888
-0.021550924 0.0079960451 0.057007886 4286015774
-0.019793559 0.0095020309 0.055481214 4286277659
-0.017922122 0.010278672 0.054651413 4285818913
-0.015928432 0.010326039 0.054517996 4285558558
-0.014196057 0.011831753 0.052993231 4285624093
-0.01220813 0.011879206 0.052860364 4285754908
-0.010356411 0.01265575 0.052032236 4286083094
-0.0082327835 0.011974424 0.052594908 4285688354
-0.0062453821 0.012022182 0.052462313 4285622564
-0.0041139349 0.011341233 0.053024601 4285819423
-0.0015363693 0.0084743053 0.055670556 4285820188
-0.025603108 0.0062962472 0.056085687 4285295144
-0.024068352 0.0092699789 0.053171303 4285492004
-0.022675157 0.012974836 0.049563635 4286343704
-0.020697679 0.013021652 0.049431179 4286278169
-0.018845391 0.013799995 0.048604343 4286017559
-0.016615331 0.012384191 0.049860787 4285754908
-0.014896598 0.013893988 0.04834022 4285624094
-0.012655932 0.012478661 0.049596123 4285623583
-0.010676492 0.01252605 0.049463928 4286149394
-0.0085585006 0.011842385 0.050025407 4286016793
-0.0065766647 0.011890039 0.049893204 4286148628
-0.0045950115 0.011937775 0.049761083 4286148119
-0.0023197979 0.010523804 0.051015079 4285820443
0.00026534498 0.0076484419 0.053654108 4285558303
-0.027875572 0.0061119534 0.053641994 4285295399
-0.026449218 0.009828344 0.0500401 4285623839
-0.024699796 0.011342753 0.048520293 4285623328
-0.023080949 0.013590716 0.046308137 4285754144
-0.021111775 0.013637349 0.046176247 4285754144
-0.019142747 0.013684087 0.046044447 4285885978
-0.017046135 0.012997366 0.04660539 4285754654
-0.015335586 0.014511395 0.045088589 4285689119
-0.013236549 0.013824917 0.045649584 4285689373
-0.010860402 0.011671972 0.047594469 4285754909
-0.0087453462 0.010986123 0.048154503 4286017303
-0.0067663677 0.01103374 0.048022516 4286016793
-0.0049316511 0.011814613 0.047199044 4285820699
-0.0028089583 0.011129238 0.047758784 4285689373
-0.00068098307 0.010444075 0.048318308 4285624094
0.0020612702 0.0068272687 0.051641643 4285361188
-0.02814538 0.0059838388 0.051070612 4285360424
-0.026724298 0.009711042 0.047477212 4285689373
-0.024980329 0.011229657 0.045961071 4286017813
-0.023366891 0.013484113 0.043754127 4285951514
-0.021403309 0.013530642 0.043622635 4286017049
-0.019439869 0.013577253 0.043491215 4286148884
-0.017348908 0.012888256 0.044050943 4285754399
-0.015643802 0.014406491 0.042537805 4285689629
-0.013683539 0.014453378 0.042406861 4285623838
-0.011451751 0.013029259 0.043656971 4285558304
-0.0093477853 0.012340941 0.044216178 4285623839
-0.0075211376 0.013123773 0.043394774 4285624093
-0.0054120645 0.012435786 0.043953795 4285623583
-0.0034444854 0.012483358 0.043822739 4285688864
-0.0014770776 0.012531012 0.043691762 4285950749
0.0006423071 0.011843637 0.044250298 4285753889
0.0038513914 0.0060108397 0.049633127 4285490728
-0.027747519 0.001434762 0.052649081 4285557283
-0.026771199 0.0081262216 0.046301719 4285558048
-0.025377318 0.011863835 0.04271837 4285951769
-0.023652583 0.013386503 0.041206874 4286148119
-0.021694593 0.013432905 0.041075759 4286082329
-0.019486994 0.012003437 0.042323936 4286214418
-0.017523833 0.012050185 0.042192642 4285623583
-0.015691139 0.012834899 0.041372199 4285624093
-0.013864052 0.013619594 0.040552218 4285624093
-0.011771023 0.012928795 0.04111043 4285558559
-0.00967272 0.012238231 0.041668367 4285558558
-0.0075691231 0.011547897 0.042226031 4285558558
-0.0057481527 0.012332857 0.041406769 4285689628
-0.0039328262 0.01311779 0.040587962 4285886489
-0.0021231323 0.013902694 0.039769605 4286409494
-1.4834106e-05 0.013212878 0.040327258 4286277913
0.0027181357 0.0095741749 0.043635081 4286081818
0.0062660351 0.0022501424 0.050378304 4285884449
-0.026590314 0.005060805 0.046503928 4285557793
-0.025540676 0.011030648 0.040862728 4285492513
-0.023938037 0.01329799 0.038666289 4285689629
-0.021863561 0.012604047 0.039223731 4285689628
-0.019658946 0.011170097 0.040468901 4285754909
-0.017571121 0.01047669 0.041025613 4285754909
-0.015999012 0.012743752 0.038831551 4285688863
-0.014177449 0.013530523 0.038013581 4285688863
-0.012361493 0.014317263 0.037196066 4285689629
-0.010135848 0.012884419 0.038440209 4285755164
-0.0078994557 0.011451878 0.039683737 4285689628
-0.0059401318 0.011499211 0.039553199 4285754653
-0.0044207945 0.013765633 0.037363131 4285819934
-0.0024700016 0.013812967 0.037233312 4285688099
-0.00021526963 0.0123813 0.038475946 4285622563
0.002359733 0.0094710812 0.041089896 4285885469
0.0049563199 0.0065615289 0.043702442 4285557283
-0.026068199 -0.00024094433 0.048761126 4285688608
-0.02535424 0.0079744458 0.041071247 4285492514
-0.023984659 0.01173348 0.037505887 4285624349
-0.022032402 0.011779767 0.037375171 4285689884
-0.019830789 0.010341428 0.038617335 4285689629
-0.018000826 0.011130422 0.037800234 4285951768
-0.016306635 0.01266158 0.036297638 4286279443
-0.014623519 0.014192589 0.034795869 4286280464
-0.012544509 0.013497137 0.035351798 4286017559
-0.010460224 0.012801904 0.035907451 4285689374
-0.0080884546 0.010622926 0.037833408 4285689628
-0.0064196214 0.012154069 0.036332872 4285952024
-0.0046153143 0.012943167 0.035518099 4286148373
-0.00266736 0.012990434 0.035388473 4285951003
-0.00041561574 0.011554401 0.03662803 4285885214
0.001846835 0.010118678 0.037866987 4286082329
0.0041199774 0.008683376 0.039105278 4285951259
0.0065639764 0.0065068677 0.041026961 4285360933
-0.023673631 0.0079351701 0.038401049 4285492769
-0.022201132 0.010960184 0.035530105 4285689884
-0.02025187 0.011006549 0.035399701 4285820699
-0.018302754 0.011053018 0.035269383 4285885979
-0.016744148 0.013332903 0.033086009 4286016794
-0.015069205 0.014868096 0.031588048 4286148118
-0.012863003 0.013425995 0.032826938 4286082583
-0.010646049 0.011984218 0.034065239 4285754653
-0.0084183775 0.010542832 0.035302851 4285689628
-0.0067549832 0.012078185 0.033805981 4285755419
-0.0048097 0.012125321 0.03367649 4286148883
-0.0030138046 0.012916513 0.032863986 4286213653
-0.00091969222 0.012219902 0.033417776 4286278678
0.0011796728 0.011523504 0.033971284 4286541839
0.0032842904 0.010827333 0.034524519 4285688608
0.0055542514 0.0093876645 0.035759907 4285426724
0.008486174 0.004973866 0.039723448 4285163819
-0.023363002 0.0041240584 0.03928671 4285557794
-0.022125985 0.0086516589 0.035055082 4285558303
-0.020547956 0.010938302 0.032875173 4286017813
-0.018859107 0.012478039 0.031379338 4285885468
-0.01705122 0.013270985 0.030567123 4285556519
-0.015248943 0.014063913 0.029755367 4285688354
-0.012910217 0.011870902 0.031673603 4285885469
-0.01083177 0.011171177 0.032226481 4285885979
-0.0087480471 0.010471739 0.032779045 4285755164
-0.0069464035 0.011265054 0.031967636 4285689884
-0.0050039813 0.011312149 0.031838354 4285689374
-0.0033600107 0.01285167 0.030346153 4285688864
-0.0012715459 0.012152757 0.030898714 4285556773
0.00082219392 0.011454031 0.031451043 4285557029
0.003078483 0.010009624 0.03268398 4285622818
0.0050253943 0.010057334 0.032554775 4285754653
0.0076231286 0.0071218722 0.035148017 4286279444
-0.021807324 0.0048410371 0.035940435 4285294379
-0.020594712 0.0093812346 0.031720329 4285755163
-0.019033134 0.011674222 0.029546453 4286016793
-0.017358046 0.013218112 0.028054873 4286147864
-0.015428569 0.013264388 0.027926074 4286278934
-0.013228342 0.011813413 0.029158944 4286410513
-0.011017382 0.010362841 0.030391136 4285688608
-0.009077467 0.010409676 0.030261872 4285689629
-0.0069941059 0.0097081289 0.030812973 4285689629
-0.0049054623 0.0090068355 0.031363744 4285558304
-0.0032587647 0.010550816 0.02987464 4285426468
-0.0014713407 0.011346318 0.029066054 4285752869
0.00046495348 0.011393607 0.028937435 4286604823
-0.02064148 0.0078244824 0.030565714 4285492004
