# .PCD v0.7 - Point Cloud Data file format
VERSION 0.7
FIELDS x y z rgba
SIZE 4 4 4 4
TYPE F F F U
COUNT 1 1 1 1
WIDTH 960
HEIGHT 1
VIEWPOINT 0 0 0 1 0 0 0
POINTS 960
DATA ascii
-0.010303237 0.022075448 0.023253625 4290454814
-0.0081592873 0.020654023 0.024529127 4289866019
-0.0061102211 0.019964226 0.025107363 4289277224
-0.0042726658 0.02073722 0.02429211 4289211944
-0.0023295283 0.020778984 0.024173738 4289277224
-0.00038651377 0.020820826 0.024055434 4289015594
0.0016729794 0.020131692 0.024633365 4289015594
0.0037377924 0.019442808 0.025210993 4289081129
0.0055637769 0.020216044 0.024396887 4289277223
0.0073841475 0.020989332 0.023583164 4289277479
0.0094539747 0.020300824 0.024160767 4289211943
0.011659328 0.018881805 0.025433337 4289800739
0.014540318 0.01380945 0.030180825 4289800228
0.018002141 0.0058154073 0.037705772 4289995813
-0.041470744 -0.0051397569 0.047870226 4287640633
-0.039608702 -0.0028948784 0.045650311 4287641144
-0.037585367 -0.0028536282 0.045525394 4287837748
-0.035685942 -0.0013433937 0.04400491 4287968564
-0.033862129 0.0009010639 0.041787624 4287903283
-0.032189548 0.0046139918 0.038176432 4288099634
-0.030474138 0.007592123 0.035264358 4288230704
-0.028853482 0.011304162 0.031656571 4288884778
-0.027033346 0.012813359 0.030141419 4288754219
-0.025380844 0.015790597 0.02723345 4288688684
-0.023588097 0.017299425 0.025720203 4289146409
-0.021722527 0.018074173 0.024904167 4289407783
-0.019775957 0.01811501 0.024784846 4289473574
-0.017829446 0.018155959 0.024665611 4289342759
-0.016066995 0.019664645 0.023154518 4289735204
-0.014315531 0.021173164 0.021644214 4289081129
-0.012575086 0.022681601 0.020134626 4288753964
-0.01054512 0.02198904 0.02071221 4289931554
-0.0085097812 0.021296673 0.021289593 4289539109
-0.0064691044 0.020604543 0.021866677 4289342759
-0.0044230781 0.01991266 0.022443516 4289211944
-0.0025938936 0.020687759 0.021630546 4289015594
-0.00077029318 0.021462843 0.020817986 4289277224
0.001164265 0.021504648 0.020700308 4289211944
0.0033372492 0.02008016 0.021971306 4289277224
0.0051549822 0.020855438 0.021159342 4289604389
0.0069671124 0.021630704 0.020347798 4289997089
0.0087736137 0.022405989 0.019536635 4288884778
0.01083491 0.021715239 0.020113224 4288950314
0.013300225 0.018826004 0.022769975 4289211944
0.016058482 0.014471643 0.026812075 4289015084
0.019126024 0.0086524896 0.032238588 4289015339
-0.039423928 -0.007463038 0.04723572 4286659393
-0.037567325 -0.0052115489 0.045021057 4287379514
-0.03566521 -0.0036968812 0.043503664 4287575608
-0.033838648 -0.0014458243 0.041291066 4287772469
-0.032095842 0.0015415717 0.0383837 4288164658
-0.030304814 0.0037921928 0.036173433 4288099633
-0.028603012 0.0067789685 0.033268757 4288361519
-0.026771983 0.0082927421 0.031756237 4288427309
-0.025186757 0.012015212 0.028158916 4288362029
-0.023547875 0.015001036 0.025258368 4288688683
-0.021847142 0.017250378 0.023054091 4288754219
-0.019989908 0.018027257 0.022240279 4289146408
-0.017959803 0.01733207 0.0228159 4289146409
-0.016292028 0.019581012 0.020613933 4290454814
-0.014451398 0.020357929 0.019801358 4289604389
-0.012713693 0.021870658 0.018295242 4289473574
-0.010686658 0.021175858 0.018871384 4290258463
-0.0086542517 0.020481288 0.019447284 4290389278
-0.0066164918 0.019786902 0.020022986 4289538853
-0.0046816953 0.019828409 0.019905062 4289080873
-0.0028580464 0.020605631 0.019094018 4289080873
-0.0010399856 0.021382794 0.018283432 4288884779
0.00077249855 0.022159971 0.017473282 4289080873
0.0028178245 0.021466322 0.018048877 4289211944
0.004868459 0.020772912 0.018624237 4289473574
0.0065503977 0.022285532 0.01712233 4290062623
0.008348655 0.023062814 0.016313357 4290651418
0.010271437 0.023104921 0.016196804 4290193438
0.012592614 0.020941854 0.018155867 4290258719
0.015201174 0.017309081 0.021497464 4290389534
0.018113423 0.012207106 0.026220491 4289081129
0.021909904 0.0026965197 0.03508947 4288557103
-0.035459056 -0.0082708523 0.04508312 4287117629
-0.033750705 -0.0045354981 0.041485898 4287771958
-0.031935059 -0.0022779722 0.039278939 4287968309
-0.03013582 -2.0606443e-05 0.037073053 4288099634
-0.028352985 0.0022365227 0.034868248 4288296239
-0.026511073 0.003754884 0.033358306 4288231214
-0.024836566 0.0067500919 0.03046198 4288362028
-0.023183951 0.0097449571 0.027567094 4288492588
-0.021553226 0.012739487 0.024673635 4288754474
-0.01985798 0.014995337 0.022474686 4288623404
-0.018090049 0.016512804 0.020969694 4288819499
-0.016424974 0.018768296 0.018772727 4289211943
-0.014681747 0.020285413 0.017269442 4290062369
-0.012852199 0.021064371 0.016459307 4290323999
-0.010828089 0.020367339 0.017034015 4290651164
-0.0087986141 0.019670531 0.017608484 4289800739
-0.0068692975 0.019711815 0.017490814 4289277223
-0.0049400963 0.019753225 0.017373251 4289211944
-0.0033439249 0.022008009 0.01518113 4289669668
-0.0015368573 0.022787191 0.014372813 4290127648
0.0003810674 0.022828683 0.014256177 4290127648
0.0025371835 0.021395072 0.015521767 4289604389
0.0045821741 0.020699374 0.016095864 4289146409
0.0063832514 0.021478817 0.015288277 4289473828
0.00830606 0.021520838 0.015171656 4289800993
0.010228712 0.021562964 0.015055133 4290324509
0.012416784 0.020130642 0.016319146 4290323998
0.015157703 0.015749685 0.020342903 4289342758
0.018345911 0.0091580525 0.026434442 4288753964
0.022428852 -0.0018550139 0.036661536 4288688684
-0.033727493 -0.0068926811 0.040981717 4286921024
-0.031909104 -0.0046285447 0.038779452 4287444538
-0.030177092 -0.0016237777 0.035885818 4287837238
-0.028248826 -0.00084160641 0.035070471 4288164914
-0.026401494 0.00068129227 0.033563413 4287968819
-0.024565116 0.0022040494 0.032057151 4288100143
-0.022982394 0.0059484653 0.028476311 4288230958
-0.021343397 0.0089519359 0.025588861 4288231214
-0.019553589 0.010474097 0.024085673 4288558124
-0.017863842 0.012736522 0.021892028 4288557868
-0.016282365 0.015739132 0.019008351 4288492333
-0.014722798 0.018741377 0.016126098 4288950058
-0.012990601 0.020262763 0.014626836 4289473574
-0.011069413 0.020303663 0.014509512 4289669668
-0.0090455934 0.01960456 0.015082711 4289735204
-0.0070164166 0.018905696 0.015655665 4289146408
-0.0051982664 0.01968706 0.014848197 4289343013
-0.0034966059 0.021208391 0.013351163 4289866529
-0.0018059723 0.022729564 0.011854937 4290651164
0.00010635331 0.022770952 0.011738656 4290323998
0.0021376573 0.02207268 0.012311889 4290520093
0.0042960979 0.020634882 0.013574192 4289669924
0.0060916469 0.021416459 0.012768539 4289211944
0.0081361607 0.020718757 0.013341254 4289146408
0.010185957 0.020021308 0.013913685 4289015593
0.012771994 0.016366191 0.017240351 4288884778
0.015520588 0.011972342 0.021253871 4288230703
0.018854473 0.0046219192 0.028018666 4287183928
0.022947293 -0.0064237453 0.038220868 4287118649
-0.030008601 -0.0054556299 0.03677132 4287575353
-0.028144894 -0.0039281435 0.035266399 4287837238
-0.026292138 -0.0024007894 0.033762306 4288034098
-0.024450339 -0.00087350607 0.03225892 4288099633
-0.022781184 0.0021391958 0.029375998 4288231214
-0.020966781 0.0036661103 0.027874527 4288230958
-0.019163355 0.0051929224 0.026373809 4288427309
-0.017548965 0.0082048289 0.023494517 4288427309
-0.016048238 0.011958953 0.019927187 4288753963
-0.014574882 0.015712656 0.016361577 4288623148
-0.013031676 0.018723361 0.013486939 4289146408
-0.011310518 0.020249061 0.011991652 4289669669
-0.0093950257 0.020289987 0.011874782 4289211689
-0.0073742419 0.019588768 0.01244664 4288950314
-0.0054562278 0.019629952 0.012329767 4289539364
-0.0039817393 0.022639781 0.0094597582 4289146919
-0.0023020469 0.02416515 0.0079674106 4289343270
-0.00016813353 0.022722244 0.0092278067 4289408549
0.0019765571 0.021279749 0.010487607 4290193184
0.0040102452 0.020579465 0.011059167 4289604389
0.006049253 0.019879404 0.011630481 4289343013
0.0080935694 0.019179542 0.012201613 4289342759
0.01053302 0.016254805 0.01483391 4289146408
0.013126809 0.012588896 0.018152041 4288950313
0.016153887 0.0066989493 0.023529029 4288557869
0.019362535 6.8521127e-05 0.029590188 4287380534
0.023183499 -0.0095266718 0.038394466 4286660668
-0.027750812 -0.010003645 0.038212247 4288098614
-0.026183009 -0.0054912642 0.033954903 4287771958
-0.024413845 -0.0032144897 0.031765737 4288034099
-0.022822663 0.00055198371 0.028200632 4288295983
-0.021008292 0.002083268 0.026702402 4288362029
-0.019118667 0.0028696172 0.025893128 4288165423
-0.017323526 0.0044007841 0.024396216 4288034608
-0.015722774 0.0074212886 0.021524353 4288099888
-0.014332781 0.011930786 0.017278543 4288034608
-0.012975611 0.016439687 0.013034811 4288296493
-0.011451516 0.019458916 0.010167895 4288688684
-0.0096414983 0.020244267 0.0093639996 4289081129
-0.0076263621 0.019540764 0.0099346023 4289146409
-0.0057139508 0.019581869 0.0098181013 4289473574
-0.0041340403 0.02185604 0.0076415483 4289866019
-0.0025706068 0.024129961 0.005466152 4289670179
-0.00067491084 0.024171013 0.0053508971 4289408549
0.0015775897 0.021979779 0.0072943326 4289343013
0.0038463213 0.019788947 0.0092368964 4289931808
0.0058824196 0.019086666 0.0098067839 4289474084
0.0080509707 0.017640613 0.011062181 4289081129
0.010619935 0.0139632 0.014373602 4288819498
0.013481237 0.008798819 0.019054202 4288100143
0.016515877 0.002891548 0.024417816 4287315254
0.019732025 -0.0037583634 0.030463928 4286660668
0.023278642 -0.011894409 0.037876911 4286333504
-0.02437746 -0.0055595674 0.031269602 4286987069
-0.022621971 -0.0032763816 0.029086249 4287902773
-0.020966362 -0.00024634413 0.02621725 4288099634
-0.019160274 0.0012892708 0.024722869 4287969329
-0.017365171 0.002824815 0.02322921 4288230959
-0.015672687 0.0051071085 0.021050112 4288034608
-0.014091032 0.0081360787 0.018186001 4288230959
-0.012531284 0.011164717 0.015323324 4288230958
-0.010993455 0.014192984 0.012462063 4288230958
-0.0092724338 0.015727513 0.010973414 4288819499
-0.0075624287 0.017261967 0.0094854888 4288623404
-0.0058634467 0.018796235 0.0079983436 4289015849
-0.0042862222 0.021076944 0.0058268532 4290323999
-0.0024985448 0.021864466 0.0050262958 4290716953
-0.00071645528 0.022651982 0.0042261612 4290586139
0.0015357323 0.020454209 0.0061647631 4290586139
0.003804151 0.018256839 0.0081024934 4289866529
0.0062131733 0.015313745 0.010723582 4289081383
0.0085167363 0.01311741 0.012659295 4289146918
0.011096187 0.0094292723 0.015962021 4288820009
0.013835277 0.0049958751 0.019946909 4289016613
0.016742185 -0.00018265471 0.024613494 4288165933
0.019549105 -0.004614396 0.028594466 4287249973
0.023092177 -0.012774518 0.035989843 4286726459
-0.022663621 -0.0048695542 0.027906464 4287771958
-0.021091329 -0.0010814965 0.024358837 4287772724
-0.019201884 -0.00029077381 0.023552829 4287903794
-0.017495673 0.001998309 0.021377644 4288165423
-0.015714314 0.0035380125 0.019888202 4288165423
-0.014038261 0.0058266986 0.017715035 4288165423
-0.012184583 0.0066171475 0.016911576 4288099888
-0.010535985 0.0089054853 0.014740264 4288165423
-0.0088013522 0.010444678 0.013254037 4288688939
-0.0074986257 0.014979061 0.0090333354 4288688683
-0.0059048831 0.017266523 0.0068656653 4288754219
-0.0043276213 0.019553803 0.0046990514 4289211944
-0.0025400221 0.020343512 0.0039001219 4289277223
-0.00075800717 0.021133229 0.0031016301 4289669923
0.0013750046 0.019677415 0.0043524355 4289735458
0.0037619583 0.016725015 0.0069683082 4289277733
0.0062949173 0.013024796 0.010265557 4289212453
0.0087279454 0.010073613 0.012878792 4289540384
0.011442158 0.0056264699 0.016855383 4289605663
0.014056437 0.001928376 0.020147962 4289213474
0.016697813 -0.0017690286 0.023438973 4289409823
0.019228328 -0.0047176238 0.026046628 4289540383
0.022624489 -0.01215387 0.03274291 4288558888
-0.019243499 -0.0018705092 0.022383025 4287512369
-0.017448472 -0.00032620691 0.020895874 4287970094
-0.015572902 0.00046666339 0.020092526 4288231468
-0.013891365 0.0027620271 0.017923901 4287969329
-0.012032315 0.0035547838 0.017121745 4288034608
-0.010278527 0.0050986409 0.015637504 4288296238
-0.0084332973 0.0058913529 0.014836369 4288492844
-0.0070142969 0.0096880868 0.011306895 4288231469
-0.0055147633 0.012733351 0.0084612686 4288819754
-0.0040371753 0.015778303 0.0056170262 4288558124
-0.0022414774 0.0165704 0.0048192516 4288754219
-0.00045136362 0.017362535 0.0040218513 4289277223
0.0016895793 0.015902482 0.0052689761 4289212199
0.0040843375 0.012941532 0.0078778993 4289212198
0.0066250339 0.0092305765 0.011166586 4289670688
0.009192843 0.0055203401 0.014453722 4289867549
0.011787757 0.001810804 0.017739294 4289933338
0.014144924 -0.00039723702 0.019662274 4289737244
0.016383104 -0.0018544346 0.020903973 4289999128
0.018769916 -0.0040616095 0.022825314 4289214239
-0.017578863 -0.001147747 0.019047989 4287578159
-0.015706109 -0.00035274401 0.01824644 4287773744
-0.013933085 0.0011957027 0.016764058 4288035118
-0.011977211 0.0012373142 0.016644591 4288034608
-0.010220721 0.0027856175 0.01516345 4288100144
-0.0084752366 0.0043338053 0.013683064 4288230959
-0.0068458691 0.006635081 0.011522839 4288231214
-0.0051251389 0.0081830248 0.010044103 4288296493
-0.0036365315 0.011236906 0.0072057154 4288427308
-0.0020565912 0.013537474 0.0050487649 4289081129
-0.00026109442 0.014331881 0.0042527169 4288885033
0.0020037703 0.012114782 0.006175993 4289146663
0.0045277961 0.0083924532 0.0094575156 4289932063
0.0069547631 0.0054236017 0.012058096 4289605663
0.0094033927 0.0024553165 0.014657428 4290195479
0.011744037 0.00024028867 0.016576493 4290195989
0.013836138 -0.00046911091 0.017136795 4289868568
0.016068622 -0.0019308161 0.018375656 4289542169
0.02426314 -0.01383724 0.028871199 4288036648
0.027003754 -0.017553799 0.032140359 4289212963
0.029473972 -0.019765193 0.034052156 4288950569
-0.013974816 -0.00037029758 0.015604461 4287774508
-0.012019094 -0.00032867864 0.015485013 4288231469
-0.010262635 0.0012240056 0.014007119 4287968818
-0.0084148608 0.0020211376 0.01320908 4288034864
-0.0067827329 0.0043290444 0.01105356 4288231469
-0.0047359914 0.0036154799 0.011614257 4288296493
-0.0031258874 0.0059231017 0.0094602983 4288623659
-0.0015322678 0.0082305335 0.0073073898 4288819754
0.00016082451 0.0097825602 0.005833881 4288754473
0.0023176037 0.0083142109 0.0070735533 4289212453
0.0048493706 0.0045811497 0.010346515 4289998108
0.0072841346 0.0016037356 0.012940137 4289736988
0.0096137002 -0.00061817095 0.014854943 4290130199
0.011700302 -0.0013299659 0.01541389 4290131219
0.013659898 -0.0012867488 0.015295332 4288823834
0.023787949 -0.013185275 0.025648097 4289215003
0.026374001 -0.016158439 0.028233239 4289605408
0.028684359 -0.017622232 0.029464567 4289669924
0.031005394 -0.019085627 0.030695288 4290061603
0.033183035 -0.019794382 0.031249491 4287837238
-0.012254585 -0.00037896447 0.012969999 4287185458
-0.010404084 0.00042032078 0.012173345 4287838259
-0.0085591264 0.0012195893 0.011377105 4288034864
-0.0068247132 0.0027764551 0.0099039357 4288100144
-0.0048858821 0.0028182045 0.0097858887 4288296238
-0.0030575991 0.0036174823 0.0089909341 4288623404
-0.0014612228 0.0059315246 0.0068427213 4288623148
0.00035047159 0.0067306925 0.0060489625 4288492844
0.0023938157 0.0060153436 0.0066085961 4289474339
0.0049278624 0.0022714548 0.0098733399 4289802013
0.0071168356 0.00079963729 0.011108035 4290195224
0.0093165599 -0.00067178905 0.012342123 4289999639
0.011267986 -0.0006288439 0.012223991 4288168994
0.023456249 -0.013276689 0.023109945 4289606938
0.02559885 -0.013988717 0.023664409 4289998619
0.027895343 -0.015457157 0.024893345 4289473829
0.030051183 -0.016168669 0.025447177 4289408293
0.03205825 -0.016123515 0.02532641 4289342249
0.033908356 -0.015321866 0.024531538 4291631129
0.036071781 -0.016032908 0.025085134 4288883248
-0.0069716237 0.0019839089 0.0080788508 4288165169
-0.0050356686 0.0020255875 0.0079609696 4288100399
-0.0032101981 0.0028269961 0.0071678162 4288164913
-0.0013903044 0.0036284588 0.0063750558 4288557614
0.00053986162 0.0036703832 0.0062577985 4288558123
0.0027070269 0.0021934975 0.0074904095 4289212964
0.0050062425 -4.2382628e-05 0.009397177 4289932573
0.0070736632 -0.00075913221 0.0099539179 4290392084
0.0090196505 -0.00071642175 0.0098360311 4288168994
0.020852711 -0.011885528 0.019351447 4288560928
0.023124766 -0.013359016 0.020578442 4289998873
0.025261756 -0.014073385 0.021131674 4290129178
0.027403977 -0.014787491 0.02168463 4289866783
0.029248971 -0.01398395 0.020891557 4289801503
0.030934323 -0.012421755 0.019426124 4291044884
0.0319818 -0.0078253783 0.015271151 4290587669
-0.0071184263 0.0011960082 0.0062572025 4287053624
-0.0051853471 0.0012376532 0.0061395168 4287837493
-0.0032523647 0.0012793913 0.0060219057 4288230959
-0.0014325567 0.0020830408 0.005230777 4288361774
0.00061324239 0.0013632476 0.0057869926 4288492843
0.0026643611 0.00064375438 0.0063429512 4289736479
0.0049632564 -0.0015986804 0.0082448758 4290063644
0.0069065243 -0.0015561227 0.0081270821 4288299554
0.020667467 -0.012715545 0.017501483 4288233254
0.022793535 -0.013432374 0.01805366 4289147939
0.024779115 -0.013387971 0.017933981 4289867549
0.026764523 -0.013343485 0.017814381 4290129179
0.028447334 -0.011777109 0.01635232 4290259739
0.029811259 -0.00868918 0.013548726 4289409058
0.030213367 -0.0010370258 0.006720759 4289149724
-0.0015878044 0.001301812 0.0034147333 4287970604
0.0005707778 -0.00018406473 0.004641328 4288297003
0.0027401336 -0.0016695317 0.0058673229 4289671709
0.0049202666 -0.0031547043 0.0070927814 4288037414
0.0203421 -0.01277755 0.014984606 4289082659
0.022462521 -0.013496706 0.015535558 4289016869
0.024296839 -0.012689196 0.014746184 4289605664
0.025680322 -0.0095923478 0.011947783 4289802013
0.027041819 -0.0064958539 0.0091507379 4290980624
0.00029699504 -0.00019897148 0.0021554548 4288167718
0.017907474 -0.012108918 0.011924589 4289737754
0.020016979 -0.012830572 0.012474453 4289474849
0.02213176 -0.013552 0.013024079 4289344289
0.023669321 -0.011211717 0.010899948 4289605663
0.024596971 -0.0058103427 0.0061039645 4289671963
0.015489683 -0.011426459 0.008873472 4289345564
0.017588239 -0.01215062 0.0094223116 4289671198
0.019551974 -0.012106902 0.0093038063 4290652183
0.021372702 -0.011295431 0.0085184891 4290652183
0.022168893 -0.0051110405 0.0030661412 4290131218
0.013220582 -0.01150023 0.006497357 4289542169
0.015310928 -0.01222687 0.0070449933 4289933849
0.017131913 -0.011413455 0.0062610991 4289278754
0.018947292 -0.010599988 0.0054775998 4291110673
0.020328734 -0.0074772034 0.0026986171 4289475613
0.011091843 -0.012336925 0.004791772 4289280539
0.012913048 -0.011521521 0.00400934 4289933849
0.014863197 -0.011478293 0.0038915165 4289802524
0.016538668 -0.009890765 0.0024457239 4289606174
0.017923106 -0.0067592431 -0.00032707676 4288690213
0.012210492 -0.009210621 -0.00046024844 4287968819
0.014146883 -0.009167687 -0.00057723373 4289409824
0.015534304 -0.0060274918 -0.0033438224 4290980624
0.013027903 -0.0045053903 -0.0070125554 4289408804
-0.021340936 -0.0027377624 0.020652415 4282938179
-0.021548793 -0.0028030276 0.018124079 4281633089
-0.019670548 -0.0020059645 0.017323641 4281630539
-0.017797822 -0.0012089089 0.016523628 4282480199
-0.02150692 -0.005133329 0.017638424 4281306688
-0.019883728 -0.0020601302 0.014803963 4281043529
-0.018016553 -0.0012609959 0.014005912 4281434954
-0.016154902 -0.000461841 0.013208305 4281826378
-0.02295227 -0.012070511 0.021333816 4282607954
-0.021548271 -0.0067074802 0.01647274 4281368399
-0.019839164 -0.0043857396 0.014321649 4281107788
-0.018057926 -0.0028242208 0.012848346 4280520523
-0.016196368 -0.0020229053 0.012052348 4280716874
-0.014340337 -0.0012215562 0.011256805 4281242429
-0.012489844 -0.00042020902 0.010461679 4281699133
0.013307735 -0.0029080249 0.011622703 4284639793
-0.022993864 -0.013659662 0.020157011 4282411859
-0.021506568 -0.0090437625 0.015982727 4281041489
-0.019966282 -0.0051906891 0.012485759 4280585804
-0.018187804 -0.0036249068 0.011015901 4280129353
-0.016420309 -0.0020592436 0.009546807 4280326469
-0.01456983 -0.0012557786 0.0087531824 4280521798
-0.01282157 0.00030971877 0.0072854366 4281304904
-0.010885477 0.00035105832 0.007167289 4281957704
-0.008949466 0.00039250962 0.0070492346 4283003204
0.011180822 -0.0037547816 0.0099095721 4284705838
-0.023356525 -0.012190019 0.016284524 4281824594
-0.021796957 -0.008325804 0.012794422 4280520269
-0.020093283 -0.0059910137 0.010653364 4280519759
-0.018317569 -0.0044209342 0.0091869142 4280259403
-0.016644016 -0.0020865407 0.0070478804 4280129864
-0.014799081 -0.0012810621 0.0062562544 4280064838
-0.012863051 -0.0012398325 0.0061380304 4280455244
-0.011026464 -0.00043427385 0.0053471029 4280259658
-0.0091954283 0.00037131459 0.0045565516 4281173068
-0.0073699281 0.0011768863 0.0037664883 4281500743
0.0068633929 -0.0031121355 0.0069750063 4283984953
0.0090595968 -0.0045966692 0.0081996284 4283790134
0.01152524 -0.0076080263 0.010765674 4283790133
-0.022169944 -0.0068277102 0.0089438502 4279537499
-0.020305824 -0.0060199983 0.0081524067 4279540049
-0.018535612 -0.0044456255 0.0066894889 4279737674
-0.01677637 -0.002871396 0.0052273851 4280063308
-0.014840417 -0.0028303005 0.005109068 4280389964
-0.01300111 -0.0020226166 0.0043195114 4280324173
-0.011167351 -0.001214901 0.003530331 4280389453
-0.009441141 0.00035912357 0.0020706113 4280323918
-0.0076211877 0.0011667479 0.0012824982 4280519759
-0.0058067814 0.0019743685 0.00049480796 4282087499
-0.0037775226 0.0012496915 0.0010485966 4283199044
0.0046350583 -0.0031785537 0.0046011452 4284050999
0.0066964105 -0.0039019566 0.0051534139 4283790898
0.0091427416 -0.0069225468 0.0077140816 4283725363
0.011610728 -0.0099425418 0.010273533 4283791408
-0.020432532 -0.0068088416 0.0063285157 4278362713
-0.01848842 -0.0067678075 0.0062095262 4279344208
-0.016635437 -0.0059578586 0.0054205246 4279802698
-0.01478797 -0.005147947 0.0046319924 4279933258
-0.013042543 -0.0035693925 0.0031741634 4280062798
-0.011208873 -0.0027594883 0.0023866147 4279997264
-0.0093807355 -0.001949627 0.0015995316 4280193614
-0.0076628327 -0.00037129782 0.00014365092 4280128334
-0.0059559382 0.0012069531 -0.0013115183 4280389453
-0.0041498989 0.0020167008 -0.0020969883 4281564748
0.0047132038 -0.005497748 0.0041209459 4283789369
0.0069008693 -0.0069913473 0.0053395666 4283725363
0.0090992749 -0.0084845386 0.0065575931 4284117810
0.011566874 -0.011513262 0.0091105904 4284510253
-0.016676733 -0.00751088 0.0042705312 4278818654
-0.014829364 -0.0066987928 0.0034836214 4279276889
-0.013083976 -0.0051158816 0.0020290278 4279668569
-0.011250403 -0.0043037906 0.0012431107 4279929688
-0.0094223544 -0.0034917276 0.00045767054 4279866703
-0.0075998493 -0.0026796814 -0.00032735802 4279866703
-0.0057828985 -0.0018676203 -0.0011119433 4279867213
-0.0040815845 -0.00028499775 -0.0025634393 4279997518
-0.002165664 -0.00024346076 -0.0026798882 4280585039
-1.8786639e-05 -0.0017426442 -0.0014622752 4280976718
0.0023753978 -0.0047821384 0.0010883696 4281109318
0.0046702623 -0.0070507396 0.0029710978 4282613054
0.0069813542 -0.0093188966 0.0048529878 4283724088
0.0093086585 -0.011586597 0.006733967 4284639794
-0.012932613 -0.0082080793 0.0022171065 4279210334
-0.01109368 -0.0073937252 0.0014325343 4279799129
-0.0092602745 -0.0065793619 0.00064838678 4279081813
-0.0074324198 -0.0057649594 -0.00013537332 4279475533
-0.0057174005 -0.004177833 -0.0015845019 4280389453
-0.0041234158 -0.0018180907 -0.0036985949 4280454733
-0.0022076406 -0.0017765593 -0.0038150363 4279996498
5.4448843e-05 -0.0040526744 -0.001935292 4279800149
0.0023327693 -0.0063283164 -5.6443736e-05 4279602524
0.004627306 -0.0086034471 0.0018214639 4280846669
0.0069380701 -0.010878153 0.0036985129 4283790133
-0.0094038025 -0.0073501691 -0.0011608917 4279343699
-0.0074742548 -0.0073086917 -0.0012784321 4279084109
-0.0057592653 -0.0057171974 -0.002724316 4280129353
-0.0039453171 -0.004900733 -0.0035054013 4280259403
-0.0021369308 -0.0040842369 -0.0042860396 4280649553
0.00012755021 -0.00636678 -0.0024113245 4279538009
0.0022901334 -0.0078742076 -0.001201041 4279797344
-0.0078294389 -0.0065206084 -0.0044096112 4278559318
-0.0060154833 -0.005702069 -0.0051891617 4279672904
-0.0040971711 -0.0056605581 -0.0053058118 4280129609
-0.002178967 -0.0056189522 -0.0054223835 4280519249
-0.00014552101 -0.0063541587 -0.0048767384 4279146329
-0.0062714703 -0.0056778919 -0.0076473802 4278557024
-0.0042489134 -0.006415749 -0.0071028657 4280126549
-0.0021084398 -0.007932594 -0.005897874 4279799639
0.011824653 -0.0028368626 -0.0156643 4284442169
0.011386186 -0.0073079839 -0.021446403 4284704308
0.013093077 -0.0079808794 -0.02332516 4284639028
0.018034849 -0.0091719357 -0.029581102 4284246583
-0.026032925 -0.0092383074 0.0086987633 4280176528
-0.024320928 -0.0068905409 0.0065667816 4279850638
-0.029474959 -0.016280718 0.012469517 4281093763
-0.028100643 -0.010069511 0.0069926418 4279125929
-0.024682038 -0.0053610951 0.0027385764 4278271168
-0.022748878 -0.0053205471 0.0026200674 4279322024
-0.020644678 -0.0068219397 0.0038392451 4278736544
-0.030090649 -0.011669316 0.0059577171 4279061413
-0.028439509 -0.0085349437 0.0031665303 4278797489
-0.026732905 -0.0061743036 0.001044441 4278797744
-0.024802582 -0.0061339345 0.00092602149 4278665399
-0.022955067 -0.0053201485 0.00014036521 4278468283
-0.020856583 -0.0068260711 0.0013566911 4279127204
-0.018923687 -0.0067852549 0.001238402 4279260059
-0.033764333 -0.016412215 0.0077100061 4280766344
-0.032149434 -0.012492965 0.0042565148 4278734758
-0.030346414 -0.010901221 0.0028039757 4278275249
-0.028554326 -0.0093096141 0.0013522469 4278930344
-0.026850438 -0.0069424883 -0.00076481327 4279128224
-0.025002981 -0.0061266441 -0.0015489347 4278996899
-0.023078311 -0.0060862545 -0.0016669109 4278536368
-0.019140974 -0.0067804512 -0.0012371764 4278275758
-0.017213751 -0.0067396294 -0.0013550259 4278669479
-0.015286596 -0.0066987015 -0.0014727898 4278408359
0.0065240227 -0.010113322 0.00055451691 4279132303
0.008463569 -0.010070669 0.00043708086 4280504203
-0.035637587 -0.019576069 0.0080005247 4281815158
-0.034202348 -0.013311733 0.0025584847 4279587224
-0.032603692 -0.0093818661 -0.00088594854 4278734504
-0.030745329 -0.0085640177 -0.0016694237 4278275249
-0.021279704 -0.0068072658 -0.0035884436 4279520414
-0.019358022 -0.0067666862 -0.0037060492 4279258528
-0.017436409 -0.0067259837 -0.0038235523 4278734249
-0.015701968 -0.0051302873 -0.0052678846 4279259294
-0.013593379 -0.0066441912 -0.0040582605 4279850639
-0.011770986 -0.0058258418 -0.004838597 4278870929
0.0061103478 -0.0093352124 -0.0025795735 4279915664
0.0077890679 -0.0077392776 -0.0040194467 4280305813
0.0095857419 -0.0069201458 -0.0047972277 4281877889
-0.035741296 -0.020367352 0.0061730538 4282274158
-0.034308501 -0.014085584 0.00074407086 4279062689
-0.032643486 -0.010925056 -0.0020287596 4278734503
-0.030856915 -0.0093249707 -0.0034737661 4279258784
-0.027162291 -0.0076849703 -0.0050358213 4278272699
-0.023489635 -0.0060448572 -0.0065961778 4278407083
-0.02166155 -0.0052248128 -0.0073756939 4278801059
-0.019574843 -0.0067438651 -0.0061682835 4278604454
-0.017749606 -0.0059236381 -0.0069474466 4278538153
-0.010097176 -0.005760286 -0.0074144509 4279520414
0.0055735558 -0.0077647399 -0.0063638072 4279389343
0.010807179 -0.0045225807 -0.0093503734 4279778983
-0.035781432 -0.021936383 0.0050110798 4282208113
-0.034215987 -0.017201908 0.00091883354 4280045968
-0.032614361 -0.013250263 -0.0025095791 4278996898
-0.030968383 -0.010081266 -0.0052746627 4279258783
-0.029121157 -0.0092591438 -0.0060541071 4279063199
-0.027125247 -0.010001245 -0.0055106934 4278538919
-0.025363356 -0.00839689 -0.0069507062 4278669989
-0.023612408 -0.0067926962 -0.0083899247 4278473384
-0.021787152 -0.0059705079 -0.0091676312 4278473384
-0.019791428 -0.0067121089 -0.0086238319 4278538408
-0.017790312 -0.0074534677 -0.0080802683 4278275504
-0.015970685 -0.0066310354 -0.008857361 4278665143
-0.014060413 -0.0065903217 -0.0089739859 4278796469
-0.010240108 -0.0065085255 -0.0092069451 4279519394
-0.0084344223 -0.0056858994 -0.0099828215 4278995369
0.0012185723 -0.0062602554 -0.0099035092 4278407339
0.0031279698 -0.0062184688 -0.010019271 4278667948
0.0051606558 -0.0069576912 -0.0094765462 4279716508
0.0070725381 -0.006915627 -0.0095922928 4278666673
0.0089842789 -0.0068734474 -0.0097079426 4279124653
-0.035821561 -0.023505151 0.0038493033 4281814903
-0.03418982 -0.01954212 0.00042702444 4280242573
-0.032447647 -0.017148437 -0.0016732588 4279194268
-0.030721847 -0.014755016 -0.003772404 4279063198
-0.028863825 -0.013930447 -0.0045509376 4278603689
-0.027011281 -0.013105921 -0.0053290036 4278604709
-0.025243983 -0.011497133 -0.0067660678 4278801314
-0.023652585 -0.0083200503 -0.0095209489 4278538664
-0.021912629 -0.0067116041 -0.010956164 4278735268
-0.019919844 -0.0074554328 -0.010413792 4278472108
-0.017921664 -0.0081990305 -0.0098716635 4278799528
-0.016011478 -0.0081584249 -0.0099883629 4279257763
-0.014197469 -0.0073338225 -0.010763412 4279520159
-0.012191329 -0.0080768727 -0.010221491 4278470069
-0.010382921 -0.0072521325 -0.010996008 4279716254
-0.008371491 -0.007994825 -0.010454226 4278471089
-0.006568715 -0.0071699712 -0.011228226 4279129244
-0.0026424341 -0.0078708623 -0.010802615 4278407594
-0.00096330047 -0.0062623546 -0.012233107 4278603434
0.00094062835 -0.0062208101 -0.01234863 4279127458
0.0028444305 -0.0061791502 -0.012464057 4278733484
0.0047481321 -0.0061373599 -0.012579379 4278928559
0.0067777559 -0.0068787038 -0.012037993 4278864554
0.0084263384 -0.0052702446 -0.013466247 4279651993
0.010326914 -0.0052281953 -0.013581137 4279849364
-0.035925027 -0.024286868 0.0020289179 4280701319
-0.034229826 -0.02109972 -0.00072647072 4279915154
-0.032418847 -0.019486178 -0.0021633636 4279587478
-0.030618798 -0.017872717 -0.0035995468 4279062943
-0.028681181 -0.017832415 -0.0037185792 4279521179
-0.026897538 -0.016219072 -0.0051535163 4279585948
-0.025284227 -0.01303296 -0.0079033775 4279324829
-0.023775179 -0.0090608019 -0.011309447 4279259294
-0.021952845 -0.0082343537 -0.012083763 4279128224
-0.02004814 -0.0081941225 -0.01220032 4278734504
-0.016238917 -0.0081132837 -0.012433138 4279192483
-0.014526496 -0.0065005179 -0.013863104 4279454369
-0.012726277 -0.0056738984 -0.014635595 4278864809
-0.010728598 -0.0064191818 -0.014094681 4278274484
-0.0087255575 -0.0071642213 -0.013553998 4278602669
-0.0068241023 -0.0071231965 -0.013669715 4278276014
0.00078075752 -0.0069579314 -0.014131641 4279062689
0.0028022639 -0.0077019036 -0.013591509 4278602924
0.0063572153 -0.0060473513 -0.015132098 4278270658
-0.036028378 -0.025063977 0.0002119448 4280307343
-0.03433584 -0.021868162 -0.0025368016 4279914388
-0.03252764 -0.020250272 -0.0039703269 4279521943
-0.030658897 -0.019421309 -0.0047463458 4279587478
-0.028721442 -0.019381033 -0.0048653875 4279259803
-0.026937842 -0.017763322 -0.0062970761 4279455388
-0.025324464 -0.014568499 -0.009040474 4278866339
-0.023732927 -0.011374002 -0.011782435 4278472618
-0.022078143 -0.008968316 -0.013867089 4279194014
-0.020088503 -0.0097166095 -0.013327717 4278801059
-0.014855171 -0.0056538694 -0.016952911 4278272189
-0.011073928 -0.0055728834 -0.017183468 4279061414
-0.0090792552 -0.0063203331 -0.016643858 4278866084
-0.0069723539 -0.0078555103 -0.015449975 4279127713
-0.0049642548 -0.008602364 -0.014911027 4278668458
-0.0031754598 -0.0077732112 -0.01568076 4279192739
-0.0015072785 -0.0061562527 -0.017104136 4279651994
0.00050324202 -0.0069027077 -0.016565079 4278997919
0.0025190897 -0.0076489355 -0.016026262 4278604454
0.0045402721 -0.0083949361 -0.015487688 4279125673
0.0061889403 -0.0067779068 -0.016909512 4278599098
0.0099787861 -0.0066941623 -0.01713868 4280175254
-0.036194842 -0.025045294 -0.0022572372 4280177294
-0.034309819 -0.024214072 -0.0030328315 4279850128
-0.032498941 -0.022591831 -0.0044632573 4279325338
-0.030627584 -0.02176059 -0.0052378606 4279260313
-0.028761694 -0.020929378 -0.0060119908 4279390874
-0.026978144 -0.019307312 -0.0074404432 4279259804
-0.025285117 -0.016894549 -0.0095227826 4279390364
-0.023526167 -0.01527276 -0.010949549 4279390619
-0.021778164 -0.013651013 -0.012375581 4278603689
-0.02004111 -0.012029429 -0.013800819 4278668969
-0.018315015 -0.010407903 -0.015225329 4279455644
-0.016599873 -0.0087865265 -0.016649036 4278408104
-0.013202492 -0.0055440497 -0.019494198 4278406828
-0.011418883 -0.0047133174 -0.020262361 4278407339
-0.0094326027 -0.0054630674 -0.019723887 4278603688
-0.0074409619 -0.0062126033 -0.019185664 4278472364
0.0022361688 -0.0075870492 -0.018454337 4279519649
0.0044980235 -0.009914998 -0.016613137 4278603689
0.0061466768 -0.0082936361 -0.018031742 4278603434
0.0080415271 -0.0082518235 -0.018146368 4278864809
0.0096735805 -0.0066305529 -0.019563837 4280438668
-0.034415707 -0.024977615 -0.0048395377 4281030524
-0.03253898 -0.024144264 -0.0056129117 4279129243
-0.030667726 -0.023310835 -0.0063858833 4279456664
-0.028876018 -0.021684391 -0.007811714 4279456153
-0.02694164 -0.021644048 -0.007930466 4279521943
-0.025166351 -0.020017641 -0.0093551353 4279587224
-0.023401998 -0.01839136 -0.010778983 4279325084
-0.021648586 -0.016765205 -0.012202084 4278931363
-0.018265041 -0.012720455 -0.015698355 4278341549
-0.016640361 -0.010301955 -0.017771181 4279193504
-0.014936225 -0.0086763045 -0.019190943 4279192994
-0.013144463 -0.0078433342 -0.019958068 4278931363
-0.011358213 -0.0070103463 -0.020724759 4278669479
-0.0093694255 -0.0077622496 -0.020188075 4278668714
-0.0073752627 -0.0085138865 -0.019651607 4278275249
-0.0054852366 -0.0084729735 -0.019766528 4278339508
-0.0038197301 -0.0068474654 -0.021183349 4278536114
-0.0020502806 -0.0060142558 -0.021948583 4279189678
0.001833111 -0.0067240875 -0.021526314 4279126184
0.0038402714 -0.007474741 -0.020990115 4278603433
0.0058527663 -0.0082251653 -0.020454159 4278341294
0.0076134875 -0.007391585 -0.021218443 4278996389
0.0094999 -0.0073498487 -0.021332476 4280374153
-0.032579008 -0.025696432 -0.0067623723 4282733158
-0.030707862 -0.024860838 -0.0075337291 4281094783
-0.028916202 -0.023230029 -0.0089563122 4279980689
-0.027058726 -0.022394523 -0.0097266082 4279849619
-0.025206743 -0.021558939 -0.010496497 4279522454
-0.02344243 -0.019928325 -0.011917125 4279586969
-0.021604149 -0.019092817 -0.012685943 4279324829
-0.019771365 -0.018257299 -0.01345433 4278472874
-0.018034454 -0.016626853 -0.014873049 4278932129
-0.016401578 -0.014201702 -0.01694149 4278604454
-0.014785122 -0.01177674 -0.019008884 4278473128
-0.013086542 -0.010146715 -0.020424969 4279128223
-0.011398919 -0.0085168537 -0.021840259 4278997154
-0.0095143132 -0.0084763169 -0.021955043 4278930343
-0.0058547854 -0.0076004006 -0.022833869 4278471343
-0.0040853247 -0.0067651458 -0.023597585 4279324319
-0.002436284 -0.0051354617 -0.025010115 4278931363
-0.00044544041 -0.0058888756 -0.024474714 4278799274
0.0016710684 -0.007436363 -0.023290634 4278274484
0.0036753118 -0.0081892535 -0.022755872 4278669224
0.0055591054 -0.0081477985 -0.022869913 4278538154
0.0071858168 -0.0065181032 -0.024280643 4278866085
0.009063933 -0.0064765364 -0.024394162 4278669733
-0.02895638 -0.024775416 -0.010100726 4280307088
-0.027099008 -0.023937723 -0.010869388 4279980434
-0.025405945 -0.021505384 -0.012937195 4279391128
-0.023482861 -0.021465018 -0.013055064 4279586969
-0.021729536 -0.019830145 -0.014471682 4279128479
-0.01981199 -0.01978964 -0.014589023 4278407594
-0.018075122 -0.018154837 -0.016004505 4278931873
-0.0163492 -0.016520165 -0.017419165 4278801824
-0.014729997 -0.014088625 -0.019481886 4278866849
-0.01133842 -0.010819931 -0.022307135 4279193759
-0.0097630024 -0.008389011 -0.024366874 4279127203
-0.0079907365 -0.0075516999 -0.025129354 4278930343
0.0012686253 -0.0065511428 -0.02634613 4278864299
0.0031415224 -0.0065100547 -0.026459603 4278669224
0.0052657016 -0.0080614761 -0.025279036 4278472619
0.0068869479 -0.0064275004 -0.026686244 4278603688
0.0088906288 -0.0071822703 -0.026152834 4278341549
0.010631893 -0.0063445382 -0.026912542 4280965243
-0.027445802 -0.02228253 -0.014605321 4279915153
-0.025604913 -0.021442886 -0.015371269 4279718549
-0.023605358 -0.022202048 -0.014840804 4279783318
-0.021600401 -0.022960966 -0.014310574 4279521688
-0.019765088 -0.022121066 -0.015075902 4278538919
-0.018025538 -0.02048183 -0.016488297 4279194269
-0.016296932 -0.018842781 -0.017899916 4279259803
-0.014483588 -0.018002946 -0.018663604 4278866593
-0.012872599 -0.015564933 -0.020720886 4279063708
-0.011278022 -0.013127149 -0.022777077 4278801824
-0.0098037235 -0.009890683 -0.025478788 4278734758
-0.0081381239 -0.0082523096 -0.026886137 4279390364
-0.0064834952 -0.0066140983 -0.028292691 4278537898
-0.00099812821 -0.0056935176 -0.029278718 4278274738
0.00098675489 -0.0064513031 -0.028746104 4278538154
0.0029769875 -0.0072088577 -0.02821373 4278538409
0.004972551 -0.0079661869 -0.027681595 4278800294
0.0067166984 -0.007126458 -0.028440043 4278472108
0.010322124 -0.0062453263 -0.029310839 4279386793
0.012325354 -0.0070020556 -0.028778849 4280306068
0.014333896 -0.0077585448 -0.028247088 4280374664
-0.025645055 -0.022974703 -0.016505608 4281816434
-0.023645712 -0.023736058 -0.015976757 4280833154
-0.021725712 -0.023695624 -0.016094336 4279783574
-0.019805761 -0.023655083 -0.016211834 4279324573
-0.018066248 -0.022011528 -0.01762102 4279064218
-0.01633768 -0.02036811 -0.019029394 4279194779
-0.014620068 -0.01872481 -0.02043701 4278998173
-0.012815066 -0.017882813 -0.021198524 4279128734
-0.011015572 -0.017040865 -0.02195958 4279062688
-0.0096368305 -0.012994351 -0.025300419 4278472874
-0.008072339 -0.010550454 -0.027349757 4278865828
-0.0065242574 -0.0081068221 -0.029397957 4279063199
-0.0046566986 -0.0080662966 -0.029511437 4278866594
-0.0029039159 -0.0072247759 -0.030269219 4278604199
-0.00092184544 -0.0079849046 -0.029738126 4278603944
0.0009454228 -0.0079440624 -0.029851351 4278669479
0.0028125905 -0.0079030897 -0.029964469 4278472874
0.0048052259 -0.0086626541 -0.029433772 4278602923
0.0084134005 -0.0077795181 -0.030303288 4278794683
0.010146353 -0.0069376491 -0.031059286 4278401474
0.014013119 -0.0076549985 -0.030641321 4279718038
0.016163241 -0.0092138844 -0.029468365 4279589009
-0.021766219 -0.025229434 -0.017230129 4280503183
-0.019933829 -0.024385225 -0.017992033 4279325084
-0.018016811 -0.024344612 -0.018109253 4278998173
-0.016285567 -0.022696726 -0.019514587 4279128734
-0.014660843 -0.02024556 -0.021563083 4279325594
-0.01285594 -0.019401409 -0.022322992 4279325594
-0.010955516 -0.019360632 -0.022438813 4279456409
-0.0092626587 -0.01771317 -0.023841437 4279063199
-0.007687252 -0.015262494 -0.02588658 4278603944
-0.0046975948 -0.0095588071 -0.030616533 4279193504
-0.0030595399 -0.0079119951 -0.032015502 4279127968
-0.00084568188 -0.010280444 -0.03020061 4278800294
0.0009040907 -0.0094365804 -0.030956419 4278996898
0.0027711242 -0.0093956226 -0.031069539 4278734504
0.0043869913 -0.007748846 -0.032466825 4278274994
0.0061201155 -0.0069050118 -0.033221379 4279192738
0.0079786293 -0.0068638921 -0.033333723 4278603943
0.0099707171 -0.007625347 -0.032804385 4278669733
0.013831727 -0.0083450768 -0.03238767 4278996899
0.015695181 -0.0083034262 -0.032500003 4278669479
0.017703075 -0.0090640923 -0.031971294 4278474403
0.020158138 -0.012231639 -0.029520415 4280833664
-0.023808302 -0.025997447 -0.018891303 4282797928
-0.022060599 -0.024345253 -0.020294704 4281488759
-0.020149132 -0.024304885 -0.020411678 4282537318
-0.018327789 -0.023458628 -0.021171212 4280112014
-0.01641915 -0.023418078 -0.021287834 4279653014
-0.014797132 -0.020960374 -0.023331342 4279587989
-0.012896795 -0.020919753 -0.023447273 4279587479
-0.011097487 -0.020073481 -0.024205102 4279456663
-0.0093037002 -0.019227186 -0.02496249 4279521943
-0.0061692372 -0.0143131 -0.029041991 4278276269
-0.0044029281 -0.013467008 -0.029797493 4278669478
-0.002642151 -0.01262097 -0.030552533 4278603689
-0.00065232068 -0.013385295 -0.030025154 4279324829
0.00098280236 -0.011734032 -0.031420518 4278995878
0.0024841875 -0.0092777694 -0.033455823 4279061669
0.0078060552 -0.0075448379 -0.03507397 4279979159
0.0095279813 -0.0066988729 -0.03582608 4279913623
0.011517029 -0.0074624494 -0.035298083 4279061923
0.013372339 -0.007421121 -0.035410028 4278931109
0.015369292 -0.0081843082 -0.034882352 4278866593
0.017371561 -0.0089473026 -0.03435494 4279195034
0.02011526 -0.013732758 -0.030631751 4279587989
0.0227415 -0.017712895 -0.027549516 4281291388
-0.031587142 -0.026880354 -0.020196838 4282535788
-0.029525556 -0.028457165 -0.01903031 4282667114
-0.018548388 -0.023367373 -0.023582272 4282275179
-0.016552607 -0.024134845 -0.023057686 4280308874
-0.014742369 -0.023286397 -0.023814742 4279391129
-0.012839459 -0.023245713 -0.023930822 4279391128
-0.011138435 -0.021589434 -0.025327601 4279653269
-0.0093447343 -0.020741001 -0.026083393 4279063198
-0.0075565651 -0.019892536 -0.026838738 4278669479
-0.0059920587 -0.017428968 -0.028873472 4279062944
-0.0042203888 -0.016580625 -0.029627638 4279193758
-0.0024542548 -0.015732298 -0.030381393 4278932128
-0.00057641789 -0.015691323 -0.030495331 4278669733
0.00082148239 -0.012421009 -0.033166107 4278865829
0.002320189 -0.0099583035 -0.035196424 4278931364
0.0039278716 -0.008303063 -0.036586724 4278865318
0.013330344 -0.008904608 -0.036508337 4279258528
0.015327115 -0.0096699884 -0.035982277 4279063199
0.017762516 -0.012855479 -0.03354321 4278801824
0.020513874 -0.017653786 -0.029830225 4279391129
0.023297731 -0.022451311 -0.026119083 4281291134
0.025351051 -0.023215024 -0.025596131 4282405229
-0.014878524 -0.023996398 -0.025579436 4281685108
-0.013076607 -0.023145858 -0.026334297 4279718803
-0.011280205 -0.022295289 -0.027088713 4279783828
-0.0094893202 -0.021444734 -0.027842714 4278668968
-0.00749138 -0.022213716 -0.027319416 4278932129
-0.0058151186 -0.020553287 -0.028711209 4279521434
-0.0042615533 -0.01808336 -0.030740306 4279259803
-0.0023810416 -0.018042462 -0.030854506 4279194014
-0.00061780214 -0.017191909 -0.031606384 4279390364
0.0010199882 -0.015531857 -0.0329955 4278669223
0.0022789501 -0.011443677 -0.036296193 4278931363
0.0037612692 -0.0089746891 -0.038320582 4279062943
0.0054832809 -0.0081246067 -0.039069641 4278735779
0.013288375 -0.01038788 -0.037606493 4279062688
0.01570994 -0.013582484 -0.035173126 4278407849
0.018153142 -0.016776526 -0.03274101 4280044694
0.021059256 -0.022396564 -0.028402196 4281027973
0.023553845 -0.025589237 -0.025973011 4281487229
0.025917519 -0.027972581 -0.024180695 4282012274
-0.011119492 -0.025432779 -0.026934981 4279979924
-0.009219747 -0.025391955 -0.027050717 4279127713
-0.0073200725 -0.025350992 -0.027166341 4279587479
-0.0058563016 -0.022062317 -0.02982855 4279324829
-0.0041910261 -0.020397706 -0.03121632 4279194268
-0.002422329 -0.019545007 -0.031967025 4279521689
-0.00065917149 -0.018692292 -0.032717288 4279062944
0.00085876137 -0.016216246 -0.034739178 4279128223
0.0023602806 -0.013740441 -0.03675998 4278603944
0.0038453825 -0.011264944 -0.03877968 4278341293
0.005570028 -0.010412583 -0.039527319 4278800293
0.0070277005 -0.0079374798 -0.041545201 4278735268
0.0088692568 -0.0078966599 -0.041656464 4278735013
0.010983013 -0.0094783539 -0.040497649 4278866084
0.013524175 -0.013493432 -0.03743482 4278669988
0.018543396 -0.020710338 -0.031948332 4279651994
0.02131008 -0.025534466 -0.028255625 4280110739
0.023809742 -0.028735675 -0.025833244 4280766089
0.026026044 -0.030314501 -0.024680106 4280963203
0.027787518 -0.029460346 -0.025429172 4282602854
-0.013354149 -0.024548113 -0.029849961 4281945464
-0.01146264 -0.024507565 -0.029965267 4280766853
-0.0094677508 -0.025281109 -0.029445123 4282537319
-0.0076798461 -0.024426153 -0.030195627 4280242574
-0.0058974661 -0.023571154 -0.030945748 4279652759
-0.00434383 -0.021088218 -0.032965191 4279520924
-0.0024636015 -0.021047339 -0.033079382 4279455899
-0.00081758946 -0.019378539 -0.034462638 4279325084
0.00093723461 -0.01852373 -0.035210706 4279062944
0.0024415217 -0.016041432 -0.037226826 4278735013
0.0040545911 -0.014373004 -0.038607825 4278276269
0.005656682 -0.012704775 -0.039988048 4278473639
0.0072477758 -0.011036629 -0.041367568 4278669733
0.008961264 -0.010182208 -0.042112745 4279128733
0.011213593 -0.012581702 -0.040323865 4279259039
0.013620947 -0.015794141 -0.037902649 4280242063
0.016333003 -0.020632677 -0.034216516 4280701318
0.018644784 -0.02303048 -0.032431025 4281159808
0.021266725 -0.027054381 -0.02938088 4281225598
0.023466613 -0.028637981 -0.028230101 4282078574
-0.013394769 -0.026058868 -0.030968623 4280439179
-0.0079331435 -0.024304312 -0.032581534 4282209898
-0.0061562806 -0.023447331 -0.033329688 4280568973
-0.0042733885 -0.023406517 -0.033444133 4279521179
-0.0025048628 -0.022549465 -0.034191594 4279390108
-0.00074186176 -0.021692444 -0.034938648 4279128734
0.00089587644 -0.020019375 -0.036318094 4278538408
0.0025226474 -0.01834649 -0.03769676 4278276524
0.0042635873 -0.017489608 -0.038442224 4278866338
0.0057432242 -0.015001062 -0.040451884 4278800549
0.007467635 -0.014144325 -0.041196186 4278866083
0.0093198158 -0.014103323 -0.041308135 4278931874
0.011579979 -0.016509132 -0.039524615 4279061923
0.013995126 -0.01973011 -0.03711034 4280504714
0.016714845 -0.024581533 -0.033434365 4281094528
0.018890288 -0.026170285 -0.032285456 4281421693
0.021076474 -0.027758677 -0.03113718 4281553529
-0.017125543 -0.02846886 -0.031223424 4279126438
-0.0064148381 -0.02331461 -0.035707038 4282078063
-0.004537534 -0.023273921 -0.035821147 4280635019
-0.0025460981 -0.024051424 -0.035303675 4280831879
-0.00078317896 -0.023192251 -0.036049128 4279194015
0.00097419694 -0.022333011 -0.036794178 4279128989
0.0026036762 -0.020655729 -0.038169786 4279127713
0.0042221621 -0.018978577 -0.039544649 4278866338
0.0058296658 -0.017301515 -0.040918805 4278866338
0.0076872669 -0.01726051 -0.041031167 4279783828
0.0094114989 -0.016401527 -0.041773789 4279587223
0.011810057 -0.019631661 -0.039365038 4278866084
0.014230266 -0.022861235 -0.036957532 4279259549
0.01681352 -0.026907895 -0.033921391 4279586458
0.01884729 -0.02768329 -0.033405609 4280569993
0.021033231 -0.029276041 -0.032260552 4282405993
-0.0025873147 -0.025553204 -0.036415629 4280372115
-0.00070759654 -0.025512252 -0.036529727 4280112524
0.00093282387 -0.023830462 -0.037902907 4280374153
0.0025622845 -0.022148836 -0.039275289 4279062688
0.0041807666 -0.020467376 -0.040646948 4279128479
0.0059160143 -0.019606147 -0.041388825 4279259804
0.0076457262 -0.018744981 -0.042130243 4279521943
0.0095030852 -0.018703885 -0.04224252 4279653014
0.011903998 -0.021942683 -0.039840378 4280243083
0.014326554 -0.025180921 -0.037439488 4280374154
0.016346674 -0.025958892 -0.036924571 4281094784
-0.0048423037 -0.024627468 -0.039298624 4282078829
-0.00098257512 -0.025368666 -0.038897827 4282407014
0.00089147314 -0.025327744 -0.039011508 4280898944
0.0025209151 -0.023641812 -0.040380694 4279718549
0.0042643622 -0.022778405 -0.041121505 4279128479
0.0058745593 -0.021092625 -0.042489395 4279324829
0.0076042078 -0.020229308 -0.043229215 4279259803
0.0093283057 -0.01936602 -0.043968625 4279587988
0.01172613 -0.022613592 -0.041572765 4280963714
0.014007021 -0.025038434 -0.03980498 4281553784
0.016021524 -0.025818795 -0.03929133 4282406759
0.020066474 -0.027378757 -0.038264841 4282602088
0.0023573861 -0.02430995 -0.042112127 4281422969
0.0039731115 -0.022619834 -0.043477222 4279784848
0.0058331415 -0.022578899 -0.043589823 4279456663
0.0075627156 -0.021713443 -0.044328041 4279456154
0.0094198249 -0.0216724 -0.044440337 4280045969
0.011548411 -0.023279963 -0.043301798 4280767364
0.013964783 -0.026535675 -0.040913485 4282733414
-0.0066867769 -0.028484665 -0.040773034 4281029248
0.0038069896 -0.023279196 -0.045201939 4281881969
0.0055365935 -0.022411691 -0.045938641 4280570759
0.0075212568 -0.023197444 -0.045426778 4279783574
0.0093782358 -0.023156418 -0.045539074 4278996644
0.011506576 -0.024768339 -0.044403747 4280439434
0.0074798204 -0.024681291 -0.046525396 4281686129
-0.0090648569 -0.028192353 -0.045364715 4282274413
0.0074384212 -0.026164992 -0.047623917 4281161084
0.013146643 -0.026872564 -0.047340255 4281815414
0.0073970519 -0.027648576 -0.048722345 4282078063
