# .PCD v0.7 - Point Cloud Data file format
VERSION 0.7
FIELDS x y z rgba
SIZE 4 4 4 4
TYPE F F F U
COUNT 1 1 1 1
WIDTH 961
HEIGHT 1
VIEWPOINT 0 0 0 1 0 0 0
POINTS 961
DATA ascii
0.051732145 0.0029707272 0.024160223 4287903538
0.054380141 0.00078083761 0.026059089 4287903539
0.057273515 -0.002154937 0.028631823 4288033844
0.061580665 -0.0095677199 0.035251454 4288033844
-0.0093111396 -0.00085746869 0.027617631 4287640634
-0.008044444 0.0029427614 0.024094323 4288229939
-0.0070951134 0.0082436074 0.019215474 4288950314
-0.0061841011 0.013543693 0.014339162 4289146663
-0.0051609874 0.018092481 0.010143813 4289277734
-0.0035581365 0.019638987 0.0086633693 4288950569
-0.0018105134 0.020435056 0.0078616664 4289343269
-0.00022710115 0.021981297 0.0063826311 4290455323
0.0013452172 0.023527415 0.0049043559 4289539363
0.0032345206 0.023573065 0.004781818 4288819754
0.0052903891 0.022868706 0.005336687 4289277734
0.0073514879 0.022164615 0.0058912523 4289800483
0.0090734139 0.022960579 0.0050916709 4289342759
0.01096461 0.023006646 0.0049692933 4289408038
0.013033219 0.022303002 0.0055235624 4289473574
0.014926694 0.0223493 0.0054011662 4289669668
0.01718612 0.020896355 0.0066312905 4289669924
0.01927039 0.020193299 0.0071847811 4289866019
0.021548383 0.018740984 0.0084138326 4289473574
0.023837022 0.017289003 0.0096422564 4289211944
0.025942333 0.016586712 0.010194572 4289081129
0.028249525 0.015135353 0.011421923 4288950568
0.030367933 0.01443358 0.011973457 4288885289
0.033097893 0.011484409 0.014549764 4288558379
0.035644516 0.0092849452 0.016449904 4288427564
0.038207158 0.0070860144 0.018349035 4288427563
0.040996142 0.0041385274 0.020921705 4288493098
0.043380618 0.002689464 0.022144439 4288231469
0.045775689 0.0012407731 0.02336649 4288165934
0.047744535 0.0012899879 0.023240017 4287903793
0.049934223 0.00059054419 0.023787381 4287707188
0.052129112 -0.00010876171 0.0243345 4287707189
0.054782249 -0.0023049824 0.026228143 4287707189
0.057909988 -0.0059978366 0.029467342 4287706678
-0.0096376091 -0.00093652867 0.025087526 4287118393
-0.0080917999 0.0013688523 0.022927204 4288230194
-0.006707415 0.0044267084 0.020090951 4288557104
-0.0056402534 0.0089895446 0.015902402 4289080874
-0.0046059713 0.013551695 0.011716068 4289343013
-0.0032983869 0.016608046 0.0088850521 4289408803
-0.0018569753 0.018911442 0.0067318939 4289016103
-0.00043207407 0.021214506 0.0045799352 4290193694
0.0011375397 0.022764957 0.0031050947 4290716953
0.0030239895 0.022810562 0.0029827636 4290389788
0.0050769448 0.022104008 0.0035361703 4290389788
0.0069657341 0.022149863 0.0034138262 4290454814
0.0085100383 0.023700023 0.0019409489 4289604389
0.010567814 0.022993861 0.0024942476 4289669668
0.012808397 0.021535913 0.0037222821 4289538853
0.015239932 0.019326428 0.0056244265 4289408038
0.017321542 0.018621078 0.0061764326 4288950058
0.019594103 0.017164195 0.0074025355 4288950314
0.022065759 0.014955921 0.0093023274 4288950313
0.024553478 0.012748169 0.011201104 4288623403
0.026863396 0.011292415 0.01242503 4288362029
0.028987333 0.010588543 0.012974553 4288231214
0.031515121 0.008381974 0.014870962 4288035119
0.034058973 0.0061759111 0.016766341 4288231214
0.036414124 0.0047215801 0.017987585 4288296493
0.038779877 0.0032676253 0.01920815 4288362284
0.041156247 0.0018139649 0.02042813 4288296238
0.043330282 0.0011117999 0.020974768 4288361774
0.045725144 -0.0003412161 0.02219362 4287838003
0.048130602 -0.0017939527 0.023411876 4287707189
0.050767712 -0.0039972216 0.025301611 4287641399
0.053420857 -0.0062000584 0.027190419 4287641144
0.055863507 -0.0076516382 0.02840638 4287445049
0.059233613 -0.012105758 0.032308333 4287313724
-0.0084234029 0.0013052505 0.020409027 4287970093
-0.006899491 0.0036167894 0.018255087 4288557868
-0.0052445307 0.0051731002 0.016777622 4289211944
-0.0043521076 0.010503436 0.01192536 4289146918
-0.0031919479 0.014323393 0.0084255431 4289670179
-0.0020591989 0.018142803 0.0049275924 4289146919
-0.00079540908 0.02120704 0.0021060724 4289669923
0.00076878071 0.022761667 0.00063487142 4290323999
0.0026496872 0.022807168 0.00051291659 4289866019
0.0048636273 0.021343907 0.0017391331 4289735203
0.0069189221 0.020635346 0.0022908542 4289342758
0.0088073909 0.020681309 0.00216862 4289277224
0.011045225 0.019218864 0.0033935402 4289408038
0.013293713 0.017756814 0.0046177991 4289538854
0.015913337 0.014786886 0.0071878005 4289342503
0.018005647 0.014079666 0.0077374522 4289081128
0.02028884 0.012618685 0.0089597013 4288558123
0.02258268 0.011158077 0.010181276 4288426798
0.025078267 0.0089439601 0.012074733 4288296238
0.027589925 0.0067303143 0.013967216 4288296238
0.029921137 0.005270863 0.015186558 4288165423
0.032462202 0.003058115 0.017077269 4288165423
0.035019331 0.00084585883 0.018966945 4288100398
0.037183158 0.000141019 0.019512514 4288165934
0.039559543 -0.0013169963 0.020729175 4288361774
0.041526295 -0.0012679826 0.020602724 4288296238
0.043918461 -0.0027254671 0.02181848 4288426798
0.046321258 -0.0041826498 0.023033647 4288230193
0.048952892 -0.0063926317 0.024918845 4287575863
0.052042589 -0.01010838 0.028144227 4287510328
0.054935433 -0.013070293 0.030697485 4288229428
-0.0069466755 0.0020543728 0.017096514 4288165678
-0.0051442161 0.0028579999 0.016295964 4289211944
-0.0037980527 0.0059326552 0.013475373 4289212199
-0.002779752 0.010520736 0.0093096569 4289604898
-0.0021056384 0.016621927 0.0037998557 4289604643
-0.0010001063 0.020451693 0.00031186268 4289211944
0.00072249025 0.021253923 -0.00048310868 4289211944
0.0029309541 0.019786092 0.00074016489 4289669668
0.0051501095 0.01831858 0.0019628629 4289277223
0.0072106645 0.017607989 0.0025126319 4289146664
0.0092764497 0.016897628 0.0030621439 4289277223
0.011696927 0.014674621 0.0049552135 4289408039
0.013956048 0.013208488 0.0061755553 4289081129
0.016586177 0.010230111 0.0087383986 4288885033
0.018506303 0.010277236 0.008614406 4288688938
0.020797417 0.0088121369 0.009832859 4287969329
0.023099184 0.007347364 0.011050751 4288165934
0.025411583 0.0058829561 0.012267958 4288165423
0.027928375 0.0036629178 0.014155259 4287838259
0.030264758 0.0021992754 0.015371056 4287772724
0.032810993 -1.9880012e-05 0.017256575 4287772724
0.035171352 -0.001482809 0.018470978 4287641653
0.037542343 -0.0029453766 0.0196847 4287903284
0.040131293 -0.005163243 0.021567641 4287903029
0.042316154 -0.0058695283 0.022110322 4287902773
0.044718958 -0.0073310733 0.023322171 4287706424
0.047347896 -0.0095477384 0.02520269 4287575354
-0.0071385875 0.0012515467 0.015265914 4287774763
-0.0051914826 0.0012980718 0.015139239 4288624169
-0.003695026 0.0036222786 0.012997005 4289408549
-0.0026737377 0.0082235336 0.0088408403 4289343268
-0.0019964874 0.014342247 0.0033438187 4289735969
-0.00088802725 0.018183017 -0.00013622642 4289997089
0.00099828839 0.018228589 -0.00025857799 4288819244
0.0032119527 0.016756507 0.00096117891 4288884778
0.005602777 0.014526037 0.0028510746 4288885034
0.0076713264 0.013813442 0.0033987667 4288688939
0.01008895 0.011583803 0.0052870698 4288035119
0.012173392 0.010871833 0.0058338325 4288100398
0.014440455 0.0094015021 0.0070504639 4288231469
0.017078362 0.0064146258 0.009606339 4288231469
0.019006543 0.0064619519 0.0094818324 4288231469
0.021305569 0.0049927197 0.010696558 4288034608
0.023426987 0.0042820908 0.011241257 4288035119
0.025744602 0.0028134324 0.012454946 4287838513
0.028266512 0.0005870685 0.014337046 4287773234
0.03080453 -0.0016388875 0.01621818 4287707189
0.033159472 -0.003106365 0.017429655 4287707189
0.03572686 -0.0053313915 0.019308979 4287641653
0.038105778 -0.0067981239 0.02051902 4287510329
0.041117124 -0.010537872 0.023732962 4287902774
0.04352542 -0.012003686 0.024941182 4286790718
-0.0053861514 0.00049986318 0.013312306 4288232744
-0.0037422404 0.0020692013 0.011845376 4289212964
-0.0025678724 0.0059222579 0.0083690099 4289474593
-0.0017319545 0.011297228 0.0035547074 4289670689
-0.00030130893 0.01362673 0.0014218669 4289735713
0.0015957654 0.01367257 0.0012988299 4288819498
0.0038200542 0.012196394 0.0025146566 4288296493
0.0062214434 0.0099596735 0.0043990277 4288362029
0.0083006769 0.0092452187 0.0049443766 4288427308
0.010557033 0.0077700987 0.0061583314 4287969583
0.012649454 0.0070561729 0.0067029819 4288296749
0.014747113 0.0063424371 0.0072473399 4288231469
0.017210059 0.0041076168 0.009128103 4288165933
0.01932361 0.0033944696 0.0096715838 4288035119
0.021627828 0.0019209981 0.0108828 4288034864
0.023566335 0.0019687675 0.010757765 4287904304
0.026077315 -0.00026448071 0.012635643 4287707699
0.028604373 -0.0024973042 0.014512574 4287642419
0.03134384 -0.005489869 0.017055815 4287707189
0.033905745 -0.0077216132 0.01893059 4287445304
0.036887273 -0.01147313 0.022138251 4287510329
0.039486751 -0.013703832 0.024010761 4287314233
-0.0037894845 0.00051637739 0.010693934 4289344289
-0.002614893 0.0043803677 0.0072256885 4289605408
-0.0014677048 0.0082437769 0.003759278 4289736224
0.00012665242 0.0098165777 0.0022990946 4289147174
0.002192691 0.0090993568 0.0028434824 4288492843
0.0044276044 0.0076191351 0.0040553436 4288558634
0.0065068603 0.0069023985 0.0045990683 4288492843
0.0085913613 0.0061859079 0.0051424671 4288231469
0.010852881 0.0047066435 0.0063528381 4288231468
0.012776054 0.0047536083 0.006228473 4288100398
0.015053503 0.0032748617 0.0074379817 4288165933
0.017161645 0.0025593229 0.0079801306 4288362538
0.01945769 0.0010812581 0.0091885347 4287970094
0.021393605 0.0011289101 0.0090636276 4287773743
0.023517393 0.00041398033 0.0096050054 4287512368
0.026028082 -0.0018258039 0.011478046 4287512368
0.029135481 -0.0063526314 0.015347658 4287446578
0.03247153 -0.011640948 0.019880841 4287250229
0.035447419 -0.015403528 0.023080735 4287119159
-0.0041366369 0.00049529411 0.008208679 4288364069
-0.0026619285 0.0028387513 0.0060825683 4289344289
-0.0012037158 0.0051818471 0.0039576329 4289801503
0.00055420399 0.0059936643 0.0031667948 4289539618
0.0023065209 0.0068053957 0.0023764353 4288493098
0.0042167753 0.0068516824 0.0022526365 4288427563
0.0061268285 0.0068980847 0.0021289419 4288231469
0.0085437149 0.0046487413 0.0040027108 4288427563
0.010805003 0.0031651054 0.0052098483 4288362283
0.012902506 0.0024469625 0.005750943 4288362538
0.014828071 0.0024941117 0.0056265183 4288166188
0.01675345 0.0025413428 0.0055021681 4287970094
0.018861189 0.0018236786 0.0060428418 4287839789
0.020974167 0.0011062622 0.0065831933 4287447088
-0.001095362 0.0028792769 0.003484631 4289409058
0.00066523999 0.003693305 0.0026952922 4289343779
0.0022594333 0.0052749813 0.0012416579 4288623913
0.004169561 0.0053212903 0.0011178851 4288623913
0.0062457174 0.0046001691 0.001658529 4288689448
0.0084960759 0.0031117983 0.0028631222 4288362538
0.010585435 0.0023912061 0.0034030676 4288428329
0.012505665 0.0024381429 0.0032789279 4288364069
0.01460278 0.0017179251 0.0038185082 4287775529
-0.0011424199 0.0013425723 0.0023451708 4289213218
0.00061813742 0.0021587778 0.0015574563 4289081893
0.0022123381 0.003744822 0.00010706857 4288820264
0.0041223466 0.0037911385 -1.6685575e-05 4288297004
0.0060321689 0.003837537 -0.00014036708 4288297768
0.0082795396 0.0023447685 0.0010612011 4288101674
0.010366008 0.0016219243 0.0015997123 4287971369
-0.0016550869 0.0021225438 -0.00077959895 4288167974
0.00025516748 0.0021686871 -0.00090350397 4288821284
0.0021652281 0.0022149216 -0.0010273233 4288297769
-0.0097921379 -0.011263958 0.0036754478 4287970604
-0.011779707 -0.012863074 0.0026502926 4289016869
-0.0094150901 -0.015160326 0.0044926759 4288951843
-0.007610485 -0.014332654 0.0037098434 4288888349
0.026394919 -0.017427297 0.0048363563 4287906089
-0.012103602 -0.012848793 0.00018935092 4290785039
-0.0098860152 -0.014369404 0.0013726689 4290652694
-0.0079456642 -0.014323041 0.0012464337 4289409823
0.019201435 -0.013663541 -0.00051162019 4290392338
0.020954318 -0.01283343 -0.0012884289 4290195733
0.023076579 -0.013567912 -0.00076146796 4290587414
0.025394283 -0.015084291 0.00041663274 4290259994
0.02791556 -0.017382462 0.002245428 4289147173
0.031039879 -0.02202622 0.0060265623 4287969839
-0.012150269 -0.014396774 -0.00095853209 4289737754
-0.010074157 -0.01513618 -0.0004314892 4290456344
-0.0081366599 -0.015089868 -0.00055752508 4289344799
-0.006345965 -0.014258063 -0.0013361303 4289804054
0.01545348 -0.016095886 -0.00076173805 4289411354
0.017214894 -0.015263591 -0.0015375521 4289869334
0.018970661 -0.014431313 -0.0023129862 4290784529
0.020536087 -0.012814655 -0.0037381398 4290063898
0.022652738 -0.013551413 -0.0032124808 4290849044
0.024774626 -0.014287949 -0.0026870919 4291110163
0.027287439 -0.016592843 -0.00086260214 4290651929
0.030207522 -0.020465685 0.0022598766 4287707698
-0.012750573 -0.012793384 -0.0047125546 4289017634
-0.010826685 -0.012747514 -0.0048377933 4289605664
-0.0089029334 -0.01270154 -0.0049629416 4290718484
-0.0068327636 -0.013443028 -0.0044369521 4289933083
-0.0047572926 -0.014184336 -0.0039111981 4289935633
0.0045589432 -0.012376888 -0.005836512 4289217044
0.0059845522 -0.0099687772 -0.0079103755 4289803034
0.0080670044 -0.010709155 -0.0073845806 4289344543
0.010325775 -0.012236301 -0.0062096091 4289279009
0.012769006 -0.014550058 -0.0043859454 4290718484
0.015228361 -0.016863318 -0.0025632465 4290652693
0.017345428 -0.017602481 -0.0020394158 4290326294
0.018921949 -0.01598124 -0.0034621488 4291241488
0.020302773 -0.013573598 -0.0055326531 4289671199
0.022041813 -0.012739393 -0.0063052671 4289605409
0.024155378 -0.013478345 -0.0057809139 4290128669
0.026466966 -0.015003516 -0.0046088481 4290782489
0.029375732 -0.018887488 -0.0014937138 4289473829
0.032509677 -0.023557078 0.002267478 4288950314
-0.013073653 -0.012752284 -0.0071535381 4290456344
-0.011155341 -0.012706538 -0.0072784051 4290980114
-0.0092371702 -0.012660698 -0.0074031921 4290390808
-0.0070261359 -0.014194251 -0.0062290328 4289932829
-0.0049535856 -0.014937753 -0.005704741 4290391573
-0.0031796545 -0.014101787 -0.0064788619 4289018653
0.00050880015 -0.013219439 -0.0073770639 4289085209
0.0027489811 -0.014751777 -0.0062044151 4290327824
0.0045113787 -0.013915682 -0.0069774846 4290129944
0.0059370771 -0.011501051 -0.0090465052 4290849044
0.0076828152 -0.010665131 -0.0098183993 4290849044
0.009935908 -0.012196814 -0.0086462582 4290652694
0.01219967 -0.013728082 -0.0074747698 4290128924
0.014650546 -0.016048068 -0.0056563737 4290128924
0.016759284 -0.016789626 -0.0051336335 4289212964
0.018509544 -0.015953189 -0.0059054429 4290390553
0.019885018 -0.013539089 -0.0079707718 4290979348
0.021431319 -0.011914149 -0.0093881749 4289605409
0.023726568 -0.01344414 -0.0082183415 4289278244
0.026417926 -0.016551059 -0.0057562077 4289800993
0.029130831 -0.0196574 -0.00329543 4290193694
0.031667076 -0.021974612 -0.0014820416 4289539109
0.034219421 -0.024291314 0.00033031777 4288818988
-0.014767103 -0.015916441 -0.0068691699 4290787589
-0.013119914 -0.014286434 -0.0082911635 4289998364
-0.011201736 -0.014240714 -0.0084160389 4290652949
-0.0094274133 -0.013402886 -0.0091888066 4289670943
-0.0073658153 -0.014148924 -0.0086654956 4290194458
-0.0054480582 -0.014102903 -0.0087901121 4289998619
-0.0033785999 -0.01484853 -0.0082671465 4290325783
-0.0014584363 -0.014802229 -0.0083917538 4289998873
0.00061887503 -0.01554748 -0.0078691589 4290064409
0.0025414377 -0.015500922 -0.0079937745 4290195223
0.0043010712 -0.014662711 -0.008765039 4290259994
0.0057241172 -0.012241573 -0.010829074 4290521623
0.0074670985 -0.011403586 -0.011599126 4290783253
0.0097172111 -0.012939687 -0.010430027 4290848533
0.011804387 -0.013684135 -0.0099076498 4290586904
0.014073156 -0.01521955 -0.0087396605 4289801759
0.016173564 -0.01596348 -0.0082179951 4290129179
0.017915636 -0.015125059 -0.0089876493 4290194458
0.019283086 -0.012704725 -0.011047602 4290913814
0.020821236 -0.011075562 -0.012461264 4291109909
0.02310811 -0.012610161 -0.011294091 4290782744
0.025598288 -0.014935168 -0.0094827609 4291175444
0.028299965 -0.018050482 -0.0070277285 4289997599
0.031023137 -0.021165159 -0.0045740027 4289997089
0.033767842 -0.024279252 -0.0021216273 4289932064
0.036127046 -0.025811652 -0.00095888227 4286071618
-0.017135404 -0.015117089 -0.0098257363 4289610509
-0.014813349 -0.017454702 -0.0080098584 4289934614
-0.01302794 -0.016614668 -0.0087819025 4289540128
-0.01110718 -0.016568881 -0.0089069409 4290194458
-0.0096175298 -0.01414043 -0.010971053 4289736479
-0.0077052116 -0.014094636 -0.011095388 4290063133
-0.0057930425 -0.014048724 -0.011219624 4290128924
-0.0037291944 -0.014796735 -0.010697892 4289605918
-0.0018146038 -0.014750555 -0.010822129 4290194459
9.9830329e-05 -0.014704296 -0.010946294 4290652439
0.002174072 -0.015451696 -0.010425042 4290783254
0.0039282218 -0.014611464 -0.011194351 4290652183
0.0056767315 -0.013771215 -0.011963253 4289081894
0.0072515309 -0.012137491 -0.013376483 4289736224
0.0093278289 -0.012884464 -0.012855084 4290128669
0.01140938 -0.013631224 -0.012333961 4290455578
0.013672486 -0.015171165 -0.011168795 4290194459
0.015409276 -0.014330813 -0.011936577 4290325274
0.01732216 -0.014283739 -0.012060005 4290063644
0.018865973 -0.012650182 -0.013470869 4289997598
0.020773046 -0.012603093 -0.013593805 4290390299
0.022679947 -0.012555921 -0.013716669 4290455578
0.025356986 -0.01568063 -0.011266584 4290324763
0.027664945 -0.017218854 -0.01010393 4290324509
0.030379608 -0.020342458 -0.0076561412 4289669923
0.033316545 -0.024258239 -0.0045670075 4289343269
-0.017314017 -0.015851919 -0.011606914 4289412118
-0.015265856 -0.016603142 -0.011086274 4289867038
-0.013350539 -0.016557593 -0.011211039 4290194203
-0.01143536 -0.016511928 -0.011335708 4290586904
-0.0098074898 -0.014873451 -0.012749871 4289735968
-0.0080443397 -0.014031432 -0.013518595 4291175699
-0.0062867627 -0.013189463 -0.014286895 4290914069
-0.0040795356 -0.014735943 -0.013122039 4290979348
-0.0021705106 -0.014689897 -0.013245914 4289736224
5.274266e-05 -0.016235856 -0.012081925 4289867038
0.0019668862 -0.016189482 -0.012205982 4289605409
0.0038808808 -0.016143043 -0.012329974 4290913558
0.0054640174 -0.014504832 -0.013740631 4290651929
0.0070361048 -0.012866816 -0.015150442 4289866784
0.0089387298 -0.012820361 -0.015273483 4289539618
0.011188164 -0.01436504 -0.014110782 4290521114
0.013272077 -0.015113816 -0.013591358 4289801504
0.015182316 -0.015066907 -0.013714692 4290390553
0.017092384 -0.015019907 -0.013837943 4290259739
0.018817894 -0.014177496 -0.014603257 4290063134
0.020537809 -0.013335125 -0.015368137 4290324764
0.022821471 -0.014878476 -0.014207286 4289932064
0.025308341 -0.017216671 -0.01240542 4289474084
0.027811311 -0.019554371 -0.010604519 4289146663
0.030132443 -0.021096574 -0.0094459169 4289277478
0.032865554 -0.024228359 -0.0070057428 4288753709
-0.023720711 -0.013521591 -0.015588258 4288889114
-0.021566965 -0.015074723 -0.014423847 4289607449
-0.019532379 -0.015828615 -0.013904141 4290653204
-0.017492473 -0.016582258 -0.013384691 4290129433
-0.01558261 -0.01653696 -0.013509193 4290194203
-0.01367287 -0.016491558 -0.013633605 4289867038
-0.011763263 -0.016446039 -0.013757921 4290389788
-0.010284357 -0.014004862 -0.015811598 4289932063
-0.0085294396 -0.013160835 -0.016578222 4289212198
-0.0066311285 -0.013115277 -0.016701574 4290390043
-0.0044295862 -0.014666282 -0.015539537 4291175188
-0.0023717284 -0.015418646 -0.015020622 4290651928
-0.00046570599 -0.015372595 -0.015144246 4290128923
0.0016000122 -0.016124558 -0.014625683 4290259483
0.0033458918 -0.015280193 -0.015391231 4290455579
0.0049208924 -0.013637879 -0.016798086 4290324763
0.006652832 -0.012793593 -0.017562613 4291240723
0.0083791837 -0.011949417 -0.018326683 4291240723
0.010793664 -0.014296524 -0.016525451 4290455578
0.01304812 -0.015845349 -0.015366253 4290586394
0.015134402 -0.016596178 -0.014848551 4290193694
0.017044365 -0.016549192 -0.014971804 4290324764
0.018954135 -0.016502138 -0.015094992 4289081894
0.02067671 -0.015657544 -0.015858438 4288624169
0.02353207 -0.019597385 -0.012780448 4288166189
0.025837056 -0.021144535 -0.011624116 4287904304
0.028152727 -0.022691285 -0.010468442 4287904049
0.030281164 -0.023440506 -0.009953035 4288361263
0.03261546 -0.024986725 -0.0087984372 4287117629
-0.027564477 -0.015128629 -0.016465547 4289938184
-0.025543366 -0.015885387 -0.015946783 4290065429
-0.023890182 -0.014238413 -0.017356722 4290326804
-0.0219937 -0.014193769 -0.017480601 4290259739
-0.019967489 -0.01495002 -0.016961956 4289998108
-0.017935939 -0.015706107 -0.016443558 4289605663
-0.015899085 -0.016461875 -0.015925435 4289867038
-0.013994921 -0.016416606 -0.016049486 4289735969
-0.012231626 -0.015570482 -0.016815169 4290586138
-0.010760821 -0.013122932 -0.018863507 4290717209
-0.0090141147 -0.012276981 -0.019627944 4288885033
-0.0071240813 -0.012231617 -0.019750752 4289408804
-0.0049309731 -0.01378716 -0.018591471 4290259229
-0.0028814673 -0.014541896 -0.018073628 4290063134
-0.00082666427 -0.015296455 -0.017556019 4290455833
0.0010736659 -0.015250457 -0.017679209 4290063389
0.0029738173 -0.015204356 -0.017802309 4289932063
0.0047085881 -0.014357927 -0.018565476 4289605154
0.0067736432 -0.015111865 -0.018048255 4289735969
0.0086733252 -0.015065501 -0.018171119 4289866784
0.010919541 -0.016618978 -0.017014699 4290128158
0.013176464 -0.018172102 -0.015858904 4290324509
0.0154441 -0.01972493 -0.014703698 4289604899
0.01717788 -0.018878067 -0.015466386 4288754729
0.019274488 -0.019630643 -0.01495084 4288100654
0.021376364 -0.02038303 -0.014435588 4287904559
0.024052501 -0.023533933 -0.012004919 4287577649
0.025980636 -0.023486212 -0.012129132 4287577139
0.028103687 -0.024237825 -0.011615056 4287641909
0.030429773 -0.025788661 -0.010463214 4288949294
-0.029624783 -0.015887197 -0.018108442 4290393358
-0.02760924 -0.01664635 -0.017591074 4290850318
-0.025588337 -0.01740529 -0.017073916 4290260503
-0.024059519 -0.014950652 -0.019121785 4291111183
-0.022292968 -0.014102831 -0.019886475 4291175953
-0.020402189 -0.014058228 -0.020009911 4290848279
-0.018246502 -0.015619735 -0.018851968 4291240723
-0.016215291 -0.016377814 -0.018335098 4289997599
-0.014178738 -0.017135739 -0.017818481 4290128414
-0.012699582 -0.014681596 -0.019862605 4290324764
-0.011093482 -0.013030624 -0.021265669 4291044118
-0.0092061721 -0.012985416 -0.021388369 4290717209
-0.0071701556 -0.013742922 -0.020871397 4290717209
-0.005128853 -0.014500146 -0.020354725 4290913559
-0.0030822456 -0.015257133 -0.01983832 4290782743
-0.0010303557 -0.016013885 -0.019322176 4290325018
0.00070741773 -0.0151655 -0.020084061 4290390299
0.0024395958 -0.014317131 -0.020845493 4289997343
0.004331328 -0.014271156 -0.020967988 4289997343
0.006558612 -0.01582963 -0.019813718 4289474084
0.0087966025 -0.017387809 -0.018660042 4288950568
0.011045299 -0.018945586 -0.017507026 4288231469
0.013304718 -0.020503053 -0.016354594 4289343779
0.015574813 -0.022060145 -0.015202841 4288100908
0.017311268 -0.021211047 -0.015964087 4287904558
0.019594595 -0.02276762 -0.014813045 4287773743
0.021888621 -0.024323909 -0.013662603 4287708208
0.024193332 -0.025879819 -0.012512838 4287577394
0.025931776 -0.025030367 -0.013273987 4287511349
0.027859651 -0.024982581 -0.013398129 4287510583
0.03038054 -0.027339365 -0.011612911 4289930278
-0.033130534 -0.019908216 -0.017062251 4288298024
-0.031565905 -0.01744668 -0.019107955 4288624679
-0.030017693 -0.014985421 -0.021152506 4289671453
-0.027891666 -0.016552603 -0.019996252 4290063644
-0.025997993 -0.01650827 -0.020120131 4289801758
-0.024228703 -0.015658343 -0.02088348 4290586903
-0.022591967 -0.014002929 -0.022285776 4290193948
-0.020706765 -0.013958462 -0.022408852 4290782744
-0.018689238 -0.014719162 -0.021892799 4291175444
-0.016666371 -0.015479673 -0.021376971 4290390043
-0.014776081 -0.015434757 -0.021500137 4290390044
-0.013167139 -0.013779453 -0.022900213 4289997343
-0.011282533 -0.01373447 -0.023022857 4290586393
-0.0095441118 -0.012884374 -0.023783522 4290389788
-0.0075137317 -0.013644145 -0.023267843 4290586394
-0.0054780543 -0.014403682 -0.022752427 4290520859
-0.003437072 -0.015163053 -0.022237252 4289735969
-0.0013908148 -0.015922129 -0.021722371 4289997343
0.00050111115 -0.015876353 -0.02184503 4289866528
0.0025552288 -0.016635051 -0.021330519 4289473828
0.0046146289 -0.017393528 -0.02081628 4288819753
0.0070149004 -0.019760737 -0.019028828 4288035118
0.009090282 -0.020518634 -0.018515483 4287970094
0.01134418 -0.022080684 -0.017366001 4287708464
0.013256885 -0.022033865 -0.017489607 4288362283
0.015705407 -0.024399487 -0.015705045 4288951078
0.017625928 -0.02435228 -0.01582901 4287839023
0.020098545 -0.026717193 -0.014045842 4287708208
0.022026859 -0.026669648 -0.0141702 4287642929
0.024144523 -0.027425934 -0.013659156 4287577393
0.025690712 -0.025770456 -0.015053829 4287576628
0.027420834 -0.024918938 -0.015812825 4288033843
0.029738322 -0.02647873 -0.014666934 4289734439
-0.03593282 -0.02959911 -0.011548694 4288431133
-0.033892862 -0.030362546 -0.011036534 4288102183
-0.032621864 -0.025469776 -0.014996486 4287970859
-0.031496946 -0.019769704 -0.019592911 4287970094
-0.030062027 -0.01649401 -0.022271272 4289278499
-0.028292619 -0.015642118 -0.02303317 4289997854
-0.026285749 -0.016405707 -0.022518383 4291044628
-0.024646197 -0.014746071 -0.023917697 4289867294
-0.022890691 -0.013894175 -0.024678439 4288885544
-0.021011066 -0.01384984 -0.024801152 4289604898
-0.018866792 -0.015420341 -0.023648953 4289605154
-0.016981959 -0.015375653 -0.023771835 4290193949
-0.01523507 -0.014523516 -0.024531685 4290062879
-0.013634268 -0.012864145 -0.025927987 4290128158
-0.011614695 -0.013626558 -0.025413375 4289931808
-0.0095898136 -0.014388735 -0.02489903 4289670178
-0.0074109435 -0.015957769 -0.023748606 4289997599
-0.0053727254 -0.016719498 -0.023234958 4289801249
-0.0031750947 -0.018287878 -0.022085603 4289801249
-0.0011235774 -0.019049015 -0.021572689 4289604899
0.00077366084 -0.01900311 -0.021695692 4288754474
0.002833046 -0.019763917 -0.021183113 4288362029
0.0048976913 -0.020524455 -0.020670841 4287707699
0.007135354 -0.022091405 -0.019523738 4287642164
0.0095541775 -0.024464592 -0.017742271 4287576628
0.011642799 -0.025224291 -0.017231362 4287576883
0.013560839 -0.025177319 -0.017355293 4288034863
0.015657298 -0.025936654 -0.016844764 4288558889
0.017759018 -0.026695766 -0.016334502 4287773744
0.020050026 -0.028260946 -0.015190427 4287577393
0.021791495 -0.027407244 -0.015948661 4287314998
0.023337923 -0.025747465 -0.01734023 4287380533
0.025065459 -0.024893973 -0.018097466 4287575863
0.026787415 -0.024040556 -0.018854296 4289472554
-0.035767339 -0.032762781 -0.011417953 4287709228
-0.033829983 -0.032718025 -0.011545136 4288101418
-0.032334931 -0.029432494 -0.01422116 4287970604
-0.031201541 -0.023717072 -0.018806791 4288100908
-0.029990345 -0.01881244 -0.022752963 4288754728
-0.02833702 -0.017148329 -0.024150163 4289670689
-0.026694659 -0.015484385 -0.025546502 4290521369
-0.024939131 -0.014630443 -0.026305726 4291175954
-0.023316015 -0.012966696 -0.027700692 4290782744
-0.021185488 -0.014542018 -0.02655087 4290521113
-0.019176524 -0.015307295 -0.02603751 4290979094
-0.017297264 -0.015262754 -0.026160041 4290455579
-0.01555587 -0.014408598 -0.026917933 4290455578
-0.013820048 -0.013554421 -0.02767542 4290128158
-0.011803381 -0.014319122 -0.027162198 4289604643
-0.0097814165 -0.01508355 -0.026649287 4289538853
-0.007605508 -0.016657038 -0.025501931 4289408293
-0.0054188594 -0.018230181 -0.024355136 4288362284
-0.0030674189 -0.020612061 -0.022574628 4288427818
-0.0010133609 -0.02137539 -0.022063483 4289343779
0.0010459796 -0.022138422 -0.021552628 4287904303
0.0032728165 -0.023710167 -0.020408195 4288035118
0.0051805079 -0.02366383 -0.020531744 4287707698
0.0075910315 -0.02604386 -0.018754678 4287576628
0.0096769184 -0.026805878 -0.018245269 4287511349
0.011941195 -0.028376371 -0.017103005 4287576883
0.013864547 -0.028329305 -0.017227309 4287773488
0.01578775 -0.028282147 -0.01735153 4288623914
0.017710768 -0.028234921 -0.017475687 4288035118
0.019633643 -0.028187629 -0.017599782 4287642163
0.021369651 -0.027331904 -0.018356061 4287903283
0.022910684 -0.025667999 -0.019744037 4286725693
-0.033874989 -0.034265276 -0.012692614 4287904559
-0.032048356 -0.033408087 -0.013455307 4287839534
-0.030793302 -0.028489528 -0.017394751 4288100908
-0.029686917 -0.022759357 -0.021967247 4288231468
-0.02850005 -0.017842168 -0.025902059 4288820263
-0.026981805 -0.015361839 -0.027929939 4289604898
-0.025355887 -0.013693856 -0.029321913 4289997598
-0.023614116 -0.012837945 -0.03007853 4290782744
-0.021618836 -0.013605843 -0.02956599 4290651928
-0.019618221 -0.014373492 -0.029053703 4290259484
-0.017477311 -0.015952712 -0.02790764 4290651674
-0.015601024 -0.015908141 -0.0280299 4290128413
-0.013584435 -0.016675103 -0.027518429 4289800993
-0.01156253 -0.01744183 -0.027007222 4289539618
-0.0095353164 -0.01820833 -0.026496287 4288754473
-0.0073542297 -0.019786069 -0.02535245 4288231468
-0.0050111264 -0.022174792 -0.023576343 4288035373
-0.002651833 -0.024563052 -0.021801159 4287969839
-0.00058982521 -0.02532831 -0.021292182 4288624169
0.001318045 -0.025282171 -0.021415893 4288492843
0.0033879206 -0.026047066 -0.020907296 4287904049
0.0054630861 -0.026811782 -0.020398933 4287707443
0.0075435415 -0.027576193 -0.019890852 4287511349
0.0099698752 -0.029962251 -0.018119656 4287249463
0.012066312 -0.030726165 -0.017612457 4287445813
0.013816535 -0.029868228 -0.018368341 4287772979
0.015561171 -0.0290104 -0.01912377 4288623404
0.017300218 -0.028152637 -0.019878782 4287969074
0.019033656 -0.027294911 -0.020633359 4287314744
-0.034027684 -0.034997739 -0.014474105 4287119414
-0.032093436 -0.034952946 -0.014601001 4287904303
-0.03061185 -0.031650241 -0.017263131 4288689703
-0.029383857 -0.026719185 -0.021191033 4288362538
-0.028425764 -0.020160101 -0.02638367 4289082404
-0.027026057 -0.016858958 -0.02904018 4289670689
-0.025524162 -0.014372446 -0.031062029 4289800993
-0.023785193 -0.013514468 -0.031816877 4290062879
-0.02179284 -0.014284594 -0.031305753 4289539363
-0.019662958 -0.015868492 -0.030162327 4289408803
-0.017387401 -0.018265996 -0.028387086 4289343523
-0.015370898 -0.019035257 -0.027877316 4288755239
-0.013208736 -0.020618074 -0.026735764 4289344289
-0.011321928 -0.020573057 -0.026858564 4288428074
-0.0091436841 -0.022155341 -0.025717873 4288035373
-0.0071032047 -0.022923596 -0.025209341 4287773744
-0.0047549754 -0.02531876 -0.023438379 4287969839
-0.0026984513 -0.026086424 -0.022930736 4287838769
-0.0004799664 -0.027667284 -0.021792393 4287773234
0.0015898794 -0.028434511 -0.021285456 4287904303
0.0036650077 -0.029201467 -0.020778827 4288231214
0.005580619 -0.029154966 -0.020902909 4287642674
0.0076636001 -0.029921545 -0.020396654 4287380278
0.0095816255 -0.029874824 -0.020520771 4287445814
0.011499494 -0.02982801 -0.020644808 4287314488
0.013065875 -0.028155237 -0.022028288 4286725948
-0.034503173 -0.033275377 -0.018149946 4289934103
-0.032579951 -0.033230849 -0.018276125 4288820264
-0.030882969 -0.031553004 -0.019666649 4289474594
-0.029428571 -0.028242132 -0.022320451 4289213218
-0.02835159 -0.022482162 -0.026868341 4289017123
-0.027070288 -0.018355861 -0.030150261 4288493353
-0.025692306 -0.0150465 -0.032798782 4289408549
-0.023702763 -0.015818996 -0.032289185 4289343013
-0.021707889 -0.016591256 -0.031779859 4289016614
-0.019575551 -0.018179454 -0.030639838 4289016869
-0.017297599 -0.020583432 -0.02886961 4288362538
-0.01527857 -0.021354813 -0.02836163 4288297004
-0.013113938 -0.022941979 -0.027223442 4288035373
-0.011081547 -0.023712827 -0.026716169 4288820774
-0.0087524131 -0.026115177 -0.024948971 4288689703
-0.0068523958 -0.026069654 -0.025072489 4287970094
-0.0046502128 -0.027655466 -0.02393648 4287839279
-0.0027450249 -0.027609637 -0.024060199 4287773489
-0.0005268082 -0.029194858 -0.022925079 4287707953
0.0013835579 -0.0291487 -0.023048982 4287838514
0.0036178008 -0.030733399 -0.021914726 4288623404
0.0053685606 -0.029871551 -0.022667671 4287903793
0.0071137398 -0.029009718 -0.023420237 4287576118
0.0088533238 -0.028147949 -0.024172315 4286791484
-0.033286549 -0.029853499 -0.023199784 4287707698
-0.031153824 -0.031446829 -0.022063615 4288296749
-0.029473271 -0.029764898 -0.023449736 4288165933
-0.02815906 -0.025627099 -0.026725825 4287708464
-0.026872132 -0.021489838 -0.030000057 4287773744
-0.025364704 -0.018990135 -0.032012627 4287970094
-0.023493815 -0.01894616 -0.032134883 4288428074
-0.021105681 -0.022175729 -0.029738888 4289147684
-0.019092076 -0.022949634 -0.029232334 4288689704
-0.016938344 -0.024541629 -0.028096838 4288362538
-0.01504885 -0.024496792 -0.028219994 4288166188
-0.013019264 -0.025269996 -0.027714245 4287904559
-0.010984346 -0.026042966 -0.02720876 4287904559
-0.0087984689 -0.027633764 -0.026075037 4288493609
-0.0068985745 -0.027588278 -0.026198573 4288950823
-0.0046966523 -0.029178461 -0.025065795 4288165678
-0.0027915761 -0.029132647 -0.025189515 4287772979
-0.00073011965 -0.029904496 -0.024685394 4287772979
0.0010181516 -0.029040741 -0.025436714 4287641653
0.0030847713 -0.02981226 -0.024932776 4286333504
-0.031650312 -0.029689914 -0.025711935 4287315253
-0.029864985 -0.028824747 -0.026465345 4287839279
-0.028321952 -0.026318017 -0.028475562 4287512114
-0.026916455 -0.022990713 -0.031113088 4287577393
-0.025285132 -0.021305226 -0.032492559 4288166188
-0.023158558 -0.022902517 -0.031358756 4288166188
-0.020891931 -0.025319995 -0.029597707 4288362283
-0.018873069 -0.026096009 -0.029093083 4288754728
-0.016848892 -0.026871724 -0.028588753 4289147939
-0.014819384 -0.027647216 -0.028084699 4288362538
-0.012784548 -0.028422484 -0.027580917 4287904558
-0.01088725 -0.028377295 -0.027704459 4287642674
-0.0089900829 -0.028331965 -0.027827885 4287838258
-0.006944716 -0.029106714 -0.027324514 4288230959
-0.0048940629 -0.029881226 -0.026821483 4289146409
-0.0031455755 -0.029015504 -0.027571358 4287510838
-0.030025061 -0.029517576 -0.028216738 4287184184
-0.028366372 -0.027827397 -0.029594913 4287381043
-0.02696076 -0.024491433 -0.032226004 4287381043
-0.025081899 -0.024447415 -0.032348886 4288689448
-0.02295015 -0.02604891 -0.031218713 4288951078
-0.020807613 -0.027650084 -0.030089118 4288035118
-0.018786252 -0.028428171 -0.029586319 4288100654
-0.016894184 -0.028383395 -0.029709734 4288493354
-0.014864869 -0.029161103 -0.029207312 4289474594
-0.012690134 -0.030761104 -0.028079512 4288493098
-0.010790244 -0.030715846 -0.028203215 4287707443
-0.0090360157 -0.029848086 -0.028952124 4287511348
-0.0072873235 -0.028980389 -0.029700544 4287314744
-0.030531645 -0.027730128 -0.031841576 4286267968
-0.028647315 -0.027686203 -0.031964988 4286987834
-0.027005032 -0.025991973 -0.033338785 4287446069
-0.025250018 -0.025122914 -0.034086719 4287707698
-0.022994816 -0.027553823 -0.032334719 4288165934
-0.021110844 -0.027509477 -0.032457784 4288557868
-0.01883138 -0.029939622 -0.030707151 4288754219
-0.01693945 -0.029894885 -0.030830584 4288165424
-0.014910325 -0.030674785 -0.030329777 4288034609
-0.012875885 -0.031454436 -0.029829226 4286726203
-0.028573353 -0.030018244 -0.032457065 4286529598
-0.026928358 -0.028319621 -0.033827819 4287445814
-0.025294341 -0.026621137 -0.035197772 4287904049
-0.023292188 -0.027404284 -0.034697145 4287445813
-0.021284707 -0.028187159 -0.034196761 4287707444
-0.019008283 -0.030623928 -0.032450803 4287838004
-0.016984686 -0.031406231 -0.031951331 4287118394
-0.015230216 -0.030534521 -0.032697238 4286464318
-0.027093519 -0.028992582 -0.035564005 4287314233
-0.025585797 -0.026460407 -0.037552439 4287248954
-0.011930782 -0.0010531861 0.022692358 4281563983
-0.010242626 0.00050363876 0.021212457 4282937668
-0.011977959 -0.0026287455 0.021524003 4280650318
-0.01042914 -0.00031027757 0.019373165 4281762373
-0.012161702 -0.0034444388 0.019683084 4279801679
-0.010615539 -0.0011195336 0.017537327 4280323408
-0.0089439005 0.00044576637 0.016065093 4281759824
-0.012345318 -0.00425555 0.017845636 4280255833
-0.010801822 -0.0019241031 0.015704894 4280059993
-0.0092748329 0.00040703267 0.013565358 4280909653
-0.010848854 -0.0034878626 0.014545301 4279666274
-0.0093217902 -0.0011501908 0.012410626 4280321879
-0.0073774979 -0.0011038221 0.012284067 4281956174
-0.010617744 -0.0065833414 0.014721414 4279862114
-0.0092269816 -0.0034730267 0.011923667 4280191573
-0.0075691193 -0.0018948764 0.01046221 4281238348
-0.005922325 -0.00031682476 0.0090015195 4282414153
-0.010664918 -0.0081509212 0.013558995 4280387669
-0.0091323033 -0.0057999715 0.011433665 4280519249
-0.0074717253 -0.0042173825 0.0099752806 4280650829
-0.0062637255 -0.00033098087 0.0065209419 4281173579
-0.0044835433 0.00048322789 0.0057300422 4282937668
0.018630169 0.0010452457 0.0042335652 4283591999
0.020555004 0.0010926444 0.0041093845 4282414918
0.023043543 -0.0011608414 0.00597414 4282283593
0.026120245 -0.0057145618 0.0098262094 4282088264
0.030389816 -0.014868538 0.017651847 4282021198
-0.0093210787 -0.0065904353 0.0096120071 4280454734
-0.0078076124 -0.0042332709 0.007492885 4280782663
-0.0061635524 -0.0026466083 0.0060389023 4280586568
-0.0045305416 -0.0010600369 0.0045856945 4281891913
-0.00290858 0.00052631833 0.0031333119 4283656769
0.014377624 0.00094635598 0.0020139236 4283919420
0.016297325 0.00099347159 0.001889959 4282285379
0.018399283 0.00027137436 0.0024277419 4282415428
0.020506479 -0.00045049936 0.0029652547 4282153799
0.023182608 -0.0034796577 0.005486507 4281956939
0.026452161 -0.008815526 0.0099898949 4282088008
0.030339539 -0.016457424 0.016473828 4282086734
-0.020254582 -0.0014243629 0.0031188074 4282477139
-0.011453647 -0.0074225562 0.0079203732 4279799129
-0.0095097385 -0.0073762583 0.0077937953 4279670354
-0.0077103004 -0.0065574525 0.0070047937 4280586568
-0.0060634986 -0.0049663074 0.0055538453 4280390984
-0.0044277683 -0.0033753589 0.0041037425 4281500488
-0.0031080544 -0.00024013221 0.0013304111 4282218823
0.0061509013 0.0015358031 -0.0006136056 4283135294
0.0080631301 0.0015823711 -0.00073735602 4282678334
0.010146707 0.00085725263 -0.0002002269 4282221373
0.012061261 0.00090407766 -0.00032398105 4281830713
0.014329545 -0.0005922094 0.00087316334 4281830969
0.016428813 -0.0013166144 0.0014094487 4281961018
0.018350922 -0.0012693387 0.0012854077 4282286399
0.02064307 -0.002764836 0.0024812333 4282220353
0.023321532 -0.0058026388 0.004995862 4282220098
0.026783779 -0.011924902 0.010147272 4282349128
0.030482523 -0.018817253 0.015955357 4282412878
-0.0098397955 -0.0073827859 0.005317878 4279993183
-0.0079016238 -0.0073364824 0.0051917806 4281107789
-0.0059636086 -0.0072900988 0.0050657541 4281174599
-0.004474856 -0.004920274 0.0029581748 4281372224
-0.0031549931 -0.0017763264 0.00019131787 4281698113
-0.0018570796 0.0013671927 -0.002574034 4282808894
-0.00010753423 0.0021875091 -0.0033577792 4283919928
0.0017969757 0.0022336226 -0.0034812298 4283136058
0.0040278807 0.00073161162 -0.0022852523 4282808894
0.0059374645 0.00077803805 -0.0024088891 4282351679
0.0076781213 0.0015985295 -0.0031917663 4282157369
0.0099275112 9.7244978e-05 -0.0019967761 4281895994
0.01201342 -0.00062987953 -0.0014613317 4282026044
0.014281459 -0.0021305252 -0.00026741251 4281766708
0.016560189 -0.0036308188 0.00092588924 4281700663
0.01848489 -0.0035834592 0.00080168992 4281505844
0.020779505 -0.0050832331 0.0019941311 4281895228
0.023460321 -0.0081296982 0.0045021176 4282350403
0.027115114 -0.015042784 0.010298416 4282413899
0.030238964 -0.019634429 0.014118364 4283131724
-0.0076602548 -0.010441243 0.0053601451 4280582234
-0.0058638453 -0.0096180169 0.0045746788 4281174089
-0.0045219213 -0.0064649284 0.0018127989 4281307709
-0.0033542737 -0.0025357064 -0.0016063387 4281764668
-0.002058953 0.0006164778 -0.0043650307 4282286144
-0.00031217933 0.0014389083 -0.0051469738 4282222393
0.0017499924 0.00070859306 -0.0046120118 4282483258
0.0038174242 -2.1472573e-05 -0.0040772986 4282223159
0.0058901086 -0.0007513389 -0.0035428731 4282026553
0.0076307133 7.1350485e-05 -0.0043241102 4281766708
0.0098798573 -0.0014342908 -0.0031323433 4282093364
0.011965588 -0.0021635853 -0.0025984971 4282027574
0.014233381 -0.0036685895 -0.0014077984 4281701173
0.016511835 -0.0051732268 -0.00021771155 4281766454
0.018618718 -0.0059017316 0.00031496957 4281635383
0.020915814 -0.0074057579 0.0015039686 4281570358
0.023974359 -0.012012231 0.0053182896 4282416448
0.027255744 -0.017393483 0.0097869318 4282609994
-0.0060579032 -0.010392217 0.0027654879 4283267894
-0.004718557 -0.0072304923 1.0248274e-05 4282811189
-0.0032488778 -0.0048479326 -0.0020862799 4282289714
-0.0019506812 -0.0016869679 -0.0048386781 4281962804
-0.00035896897 -8.3699822e-05 -0.0062759696 4282092853
0.0015425608 -3.7627295e-05 -0.0063992059 4281963059
0.0037702471 -0.0015484318 -0.0052094972 4282158134
0.005676873 -0.0015020706 -0.0053329384 4282420529
0.0077519044 -0.0022339392 -0.0048001995 4282419508
0.010003522 -0.0037438925 -0.0036117686 4282224943
0.012265824 -0.0052534658 -0.0024240147 4281831733
0.014538802 -0.0067626825 -0.0012368821 4281898288
0.016822465 -0.0082715955 -5.0332397e-05 4281701939
0.019116797 -0.0097800959 0.0011355691 4282159153
0.021421798 -0.011288299 0.0023208782 4282681139
0.023925088 -0.013573998 0.0041603651 4283137589
-0.0059582591 -0.012723978 0.0022715647 4284380204
-0.0046160817 -0.0095534464 -0.00047736056 4282681393
-0.0034480244 -0.0056024548 -0.0038803332 4282354993
-0.0019974932 -0.0032136664 -0.0059707146 4282287674
-0.00024811924 -0.0023868009 -0.0067495722 4282223924
0.0016560256 -0.0023406968 -0.0068730004 4282223924
0.00372307 -0.0030751135 -0.0063414928 4282289968
0.0059612021 -0.0045899171 -0.0051556304 4282682668
0.0080415085 -0.0053238645 -0.0046247942 4282486828
0.010298297 -0.0068380153 -0.0034399936 4282486574
0.012565792 -0.0083518056 -0.0022558058 4282158389
0.014843956 -0.0098652756 -0.0010721907 4282356013
0.016953409 -0.010598125 -0.00054302998 4282487339
0.019068092 -0.011330741 -1.4128163e-05 4283596589
0.021187998 -0.01206318 0.00051454268 4283859239
-0.0046631545 -0.011097336 -0.0016221665 4283792173
-0.0033427551 -0.0079185199 -0.0043631224 4282746163
-0.0017345473 -0.0063061863 -0.0057951072 4281895483
-0.00013738126 -0.0046940539 -0.0072262567 4282354739
0.0019296557 -0.0054307431 -0.0066964393 4282160174
0.0040019527 -0.0061672237 -0.0061669005 4282289968
0.0060795397 -0.0069035226 -0.0056375926 4282552365
0.0084992945 -0.0092049511 -0.0038028881 4283139628
0.010764003 -0.010723285 -0.0026217774 4283401003
0.013039403 -0.012241228 -0.0014413362 4283923243
-0.0033896938 -0.0094534494 -0.0055012712 4283857198
-0.001781486 -0.0078367488 -0.0069300095 4282549304
0.00013072789 -0.0077905273 -0.0070540179 4282550323
0.0022030324 -0.0085293362 -0.0065261396 4282290988
0.004117623 -0.0084828446 -0.0066501452 4282357288
0.0063634068 -0.010006151 -0.0054712398 4282617899
0.0084514841 -0.010744217 -0.0049441913 4284251428
-0.0015189275 -0.01094188 -0.006763679 4284443954
0.00055605173 -0.01168283 -0.0062376903 4284576044
-0.012329001 -0.0062070433 0.032631643 4279516588
-0.016371652 -0.0079012988 0.031705938 4280241043
-0.013046801 -0.0040420312 0.028056057 4280700299
-0.024645306 -0.0081768669 0.029687857 4281225599
-0.022773128 -0.0073749125 0.028880296 4278997408
-0.020783484 -0.0073284358 0.028750064 4278866084
-0.019045517 -0.0057710614 0.027266508 4278931109
-0.015340284 -0.004167188 0.025654519 4279258019
-0.013362117 -0.0041205324 0.025525371 4279130264
-0.023541514 -0.0044217091 0.023646178 4278472363
-0.02144539 -0.0051332396 0.024192302 4278668968
-0.019469656 -0.0050869491 0.024063082 4278603943
-0.0135433 -0.0049474332 0.023675976 4278739093
-0.026500851 3.2292679e-05 0.017211797 4282472294
-0.024068754 -0.0029618125 0.019779338 4280044948
-0.021983739 -0.0036757793 0.020324575 4278668714
-0.019642118 -0.0059090555 0.022216534 4278603434
-0.015827887 -0.0050566252 0.021285655 4278406064
-0.024595492 -0.0014841445 0.015925681 4280506243
-0.022275873 -0.0037245918 0.017814128 4278537644
-0.020065621 -0.005202556 0.019029712 4278800039
-0.018229507 -0.004394507 0.018229669 4278801059
-0.016267966 -0.0043483023 0.018101564 4279849874
-0.022690553 -0.0030001737 0.014639908 4279718549
-0.020488739 -0.0044827256 0.015852852 4278603943
-0.018660884 -0.0036726464 0.015054928 4279063454
-0.023350291 -0.0007296484 0.01013802 4281883498
-0.02116238 -0.0022168569 0.01134865 4279522198
-0.018963702 -0.0037036743 0.012558604 4278866338
-0.021333855 -0.0030028652 0.0095288008 4280571779
-0.019138157 -0.0044941455 0.010735754 4279259038
-0.017062556 -0.0052166432 0.011275422 4278996133
-0.017632127 -0.003693046 0.0074594878 4279782299
-0.015695803 -0.0036472604 0.0073331576 4278802078
-0.018201176 -0.002151724 0.0036566947 4279848853
-0.018639069 -0.0013676472 0.00052886084 4279982728
-0.016455375 -0.0028719772 0.001727026 4279194779
-0.016768027 -0.0028560851 -0.00073357299 4280571269
-0.014307261 -0.0059184153 0.0017807614 4279194268
-0.011963591 -0.0082032811 0.0036341678 4279131284
-0.03590576 0.011254692 0.0076030307 4285950238
-0.03399488 0.011298778 0.007477548 4285950239
-0.031524014 0.0075425394 0.010723989 4285425703
-0.039569676 0.0081125945 0.0080670323 4285295908
-0.037964638 0.010443909 0.0059211683 4285951003
-0.036482543 0.013537416 0.0031033419 4285950493
-0.034476213 0.012818871 0.0036516897 4286212888
-0.032352574 0.011338266 0.0048725605 4286016284
-0.029530067 0.0052848309 0.01012817 4285228844
-0.045548521 0.0079777613 0.0059636496 4285295908
-0.04373306 0.0087860841 0.0051655211 4285362209
-0.041923121 0.009594379 0.0043678321 4285493279
-0.040219702 0.011167439 0.0028987359 4285821209
-0.038527265 0.012740323 0.0014304947 4285754143
-0.036845822 0.014313085 -3.7001446e-05 4285622564
-0.034738708 0.012827637 0.0011816323 4285688609
-0.032620795 0.011342587 0.0023995899 4285819679
-0.030262858 0.0083291009 0.0049588624 4285754399
-0.028000563 0.0060805548 0.006846033 4284900914
-0.053317837 0.0070435721 0.0046629943 4284901169
-0.05174778 0.010155549 0.0018516257 4285819168
-0.050024986 0.011732792 0.00038404018 4286081563
-0.048133105 0.011775626 0.00025919639 4286213399
-0.046055786 0.010284411 0.0014760029 4285623584
-0.04415857 0.010327609 0.0013509914 4285624094
-0.042261422 0.010370919 0.001226062 4285558304
-0.04046528 0.01118123 0.00043101422 4285820953
-0.038674679 0.011991566 -0.00036362931 4286083094
-0.03699597 0.013568623 -0.0018276284 4285688353
-0.035000965 0.01284547 -0.0012817793 4285754143
-0.033000603 0.012122547 -0.00073619187 4285951004
-0.030880332 0.010633277 0.00047850609 4285623329
-0.028514728 0.0076113734 0.0030308776 4285229864
-0.057253499 0.0062013976 0.00311324 4284966449
-0.055664189 0.0093222726 0.00030689687 4285295398
-0.05401494 0.011673311 -0.0018280288 4285492259
-0.052297585 0.013254637 -0.003292053 4285753888
-0.050416701 0.013297098 -0.0034162654 4285884703
-0.048445921 0.012570383 -0.0028710542 4286016793
-0.046377055 0.01107466 -0.0016569728 4285754398
-0.044392765 0.010348493 -0.0011124704 4285623838
-0.042501219 0.010391677 -0.0012370255 4285623583
-0.040609755 0.010434994 -0.0013614809 4285689374
-0.039029121 0.012785399 -0.0034911232 4286149138
-0.037252307 0.013597677 -0.004283105 4286082329
-0.035371996 0.013641095 -0.0044065574 4286017048
-0.033156496 0.011378223 -0.0025262451 4286017049
-0.031153716 0.010653311 -0.0019823415 4285557538
-0.029145595 0.0099286009 -0.0014386578 4285361443
-0.026772324 0.0068983044 0.0011068378 4285229863
-0.057524778 0.0069930367 -2.2845343e-05 4285295399
-0.055785574 0.0085790046 -0.0014853003 4285558558
-0.054139018 0.010936467 -0.0036151512 4285886489
-0.052424416 0.012522144 -0.0050757835 4285557283
-0.050633591 0.013336072 -0.005867701 4285622564
-0.048668467 0.012607059 -0.0053237313 4285623073
-0.04660533 0.011106821 -0.0041124607 4285820443
-0.044626702 0.010378351 -0.0035692016 4285689373
-0.042740755 0.010421412 -0.003693386 4285623839
-0.04085489 0.010464607 -0.0038174661 4285689629
-0.039072625 0.011279074 -0.0046082707 4285689628
-0.037295897 0.012093553 -0.0053986115 4285754909
-0.035524704 0.012908055 -0.0061885482 4285754909
-0.033423964 0.011409516 -0.0049791271 4285755164
