# .PCD v0.7 - Point Cloud Data file format
VERSION 0.7
FIELDS x y z rgba
SIZE 4 4 4 4
TYPE F F F U
COUNT 1 1 1 1
WIDTH 571
HEIGHT 1
VIEWPOINT 0 0 0 1 0 0 0
POINTS 571
DATA ascii
0.022194285 -0.028630652 0.0094958479 4286071364
0.019524984 -0.028222911 0.0066372128 4286266948
0.01451746 -0.026431732 0.0027911942 4286855488
0.016707463 -0.027057566 0.003103653 4286659648
0.012056947 -0.026734434 0.00062752701 4286332483
0.014401309 -0.028108172 0.0016203085 4286397763
0.0043667108 -0.021274813 -0.0062439609 4286593348
0.006976679 -0.024151638 -0.0038858596 4287444538
0.0096081682 -0.027027093 -0.0015315954 4286986558
0.0045565441 -0.024424329 -0.0060371999 4286398273
0.0068623051 -0.025809623 -0.0050439634 4287248954
0.0091788247 -0.02719412 -0.0040526264 4286855998
0.0021481663 -0.024687059 -0.0081839953 4286398019
0.004442662 -0.026077539 -0.0071920031 4286332484
-0.0030944049 -0.020522848 -0.014029862 4287509818
-0.00054057315 -0.023429863 -0.011680769 4286659648
-0.0053161569 -0.021508433 -0.015485587 4287641144
-0.0032062232 -0.022153191 -0.015168803 4287837493
-0.00079905987 -0.024311922 -0.013501549 4286725183
-0.0072564483 -0.02400855 -0.01558779 4287576119
-0.0052872673 -0.023895957 -0.015947705 4288426544
-0.0033180192 -0.023783229 -0.016307531 4287967289
-0.0075054355 -0.024876185 -0.017400404 4286006084
-0.005398877 -0.025525704 -0.017086269 4288557104
-0.0032868832 -0.026174769 -0.016773013 4287246913
0.02003851 -0.0062161833 0.052206453 4282471018
0.012379348 0.0063271523 0.036647625 4280766088
0.01647798 0.0065635294 0.035899956 4278666418
0.019692652 0.0018400922 0.040551156 4278666673
0.023621636 -0.0056471229 0.048064925 4279847324
0.027953506 -0.014513545 0.057001743 4280240788
0.0091237724 0.0093692616 0.030805308 4281094273
0.010362826 0.012958072 0.026846055 4278865319
0.012057833 0.014462799 0.025043543 4278535348
0.014560264 0.012496628 0.026826967 4278993839
0.021134667 0.0023236349 0.036827303 4278994603
0.02456825 -0.0031060129 0.042174216 4279913878
0.029091183 -0.012693718 0.051802244 4279586968
0.006147556 0.0018735528 0.036110323 4282667624
0.006671939 0.0089606717 0.028564032 4278931874
0.0077642314 0.013257734 0.023894373 4278668713
0.010977644 0.016971447 0.019582842 4279651229
0.013299864 0.015693977 0.020649306 4279454624
0.01613136 0.012328781 0.023858067 4278667438
0.019496318 0.0068772659 0.029204711 4278274483
0.022561233 0.0028200448 0.033116091 4278734503
0.026006894 -0.0026265681 0.038448188 4278735269
0.030203251 -0.01085268 0.046623599 4279586969
0.034464121 -0.019074887 0.054787289 4282208878
0.0026543029 0.006347768 0.028845783 4281487229
0.0040819682 0.0092613474 0.025611218 4279127969
0.0054881796 0.012173839 0.022380602 4278603688
0.0073387027 0.012988195 0.021299377 4278668969
0.0090259463 0.014501236 0.019504536 4278273209
0.018535575 0.0086784884 0.024461109 4278536879
0.021243207 0.0060031936 0.026941251 4278669223
0.023972355 0.003329277 0.029417556 4278669478
0.027076539 -0.00073876977 0.033312421 4278931618
0.03111024 -0.008292824 0.040755056 4278866083
0.035567373 -0.017238252 0.049607474 4281095038
-0.00064305216 0.010163523 0.022316284 4279979159
0.0049162433 0.012613066 0.019075416 4278603179
0.006913811 0.012727953 0.0187108 4278603434
0.0087536424 0.01354403 0.017633185 4278799783
0.010427654 0.015060864 0.015844017 4278471854
0.012743615 0.013774082 0.016905304 4278537389
0.015070345 0.01248809 0.01796468 4278407338
0.01774494 0.009801887 0.020444416 4278538153
0.020098601 0.0085176304 0.021499086 4278668713
0.022115175 0.0086344406 0.021131583 4278734759
-0.0035183281 0.0019298419 0.028320797 4282471273
-0.0030455515 0.0097925588 0.020090837 4278865319
-0.0003676936 0.016357124 0.012938841 4278403768
0.0067994595 0.011069976 0.0175527 4278734248
0.0087969378 0.011184983 0.017188184 4278668713
0.010634135 0.012003221 0.016112708 4278603433
0.012955014 0.010712318 0.017169885 4278865829
0.014955282 0.010827839 0.016805112 4278734759
0.01712396 0.010240734 0.017149996 4278603434
0.019298023 0.0096541196 0.017493952 4278537644
0.021129936 0.010472648 0.016419861 4278471599
0.022956464 0.01129102 0.015346794 4278797743
0.025494184 0.0093009248 0.017105237 4279125418
0.029320825 0.0023985282 0.023810547 4278665398
0.03825859 -0.015606165 0.041428864 4279585439
0.042072676 -0.021796457 0.047396515 4281946484
-0.0068920217 -0.0042278618 0.032172218 4282601578
-0.0067505538 0.0057837367 0.021803889 4281094273
-0.005436264 0.0094315931 0.017869961 4279127969
-0.0025999919 0.015310414 0.011441837 4278995368
-0.00092053786 0.016835824 0.0096576372 4279127204
0.0014953054 0.014830761 0.011432585 4279060905
0.0040794462 0.012120865 0.013915627 4278667694
0.0063755624 0.010823697 0.014973939 4278930599
0.0085250027 0.010232843 0.015320373 4278603433
0.010519691 0.010347791 0.014956436 4278603688
0.01267726 0.0097576305 0.015301551 4278538408
0.014509156 0.010578029 0.014228801 4278603688
0.016335692 0.011398241 0.013157117 4278538153
0.018327784 0.011513509 0.012793996 4278340529
0.021959376 0.013153322 0.010654918 4279061923
0.024304062 0.011860006 0.011705124 4278930599
0.027567845 0.0070467964 0.016281169 4278602413
0.031237975 0.00082788616 0.022260573 4278864554
0.035330556 -0.0067957118 0.029640395 4278996390
0.039671995 -0.015119463 0.037713658 4278931363
0.043885462 -0.022735767 0.045071658 4278538919
-0.010748636 0.0031792223 0.022087265 4282536554
-0.0098037794 0.0089671239 0.016017132 4279389599
-0.0083585121 0.01191663 0.012804278 4278734248
-0.0065191351 0.012738548 0.011730866 4278668713
0.0061069354 0.0098787621 0.01311046 4278996389
0.0082533993 0.0092854723 0.013455895 4278800039
0.010085233 0.010107897 0.012384533 4278669223
0.01174904 0.011637531 0.01060685 4278538408
0.013567505 0.01245939 0.0095381429 4278669479
0.015716761 0.011866771 0.0098833544 4278537898
0.017529884 0.01268854 0.0088157868 4278275249
0.032967921 -3.6254525e-05 0.020007987 4278669733
0.037654236 -0.0098004341 0.02947348 4278801314
0.042608045 -0.020265833 0.03962741 4278801314
0.046667635 -0.027198471 0.046259053 4278604708
-0.014020551 0.0078019798 0.014879278 4281619063
-0.0090133883 0.013120294 0.0088145239 4278470578
-0.0066313073 0.01109948 0.010585775 4278603434
-0.005079288 0.013345212 0.0080954665 4278799528
-0.0031121075 0.013457857 0.0077360449 4278602924
-0.00099843368 0.012860015 0.0080854865 4278537134
0.0012697838 0.011552148 0.009142329 4278799528
0.0033970326 0.010955267 0.0094894888 4278733993
0.0055296943 0.010358863 0.009835721 4278930854
0.0073534474 0.011182889 0.0087673748 4278603179
0.015098784 0.012348987 0.0066191526 4278537643
0.01724508 0.011754028 0.0069634365 4278603433
0.019050144 0.012577735 0.0058989758 4278602923
0.020849837 0.013401188 0.0048356028 4278537389
0.023180176 0.012098171 0.005882089 4278406318
0.025883963 0.0093787462 0.0083315102 4278668968
0.029161397 0.0045353174 0.012882999 4278735013
0.032663167 -0.0010140911 0.018129166 4278604454
0.036965605 -0.0093933567 0.026171438 4278604708
0.041524626 -0.018476769 0.034902561 4279980179
0.045569066 -0.02543249 0.04152111 4282274668
-0.015993223 0.0053273514 0.014802518 4280044949
-0.0070198625 0.010887302 0.0080234604 4278602669
-0.0051911101 0.01171311 0.0069552707 4278733993
-0.0032240748 0.01182574 0.0065958714 4278668969
-0.001110699 0.011225633 0.0069437651 4278800038
0.00085917115 0.011338659 0.0065840119 4278537898
0.0029807314 0.010739282 0.0069305906 4278799783
0.0049533993 0.010852695 0.0065704854 4278668203
0.0066120811 0.012390688 0.0047999145 4278537134
0.016960591 0.010824353 0.005114398 4278734504
0.018936131 0.010938779 0.0047543729 4278603688
0.020911667 0.011053331 0.0043944409 4278865318
0.023244241 0.0097459927 0.0054373434 4278800039
0.025949959 0.0070177689 0.0078801205 4278539683
0.029412728 0.0014482513 0.013120581 4278539938
0.032731898 -0.0034081861 0.017653458 4279391638
0.037224285 -0.012524433 0.026376028 4280308108
0.041786499 -0.021636516 0.035085976 4280308108
-0.018580787 0.0064307079 0.011173357 4279652503
-0.017476194 0.011557207 0.005844173 4278340274
-0.016027167 0.014533222 0.0026493343 4279060903
-0.01433954 0.016076125 0.00087579899 4279388578
-0.012131825 0.014755167 0.001936825 4279388578
-0.009642534 0.012003563 0.004411296 4278733229
-0.0051621608 0.0093659312 0.0065219505 4278668969
-0.0031925812 0.0094786882 0.0061620669 4278865573
-0.0013690367 0.010306649 0.0050965855 4278341548
0.00044918805 0.011134453 0.0040321061 4278472363
0.0022621006 0.011962034 0.0029687239 4278537643
0.0042238757 0.012074821 0.0026106099 4278733995
0.0076689087 0.014443651 -0.00021507312 4278734248
0.0097849667 0.013842203 0.00013126153 4278865573
0.012236282 0.011813216 0.0018811924 4278995879
0.014703756 0.0097852498 0.0036283089 4278602669
0.01684675 0.0091857091 0.0039699888 4278734504
0.018649159 0.010013647 0.0029092142 4278800293
0.02097322 0.0087012723 0.003950418 4278669478
0.023664737 0.0059632659 0.0063893171 4278473129
0.026558805 0.0025134906 0.0095237689 4278866083
0.029663462 -0.00164745 0.013352211 4279456409
0.033173192 -0.0072319135 0.018571574 4280242573
0.037671447 -0.016376652 0.027272418 4280242573
0.041855939 -0.024092376 0.034566004 4280635529
-0.021145195 0.0075536296 0.0075529264 4279128479
-0.019788198 0.011258632 0.003650249 4278669478
-0.014709037 0.01590126 -0.0016642064 4278995369
-0.012639664 0.015293553 -0.0013118293 4278536624
-0.0077950247 0.010490701 0.00291814 4278471854
-0.0056958273 0.0098850951 0.0032652738 4278799528
-0.0035911873 0.0092799142 0.0036114985 4278537898
-0.0017730072 0.010109775 0.0025485689 4278669479
3.9856881e-05 0.010939434 0.0014866861 4278538153
0.0016960762 0.012485921 -0.00027726684 4278930343
0.0036496371 0.012598217 -0.00063390005 4278668969
0.016562784 0.0082632974 0.0021260912 4278734760
0.018708173 0.007661812 0.0024658395 4278734758
0.021385502 0.0049139336 0.0049009258 4278801058
0.024440747 0.00073651969 0.0087287286 4278932128
0.027347323 -0.0027235746 0.011852953 4279654033
0.030280748 -0.0061819926 0.014972369 4280243084
0.033427287 -0.010353677 0.018783774 4280373898
0.037550818 -0.018097468 0.026070859 4280504969
0.041541796 -0.025123075 0.032651544 4280504714
-0.025527671 0.0078640282 0.0050077671 4281159043
-0.02403526 0.010859758 0.0018173018 4279126949
-0.022326291 0.012412243 4.5840628e-05 4278996389
-0.020627938 0.013964295 -0.0017236425 4278538153
-0.018940203 0.015515804 -0.0034910496 4278341294
-0.0080438852 0.0095862225 0.0010791952 4278930854
-0.0060881078 0.0096980333 0.0007217275 4278799528
-0.0042753741 0.010529682 -0.00033870619 4278799528
-0.0027595572 0.012800224 -0.00280328 4278865064
-0.00081431493 0.012911804 -0.003158561 4279258019
0.0011309944 0.013023503 -0.0035137692 4278734248
0.0033840798 0.011697225 -0.0024666926 4278537898
0.0050217547 0.013247289 -0.0042239451 4278537898
0.0068079568 0.014078133 -0.0052790218 4278275249
0.0087507404 0.014190175 -0.0056334198 4278275249
0.014309432 0.00723169 0.00064457301 4278734248
0.016789127 0.0051912218 0.0023800367 4278931619
0.019112263 0.003869839 0.0034149401 4278800548
0.021796886 0.0011134967 0.0058423625 4278407594
0.024859101 -0.0030767843 0.009659349 4278669989
0.027772807 -0.0065475479 0.012774351 4279850129
0.030346517 -0.0085819438 0.014493133 4280308873
0.033494651 -0.01276686 0.018294729 4280570758
0.037430204 -0.019817963 0.024869528 4280570758
0.041419465 -0.026865855 0.031434689 4280308618
-0.028037608 0.0090243742 0.0014018686 4279454878
-0.024841242 0.013585374 -0.0035498133 4278599864
-0.020858422 0.013081238 -0.0035514003 4278668204
-0.01917322 0.014637031 -0.0053151906 4278734504
-0.017371792 0.015469559 -0.0063725398 4278864808
-0.015316542 0.014856458 -0.0060208575 4278930343
-0.013123602 0.013521321 -0.0049666581 4278865318
-0.010784905 0.011464499 -0.0032113353 4278668713
-0.0084300041 0.009408772 -0.0014589438 4278799528
-0.0067603141 0.010964394 -0.0032193875 4278406319
0.0031188652 0.01080095 -0.0042961231 4278603435
0.0049104132 0.011634171 -0.0053506931 4278407338
0.0065375306 0.013188198 -0.0071027637 4278865318
0.0084774867 0.013300076 -0.0074566421 4279061923
0.011239786 0.0098086894 -0.0043225018 4279062434
0.014196109 0.0055984631 -0.00049608853 4278734758
0.017014857 0.0021105856 0.0026279315 4278997409
0.019687969 -0.00065540522 0.0050510438 4279390363
0.022557773 -0.0041400716 0.0081659397 4279849619
0.025276553 -0.0069031641 0.0105809 4279194014
0.028197389 -0.010384627 0.013686678 4279980433
0.030961808 -0.013144806 0.016093519 4280570504
0.034119602 -0.017342463 0.019883856 4280767109
0.037875548 -0.023695953 0.025748003 4280505224
0.041297145 -0.02860827 0.030218069 4281685619
-0.03088133 -0.00079920143 0.0087620514 4282602344
-0.030092768 0.0072997361 0.00063012633 4278669479
-0.029031321 0.013217516 -0.0053733499 4278668203
-0.027559608 0.016229644 -0.0085474104 4278994858
-0.025529414 0.015612356 -0.0081931856 4278667439
-0.021209888 0.012928307 -0.0060797096 4278930088
-0.019405887 0.013763048 -0.0071360492 4278668203
-0.017353725 0.013147429 -0.006785477 4278668969
-0.01529609 0.012532286 -0.0064358567 4278538154
-0.013232984 0.011917569 -0.0060871565 4278472363
-0.011164408 0.011303291 -0.0057393638 4278537898
-0.009090364 0.010689378 -0.0053924574 4278734248
-0.007571388 0.01297316 -0.0078482833 4278602414
-0.0057828128 0.013807833 -0.0089011583 4278602413
-0.0042905584 0.016090311 -0.011351941 4278734248
-0.0022215918 0.015476651 -0.01100379 4278733228
0.0028539896 0.0099094361 -0.006122225 4278668713
0.0046428517 0.010744721 -0.0071747256 4278603944
0.0067442432 0.010133415 -0.0068321554 4278800549
0.0088510439 0.0095225498 -0.006490468 4278865574
0.011784784 0.005297564 -0.0026695384 4278931619
0.0145838 0.0017972961 0.0004501231 4279128479
0.017409686 -0.001701273 0.0035649203 4279325340
0.020262448 -0.0051981434 0.0066749146 4279521688
0.022791963 -0.0072487444 0.0083919307 4279980433
0.025515337 -0.010020442 0.01079972 4279521689
0.028079763 -0.012068801 0.012510612 4279914898
0.031392746 -0.01700332 0.016989041 4280177039
0.034929119 -0.022657223 0.022152871 4280569994
0.03831996 -0.027586997 0.026617359 4282471528
-0.033478834 0.0010939762 0.0044499831 4282012273
-0.032462664 0.0077610686 -0.0022571972 4278800803
-0.030955888 0.010783844 -0.0054315655 4278341039
-0.027780026 0.015370041 -0.010360746 4278996389
-0.025868632 0.015478231 -0.010710878 4278603434
-0.019514352 0.012166359 -0.0082517182 4278799784
-0.017589036 0.012275808 -0.0086040599 4278603434
-0.015534375 0.011658229 -0.0082554454 4278537898
-0.013474252 0.01104109 -0.0079078032 4278668968
-0.011677865 0.011878058 -0.0089607863 4278734504
-0.010024056 0.013441555 -0.010712129 4278996389
-0.0063204393 0.014387883 -0.012113481 4278274484
-0.0045452155 0.015224122 -0.013162246 4278930853
-0.0023312122 0.013882004 -0.012117743 4278865573
4.4327229e-05 0.011814684 -0.010378155 4278275248
0.0024360418 0.009748444 -0.0086414246 4278406573
0.0046878122 0.0084088668 -0.0076035475 4278603689
0.0069503672 0.0070700422 -0.0065675443 4278997153
0.0095466413 0.0042813495 -0.0041434686 4279062688
0.01249275 4.3734908e-05 -0.00033424422 4278735014
0.015137414 -0.0027418658 0.0020811483 4279259549
0.017803594 -0.0055261254 0.0044927513 4279915409
0.02049128 -0.0083090216 0.0069005368 4280046224
0.023025554 -0.010366045 0.0086119762 4279980689
0.025753526 -0.013146341 0.011012594 4279521944
0.028683249 -0.016649462 0.014100931 4279718293
0.032371655 -0.023047075 0.019948669 4280701318
0.035551444 -0.027270041 0.023716025 4282405483
-0.034303889 0.0045827925 -0.0016168477 4280570503
-0.033200391 0.010538168 -0.00760289 4279062688
-0.031494021 0.012107708 -0.0093616014 4278734758
-0.021910906 0.012650102 -0.011117081 4278799273
-0.020117611 0.013488613 -0.012168267 4278930343
-0.017824002 0.01140891 -0.010419284 4278799528
-0.016030483 0.012247667 -0.011470345 4278734504
-0.01397872 0.011627845 -0.011122753 4278930854
-0.012324829 0.013195612 -0.012871 4279061669
-0.010544468 0.014033981 -0.013919394 4278734248
0.0024784915 0.0074127391 -0.0090695722 4278668968
0.0047324896 0.006068863 -0.0080352677 4278865573
0.0074731596 0.0025426894 -0.0049211266 4279193759
0.010240722 -0.00098180026 -0.0018117949 4279259548
0.01319918 -0.0052319989 0.0019856766 4279456410
0.015523141 -0.006571345 0.0030075833 4279718549
0.01802724 -0.0086370185 0.0047195992 4279980688
0.020891577 -0.012155421 0.0078116311 4280046478
0.023608031 -0.014945395 0.010207924 4280374154
0.026523404 -0.018460549 0.01329087 4279980688
0.029465623 -0.02197402 0.016369011 4279718038
-0.034208022 0.001505129 -0.0013377964 4280701319
-0.033098087 0.0074785352 -0.0073123304 4278931619
-0.031493649 0.0097856522 -0.0097706029 4279128479
-0.030125447 0.013557285 -0.013628212 4278734759
-0.027994193 0.01220002 -0.012576015 4278734503
-0.026083067 0.012308173 -0.012926118 4278668713
-0.024053626 0.011684217 -0.012576417 4278865319
-0.022139564 0.011792764 -0.012926889 4278733993
-0.020348959 0.012633376 -0.013976048 4278537134
-0.010789961 0.013177864 -0.015724631 4278799018
-0.009296909 0.015480049 -0.018161446 4278668203
-0.0075351857 0.016319841 -0.019204741 4278996388
-0.0051985905 0.014236726 -0.01746773 4278866084
-0.0028458089 0.012154661 -0.015733587 4279127968
-0.00017603114 0.0086129606 -0.012614681 4279128223
0.0023675635 0.0058031157 -0.010193921 4279193758
0.0050884709 0.0022645816 -0.0070841867 4278603943
0.0076778047 -0.00054237247 -0.0046715997 4278931618
0.010449812 -0.0040777102 -0.0015709996 4279456154
0.013248716 -0.0076113418 0.0015247865 4279915664
0.015574895 -0.0089549869 0.0025431281 4280243084
0.018250279 -0.01175648 0.0049403785 4280046478
0.021290954 -0.016014807 0.0087135984 4280242828
0.024363883 -0.02027116 0.012481081 4280766854
0.02746902 -0.024525501 0.016242728 4281290879
-0.034112699 -0.0015811846 -0.001064714 4280766343
-0.032996349 0.0044103488 -0.0070278174 4278931874
-0.031386226 0.0067244247 -0.0094823865 4278538153
-0.030012056 0.010507472 -0.013333187 4278931619
-0.027988531 0.0098807216 -0.012984158 4278996898
-0.025959507 0.0092544034 -0.012636113 4278800293
-0.024043038 0.0093629733 -0.012987114 4278537898
-0.022247173 0.010205917 -0.014035714 4278603178
-0.020703368 0.012516953 -0.016477635 4278275249
-0.017019872 0.013467513 -0.017871456 4278732973
-0.014984805 0.012842283 -0.017523991 4278405553
-0.010898285 0.011593126 -0.016831804 4278733994
-0.0091258846 0.012435585 -0.017875496 4278799528
-0.007358782 0.013277851 -0.018918144 4278537898
-0.0050174147 0.011188366 -0.017186753 4278931364
-0.0025123022 0.0083672181 -0.014765534 4278931109
0.00031488389 0.0040821955 -0.010963567 4279062943
0.0030213967 0.00053163618 -0.0078592077 4279128734
0.0055991821 -0.0022849962 -0.0054509416 4279194013
0.0080401637 -0.0043680966 -0.0037373304 4279128734
0.010497302 -0.0064501539 -0.0020265207 4280177294
0.013297962 -0.0099948123 0.0010610176 4280112013
0.015626371 -0.011342816 0.0020758165 4280308618
0.018472727 -0.014884539 0.0051552271 4280505223
0.021689437 -0.019887261 0.0096064908 4280963714
0.024943762 -0.024887711 0.014051051 4282534259
-0.033916138 -0.0054135844 -9.8139048e-05 4280765833
-0.032581732 -0.00087868422 -0.0046521351 4279062943
-0.030850738 0.00070551783 -0.0064058825 4279062689
-0.029459856 0.0045005679 -0.010251857 4278341804
-0.027870618 0.006820336 -0.012697698 4278800549
-0.026182137 0.0084024817 -0.014443402 4279062688
-0.024386391 0.009247534 -0.015490544 4278996898
-0.022595882 0.010092378 -0.01653659 4278603434
-0.019030623 0.011781521 -0.018625535 4278930599
-0.017255899 0.012625888 -0.019668471 4279192483
-0.015223797 0.011998214 -0.019322012 4279126948
-0.013186265 0.011371002 -0.018976517 4278799274
-0.011006575 0.01000867 -0.017938767 4278602924
-0.0089554302 0.009382464 -0.017595515 4278799783
-0.007040903 0.0094919801 -0.017945405 4278537898
-0.0048368312 0.0081314072 -0.016911853 4278799783
-0.0026219562 0.0067715868 -0.015880179 4278668968
0.00035427138 0.0017383918 -0.011396818 4278997410
0.003215339 -0.0025578067 -0.0076104887 4279391639
0.0059532039 -0.0061175302 -0.0045196717 4279587733
0.008401636 -0.0082068965 -0.0028121257 4278997409
0.010705359 -0.0095609799 -0.0017962093 4279914898
0.013346922 -0.012382418 0.00059435796 4280177548
0.015843775 -0.014468573 0.0022933586 4280570759
0.018863477 -0.018754855 0.0060513085 4280897924
0.022087011 -0.023772746 0.010490299 4283057519
-0.034025364 -0.0070397183 -0.001234659 4280242064
-0.032377228 -0.0047103837 -0.0036867745 4279521689
-0.030745037 -0.0023818016 -0.0061359219 4278669479
-0.029019102 -0.00079336017 -0.0078855045 4278538408
-0.027528509 0.0022729933 -0.011025146 4278866338
-0.02605927 0.0053382441 -0.014160802 4278669478
-0.024611361 0.0084023997 -0.017292462 4278866084
-0.022943959 0.0099880174 -0.019030977 4279062434
-0.021410272 0.012311742 -0.021461576 4278340784
-0.017748531 0.013265483 -0.022848267 4278602669
-0.015724801 0.012635142 -0.022501923 4278537133
-0.0089247786 0.0070584491 -0.018012695 4278865573
-0.006723918 0.0056931302 -0.016981808 4278930854
-0.0043676533 0.0035911798 -0.015262641 4278931619
-0.0017006807 1.590699e-05 -0.012167074 4279128480
0.00099319965 -0.0035576895 -0.0090763234 4279587224
0.0035613477 -0.0063927397 -0.0066790585 4279981199
0.0061510205 -0.009226419 -0.0042856229 4280242828
0.0086041987 -0.011322118 -0.0025837319 4280242574
0.010912828 -0.012680404 -0.0015718611 4279520923
0.013558993 -0.015510425 0.00081156101 4281486718
-0.033830069 -0.010891579 -0.00028162543 4279979923
-0.032277755 -0.0078132674 -0.0034265192 4278865828
-0.030533023 -0.006219469 -0.0051764888 4278537644
-0.028798893 -0.0046260953 -0.0069244695 4279194269
-0.027187586 -0.0022918656 -0.0093648471 4279259803
-0.025936954 0.0022653863 -0.013884217 4278997153
-0.024600819 0.0060798302 -0.017704096 4278800548
-0.023291379 0.0098928884 -0.021519002 4278865829
-0.021639809 0.011482134 -0.023251388 4279062178
-0.011223059 0.0068406984 -0.020152051 4278996644
-0.0088943951 0.0047302917 -0.018432757 4279193503
-0.0065495521 0.0026208907 -0.01671635 4278931364
-0.0041885413 0.00051259995 -0.015002847 4279128479
-0.0016642287 -0.0023340881 -0.012604088 4279719059
0.0010314174 -0.0059186742 -0.0095215812 4279981454
0.0036014766 -0.0087624714 -0.0071309884 4280177293
0.0061930642 -0.011604913 -0.0047442326 4280570248
0.0088061728 -0.014445983 -0.0023613097 4280701064
0.01128025 -0.016547047 -0.00066785235 4280307854
0.013770457 -0.018647 0.001022717 4281550214
-0.033432946 -0.01624494 0.0020520492 4281553528
-0.032178834 -0.010924786 -0.0031722421 4279128224
-0.030535303 -0.008582294 -0.005613998 4279062689
-0.028798327 -0.0069843829 -0.0073592965 4279456409
-0.02707196 -0.0053869262 -0.0091026202 4279390873
-0.025585696 -0.0023030043 -0.012228753 4279128733
-0.024238214 0.0015231445 -0.016042812 4278931618
-0.022917442 0.0053478852 -0.019851901 4278603943
-0.021623395 0.0091712549 -0.023655996 4278865829
-0.020356074 0.012993231 -0.02745511 4278996899
-0.018602811 0.013842918 -0.02848937 4279193504
-0.016462237 0.012464777 -0.027454156 4279128223
-0.013910212 0.0088601708 -0.024353839 4279062688
-0.0110588 0.0037726387 -0.019881357 4278669733
-0.0085864663 0.0009137392 -0.017479695 4278669478
-0.0059509911 -0.0026857629 -0.014394376 4278997408
-0.0035771653 -0.004799962 -0.012687966 4278669479
-0.0010401979 -0.007654801 -0.010297854 4279718294
0.0012190081 -0.0090252981 -0.0092836367 4279849874
0.003641326 -0.011136353 -0.0075858096 4280243084
0.0060798116 -0.013246365 -0.0058907839 4280701063
0.0088498443 -0.016837366 -0.0028294893 4281159553
0.011486374 -0.019685827 -0.00045707636 4282664819
-0.030431278 -0.011695392 -0.0053620609 4279980433
-0.028907277 -0.0086007863 -0.0084889317 4279194268
-0.027292661 -0.0062530488 -0.010920472 4279128733
-0.025579415 -0.0046518296 -0.012658108 4279325594
-0.023876794 -0.00305105 -0.014393751 4279128733
-0.022424713 4.003197e-05 -0.017507123 4278997664
-0.021116637 0.0038752407 -0.021305902 4278735524
-0.019960627 0.0084541738 -0.025788575 4278800548
-0.018452667 0.010796577 -0.02820009 4278997408
-0.016176458 0.0086694807 -0.026480973 4279062943
-0.013483912 0.004309535 -0.022702467 4279128478
-0.010759056 -4.8436224e-05 -0.018929768 4279259548
-0.0081406683 -0.0036601499 -0.015849289 4279718038
-0.0057782531 -0.0057817847 -0.014145616 4279849619
-0.0033996627 -0.0079024211 -0.012444788 4279915154
-0.0011517219 -0.0092781037 -0.011431829 4279193758
0.0011070184 -0.010653079 -0.010420711 4279521689
0.0038330853 -0.014257945 -0.0073594758 4280635784
0.0064311847 -0.017117724 -0.0049865595 4281356158
-0.030008592 -0.017062284 -0.0030437047 4282798438
-0.028688908 -0.012461521 -0.0075474652 4280832388
-0.027401261 -0.0078624934 -0.012045217 4279587478
-0.025687866 -0.0062568486 -0.013779722 4279129499
-0.02398508 -0.0046516284 -0.015512235 4279129499
-0.022053257 -0.0045421645 -0.015866023 4279128989
-0.020488843 -0.0021901652 -0.018283296 4279063199
-0.019190788 0.0016556904 -0.022072241 4278538663
-0.01779161 0.0047529712 -0.025169361 4278407338
-0.015630472 0.0033670887 -0.024144199 4279128734
-0.01292555 -0.0010054335 -0.02037744 4279194269
-0.010460183 -0.0038825944 -0.017987251 4279390619
-0.0079732649 -0.0067584068 -0.01560092 4279718805
-0.0056060925 -0.008886449 -0.013902825 4280046478
-0.0033667274 -0.010267183 -0.012891558 4280046223
-0.00096990541 -0.012393318 -0.011198723 4280307598
0.0012937337 -0.013772376 -0.010191687 4280242064
0.0040242523 -0.017388076 -0.0071391924 4281485953
-0.02836246 -0.017085783 -0.0059263236 4282863974
-0.026951715 -0.013223104 -0.0097284438 4280243339
-0.025453366 -0.010111965 -0.012837847 4279784338
-0.023859359 -0.0077519342 -0.015255935 4279522198
-0.021922328 -0.0076421872 -0.015610695 4279325593
-0.020107545 -0.0067825615 -0.01665169 4278997918
-0.01879815 -0.0029250234 -0.020434817 4278800804
-0.017132338 -0.0013170466 -0.022157017 4279062688
-0.01508595 -0.0019572005 -0.021822738 4279390873
-0.012634847 -0.0048441589 -0.019436356 4279784084
-0.010297962 -0.0069808587 -0.017737668 4279980433
-0.0078064501 -0.0098652244 -0.01535855 4280177039
-0.0052933842 -0.012748286 -0.012983241 4280242828
-0.0030464232 -0.014133058 -0.011976478 4280373899
-0.00078866631 -0.015517034 -0.010971633 4281290624
-0.02499143 -0.015484892 -0.010532645 4282339693
-0.023617387 -0.011612989 -0.014319976 4280046223
-0.021911487 -0.0099986866 -0.016046617 4279587734
-0.020460613 -0.0068810135 -0.019140739 4279128734
-0.018781342 -0.0052679256 -0.020862374 4278866338
-0.016985141 -0.0044069588 -0.021898186 4279325339
-0.014933687 -0.0050490573 -0.021566428 4279521944
-0.012610905 -0.007193327 -0.019869983 4279783828
-0.01027194 -0.0093365535 -0.018176414 4280045969
-0.0079168156 -0.011478685 -0.016485762 4280111758
-0.0052635297 -0.015121482 -0.013435335 4280570249
-0.0030143522 -0.016510569 -0.012432144 4281093763
-0.00046166778 -0.019399948 -0.010070203 4283252848
-0.023142904 -0.016995981 -0.012024761 4281553274
-0.021781556 -0.013113625 -0.015801791 4280308108
-0.020324871 -0.0099867582 -0.018890645 4279390874
-0.018889546 -0.0068610087 -0.021975525 4279390364
-0.016838495 -0.0075055137 -0.021645322 4279390619
-0.014781985 -0.0081495419 -0.021316066 4279718294
-0.012587238 -0.0095466375 -0.020306505 4279325084
-0.010110736 -0.012449756 -0.01793734 4279849619
-0.0074745491 -0.016104713 -0.014891783 4280504714
-0.020067781 -0.013857506 -0.017964907 4281159808
-0.018748544 -0.0099662244 -0.021726146 4279783829
-0.016819704 -0.0098565742 -0.02207914 4279718549
-0.014630865 -0.011258565 -0.021071758 4279653269
-0.012165949 -0.014171332 -0.018706888 4280177294
-0.0096794739 -0.017082743 -0.016345872 4280700809
-0.0074474663 -0.018481873 -0.015346097 4281878399
-0.019568086 -0.01925841 -0.015688127 4282863974
-0.018359262 -0.014596872 -0.020123627 4281487483
-0.016419839 -0.014486618 -0.02047855 4279980433
-0.014220737 -0.015892453 -0.019476203 4280045969
-0.011480883 -0.020329423 -0.015763266 4280045713
-0.0091142356 -0.022491001 -0.014088986 4282271099
0.015859354 -0.027180068 -0.013029521 4282074239
-0.016021151 -0.019134127 -0.01889017 4282274159
-0.013811775 -0.020543814 -0.017892865 4281684089
-0.01145925 -0.022712976 -0.016220855 4282666349
-0.0075711682 -0.029151075 -0.031677507 4282798694
-0.014289465 -0.026407957 -0.035710182 4281419653
-0.014659636 -0.026434921 -0.038144451 4281945464
-0.014767841 -0.028021954 -0.03925328 4282733414
