# .PCD v0.7 - Point Cloud Data file format
VERSION 0.7
FIELDS x y z rgba
SIZE 4 4 4 4
TYPE F F F U
COUNT 1 1 1 1
WIDTH 579
HEIGHT 1
VIEWPOINT 0 0 0 1 0 0 0
POINTS 579
DATA ascii
-0.018542077 -0.016045138 0.011635125 4286725439
-0.018375862 -0.019188657 0.011783529 4286725439
-0.018210381 -0.022340588 0.011925707 4286921788
-0.018516369 -0.023247309 0.010042319 4286660158
-0.016987372 -0.020843968 0.0075610243 4286594624
-0.015798613 -0.016940035 0.003739655 4286725184
-0.018821914 -0.024149351 0.0081623439 4286201668
-0.016976409 -0.02324608 0.0070283208 4286660158
-0.015298098 -0.021590084 0.0052253399 4286790973
-0.017284121 -0.024141446 0.0051540192 4286594369
-0.015446395 -0.023236506 0.0040235687 4286987069
-0.013613865 -0.022331841 0.0028944109 4286594369
-0.012789335 -0.01689852 -0.0022384385 4286332484
-0.01775036 -0.024274535 0.0026153903 4286397508
-0.015756279 -0.024125226 0.0021549072 4286594368
-0.013926357 -0.023218587 0.001027992 4286529088
-0.012435522 -0.020798177 -0.0014294349 4286528833
-0.014074348 -0.024860024 -0.00017009862 4286397763
-0.012583058 -0.022433065 -0.0026227096 4286528833
-0.010938205 -0.020766206 -0.004407865 4286724163
-0.012730572 -0.024067655 -0.0038157674 4286790209
-0.011254672 -0.021635227 -0.0062598186 4286725184
-0.0097946003 -0.019203909 -0.0087000811 4286659394
-0.011570707 -0.022499599 -0.0081083113 4286529854
-0.010112852 -0.020061888 -0.010543176 4286529343
-0.0084965341 -0.018388234 -0.012314986 4286529089
-0.0068598501 -0.019090183 -0.014602155 4287248699
-0.0070058964 -0.020702057 -0.015778463 4287444538
-0.0050490648 -0.020554684 -0.0162297 4287380789
-0.0069755353 -0.023082934 -0.016300699 4287181888
-0.0050162077 -0.022935398 -0.016752517 4287511093
-0.0034201629 -0.021249838 -0.018509507 4286333758
-0.0072978847 -0.023924895 -0.018130427 4287704894
-0.00185702 0.00067013502 0.047765017 4282404209
-0.00085836276 0.0050359517 0.043061361 4281881459
0.0022670105 0.00098089874 0.046814159 4279913878
0.0063371211 -0.0065783858 0.054077007 4279585184
-0.0052750744 0.0037412643 0.042066574 4281487483
-0.0049755573 0.010936521 0.034558274 4278603179
-0.0004032068 0.0091291368 0.035735771 4278471089
0.0080864877 -0.0074456558 0.051632486 4278404533
-0.011228997 0.00017795712 0.043657355 4282666603
-0.010178179 0.0045734346 0.038961127 4280701063
-0.008483801 0.0061396658 0.0370856 4279193503
-0.0063456818 0.014214441 0.02842739 4278865063
-0.0045246482 0.015071034 0.027265208 4279390108
-0.0016319528 0.01169166 0.030309564 4279259293
0.0055271536 4.7683716e-07 0.041277573 4279061414
0.0092684217 -0.0061925203 0.047095567 4279061668
0.013628036 -0.014497228 0.054997884 4278931364
-0.01551801 0.0075559765 0.033748277 4279322024
-0.013831619 0.0091256872 0.031877764 4278995624
-0.011989757 0.0099856332 0.030712044 4278930853
-0.010321707 0.011554189 0.028845923 4278668458
-0.0053806268 0.016255789 0.02326254 4278405299
-0.0028582625 0.014280893 0.024902759 4278273719
0.0035268627 0.0053808093 0.033058748 4278341039
0.0066778064 0.0012886524 0.03677614 4278800293
0.01062046 -0.0056304038 0.043273568 4278997408
0.015386725 -0.015373848 0.052543618 4279849619
-0.020003684 0.0070150495 0.032057069 4280635274
-0.018943258 0.011437103 0.027378088 4278403768
-0.017112233 0.012298137 0.026216393 4278863023
-0.012968384 0.011885345 0.025998993 4278995879
-0.011144921 0.012746133 0.024839273 4278865064
-0.0094977506 0.01431755 0.022981318 4278733738
-0.0076873302 0.01517757 0.021824772 4278405809
-0.00083341449 0.012074761 0.023939239 4278799783
0.0017150156 0.010095492 0.025568655 4278734504
0.0040924437 0.0088272244 0.02649867 4278538664
0.007618919 0.0033027232 0.031597562 4278931874
0.012534719 -0.0071839094 0.041549005 4278997408
0.018115534 -0.019791767 0.053564079 4280636293
-0.023867585 0.0036264807 0.033178911 4282009978
-0.02307377 0.0094933063 0.027096508 4278865574
-0.02185747 0.013214029 0.023128742 4278930343
-0.020194784 0.014790438 0.021270102 4279061924
-0.018222049 0.014938302 0.020814663 4279520413
-0.015597466 0.012231313 0.023158265 4278469813
-0.01344822 0.011666678 0.023399597 4278733484
-0.011630002 0.012529224 0.022242716 4278864809
-0.0098169819 0.013391495 0.021087119 4278930343
-0.0078355893 0.013540521 0.020630078 4278996134
-0.0058541 0.013689689 0.020173101 4278930343
-0.0036936104 0.013126425 0.020412227 4278996389
-0.0015277006 0.012563691 0.020650202 4278996134
0.00064361095 0.012001462 0.020887 4278668204
0.0053815171 0.0094550774 0.022744374 4278599863
0.020271331 -0.022091866 0.052491814 4281160063
-0.025735252 0.00037907064 0.033833578 4281814138
-0.025511332 0.0091330335 0.024952969 4278996899
-0.024286374 0.012865171 0.020991342 4278472363
-0.020656444 0.014593177 0.018681584 4278865063
-0.018689141 0.014740624 0.018227389 4279192738
-0.014257982 0.012888588 0.019411733 4278406319
-0.011946209 0.011605866 0.020349691 4278602669
-0.010306485 0.013185464 0.018499983 4278406828
-0.0079838187 0.011903778 0.019435598 4278537898
-0.0060024485 0.012052916 0.018978639 4278800038
-0.0038422979 0.011487432 0.019216185 4278668458
-0.0020394027 0.01235152 0.018064877 4278537389
-0.00042574853 0.013929687 0.016221596 4278340529
0.0037165172 0.013514273 0.016002672 4278338234
0.017941134 -0.015996411 0.043622211 4279519393
0.022031931 -0.022969298 0.050036378 4281160063
-0.026031464 -0.00056838989 0.031916514 4281748604
-0.025807954 0.0082116351 0.023055786 4278800549
-0.02473668 0.01267349 0.018403782 4278865829
-0.014570534 0.011974566 0.017524714 4278799528
-0.012597643 0.012122713 0.017069442 4278733993
-0.010795124 0.0129885 0.015919531 4278602923
-0.0084783211 0.011702038 0.016853137 4278668713
-0.0065023974 0.011850737 0.016397422 4278668713
-0.0045263842 0.011999555 0.015941756 4278996389
-0.0029125437 0.013581954 0.014101679 4278602669
-0.0014930591 0.01588022 0.011572449 4278799019
0.00046993047 0.016028382 0.011120033 4279061669
0.0026221238 0.015460543 0.011358092 4278930599
0.0059304088 0.010597609 0.015733792 4278733228
0.009470433 0.0050219372 0.020790128 4278996133
0.014235687 -0.0048436075 0.02996817 4279061668
0.018875726 -0.013988063 0.038441189 4279783319
-0.025448911 -0.0058403462 0.034194604 4281028228
-0.025209874 0.0029669702 0.025350047 4279718549
-0.024427652 0.0088851973 0.019309832 4279259548
-0.022916026 0.011195712 0.016763361 4278931108
-0.021263175 0.012784399 0.014916824 4279127713
-0.019301452 0.012931362 0.014463874 4278996388
-0.017339598 0.013078444 0.014010971 4278799783
-0.015212622 0.012505524 0.01425243 4278733993
-0.013415482 0.01337295 0.013105305 4278602669
-0.011623535 0.014240116 0.011959476 4278406064
-0.009317901 0.012948424 0.012892345 4278274738
-0.0070015043 0.011657603 0.013822859 4278865318
-0.0052092299 0.012525164 0.012677154 4278930599
-0.003603112 0.014111318 0.010842137 4278275249
-4.9993396e-05 0.015844531 0.0085584875 4278274483
0.002096545 0.015274063 0.0087961815 4278406064
0.011718906 0.0020821989 0.020493867 4278865318
0.015725583 -0.0049406588 0.026894359 4278734759
0.021201065 -0.016980663 0.038082875 4278800803
0.025332849 -0.023993805 0.044454738 4281619318
0.032726035 -0.027095407 0.046415076 4282993768
-0.024911389 -0.00085224956 0.026235683 4280504203
-0.023968242 0.0043607429 0.020902267 4279390874
-0.022753842 0.0081248209 0.01696782 4279062944
-0.021252222 0.010441221 0.014428673 4278866339
-0.019447468 0.011311062 0.013281181 4278603688
-0.017647874 0.012180619 0.012134962 4278537644
-0.01585345 0.013049901 0.010990018 4278472364
-0.0124503 0.015509598 0.008012455 4280438413
-0.0058908276 0.013064206 0.0094224308 4278865064
-0.0041116774 0.01393301 0.0082815159 4278733738
0.0070339739 0.009631373 0.010827992 4278603688
0.0097970702 0.006901294 0.013114313 4278603943
0.012581497 0.0041729435 0.015395815 4278735524
0.017407455 -0.0057488456 0.024513898 4279062943
0.022717286 -0.017103486 0.034981944 4280504459
0.027075576 -0.024856016 0.042015955 4281291134
-0.025311418 -0.011367813 0.033835448 4282208879
-0.024614021 -0.004684411 0.027111931 4280308108
-0.023359068 -0.00090650469 0.023176258 4280111504
-0.022130512 0.0028695241 0.019246774 4279259549
-0.021084994 0.0073687807 0.014630517 4279128479
-0.01959341 0.0096910372 0.01209869 4279062688
-0.018117629 0.012012236 0.0095705986 4278603434
-0.016328469 0.012883283 0.0084285028 4278603434
-0.01504625 0.015927039 0.0052161571 4279324063
-0.013105538 0.016072817 0.0047683474 4280766343
-0.010819566 0.014770843 0.0056991782 4278406319
-0.0081724077 0.012022369 0.0080049392 4278603179
-0.0062154159 0.012169704 0.007553624 4278668458
-0.0042583235 0.012317158 0.0071023759 4278668458
-0.0026675537 0.013911001 0.0052775089 4278668969
-0.00052974746 0.013335399 0.0055138301 4278799783
0.0016134642 0.012760244 0.0057490207 4278931108
0.0041444115 0.010740675 0.0073529929 4278799783
0.0064975545 0.0094446614 0.0082690213 4278799783
0.008271873 0.010315992 0.0071313269 4278668714
0.014226571 0.0033971593 0.013050426 4278404789
0.019084191 -0.0065526441 0.022138225 4278666928
0.024016313 -0.016496673 0.031208972 4279257254
0.028183741 -0.023550481 0.037539855 4280897414
-0.025170572 -0.014504984 0.033995882 4281946995
-0.024466224 -0.0078015029 0.027285596 4280373643
-0.023053996 -0.0047399774 0.024049303 4279980944
-0.021662861 -0.0016799271 0.020817956 4279850129
-0.020762101 0.0035606176 0.015517483 4278800803
-0.019739307 0.0080713406 0.010916425 4278866084
-0.018748265 0.012579806 0.0063227788 4278866084
-0.015692115 0.016504325 0.0019800626 4278602923
-0.013759501 0.016649477 0.0015341099 4278930598
-0.0065395683 0.011279948 0.0056881998 4278930854
-0.0045852773 0.011427186 0.0052375887 4278799783
-0.0026308969 0.011574529 0.0047870409 4278472363
-0.00049075857 0.010996863 0.0050212089 4278668968
0.0014664456 0.01114466 0.0045701806 4278603434
0.0036146976 0.010567866 0.0048026089 4278537898
0.005187396 0.012165152 0.0029855352 4278537389
0.0088979527 0.0131853 0.0014036987 4278600374
0.011858206 0.0097137466 0.0043589529 4278272698
0.025929134 -0.018047348 0.029486949 4281224833
-0.025030442 -0.017650656 0.034150153 4282602599
-0.024022654 -0.012387224 0.028836211 4280242829
-0.022599146 -0.009316206 0.025603922 4280242828
-0.02119673 -0.0062466189 0.022376543 4279849618
-0.02044031 -0.0002604574 0.016395083 4278538408
-0.018893056 0.010973535 0.0051503479 4279062689
-0.017768525 0.014763974 0.0012616646 4278472364
-0.0093391538 0.012432292 0.0022198688 4278799528
-0.0068632662 0.010394834 0.0038262326 4278930854
-0.0052720644 0.01199723 0.0020077918 4278668969
-0.0033258013 0.012143962 0.0015591085 4278734248
-0.0011939891 0.011563517 0.0017934944 4278603433
0.0009432137 0.010983594 0.0020267237 4278472363
0.0028950237 0.011131085 0.0015770197 4278930344
0.0056222267 0.015785463 -0.0034055151 4279191974
0.0077570081 0.015205823 -0.0031713676 4279127714
0.010299992 0.013174474 -0.0015796814 4278603178
0.014083428 0.0067890435 0.0040807445 4278471599
0.018121507 -0.00031829625 0.010408346 4278733739
0.023259781 -0.01104898 0.020111283 4278800039
0.028053755 -0.020322889 0.028442213 4278800548
0.032058015 -0.026691049 0.034052193 4281291388
-0.02343253 -0.017722517 0.031064255 4281816179
-0.022447236 -0.012445457 0.025767153 4280504714
-0.02119223 -0.0086348429 0.021856202 4279783828
-0.020275697 -0.0033626482 0.016575111 4279390874
-0.019396208 0.0019068196 0.011302697 4278276269
-0.018876448 0.0086362809 0.0046650488 4279128479
-0.017912418 0.013168946 9.7462907e-05 4279193758
-0.016646829 0.016237542 -0.0030913213 4279127968
-0.014725145 0.016381837 -0.003534778 4278931109
-0.012115441 0.013604231 -0.0012402739 4278799528
-0.0096590109 0.011558674 0.00036548637 4278799528
-0.0075411052 0.010974638 0.00060116313 4278602923
-0.0057776794 0.011850923 -0.00052958168 4278340529
-0.0018959865 0.012143642 -0.0014243964 4278406574
0.00023290515 0.011560909 -0.0011908952 4278472363
0.0017954297 0.013165973 -0.0029990803 4278603178
0.0068166554 0.016520113 -0.0070518637 4278471089
0.016318243 0.0038568303 0.0037940238 4278341039
0.0203861 -0.0032699332 0.010098387 4278800294
0.024930879 -0.011847533 0.017741205 4278538919
0.029754002 -0.021147437 0.026044095 4278342059
0.042832598 -0.02907344 0.03172569 4282471019
-0.022296056 -0.015583158 0.025924208 4281750134
-0.021494411 -0.0095589533 0.019958569 4280045969
-0.020267621 -0.0057394579 0.016062448 4279194013
-0.019067265 -0.00192184 0.0121725 4279063708
-0.018054496 0.0026274621 0.0076034088 4279259548
-0.017401062 0.0086410642 0.0016723089 4279128478
-0.016290657 0.012452297 -0.0021966025 4278931618
-0.014530234 0.013330065 -0.0033253562 4278866084
-0.012087934 0.011276729 -0.0017213356 4278865318
-0.0098040067 0.0099572688 -0.00080320798 4278471854
-0.00047617033 0.012151666 -0.0043986384 4278929834
0.0012690239 0.013029203 -0.0055231843 4278603178
0.0030089505 0.013906516 -0.0066464674 4278734249
0.0045479164 0.015514366 -0.0084457751 4278274739
0.011952754 0.010109849 -0.0043712128 4278537389
0.014930911 0.0066071972 -0.0014446042 4278668713
0.01772668 0.0038365498 0.00080166385 4278472618
0.021390356 -0.0018510148 0.0057378672 4278735014
0.026382467 -0.01191216 0.014702844 4278997154
0.03123207 -0.021238245 0.022978323 4279259549
0.035272278 -0.027642623 0.028550604 4282274414
0.037804313 -0.028941132 0.029413307 4282798183
-0.021031253 -0.014159806 0.021492181 4281553528
-0.020104274 -0.0088563934 0.016231699 4279259294
-0.018897757 -0.0050274357 0.012348555 4279652759
-0.017556727 -0.0019360259 0.0091553219 4279456153
-0.016891226 0.0040959194 0.0032346081 4279260569
-0.016101845 0.0093894452 -0.0019937176 4279062433
-0.014504984 0.011004888 -0.0038040094 4278930853
-0.012403905 0.010414921 -0.0035679042 4278800038
-0.010471642 0.010560222 -0.0040136445 4278472364
-0.0092468448 0.0136436 -0.0071795266 4278602413
-0.0075045638 0.01452262 -0.0083021242 4278800038
-0.0054031052 0.013933189 -0.0080658011 4278602413
-0.00099648908 0.012022234 -0.0069190171 4278667949
0.00074344501 0.012901552 -0.0080407131 4278734248
0.0024781153 0.013780579 -0.0091611072 4278603178
0.0044030249 0.01392626 -0.0096044447 4278537643
0.0063279793 0.014072046 -0.010047721 4278799784
0.0088554285 0.01201991 -0.0084672738 4278930854
0.011398856 0.0099691227 -0.0068904757 4278733738
0.013752144 0.0086519122 -0.005990522 4278537389
0.015280902 0.010264002 -0.0077837594 4278275249
0.028474284 -0.014162876 0.013686359 4279060649
0.033358321 -0.023514472 0.021932596 4279519648
-0.019786231 -0.012720086 0.017078163 4279390364
-0.018887073 -0.007403411 0.011835694 4279193249
-0.017221238 -0.0057788417 0.010012547 4279980179
-0.016382921 -0.0004664883 0.0047843084 4279784338
-0.015415624 0.0041056946 0.0002456475 4279062943
-0.014311373 0.0079383254 -0.0036053117 4279194014
-0.012890831 0.010294929 -0.0060907584 4278931619
-0.0099205822 0.014268212 -0.010371922 4278602668
-0.0081862174 0.015148804 -0.011491049 4278800293
-0.0062750801 0.015292831 -0.011931676 4278865318
-0.0011413135 0.010430112 -0.0080807507 4278471854
0.00078864768 0.01057592 -0.0085254442 4278406574
0.0025260337 0.011457331 -0.0096448269 4278668713
0.0042581633 0.012338452 -0.010762906 4278603433
0.0059850104 0.013219304 -0.011879673 4278668968
0.0083084293 0.011895277 -0.010976363 4278603434
0.010642532 0.010572113 -0.010075381 4278471854
0.012575421 0.010718875 -0.010520203 4278668458
0.016229998 0.011746861 -0.012080101 4278402748
0.034823537 -0.023594506 0.018878749 4279324064
0.038231324 -0.027835481 0.022409806 4282405484
-0.018718831 -0.010523781 0.012001015 4281682559
-0.017368536 -0.0074142814 0.008818781 4280307598
-0.015876167 -0.0050461218 0.0063214283 4280045969
-0.014731321 -0.001199685 0.0024692193 4279914643
-0.013949983 0.0041238591 -0.0027341759 4279651993
-0.013034545 0.0087054297 -0.0072508249 4279325084
-0.011803228 0.011806592 -0.010405144 4278800549
-0.0020345934 0.011790544 -0.011939825 4278733993
0.00026415288 0.010459803 -0.011034491 4278799784
0.0021887124 0.010605313 -0.011477852 4278668969
0.004113324 0.010750964 -0.011921132 4278603434
0.0058402345 0.011633985 -0.013036279 4278537898
0.0079626888 0.01104261 -0.012807466 4278537898
0.0096843578 0.011925496 -0.013921207 4278602669
0.011194993 0.013544776 -0.015703799 4278405299
0.012695026 0.015163355 -0.017483806 4279126439
0.015028637 0.01383622 -0.016585769 4278668713
0.026911866 -0.006324105 0.00076943636 4278931109
0.032006711 -0.016468495 0.0096419565 4278996644
0.036727298 -0.025136597 0.017165819 4279127969
0.040376656 -0.030124493 0.021349015 4282143088
-0.017355438 -0.0097916648 0.0083041657 4280700809
-0.016022965 -0.0066746995 0.0051327124 4279914643
-0.014380291 -0.0050429627 0.0033216421 4280045969
-0.013421416 -0.00044514984 -0.0011953004 4279324829
-0.012836255 0.0056332797 -0.0070576984 4278407594
-0.011772614 0.0094848201 -0.010882689 4279390363
-0.010559149 0.012593456 -0.014026225 4279062689
-0.0086510442 0.012737125 -0.014466256 4278996389
-0.0069244802 0.013621621 -0.015580267 4278996388
-0.0046503283 0.012284376 -0.014672706 4278996389
-0.002552405 0.011688359 -0.014440333 4278799528
-0.00063868612 0.011832923 -0.014881304 4278603434
0.0012750998 0.011977613 -0.015322192 4278406828
0.0031889305 0.012122445 -0.015762987 4278472109
0.0053003691 0.011527933 -0.015533375 4278603943
0.0074171722 0.010933906 -0.015304858 4278603689
0.0089306906 0.012557656 -0.01708491 4278274739
0.011925921 0.015803047 -0.020637374 4278864044
0.014461864 0.013732426 -0.01907335 4278799783
0.017654277 0.0094483867 -0.0155129 4278668968
0.020878589 0.005166918 -0.011959681 4278340783
0.024134815 0.00088795274 -0.0084136715 4278472109
0.028973298 -0.0085519478 -0.0002210103 4278865829
0.034553297 -0.020198755 0.0099485293 4278734758
0.039311148 -0.028889999 0.017444184 4281553529
-0.015681285 -0.010535747 0.0059743766 4281224833
-0.014030401 -0.0088990107 0.004164651 4279914899
-0.012726262 -0.0057752356 0.0010064803 4279062943
-0.01212639 0.00032169372 -0.0048461659 4278931873
-0.011568919 0.0064155981 -0.010688981 4278997408
-0.010701686 0.011019871 -0.015174609 4278997408
-0.0087937266 0.01116351 -0.015614614 4278931363
-0.0070671067 0.012050182 -0.016726997 4278537898
-0.0049775615 0.011451192 -0.016494397 4278472363
-0.0030693673 0.011595212 -0.016934188 4278602668
0.0049587041 0.010689266 -0.017355068 4278602159
0.0070724934 0.010092869 -0.017127553 4278472108
0.0083809495 0.012461983 -0.019571237 4278734249
0.022674346 0.0037127361 -0.013575105 4278603943
0.026608981 -0.0027975217 -0.0080525083 4278669478
0.032159023 -0.014481485 0.0020976402 4278735013
0.038020685 -0.026898228 0.012890371 4278801058
0.041680142 -0.031915613 0.017048283 4280504969
-0.015828583 -0.012170278 0.0047813058 4283253868
-0.01434271 -0.0097829327 0.0023003146 4279980434
-0.013040606 -0.0066506192 -0.00085081905 4278996643
-0.011930197 -0.0027739331 -0.0046702484 4279652758
-0.011019506 0.0018465519 -0.0091561219 4279325084
-0.010140594 0.0064647496 -0.013634581 4278604199
-0.0087578148 0.0088449642 -0.016091323 4278603688
-0.0072096922 0.010479048 -0.017873511 4278800039
-0.0053043813 0.010622717 -0.018312737 4278602669
-0.00358551 0.011511169 -0.019421469 4278602668
-0.0020610839 0.01314377 -0.021197883 4278602159
-0.00035538524 0.01403147 -0.022303399 4279258019
0.0067282543 0.0092564821 -0.01894678 4278799273
0.0082369745 0.010888509 -0.020719115 4278799273
0.0095299482 0.013263144 -0.023154257 4278734249
0.011222586 0.01415059 -0.024256209 4278866084
0.013751689 0.012066424 -0.022700526 4278735013
0.016722985 0.0084982589 -0.019821389 4278865829
0.019505076 0.0056747496 -0.017611215 4278996899
0.0218716 0.0043373778 -0.016730299 4278669733
0.025354128 -0.00070915371 -0.012543547 4278538919
0.030663759 -0.011687376 -0.0030768961 4278866848
0.036958668 -0.025625817 0.0090132039 4278932383
0.04083496 -0.031400807 0.013822207 4280571014
-0.014324453 -0.012159042 0.0017851777 4280634763
-0.01301904 -0.009017773 -0.001360137 4279128223
-0.011734754 -0.0058780238 -0.0045004524 4279914898
-0.01029858 -0.0034875348 -0.0069647795 4279653013
-0.0094053447 0.0011447817 -0.011436681 4279194014
-0.0085439086 0.0057748929 -0.015901191 4278997408
-0.0075332522 0.0096554458 -0.019689023 4278931619
-0.0059980787 0.011292964 -0.021464815 4278733993
-0.0023924671 0.012326092 -0.023006666 4279061159
-0.00068937987 0.013215803 -0.024109991 4279192483
0.0015913546 0.011866465 -0.023213455 4279192483
0.004079707 0.0097720698 -0.021653786 4278406319
0.006184835 0.0091706067 -0.021427531 4278668458
0.0078907497 0.010061041 -0.022531115 4278538409
0.0095913857 0.010951124 -0.023633372 4278603944
0.011701897 0.010350496 -0.023408115 4278735269
0.014238236 0.0082603171 -0.021858977 4278997409
0.016790535 0.0061714575 -0.020313432 4278866083
0.019358769 0.0040839911 -0.018771494 4278800804
0.021942962 0.0019978359 -0.017233072 4278866593
0.025426593 -0.0030638799 -0.013058033 4279390618
0.03051215 -0.01333072 -0.0042753965 4279980178
0.036124479 -0.025079362 0.0058078822 4279783573
0.040219881 -0.031616114 0.011264229 4282602599
-0.038975932 -0.022482857 0.012644431 4282667368
-0.036711775 -0.023840562 0.013539407 4282929254
-0.013332892 -0.0098881647 -0.0032138117 4280503948
-0.011880443 -0.007490091 -0.0056770109 4279980178
-0.010270976 -0.0058430657 -0.0074670538 4279849618
-0.008847557 -0.0034469217 -0.0099234357 4279587734
-0.0081525967 0.0019466877 -0.015048969 4279259549
-0.0076755732 0.0080870911 -0.020833511 4278603688
-0.0068740323 0.012725912 -0.025274139 4279127203
0.0054428242 0.0098418742 -0.024565028 4278800039
0.0077470392 0.0084903687 -0.023676954 4278735269
0.009652447 0.0086350068 -0.024115473 4278800803
0.012180045 0.0065375194 -0.022569349 4278735268
0.01472361 0.0044413581 -0.021026811 4278276779
0.017070413 0.0030935854 -0.020148164 4278538919
0.019427858 0.0017467067 -0.019271826 4278997664
0.022013936 -0.0003457889 -0.017738823 4279325083
0.025498662 -0.0054226592 -0.013575535 4279783828
0.030583894 -0.015719965 -0.004815843 4279718294
0.035969499 -0.026757456 0.0045840871 4280045969
-0.011856083 -0.0098542646 -0.0061848722 4280504714
-0.010243736 -0.0082026944 -0.007972315 4279849874
-0.0086418912 -0.0065518394 -0.0097571872 4279391128
-0.0075844787 -0.0026461482 -0.013539471 4279260059
-0.0068319961 0.010419585 -0.025743369 4279193503
-0.0058726445 0.014318265 -0.029502751 4278865573
-0.0041854456 0.015210949 -0.030599181 4278340784
0.00014265627 0.013242416 -0.029473342 4278537899
0.0026135743 0.011133604 -0.027919479 4278997154
0.0051004849 0.0090261325 -0.026369205 4279062688
0.0074014813 0.0076700076 -0.025483698 4278735524
0.0099176802 0.0055649951 -0.02393998 4278539174
0.012864208 0.0019621104 -0.021080041 4278604709
0.015207786 0.00060962141 -0.020204034 4278932128
0.017137013 0.00075645745 -0.020647742 4279259803
0.01949656 -0.00059460104 -0.019775167 4279194523
0.022302363 -0.0034423098 -0.017590027 4279521943
0.026011296 -0.009282656 -0.012782309 4279718549
0.030878387 -0.018861651 -0.0047030048 4279784084
0.035814546 -0.028435238 0.0033605266 4281028739
-0.01021684 -0.010566436 -0.0084805079 4280308363
-0.0086121112 -0.0089109614 -0.01026281 4279521944
-0.0073734336 -0.0057481751 -0.013372667 4278539174
-0.0066971667 -0.00032540411 -0.018470783 4279259294
-0.006790325 0.0081091896 -0.026215581 4278931873
-0.0061989203 0.013525777 -0.03129397 4279193248
-0.0047027282 0.015173681 -0.033050776 4279127204
-0.0026439577 0.014561825 -0.032819059 4279062433
1.2591481e-06 0.011692114 -0.030604448 4278997153
0.0024714284 0.0095767155 -0.029055353 4278866083
0.0051565953 0.0067102462 -0.026849704 4278735014
0.0076613836 0.0045976937 -0.0253084 4278735524
0.010386463 0.0017345026 -0.023111757 4278997663
0.01292583 -0.00037508458 -0.021578241 4279194523
0.01506187 -0.00098019093 -0.021363702 4279128988
0.017415546 -0.0023361742 -0.020493168 4279260058
0.019779839 -0.0036911815 -0.019625016 4279391128
0.022589993 -0.0065472648 -0.01744746 4279456663
0.026302483 -0.012404762 -0.012653649 4279718549
0.030949168 -0.021261215 -0.0052509801 4279914899
0.03543403 -0.029362313 0.0014831815 4281619064
-0.0098458119 -0.014447384 -0.0076624006 4281420674
-0.008582674 -0.011274152 -0.010771401 4279783319
-0.0073407069 -0.0081024393 -0.013875451 4279783573
-0.0063001215 -0.0041761622 -0.017637331 4279456153
-0.0058346316 0.002015613 -0.02337965 4279521433
-0.0054115877 0.0082043633 -0.029112134 4279128478
-0.0040900484 0.010613024 -0.031529769 4278669733
-0.0020210147 0.0099998116 -0.031302098 4279062688
0.0006338954 0.007122077 -0.029096255 4278735269
0.00272163 0.0065104887 -0.028872669 4278931874
0.0056099705 0.0028810501 -0.026016068 4279128478
0.0081219599 0.00076258183 -0.024481393 4279063199
0.010649934 -0.0013545752 -0.022950247 4279194268
0.012987074 -0.0027163923 -0.022079427 4279390873
0.014915977 -0.0025696903 -0.022523142 4279325593
0.017481193 -0.0046836436 -0.021000281 4279456408
0.02006235 -0.0067962632 -0.019481 4279719060
0.023311678 -0.011167057 -0.016002484 4279915153
0.026812954 -0.016288303 -0.011877518 4280045969
0.031019583 -0.023664869 -0.0058018537 4279980178
0.034828555 -0.029532082 -0.0010432098 4281684854
-0.0074857026 -0.009702377 -0.015043046 4280634764
-0.0062642507 -0.0065234154 -0.018135648 4279980178
-0.005246643 -0.0025878772 -0.02188392 4279980178
-0.0044408813 0.0021035895 -0.02628604 4279260058
-0.003102947 0.0045199618 -0.02870249 4279128478
-0.0012089685 0.0046631247 -0.029138837 4279128478
0.0010716617 0.0032920465 -0.028258786 4279062943
0.0033629686 0.0019219145 -0.027381074 4279325083
0.0058635548 -0.00020410866 -0.025848754 4279128478
0.0087826513 -0.0038419589 -0.023007359 4279521688
0.011116568 -0.0052085221 -0.022139132 4279456409
0.01304796 -0.0050617829 -0.022583526 4279455898
0.014979362 -0.0049148947 -0.023027826 4279521689
0.018182166 -0.0093025193 -0.019548666 4279718293
0.021416839 -0.013687588 -0.016076736 4279980433
0.02468341 -0.018070161 -0.012612008 4279849874
0.027761973 -0.021694966 -0.0098065967 4280898179
0.031089608 -0.026072554 -0.0063557411 4282536553
-0.0069219992 -0.014344357 -0.013569411 4281158789
-0.0058691129 -0.010395437 -0.01731772 4280241808
-0.0048427023 -0.0064483806 -0.021059815 4279586968
-0.004027918 -0.0017432272 -0.025454119 4279194014
-0.0026815832 0.00068031996 -0.027867623 4278932383
-0.00058934465 6.4507127e-05 -0.027648591 4279391129
0.0015082732 -0.00055085123 -0.02743068 4279325338
0.0038069859 -0.0019247606 -0.026557971 4279521944
0.0061163791 -0.0032978058 -0.02568759 4279652759
0.009039633 -0.0069462061 -0.02285536 4279718293
0.011582017 -0.0090752691 -0.021337435 4279652504
0.013727603 -0.0096862838 -0.021130111 4279455898
0.016296603 -0.011813112 -0.019618064 4279390873
0.019516632 -0.016212471 -0.016152728 4279849874
0.022982899 -0.021367088 -0.012042911 4280439433
0.026052335 -0.025003567 -0.0092436979 4282013038
-0.0058343709 -0.012755163 -0.017825212 4282664563
-0.0048044771 -0.0087970048 -0.02155992 4279652249
-0.003801059 -0.0048406869 -0.025288407 4278867103
-0.0026365519 -0.0016482025 -0.028354496 4279129753
-0.00054199994 -0.0022660866 -0.028137613 4279325593
0.0013650022 -0.0021218434 -0.028576896 4279587478
0.0038587153 -0.0042615086 -0.02705298 4279587733
0.0061702132 -0.0056387335 -0.026186366 4279980689
0.0094967 -0.010819778 -0.022056416 4280045968
0.01265689 -0.01523716 -0.018587418 4280046224
0.015230414 -0.017370261 -0.017081484 4280308109
0.01802874 -0.020262413 -0.014927779 4282142323
-0.004220359 -0.013443373 -0.020095482 4281028484
-0.0035749562 -0.0079466403 -0.02512883 4279653269
-0.0024044998 -0.0047450587 -0.028189745 4279325849
-0.00049504265 -0.0046007261 -0.028629664 4279325849
0.0019925758 -0.0067475662 -0.027109344 4279587478
0.0043008029 -0.0081294551 -0.026245397 4279784084
0.0072137415 -0.01180049 -0.023427308 4279849618
0.010153271 -0.01546938 -0.02061525 4280766598
0.013729371 -0.021424986 -0.015856378 4281225089
0.01673004 -0.025088958 -0.013058184 4282535278
-0.0033496208 -0.011061005 -0.024975456 4281879928
-0.0021732114 -0.0078502595 -0.028031163 4279587479
-6.8746507e-05 -0.0084717348 -0.02781985 4279718804
0.0028110817 -0.012156405 -0.025002547 4279980944
0.005522348 -0.01507315 -0.022842485 4280373644
0.0084527284 -0.018753774 -0.020036586 4281618554
0.011610158 -0.023197509 -0.016586794 4282994024
-0.001194708 -0.014038116 -0.025273059 4280176528
0.00092532113 -0.01466053 -0.025067005 4280307853
0.0040122308 -0.019123055 -0.021611135 4280700809
0.0067411326 -0.022047214 -0.019461671 4282798184
-0.00059217215 -0.018710405 -0.023833591 4281618553
0.0015381314 -0.019334279 -0.023631517 4281486973
0.0042501055 -0.022268526 -0.0214848 4282601069
-0.014000192 -0.022732981 -0.041023701 4282536299
-0.014313325 -0.023504227 -0.042802647 4280372878
-0.014797393 -0.02347514 -0.045213565 4282142834
