# .PCD v0.7 - Point Cloud Data file format
VERSION 0.7
FIELDS x y z rgba
SIZE 4 4 4 4
TYPE F F F U
COUNT 1 1 1 1
WIDTH 588
HEIGHT 1
VIEWPOINT 0 0 0 1 0 0 0
POINTS 588
DATA ascii
-0.020470347 -0.017089792 -0.0021608295 4286528833
-0.018704128 -0.015433274 -0.0038438076 4287379513
-0.016832795 -0.014546253 -0.0048621567 4286921024
-0.020477112 -0.019462742 -0.0027180519 4286659648
-0.018708047 -0.017801814 -0.004398169 4287575608
-0.016602892 -0.018454663 -0.0040934067 4287379513
-0.014728751 -0.017565198 -0.0051104957 4286986814
-0.012738939 -0.017446689 -0.0054665371 4286921278
-0.010996256 -0.015786804 -0.007141599 4286921279
-0.020704251 -0.020292573 -0.0045988914 4286921279
-0.018824968 -0.019400917 -0.0056154332 4287313723
-0.016835529 -0.019282691 -0.0059716082 4287445305
-0.014845978 -0.019164346 -0.0063277124 4287314234
-0.012735542 -0.01981876 -0.0060253642 4287314234
-0.010866549 -0.018927239 -0.0070396825 4287052604
-0.0088766776 -0.018808477 -0.0073955446 4286921789
-0.0070155635 -0.017917134 -0.0084083099 4286201923
-0.0051597171 -0.017026 -0.0094199795 4286201668
-0.020711254 -0.022669233 -0.0051589478 4286528578
-0.01882929 -0.021775268 -0.0061742943 4287182909
-0.016952571 -0.020881496 -0.0071886089 4287445049
-0.015081115 -0.019987889 -0.0082019437 4287445049
-0.013094291 -0.019869573 -0.0085574631 4287117883
-0.010984059 -0.020526119 -0.0082566421 4286921789
-0.0089943521 -0.020407386 -0.0086124931 4287117883
-0.0071332306 -0.019513883 -0.0096235778 4286332738
0.00067664683 -0.018263794 -0.011697227 4286332994
0.0025193505 -0.017370805 -0.012704489 4286529343
0.0045015328 -0.017251626 -0.013058291 4286201923
-0.017069574 -0.022480018 -0.0084054079 4286790208
-0.015198119 -0.021584265 -0.0094170626 4286921024
-0.013331916 -0.020688735 -0.010427648 4286986814
-0.011101533 -0.022124685 -0.0094733629 4286921534
-0.009237811 -0.021229006 -0.010483341 4286986813
0.00083706155 -0.021410413 -0.011607053 4286266948
0.0026851334 -0.020514898 -0.012613634 4286136388
-0.013569187 -0.021503277 -0.012294317 4286528324
-0.022102561 0.00084555149 0.0366017 4279192739
-0.020597529 0.0045987219 0.032748111 4278995879
-0.018786732 0.0061719343 0.030990303 4278861238
-0.016305428 0.0033885911 0.033413529 4279583399
-0.013453808 -0.0015709102 0.037921041 4281289858
-0.010207709 -0.0087050647 0.044508461 4282471274
-0.024986792 0.0041771978 0.030835584 4282798694
-0.023802537 0.010126658 0.024902292 4278930598
-0.020013142 0.011821695 0.022793543 4278993328
-0.014852054 0.004779771 0.029021349 4278733228
-0.011993475 -0.00019432604 0.033515938 4278865573
-0.0092185438 -0.0044383481 0.037310395 4278932384
-0.0069076866 -0.0057702437 0.038327474 4280046479
-0.0053467788 -0.0027371794 0.035187945 4281750134
-0.003807269 0.00029473007 0.032052334 4282602344
-0.0013638809 -0.0017638654 0.033761065 4282602599
-0.026130524 0.0098538175 0.022641093 4278996388
-0.024656598 0.013626538 0.018809713 4278733228
-0.022778075 0.014475144 0.017759874 4279454369
-0.020683754 0.01386258 0.018098395 4279323809
-0.018244285 0.011059441 0.020515658 4278930088
-0.015667271 0.0075275153 0.023621831 4278405809
-0.013181824 0.0047273114 0.026031014 4278602923
-0.010917261 0.0033882484 0.027052864 4278406828
-0.0088897422 0.0035092905 0.026690304 4278406574
-0.0073686615 0.0065485463 0.02356464 4278799784
0.0030358732 -0.0053592771 0.033833899 4278404788
0.0056593753 -0.0081503242 0.036219109 4280963203
0.0078761205 -0.0087542832 0.036536761 4279127713
0.0102438 -0.010086223 0.037541009 4282668134
-0.02824742 0.0081241503 0.021772791 4282405738
-0.026861865 0.012641475 0.017253719 4278734248
-0.01401199 0.0074916855 0.020647801 4278930343
-0.012006234 0.007611312 0.02028903 4278733993
-0.0085002892 0.010777712 0.016815074 4278536879
-0.0067632869 0.012360133 0.015081049 4279127204
-0.0045094676 0.011016473 0.016101826 4279454879
0.00099143758 0.0032141283 0.022948377 4279126694
0.0034365654 0.0011429861 0.02464696 4278668968
0.0053274147 0.001995869 0.023597669 4278800293
0.0075035803 0.0013874322 0.023920972 4278866848
0.0092411824 0.0029706806 0.022187456 4279521434
0.010968082 0.0045533404 0.020455968 4278994348
0.013604574 0.0017549843 0.022832565 4278927538
0.017355148 -0.0061513931 0.029992476 4278468793
0.021164943 -0.01405412 0.037141956 4282077044
0.024065217 -0.017575532 0.040183488 4281815668
0.026499977 -0.018906891 0.041173 4282471273
0.028945526 -0.02023752 0.042160723 4282798438
-0.028961498 0.010926075 0.016392626 4278800293
-0.027386982 0.013984807 0.013269984 4278603688
-0.025309678 0.013366662 0.013608011 4278668458
-0.02333435 0.013483919 0.013254254 4278733484
-0.021358859 0.013601296 0.012900558 4278667949
-0.019044559 0.011514775 0.014616662 4278602669
-0.016713995 0.0094293281 0.016329937 4278734249
-0.014603693 0.0088136718 0.01666246 4278799784
-0.012608822 0.0089326128 0.016305614 4278668458
-0.0073975809 0.013692379 0.011113361 4278929833
-0.0051549785 0.012343764 0.012132735 4278733483
-0.0026327334 0.0095291212 0.014522401 4278406064
0.0021970235 0.0053702071 0.017920196 4278734248
0.0040663742 0.0062239394 0.016876403 4278799783
0.0057852715 0.0078101978 0.01514952 4278537644
0.011490621 0.0096368715 0.012711578 4278272443
0.018184189 -0.0025645122 0.023588516 4278733738
0.0208738 -0.0053679273 0.025949206 4278866084
0.02342096 -0.0074383244 0.027625326 4278735013
0.025650932 -0.008044742 0.027938079 4278931618
0.027378211 -0.0064569488 0.026210494 4282208878
0.029438825 -0.0063318983 0.025843598 4282339693
0.032373145 -0.009861432 0.028871141 4281684089
0.036044084 -0.016312368 0.034607545 4281553019
0.039763421 -0.022760257 0.040335421 4282733158
-0.029574346 0.013016663 0.011723119 4278800293
-0.027808819 0.014608301 0.0099898381 4278733994
-0.025739845 0.013987437 0.010327698 4278602669
-0.023450654 0.011892758 0.012043032 4278668458
-0.021365251 0.011273079 0.012378116 4278603433
-0.019274335 0.010653876 0.012712249 4278603689
-0.016947087 0.0085617825 0.014421017 4278734504
-0.014957853 0.0086802691 0.014065091 4278800038
-0.013089288 0.0095352158 0.01302242 4278668713
-0.011596411 0.012598537 0.0099217417 4278668203
-0.0077728517 0.013570577 0.0085297739 4278337978
-0.0006192252 0.0073067769 0.013627232 4278734248
0.0015185438 0.0066914707 0.013953843 4278603178
0.0032348521 0.0082817599 0.012230675 4278733993
0.0063400418 0.012930252 0.0074262721 4278667949
0.0081692524 0.013784103 0.0063915337 4279127714
0.010452326 0.012434445 0.0074010594 4278930599
0.013213445 0.0088828281 0.010450446 4278733484
0.01584306 0.0060670152 0.012815022 4278602668
0.018333076 0.0039865896 0.014496208 4278734758
0.020675445 0.0026409701 0.015495512 4278669733
0.022529054 0.0034969449 0.014457007 4278603688
0.024038885 0.0058196113 0.012063169 4278734504
0.036935166 -0.01347708 0.028891761 4278600883
0.041026212 -0.021409065 0.035955071 4281487738
0.044805728 -0.027872413 0.041657355 4280569994
-0.030791093 0.0046541169 0.017073844 4280241809
-0.021371942 0.0089408606 0.011852545 4278602669
-0.01939119 0.0090586022 0.011497951 4278603434
-0.017179791 0.0076988041 0.012515658 4278668969
-0.015311319 0.0085557774 0.011474582 4278472873
-0.013689384 0.010889597 0.0090641649 4278537898
-0.012083441 0.013222516 0.0066567296 4278669223
-0.0099894889 0.01260186 0.0069890479 4278800039
-0.0078900419 0.011981644 0.0073204814 4278865829
-0.0056537278 0.010623954 0.0083342874 4278603943
-0.0035406351 0.010004766 0.0086634429 4278603433
-0.0014220886 0.0093860254 0.0089917118 4278865829
0.00042302907 0.010242492 0.0079555037 4278668969
0.0021206848 0.011836 0.0062389532 4278799783
0.01493099 0.0081331655 0.0081939092 4278406319
0.017245963 0.006781511 0.0091946172 4278865318
0.019244406 0.0069024637 0.0088385241 4278865318
0.020910174 0.0084950402 0.0071285227 4278274994
0.022565175 0.01008711 0.0054204771 4278274738
0.024381148 0.010943189 0.0043905312 4278734248
0.034291625 -0.0048635826 0.018172372 4278864809
0.03907302 -0.015760824 0.027920835 4278931619
0.043935064 -0.026653022 0.03765507 4279062688
-0.031389307 0.0067591146 0.012412238 4279848598
-0.030102316 0.012069948 0.0072457502 4278275249
-0.028242808 0.012927875 0.0062074298 4278667949
-0.021708038 0.0088285878 0.009267549 4278537134
-0.019507986 0.0074636415 0.010283881 4278603434
-0.01764233 0.008322455 0.0092448751 4278734504
-0.015664127 0.0084402487 0.0088908868 4278472363
-0.014167696 0.01152087 0.005802867 4278472109
-0.0057713352 0.0090309605 0.0071219364 4278735014
-0.0036585443 0.008409597 0.0074494584 4278538664
-0.0016769022 0.0085283741 0.0070954682 4278669478
-0.00011304393 0.010865949 0.0047010565 4278473129
0.0014347471 0.013202675 0.0023096027 4278537898
0.003255818 0.014060058 0.0012795245 4278799528
0.0052189305 0.014178164 0.00092918519 4278602924
0.0071820989 0.014296405 0.00057893805 4278537134
0.012196567 0.0093631372 0.0046196626 4278668458
0.014494911 0.0080060586 0.0056198938 4278734248
0.016482431 0.0081262216 0.0052656503 4278865318
0.018306477 0.0089845955 0.0042356746 4278799528
0.021431837 0.012914024 0.00015418325 4278667949
0.023403257 0.013033681 -0.00019682664 4279193503
0.025897432 0.010941111 0.0014740536 4278734759
0.029115498 0.0059005618 0.0058359103 4278668969
0.033089727 -0.0020860434 0.012883044 4278537643
0.037852399 -0.013016783 0.022609752 4278734758
0.04325074 -0.026152804 0.034338254 4278735268
0.047431938 -0.034126423 0.041348845 4279914643
-0.03329787 0.0035587996 0.012926624 4282077808
-0.032082032 0.0096303299 0.0070810849 4278406064
-0.030316103 0.011234701 0.0053576799 4278471854
-0.028560746 0.012838542 0.0036362568 4279061923
-0.026607607 0.01295428 0.0032863216 4278538409
-0.024547417 0.012326501 0.0036207112 4278471088
-0.020073738 0.0088422671 0.0063367402 4278603434
-0.018218804 0.0097025782 0.0053013163 4278734248
-0.016251486 0.0098197088 0.0049492726 4278406319
-0.0058889054 0.0074382648 0.0059098015 4279061159
-0.0039101727 0.0075567439 0.0055562304 4278668969
-0.0019313544 0.0076753572 0.0052027451 4278669224
-0.00050897896 0.010760948 0.0021352665 4278603434
0.0010337755 0.013103798 -0.00025029015 4278603433
0.0027049743 0.014704399 -0.0019552782 4278996389
0.00465988 0.014822014 -0.0023041498 4278865064
0.0069146082 0.013457634 -0.0012997715 4278865574
0.0093327239 0.011353068 0.00037891511 4278538408
0.011767007 0.0092496425 0.0020547593 4278538154
0.013901561 0.0086284131 0.0023775706 4278668968
0.015880868 0.0087480918 0.0020248042 4278472363
0.017533522 0.010348409 0.00032369327 4278734248
0.01917544 0.011948168 -0.0013753558 4278472109
0.032787167 -0.0029786602 0.010970361 4278406573
0.037362382 -0.013202876 0.020002015 4278800803
0.042567402 -0.025639251 0.031031493 4278670243
0.04636351 -0.032159619 0.036685716 4281554039
-0.0343468 0.0094263256 0.0048592472 4279325339
-0.032580856 0.011034869 0.0031390944 4278537898
-0.022597011 0.01012212 0.0027537225 4278603178
-0.020526078 0.0094930083 0.0030846568 4278603178
-0.018564414 0.0096096694 0.0027335221 4278799528
-0.016720075 0.010471612 0.0017017396 4278340784
-0.015001152 0.012078337 -9.2377886e-06 4278799274
-0.01329286 0.013684578 -0.0017182687 4278996388
-0.011344146 0.013800897 -0.0020667529 4278799274
-0.0091388859 0.012428276 -0.0010575643 4278602414
-0.0063991509 0.0080789924 0.0026629614 4278471088
-0.0041614436 0.0067085773 0.0036664838 4278733993
-0.0020491667 0.0060829148 0.0039908616 4278668713
-0.00076528266 0.0099210441 0.00025308412 4278537643
0.0069469176 0.011137031 -0.0018250877 4278274229
0.0092146844 0.0097691938 -0.00082625356 4278537898
0.011493236 0.0084021613 0.00017070118 4278407338
0.013466988 0.0085213706 -0.00018117856 4278407083
0.015440773 0.0086406991 -0.00053297263 4278537898
0.017088238 0.010244988 -0.002229753 4278603689
0.018724948 0.011848778 -0.00392457 4278799783
0.020519465 0.012709893 -0.004945769 4278930599
0.022651076 0.012086965 -0.0046236953 4279061924
0.025135923 0.0099809095 -0.0029612025 4278865318
0.028519973 0.0041679144 0.0020492831 4278669478
0.032843556 -0.0053494945 0.010400559 4278669478
0.037965011 -0.017827697 0.021416329 4278866594
0.042808488 -0.028817952 0.031078488 4278735778
0.045858845 -0.032393657 0.034043994 4282209643
-0.034647491 0.0093472824 0.0022921981 4279390619
-0.03279094 0.010211252 0.001259164 4278472618
-0.031136576 0.012571841 -0.001137658 4278931364
-0.029295783 0.013435043 -0.0021676561 4278931108
-0.02735633 0.013549916 -0.0025151772 4278931108
-0.02531017 0.01291696 -0.0021816557 4278800039
-0.023149241 0.011536628 -0.0011685519 4278734504
-0.021313231 0.012399971 -0.0021973616 4278734248
-0.019253198 0.011768155 -0.0018660771 4278799783
-0.014021587 0.015851408 -0.0063023777 4279192484
-0.011835705 0.014473177 -0.0052931891 4278602413
-0.0069084018 0.0087329969 -0.00057376828 4278406319
-0.0046792142 0.0073577091 0.00042796042 4278799528
-0.0025753155 0.006729424 0.00075210724 4278734248
0.001750458 0.01528728 -0.0077203461 4279389088
0.0041322596 0.013167419 -0.0060454556 4278930088
0.0090966746 0.0081856325 -0.0020311875 4278668714
0.011064872 0.0083043724 -0.0023821788 4278865319
0.013190735 0.0076783523 -0.0020612208 4278734759
0.01500136 0.0085422546 -0.0030838726 4278603434
0.016643614 0.010150559 -0.0047764322 4278996388
0.022703439 0.0097635463 -0.0051557114 4278733994
0.025364105 0.0069072545 -0.0028296215 4278800293
0.028752085 0.0010772869 0.0021667741 4278538408
0.033257924 -0.0092115775 0.011163785 4278538663
0.038748182 -0.023212917 0.023485281 4278735524
0.04286442 -0.031261735 0.030452128 4280307853
-0.034668591 0.0070244446 0.0017771656 4279324318
-0.032809313 0.0078906491 0.00074534025 4278669734
-0.031053592 0.009507291 -0.00096628722 4278735269
-0.029207405 0.010372952 -0.0019955887 4279062688
-0.027470153 0.011988677 -0.0037036939 4279062943
-0.025530677 0.01210364 -0.0040511498 4278669733
-0.023591068 0.012218736 -0.0043985425 4278669989
-0.021539535 0.011584125 -0.0040675187 4278669478
-0.019482505 0.010949962 -0.0037373817 4278866084
-0.017654259 0.011815205 -0.004762969 4278603689
-0.0076778345 0.010897644 -0.0051504103 4278603178
-0.0053292736 0.0087686777 -0.0034750318 4278799784
-0.003372401 0.0088859126 -0.0038246466 4278799528
-0.00044779107 0.014357112 -0.009235302 4279061413
0.0014904886 0.014473602 -0.0095813069 4279127714
0.003575556 0.013842441 -0.009255074 4278865065
0.0061142445 0.010969132 -0.006914814 4278733739
0.010791954 0.0074683651 -0.0042575886 4278734248
0.012914825 0.0068399608 -0.0039377278 4278603434
0.014722768 0.0077058896 -0.0049582822 4278406574
0.025418062 0.0045712814 -0.0033716885 4278733483
0.029159859 -0.0027676597 0.002944815 4278735014
0.03402929 -0.014577843 0.013250134 4278407849
0.039348066 -0.027873889 0.024872098 4278735778
0.042735666 -0.032964073 0.029157244 4281292154
-0.034597132 0.0039445013 0.0019391598 4279259803
-0.032827955 0.0055660754 0.00022841711 4278735524
-0.030872997 0.0056816041 -0.00012209546 4278735013
-0.029018741 0.0065498576 -0.0011511957 4278407594
-0.027273249 0.008170411 -0.0028574793 4278342314
-0.025644582 0.010542654 -0.0052394485 4278276524
-0.023705121 0.010657713 -0.0055868356 4278735269
-0.021765497 0.010772891 -0.005934163 4278669733
-0.019597154 0.00938458 -0.0049289325 4278997408
-0.018002864 0.011755288 -0.0073044342 4279128479
-0.016185228 0.012622148 -0.0083263665 4279259549
-0.014495209 0.014240138 -0.010022067 4278735524
-0.012440696 0.013604097 -0.0096928347 4278996389
-0.010380682 0.01296851 -0.0093644746 4278603433
-0.0081847645 0.011582486 -0.0083636064 4278538154
-0.0062442422 0.011698626 -0.0087103881 4278407083
-0.0044394508 0.012565449 -0.0097295372 4278865318
0.0079491362 0.009516798 -0.0084575815 4278603434
0.010210156 0.0081357211 -0.0074675186 4278668713
0.012324646 0.0075047016 -0.0071478887 4278603178
0.015105657 0.012984149 -0.012519709 4278471088
0.016881386 0.013850518 -0.013532656 4278931364
0.019155947 0.012470864 -0.012544549 4278668203
0.025645142 0.0014831051 -0.003251154 4278800038
0.0297428 -0.0073733777 0.0043784259 4278669223
0.034620218 -0.019217499 0.014655552 4278735268
0.039402135 -0.030308492 0.024253219 4278867103
0.042054351 -0.032423221 0.025871258 4282405738
-0.03461891 0.0016114265 0.0014163256 4279259803
-0.032751527 0.0024823695 0.00038636103 4279062943
-0.030791324 0.0025981888 3.489852e-05 4278735268
-0.028931674 0.0034688935 -0.00099351443 4278931873
-0.027077239 0.004339397 -0.0020209039 4279128478
-0.02544019 0.006718643 -0.0043993918 4278801058
-0.023384023 0.0060798749 -0.0040726503 4279194269
-0.021433812 0.0061956495 -0.0044218907 4279325338
-0.019483458 0.0063115582 -0.0047710696 4279325338
-0.017883461 0.0086890087 -0.0071425354 4279390618
-0.016060438 0.0095583126 -0.0081637828 4279456408
-0.014364887 0.011180975 -0.0098571805 4279260314
-0.012305278 0.010543078 -0.0095305284 4280702338
-0.010495353 0.011411957 -0.010549155 4280505988
-0.0085604452 0.011527635 -0.010895032 4278997919
-0.0067583993 0.012396261 -0.011912084 4278603943
-0.0049616471 0.013264708 -0.012928077 4278603943
-0.0028935336 0.012627922 -0.012602485 4278407338
-0.0012430288 0.014248684 -0.014287207 4278407340
0.0051351786 0.011588909 -0.012645657 4278341294
0.0073768683 0.010202236 -0.011655598 4278800293
0.0096293427 0.0088163838 -0.010667405 4278603434
0.01157831 0.008934103 -0.011014859 4278800039
0.016268864 0.014544286 -0.016715128 4278800039
0.018702773 0.012409128 -0.015063877 4278865829
0.021835178 0.0072726682 -0.010757237 4278537899
0.025525043 -0.00011260808 -0.0044650659 4278668203
0.02997252 -0.010495536 0.0044719419 4278341294
0.035031214 -0.023124047 0.015384958 4278604199
0.039093219 -0.031247266 0.02230607 4279784084
-0.034640934 -0.0007257238 0.000890458 4279128478
-0.032770861 0.0001475662 -0.00013836473 4279259548
-0.030808102 0.00026351959 -0.00049030408 4279128478
-0.028845195 0.00037958473 -0.00084218383 4279194013
-0.026882131 0.00049578398 -0.0011940002 4279259548
-0.025130752 0.0021253005 -0.002894558 4279062944
-0.02317277 0.0022414103 -0.0032452978 4278866338
-0.021437231 0.0038702264 -0.0049428372 4279521944
-0.01948433 0.0039862767 -0.0052924785 4279325340
-0.017997999 0.0071263537 -0.0083319852 4279653014
-0.016055603 0.0072420016 -0.0086795827 4279980688
-0.014235135 0.0081134066 -0.0096986135 4280439434
-0.012045719 0.0067181736 -0.0087035103 4281160574
-0.0085451268 0.0092161894 -0.011409401 4280832643
-0.0067403764 0.01008714 -0.012425254 4281880694
-0.0050764009 0.011712722 -0.014109188 4278735013
-0.0031467639 0.011828423 -0.014453859 4278473128
-0.0013579205 0.012698822 -0.015466635 4278669479
0.00071272254 0.012060188 -0.015142963 4279062688
0.0027887896 0.01142206 -0.01482021 4278800549
0.0050191991 0.010030337 -0.013831603 4278472618
0.0072604232 0.008639358 -0.012844796 4278407083
0.0090495348 0.0095103011 -0.013857125 4278604199
0.010676313 0.011134669 -0.015533707 4278603688
0.025404954 -0.0017080083 -0.0056787282 4278602669
0.030025801 -0.01287362 0.0038971929 4278668968
0.035084255 -0.025538735 0.014781796 4278800804
0.038965821 -0.032933466 0.021023437 4280898178
-0.034570899 -0.0038263872 0.0010366589 4279390363
-0.032885481 -0.00143186 -0.0013408437 4279194013
-0.030922871 -0.001315929 -0.0016927645 4279259803
-0.028960098 -0.0011998937 -0.0020446386 4279128988
-0.026997175 -0.0010837391 -0.0023964569 4278997663
-0.025139857 -0.00020868331 -0.0034209527 4278932383
-0.023179319 -9.2424452e-05 -0.0037721563 4278801059
-0.021329794 0.00078239292 -0.0047950894 4279325083
-0.019485485 0.0016570315 -0.005816977 4279390618
-0.01787946 0.004047744 -0.0081795603 4279587224
-0.015931841 0.0041636899 -0.0085280985 4279718549
-0.013862211 0.0035219342 -0.008206699 4279783829
-0.011787083 0.0028806105 -0.0078861378 4279718294
-0.010088284 0.0045122579 -0.0095732734 4280111248
-0.0082701817 0.0053860322 -0.010589938 4280307343
-0.0064573623 0.0062595978 -0.011605571 4280831623
-0.0046498366 0.0071329549 -0.01262018 4279587224
-0.0028476045 0.0080061927 -0.013633761 4279194269
-0.0010506734 0.0088791624 -0.01464628 4279456408
0.00088432431 0.0089954138 -0.014991733 4281881204
0.0028193854 0.0091117844 -0.015337101 4280963714
0.0052007772 0.0069596395 -0.013687151 4281094528
0.0071440004 0.0070767552 -0.014033782 4279980433
0.0087789819 0.0087057725 -0.015708588 4278932639
0.010246433 0.011089958 -0.018044967 4278932128
0.011857279 0.012717761 -0.019715277 4278997408
0.013781801 0.012834229 -0.020058202 4279062689
0.015871221 0.012195595 -0.019738842 4278866084
0.018301181 0.010047227 -0.018096887 4278669478
0.02108779 0.0063901618 -0.01513525 4278341803
0.025111943 -0.0025483668 -0.0075529255 4278342058
0.029903142 -0.014501132 0.0026591299 4278603943
0.03531532 -0.028711803 0.014835422 4278735013
0.039019451 -0.035373606 0.020400357 4278473384
-0.034409221 -0.0076971799 0.0018500304 4279587734
-0.03262056 -0.0060572848 0.0001490619 4279259804
-0.030744921 -0.0051793605 -0.00087732822 4279063708
-0.028874468 -0.0043016151 -0.0019026995 4279325593
-0.027009238 -0.0034240857 -0.00292705 4278932893
-0.025254849 -0.0017857626 -0.0046215244 4278605474
-0.023294438 -0.0016695336 -0.0049727187 4278801314
-0.021333914 -0.0015531853 -0.0053238384 4278997663
-0.019486923 -0.00067626685 -0.006344568 4279390618
-0.01787788 0.0017210841 -0.008702673 4279456409
-0.015927713 0.0018371642 -0.0090516694 4279456410
-0.013733972 0.00043337792 -0.0080641173 4279587224
-0.011653788 -0.000209786 -0.007746201 4279718294
-0.0099494271 0.0014264584 -0.0094309412 4279521944
-0.0082557462 0.0030622184 -0.011113729 4279653014
-0.006440226 0.0039380938 -0.01212817 4279980179
-0.0044948347 0.0040545985 -0.012475765 4279783828
-0.0026872195 0.0049302354 -0.013488623 4279259804
-0.00074437633 0.005046837 -0.013835575 4279390618
0.0011985414 0.0051635504 -0.014182444 4279325083
0.0032874271 0.0045218766 -0.013865325 4279194014
0.0053817369 0.0038806573 -0.013549071 4279979669
0.0073301829 0.003998071 -0.013896651 4280307599
0.0088167451 0.0063897297 -0.016231518 4279194268
0.010287199 0.0087805688 -0.018563468 4278866593
0.01206027 0.0096550956 -0.019569393 4279390873
0.01415205 0.0090143308 -0.019252226 4279718548
0.016084496 0.0091313869 -0.01959648 4279718294
0.018184364 0.0084913597 -0.019280557 4279259548
0.020629814 0.0063376129 -0.017646275 4278669988
0.024473686 -0.0018702522 -0.010741848 4278604453
0.0297805 -0.016128339 0.0014212942 4278866593
0.035189424 -0.03038007 0.013566394 4278997663
0.038711075 -0.036304913 0.018458899 4282274669
0.040623836 -0.035420783 0.017428972 4282732903
-0.033972356 -0.013872258 0.0046693785 4280963459
-0.032072697 -0.012990899 0.0036402522 4280111758
-0.030275647 -0.011346109 0.0019411994 4279391638
-0.028489161 -0.0097019002 0.00024415459 4279457173
-0.026816037 -0.0072948858 -0.0021208646 4279326103
-0.025053415 -0.0056518242 -0.0038134307 4279063963
-0.023301389 -0.0040092543 -0.0055040605 4279063453
-0.021338318 -0.0038927868 -0.0058556609 4278801823
-0.019488622 -0.0030135587 -0.0068752021 4279325338
-0.017644178 -0.0021345392 -0.0078937225 4279259803
-0.015686106 -0.0020180121 -0.0082441568 4279194013
-0.013727896 -0.001901336 -0.0085945055 4279325083
-0.011769593 -0.0017845556 -0.0089447945 4279390619
-0.0099381395 -0.00090582669 -0.0099606104 4279390618
-0.0082415901 0.00073439628 -0.011640571 4279521689
-0.0062910579 0.00085107982 -0.011989187 4279390618
-0.0044754483 0.0017292276 -0.013001889 4279194013
-0.0025274418 0.0018460006 -0.013349857 4279259548
-0.00071975216 0.0027239174 -0.014360957 4279194268
0.0012256987 0.0028407723 -0.014708288 4279063198
0.0034627058 0.0014363974 -0.013731025 4279062944
0.0055620857 0.00079328567 -0.013417311 4279325083
0.0073646158 0.0016714185 -0.014427159 4279259548
0.009008009 0.0033094883 -0.016096734 4279194013
0.010640685 0.0049470589 -0.0177643 4279128733
0.012421813 0.0058242753 -0.018770039 4279128734
0.01435947 0.0059415177 -0.019115314 4278997663
0.016461711 0.0052993149 -0.018801544 4278735779
0.018234821 0.0061764047 -0.019805569 4278866849
0.020682316 0.0040163323 -0.018176671 4278735013
0.024526943 -0.0042151287 -0.011290763 4278669989
0.030183824 -0.020031922 0.0021547396 4279194014
0.034885544 -0.031289287 0.011641105 4279194014
-0.024536993 -0.011826344 -0.0010115551 4282011763
-0.022876661 -0.009413451 -0.0033690492 4280897670
-0.021010976 -0.0085312352 -0.0043899426 4280307599
-0.019263897 -0.0068844631 -0.006076124 4279653779
-0.01752742 -0.0052381828 -0.0077603613 4279522709
-0.015801575 -0.0035924464 -0.0094425604 4279717783
-0.013843529 -0.0034758002 -0.0097928979 4279652248
-0.012009468 -0.0025948957 -0.010807611 4279390874
-0.010180686 -0.0017141923 -0.011821289 4279259548
-0.0083571933 -0.00083366036 -0.012833986 4279194523
-0.0064068139 -0.00071698427 -0.013182569 4279128988
-0.0044563487 -0.00060017407 -0.01353107 4279259548
-0.0027808696 0.0010433793 -0.015203618 4279325083
-0.00083563849 0.0011601076 -0.015551001 4279128733
0.0011096597 0.0012769699 -0.015898295 4278932128
0.0032006018 0.00063110143 -0.015584908 4279128733
0.0051486976 0.00074836612 -0.015932519 4279325338
0.0072477981 0.00010325015 -0.015620377 4279063198
0.0091986619 0.00022093952 -0.015968289 4278997663
0.010993216 0.001100935 -0.016974807 4279325339
0.012623403 0.0027427599 -0.018638507 4279390873
0.014566276 0.0028603449 -0.018984694 4279390874
0.01650917 0.0029780343 -0.0193308 4279128734
0.018117884 0.00461898 -0.02099042 4278735268
0.020734517 0.0016910434 -0.01871011 4278931618
0.024752356 -0.0073252916 -0.011186872 4279325084
0.029885583 -0.020903938 0.00025711022 4279259294
0.03404849 -0.029911138 0.0077546956 4282471019
-0.0171795 -0.0098837316 -0.0063048014 4281682558
-0.01544274 -0.008233048 -0.0079856105 4281159044
-0.013474096 -0.0081157908 -0.0083378553 4280503184
-0.011629291 -0.0072321072 -0.0093528219 4279848599
-0.0097897612 -0.0063485876 -0.010366812 4279586968
-0.0080848113 -0.0046993196 -0.012041558 4279521434
-0.006258525 -0.0038163811 -0.013052933 4279062943
-0.0044375323 -0.0029336363 -0.014063269 4279062943
-0.002759207 -0.0012855679 -0.01573303 4279391129
-0.00081143901 -0.0011686832 -0.016080867 4279325338
0.0011363961 -0.0010516793 -0.01642862 4278997409
0.0030842759 -0.00093455613 -0.016776297 4278932128
0.0050322153 -0.00081731379 -0.017123889 4278866849
0.0071310028 -0.0014646053 -0.016813368 4279259548
0.009235207 -0.0021114871 -0.01650368 4279259804
0.010876279 -0.00046478957 -0.01816611 4279063198
0.012665488 0.00041716546 -0.019169904 4279456410
0.0142878 0.0020629391 -0.020828746 4279128478
0.016392088 0.0014166012 -0.020518724 4278801059
0.018167909 0.0022981092 -0.021519858 4279063198
0.020956034 -0.0014018565 -0.018591918 4278931873
0.025149435 -0.011207096 -0.010435161 4278997153
0.02993766 -0.02329772 -0.00032957084 4279390874
0.033568121 -0.030041538 0.0051881829 4282667624
-0.0059790164 -0.0076920614 -0.012269978 4282404209
-0.0040154308 -0.0075744912 -0.012620837 4282141813
-0.002326183 -0.0059214979 -0.014289159 4280373133
-0.00036782771 -0.0058040023 -0.014638901 4279980179
0.00130542 -0.0041517392 -0.016304165 4279390108
0.0032585301 -0.0040342957 -0.01665277 4279324829
0.0052116849 -0.0039167479 -0.017001301 4278800804
0.0073155276 -0.0045658723 -0.016693354 4279259803
0.0094247833 -0.005214572 -0.016386285 4279259804
0.011227414 -0.0043298006 -0.017390911 4279390873
0.012707282 -0.0019124672 -0.019704379 4279194013
0.014493831 -0.0010283887 -0.020705916 4278997409
0.016110949 0.00062149018 -0.022360411 4279259548
0.018050849 0.00073913485 -0.022705883 4279128733
0.020838013 -0.0029716343 -0.019786127 4279062943
0.025029145 -0.012804963 -0.011650709 4279128733
0.029639784 -0.024164759 -0.0022234153 4280112014
0.032910898 -0.029397734 0.0019768411 4282667879
0.0017586835 -0.0087990388 -0.014873774 4281616258
0.0037223771 -0.008680962 -0.01522426 4280176273
0.0058339238 -0.0093319789 -0.014919446 4279718039
0.0081013627 -0.010751471 -0.01396078 4279915408
0.010073252 -0.010632537 -0.014312454 4279325848
0.01188932 -0.0097448006 -0.01531781 4279063198
0.013541486 -0.0080886856 -0.016975407 4278997663
0.015021708 -0.0056648105 -0.01928379 4278932383
0.016649727 -0.0040099099 -0.02093691 4278997664
0.018433621 -0.0031236112 -0.021936119 4279325593
0.021227874 -0.0068447068 -0.019025993 4279128733
0.025080856 -0.015170284 -0.01221509 4279390874
0.029342242 -0.025027148 -0.0041137952 4281553274
0.013172422 -0.01826442 -0.010652332 4282208879
0.014690552 -0.01583188 -0.012962588 4281356159
0.016353656 -0.014170751 -0.014618681 4280831624
0.018006023 -0.012510091 -0.016272798 4280111248
0.019481216 -0.010079809 -0.018575057 4279849620
0.021955047 -0.012270473 -0.016975962 4279521944
0.025304068 -0.018309377 -0.012133284 4279653269
0.029045055 -0.025884926 -0.0060005994 4281750134
0.019359421 -0.021048799 -0.011637999 4282863718
0.020859115 -0.018610589 -0.013939625 4282273904
0.023018548 -0.019261934 -0.013645912 4281684344
0.025698312 -0.022228882 -0.011410171 4280766598
0.028748216 -0.0267381 -0.0078838859 4282536299
0.02378967 -0.02712249 -0.012212621 4282928743
0.03389398 -0.028901868 -0.014585743 4282863974
0.035536151 -0.027223617 -0.01622382 4282798439
0.015039932 -0.028491378 -0.015166285 4282338673
0.017360989 -0.029932909 -0.014236852 4282666859
0.018595006 -0.028288715 -0.018382853 4280766344
0.0207555 -0.028950855 -0.018097779 4282536554
-0.02913427 -0.023935601 -0.023546612 4282601069
