# .PCD v0.7 - Point Cloud Data file format
VERSION 0.7
FIELDS x y z rgba
SIZE 4 4 4 4
TYPE F F F U
COUNT 1 1 1 1
WIDTH 522
HEIGHT 1
VIEWPOINT 0 0 0 1 0 0 0
POINTS 522
DATA ascii
0.0034711696 -0.027473398 -0.015490348 4287573314
0.0031582974 -0.02832146 -0.017307093 4287508034
0.0095885657 0.0018679574 0.045320198 4281026953
0.011461493 0.0027109385 0.044169873 4282863974
0.01589155 -0.0062367991 0.052904502 4282928999
0.0061689653 0.0049385801 0.039600268 4279652503
0.0084360987 0.012239829 0.031671152 4278469304
0.016718613 -0.0036101565 0.046991266 4278337213
0.021046169 -0.011879109 0.054983169 4280699024
0.0039935745 0.0031118467 0.038830534 4282208623
0.0039319843 0.011705242 0.029936334 4278799783
0.0050476305 0.015365548 0.025983753 4278666928
0.0068565793 0.01620841 0.024850478 4279257253
0.014165195 0.0038222969 0.036632225 4279387813
0.017891675 -0.002365537 0.042507634 4279389343
0.021284923 -0.0071435496 0.046970606 4279193503
0.023942238 -0.0091068298 0.04862354 4282273903
0.031205075 -0.012179583 0.050767086 4282732904
0.035548016 -0.019756593 0.057994425 4282797674
0.001619231 0.010614321 0.028475346 4278537899
0.0042009428 0.016543806 0.021991933 4278667949
0.0063588731 0.015975833 0.022266189 4279258019
0.0090696253 0.013290495 0.024643032 4278602413
0.015494423 0.0043967515 0.032883398 4278668969
0.018473228 0.0010118112 0.035943218 4278538409
0.02012671 0.0025652573 0.034104936 4278668969
0.022357011 0.0020030215 0.03436406 4278865319
0.024195692 0.0028509051 0.033226609 4279126693
0.027437164 -0.0012338907 0.03697066 4279846048
0.031322174 -0.0074297115 0.0427977 4281158279
0.035874754 -0.015734814 0.050702564 4281551999
-0.00119422 0.011655852 0.024909144 4279259549
0.00062260404 0.012503311 0.023777159 4278407338
0.011477377 0.009656921 0.025126258 4278406318
0.014039781 0.0076735318 0.026789797 4278930853
0.016237654 0.0071066022 0.027054137 4278603179
0.01786202 0.0086623579 0.02522544 4278471854
0.021673683 0.009650901 0.023663694 4278665398
0.032838516 -0.0075883493 0.039728731 4279453349
0.037415393 -0.015917994 0.047608934 4281553018
0.040998049 -0.020712487 0.052008897 4282405994
-0.0015496351 -0.0066355392 0.040735252 4282994534
-0.0028218478 0.0077366978 0.026261745 4279849873
-0.0020068958 0.012854718 0.020923475 4278801058
-0.00020070001 0.013703629 0.019795412 4278538409
0.0017743371 0.013841316 0.019368364 4278931108
0.0035727024 0.014689863 0.018242201 4279127458
0.0057246573 0.014117047 0.018514482 4278733994
0.0082462206 0.01212398 0.020181796 4278668713
0.010968618 0.0094219744 0.022543179 4278734504
0.0131501 0.0088515654 0.022809336 4278996388
0.014766652 0.010411054 0.02098549 4278471854
0.017967809 0.013528168 0.017344914 4279061414
0.020146754 0.01295805 0.017611952 4279258784
0.022933412 0.01026123 0.019959964 4278406318
0.026148338 0.0061483011 0.0236903 4278603434
0.030219806 -0.00079699606 0.030185247 4278800803
0.035179831 -0.010572404 0.039437905 4278931874
0.040003128 -0.01963412 0.047982834 4278670243
-0.0039764754 0.0016619861 0.029710026 4280831113
-0.0041211881 0.011079893 0.020175798 4278603433
-0.00085124746 0.014208533 0.016525334 4278665398
0.0012895577 0.013632536 0.016798241 4278733994
0.0036123544 0.012344062 0.01776764 4278669479
0.0055874102 0.012481973 0.017340761 4278538664
0.0081082769 0.010482237 0.01900333 4278603688
0.010091458 0.010620952 0.018574858 4278538153
0.012261938 0.010047585 0.018841764 4278603433
0.01367813 0.012322716 0.016328698 4278733993
0.016853061 0.015446782 0.012700291 4279255979
0.019216254 0.014162064 0.013661643 4279126948
0.021991357 0.01145564 0.016005652 4278930599
0.025397621 0.0066175833 0.020420684 4278472109
0.029253127 0.00036048889 0.026210265 4278276014
0.034199711 -0.0094465986 0.03544306 4278604454
0.039432295 -0.019958816 0.045349933 4278669989
0.04324732 -0.025493003 0.050412834 4279194268
-0.0059089623 0.0078733861 0.020826178 4279980179
0.0034752786 0.010709316 0.016594114 4278537644
0.0056292675 0.010132194 0.016862733 4278538153
0.0077886432 0.009555608 0.017130224 4278538153
0.0095846206 0.010408692 0.016008068 4278538153
0.011375304 0.011261575 0.0148871 4278603688
0.0125915 0.01425682 0.011688 4278538153
0.013978768 0.016536683 0.0091861021 4278471854
0.029522456 -0.0027425662 0.02638627 4278668458
0.034680028 -0.01329314 0.036284849 4278930853
0.039495487 -0.022412501 0.044789195 4278800293
0.0424565 -0.025114015 0.047087044 4282602343
-0.0080281086 0.0060947239 0.020076977 4281028993
-0.0070230253 0.010542214 0.015464071 4278406064
-0.0058843382 0.014269471 0.011554882 4278799018
-0.0040994324 0.01512333 0.010436185 4279061924
-0.0019780211 0.014541388 0.010709958 4278799783
0.00049586222 0.012524888 0.012372622 4278602159
0.0031620488 0.0097922161 0.014726358 4278274994
0.0053130277 0.0092127323 0.01499396 4278668969
0.0074694157 0.0086336881 0.015260512 4278800039
0.0090785511 0.010205612 0.013447789 4278865574
0.010490194 0.012493506 0.010945383 4278930853
0.012075402 0.014063999 0.0091380104 4278865064
0.013649981 0.015633821 0.0073330645 4278996134
0.015603675 0.015770912 0.0069112945 4278930853
0.017952505 0.014476389 0.0078692455 4278603943
0.021112923 0.010319993 0.011582 4278472618
0.025319858 0.0025884211 0.018731341 4278472363
0.030407749 -0.0080001056 0.028620476 4278537898
0.03557571 -0.018582888 0.038492419 4278996898
0.039347425 -0.024155349 0.043538585 4280439688
-0.010461498 0.0057583004 0.017934244 4282011253
-0.0096049123 0.010940343 0.012632143 4279324319
-0.0079721622 0.012517348 0.01081693 4278930599
0.0023211613 0.011038616 0.01078343 4278799528
0.0048185252 0.0090173483 0.012436355 4278799528
0.0067878775 0.0091549158 0.012010753 4278603179
0.0085732751 0.010011658 0.010894129 4278734248
0.016051274 0.011999547 0.0078174938 4278865064
0.01860497 0.0099830553 0.0094588641 4278604199
0.021574762 0.0065320134 0.012472162 4278604199
0.025787489 -0.0012232363 0.019602343 4278604199
0.031085825 -0.012561895 0.030152557 4278538664
0.035845421 -0.021742396 0.038626604 4279652758
0.039199382 -0.025897868 0.042288214 4281226109
-0.011492617 -0.0010774657 0.022058727 4282207603
-0.011854932 0.0099071115 0.011197144 4278931619
-0.010539055 0.012934394 0.0079949927 4278800039
-0.008756917 0.01379215 0.0068799984 4278472363
-0.0069800168 0.014649652 0.0057662148 4278668204
-0.0050405227 0.01478456 0.0053466391 4278537134
-0.0031009391 0.014919624 0.0049271518 4278537389
-0.00046861544 0.01216694 0.0072750617 4278537643
0.0016576312 0.011581153 0.0075446945 4278865318
0.0041462779 0.0095527172 0.0091945715 4278733993
0.0059263222 0.010411143 0.0080806296 4278537134
0.0077010803 0.011269301 0.0069679096 4278601903
0.0090975314 0.013569325 0.0044784788 4278929579
0.011045549 0.013705775 0.0040577594 4278601903
0.016303279 0.008935675 0.0080272276 4278865064
0.019255966 0.0054723471 0.011036007 4278734759
0.022834916 -0.00014930964 0.01609738 4278603943
0.027064122 -0.0079275668 0.02320612 4278735524
0.031762425 -0.017141029 0.031672187 4279390874
0.035698675 -0.023471348 0.037385933 4281619319
0.038840842 -0.026920713 0.040354304 4282209133
-0.013790179 0.0074282289 0.011152998 4279520923
-0.013088405 0.013366267 0.0051793363 4278865318
-0.011311669 0.014225721 0.0040670391 4278799018
-0.0092155337 0.013635091 0.0043410789 4278340019
-0.007278949 0.013769679 0.0039220415 4278668713
-0.0050069652 0.01245527 0.0048859268 4278668968
-0.0030648597 0.012590468 0.0044658668 4278799783
-0.00077671185 0.01127746 0.0054263789 4278734504
0.0011708848 0.011413291 0.0050053149 4278668969
0.0032968707 0.01082544 0.0052734166 4278930343
0.0050662793 0.011685312 0.00416339 4278602669
0.0082166009 0.01485081 0.00057224743 4279060905
0.010153797 0.0149865 0.00015386473 4279258019
0.012666009 0.012953669 0.0017942414 4278995879
0.015777238 0.0087540522 0.0054881815 4278274994
0.019511497 0.0023893118 0.011230541 4278668968
0.023493467 -0.0046942383 0.017647095 4278669734
0.028135819 -0.013940305 0.026104001 4278669989
0.032232542 -0.02101554 0.032495998 4280112269
0.035551958 -0.025199927 0.036145516 4281815923
0.038482696 -0.02793882 0.038423806 4282471018
-0.015003696 0.010902211 0.0051408913 4278931109
-0.0074126646 0.012167461 0.0027717017 4278405808
-0.0049737319 0.010121875 0.004422266 4278537898
-0.0026888438 0.0088041127 0.0053801406 4278472618
-0.0007388033 0.0089399815 0.0049584396 4278537898
0.00086039677 0.010528356 0.0031606387 4278406828
0.0026271157 0.01139009 0.0020527188 4278668968
0.0038461648 0.0144291 -0.0011148173 4278799528
0.015640263 0.0071318001 0.0043238737 4278471854
0.019766327 -0.00070228428 0.011418989 4278931363
0.024549529 -0.010705613 0.020550262 4278932384
0.029205311 -0.019979246 0.028983166 4280113034
0.032701567 -0.024903022 0.033310577 4281750643
0.03561274 -0.027652152 0.035586514 4282339949
-0.016470429 0.0062437057 0.0071757417 4279520669
-0.01590671 0.012947634 0.00053343922 4278668204
-0.014451209 0.015270196 -0.001955119 4278275504
-0.01253378 0.015403204 -0.0023702038 4278669224
-0.0077109598 0.011294693 0.0009327624 4278799019
-0.0051081106 0.0085133016 0.0032674 4278799528
-0.0029936805 0.0079198778 0.0035344642 4278996134
-0.0012190528 0.0087841302 0.0024262872 4278668713
2.4463981e-05 0.01183337 -0.0007402245 4278472363
0.0016026124 0.013424769 -0.0025301557 4278341293
0.0029895268 0.015743613 -0.0050030979 4278734504
0.0050936192 0.015150078 -0.0047333478 4278472363
0.0073890537 0.013829313 -0.0037804446 4278800294
0.0096951909 0.012509495 -0.0028297883 4278996388
0.012203332 0.010463215 -0.0011982657 4278603434
0.015697282 0.0047826767 0.0038422775 4278407083
0.020413674 -0.005256176 0.012965143 4278735014
0.025204787 -0.015289679 0.022071959 4279521434
0.02966669 -0.023864694 0.029801225 4281487738
0.032555617 -0.026624314 0.032075353 4282209134
0.035051294 -0.027929999 0.032985792 4282471274
-0.018701624 0.0052288249 0.0057492871 4281422204
-0.017813016 0.010489397 0.00049682148 4278733995
-0.015052423 0.015879862 -0.0051609292 4278864554
-0.013302226 0.016743988 -0.0062626521 4278865318
-0.011071976 0.015413299 -0.0052997204 4278405298
-0.0057437308 0.0090985894 5.2759424e-05 4278799528
-0.0034678578 0.0077713579 0.0010061171 4278602923
-0.0015261024 0.0079066455 0.00058620609 4278668458
-0.00028465688 0.010964498 -0.0025733747 4278537134
0.0051429942 0.012829274 -0.005191931 4278864553
0.0078120977 0.010044619 -0.0028775353 4278865574
0.010314167 0.0079912022 -0.0012496784 4278669734
0.013023369 0.0052095652 0.0010562856 4278472873
0.016722783 -0.0012169927 0.0067622066 4278538153
0.021452429 -0.011285648 0.015859473 4278735013
0.026057681 -0.020619988 0.024260962 4278472874
0.029521665 -0.025576845 0.028572528 4281946483
0.03200081 -0.026888177 0.029483194 4282536299
-0.020317536 0.010965534 -0.002298072 4278800548
-0.018699888 0.012567267 -0.0040909345 4278603434
-0.0065451004 0.010430731 -0.0038372036 4278799273
-0.0042804256 0.0090983808 -0.0028847139 4278799273
-0.0025217235 0.0099658892 -0.0039862115 4278537389
0.0080484934 0.0069789886 -0.0026649218 4278995878
0.010743435 0.0041874498 -0.00036246981 4278603434
0.013650667 0.00066584349 0.0026153484 4278538919
0.017746083 -0.0072428435 0.0096633621 4278735268
0.022292726 -0.016609922 0.018056311 4278735268
0.026311979 -0.023778602 0.024399867 4279914133
0.029376665 -0.027288646 0.027344072 4280634508
0.031651016 -0.027873643 0.027574545 4282667369
-0.022513743 0.0099823475 -0.0037104394 4279128988
-0.021337505 0.013799168 -0.0075633763 4278537898
-0.019434165 0.013930798 -0.0079756994 4278603434
-0.017223943 0.012589559 -0.0070152152 4278603433
-0.015471105 0.013458118 -0.0081143603 4278603433
-0.013406031 0.012854189 -0.0078418534 4279061669
-0.011335533 0.012250736 -0.0075704418 4278930343
-0.0087674297 0.0094404817 -0.0052478742 4278734249
-0.0070115179 0.010309733 -0.0063473303 4278799784
-0.0050914809 0.010443337 -0.0067626629 4278733738
-0.0016005971 0.012180991 -0.0089566093 4278930088
-4.0464103e-05 0.013784304 -0.010732975 4279388833
0.0020492524 0.013183042 -0.010465089 4278996134
0.0048752725 0.0096443668 -0.0074780788 4278602413
0.0079133883 0.0053734481 -0.0038173483 4278734249
0.010795493 0.0018389896 -0.00084232818 4278734759
0.014467224 -0.0046290904 0.0048402706 4278735524
0.018767176 -0.013294823 0.01254575 4278735778
0.023327248 -0.022689477 0.020914694 4280046478
0.026565563 -0.026945755 0.024532722 4281290878
0.029231695 -0.029000133 0.026115851 4280962694
-0.02384847 0.0045677722 -0.00099790469 4281814393
-0.023661461 0.013572156 -0.0096544903 4278275504
-0.022207353 0.015920483 -0.012123528 4278403004
-0.017508242 0.011749715 -0.0088335164 4278733229
-0.015290413 0.010404721 -0.007877849 4278864808
-0.013220329 0.0097988844 -0.0076080151 4278472363
-0.010983624 0.0084554479 -0.00665625 4278537898
-0.0092277639 0.0093267485 -0.0077541824 4278472363
-0.0076436996 0.010935634 -0.0095328242 4278668713
-0.0059010126 0.01180625 -0.010627734 4278799784
-0.0007044822 0.01441668 -0.013905069 4278602669
0.0013768896 0.013812639 -0.013637004 4278472109
0.011035085 -0.0012498647 -0.00064783823 4278538664
0.015091412 -0.0092096776 0.0063728653 4278604454
0.019206448 -0.017165199 0.013380952 4279784849
0.023184298 -0.024380773 0.019700879 4281292154
0.026222784 -0.027914695 0.022634419 4281881459
-0.025119353 0.0089052171 -0.0076281764 4279127714
-0.022632245 0.015840307 -0.01461456 4278339509
-0.015421804 0.008824259 -0.009012714 4278799273
-0.01351041 0.0089567751 -0.009426536 4278734249
-0.011598926 0.0090894103 -0.009840291 4278341293
-0.009851031 0.0099623501 -0.010934873 4278668968
-0.0081083849 0.010835037 -0.01202824 4278537898
-0.0063709877 0.011707485 -0.013120381 4278799784
-0.0046388432 0.012579687 -0.014211293 4278733993
0.0076432601 0.002163291 -0.0061215558 4278996644
0.011649344 -0.0058242381 0.00089201052 4278735269
0.015904503 -0.014545888 0.0085681677 4278997663
0.019837644 -0.021786615 0.014881447 4280571013
0.023432763 -0.027547628 0.019835321 4281750388
0.026078776 -0.029616706 0.021412963 4282208879
-0.027157653 0.0071958303 -0.0083477534 4280569483
-0.026102904 0.011790514 -0.012864986 4278406574
-0.024790313 0.01489576 -0.016008535 4279060904
-0.022908855 0.015025727 -0.016416227 4279519904
-0.020576719 0.012925886 -0.014777225 4278995368
-0.018075656 0.010084167 -0.012459997 4278667949
-0.016019665 0.0094728693 -0.012190504 4278602414
-0.014116429 0.0096048042 -0.012602573 4278602923
-0.012213089 0.0097368658 -0.013014579 4278800039
-0.010800172 0.012096219 -0.015464496 4278734249
-0.009236984 0.013712347 -0.017232113 4278800039
-0.0071778744 0.013101868 -0.01696286 4278668458
-0.0051133484 0.012491882 -0.016694684 4278930088
-0.0032175891 0.012624033 -0.017104588 4278734248
-0.001321774 0.012756296 -0.017514426 4278407338
0.00075360015 0.012147427 -0.017248338 4278603689
0.0037452318 0.0078336373 -0.01360682 4278472873
0.0078779161 -0.00092308968 -0.0059239147 4278538408
0.012262158 -0.010415941 0.0024194308 4278801058
0.016335411 -0.018422723 0.0094007552 4280833664
0.019888861 -0.024204329 0.014350547 4281947248
0.023093985 -0.028502487 0.017946379 4282274669
-0.029058818 0.0047404915 -0.0083836019 4280963459
-0.028123934 0.010095753 -0.013578357 4278800039
-0.025208358 0.01483196 -0.018489195 4278340528
-0.023332361 0.014961526 -0.018895727 4278930599
-0.021006268 0.012854733 -0.017260335 4278733994
-0.016461078 0.0093899146 -0.014679169 4278668458
-0.014563318 0.0095214695 -0.015090059 4278734248
-0.012826104 0.010397896 -0.016179193 4278603178
-0.011094138 0.011274077 -0.017267114 4278668458
-0.0033488274 0.01105725 -0.018229365 4278602669
-0.0014531575 0.011189491 -0.018639181 4278472873
0.0011598431 0.008348003 -0.016351763 4278472874
0.0043401942 0.0032782555 -0.012047741 4278538664
0.0086658224 -0.0062472671 -0.0037129666 4278669989
0.012873512 -0.015024945 0.0039344244 4278997664
0.01676525 -0.022312537 0.0102241 4280243083
0.020325046 -0.028111234 0.015159538 4281881714
0.023146266 -0.030937359 0.017402565 4282602089
-0.029871535 0.006904237 -0.012927644 4279456409
-0.028670538 0.010777116 -0.016745714 4278603943
-0.027070586 0.012403458 -0.018515615 4278537644
-0.016901717 0.0093160421 -0.017161245 4278930853
-0.014851611 0.0087000653 -0.016893644 4278734249
-0.013277519 0.010325439 -0.018657334 4278275249
-0.011550847 0.01120349 -0.019742528 4278471599
-0.0012315698 0.0081312805 -0.018417118 4278275759
0.0015650131 0.0045356527 -0.015464459 4278407338
0.0052973069 -0.0027853996 -0.009156852 4278669733
0.0094519034 -0.011593163 -0.0015175939 4278538663
0.01329628 -0.018906154 0.0047660349 4280242829
0.016814392 -0.024725385 0.0096973535 4281357178
0.020182751 -0.029796779 0.013949806 4281814394
-0.030273456 0.0068377927 -0.015414586 4279193248
-0.028799076 0.0092199966 -0.017864052 4278735013
-0.026915636 0.009349823 -0.018272381 4278997153
-0.025320668 0.010980308 -0.020037882 4278996899
-0.023589257 0.011860117 -0.021122964 4278996899
-0.02156378 0.011239864 -0.020851936 4278931363
-0.019380603 0.0098703802 -0.019905116 4278669224
-0.017496545 0.010000847 -0.020313136 4278669224
-0.015612401 0.010131426 -0.020721093 4278930854
-0.013888452 0.011011295 -0.02180413 4278340784
-0.012006786 0.011141941 -0.022211382 4278274994
-0.01045626 0.012770303 -0.023966549 4278799783
-0.0085797496 0.012900859 -0.024372479 4279192483
-0.006532222 0.012283087 -0.024105515 4278602413
-0.0041320622 0.010169357 -0.022495093 4278799274
-0.0015395544 0.0073087662 -0.020216325 4278603435
0.0019690841 0.00071044266 -0.01458647 4278669223
0.0064338446 -0.009622857 -0.0056141913 4278931619
0.010420449 -0.017708331 0.0013321666 4279325593
0.013717953 -0.022800237 0.0055883247 4281357434
0.016673587 -0.026395179 0.0084988829 4281946993
0.019848203 -0.030735075 0.012072066 4283059814
-0.030402351 0.0052744076 -0.016537473 4279062433
-0.028649982 0.0061574653 -0.017625764 4278538408
-0.026761357 0.0062876344 -0.018035222 4278538153
-0.025016721 0.0071704388 -0.019121708 4278341549
-0.023424063 0.0088052601 -0.020883383 4278735014
-0.021692496 0.0096873641 -0.021966808 4278866084
-0.019661922 0.0090653822 -0.021698421 4278800549
-0.018090237 0.010699108 -0.023455286 4278669479
-0.016214229 0.010829121 -0.023861488 4278865574
-0.01481846 0.013213374 -0.026288372 4278471854
-0.011578288 0.015725963 -0.029114252 4278471599
-0.0093817115 0.0143537 -0.028172998 4278471599
-0.0013188273 0.0042401105 -0.020001754 4278668968
0.0023720935 -0.0031277463 -0.013717714 4278931108
0.0068420954 -0.013491347 -0.0047692731 4279128479
0.010834504 -0.021600425 0.0021579666 4280833154
0.013951793 -0.025957763 0.0057335924 4281880948
0.016722249 -0.028814025 0.0079679098 4282208879
-0.031089265 -0.0039729401 -0.010472349 4282667114
-0.030123379 0.0014455914 -0.015628573 4279128223
-0.028501596 0.0030864626 -0.017393634 4278866084
-0.026749048 0.0039718449 -0.018480258 4278931618
-0.025145646 0.0056116879 -0.020241158 4278669733
-0.023406167 0.0064963996 -0.021324772 4278407338
-0.019790921 0.0075109676 -0.022814641 4278472874
-0.01837362 0.0099030659 -0.025241494 4278866084
-0.01681494 0.011540368 -0.02699222 4279062433
-0.015266817 0.013177074 -0.02874057 4278931364
-0.013566699 0.014059819 -0.02981518 4278472364
-0.0038734488 0.0047931597 -0.022726294 4278669224
-0.00039515272 -0.0018468499 -0.017119166 4278604198
0.0036669187 -0.010740221 -0.0095184259 4278800548
0.007793013 -0.019628927 -0.0019314671 4279783063
0.011247482 -0.025505461 0.0029745577 4281225343
0.014184913 -0.029123694 0.0058727469 4282012018
0.016770553 -0.031236887 0.0074339788 4282862953
-0.02984545 -0.0023961142 -0.014728996 4279128734
-0.028215449 -0.00075034052 -0.016492561 4278997664
-0.026595976 0.00089488178 -0.018253788 4278800549
-0.025130767 0.0032962933 -0.020686496 4278800803
-0.023388598 0.004183419 -0.021769125 4278800803
-0.021502551 0.0043137521 -0.02217778 4278538663
-0.019616392 0.0044441968 -0.022586377 4278276524
-0.015235208 0.010882519 -0.029175049 4278603944
-0.013694782 0.012523219 -0.030918455 4279062689
-0.012164928 0.014163256 -0.032659441 4279127713
-0.010142453 0.013537049 -0.03239201 4279127968
-0.0070921741 0.0083810911 -0.028116973 4278735013
-0.0033122636 0.00020848215 -0.021179851 4278473129
0.0008777976 -0.0094692931 -0.012921408 4278735013
0.0046020262 -0.016878605 -0.0066769798 4279325083
0.0080174953 -0.022775531 -0.0017756084 4281160574
0.010924477 -0.026406959 0.0011209762 4281487994
0.013858151 -0.03003642 0.0040118527 4281160319
0.016251337 -0.031402633 0.0049048495 4283189863
-0.029568572 -0.0062507391 -0.013838638 4279062943
-0.028068621 -0.0038405657 -0.016274247 4278998429
-0.026443582 -0.0021906495 -0.018033415 4278866339
-0.025259804 0.0017359182 -0.021807116 4278801314
-0.023371357 0.0018662885 -0.022216387 4278604198
-0.021333877 0.001238063 -0.021954473 4278604198
-0.01929098 0.00061034411 -0.021693639 4278669733
-0.017859552 0.003016524 -0.024113845 4278604198
-0.016287129 0.0046635196 -0.025861086 4278473128
-0.014725246 0.0063099191 -0.027605942 4278604453
-0.013011724 0.0071979612 -0.028680213 4278538664
-0.011468325 0.0088433102 -0.030420892 4278472618
-0.0097679608 0.0097306445 -0.031492092 4278734504
-0.0067111403 0.0045598373 -0.027229879 4278800293
-0.0029253997 -0.0036364868 -0.020311795 4278931363
0.0016211905 -0.014856018 -0.010744832 4278997154
0.0053567439 -0.022286445 -0.0045190724 4279849363
0.00842214 -0.026687041 -0.00096165482 4282143344
0.010968953 -0.028816342 0.00059804134 4282536044
-0.030684192 -0.013298564 -0.0098485164 4282798439
-0.029428151 -0.009356454 -0.013630077 4280111504
-0.027784396 -0.0077009946 -0.015390147 4278735524
-0.026291896 -0.0052846521 -0.017819192 4278604963
-0.024815235 -0.0028693378 -0.020244677 4278736034
-0.023062345 -0.0019771084 -0.0213264 4278800804
-0.02131464 -0.0010851696 -0.022406865 4278931618
-0.019420784 -0.00095420331 -0.022817142 4278800549
-0.017680872 -6.2562525e-05 -0.023895741 4278866084
-0.016102899 0.0015892237 -0.025640991 4278538663
-0.014376104 0.002480194 -0.026716579 4278473128
-0.012816574 0.0041309297 -0.028457593 4278801059
-0.011102933 0.0050212368 -0.02953014 4278472874
-0.009227179 0.0051516816 -0.029935954 4278800549
-0.0061611347 -3.3788383e-05 -0.025687069 4278668714
-0.0023669228 -0.0082536042 -0.018788643 4278669223
0.0018366836 -0.017987266 -0.010575273 4278800293
0.0052195117 -0.023921594 -0.0056928517 4280439178
0.008102946 -0.0275767 -0.0028074989 4282142833
0.010829724 -0.03047131 -0.00058987923 4282928488
-0.028882753 -0.014762767 -0.011414975 4280964224
-0.027363349 -0.012338191 -0.013845053 4279522198
-0.025859799 -0.0099145249 -0.016271632 4279325849
-0.024372097 -0.007491827 -0.018694693 4278932639
-0.022900242 -0.0050701573 -0.021114189 4278866849
-0.021444272 -0.0026494116 -0.023530189 4278800804
-0.019701753 -0.0017555356 -0.024607833 4278538408
-0.017964464 -0.00086189806 -0.025684252 4278931618
-0.01591935 -0.001493603 -0.025426965 4278800804
-0.014187198 -0.00060008466 -0.026502091 4278800804
-0.012622148 0.0010554343 -0.02824112 4278866084
-0.010903139 0.001948297 -0.029313216 4278866084
-0.0088550299 0.0013172925 -0.02905621 4278997408
-0.0059522614 -0.0031214654 -0.025483407 4279194013
-0.0021549165 -0.011365063 -0.018603511 4279062943
0.0015259385 -0.018843204 -0.012398415 4279521944
0.0049044639 -0.024795331 -0.0075280266 4280833154
0.0077841543 -0.028461643 -0.0046499646 4282272884
-0.025288749 -0.015327558 -0.014068384 4282863974
-0.023644317 -0.013663091 -0.015821978 4281160063
-0.022301774 -0.010468192 -0.018907178 4279915408
-0.020980444 -0.0072746426 -0.021987701 4279128223
-0.019529279 -0.0048475564 -0.024397712 4278800549
-0.01763295 -0.0047162995 -0.024808437 4278800804
-0.015736531 -0.0045849159 -0.02521909 4278800804
-0.014317024 -0.0021596998 -0.027621938 4279063199
-0.012590084 -0.0012641847 -0.028694272 4279062943
-0.010868385 -0.00036895275 -0.029765341 4278997409
-0.008817941 -0.0010020062 -0.029510463 4279062944
-0.0059137717 -0.0054537579 -0.025947668 4278932128
-0.002288267 -0.012957774 -0.019746911 4278932128
0.0012155995 -0.019694448 -0.014218197 4280046224
0.004234504 -0.02413778 -0.010679969 4282602343
-0.021559592 -0.016655639 -0.016050372 4282012019
-0.020221699 -0.013452195 -0.019128002 4280307854
-0.018603329 -0.011784814 -0.020872451 4279456409
-0.016995508 -0.010117963 -0.022614541 4278801314
-0.015398223 -0.0084517598 -0.024354225 4279063199
-0.013970349 -0.0060193464 -0.026754066 4278997664
-0.012396865 -0.0043545514 -0.028488412 4279063454
-0.010669809 -0.0034567714 -0.029559018 4278931874
-0.0086143762 -0.0040916502 -0.029306848 4278997664
-0.005875621 -0.007790193 -0.026414892 4278473384
-0.002421584 -0.014550157 -0.020890079 4278866338
0.00090565905 -0.020540997 -0.016034599 4280242829
0.019449707 -0.030910701 -0.0095874425 4282534769
-0.01474905 -0.0138698 -0.022175599 4282208113
-0.013307456 -0.011429876 -0.024573555 4280110994
-0.011720445 -0.0097597986 -0.026307607 4279718039
-0.0099800304 -0.0088588819 -0.027379479 4278801314
-0.0082448758 -0.0079582185 -0.028450124 4278801059
-0.0056685098 -0.010898933 -0.026226426 4278931874
-0.0023829229 -0.016910307 -0.021375 4279456409
0.0011199713 -0.023686424 -0.015875224 4281553784
-0.010723572 -0.016728714 -0.022824783 4282010999
-0.0094558485 -0.013511911 -0.025873734 4280700554
-0.0078764707 -0.011837669 -0.027602736 4279260059
-0.0052929968 -0.01478669 -0.025387011 4279325338
-0.0021728165 -0.020044848 -0.021206364 4279914898
0.00098470226 -0.025300235 -0.017033739 4281356669
-0.029271696 -0.024294294 -0.015821718 4282863974
-0.0047496222 -0.01945994 -0.023901369 4282798183
-0.0021350197 -0.022415414 -0.021698762 4282797674
-0.031735253 -0.023695089 -0.018536475 4282404718
-0.040444214 -0.025078662 -0.023591809 4282667114
-0.043075819 -0.022855327 -0.027604591 4282798439
-0.047006581 -0.024685159 -0.027906477 4282142324
-0.049144667 -0.025592536 -0.02927828 4279649444
