# .PCD v0.7 - Point Cloud Data file format
VERSION 0.7
FIELDS x y z rgba
SIZE 4 4 4 4
TYPE F F F U
COUNT 1 1 1 1
WIDTH 983
HEIGHT 1
VIEWPOINT 0 0 0 1 0 0 0
POINTS 983
DATA ascii
-0.024274975 0.023404395 -0.01029902 4284056354
-0.022763781 0.02494669 -0.012115574 4284056354
-0.020831764 0.024366936 -0.01180042 4283925029
-0.019333579 0.025908472 -0.013613977 4283860258
-0.017398611 0.025329132 -0.013299393 4283794978
-0.015306398 0.024043703 -0.012277925 4283925539
-0.012740098 0.020640107 -0.0091365874 4283925283
-0.010932498 0.020769324 -0.0095351562 4283925283
-0.008965008 0.020192681 -0.0092274668 4283925283
-0.0074793473 0.021733837 -0.011037799 4283925538
-0.006004259 0.02327437 -0.012845776 4283860004
-0.0043719634 0.024108812 -0.013946855 4283729698
-0.0022336021 0.02282734 -0.012935067 4283726383
0.00026169792 0.020136753 -0.010519065 4283728424
0.0026026703 0.01815258 -0.0088103563 4283729189
0.0047812946 0.01687428 -0.0078072278 4283991328
0.0075139478 0.013483547 -0.0047018356 4284122144
0.011927254 0.0037566237 0.004706217 4284121634
0.017906785 -0.011597238 0.019700676 4284121634
0.023058243 -0.023423262 0.031170595 4284121889
0.026382755 -0.028205931 0.03562884 4284055843
0.029550215 -0.032282293 0.039380316 4283791153
0.033143938 -0.037762806 0.044520855 4283394628
-0.026330456 0.02250617 -0.011691324 4284055334
-0.024816483 0.024052909 -0.013505302 4283991328
-0.022890277 0.023470469 -0.013190651 4283925284
-0.020958565 0.022888463 -0.012877104 4283925029
-0.019313872 0.023725256 -0.013979891 4283925538
-0.017525442 0.023852807 -0.014374454 4283925029
-0.015433721 0.022562938 -0.013356189 4283990819
-0.01333122 0.021273978 -0.012340271 4284056099
-0.011374816 0.020694196 -0.012031825 4283990819
-0.0094129518 0.020114945 -0.011724548 4283925538
-0.0079323798 0.021660127 -0.013530537 4283926048
-0.006462343 0.023204617 -0.01533408 4283798294
-0.0050028861 0.024748484 -0.017135262 4283728169
-0.0028730258 0.023462001 -0.016124912 4283792428
-0.00055949762 0.021469181 -0.014415174 4283793704
0.0022968277 0.017356567 -0.010605638 4283860514
0.0050070062 0.013953187 -0.007503591 4283860769
0.0090102851 0.0056053177 0.00049213367 4283990564
0.014362674 -0.0076829568 0.013369174 4284056354
0.020375215 -0.023082554 0.028320201 4284056354
0.024427168 -0.03070695 0.035565708 4283989288
0.027196808 -0.033385873 0.037915323 4283658554
-0.02873636 0.01364921 -0.0048822467 4283590214
-0.028114326 0.020188628 -0.011663613 4283858474
-0.026727669 0.022452263 -0.014184482 4283927579
-0.025080681 0.023291074 -0.015286308 4283730974
-0.02287598 0.021282777 -0.013558366 4283665948
-0.020798512 0.01998727 -0.012540503 4283729953
-0.018856302 0.019403934 -0.012230911 4283991329
-0.017206043 0.020243332 -0.013333192 4283990308
-0.015409604 0.020371519 -0.013729475 4284056354
-0.01361303 0.020499803 -0.014125724 4284056354
-0.011973031 0.021338748 -0.01522553 4284056354
-0.010178864 0.021467052 -0.015621105 4283991073
-0.0087086931 0.023015844 -0.017421525 4283925283
-0.0070843473 0.023853954 -0.018517666 4283928854
-0.0058000013 0.026111364 -0.021015082 4283797018
-0.003681317 0.02481973 -0.020005614 4283862554
-0.0013791434 0.022819536 -0.018298309 4283928089
0.0018160194 0.017274495 -0.013097043 4283928089
0.0054100417 0.010314502 -0.0065072263 4283990819
0.010503203 -0.0023121983 0.0056574298 4283990563
0.016059238 -0.016349256 0.019196536 4283990563
0.021163855 -0.028253131 0.030620772 4283990053
0.02484946 -0.034484185 0.036452565 4283725109
0.028008981 -0.038587525 0.040186014 4283395904
0.031394593 -0.043396249 0.044607829 4283394373
-0.030033313 0.018581405 -0.012345598 4283658554
-0.028903477 0.022281 -0.016278034 4283858984
-0.027394474 0.023835976 -0.018084455 4283793703
-0.025620215 0.023962092 -0.018476214 4283858474
-0.023424171 0.021946592 -0.01675131 4283929109
-0.021211982 0.019932341 -0.015029895 4283861023
-0.01898367 0.017919358 -0.013312028 4283991328
-0.017184809 0.018047597 -0.013708933 4283990564
-0.015537009 0.018889073 -0.014808978 4284056354
-0.014048286 0.020443214 -0.016610391 4284056354
-0.012413554 0.021283993 -0.01770745 4284056353
-0.010784023 0.022124451 -0.018803248 4284056353
-0.0091597214 0.022964636 -0.019897819 4283991329
-0.0077051595 0.024516713 -0.021691412 4283925283
-0.0062611774 0.026068183 -0.023482639 4283926304
-0.0039784536 0.024059897 -0.021776084 4283926814
-0.0015071146 0.02134127 -0.019374516 4283926049
0.0022119768 0.013644323 -0.012092336 4284056609
0.006879136 0.0023955032 -0.0013364353 4284056354
0.01253432 -0.012402229 0.012884309 4284056354
0.017752007 -0.025059275 0.024992071 4284056099
0.021764748 -0.032734677 0.032209918 4284055843
0.025270641 -0.03827437 0.037330065 4283857964
0.028245674 -0.041680038 0.040357765 4283460163
0.031441286 -0.045793727 0.044073448 4283525189
-0.032205909 0.018408746 -0.014441155 4283856179
-0.030808039 0.020686017 -0.016954778 4283858474
-0.029293627 0.022245627 -0.018759198 4283728933
-0.027924687 0.024521017 -0.021266297 4283793449
-0.026296213 0.025362818 -0.022360794 4283858984
-0.024392225 0.024772154 -0.022046234 4283925538
-0.021767661 0.020602414 -0.018216083 4283927579
-0.019548014 0.018582195 -0.016501199 4283991584
-0.017608911 0.0179943 -0.016194183 4283990563
-0.015966378 0.018837575 -0.017291432 4283990563
-0.014482722 0.020395741 -0.019088503 4283990818
-0.013009593 0.021953208 -0.020883135 4283925539
-0.011387989 0.022795271 -0.021975555 4283926559
-0.009448275 0.022207906 -0.021668311 4283925538
-0.0078317896 0.023049787 -0.02275946 4283924774
-0.0060535222 0.023177214 -0.023151331 4284056609
-0.00393584 0.021876732 -0.022148237 4284056609
-0.0011180453 0.017721858 -0.018359903 4284056353
0.0031318404 0.0078603849 -0.009008185 4284121889
0.0085224956 -0.0062762275 0.0045014387 4284121889
0.014380541 -0.02183149 0.019377809 4284121889
0.018525988 -0.030247755 0.027283136 4284121634
0.021992818 -0.03580787 0.032398641 4283923498
0.02531404 -0.040652096 0.036811434 4283527484
-0.034739189 0.020404361 -0.018650014 4283855668
-0.033219531 0.021968473 -0.02045241 4283989799
-0.031580836 0.022812871 -0.021547765 4283924264
-0.030079469 0.024375899 -0.023346037 4283862044
-0.028588563 0.025938237 -0.025141884 4283928854
-0.026833177 0.026062967 -0.025529508 4283928088
-0.024937473 0.025469484 -0.025214788 4283994134
-0.022607803 0.022722166 -0.022795938 4283992349
-0.020402156 0.020694364 -0.021082915 4283990818
-0.01832854 0.019385565 -0.020073989 4283990818
-0.016696602 0.020230239 -0.021167286 4284056864
-0.015223339 0.021792021 -0.022958785 4283991329
-0.013448298 0.021918796 -0.023350261 4283796763
-0.011673145 0.022045683 -0.023741685 4283797528
-0.0092519596 0.019305542 -0.021342531 4283665694
-0.0076300651 0.020149989 -0.02243324 4283928599
-0.0055129752 0.018844992 -0.02143338 4284056608
-0.0033851191 0.017540809 -0.020435784 4284056353
0.00030280277 0.0097934268 -0.013182974 4284122143
0.0052731484 -0.0029604211 -0.001080147 4284122144
0.010871995 -0.017854191 0.013083925 4284122144
0.015862323 -0.029877968 0.024449289 4284121634
0.019480903 -0.036173157 0.03025132 4284121123
0.022405632 -0.039604537 0.033273477 4283789879
0.025545245 -0.043748789 0.036981631 4283459398
-0.035483748 0.02254883 -0.023237497 4284055079
-0.033723824 0.022673478 -0.023626428 4283990309
-0.031963728 0.022798235 -0.024015326 4283991074
-0.030203447 0.022923091 -0.024404198 4283991328
-0.028577656 0.023768922 -0.025494929 4283925793
-0.02695702 0.02461447 -0.026584465 4283925028
-0.025061622 0.024018763 -0.02627134 4283991073
-0.023160718 0.023423558 -0.025959339 4283991074
-0.02081845 0.020668449 -0.023549799 4284056353
-0.018898629 0.02007477 -0.023241844 4283990818
-0.017123975 0.020201311 -0.023633394 4283991583
-0.015655778 0.021767035 -0.025420465 4283859748
-0.014042154 0.022612752 -0.026507948 4283859749
-0.011957876 0.021300705 -0.025504388 4283792684
-0.0093789324 0.0178326 -0.022415012 4283794978
-0.0074290633 0.017241661 -0.022113238 4283860768
-0.005307138 0.015932567 -0.021117702 4283924773
-0.002835881 0.013187565 -0.018735941 4284121634
0.0017202646 0.0018256754 -0.0080346745 4284121634
0.0072349161 -0.013120137 0.0061133644 4284121634
0.012329768 -0.025904261 0.018159281 4284121123
0.016440943 -0.034375541 0.026032571 4284120104
0.01952048 -0.038537458 0.02974391 4283789114
-0.037488125 0.021695895 -0.024609771 4284055079
-0.036226399 0.024715541 -0.027808793 4283927833
-0.034353413 0.024115589 -0.027492706 4283863573
-0.032216676 0.022069165 -0.025774784 4283928599
-0.03045918 0.022193806 -0.026163056 4283925793
-0.028567053 0.021595476 -0.025851004 4283991073
-0.026943684 0.022443378 -0.026939515 4284056099
-0.025045916 0.021845641 -0.026628561 4284056099
-0.023570016 0.023415873 -0.028414357 4284056099
-0.021524169 0.022096219 -0.027405977 4284056354
-0.019910879 0.022943785 -0.028491981 4284056609
-0.018001884 0.022347225 -0.028183222 4283991583
-0.016699851 0.024638094 -0.030660335 4283929364
-0.014790609 0.024041748 -0.030351486 4283859748
-0.012875929 0.023445884 -0.030043762 4283793194
-0.010311387 0.019965807 -0.026959438 4283793449
-0.0082113817 0.018650662 -0.025962442 4283860258
-0.0054348856 0.014453255 -0.022194754 4283926558
-0.0019499213 0.0073758364 -0.015663382 4283990308
0.0036496483 -0.0083425976 -0.00083871232 4283990308
0.0090177208 -0.022612035 0.01257717 4284055843
0.013252847 -0.031833522 0.021133311 4284055843
0.016478792 -0.0367309 0.025532346 4283789879
0.019559696 -0.040905796 0.029233478 4283459654
-0.038776554 0.016489774 -0.021766391 4283788859
-0.037853271 0.021698378 -0.027069256 4283992349
-0.036472604 0.024000371 -0.02955965 4283926814
-0.03460259 0.023397999 -0.029244568 4283665438
-0.032340243 0.020619122 -0.026830979 4283665949
-0.030319639 0.019292772 -0.025820639 4283860514
-0.028691038 0.020143157 -0.026908793 4284056608
-0.026930653 0.020268148 -0.02729759 4284056354
-0.025170133 0.020393243 -0.027686346 4284121888
-0.023693979 0.021967845 -0.029468935 4284121888
-0.022083402 0.022817273 -0.030552786 4284056609
-0.020625621 0.0243908 -0.032331221 4284056609
-0.018877856 0.02451537 -0.03271687 4283990818
-0.017282873 0.025363995 -0.033797059 4284060944
-0.015693091 0.026212333 -0.03487603 4283929108
-0.013633795 0.024889747 -0.033873543 4283928089
-0.011402801 0.022844614 -0.032180503 4283928343
-0.0088285655 0.019354392 -0.029106461 4283993879
-0.005562596 0.012974221 -0.023271609 4283990819
-0.00072837621 9.2379749e-05 -0.011227671 4284055843
0.0052313507 -0.017118089 0.0049380651 4284055843
0.0099251792 -0.028539918 0.015556513 4284055844
0.01346606 -0.03489995 0.021331117 4284055078
-0.039372981 0.017943572 -0.02563297 4283989799
-0.0383384 0.022438357 -0.030222237 4283925793
-0.036718391 0.023289865 -0.031307116 4283859749
-0.035103537 0.024141112 -0.032390781 4283728423
-0.032850035 0.021352898 -0.029981859 4283863829
-0.030969337 0.020749196 -0.029670637 4283860003
-0.029217213 0.020873491 -0.030057695 4284056864
-0.027464949 0.020997878 -0.030444715 4284056354
-0.025712527 0.021122374 -0.030831706 4284187168
-0.024244122 0.022700803 -0.032609362 4284121634
-0.022930935 0.025005242 -0.035079334 4284121379
-0.021338813 0.025855666 -0.036157459 4284056353
-0.019601829 0.025979461 -0.036540743 4284056354
-0.017864704 0.026103355 -0.03692399 4284056609
-0.015972063 0.025501369 -0.036614746 4283990564
-0.013915926 0.024174163 -0.035614859 4283990563
-0.011527568 0.021396669 -0.033234794 4283924773
-0.0084642321 0.015719272 -0.028096799 4283990563
-0.0041957796 0.0049687587 -0.018137768 4284056354
0.0013337657 -0.010850918 -0.0033700103 4284056354
0.0068092942 -0.025937237 0.010683056 4284056354
0.010482296 -0.033044651 0.01714031 4284055844
0.013501845 -0.037250467 0.020835102 4283922478
0.016553443 -0.041453816 0.024522878 4283590978
-0.041831434 0.020022722 -0.029799551 4283922988
-0.04020372 0.020876763 -0.030884638 4284058648
-0.03870175 0.022461118 -0.03266697 4283794468
-0.037210248 0.024044871 -0.034446955 4283727658
-0.035351485 0.02343726 -0.03413273 4283727148
-0.033487216 0.022830108 -0.033819597 4283794469
-0.031486236 0.021493612 -0.032811571 4283926813
-0.029742226 0.021617299 -0.033196859 4284056353
-0.027724944 0.020282168 -0.032192279 4284056354
-0.026114538 0.021135719 -0.033272993 4284121889
-0.024651177 0.022718089 -0.035046224 4284121889
-0.023487449 0.025757648 -0.038203403 4284057373
-0.021756031 0.025880922 -0.038585547 4283991329
-0.019724734 0.024547253 -0.037583712 4283991073
-0.017530099 0.022486093 -0.035892747 4283991328
-0.015940182 0.023338784 -0.036968485 4284056354
-0.013881899 0.022007341 -0.035972379 4284056354
-0.011331216 0.018493474 -0.032909654 4284121889
-0.0072849989 0.0084334277 -0.023651358 4284056098
-0.00233474 -0.0052580908 -0.01096718 4284121634
0.0032224804 -0.021123834 0.0037583578 4284121634
0.0075275004 -0.031165026 0.012959857 4284055588
0.011037935 -0.037566669 0.018711522 4283790389
0.01389033 -0.041058265 0.02170825 4283525443
-0.043811262 0.019192684 -0.031161346 4284054313
-0.042528898 0.022248328 -0.034338955 4284055843
-0.040796697 0.022370592 -0.034722075 4283991838
-0.039305106 0.023958554 -0.036498845 4283928599
-0.03782399 0.025545904 -0.038273286 4283927834
-0.036101885 0.025667744 -0.038653955 4283795234
-0.033994481 0.023592949 -0.036949322 4283993623
-0.032001957 0.022251477 -0.035942718 4283991838
-0.029998638 0.02091082 -0.034938388 4284056609
-0.02812089 0.020302719 -0.034629736 4284056098
-0.026376694 0.020426592 -0.035014935 4284056098
-0.025057465 0.022744466 -0.037476543 4283992094
-0.023754045 0.025061253 -0.039934553 4283992604
-0.021878392 0.024453409 -0.039625134 4283730464
-0.0195482 0.021653853 -0.037245698 4283731484
-0.017348953 0.019586507 -0.035560727 4283925538
-0.015753642 0.020441741 -0.036636032 4284056353
-0.013532832 0.018376082 -0.034955628 4284122143
-0.010173507 0.011201955 -0.028462499 4284187169
-0.0052936897 -0.0025361925 -0.015794057 4284187169
1.8831342e-05 -0.017726175 -0.0017741467 4284187169
0.0042649917 -0.027802266 0.0074172541 4284121378
0.0077308454 -0.034226894 0.013163867 4284055079
0.010897409 -0.039189912 0.017529771 4283657534
0.014101382 -0.044150181 0.021887556 4283393864
-0.04370854 0.016283799 -0.030814812 4283855414
-0.042535111 0.020083928 -0.034683615 4284055334
-0.041153006 0.022411875 -0.037154816 4284056353
-0.039666489 0.024003858 -0.03892725 4283991073
-0.038190424 0.025595138 -0.040697273 4283925284
-0.036222689 0.024247346 -0.039688624 4283990563
-0.03424415 0.02290035 -0.038682267 4283990818
-0.032123931 0.020820033 -0.036985371 4284056609
-0.030388154 0.020943083 -0.037368879 4284056609
-0.02837985 0.019598488 -0.036368877 4283990819
-0.026638426 0.019722145 -0.036753479 4283991838
-0.025179908 0.021312896 -0.038519163 4283925794
-0.02373188 0.022902962 -0.040282406 4283858218
-0.021853864 0.022293074 -0.039975166 4283792683
-0.019521892 0.019484904 -0.037602697 4283861534
-0.017320648 0.017411087 -0.035923056 4283925538
-0.01572264 0.018268716 -0.036997385 4284122144
-0.01286988 0.013267238 -0.032574259 4284121889
-0.0090187788 0.0038755909 -0.024040725 4284121889
-0.0036329105 -0.012098707 -0.0093497979 4284121889
0.0012083426 -0.025137343 0.002574265 4284121634
0.0048004352 -0.032316364 0.008999954 4284120869
0.0077626482 -0.036565803 0.012677596 4283724088
0.011103891 -0.042275272 0.017715264 4283394119
-0.043158293 0.010415312 -0.027692772 4283921968
-0.041968107 0.014227498 -0.03155712 4283792684
-0.040569596 0.01656317 -0.034027088 4283857709
-0.039306901 0.019634996 -0.037187137 4283924008
-0.037819937 0.021231405 -0.038956296 4284056099
-0.036092743 0.021353547 -0.039338134 4284056099
-0.034237377 0.020739168 -0.039028063 4284056608
-0.032376528 0.020125272 -0.038719133 4284056863
-0.030776866 0.020984348 -0.039792746 4284056609
-0.029046364 0.021107096 -0.040175036 4283990819
-0.027315728 0.021229971 -0.040557265 4283993368
-0.025867596 0.022824332 -0.042317387 4283861278
-0.024142005 0.022947028 -0.042698368 4283858219
-0.022122972 0.021599207 -0.041703731 4283858473
-0.019794531 0.018782035 -0.039337058 4283924519
-0.017596655 0.016701456 -0.03766166 4283991329
-0.015228026 0.013887364 -0.03530369 4283991329
-0.011736855 0.0059330612 -0.028152402 4284056353
-0.0067472681 -0.008626096 -0.014850521 4284056353
-0.0018136241 -0.022443354 -0.0022563152 4284056609
0.0018989965 -0.030381486 0.0048464006 4284056354
0.0048305206 -0.034646355 0.0085208593 4283724854
0.007794112 -0.038908817 0.012188331 4283462204
0.010616485 -0.04243546 0.015166941 4283525444
-0.042722106 0.0052607544 -0.025283583 4283790898
-0.041288756 0.007605318 -0.027756419 4283857964
-0.039988361 0.010688405 -0.030918352 4283792429
-0.038589224 0.013030689 -0.033383444 4283792939
-0.037205875 0.015371993 -0.035845019 4283925283
-0.035462841 0.015495233 -0.036230378 4284056864
-0.03410311 0.017835051 -0.038686588 4284056099
-0.032498203 0.018696558 -0.039759815 4284122144
-0.031297915 0.021773161 -0.042899162 4284056609
-0.029575527 0.02189531 -0.043279678 4283990564
-0.027991481 0.02275563 -0.044348076 4283991584
-0.026412599 0.02361569 -0.045415249 4284059924
-0.024838902 0.024475466 -0.046481211 4283992604
-0.022684574 0.022385018 -0.044801287 4283992603
-0.020514138 0.020295784 -0.043124795 4283993113
-0.017872237 0.015996456 -0.039396815 4283926813
-0.014889359 0.010225635 -0.034306996 4283990564
-0.0104497 -0.0021726973 -0.023072112 4283990564
-0.0052802712 -0.017510585 -0.0091242306 4283990563
-0.00097349286 -0.028422236 0.00070315553 4283990564
0.0022575632 -0.034174889 0.0057385778 4283990818
0.0046924949 -0.036244467 0.0073573133 4283591999
0.0076548085 -0.040520109 0.011015224 4283460164
0.010476083 -0.044057749 0.013985875 4283460418
-0.042399377 0.00082664937 -0.023582406 4283524933
-0.040840618 0.002436541 -0.025361191 4283857709
-0.039409295 0.004787527 -0.02782857 4283792684
-0.03787411 0.0063959546 -0.029601987 4283792938
-0.036471687 0.0087450743 -0.032062843 4283793194
-0.034960106 0.01035203 -0.0338309 4283793193
-0.033714257 0.013440356 -0.036973927 4283858983
-0.032228939 0.015045598 -0.038735986 4283990308
-0.031020038 0.018131506 -0.041870706 4283924009
-0.029561035 0.019735131 -0.043626845 4283990309
-0.028250813 0.022078315 -0.04606688 4283990563
-0.026815489 0.023680449 -0.047817644 4283991328
-0.02524706 0.024542026 -0.048880808 4283925794
-0.023391277 0.023923963 -0.048573621 4283991074
-0.020934321 0.020348355 -0.045531608 4283991074
-0.017995797 0.014556807 -0.040445201 4284056353
-0.013934717 0.0035945587 -0.030588478 4283990564
-0.0090089738 -0.011056591 -0.017338164 4283990564
-0.0041361824 -0.024961226 -0.0047929604 4283990563
-0.00062233955 -0.032211535 0.0016005272 4283924008
0.0022852086 -0.036504433 0.0052604852 4283593018
0.004722096 -0.038580425 0.0068738619 4283393863
0.0076857805 -0.042869098 0.010521604 4283524679
0.010335714 -0.045679756 0.012805012 4283590468
-0.042301066 -0.0021360368 -0.023275107 4283460164
-0.040736727 -0.00052145496 -0.025051814 4283792684
-0.039182842 0.001092542 -0.026826181 4283792684
-0.037639409 0.0027058423 -0.028598122 4283792685
-0.036106452 0.004318554 -0.030367706 4283857709
-0.034583956 0.005930569 -0.032134876 4283857964
-0.033199392 0.0082851797 -0.034586776 4283858984
-0.031830631 0.010638732 -0.037035067 4283925284
-0.03061045 0.013734147 -0.04016573 4283859238
-0.029140554 0.015342891 -0.041921012 4283861023
-0.027957343 0.018435869 -0.045043364 4283925538
-0.026513785 0.020042885 -0.046792641 4283924773
-0.025080718 0.021649264 -0.048539519 4283990054
-0.023366004 0.021771237 -0.048918061 4284056099
-0.020907447 0.018184826 -0.045884609 4284056354
-0.017513663 0.010151401 -0.038766168 4284056354
-0.012828596 -0.0038083158 -0.026210893 4284056354
-0.0078854561 -0.018501855 -0.012997217 4284056354
-0.0037920885 -0.028741993 -0.0038872384 4283990308
-0.00059641898 -0.03453216 0.0011296077 4283791918
0.0023125298 -0.038838118 0.0047794441 4283525954
-0.042314753 -0.0043607168 -0.023663033 4283459653
-0.040747486 -0.0027415752 -0.025437117 4283857454
-0.039190695 -0.0011230446 -0.027208868 4283792174
-0.037644349 0.00049480051 -0.028978188 4283792939
-0.035864584 0.00062046945 -0.029371794 4283857964
-0.034458473 0.0029830225 -0.031823635 4283857963
-0.032940879 0.0045991279 -0.033586383 4283858218
-0.031563692 0.0069598556 -0.036031671 4283924263
-0.029937156 0.0078294724 -0.03710473 4283924263
-0.028586276 0.010188531 -0.039544053 4283859494
-0.027113304 0.011801887 -0.041296627 4283792685
-0.025931999 0.014903527 -0.044411946 4283792429
-0.024342149 0.015770953 -0.045476593 4283857964
-0.022757486 0.016638119 -0.046540007 4283989289
-0.019989565 0.011553895 -0.042155903 4283989034
-0.015974455 0.00052282959 -0.032338306 4283988523
-0.010956019 -0.01496356 -0.018460572 4283988523
-0.0067649186 -0.025981866 -0.0086816493 4283922223
-0.0034490824 -0.032535575 -0.0029909303 4283658043
-0.00073269755 -0.036113955 -2.2147782e-05 4283525189
-0.042328738 -0.0065895393 -0.024053913 4283656514
-0.04087235 -0.0042172968 -0.026512265 4283856944
-0.039198853 -0.0033427961 -0.027594529 4283856689
-0.037649609 -0.0017203577 -0.02936127 4283922989
-0.035867311 -0.0015945397 -0.029755458 4283857454
-0.034333676 2.6945025e-05 -0.03151856 4283923244
-0.032810509 0.0016478337 -0.033279307 4283923244
-0.031297833 0.0032680295 -0.035037633 4283858219
-0.029530838 0.003393162 -0.035428137 4283858729
-0.028033808 0.0050124638 -0.037182838 4283792939
-0.026547305 0.0066311657 -0.038935184 4283792429
-0.025211684 0.0089958645 -0.041366085 4283857964
-0.02374883 0.010613047 -0.043113008 4283857453
-0.022005096 0.010737062 -0.04349798 4283857709
-0.018925898 0.0041464083 -0.037770137 4283923499
-0.01459036 -0.008407902 -0.026623964 4283990054
-0.0098567829 -0.022447027 -0.014141681 4283990054
-0.0062727928 -0.030514657 -0.0071011232 4283923244
-0.0035842359 -0.034106068 -0.0041344976 4283657533
0.019253563 -0.055926591 0.012902369 4283197513
-0.04234305 -0.0088224262 -0.024447843 4283853118
-0.040656388 -0.0079449601 -0.025531482 4283987758
-0.038974851 -0.0070676617 -0.026613928 4283988269
-0.037298456 -0.006190706 -0.027695142 4283792685
-0.035748787 -0.0045638569 -0.029458608 4283857709
-0.034333795 -0.0021876208 -0.031902596 4283923244
-0.032807738 -0.00056224316 -0.033660695 4283923244
-0.031292148 0.0010625571 -0.035416428 4283858218
-0.029390402 0.00043845549 -0.035126388 4283858218
-0.027887821 0.0020624883 -0.036879055 4283792939
-0.0262582 0.0029368438 -0.037949398 4283857709
-0.024914145 0.0053086728 -0.040377248 4283857964
-0.023300208 0.0061821304 -0.041443963 4283856688
-0.021254905 0.0048099607 -0.040474914 4283856688
-0.017865188 -0.0032959059 -0.033409748 4283922989
-0.013511688 -0.015885942 -0.022295427 4283923244
-0.0093745589 -0.026973687 -0.012553826 4283858218
-0.0062506497 -0.032821573 -0.0075606899 4283856944
-0.0035605133 -0.036423765 -0.0046026064 4283723324
-0.00084364414 -0.040023983 -0.0016502975 4283657278
0.0017357953 -0.042874925 0.00062207691 4283852353
0.019294024 -0.058310725 0.012379725 4283131468
-0.03730493 -0.0084206797 -0.028089024 4284512294
-0.035873711 -0.0060369223 -0.030531738 4284447523
-0.034210227 -0.0051584654 -0.031608358 4284119849
-0.032551877 -0.004280325 -0.03268373 4284054568
-0.031028055 -0.0026506409 -0.034437981 4283922989
-0.029382691 -0.0017732121 -0.03551032 4283792684
-0.027877197 -0.00014457852 -0.037260409 4283857963
-0.026382208 0.0014833473 -0.039008066 4283857709
-0.024757706 0.0023596138 -0.04007557 4283857709
-0.023138396 0.0032356717 -0.041141879 4283923244
-0.020942949 0.0011087693 -0.039500561 4283792174
-0.01784341 -0.0055196881 -0.033806723 4283922988
-0.013339922 -0.018897161 -0.022044674 4283922988
-0.0092004463 -0.030017383 -0.012328217 4283922733
-0.006072849 -0.035882495 -0.0073489649 4283725108
-0.0036957711 -0.037995853 -0.005747342 4283592763
-0.00097998977 -0.041607037 -0.0028029808 4283657789
0.0015985407 -0.044466786 -0.00053697638 4283984443
-0.034087323 -0.008137852 -0.031320278 4284446248
-0.032423608 -0.0072571598 -0.032395206 4284250664
-0.030894235 -0.0056227185 -0.034147471 4283988779
-0.029243469 -0.004742723 -0.035219371 4283857964
-0.027732424 -0.0031094253 -0.036967397 4283857709
-0.026094697 -0.0022301003 -0.038036302 4283922989
-0.024462163 -0.0013511032 -0.039103955 4283857454
-0.022834808 -0.00047234818 -0.040170368 4283922989
-0.020632051 -0.0026052929 -0.038535587 4283857454
-0.017526373 -0.0092529356 -0.032857858 4283791664
-0.013168886 -0.021916814 -0.021800146 4283791918
-0.0090270415 -0.033069551 -0.012108776 4283791918
-0.0060515627 -0.03819976 -0.0078160837 4283856434
-0.0035140701 -0.04107146 -0.0055477261 4283590978
-0.00095517561 -0.043941498 -0.0032839905 4283656514
0.0016251095 -0.046809897 -0.0010248965 4284115003
0.0040603541 -0.048925273 0.00055925688 4284573239
-0.027722649 -0.0053269044 -0.037356339 4283988013
-0.026082203 -0.0044452772 -0.038424179 4283988269
-0.024307318 -0.0043193437 -0.038816251 4283988524
-0.02267459 -0.0034379996 -0.039882265 4283988268
-0.02061218 -0.0048221163 -0.03892681 4283988269
-0.017653272 -0.010734476 -0.033936821 4283922223
-0.013449393 -0.022680968 -0.023578424 4283790898
-0.0091602206 -0.034621261 -0.013238761 4283790898
-0.0060306117 -0.040521123 -0.0082861874 4283725108
-0.0034913644 -0.043401405 -0.0060247686 4283525443
-0.025796503 -0.0081801079 -0.037467998 4284707369
-0.024153195 -0.0072960109 -0.038534764 4284446248
-0.022372976 -0.0071695969 -0.038927931 4283988013
-0.020447858 -0.0078002699 -0.038649242 4284053804
-0.017190412 -0.015243888 -0.032330766 4283988014
-0.013279215 -0.025711 -0.023341458 4283856689
-0.0089878738 -0.037686057 -0.013028451 4283856944
-0.0061654225 -0.042090096 -0.0094287004 4283724853
-0.0033109039 -0.046491757 -0.0058358926 4283656258
0.011878219 -0.061523736 0.0055942014 4282803794
0.014033463 -0.062136538 0.0058232211 4282280788
-0.013259642 -0.027990513 -0.023779649 4284446249
-0.0089688003 -0.040000394 -0.013492769 4284446248
-0.0059897155 -0.045176119 -0.0092352703 4284249134
-0.003446959 -0.048073597 -0.0069877412 4284443443
0.0038667843 -0.05920928 -0.0032764482 4283590214
0.0061543137 -0.060593687 -0.002383023 4282477649
0.0086233914 -0.062739119 -0.00083067617 4282150484
0.00050183758 -0.057190754 -0.0098015657 4283459909
-0.0030035377 -0.051994905 -0.016461093 4283070013
-0.00060872734 -0.054165632 -0.014907396 4282610249
-0.0067707077 -0.045212582 -0.024417661 4283725364
-0.0037762634 -0.050478399 -0.020232107 4282481218
-0.0013928339 -0.052656427 -0.018680852 4282608209
0.00051242113 -0.052520104 -0.019100863 4282148444
-0.011113606 -0.044702731 -0.0266857 4284638774
-0.0092434585 -0.044569381 -0.027098313 4283660338
-0.0067469254 -0.047531135 -0.024886429 4282613054
-0.004228998 -0.050491244 -0.022679176 4282219078
-0.0021754019 -0.051129416 -0.022441354 4281755488
-0.0084531531 -0.050764419 -0.024287604 4283332918
-0.0062543377 -0.052181795 -0.023394641 4282676548
-0.0040447675 -0.053598337 -0.022503912 4282283594
0.031371683 0.023755802 0.065638766 4279258018
0.032143272 0.027735488 0.060734395 4278271679
0.034731112 0.02596085 0.062532924 4278729913
0.027252793 0.021824114 0.065316148 4282209134
0.028254606 0.02517735 0.061158452 4278340529
0.029429577 0.027887007 0.057750184 4278403769
0.03058321 0.030595178 0.054346662 4279715743
0.032536179 0.030736541 0.053917356 4279258019
0.035736244 0.027031129 0.057938818 4279060904
0.040020939 0.020123428 0.065659203 4278470834
0.044364426 0.013219997 0.073366769 4278406573
0.025166385 0.026623176 0.056688465 4278866339
0.026733276 0.02805315 0.054772273 4278537643
0.037983369 0.02425885 0.057799976 4278602669
0.041022643 0.021187143 0.06106111 4278669479
0.043225978 0.020688444 0.061362792 4278538408
0.044561274 0.022760514 0.058712002 4278734248
0.052997872 0.016130287 0.065502383 4278336703
0.022613585 0.019542854 0.062311951 4282471529
0.022681303 0.026153143 0.054455124 4278734759
0.023860261 0.02888052 0.051059097 4278734248
0.02600175 0.028374787 0.051372372 4278668458
0.027550299 0.029807875 0.049463559 4278864808
0.029694535 0.02930245 0.049776312 4278275504
0.031844139 0.028797476 0.050087936 4278341039
0.034414023 0.027001819 0.051875584 4278472363
0.036789808 0.025852768 0.052921738 4278668458
0.0391763 0.024704514 0.053965632 4278734503
0.040711563 0.02613703 0.052059948 4278602669
0.04330837 0.030289024 0.046784569 4278799529
0.045923598 0.028497042 0.048562471 4279455643
0.020585045 0.024394771 0.053708125 4279915153
0.022944286 0.029867101 0.046928909 4278271679
0.027609251 0.027553376 0.049033292 4278798254
0.03015973 0.025749637 0.050820112 4278865319
0.032112494 0.025890974 0.050390847 4278799783
0.034479812 0.024736824 0.05143556 4278668713
0.036228009 0.025526231 0.050268836 4278603434
0.037970856 0.026315344 0.049103294 4278537898
0.039277818 0.02839845 0.046468638 4278799273
0.044888727 0.029468382 0.044453509 4278864299
0.048186503 0.02573099 0.048424058 4278733483
0.05765374 0.010511111 0.065124355 4278471854
0.01886043 0.02133367 0.054441355 4282471018
0.019313868 0.026685784 0.048094399 4278602924
0.020488825 0.029430311 0.044712432 4278274739
0.022223592 0.030220602 0.043549988 4278995369
0.02726974 0.026595734 0.047125738 4278733229
0.029816892 0.024785159 0.048908334 4278864554
0.031971302 0.024276135 0.049215596 4278865318
0.033716939 0.02506749 0.048051044 4278537898
0.035247508 0.026508292 0.046152949 4278472618
0.036767375 0.027948415 0.044257209 4278669224
0.038061485 0.030037172 0.041630331 4278668969
0.040210567 0.029528068 0.04193899 4278406319
0.058431216 0.0062459409 0.066827811 4278406574
0.017049637 0.025596028 0.046615362 4278799783
0.019586369 0.030448968 0.040602658 4279585439
0.021504104 0.030587509 0.040180892 4279455389
0.023814268 0.029420219 0.041231323 4278339764
0.029272929 0.024477847 0.046264995 4278733229
0.031421721 0.023966214 0.046571836 4278865318
0.032955263 0.025411557 0.044676345 4278406573
0.034268565 0.027508207 0.042050056 4278537643
0.040287931 0.027277464 0.041506607 4278273974
0.0422245 0.027417995 0.041081175 4278799783
0.044606864 0.026256537 0.042116273 4278734503
0.047676589 0.023143467 0.045337956 4278406828
0.053283688 0.012875475 0.056573361 4278472618
0.061054476 -0.0032402202 0.074346274 4278669224
0.014608759 0.025167504 0.044401102 4278866084
0.015798301 0.027930522 0.041028958 4278668713
0.028528403 0.024834361 0.042894877 4278799273
0.030872941 0.023665313 0.04393464 4278668713
0.032401431 0.025114715 0.042043507 4278602669
0.042744163 0.023856489 0.042103581 4278602414
0.045579489 0.021384761 0.044590935 4278603943
0.049112279 0.016955573 0.049257718 4278538664
0.055647112 0.0040422045 0.063373148 4278538664
0.011999816 0.025407448 0.041454643 4280242574
0.013010189 0.028837726 0.037352506 4278799528
0.01491956 0.028975435 0.036932413 4278799273
0.016641207 0.029771164 0.035777725 4278865574
0.018548045 0.029908819 0.035358291 4278472108
0.020454936 0.030046549 0.03493889 4278406828
0.022753485 0.028869629 0.035985269 4278602923
0.025261253 0.027036337 0.037761662 4278865319
0.027785074 0.025204275 0.039534576 4278865318
0.030121122 0.024030274 0.040572867 4278602923
0.031435415 0.026140086 0.037956204 4278602159
0.032733697 0.028248768 0.035343155 4278732974
0.034015954 0.030356403 0.032733645 4278864808
0.036569212 0.028526813 0.034500342 4278275249
0.043042812 0.020937582 0.042388856 4278537644
0.046772689 0.015835669 0.04777668 4278472873
0.051446021 0.0081159472 0.056060869 4278800804
0.058917698 -0.0074595995 0.073041037 4278538918
0.01029297 0.022357447 0.042191423 4281749623
0.016316276 0.028854866 0.033897255 4278339509
0.018600903 0.027672403 0.03494329 4278668458
0.020703323 0.027150545 0.035255164 4278603689
0.022811141 0.026629148 0.035565902 4278603433
0.024726048 0.02676758 0.035144828 4278800294
0.026841961 0.02624687 0.035453942 4278800038
0.028759602 0.026385631 0.035032369 4278603433
0.030470956 0.027183317 0.033881899 4278340018
0.033454414 0.030094467 0.030129239 4278863534
0.035787344 0.028916115 0.031165112 4278471599
0.038781896 0.025764497 0.034378435 4278406319
0.047963575 0.010260276 0.050943285 4278472109
0.054450467 -0.0027443841 0.065003224 4278603943
0.062410116 -0.019684695 0.083385102 4278603943
0.0087406337 0.02606873 0.035161015 4278930854
0.0097499974 0.029520772 0.031075519 4278405809
0.011461016 0.030319979 0.029926289 4278863788
0.018653408 0.025431765 0.034525216 4278668458
0.020950988 0.024245866 0.03556519 4278603943
0.02286844 0.024384409 0.035143506 4278800548
0.02478594 0.024523027 0.034721863 4278472618
0.025900412 0.027307317 0.031386297 4278407083
0.027400412 0.02876775 0.029511273 4278800294
0.029095856 0.02956642 0.028365981 4278733993
0.050040655 0.0020191818 0.056985952 4278276014
0.057674289 -0.014325969 0.074623965 4278276014
0.0070452765 0.023024522 0.035898924 4279259039
0.010961343 0.030087132 0.027326789 4278996388
0.013215512 0.028893527 0.028372791 4278668714
0.015667669 0.02703616 0.030146338 4278339764
0.020620216 0.023325179 0.033682946 4278603688
0.022730149 0.022799488 0.033989951 4278603433
0.024251752 0.024265714 0.032113355 4278407083
0.024960432 0.028385634 0.027331658 4278341548
0.028546751 0.029323336 0.025772337 4278537643
0.030857375 0.028134458 0.026806418 4278799783
0.03296743 0.027609246 0.027113676 4278537898
0.03529676 0.026421828 0.028143801 4278537898
0.039152913 0.020598147 0.03423515 4278603433
0.044591963 0.010142278 0.045375403 4278734758
0.053001605 -0.0089140981 0.065885395 4278734758
0.060443088 -0.024649851 0.082753494 4278734758
0.0037997365 0.025982432 0.03004732 4280373388
0.0051713474 0.028121822 0.027437173 4278603689
0.0068797395 0.028925007 0.026291724 4278274739
0.010462463 0.029863315 0.024733849 4278272444
0.017619193 0.02493738 0.029314123 4278602669
0.019905139 0.023741849 0.030350044 4278799784
0.021616701 0.024545781 0.029204294 4278537643
0.022927545 0.02668144 0.026608005 4278733994
0.033251919 0.024707619 0.027415901 4278537898
0.036227293 0.021521654 0.030608661 4278472363
0.040960573 0.013020452 0.039569668 4278341548
0.047734894 -0.0014557317 0.055005975 4278472618
0.055957153 -0.019908987 0.074740097 4278472618
0.061635956 -0.030382365 0.08580143 4278669988
0.001771614 0.024281973 0.029325172 4281554293
0.0024683401 0.02910901 0.023797512 4278800549
0.0041687265 0.029913722 0.022655409 4278537898
0.0062161796 0.02937864 0.022972412 4278734759
0.0082690567 0.028844014 0.023288272 4278799783
0.010145873 0.028979219 0.022875223 4279126949
0.012391105 0.027776128 0.023916628 4279061413
0.014647074 0.026573913 0.024955671 4278996134
0.017103296 0.024703737 0.026718471 4278865319
0.019191243 0.024172017 0.027026899 4278930853
0.020894893 0.024977563 0.025884528 4278602923
0.023485545 0.029259814 0.020708755 4279257509
0.025162585 0.0300637 0.019572362 4279520668
0.030790865 0.024328612 0.025244325 4278733483
0.033957373 0.0204629 0.029154487 4278734504
0.03779652 0.014598448 0.035219848 4278735014
0.043845795 0.0020689555 0.048476197 4278735014
0.051309779 -0.014453083 0.066027686 4278735014
0.058021076 -0.028299496 0.080674045 4278342058
0.0004603751 0.027425593 0.023082644 4279783574
0.008134298 0.027292965 0.022159215 4279258019
0.010192335 0.02675654 0.022472382 4278538409
0.012071803 0.026891991 0.022058792 4278800038
0.014137983 0.026356341 0.022370234 4278538154
0.016209569 0.025821159 0.022680547 4278472363
0.018286549 0.025286447 0.022989731 4278734504
0.019784972 0.026764015 0.021128096 4278734248
0.024621673 0.029852549 0.017000474 4278995879
0.039576009 0.0069709085 0.040524624 4278735013
0.046941623 -0.00961316 0.058056463 4278735013
0.053784676 -0.024180867 0.073405184 4278735523
0.058753006 -0.03272184 0.082271837 4278932383
-0.00072176009 0.02236787 0.026008435 4279258528
0.0079995804 0.025742142 0.021030311 4278995624
0.010057326 0.025203479 0.021341879 4278668968
0.011752915 0.026012531 0.02020428 4278537898
0.013443246 0.02682125 0.019067947 4278472618
0.015506532 0.026283259 0.019378424 4278800294
0.017191645 0.027091755 0.018243354 4278472618
0.019065917 0.027227128 0.017831128 4278538153
0.020743106 0.028035203 0.016697917 4278668714
0.024284016 0.028978208 0.015155035 4278666419
0.030100238 0.022530371 0.021520391 4278275249
0.034942724 0.013264515 0.031157359 4278668713
0.041778322 -0.0020390414 0.047235698 4278669223
0.049168371 -0.018676139 0.064720958 4278669223
0.054725498 -0.029263772 0.075729862 4278801059
0.058598753 -0.034478031 0.080993906 4280308619
-0.0030677728 0.022027856 0.023834705 4282537064
-0.0021759495 0.026225688 0.019061349 4278274739
-0.00098088384 0.029067429 0.015746869 4278668459
0.0008739084 0.029200681 0.015338392 4279127968
0.0027288198 0.02933402 0.014929947 4278996643
0.0052861497 0.026761955 0.017418113 4278865064
0.0075084083 0.025543878 0.018454477 4278536879
0.0095605217 0.025002647 0.018765584 4278537898
0.01125088 0.025813462 0.017630819 4278603434
0.012935959 0.026623977 0.016497273 4278407083
0.014804695 0.026758788 0.016086143 4278603689
0.016290285 0.028244132 0.014233801 4278472873
0.018153779 0.028378719 0.013823939 4278407338
0.020411197 0.027163709 0.014853039 4278669479
0.022280112 0.027298843 0.014442104 4278603943
0.024149049 0.027434064 0.014031225 4278604199
0.026837798 0.024872346 0.01649113 4278603944
0.031001225 0.017593849 0.023966029 4278407083
0.036905695 0.0049287491 0.037160147 4278538408
0.044402324 -0.012444645 0.055343498 4278538408
0.051175267 -0.027113967 0.070635051 4278538408
0.055227797 -0.033021905 0.076609135 4278800803
0.058444515 -0.036233969 0.079716168 4281750134
-0.0049238577 0.019658651 0.023843385 4282537319
-0.004336521 0.025230033 0.017624546 4278604454
0.0087030679 0.026167234 0.014753166 4278734249
0.010749642 0.025623435 0.015063933 4278668458
0.012429468 0.026435787 0.013933138 4278733738
0.015581906 0.028736936 0.010956298 4278271933
0.020079713 0.026296848 0.013011531 4278339764
0.022743501 0.023724429 0.015470161 4278603433
0.024620347 0.023860222 0.015057546 4278472873
0.027520984 0.020613795 0.018225349 4278538409
0.032522578 0.010606695 0.028542269 4278407083
0.039705195 -0.0061551929 0.045990612 4278407083
0.046808533 -0.02223146 0.062695377 4278538409
0.051885683 -0.031541489 0.07223478 4278603943
0.05507464 -0.034766555 0.075339578 4279849873
0.05829028 -0.037989646 0.07843861 4282012529
-0.0063318089 0.023557601 0.016914461 4281686639
-0.005116988 0.026418077 0.01360865 4279588243
-0.0034298114 0.027232444 0.012477425 4279325594
-0.0017478429 0.028046515 0.01134741 4278865574
0.00026861578 0.027497979 0.011662801 4279127713
0.0019454584 0.028311851 0.010534042 4278341294
0.0041426495 0.02708309 0.011569248 4278472364
0.0063506179 0.025855154 0.012602194 4278930854
0.0085693374 0.024628101 0.013632783 4278799784
0.0104324 0.024762319 0.013222759 4278799784
0.01192379 0.026256623 0.011375635 4278537134
0.015065916 0.028563613 0.0084059434 4278339764
0.022608098 0.02217414 0.014341851 4278668713
0.025090527 0.020273335 0.016074438 4278537898
0.029225469 0.012944482 0.023519292 4278341548
0.035491474 -0.0011647828 0.038090166 4278538409
0.042499304 -0.017300643 0.054776326 4278538409
0.048147291 -0.028680548 0.06644544 4278538664
0.05173362 -0.033274844 0.070973419 4279063198
0.055139419 -0.037188679 0.074781783 4281160064
0.05857721 -0.041100055 0.078583136 4282143599
-3.3386052e-05 0.026653571 0.0098300884 4279722119
0.0019855537 0.026103077 0.010143326 4278801823
0.0038349219 0.026236044 0.0097361198 4278473893
0.0078946128 0.02513699 0.010358146 4278472618
0.0095665418 0.025953049 0.0092322985 4278733993
0.012517925 0.028948233 0.0055516027 4279061414
0.014168687 0.029763006 0.0044305967 4279193759
0.016395248 0.028532511 0.0054565202 4278865829
0.019025236 0.025939984 0.0079093799 4278734248
0.02207467 0.021986598 0.011785661 4278275504
0.025761269 0.015992414 0.017795328 4278669479
0.03113088 0.0045548119 0.029497422 4278669479
0.0384546 -0.013002172 0.047590096 4278669479
0.044449195 -0.02578564 0.060670506 4278342314
0.048421457 -0.03175877 0.06661766 4278997409
0.051581576 -0.035007939 0.069712244 4281291388
0.054986097 -0.038935006 0.073511012 4281946738
0.058863379 -0.044219002 0.078721449 4282077808
0.0021974668 0.023204727 0.010467915 4280442494
0.0040520653 0.023338042 0.010059537 4279130263
0.0059067532 0.023471454 0.0096512074 4278736034
0.0075813755 0.024289796 0.0085263401 4278604708
0.009250734 0.025107795 0.0074027376 4278932128
0.027035002 0.0096443072 0.021639064 4278734503
0.03384915 -0.006610956 0.038288653 4278669479
0.040791426 -0.022856817 0.054910086 4278669479
0.045138158 -0.030218333 0.062272307 4278735268
0.04784615 -0.032115608 0.063945688 4280374408
0.050784998 -0.034693882 0.066324554 4281554038
0.054397739 -0.039316826 0.070823766 4282143343
0.0587084 -0.045982696 0.077438086 4282274669
0.01206512 0.026592782 0.0026242272 4278801824
0.013522763 0.028097931 0.00079451222 4278408104
0.015742999 0.026858237 0.001815178 4278276778
0.018365905 0.024247661 0.0042564105 4278407083
0.022797998 0.015467741 0.013090487 4278603688
0.029312639 -0.00016179308 0.029011786 4278603688
0.036154076 -0.016467616 0.045615807 4278603688
0.041677088 -0.027968481 0.057228263 4278866339
0.045197628 -0.032613724 0.061735991 4280505223
0.047483623 -0.033148021 0.061988238 4281815669
0.050633565 -0.036419824 0.065068588 4282077808
0.012308504 0.023697089 0.0029421845 4281360748
0.013771757 0.025207052 0.0011144723 4279130009
0.016189959 0.023275036 0.0028412105 4278998429
0.019603126 0.017903958 0.0081135426 4278408358
0.025242001 0.0049695261 0.021178026 4278473383
0.03198792 -0.011395864 0.037763454 4278473383
0.038046822 -0.025001943 0.051488575 4278604453
0.042354375 -0.03241463 0.05882315 4278669989
0.045047615 -0.034326151 0.0604898 4281553274
0.047121484 -0.034175724 0.060034152 4282077553
0.050053209 -0.036772043 0.062401403 4282208623
0.054091938 -0.042799272 0.068289667 4282797928
0.038714156 -0.029441983 0.053090785 4281228914
0.042411342 -0.034809642 0.058287803 4281161083
0.045524426 -0.038106218 0.061359648 4282143343
0.047606181 -0.03795521 0.060902271 4282405738
0.04288011 -0.03859219 0.059157986 4282079848
0.045791373 -0.041207701 0.06151643 4282078318
0.047666915 -0.040364988 0.060354788 4282536809
0.043347716 -0.042387649 0.060018715 4282472294
0.046057545 -0.044317693 0.061666962 4282209644
0.04381422 -0.046196043 0.0608701 4282472039
0.046114624 -0.046740294 0.061110843 4282405738
0.043868586 -0.048620731 0.060313154 4282602854
0.046171334 -0.049166992 0.060551737 4282863974
0.043379635 -0.068732195 0.04148604 4282536553
0.040130556 -0.066955373 0.037308924 4282471529
0.043023646 -0.069720812 0.039559644 4282405739
0.039981183 -0.068661608 0.03606721 4282340203
0.042873353 -0.071435854 0.038311567 4282274923
0.037361443 -0.0690502 0.03393203 4282471274
0.040034272 -0.071101032 0.035499614 4282536554
0.042928182 -0.073883869 0.037737031 4282732649
0.034359694 -0.067956604 0.030454274 4282602089
0.037412226 -0.071487233 0.033366784 4282143344
0.040086985 -0.07354448 0.034929018 4282601833
0.042367958 -0.074129425 0.035144489 4281880438
0.034015179 -0.068910412 0.028550982 4282405994
0.036864564 -0.07171417 0.030784886 4281815669
0.03933122 -0.073040478 0.031672858 4282340204
0.030846622 -0.067045085 0.024418395 4282537063
0.033671081 -0.069859482 0.026651129 4282209389
0.036118522 -0.071191691 0.027539935 4282340714
0.030700173 -0.068723306 0.023196936 4282340459
0.033131063 -0.070061199 0.024086017 4282732903
0.025160715 -0.065477602 0.018190689 4282668134
0.028134087 -0.069057964 0.021087512 4282470764
0.030747224 -0.071146213 0.022643343 4282536043
0.025015987 -0.067139797 0.016980812 4281749368
0.028178861 -0.07147859 0.020536322 4282339439
0.030987181 -0.074320398 0.022752795 4282601579
0.021926835 -0.065197296 0.012884469 4282210154
0.024871297 -0.068801649 0.015771177 4281684853
0.028413691 -0.074652813 0.020647172 4281879928
0.019048847 -0.063982822 0.0094636492 4282210408
0.021598388 -0.066095687 0.011018421 4282078319
0.024726637 -0.07046321 0.01456176 4282012528
0.02769666 -0.074076496 0.017434746 4283124583
0.019270353 -0.067133464 0.0095959529 4282144364
0.022193894 -0.070761286 0.012470766 4281947248
0.024956755 -0.073632844 0.014677419 4282077808
0.016410846 -0.065895125 0.0061880089 4281620593
0.019127414 -0.068779014 0.0083980933 4281357689
0.022234354 -0.073174328 0.011926374 4281685109
0.024998952 -0.076054491 0.014126095 4282536808
0.016268861 -0.067531578 0.0049967319 4282078573
0.01916616 -0.071183182 0.007860858 4282078319
0.022090144 -0.07483273 0.010719202 4282143088
0.013257399 -0.065503091 0.00094372407 4281292154
0.015948106 -0.068406381 0.0031463094 4281685363
0.019023098 -0.072830267 0.0066618836 4282667113
0.010621466 -0.064978115 -0.0017810576 4281818219
0.013116583 -0.067127958 -0.00023916736 4280702339
0.015806369 -0.07004004 0.0019570622 4280570759
0.019061346 -0.075240396 0.0061203009 4282992238
0.0074917302 -0.062139548 -0.0064733992 4281424244
0.01030831 -0.065829992 -0.003616333 4281881714
0.012800042 -0.067986615 -0.0020786079 4282536044
0.0038938448 -0.05696594 -0.013124264 4281623144
0.0070124902 -0.062207095 -0.0089543127 4281095548
0.010168485 -0.067445472 -0.0047924407 4281881459
0.012308318 -0.06807249 -0.0045698807 4282928999
0.027826119 -0.073980443 -0.0017399311 4282339184
0.0035895966 -0.057779618 -0.014933265 4279721098
0.0068741739 -0.063806951 -0.010119084 4281160319
0.0098559521 -0.068290211 -0.0066225119 4282012274
0.032263272 -0.077634983 -0.0018617967 4282010999
4.8168004e-05 -0.052540354 -0.02155026 4280310914
0.0032857731 -0.058588609 -0.016738854 4280046479
0.0069057792 -0.066179372 -0.010630421 4281094784
0.0097163767 -0.069902904 -0.0077965856 4281946738
-0.0023096018 -0.052687086 -0.023575541 4281229678
7.7810138e-05 -0.054877788 -0.022034835 4279784848
0.0031493753 -0.060168184 -0.017888907 4280242573
0.0069370121 -0.068555854 -0.011144791 4281815414
0.0095768236 -0.071515314 -0.0089704618 4282665584
0.00043544918 -0.058774583 -0.021220047 4282274414
0.003179837 -0.062524863 -0.018388167 4281684088
0.0062899105 -0.067827515 -0.014262099 4282469743
0.0035432614 -0.066444822 -0.017592464 4282339183
-0.013315685 -0.069156252 -0.02269201 4282143344
0.0029951297 -0.072793029 -0.022214465 4282208879
0.00013940036 -0.072932191 -0.026658915 4279128224
0.006240502 -0.074103989 -0.026651487 4282536298
-0.00015930086 -0.073714204 -0.028445702 4280768383
-0.00062007084 -0.073694341 -0.030865896 4282602599
-0.001242362 -0.072866 -0.033914838 4282274668
-0.0013772026 -0.074429296 -0.035053078 4282012018
-0.0015120134 -0.075992323 -0.036191136 4282143088
-0.0047964267 -0.073595263 -0.042453695 4279781788
-0.040781707 -0.0094267055 -0.026611034 4285164073
-0.039100111 -0.0085472614 -0.027691878 4285165348
-0.040793739 -0.01166328 -0.027008355 4285360423
-0.039109424 -0.010781534 -0.028088141 4285360423
-0.037430257 -0.0099000148 -0.029166762 4285361698
-0.035877407 -0.0082642585 -0.030924398 4285166114
-0.040806115 -0.013903975 -0.027408674 4285294889
-0.039234772 -0.012262776 -0.029167298 4285426469
-0.037437171 -0.01213605 -0.029565003 4285426469
-0.035881437 -0.010495726 -0.031320073 4285491749
-0.03408882 -0.010369141 -0.031716514 4285426213
-0.032548696 -0.0087297335 -0.033467922 4285361189
-0.030761093 -0.0086033195 -0.033863116 4285165094
-0.02923663 -0.0069647767 -0.035610951 4284904229
-0.04059311 -0.017667808 -0.026454277 4285360423
-0.038898043 -0.01678095 -0.027533241 4285294888
-0.037326261 -0.015135288 -0.029288627 4285360678
-0.035644129 -0.014249176 -0.030364532 4285360934
-0.033967152 -0.013363324 -0.031439219 4285426469
-0.032421462 -0.011719137 -0.033188637 4285360933
-0.030757472 -0.010834016 -0.03426031 4285360933
-0.02909863 -0.0099491403 -0.035330754 4285296418
-0.027444974 -0.0090644695 -0.036400001 4285099303
-0.040606506 -0.019921117 -0.026863802 4285294888
-0.038793378 -0.019793428 -0.027265035 4285360679
