# .PCD v0.7 - Point Cloud Data file format
VERSION 0.7
FIELDS x y z rgba
SIZE 4 4 4 4
TYPE F F F U
COUNT 1 1 1 1
WIDTH 965
HEIGHT 1
VIEWPOINT 0 0 0 1 0 0 0
POINTS 965
DATA ascii
0.05102706 0.02657198 0.01753819 4278865064
0.053182151 0.026031991 0.017855797 4278669734
0.054402523 0.028181441 0.015329356 4278538663
0.055606738 0.030329801 0.012806316 4278668969
0.057966571 0.034623481 0.0077702692 4279389599
0.060105022 0.034082718 0.008091568 4279193248
0.063738972 0.029514447 0.012660013 4278734248
0.0048155822 0.029439488 0.017495576 4279919488
0.0073902272 0.034447469 0.011665183 4279061925
0.0089133382 0.035931982 0.0098376209 4279259038
0.010782916 0.036059238 0.0094536757 4279323554
0.013377499 0.03347411 0.011950259 4278733229
0.015993558 0.03089053 0.014442495 4278340529
0.018257875 0.029664012 0.015492325 4278799783
0.019965112 0.030470971 0.014384625 4278407083
0.021667015 0.031277642 0.013278077 4278602668
0.026140636 0.03572645 0.0078165596 4279322533
0.028826414 0.033148177 0.010294902 4278667694
0.03405416 0.028672574 0.014523945 4278472363
0.035747945 0.02947925 0.013419488 4278538409
0.037222933 0.030961575 0.011602635 4278407083
0.039484419 0.035950806 0.0058385022 4278402493
0.052120924 0.027151952 0.013851716 4278472874
0.053331047 0.029307267 0.011332368 4278538664
0.056864362 0.035766918 0.0037945639 4278469048
0.0036814064 0.03197486 0.012021831 4278998428
0.015497494 0.030700928 0.011862046 4278405809
0.017569587 0.03014957 0.012192356 4278668969
0.019079771 0.031637952 0.010371056 4278538409
0.020579275 0.033125646 0.0085520605 4278537898
0.033300243 0.029147163 0.011232435 4278800038
0.034775563 0.030633761 0.0094188219 4278538409
0.036240123 0.032119706 0.0076074796 4278472618
0.03769391 0.033605024 0.005798351 4278734248
0.049157314 0.02815851 0.010250545 4278800039
0.051293105 0.027612882 0.01056883 4278734503
0.052730292 0.02909757 0.0087635657 4278734759
0.053682048 0.03193453 0.0055466257 4278603944
0.054612275 0.034770072 0.002334143 4278341293
0.056248937 0.035575941 0.0012437608 4278274739
0.058370776 0.035029735 0.0015651919 4278340529
0.061737876 0.03110542 0.0054095108 4278471854
0.065638334 0.025832301 0.010655827 4278472618
0.0030518919 0.03248658 0.0087265549 4279262099
0.0047509223 0.033296771 0.0076234201 4278408103
0.0062718354 0.034789719 0.0058029098 4278537644
0.012579381 0.032439724 0.0075236103 4278537389
0.015002187 0.030520363 0.0092881983 4278865319
0.017068632 0.029966434 0.0096180039 4278800039
0.018384833 0.032140747 0.0070858942 4278668969
0.020259742 0.03226874 0.0067011388 4278734504
0.021551853 0.034441613 0.0041740527 4278341293
0.023615679 0.033887826 0.0045046397 4278341295
0.02548524 0.034015708 0.0041211722 4278603433
0.027759403 0.032781556 0.0051627504 4278668968
0.030249227 0.030867437 0.0069140894 4278734759
0.032755107 0.028954437 0.0086622322 4278669479
0.034435667 0.029764585 0.0075638136 4278538154
0.03589781 0.031254776 0.0057562385 4278603688
0.037133511 0.033424392 0.0032412596 4278537898
0.038571443 0.034913085 0.0014387732 4278603433
0.040440712 0.035041597 0.0010558581 4278537898
0.042533647 0.03449057 0.0013811365 4278800038
0.04531106 0.031901903 0.0038279509 4278800549
0.048567999 0.027956333 0.0076845167 4278669734
0.050929911 0.026729146 0.0087087462 4278538664
0.052364696 0.028218066 0.0069073169 4278735014
0.053314425 0.031063639 0.0036974428 4278669224
0.054242618 0.033907797 0.00049202796 4278603689
0.055876695 0.034715705 -0.00059614331 4278472363
0.057750437 0.034845222 -0.00097943936 4278537898
0.060615342 0.032263182 0.0014499938 4278538153
0.064253002 0.027649557 0.0059829429 4278538664
0.0027581081 0.031640466 0.0068772165 4278870418
0.0044545531 0.03245265 0.0057762628 4278604963
0.0058003776 0.03463506 0.003242611 4278472363
0.0076562166 0.034761272 0.0028614067 4278735014
0.0098681487 0.033517778 0.0039118826 4278865828
0.01227152 0.031590454 0.0056754146 4278668969
0.01469101 0.029664269 0.0074357493 4278668968
0.016568445 0.02979227 0.0070503475 4278472874
0.018068459 0.031288646 0.0052378168 4278341293
0.019749174 0.032100461 0.0041405456 4278537643
0.021424549 0.032911941 0.0030444758 4278668458
0.023291336 0.033039555 0.0026615178 4278537898
0.024958681 0.033850655 0.0015672212 4278341293
0.029506043 0.031373709 0.0036439756 4278669224
0.032003224 0.029453626 0.0053888932 4278735014
0.034096152 0.028900033 0.0057122195 4278407083
0.035555884 0.030394439 0.0039084693 4278407083
0.037220374 0.031205844 0.0028151385 4278537898
0.03844307 0.033381242 0.00030781701 4278537898
0.040091373 0.034191705 -0.00078207161 4278537134
0.050335508 0.026531247 0.0061472775 4278865573
0.052233711 0.026662165 0.0057587549 4278538664
0.053657938 0.028154865 0.0039628344 4278603944
0.054592133 0.031008203 0.00076285377 4278668969
0.055747088 0.033179618 -0.0017300006 4278537388
0.0044981688 0.030237924 0.0053641656 4278670753
0.0058471151 0.03242708 0.0028348388 4278537898
0.013647459 0.031559642 0.0027343594 4278405043
0.015883137 0.030313691 0.0037767868 4278537643
0.017752469 0.030441226 0.0033931173 4278472363
0.019813042 0.029882645 0.0037209708 4278603178
0.02129727 0.031382516 0.001915074 4278537133
0.022967374 0.032195911 0.00082181115 4278668203
0.031667046 0.028596075 0.0035417611 4278993074
0.033756997 0.028040148 0.0038640052 4278472618
0.035214327 0.029538719 0.0020641126 4278341548
0.036876224 0.030352142 0.00097298156 4278406828
0.038096692 0.032533947 -0.0015289001 4278537388
0.043695655 0.032919206 -0.0026755747 4278992308
0.049510427 0.027025785 0.0028892234 4278864299
0.051400498 0.027156172 0.0025023865 4278407594
0.052816983 0.028652687 0.00071142986 4278538409
0.053983208 0.030831419 -0.0017788387 4278602923
0.056267135 0.035185728 -0.0067492267 4278930344
0.058622077 0.033949874 -0.0057297871 4279585948
0.0023387 0.029272132 0.0039035268 4281361003
0.0040326118 0.030088471 0.0028063813 4278867614
0.0053766444 0.032283828 0.000283028 4278603435
0.0081943534 0.035982225 -0.004041017 4278733484
0.015198957 0.030848475 0.00051316433 4278602923
0.017248508 0.030286917 0.00084151607 4278865319
0.019112393 0.030414158 0.00045902189 4278602668
0.020782573 0.031229651 -0.00063266698 4278274739
0.022250993 0.032732897 -0.0024319338 4278799018
0.023509642 0.034923233 -0.0049370728 4279650719
0.025357461 0.035049722 -0.0053160079 4278732974
0.030709906 0.029804938 -0.00042152777 4278733995
0.033208445 0.027871909 0.001313284 4278472363
0.034660682 0.029374508 -0.0004822379 4278538409
0.036102146 0.030876502 -0.0022755261 4278407083
0.038732301 0.034564793 -0.0065590357 4279323298
0.040361963 0.035378445 -0.0076417057 4279062943
0.045661755 0.030832874 -0.003484353 4278666418
0.048686445 0.027533734 -0.00035892613 4279192229
0.050568383 0.027663583 -0.00074408017 4278341548
0.052213665 0.028478736 -0.0018296256 4278734503
0.05313576 0.031348735 -0.0050138361 4278341039
0.055404551 0.035715133 -0.0099711427 4279388833
0.05799827 0.033789843 -0.0082549239 4278997154
0.060857855 0.031181442 -0.0058441539 4278996644
0.06626489 0.021733418 0.0035343831 4278668968
0.0030595027 0.032024071 -0.0018825498 4278669989
0.0064048432 0.033658508 -0.0040646605 4278995878
0.0078920983 0.03516674 -0.0058649052 4279128224
0.0099091306 0.03460053 -0.0055317301 4278865064
0.012480035 0.031961456 -0.0030700522 4278406064
0.014701381 0.030705797 -0.002031317 4278602669
0.016745288 0.030141665 -0.00170347 4278799783
0.018221997 0.031649619 -0.0035012141 4278537898
0.022786781 0.03547965 -0.0081743877 4278929834
0.024828032 0.034915771 -0.0078456672 4278996389
0.027283125 0.032973066 -0.0061070379 4278471599
0.032451015 0.028401986 -0.0019351598 4278668968
0.034107763 0.029219355 -0.0030219685 4278407083
0.035114225 0.032103151 -0.0062173856 4278407083
0.037943982 0.035112433 -0.0097861914 4278469048
0.039565694 0.035927735 -0.010865564 4278996134
0.041858986 0.034678258 -0.0098405518 4278668459
0.047632556 0.028742827 -0.0042970874 4278275504
0.049737383 0.028184354 -0.0039806017 4278603944
0.05113833 0.029688619 -0.0057617496 4278538409
0.052289423 0.031879395 -0.0082389023 4278276013
0.054543056 0.036257938 -0.013183163 4278666164
0.002426751 0.032593466 -0.0051331692 4278670244
0.014019255 0.031265192 -0.0052767661 4278734248
0.016054839 0.030698309 -0.0049488689 4278800039
0.017333087 0.03290287 -0.0074483156 4278603944
0.018788643 0.034413822 -0.0092383418 4278275504
0.03169471 0.028945439 -0.005173651 4278668969
0.033343494 0.029764494 -0.0062572076 4278603944
0.034557335 0.03196539 -0.0087428018 4278472874
0.037376903 0.034982726 -0.012302872 4278273463
0.047041789 0.028589793 -0.0068254797 4278734503
0.04890747 0.028718567 -0.0072072707 4278669224
0.050536852 0.029537033 -0.0082862098 4278472874
0.051683035 0.031734087 -0.010757406 4278276013
0.052813053 0.033930056 -0.013225194 4278668713
0.059350431 0.031558931 -0.011579713 4278275759
0.06322521 0.026179649 -0.0064074695 4278668969
0.001964204 0.032479838 -0.0076645063 4278867359
0.0036262758 0.033300646 -0.0087501472 4278407338
0.0054574907 0.033425115 -0.0091263484 4278276523
0.0094796494 0.032282993 -0.0084642293 4278603434
0.011681277 0.031017169 -0.0074281492 4279062178
0.01370851 0.030447446 -0.0071002664 4278865829
0.015741136 0.029878147 -0.006773368 4278669478
0.017207637 0.031394161 -0.0085624401 4278735013
0.018277101 0.034299023 -0.011758048 4278604198
0.019912701 0.035118777 -0.012837608 4278799783
0.022138529 0.033855092 -0.011806047 4278866339
0.024173843 0.033286467 -0.011479406 4279127713
0.026418377 0.032024276 -0.010451594 4278865829
0.028880164 0.030069046 -0.0087242071 4278866084
0.031357974 0.02811504 -0.0070000831 4278996898
0.033004157 0.028936071 -0.0080813952 4278931618
0.034430362 0.030450091 -0.0098615456 4278735268
0.035845783 0.031963486 -0.011639475 4278800293
0.0374704 0.032783307 -0.012716162 4278996898
0.039534833 0.032217383 -0.012394954 4279062178
0.041604564 0.031651869 -0.012074719 4279062433
0.044363476 0.029009787 -0.0096637364 4279128224
0.046682425 0.027753573 -0.0086504417 4279128479
0.049011972 0.026498206 -0.007639301 4279063199
0.050408114 0.028010864 -0.0094127599 4278866338
0.051793426 0.029522903 -0.011183977 4278931873
0.052926581 0.03172566 -0.013647415 4278997409
0.054531619 0.032544903 -0.014719509 4279128479
0.056624599 0.031981722 -0.014403554 4279062943
0.059470952 0.029346343 -0.012009881 4278997663
0.062842697 0.025331136 -0.0082358178 4278866593
0.068793744 0.014413141 0.0024498245 4278735524
0.0023468845 0.028882358 -0.0066505349 4279130008
0.0038454905 0.030404225 -0.0084433369 4278735778
0.0056819543 0.030529056 -0.0088206138 4278997154
0.0078723133 0.029257912 -0.0077856784 4278996899
0.0097142272 0.029383283 -0.0081639448 4278931364
0.011920743 0.028113371 -0.007132153 4278800293
0.013953038 0.027541814 -0.0068069613 4278931363
0.01580308 0.027668016 -0.0071866876 4278735268
0.017272513 0.029188592 -0.0089730462 4278735268
0.018924247 0.03001155 -0.010054322 4278669223
0.020570632 0.030834228 -0.01113443 4278669478
0.023005037 0.028870311 -0.0094066029 4278866084
0.024852427 0.028996794 -0.0097854314 4278800549
0.027107192 0.027730962 -0.0087630199 4278735014
0.029372644 0.026465937 -0.0077427393 4278603943
0.031439736 0.025897544 -0.0074240156 4278603943
0.033088662 0.026720991 -0.0085042715 4278276524
0.034732204 0.027544107 -0.0095833195 4278407339
0.036370337 0.028366959 -0.010661178 4278473129
0.040520102 0.027232135 -0.010026394 4278603944
0.042602923 0.026665363 -0.0097104814 4278472874
0.047245301 0.024144504 -0.007691524 4278342059
0.058222029 0.025614057 -0.01067888 4278407849
0.063216142 0.022408631 -0.0079885535 4278539174
0.068914935 0.012148615 0.0019800225 4278342824
0.0030659363 0.023870379 -0.0042338474 4278737053
0.0066019818 0.024822839 -0.0057011498 4278276269
0.0084544457 0.024948832 -0.0060816556 4278341804
0.017907444 0.024880908 -0.0072815344 4278342314
0.026132066 0.022594094 -0.0060056802 4278276779
0.030276442 0.021453418 -0.0053738807 4278276779
0.032147743 0.021581817 -0.0057574036 4278276779
0.037327584 0.023362547 -0.0082999747 4278538918
0.039193336 0.023490939 -0.0086820768 4278276779
0.041059028 0.023619421 -0.0090640904 4278342314
0.043149568 0.023051061 -0.0087514464 4278472873
0.047807049 0.020522557 -0.0067421789 4278473384
0.049685787 0.020652313 -0.0071265795 4278407849
0.051564429 0.020782147 -0.007510901 4278473383
0.053204644 0.021608047 -0.0085869748 4278407848
0.055321369 0.021042041 -0.0082792733 4278473383
0.057199668 0.021172117 -0.0086633191 4278407848
0.059570521 0.019911349 -0.0076668249 4278604453
0.061702922 0.019346692 -0.0073621296 4278407848
0.063840523 0.018782504 -0.0070584142 4278670498
0.069544435 0.0084902197 0.0028842557 4278801568
0.0054803155 0.0196664 -0.0029210062 4278735268
0.0071721077 0.020495784 -0.0040076957 4278800549
0.0092117228 0.019920073 -0.0036875443 4278538663
0.010898266 0.020749286 -0.0047730119 4278538663
0.012943316 0.020174127 -0.0044538402 4278473128
0.014993761 0.019599445 -0.0041356883 4278473128
0.016675048 0.02042859 -0.0052198605 4278538663
0.018540945 0.020555958 -0.0056027756 4278604454
0.020599475 0.019982103 -0.0052860766 4278669988
0.022858676 0.01870754 -0.0042713606 4278473383
0.025128571 0.017433841 -0.0032588155 4278604453
0.026807206 0.018263284 -0.0043420778 4278669988
0.028683802 0.018391855 -0.0047268257 4278342314
0.030560372 0.01852053 -0.0051114936 4278342314
0.032645598 0.017949082 -0.0047998284 4278538918
0.034313418 0.018778164 -0.0058805863 4278538918
0.036403913 0.018207252 -0.0055698673 4278473384
0.038282994 0.01833649 -0.0059547503 4278473384
0.040162019 0.018465813 -0.0063395551 4278735523
0.042040981 0.018595215 -0.0067242826 4278473384
0.044144608 0.018025596 -0.0064159604 4278538918
0.046253528 0.017456397 -0.0061085997 4278473384
0.048137601 0.017586432 -0.0064941598 4278538918
0.049788792 0.018415168 -0.0075709806 4278538918
0.05167 0.018545203 -0.0079558054 4278407849
0.053789232 0.017977078 -0.0076502808 4278604453
0.05591369 0.017409451 -0.0073457966 4278669988
0.057799906 0.017540112 -0.0077314363 4278473384
0.060178295 0.01627557 -0.0067398241 4278408103
0.062318422 0.015709318 -0.0064383233 4278735778
0.064715281 0.014446195 -0.0054503093 4278735779
0.070172817 0.0048188902 0.003779022 4278604708
0.0041620471 0.015191779 -0.00085420255 4281033074
0.0060382448 0.015319165 -0.0012397524 4278538918
0.0075671114 0.016856249 -0.0030287714 4278866084
0.0094380714 0.016983479 -0.0034130928 4278473384
0.011309084 0.017110806 -0.0037973556 4278604198
0.013361875 0.016534001 -0.0034814198 4278604198
0.015420046 0.015957661 -0.0031665182 4278538663
0.017483599 0.015381772 -0.002852655 4278604453
0.019173 0.016213741 -0.0039367648 4278669988
0.021241944 0.015638418 -0.003623859 4278604453
0.023121122 0.015766893 -0.0040093465 4278604453
0.025000304 0.01589546 -0.0043947659 4278538918
0.026879475 0.016024128 -0.0047801062 4278669988
0.028555479 0.016855672 -0.0058610942 4278669988
0.030637758 0.016281754 -0.0055505494 4278669988
0.03272536 0.01570829 -0.0052410243 4278604453
0.034818292 0.015135247 -0.0049324771 4278735523
0.036702663 0.015264761 -0.0053185085 4278604453
0.038586982 0.015394352 -0.0057044728 4278473384
0.040252026 0.016225766 -0.0067828158 4278407849
0.042133547 0.016355369 -0.0071680518 4278538918
0.044464126 0.015082404 -0.0061704712 4278342314
0.046578087 0.014511436 -0.00586583 4278604453
0.048467398 0.014641859 -0.0062524425 4278801058
0.049891442 0.016173877 -0.0080183642 4278670243
0.05177521 0.016304106 -0.0084037008 4278539173
0.053658873 0.016434416 -0.0087889461 4278604708
0.05578303 0.015864622 -0.0084860316 4278670243
0.057669137 0.015995294 -0.0088716289 4278670243
0.059801076 0.015426226 -0.0085701672 4278604708
0.062186882 0.014157966 -0.0075832894 4278538918
0.065085888 0.011491582 -0.0052267085 4278670243
0.071054049 0.00043541938 0.0053496249 4278867103
0.0043716319 0.012241311 -0.00058606081 4280508539
0.0062530711 0.012369044 -0.00097269285 4278998428
0.0079610497 0.013203871 -0.0020594085 4278670498
0.0098399222 0.013331629 -0.0024453625 4278473638
0.011718847 0.013459496 -0.0028312486 4278539173
0.013779365 0.012881033 -0.0025185607 4278866594
0.015661035 0.013009276 -0.0029048659 4278866338
0.017729651 0.012431514 -0.0025936514 4278407849
0.019424457 0.013266064 -0.0036772666 4278473384
0.021498457 0.012688868 -0.0033670077 4278473384
0.023187928 0.013523269 -0.004449361 4278538918
0.025069663 0.013652012 -0.0048353057 4278604453
0.026951391 0.013780858 -0.0052211666 4278538918
0.028630137 0.014614765 -0.0063010668 4278801058
0.030509152 0.01474363 -0.0066862172 4278538918
0.03259645 0.014167972 -0.0063782828 4278538918
0.034900069 0.012888327 -0.0053788489 4278669988
0.036787 0.013018027 -0.0057653962 4278473384
0.038673881 0.013147809 -0.0061518727 4278604453
0.040779725 0.012573831 -0.0058474327 4278407849
0.042669158 0.012703992 -0.0062342742 4278538918
0.044782892 0.012130748 -0.0059313038 4278473384
0.046447802 0.012964588 -0.0070076967 4278473384
0.048336998 0.013095021 -0.0073942719 4278538918
0.049993701 0.01392848 -0.0084688412 4278735778
0.051880028 0.014058921 -0.0088546732 4278473638
0.053528499 0.014892008 -0.0099274134 4278342568
0.055411931 0.015022427 -0.010312517 4278604708
0.057538353 0.014450729 -0.010011635 4278539173
0.059424222 0.014581509 -0.010397089 4278604708
0.061806861 0.013308711 -0.0094128447 4278604708
0.064953469 0.009931758 -0.0063778865 4278735524
0.0049165227 0.0078632385 0.0010751132 4280049284
0.006467212 0.0094103962 -0.00071186386 4278801824
0.0081805997 0.010247748 -0.0017980519 4278867104
0.0098886825 0.011084892 -0.0028831069 4278604963
0.011948865 0.010504074 -0.0025720461 4278539429
0.013833057 0.010632388 -0.0029589464 4278997918
0.015901335 0.010052361 -0.0026494409 4278408103
0.017601542 0.010889325 -0.0037325337 4278670243
0.019675218 0.010309868 -0.0034239846 4278538918
0.021370105 0.011146668 -0.004505835 4278342314
0.023254398 0.0112755 -0.0048923674 4278735523
0.024941251 0.012111992 -0.0059724627 4278604453
0.027022973 0.011533439 -0.0056652194 4278669988
0.028907238 0.011662558 -0.0060515245 4278669988
0.030996941 0.011084817 -0.0057457918 4278407849
0.033091966 0.010507528 -0.005441084 4278604453
0.035192307 0.0099307001 -0.0051373965 4278604708
0.036657494 0.011473611 -0.0069056144 4278670243
0.03876042 0.01089716 -0.0066023013 4278539173
0.040649794 0.011027232 -0.006989195 4278538918
0.042982142 0.0097456612 -0.0059986892 4278669733
0.044876736 0.0098762885 -0.0063865031 4278801059
0.046544384 0.010712516 -0.0074617872 4278538918
0.048436139 0.01084315 -0.0078488635 4278866593
0.0503278 0.010973871 -0.0082358578 4278604708
0.052219369 0.011104681 -0.0086227572 4278932129
0.053873256 0.011940353 -0.0096949236 4278735779
0.05576193 0.012071155 -0.010081084 4278671008
0.057893403 0.011497658 -0.0097828647 4278801824
0.059538912 0.012333024 -0.010853109 4278932894
0.061923739 0.011056066 -0.0098725902 4278867869
0.065322943 0.0069644749 -0.0061635468 4279064218
0.0047887601 0.0063148588 -6.8562105e-05 4279982983
0.0065101758 0.0071548298 -0.0011548232 4278998173
0.0083994567 0.0072831884 -0.0015429966 4278867359
0.01028879 0.0074116364 -0.0019311183 4278736289
0.012356684 0.0068292022 -0.0016233437 4278867359
0.014248788 0.0069580525 -0.0020118677 4278867359
0.015957054 0.0077976361 -0.0030950434 4278866849
0.017659999 0.0086369589 -0.0041770502 4278801059
0.01973604 0.0080554858 -0.0038706432 4278801059
0.02162556 0.0081845671 -0.004258323 4278997664
0.023515079 0.0083137453 -0.0046459357 4279062688
0.025207356 0.0091527477 -0.005725441 4279128478
0.027294114 0.0085724071 -0.0054209265 4278997409
0.029183611 0.0087019056 -0.0058082934 4278997664
0.031483635 0.0074131563 -0.0048149242 4278997919
0.03337843 0.0075432137 -0.005203228 4279063453
0.035273191 0.0076733679 -0.0055914442 4279063708
0.036741301 0.009220846 -0.007356945 4278998683
0.038630616 0.0093508214 -0.0077439002 4279391383
0.040738527 0.0087726638 -0.0074431687 4278998428
0.042851727 0.0081949607 -0.0071434467 4278932893
0.044746201 0.0083255991 -0.0075312215 4278998428
0.046413913 0.0091640204 -0.0086048506 4278867613
0.048764281 0.0078795999 -0.0076210662 4278932893
0.050429128 0.0087180808 -0.008693995 4279391128
0.052557975 0.00814192 -0.0083970483 4279521943
0.053979885 0.009687148 -0.010152458 4279260569
0.05587111 0.009818159 -0.010539115 4279195289
0.05800496 0.0092426687 -0.010243024 4279457173
0.059898622 0.0093740299 -0.010630041 4280112524
0.062536418 0.0073868223 -0.0089721978 4280178569
0.065691635 0.0039887466 -0.0059555024 4280178569
0.0048286729 0.0040528625 -0.00051562395 4280768638
0.0067231134 0.0041814446 -0.00090495683 4279980943
0.0087906122 0.003596548 -0.00059887581 4279914899
0.010687847 0.0037255324 -0.00098861847 4279652759
0.012585133 0.0038546287 -0.0013782904 4279718293
0.014482457 0.0039838292 -0.0017678943 4279783828
0.016747184 0.0026874952 -0.00077121705 4279980434
0.018463563 0.0035299063 -0.0018543303 4280045714
0.020174613 0.0043720566 -0.0029362682 4279848343
0.021880306 0.0052139834 -0.0040170811 4280176274
0.023775056 0.0053435266 -0.0044057555 4279913624
0.02547274 0.0061850771 -0.0054847128 4279652249
0.027764294 0.0048911572 -0.0044930279 4279979924
0.029661695 0.0050211996 -0.0048820097 4280044948
0.032174349 0.0030172616 -0.0032047816 4281027464
0.034079723 0.0031480528 -0.003595246 4280831114
0.035774618 0.00398992 -0.0046732482 4280636038
0.037037868 0.0062531903 -0.0071242265 4281488759
0.038932409 0.0063835382 -0.0075122416 4281752174
0.040826894 0.0065139979 -0.0079001598 4281948778
0.042942479 0.0059342496 -0.0076025259 4282145384
-0.016269796 -0.029554494 -0.005244079 4280181628
-0.014484584 -0.028676853 -0.0063181194 4280115839
-0.012422852 -0.029296137 -0.0060367612 4282079338
-0.00087933987 -0.028518058 -0.0084132059 4282472039
0.0010449067 -0.028387956 -0.0088090403 4282275433
0.0031314828 -0.029004589 -0.0085320575 4282340714
0.0052234828 -0.029620796 -0.0082560657 4282274669
0.0073208883 -0.030236475 -0.007981143 4282078574
0.0092534274 -0.030105315 -0.0083783111 4281422968
0.011186019 -0.029974028 -0.0087754009 4281226619
0.013118658 -0.029842615 -0.0091723977 4280898433
0.015407912 -0.031202674 -0.0082304431 4279981708
0.017165009 -0.030325025 -0.0092972545 4280178059
0.019100428 -0.030193061 -0.0096945418 4279587733
0.021035861 -0.030060977 -0.010091747 4279260569
0.02297131 -0.029928744 -0.010488852 4278867613
0.025098417 -0.030541301 -0.010219193 4279195289
0.026842218 -0.02966395 -0.011282797 4279064218
0.028777668 -0.029531375 -0.011679634 4279129753
0.031112451 -0.030887343 -0.010746288 4279129753
0.034874365 -0.037451625 -0.0051634833 4278998683
0.039709479 -0.047732383 0.0037293388 4279326869
-0.027814977 -0.032649972 -0.0033461 4279916938
-0.026377924 -0.02951432 -0.0064608501 4279522709
-0.024588048 -0.028634802 -0.0075346539 4279457174
-0.02254869 -0.029258318 -0.0072507625 4279260824
-0.020503826 -0.02988141 -0.0069678826 4279195544
-0.018320799 -0.031255014 -0.0060089203 4279195544
-0.01639767 -0.031126052 -0.0064053414 4278933148
-0.014336392 -0.031747662 -0.0061256262 4278932894
-0.012551025 -0.030867748 -0.0071979826 4278998429
-0.01048414 -0.031488739 -0.0069192415 4278736033
-0.0085578524 -0.031359099 -0.0073159589 4279325339
-0.0064827316 -0.031979345 -0.0070387004 4279456663
-0.0047049485 -0.031099424 -0.0081091663 4279391129
-0.0027783476 -0.030969396 -0.0085056676 4278998173
-0.0010083839 -0.030089796 -0.0095743006 4278998429
0.0010751113 -0.030708961 -0.0092984466 4278932384
0.0028398931 -0.02982948 -0.010365839 4278801314
0.0050936341 -0.031196967 -0.0094203232 4278932894
0.0073581301 -0.032563552 -0.0084769679 4278933404
0.0094632767 -0.033180743 -0.008205194 4279130009
0.011228304 -0.032300755 -0.0092722503 4279129753
0.012988031 -0.031421028 -0.010338156 4278867614
0.015098669 -0.032037482 -0.010067216 4278801823
0.017214682 -0.032653466 -0.0097973002 4278735779
0.018969167 -0.031773686 -0.010861821 4278866594
0.020904448 -0.031641603 -0.011258989 4278408103
0.023028541 -0.032256663 -0.010990455 4278604198
0.025157992 -0.032871217 -0.010722908 4278735524
0.027098645 -0.032738388 -0.0111209 4278866849
0.028645653 -0.031112053 -0.01284676 4279063454
0.030979924 -0.032472402 -0.011916608 4278736543
0.035144381 -0.040549055 -0.0050224699 4279063708
0.040596638 -0.053098485 0.0058337329 4279653014
-0.027823001 -0.034977414 -0.0038305013 4279587734
-0.026382692 -0.031832889 -0.0069393357 4278997408
-0.024714619 -0.030197218 -0.0086893057 4278866849
-0.022802733 -0.030069366 -0.0090836706 4279063199
-0.020501196 -0.032201663 -0.0074496279 4279063198
-0.018315993 -0.033579484 -0.0064944285 4278866594
-0.016255155 -0.03420347 -0.0062163356 4278735524
-0.014188841 -0.034826919 -0.0059393267 4278473638
-0.012398109 -0.033944495 -0.0070111449 4278735268
-0.010469403 -0.03381481 -0.0074084471 4278538408
-0.0085405745 -0.033685006 -0.0078056934 4278669224
-0.0066116564 -0.033555083 -0.0082028694 4278866339
-0.0046826266 -0.033425018 -0.0085999621 4278866339
-0.0029073842 -0.032542989 -0.0096681705 4278735014
-0.00082428381 -0.033164524 -0.0093939444 4278735268
0.0011050068 -0.033034071 -0.0097908145 4278735268
0.003196273 -0.033654764 -0.0095181232 4278604198
0.0049638264 -0.032772809 -0.010584346 4278604198
0.0073950365 -0.03489466 -0.0089757778 4278604453
0.0093326196 -0.034763187 -0.0093739964 4278866594
0.011442844 -0.035382092 -0.0091048181 4278604963
0.01303269 -0.033749469 -0.010836922 4278539173
0.015145663 -0.034367949 -0.010568127 4278539429
0.017083421 -0.034235939 -0.010965988 4278735523
0.018837932 -0.033354007 -0.012028877 4278604453
0.020587116 -0.032472327 -0.013090584 4278538918
0.022896823 -0.033839181 -0.012159053 4278473384
0.025217239 -0.03520523 -0.011229593 4278473384
0.027354371 -0.035821319 -0.010965191 4278604453
0.02890693 -0.034190185 -0.012688912 4278604963
0.03144535 -0.036303297 -0.011101186 4278474404
0.035413671 -0.043654867 -0.004887708 4278998429
-0.027831323 -0.037308902 -0.0043179579 4279194778
-0.026387781 -0.034155495 -0.0074208784 4278800294
-0.024592496 -0.033271298 -0.0084925275 4278669733
-0.02254843 -0.033898897 -0.0082129408 4278604453
-0.020498872 -0.034525998 -0.0079344027 4278538918
-0.018311486 -0.035908066 -0.0069829039 4278538918
-0.016113311 -0.037289269 -0.0060336106 4278669988
-0.014179647 -0.037159503 -0.0064321272 4278735268
-0.012526542 -0.035519868 -0.008175157 4278735268
-0.010597978 -0.035390206 -0.0085724406 4278800549
-0.008669313 -0.035260424 -0.0089696608 4278735014
-0.0064438246 -0.036639199 -0.0080255345 4278735014
-0.0046606287 -0.035754621 -0.0090937987 4278735014
-0.0025752895 -0.036378272 -0.0088218153 4278800549
-0.00079724938 -0.035493821 -0.0098888353 4278669733
0.0012936108 -0.036116824 -0.0096177869 4278669733
0.0033898838 -0.036739349 -0.0093477853 4278538663
0.0051628128 -0.035854883 -0.010413475 4278669733
0.0074316263 -0.037229866 -0.0094776079 4278538918
0.0092019998 -0.036345318 -0.010542586 4278473638
0.011311881 -0.036966421 -0.010274991 4278801313
0.013077009 -0.03608197 -0.011338692 4278473638
0.015370082 -0.037454851 -0.010407396 4278408103
0.017493449 -0.038074665 -0.010142282 4278473384
0.019256003 -0.037190028 -0.011205181 4278538918
0.020827465 -0.035553768 -0.012929861 4278538918
0.022953566 -0.036173016 -0.012665026 4278407849
0.025276132 -0.037543274 -0.011739321 4278669988
0.027415607 -0.038161352 -0.011477031 4278538918
0.028971057 -0.036525734 -0.013198018 4278670243
0.031511441 -0.038645163 -0.011615675 4278473893
0.035682265 -0.046769135 -0.0047591222 4278867104
-0.027958743 -0.038885951 -0.0054835044 4279194778
-0.026393183 -0.03648217 -0.0079054348 4278866594
-0.024471052 -0.036353759 -0.0083020218 4278473128
-0.022421949 -0.036983199 -0.0080251321 4278407593
-0.020237885 -0.038369969 -0.007076364 4278866338
-0.018175155 -0.038998261 -0.0068021044 4278669988
-0.016241774 -0.038868666 -0.0072006695 4278800803
-0.014445752 -0.037981689 -0.0082703978 4278604198
-0.01279512 -0.03633783 -0.010009669 4278735268
-0.010869365 -0.036208376 -0.010406382 4278800549
-0.0087980069 -0.036835529 -0.010133404 4278669479
-0.0067211986 -0.03746216 -0.0098615028 4278735014
-0.0046389513 -0.038088314 -0.0095906407 4278669479
-0.0025512725 -0.038713962 -0.0093207844 4278472873
-0.00045815483 -0.039339125 -0.0090519674 4278604198
0.0014815256 -0.039207987 -0.0094509907 4278604198
0.003582824 -0.039832413 -0.0091836378 4278735268
0.0053611137 -0.038945355 -0.010248814 4278407594
0.0074678883 -0.039569154 -0.0099823885 4278473384
0.0090714097 -0.037927136 -0.011710938 4278538918
0.011353187 -0.039305381 -0.010780815 4278997409
0.013295911 -0.03917329 -0.01117989 4279062944
0.015593801 -0.040550143 -0.010252919 4278800804
0.017541934 -0.040417448 -0.01065293 4278866339
0.019307192 -0.039530449 -0.011714727 4278931618
0.021067124 -0.038643681 -0.012775339 4278735524
0.023386482 -0.040018559 -0.011852391 4278538918
0.025525618 -0.040638976 -0.011591792 4278932128
0.027476501 -0.040505439 -0.011991866 4278866594
0.029427379 -0.040371783 -0.012391847 4278669988
0.031975087 -0.04249727 -0.010815918 4278604453
0.035950139 -0.049891755 -0.0046367729 4278866339
-0.027967513 -0.041223392 -0.0059753768 4279260059
-0.02639889 -0.038812906 -0.0083930045 4279062944
-0.024350256 -0.039444715 -0.0081177279 4278735014
-0.022169501 -0.040836141 -0.0071717091 4278669479
-0.020107232 -0.041466758 -0.0068990998 4278538408
-0.018171474 -0.041337132 -0.0072982572 4278735014
-0.016504839 -0.039688155 -0.0090376846 4278801059
-0.01471144 -0.038799189 -0.010105215 4278735524
-0.012783304 -0.038669713 -0.010502528 4278866849
-0.010712385 -0.03929916 -0.01023126 4278997919
-0.0087813362 -0.039169237 -0.01062898 4278932384
-0.006850183 -0.03903918 -0.011026632 4278407848
-0.0047682635 -0.039667524 -0.010757346 4278866594
-0.0026809126 -0.040295392 -0.010489088 4278473383
-0.00058813021 -0.040922754 -0.010221858 4278538408
0.0013513975 -0.040791631 -0.010620855 4278669989
0.0034523681 -0.041418239 -0.010355074 4278866849
0.0053947158 -0.041286699 -0.01075447 4278735779
0.0073371232 -0.041155018 -0.011153776 4278800549
0.0091102161 -0.04026591 -0.012216058 4278997153
0.011394151 -0.041648358 -0.011289682 4278735524
0.013688814 -0.043029882 -0.010365434 4278735269
0.015994214 -0.044410616 -0.0094432682 4278931618
0.017950214 -0.04427737 -0.0098448843 4278931618
0.019906236 -0.044144019 -0.010246415 4278997153
0.021862285 -0.044010505 -0.010647837 4278800549
0.023818346 -0.043876886 -0.011049189 4278931618
0.025965156 -0.044498935 -0.010791801 4278932383
0.027923899 -0.044364877 -0.011193495 4278670498
0.029882638 -0.044230685 -0.0115951 4278604453
0.03243766 -0.046362162 -0.010025599 4278866084
0.03621731 -0.053022861 -0.0045206225 4279128223
-0.027739681 -0.045090638 -0.0051265028 4279456409
-0.026162654 -0.042673111 -0.0075409263 4278931618
-0.024230123 -0.042544052 -0.0079396926 4278800549
-0.022170998 -0.043177173 -0.0076681864 4278931618
-0.020106375 -0.043809816 -0.0073977229 4278800293
-0.018036269 -0.044442028 -0.0071282652 4279193759
-0.016229644 -0.043550111 -0.0081970282 4279063199
-0.014565364 -0.041896857 -0.0099325962 4279193758
-0.012632012 -0.041767031 -0.010330983 4279586713
-0.010556079 -0.042398319 -0.010062397 4279325084
-0.0086198449 -0.042268053 -0.010461193 4279455644
-0.0068313144 -0.041376792 -0.011525735 4279259549
-0.0047470555 -0.042007148 -0.011258591 4279259293
-0.002504196 -0.043397591 -0.010327723 4279127713
-0.00025057048 -0.044787139 -0.0093990238 4279127968
0.0018553212 -0.04541567 -0.0091360407 4279324829
0.0038054585 -0.045283727 -0.0095371353 4279389853
0.0055918209 -0.044391841 -0.010600645 4279324318
0.0075394176 -0.044259831 -0.011001039 4279520414
0.0096562654 -0.044887103 -0.010739919 4279783064
0.0117785 -0.045513913 -0.010479831 4279586458
0.013906144 -0.046140239 -0.010220692 4279718294
0.01621636 -0.047524929 -0.0093028555 4279979924
0.018357418 -0.048150055 -0.0090463283 4279389854
0.02068641 -0.04953324 -0.0081320936 4279325084
0.022655655 -0.049398862 -0.0085362503 4279128989
0.025000699 -0.050780654 -0.0076251598 4279259548
0.026975319 -0.050645627 -0.0080301994 4279260059
0.028949935 -0.050510481 -0.0084351571 4279128989
0.031316373 -0.051890478 -0.0075281234 4281749369
0.034090646 -0.054784477 -0.0053124293 4281619574
0.037288778 -0.059191361 -0.0017913487 4281555058
-0.0273946 -0.04973565 -0.0036168704 4282274669
-0.025564626 -0.048840657 -0.0046892287 4281945718
-0.023739837 -0.047945872 -0.0057604136 4281749113
-0.021667674 -0.048580311 -0.0054932544 4281684853
-0.01971899 -0.048449963 -0.0058951909 4281815669
-0.017506897 -0.049847782 -0.0049620168 4282273138
-0.015686892 -0.048952803 -0.0060319053 4282534259
0.024742518 -0.060132414 -0.0018449333 4282863719
-0.01645992 -0.060880095 -0.013613986 4281879164
-0.001967527 -0.063055761 -0.024120813 4282994279
-0.0062092468 -0.00041789934 0.0027709305 4284904228
-0.003999263 -0.0017234907 0.0037747221 4284903718
0.00013424456 -0.002898816 0.0043829121 4285035554
0.039233491 0.0034077242 -0.0072868038 4285295399
0.041133203 0.0035385489 -0.0076757856 4285295399
0.043032855 0.0036694631 -0.0080646817 4285295654
0.045156069 0.0030882321 -0.007770218 4285426979
0.047284558 0.0025074668 -0.0074767526 4285426979
0.049876306 0.00050335005 -0.0058199223 4285426723
0.051789008 0.00063558295 -0.0062111709 4285492258
0.053467277 0.001479432 -0.0072833914 4285426468
0.054666054 0.0037457123 -0.0097155105 4285492258
0.05656774 0.0038774908 -0.010104273 4285427233
0.058954056 0.0025873929 -0.0091340411 4285426724
0.061105892 0.0020089597 -0.0088448096 4285426979
0.063758373 9.8049641e-06 -0.0071998965 4285426723
0.067428321 -0.00482985 -0.0028469143 4285426469
-0.058571212 0.0032896884 0.0036659669 4285230118
-0.056542993 0.0019650944 0.0047019757 4285361444
-0.054588281 0.0013651401 0.0050255302 4285361443
-0.05280216 0.0022129864 0.0039286185 4285361699
-0.051021151 0.0030605569 0.0028328151 4285296418
-0.049152799 0.0031845719 0.0024467204 4285361188
-0.047094047 0.0018624142 0.0034767222 4285427233
-0.045219913 0.0019869842 0.0030895658 4285296163
-0.043245099 0.0013888702 0.0034093559 4285361953
-0.041264758 0.00079117715 0.0037281197 4285427234
-0.039173074 -0.00052843243 0.0047515947 4285426979
-0.037287407 -0.00040275604 0.0043623112 4285295908
-0.035401523 -0.00027696043 0.0039730687 4285361188
-0.033629239 0.00057083368 0.0028796736 4285426724
-0.031629182 -2.5048852e-05 0.0031946674 4285295654
-0.029385328 -0.0020635761 0.0049147876 4285163818
0.039964698 -0.0010065734 -0.0057010488 4285426468
0.041874986 -0.00087499619 -0.0060921838 4285426979
0.043564431 -2.8707087e-05 -0.0071654189 4285426978
0.045695364 -0.00061157346 -0.0068741837 4285426978
0.047831573 -0.0011939779 -0.0065839482 4285426724
0.050430667 -0.0032040998 -0.0049335663 4285427234
0.05235127 -0.0030712858 -0.0053264094 4285427233
0.054037608 -0.0022246465 -0.0063986597 4285427234
0.055244852 4.8741698e-05 -0.0088274796 4285493023
0.057154439 0.00018108636 -0.0092178416 4285558814
0.059548274 -0.0011127777 -0.008252481 4285426978
0.061707828 -0.0016928315 -0.0079664625 4285426978
0.064120136 -0.0029852316 -0.0070046675 4285426723
0.068044215 -0.0085524172 -0.001987868 4285426468
-0.060329132 -0.00054178759 0.0050524548 4285163564
-0.058535673 0.00030841306 0.003955448 4285295143
-0.05658415 -0.00029403716 0.0042779297 4285360934
-0.054627046 -0.00089605525 0.004599303 4285361188
-0.052838184 -4.5910478e-05 0.0035034344 4285426979
-0.051054426 0.00080398843 0.0024086889 4285427234
-0.049275771 0.0016536228 0.0013150591 4285492514
-0.047122546 -0.00039828196 0.0030482411 4285426978
-0.045245856 -0.00027357787 0.002660526 4285361443
-0.043268673 -0.00087378919 0.0029781871 4285296163
-0.041388877 -0.00074870884 0.0025899597 4285426979
-0.039297655 -0.0020727441 0.0036101909 4285361443
-0.037412092 -0.0019471049 0.0032209093 4285295908
-0.035415381 -0.0025456026 0.0035347743 4285295908
-0.033526763 -0.0024195611 0.0031450102 4285426979
-0.031405374 -0.0037412606 0.004159336 4285361188
-0.029035188 -0.0065095797 0.0065744137 4285360424
0.038135812 -0.0034181252 -0.0057813106 4285425958
0.03983346 -0.002569288 -0.0068547283 4285492258
0.041961536 -0.0031547286 -0.0065647094 4285492513
0.043874308 -0.0030228719 -0.0069562648 4285492513
0.045787007 -0.0028909147 -0.0073477221 4285558304
0.047699634 -0.0027588606 -0.0077390899 4285492768
0.050069414 -0.0040592253 -0.0067724856 4285492513
0.052218523 -0.0046427175 -0.0064863181 4285492513
0.054138899 -0.0045098066 -0.0068790307 4285492513
0.05558588 -0.0029453337 -0.0086262608 4285492768
0.057500694 -0.0028126091 -0.0090176808 4285558304
0.059657391 -0.0033951029 -0.0087327836 4285426979
0.062308654 -0.0054075047 -0.0070975469 4285492258
0.064728498 -0.0067037195 -0.0061405851 4285426723
0.068658963 -0.012287781 -0.0011383267 4285426979
-0.060299605 -0.0035340823 0.0053351829 4285228844
-0.058500737 -0.0026813373 0.0042386437 4285360423
-0.056544177 -0.0032857358 0.0045584189 4285360933
-0.054581992 -0.0038896203 0.0048770728 4285426979
-0.052787729 -0.0030369908 0.0037817033 4285492514
-0.050998576 -0.0021845624 0.0026874198 4285492513
-0.049030356 -0.0027878322 0.0030050566 4285493024
-0.046961844 -0.0041181371 0.0040263692 4285493025
-0.044979841 -0.0047202855 0.00434124 4285492514
-0.043092355 -0.0045948178 0.0039513307 4285492768
-0.041204639 -0.0044692457 0.0035614492 4285492514
-0.03921131 -0.0050703734 0.0038741855 4285492513
-0.037320532 -0.0049444214 0.0034837993 4285492513
-0.035429552 -0.0048183501 0.0030934447 4285427234
-0.033538371 -0.0046921894 0.00270312 4285492003
-0.031414777 -0.0060181171 0.0037136646 4285426213
-0.029042751 -0.0087950379 0.0061217295 4285360168
0.038004529 -0.0049827583 -0.0069364337 4285491494
0.040132344 -0.0055704787 -0.0066480832 4285492258
0.042483207 -0.0068769604 -0.0056811897 4285492513
0.044403873 -0.0067445561 -0.0060743531 4285492514
0.045878287 -0.0051743351 -0.007824271 4285558304
0.047793459 -0.0050420985 -0.0082161548 4285492768
0.04993698 -0.0056281909 -0.0079306057 4285492513
0.052316885 -0.0069321394 -0.0069692498 4285558304
0.054473598 -0.0075171217 -0.0066862451 4285492513
0.05616264 -0.0066658184 -0.0077555748 4285558304
0.057846218 -0.0058148056 -0.0088237161 4285492513
0.060007952 -0.0063991174 -0.0085414937 4285492513
0.062419388 -0.0077003017 -0.0075862231 4285492514
0.064841405 -0.0090006888 -0.0066329883 4285492259
0.068772942 -0.014602065 -0.0016441662 4285426724
-0.05838789 -0.0064103678 0.0052220998 4285492004
-0.056504808 -0.0062858462 0.004832604 4285492513
-0.054621473 -0.0061612204 0.0044431249 4285492513
-0.052824482 -0.0053062737 0.0033488134 4285558049
-0.050943345 -0.005181618 0.002959921 4285558049
-0.049061991 -0.005056873 0.0025710398 4285558048
-0.046991266 -0.0063914061 0.0035885638 4285492513
-0.045104116 -0.0062660947 0.0031986246 4285492513
-0.043016918 -0.0075993985 0.0042129243 4285492768
-0.041124001 -0.0074735135 0.0038219383 4285492513
-0.039230861 -0.0073475242 0.0034309691 4285492513
-0.037337534 -0.0072214454 0.0030400241 4285492514
-0.035554588 -0.0063665658 0.001949192 4285426979
-0.033663526 -0.0062404275 0.0015588747 4285492514
-0.031308539 -0.0090273321 0.0039637452 4285426469
-0.028932005 -0.011812679 0.006364244 4285491238
0.037873257 -0.0065470785 -0.0080913221 4285426468
0.039785884 -0.0064154342 -0.0084829992 4285492513
0.042351119 -0.0084478483 -0.0068408502 4285426978
0.044271655 -0.0083154291 -0.0072339745 4285426979
0.045969203 -0.0074618608 -0.0083038425 4285426978
0.047661345 -0.006608583 -0.0093724681 4285493024
0.04980455 -0.0071968734 -0.0090885023 4285426978
0.052414879 -0.0092256367 -0.0074551804 4285426978
0.054807566 -0.010532908 -0.0064996378 4285361699
0.05673828 -0.01039914 -0.0068943528 4285361443
0.058429934 -0.0095453337 -0.0079625221 4285295653
0.060841009 -0.010851018 -0.0070105018 4285361444
0.063262641 -0.012155816 -0.0060605905 4285427233
0.065941818 -0.01417917 -0.0044408566 4285361443
0.069635466 -0.019077927 -0.00013895519 4285361188
-0.05843278 -0.0086863413 0.0047862204 4285492003
-0.05662819 -0.0078289136 0.0036918381 4285492258
-0.054661252 -0.0084369406 0.0040061241 4285492513
-0.052861504 -0.0075796619 0.0029128725 4285492513
-0.050888762 -0.0081871152 0.0032260986 4285492513
-0.049002178 -0.0080620646 0.0028361054 4285558304
-0.047020964 -0.0086687729 0.0031477166 4285558049
-0.0450342 -0.0092750788 0.0034582848 4285492513
-0.04304187 -0.009880878 0.0037677316 4285558304
-0.041043982 -0.010486215 0.0040761037 4285492513
-0.039250702 -0.0096287429 0.0029846588 4285492514
-0.037354812 -0.0095025152 0.0025931681 4285558304
-0.035569139 -0.0086453557 0.0015034461 4285492514
-0.033562429 -0.009249717 0.0018102909 4285492258
-0.031434461 -0.010584086 0.0028132265 4285492003
-0.029058762 -0.013378225 0.0052072648 4285491239
0.038166031 -0.009558998 -0.0078912554 4285360933
0.040083874 -0.0094269663 -0.0082839848 4285426979
0.042436406 -0.010742016 -0.007324026 4285427489
0.044359483 -0.010609418 -0.0077176667 4285230629
0.046059772 -0.0097534955 -0.0087863738 4285361189
0.04820542 -0.010343879 -0.0085046338 4285426723
0.051040541 -0.013102308 -0.006201576 4285426979
0.054127708 -0.016581811 -0.0032292549 4285360934
0.056541268 -0.017891943 -0.0022813249 4285295654
0.058965437 -0.019201249 -0.0013354216 4285229863
0.060922652 -0.019065514 -0.0017354507 4285360679
0.063362628 -0.020373493 -0.00079267658 4285295144
0.065813176 -0.021680638 0.00014808588 4285360679
-0.058321506 -0.012436688 0.0057538906 4285492258
-0.056508839 -0.011576608 0.0046594525 4285492514
-0.05461774 -0.011451557 0.0042682914 4285427233
-0.052898809 -0.0098571405 0.0024738954 4285361188
-0.050923675 -0.01046665 0.0027849441 4285426979
-0.049034543 -0.010341473 0.002394394 4285427234
-0.047050945 -0.010950282 0.0027038688 4285427233
-0.045158677 -0.010824703 0.0023128213 4285426979
-0.043166652 -0.011432722 0.0026206551 4285361188
-0.04116907 -0.012040302 0.0029274048 4285426979
-0.039270818 -0.01191403 0.0025353329 4285493025
-0.037479945 -0.011054486 0.0014460897 4285426724
-0.035583988 -0.010928199 0.0010546269 4285427489
-0.033574916 -0.011534601 0.0013593091 4285492768
-0.031444743 -0.01287324 0.0023585074 4285426469
-0.029303707 -0.014211014 0.0033554994 4285360169
0.038458101 -0.012579411 -0.0076973918 4285164838
0.040166646 -0.011721067 -0.0087663801 4285099559
0.042304154 -0.012314513 -0.0084848721 4285099813
0.044666812 -0.013633028 -0.0075302324 4285099559
0.046595026 -0.013499945 -0.0079248194 4285164839
0.048973601 -0.014817193 -0.0069732349 4285230374
0.053185843 -0.021933764 -0.00064389221 4285099049
-0.057899065 -0.019149125 0.0095186634 4285033004
-0.055986971 -0.019022807 0.0091230711 4285230883
-0.054158002 -0.018159434 0.0080269417 4285230373
-0.052334122 -0.017296299 0.0069319485 4285360679
-0.050515346 -0.016433418 0.0058380608 4285426214
-0.0486103 -0.016307205 0.0054442007 4285426469
-0.046799071 -0.015444636 0.004352022 4285426469
-0.044992976 -0.014582276 0.0032609254 4285295398
-0.04329136 -0.012984306 0.0014737621 4285360933
-0.041192025 -0.014329821 0.0024755877 4285360933
-0.03929124 -0.014203429 0.0020829625 4285295398
-0.037390254 -0.014076933 0.0016903672 4285295654
-0.035599127 -0.013215125 0.0006027706 4285426979
-0.033700429 -0.013088584 0.000210803 4285426979
-0.031686127 -0.013696745 0.00051280111 4285294888
-0.029784381 -0.013569802 0.00012035295 4285229609
-0.010468587 -0.013759717 -0.0024257707 4285884448
-0.0087073296 -0.012898445 -0.0035060882 4285753123
-0.0066510439 -0.013502419 -0.003211699 4285818658
-0.0044364855 -0.014838234 -0.0022321302 4285884449
-0.0023666173 -0.015441082 -0.0019403696 4285753124
-0.00029129907 -0.016043492 -0.0016496088 4285490729
0.0014677644 -0.015181765 -0.0027290918 4285556518
0.003221564 -0.014320329 -0.0038073692 4285557539
0.0053024516 -0.014921978 -0.0035175397 4285557539
0.0070510507 -0.014060669 -0.0045945714 4285623074
0.009308964 -0.01539281 -0.0036232788 4285557284
0.01122921 -0.015262321 -0.0040177908 4285557028
0.013503257 -0.016593084 -0.0030496772 4285491493
0.015249379 -0.015731499 -0.0041258615 4285491748
0.017354649 -0.016330801 -0.0038405173 4285294379
-0.010885369 -0.013850197 -0.004951363 4285361188
-0.0091294199 -0.012987137 -0.0060289535 4285426724
-0.0072287545 -0.012858994 -0.0064202189 4285557539
-0.0050226972 -0.014199801 -0.0054421718 4285557539
-0.0028058663 -0.015539713 -0.0044663027 4285491749
-0.00073622167 -0.016144648 -0.0041760691 4285492004
0.0011781901 -0.016015127 -0.0045698266 4285492258
0.0030926913 -0.015885502 -0.0049635172 4285558559
0.0050072595 -0.015755743 -0.0053571276 4285624094
0.0069219023 -0.015625864 -0.0057506673 4285558303
0.0090079531 -0.016229123 -0.0054633822 4285558304
0.01127344 -0.017564982 -0.0044968594 4285492258
0.013549656 -0.018899962 -0.0035325065 4285623329
0.015298493 -0.018036 -0.0046075899 4285557793
0.017224066 -0.017904811 -0.0050029382 4285361188
0.019149661 -0.017773502 -0.005398212 4285295654
-0.010579199 -0.017617889 -0.0040469766 4285427489
-0.0089623034 -0.016015075 -0.0058086831 4285427233
-0.0069066361 -0.016623475 -0.0055174977 4285492259
-0.0048455298 -0.01723139 -0.0052273329 4285492259
-0.0027789772 -0.017838821 -0.0049382187 4285557538
-0.00086478144 -0.017709456 -0.0053320266 4285558048
0.0012099743 -0.018316105 -0.0050444156 4285558048
0.0031270012 -0.018186316 -0.005438637 4285492513
0.0052099414 -0.018792219 -0.0051524881 4285558303
0.0069612712 -0.017926358 -0.0062268469 4285558303
0.0088785067 -0.017796203 -0.0066208355 4285558304
0.011143494 -0.019136466 -0.0056575295 4285492768
0.013419211 -0.020475812 -0.0046963715 4285493024
0.015168082 -0.019609697 -0.0057698209 4285493024
0.017275378 -0.020213217 -0.0054881964 4285427234
-0.010274045 -0.021398395 -0.0031520692 4285230374
-0.00879585 -0.019051418 -0.0055946968 4285427489
-0.0067351684 -0.019661665 -0.0053062029 4285493023
-0.004821308 -0.019532546 -0.0057001263 4285558559
-0.0027523935 -0.020142019 -0.005413156 4285492768
-0.00067804009 -0.020751044 -0.0051271752 4285558559
0.0014017411 -0.021359548 -0.004842265 4285558304
0.0034869425 -0.02196756 -0.0045583737 4285492768
0.0052462779 -0.021099143 -0.0056327716 4285492513
0.0071686581 -0.020968758 -0.0060279164 4285558304
0.0089201033 -0.020100661 -0.0071005207 4285427233
0.011013582 -0.02070763 -0.0068179704 4285427233
0.013288788 -0.022051394 -0.0058600293 4285427233
0.015395738 -0.022657268 -0.0055800327 4285493024
0.017326362 -0.022525743 -0.0059764259 4285493024
-0.01025809 -0.023708463 -0.0036294968 4285230373
-0.008630082 -0.022096187 -0.0053869472 4285493024
-0.0064149313 -0.023449577 -0.0044208081 4285493023
-0.0046452954 -0.02257888 -0.005496115 4285558559
-0.0024165921 -0.023931071 -0.0045326264 4285558304
-0.00049198791 -0.023801021 -0.0049285875 4285558304
0.0015928112 -0.024411365 -0.0046463707 4285558304
0.0036830492 -0.025021255 -0.0043651299 4285558304
0.0054477639 -0.024150275 -0.0054390342 4285427233
0.0072072037 -0.023279577 -0.0065117241 4285493025
0.0089613572 -0.022409126 -0.0075832405 4285493024
0.0108837 -0.02227851 -0.007978199 4285493024
0.013334569 -0.024366118 -0.0063485899 4285427233
0.015265021 -0.024234734 -0.0067450483 4285493024
0.017377011 -0.02484227 -0.0064676879 4285493024
-0.010242447 -0.026022606 -0.0041099442 4285230374
-0.0084649734 -0.02514945 -0.0051854053 4285361698
-0.0065434836 -0.025019974 -0.0055810087 4285492768
-0.0046218894 -0.024890378 -0.0059765493 4285558814
-0.0025456026 -0.025503702 -0.005694407 4285427233
-0.00046388432 -0.026116572 -0.0054133078 4285427233
0.0016232803 -0.026728965 -0.0051331846 4285427233
0.0037158541 -0.027340844 -0.0048541231 4285427233
0.0054832809 -0.026467562 -0.0059269061 4285492769
0.0070774667 -0.024852313 -0.0076734 4285493024
0.0088316537 -0.023979686 -0.0087432703 4285427488
0.010927152 -0.024590887 -0.0084644491 4285427489
