# .PCD v0.7 - Point Cloud Data file format
VERSION 0.7
FIELDS x y z rgba
SIZE 4 4 4 4
TYPE F F F U
COUNT 1 1 1 1
WIDTH 977
HEIGHT 1
VIEWPOINT 0 0 0 1 0 0 0
POINTS 977
DATA ascii
-0.027581763 -0.021487594 0.0052195257 4281109574
-0.025654186 -0.02136685 0.0048404085 4281174598
-0.023726467 -0.021245971 0.0044613527 4281370184
-0.021798592 -0.021125019 0.0040823212 4281501254
-0.019870576 -0.021003909 0.0037033586 4281892933
-0.018070664 -0.020153619 0.0026280535 4283988778
-0.043499578 -0.036624737 0.019422194 4281697348
-0.041901533 -0.033568375 0.016227154 4281567554
-0.04013275 -0.031979807 0.014438584 4281108043
-0.038571741 -0.028925598 0.011251025 4281173833
-0.036930617 -0.026605524 0.0087677315 4280978248
-0.034993362 -0.026484713 0.0083863046 4281175109
-0.03305592 -0.026363805 0.0080049038 4281110084
-0.0311183 -0.026242785 0.0076235496 4280979268
-0.029292528 -0.025389358 0.0065442808 4280979524
-0.027586635 -0.023803972 0.0047686538 4280979013
-0.025773909 -0.022951141 0.0036921157 4281174088
-0.023846325 -0.022830315 0.0033130525 4281435973
-0.021673102 -0.024172634 0.0043257829 4281304649
-0.019739863 -0.024051234 0.0039457753 4281827399
-0.017934579 -0.023198396 0.002870976 4283987758
0.014034979 -0.01747483 -0.006998715 4283199044
0.015777458 -0.016623937 -0.0080596032 4282806089
-0.03750987 -0.039348692 0.018479738 4282870349
-0.036139745 -0.034814581 0.013899513 4281891403
-0.034801524 -0.030282348 0.0093256552 4281630283
-0.032962713 -0.029426128 0.0082452204 4281565259
-0.031238232 -0.027835488 0.0064690411 4281108043
-0.029300559 -0.027714387 0.006087739 4281108299
-0.027477268 -0.026858836 0.0050106477 4280978249
-0.025541928 -0.026737645 0.0046299696 4281239368
-0.02372634 -0.025882356 0.0035545677 4281369674
-0.021670807 -0.02649492 0.0038687699 4281369673
-0.020110767 -0.024172388 0.0014070179 4281631559
-0.018182877 -0.024051249 0.0010281187 4283986993
0.013566103 -0.017589316 -0.009508607 4282544968
0.01530325 -0.016736574 -0.010566824 4282152013
0.017213874 -0.016614296 -0.010940679 4282545223
0.018942999 -0.015761793 -0.011997207 4282806854
0.021035153 -0.016369395 -0.011688151 4283262793
-0.032976445 -0.031759955 0.0077835992 4281821533
-0.029532265 -0.028570116 0.0042386986 4280581468
-0.027482871 -0.029185615 0.0045522153 4280779094
-0.025427956 -0.029800646 0.0048647337 4281107024
-0.023606975 -0.028942853 0.0037898757 4281433934
-0.021913614 -0.027349278 0.0020234529 4281630539
-0.020105716 -0.026492044 0.00095129386 4281892424
-0.01830304 -0.025635064 -0.0001197122 4284050488
0.013617817 -0.019893073 -0.0099638691 4281957193
0.01518169 -0.018305346 -0.011703146 4281564495
0.017270822 -0.018915541 -0.011395353 4281695053
0.019002665 -0.018060707 -0.012450735 4281499723
0.020913165 -0.017938197 -0.012824389 4281042253
0.022636963 -0.0170836 -0.013878056 4281499469
0.024355406 -0.016229272 -0.014930545 4281761098
0.025876433 -0.014643587 -0.016660914 4281892168
0.027776174 -0.014521316 -0.017032124 4282023239
0.029675888 -0.014398903 -0.017403234 4282350914
0.031375475 -0.013545267 -0.018451728 4283789114
0.03306967 -0.012691915 -0.019499041 4284115258
0.013669215 -0.02220092 -0.010422097 4281696074
0.015411764 -0.021343462 -0.011478133 4281303374
0.017148972 -0.020486221 -0.012533017 4281303883
0.019062001 -0.020363674 -0.01290726 4281042763
0.020791195 -0.0195067 -0.013960405 4281304138
0.02270155 -0.019384094 -0.014333948 4281434699
0.024422687 -0.018527344 -0.015385379 4281434188
0.026138468 -0.017670885 -0.016435631 4281434699
0.027848866 -0.016814642 -0.017484743 4281304138
0.029948352 -0.017425515 -0.017179981 4281566534
0.031653337 -0.016569383 -0.01822786 4282025279
0.033352926 -0.015713498 -0.019274604 4282351934
0.035047095 -0.014857784 -0.020320237 4283007538
0.03756769 -0.016933374 -0.018667527 4283661103
0.040104296 -0.019007854 -0.017017882 4283987504
0.043083534 -0.022545964 -0.014024794 4284183088
0.0458735 -0.025349975 -0.011709526 4284639539
0.013893258 -0.025250092 -0.010203768 4281761353
0.01546555 -0.023653053 -0.011938235 4281238093
0.017383773 -0.023530282 -0.012313576 4281238348
0.019302007 -0.023407407 -0.01268884 4281042763
0.021036584 -0.022547908 -0.013741415 4281173068
0.022952151 -0.022424959 -0.014115971 4281303884
0.024678683 -0.02156572 -0.015166784 4281369164
0.026399843 -0.020706721 -0.016216464 4281369419
0.028310012 -0.020583764 -0.016589705 4281173833
0.030220158 -0.020460665 -0.016962837 4281305414
0.031730771 -0.018866494 -0.018684439 4281436229
0.033433065 -0.018008217 -0.019730065 4281371203
0.035129961 -0.017150179 -0.020774562 4281436484
0.037860349 -0.019967154 -0.018454436 4281501764
0.041453935 -0.025721759 -0.013449762 4281697858
0.046156023 -0.035146564 -0.0050950651 4281763138
0.012187894 -0.028430909 -0.0096140318 4283922988
0.013943855 -0.027568333 -0.010669522 4281826889
0.015694488 -0.026705973 -0.011723876 4281500489
0.017261636 -0.025104754 -0.013453985 4281239114
0.01936054 -0.025720753 -0.01315289 4281108043
0.02091432 -0.024120197 -0.014880169 4281369419
0.022829738 -0.023997262 -0.015254706 4281369419
0.02455629 -0.023135833 -0.016303893 4281238603
0.026469011 -0.023012817 -0.016677715 4281239113
0.028187498 -0.022151679 -0.017725155 4281174344
0.029900596 -0.021290705 -0.018771481 4281174598
0.031807877 -0.021167681 -0.019143973 4281174853
0.033715129 -0.021044537 -0.019516367 4281174853
0.035417408 -0.020183951 -0.020560272 4281175109
0.037529487 -0.020797893 -0.020260856 4281566789
0.041960031 -0.029518247 -0.012585998 4281502019
0.011725683 -0.028530315 -0.012114335 4283593274
0.013648916 -0.028407484 -0.012490854 4281695563
0.015572179 -0.028284535 -0.012867279 4281369419
0.017317483 -0.027420163 -0.013918918 4281305414
0.019418759 -0.028038256 -0.013619877 4281240134
0.020608749 -0.024951264 -0.016692912 4281304138
0.022521339 -0.024828501 -0.017066883 4281434699
0.024622606 -0.025446184 -0.016767614 4281173833
0.026920576 -0.026803792 -0.015796661 4281173833
0.028841168 -0.026680142 -0.016171921 4281109064
0.030171571 -0.024336256 -0.018561868 4280913733
0.03208407 -0.024212897 -0.018935377 4281174854
0.033794452 -0.02334971 -0.019979324 4280979524
0.035499424 -0.022486702 -0.021022163 4281044548
0.037613872 -0.023102731 -0.020724792 4281632834
0.042465094 -0.033327632 -0.011731561 4281567554
0.017195223 -0.028996222 -0.015060484 4280907104
0.019115692 -0.02887319 -0.015436176 4281040214
0.020486698 -0.026520759 -0.017829644 4281041234
0.022584971 -0.02714093 -0.017531496 4281107024
0.024877107 -0.028503396 -0.01656273 4281171794
0.027371146 -0.030607663 -0.014924876 4281435209
0.029299621 -0.030483514 -0.015301686 4281370694
0.030638415 -0.028132476 -0.017688431 4281174088
0.032359574 -0.027266532 -0.018732945 4281370184
0.034277238 -0.027142711 -0.01910737 4281175109
0.035990283 -0.026277028 -0.02015011 4281239623
0.037905179 -0.026153147 -0.020523813 4281566024
0.042759188 -0.036408477 -0.011553877 4281631304
0.022462621 -0.02871231 -0.018669561 4280645219
0.025507635 -0.033059046 -0.015024003 4280908633
0.028393757 -0.036658801 -0.012054075 4281105749
0.030725557 -0.038022876 -0.011096087 4281173323
0.032086141 -0.035663858 -0.013482202 4281108043
0.033629697 -0.034050077 -0.015197169 4281434954
0.035162482 -0.032436818 -0.016909979 4281566789
0.036684528 -0.030824162 -0.018620547 4281631813
0.038817078 -0.031443313 -0.018329978 4281631049
0.043681905 -0.041728556 -0.009384905 4281499979
0.037658513 -0.043722987 -0.0094020264 4282346578
0.039011315 -0.041357532 -0.011781466 4282216784
0.040968761 -0.041230865 -0.01216345 4281759314
-0.051102523 0.02805198 0.043949265 4278799784
-0.053540383 0.029678103 0.039403535 4279127713
-0.050578695 0.036576539 0.031115536 4279454113
-0.048611235 0.036028787 0.031499326 4279061413
-0.046457317 0.034150243 0.033387665 4278995368
-0.043821644 0.028945655 0.039034173 4278667694
-0.032560688 0.030997094 0.035280775 4278926773
-0.055641849 0.02865383 0.037884038 4281423479
-0.054216083 0.032783888 0.032989997 4278341293
-0.050781023 0.035693109 0.029238775 4278337979
-0.042219985 0.028822498 0.036014136 4278733738
-0.040214259 0.028275089 0.036388949 4278996134
-0.038404878 0.029062415 0.035264466 4278602669
-0.037222434 0.033851195 0.029649738 4278798764
-0.03586467 0.037304126 0.025538437 4278273463
-0.033988494 0.037422329 0.025169928 4278274484
-0.056374002 0.032449629 0.030727532 4278997154
-0.054651257 0.033908796 0.028854076 4278472363
-0.052856904 0.034696847 0.02773387 4278668458
-0.051067647 0.035484653 0.026614714 4278471088
-0.049196091 0.035602015 0.026246708 4278471089
-0.047144126 0.034379438 0.027377848 4278471344
-0.044895712 0.031817898 0.030005042 4278733738
-0.042816479 0.030597165 0.031130921 4278930854
-0.040922511 0.030716177 0.03075869 4278865319
-0.039129112 0.031504601 0.029638987 4278667948
-0.036194626 0.037094712 0.022924129 4278601138
-0.034215044 0.03654366 0.023302592 4279323553
-0.031895388 0.03398709 0.02591607 4278601903
-0.024806533 0.026325818 0.033731423 4278668458
-0.022889238 0.026446894 0.033355054 4278406828
-0.021346521 0.028571526 0.030750442 4278603179
-0.019819725 0.030695183 0.028149061 4278470069
-0.018178571 0.032150466 0.026292488 4278403004
-0.058150779 0.028759111 0.032225337 4280636294
-0.056873817 0.034261793 0.025848668 4278800039
-0.055164207 0.035724457 0.023981009 4278798764
-0.053219382 0.035168383 0.024364121 4278798764
-0.051268954 0.034612715 0.024746168 4279126694
-0.049312923 0.03405742 0.025127206 4278472618
-0.047261398 0.032830358 0.02625512 4278407083
-0.045198884 0.031604052 0.027380925 4278537898
-0.043315951 0.031722251 0.027010772 4278734503
-0.04153074 0.03251224 0.025894225 4278472363
-0.039951872 0.034645062 0.023286987 4278864808
-0.02777769 0.02998854 0.027020629 4278668458
-0.026001517 0.03077849 0.02590625 4278799273
-0.024352569 0.032238383 0.024051283 4278537134
-0.020958941 0.034486555 0.021088274 4279126439
-0.019208882 0.035275131 0.019979233 4279455643
-0.016932871 0.033385396 0.021829482 4278274738
-0.014098685 0.028819311 0.026632804 4278733484
-0.011226814 0.02425573 0.031428747 4278733229
-0.0032335743 0.023406964 0.031392645 4278996389
-0.058784071 0.03192766 0.025848128 4279914899
-0.049603809 0.033862256 0.022513987 4278472363
-0.047558021 0.032630343 0.023639772 4278603689
-0.045593712 0.032073475 0.02401755 4278603689
-0.043718901 0.032191105 0.023648951 4278472874
-0.041941624 0.032982744 0.022535561 4278669224
-0.040269945 0.034447908 0.020678906 4278799273
-0.038299363 0.033891693 0.021055644 4279061413
-0.036429007 0.0340093 0.020688111 4279323298
-0.034558434 0.034127012 0.0203206 4279323298
-0.032687668 0.034244783 0.019953087 4278799273
-0.030588988 0.033016779 0.021068912 4278930854
-0.028479394 0.031789578 0.022182597 4278734248
-0.026716527 0.032580853 0.02107244 4278799783
-0.024836954 0.032699458 0.020703409 4278930343
-0.019846935 0.036415286 0.015903993 4278405044
-0.012728147 0.02938449 0.022911116 4278602924
-0.010550041 0.028162226 0.024011888 4278668969
-0.0085044391 0.027611813 0.02437469 4278406574
-0.0070375092 0.029745353 0.021795141 4278406318
-0.0038487948 0.032668516 0.018114189 4278469048
-0.0013458431 0.030106956 0.020679459 4278665653
-0.060486991 0.027555829 0.028090969 4280767108
-0.059194405 0.033094428 0.021737272 4278602668
-0.057487208 0.034565594 0.019876439 4278799528
-0.055711601 0.035358816 0.01876463 4279259293
-0.053777974 0.034797523 0.019146586 4278406574
-0.051838744 0.034236632 0.01952748 4278799018
-0.049807016 0.032999314 0.020652663 4278340274
-0.047853913 0.032439411 0.021030916 4278537898
-0.045802947 0.031203428 0.022152415 4278668969
-0.044025835 0.031997174 0.02104055 4278668713
-0.042253841 0.032790616 0.019929787 4278602924
-0.038622279 0.03370095 0.018453578 4278271679
-0.034567263 0.031909063 0.01994391 4278996388
-0.032804918 0.03270229 0.018835252 4278538154
-0.03093404 0.032820098 0.018467739 4278668968
-0.029179323 0.033612937 0.01736073 4278734503
-0.027310748 0.033730738 0.016993774 4278407083
-0.025563721 0.034523241 0.015888384 4278930343
-0.023821879 0.035315484 0.014784059 4278602668
-0.015555169 0.031744204 0.01773582 4278602669
-0.013399102 0.030516082 0.018837517 4278865319
-0.011372659 0.029962102 0.019202409 4278668713
-0.0096271262 0.030755149 0.018097706 4278472108
-0.0063003078 0.033013284 0.015158435 4278798253
-0.0045731999 0.033805341 0.014057556 4279651229
-0.0023896024 0.032579415 0.015154194 4279520924
0.0001180321 0.030009417 0.017712049 4278930854
0.0028065071 0.026768638 0.020996829 4278537133
0.0056838654 0.022857577 0.025006954 4278931618
0.0082641989 0.020292442 0.027550738 4279721099
-0.061169129 0.031443596 0.020990727 4279586713
-0.055984151 0.035189543 0.016166272 4278864554
-0.053974751 0.033946287 0.017292399 4278602413
-0.048059639 0.03157866 0.019171828 4278603434
-0.046011779 0.030338058 0.020290576 4278734248
-0.04423726 0.031133739 0.019180859 4278537388
-0.042467844 0.031929169 0.018072201 4278273463
-0.040803697 0.033402555 0.016223485 4278403769
-0.038841661 0.032841258 0.016598603 4278862258
-0.03468452 0.030364634 0.018824637 4279192228
-0.032700408 0.029804977 0.019195529 4278407083
-0.030824255 0.029923076 0.01882695 4278669479
-0.029180307 0.031395614 0.016982516 4278603434
-0.027665783 0.033544511 0.014402874 4278734759
-0.026045602 0.035015702 0.012563225 4278472363
-0.024187494 0.035132937 0.012198394 4278341293
-0.022202287 0.034573793 0.012569401 4278668458
-0.020081956 0.033338711 0.013674697 4278734248
-0.018083025 0.03278058 0.014043117 4278603434
-0.016078595 0.032222867 0.014410513 4278602923
-0.014068648 0.031665541 0.014776925 4278668714
-0.012053214 0.031108679 0.015142277 4278668713
-0.01031832 0.03190317 0.014041314 4278668969
0.0018900111 0.028571406 0.016212335 4278472108
0.0042674243 0.026669068 0.018028555 4278932383
0.006167572 0.02679014 0.017656352 4281818219
-0.062939823 0.027746046 0.022481745 4280701574
-0.061425459 0.031273585 0.018387798 4278997154
-0.050385322 0.03264977 0.015455773 4278865318
-0.048443425 0.032084666 0.015832884 4278865574
-0.046404015 0.03083905 0.016950032 4278930854
-0.042876009 0.032433487 0.014737923 4278537134
-0.041219648 0.033910692 0.012894019 4279127714
-0.039265882 0.033346675 0.013269052 4278996898
-0.037306551 0.032783069 0.013643038 4278799528
-0.033039201 0.029617963 0.016600018 4278472363
-0.031055134 0.029056096 0.016969357 4278799784
-0.029529657 0.031212198 0.014392328 4278668713
-0.028020088 0.033367373 0.011818482 4278602924
-0.0180686 0.030562015 0.013660235 4278668969
-0.016331349 0.0313586 0.012560252 4278472363
-0.014461834 0.031476915 0.012193451 4278472363
-0.012452032 0.030917464 0.012558248 4278537898
-0.011008121 0.033069149 0.0099978521 4278538154
-0.0092891417 0.033864923 0.008901637 4278668969
-0.0075754039 0.034660403 0.0078065582 4278603434
-0.0054142326 0.033424094 0.0089010093 4278276269
-0.0012156926 0.031630695 0.010355225 4278472873
0.0011342056 0.029719861 0.012171904 4278801823
0.0035002865 0.027810151 0.013985477 4278935698
-0.063055471 0.026205199 0.021364745 4279193758
-0.061470021 0.029059278 0.018022427 4278931874
-0.059832688 0.031227788 0.015427489 4279062434
-0.058135431 0.032711335 0.013578275 4278931108
-0.056370255 0.03351032 0.012473291 4278996388
-0.054448079 0.032941528 0.012852455 4278996389
-0.052436601 0.031689506 0.01397164 4278799784
-0.05058695 0.031805143 0.013607675 4278537898
-0.048826125 0.032604121 0.012503738 4278865573
-0.046978664 0.032719739 0.012140298 4278668713
-0.041534711 0.033749759 0.010312127 4278274738
-0.03556576 0.03136903 0.012168724 4278471344
-0.033487741 0.030121891 0.01327535 4278865319
-0.031511988 0.029557293 0.013644604 4278865319
-0.029762413 0.030356271 0.012543404 4278602923
-0.028255101 0.032517873 0.009974882 4278471599
-0.026763704 0.034678534 0.0074095372 4278601903
-0.025040407 0.035476089 0.0063136704 4279518373
-0.020316731 0.030263038 0.011446012 4278929834
-0.018186394 0.029019842 0.012542767 4278602923
-0.016583707 0.030498983 0.010713357 4278603178
-0.014579665 0.029936863 0.01107757 4278603434
-0.012850113 0.030735284 0.0099808294 4278472363
-0.011411171 0.032893259 0.0074262433 4278341293
-0.0078409873 0.033808611 0.0059686936 4278471088
-0.005682949 0.032567736 0.0070604356 4278603688
-0.0036674775 0.032006778 0.0074228104 4278472618
-0.00149047 0.030767268 0.0085109528 4278407338
0.00085613132 0.028849611 0.010323359 4278671263
0.0030574501 0.027611813 0.011406861 4281491054
-0.06290102 0.021917332 0.023218282 4281684344
-0.061234098 0.024094153 0.020622332 4278538919
-0.05951013 0.025583627 0.018771021 4278407339
-0.057796579 0.02707248 0.016921857 4278603688
-0.056093473 0.02856078 0.015074756 4278800038
-0.054319922 0.029362492 0.013969757 4278996644
-0.05238438 0.02879234 0.014344664 4278734758
-0.050529461 0.02890824 0.013979616 4278669224
-0.04894102 0.03108063 0.011399454 4278734759
-0.047185238 0.031881541 0.010298105 4278865574
-0.045434576 0.032682166 0.0091978665 4278734504
-0.035789441 0.030522831 0.010324823 4278603178
-0.0339352 0.030639341 0.0099603925 4278668969
-0.032080766 0.030755941 0.0095959846 4278799784
-0.030226152 0.030872613 0.0092315823 4278274739
-0.027121644 0.034523532 0.0048425514 4279323298
-0.025403637 0.035322919 0.0037493352 4279520668
-0.02318516 0.033389613 0.0055811983 4278799018
-0.020821337 0.030774416 0.0081404448 4278273463
-0.018567692 0.028843442 0.0099655613 4278799018
-0.016835663 0.029644025 0.0088698249 4278865319
-0.014834579 0.029079495 0.0092329662 4278734249
-0.013247471 0.030562216 0.0074099284 4278537134
-0.0037855133 0.030471211 0.0063103121 4278800039
-0.0014530271 0.028546004 0.0081204642 4278407338
0.00041982532 0.028665131 0.0077534523 4279327378
-0.062747777 0.017612025 0.02505916 4281094529
-0.061069768 0.0197961 0.022465821 4278735268
-0.05918948 0.019913197 0.02209549 4278539429
-0.057534974 0.022095904 0.019506931 4278342314
-0.055740204 0.022901006 0.018399291 4278276524
-0.054031249 0.024394076 0.016554307 4278341293
-0.052165959 0.024510503 0.016187128 4278472619
-0.050472546 0.0260027 0.01434535 4278276269
-0.048789602 0.02749436 0.012505647 4278603944
-0.047025714 0.028297873 0.011404337 4278997153
-0.045266937 0.02910115 0.010304095 4279062688
-0.043513309 0.029904176 0.0092049167 4279062689
-0.04186425 0.031393997 0.007372085 4279193504
-0.040021423 0.031509519 0.0070096999 4279193248
-0.038073596 0.03093846 0.0073809456 4278996644
-0.036012713 0.029681277 0.008484276 4278537898
-0.034161258 0.029797567 0.0081203599 4278603434
-0.032422442 0.03060011 0.0070244269 4278799783
-0.030688804 0.031402446 0.0059295259 4278602923
-0.021195929 0.030614104 0.0055735633 4278601393
-0.019079875 0.029361142 0.0066665355 4278865319
-0.017355833 0.030163387 0.005573974 4278799784
-0.015500035 0.030280739 0.0052097924 4278602668
-0.012215063 0.032568671 0.0023027686 4279126438
-0.010511957 0.033369929 0.0012145657 4279455643
-0.008518707 0.032803006 0.0015778355 4278471088
-0.0037504397 0.02825225 0.0059221126 4278537899
-0.0015716366 0.02700402 0.0070033381 4278800804
0.00030111521 0.027123125 0.0066363337 4279853188
-0.06259577 0.013289306 0.026887394 4282078064
-0.060976487 0.016171653 0.02355786 4278735524
-0.05916078 0.016980056 0.02244758 4278604963
-0.057425346 0.018478971 0.020600501 4278669988
-0.055544596 0.018596169 0.020230133 4278604454
-0.053824689 0.020094212 0.018386256 4278538408
-0.05203199 0.020901464 0.01728072 4278407339
-0.050244424 0.021708462 0.016176239 4278407339
-0.044818442 0.02343848 0.013603237 4278276524
-0.0413833 0.02573985 0.010669673 4278341804
-0.039728429 0.027234418 0.0088390354 4278734760
-0.037874784 0.027350644 0.0084745381 4278865828
-0.036020946 0.02746696 0.0081100613 4278931619
-0.034276899 0.028271906 0.0070146415 4278800293
-0.032538023 0.02907661 0.0059203003 4278996644
-0.03103504 0.03125751 0.0033671744 4278931109
-0.029311862 0.032061391 0.0022760388 4278930853
-0.027714614 0.033552922 0.00045708567 4278472109
-0.023921359 0.033096466 0.00046470016 4278602924
-0.021698568 0.03115025 0.0022859238 4278734504
-0.019590992 0.029892286 0.0033773147 4278537898
-0.017874923 0.030696249 0.0022878954 4278472363
-0.016300868 0.032186754 0.00047389418 4278864808
-0.010918114 0.03322307 -0.0013346379 4278865063
-0.0089305006 0.03265357 -0.0009719138 4278406574
-0.0043272749 0.028772486 0.0026406934 4278733994
-0.0021569468 0.027519269 0.0037203515 4279129754
-0.062646016 0.01102946 0.026489563 4281881714
-0.060953815 0.013227478 0.023903135 4279391128
-0.059205014 0.014731448 0.022056637 4278866594
-0.057466667 0.016234837 0.020212248 4278735523
-0.055661041 0.017044935 0.019105606 4278604453
-0.053860504 0.017854743 0.018000057 4278604198
-0.052065071 0.018664304 0.01689557 4278669733
-0.050189015 0.018781353 0.016526235 4278473128
-0.048224296 0.018206414 0.016890487 4278473128
-0.046436157 0.019015741 0.015787601 4278538663
-0.044653144 0.019824825 0.01468578 4278538918
-0.042971712 0.02132529 0.012852982 4278669988
-0.04100338 0.020750832 0.013216792 4278604454
-0.039334904 0.022250637 0.011386655 4278276269
-0.033953134 0.023983467 0.0088265724 4278341548
-0.032315988 0.025481615 0.0070028333 4278276269
-0.030804556 0.027669558 0.0044529606 4278669479
-0.029073294 0.02847614 0.0033617932 4278997153
-0.027347203 0.029282441 0.0022717481 4279259294
-0.025626305 0.030088495 0.0011827834 4279062689
-0.023658786 0.029514831 0.0015472993 4278800293
-0.02181435 0.029631149 0.0011851136 4278931619
-0.019707199 0.028368747 0.0022733118 4278669224
-0.018125031 0.029864099 0.00046086311 4278603433
-0.016690072 0.032047879 -0.0020735003 4278668713
-0.0047503002 0.028618149 9.003561e-05 4278996898
-0.002585806 0.027360179 0.0011675004 4279393679
-0.062562823 0.0073741451 0.027561113 4281422968
-0.060931694 0.010274671 0.024242204 4279391383
-0.05917732 0.011783369 0.02239779 4278866594
-0.057508226 0.013986565 0.019820908 4278538918
-0.05577739 0.015493941 0.017981229 4278538918
-0.053896565 0.015611105 0.017610818 4278735268
-0.052098382 0.016422968 0.016507376 4278669733
-0.050134178 0.015845675 0.016870003 4278669733
-0.048164364 0.01526875 0.017231613 4278538663
-0.046370808 0.016080607 0.016129212 4278669733
-0.044582371 0.016892172 0.015027918 4278800803
-0.042799067 0.017703492 0.013927685 4278604198
-0.040921938 0.017820947 0.013558391 4278735268
-0.039247844 0.019325409 0.011730431 4278604198
-0.037271339 0.01874942 0.012091029 4278473128
-0.035396259 0.018866979 0.011722315 4278669989
-0.033740308 0.020370591 0.0098980591 4278407338
-0.031982545 0.02118079 0.0088032074 4278407849
-0.023522917 0.026612077 0.0018959008 4278276524
-0.021673221 0.026728716 0.001532671 4278603944
-0.019692268 0.026153827 0.0018930119 4278800804
-0.017973382 0.026962254 0.0008063009 4279062689
-0.016396198 0.028461747 -0.0010018563 4278603943
-0.014829617 0.029960606 -0.0028078323 4278669478
-0.013131801 0.030767957 -0.0038902168 4279062178
-0.011294719 0.030884309 -0.0042505902 4279127713
-0.0094575323 0.031000756 -0.0046109185 4278930853
-0.0073204897 0.029736448 -0.0035314839 4278603433
-0.005172614 0.028472923 -0.0024541006 4278604709
-0.06261386 0.0051015615 0.02715401 4281225343
-0.060910147 0.0073133446 0.02457501 4279914899
-0.059078153 0.0081291683 0.023466285 4278997663
-0.05747534 0.011036802 0.020159546 4278997409
-0.0557389 0.012548812 0.01832203 4278538664
-0.053932872 0.013363238 0.01721858 4278538153
-0.052131947 0.014177468 0.01611615 4278604198
-0.050165307 0.013598032 0.016476667 4278604198
-0.048281174 0.013715565 0.016105726 4278866338
-0.046396788 0.013833184 0.015734788 4278735268
-0.044605616 0.014647108 0.014634501 4278669733
-0.042819563 0.015460756 0.013535332 4278473129
-0.040841062 0.014882486 0.013893757 4278800803
-0.039059926 0.015695989 0.012795672 4278800803
-0.037075657 0.015118241 0.013153084 4278407594
-0.035192642 0.015236259 0.012782775 4278866338
-0.033528429 0.016744692 0.010960167 4278801058
-0.031762544 0.017557561 0.0098653287 4278604453
-0.030001853 0.018370189 0.0087715685 4278538918
-0.028128799 0.018487912 0.0084034633 4278538918
-0.026375789 0.019300267 0.0073112957 4278538918
-0.02462798 0.020112336 0.0062202523 4278342314
-0.023010921 0.021618314 0.0044072922 4278407849
-0.021276195 0.022429779 0.0033189105 4278276779
-0.019284789 0.021853287 0.0036755893 4278276779
-0.017555129 0.022664595 0.0025883252 4278342314
-0.014389437 0.025673028 -0.0010235747 4278604199
-0.012680847 0.026483282 -0.002106498 4278735014
-0.010977492 0.027293243 -0.0031882934 4278735268
-0.0092793927 0.028102964 -0.0042689871 4278669733
-0.0074368492 0.028219815 -0.0046303179 4278473383
-0.0052894242 0.026951849 -0.0035561244 4278736288
-0.062598631 0.0021247678 0.027476855 4282601833
-0.060958344 0.0050432645 0.024169151 4280571269
-0.059123602 0.0058614388 0.023061424 4279326104
-0.057443004 0.0080784075 0.020491982 4279194778
-0.055623788 0.0088957697 0.019387428 4279128223
-0.053889547 0.010412049 0.01755362 4278866084
-0.052083191 0.01122871 0.016451752 4278538663
-0.050111469 0.010647394 0.01680956 4278604454
-0.048222076 0.010765202 0.016437545 4278800549
-0.046332438 0.010883097 0.016065536 4278800549
-0.044349317 0.010302719 0.016421266 4278604198
-0.042648416 0.011817396 0.014594376 4278604198
-0.040958043 0.013331521 0.012769556 4278604198
-0.039278116 0.014845043 0.010946913 4278669733
-0.037192818 0.013567176 0.012028852 4278604198
-0.035096589 0.012290034 0.013108762 4278538918
-0.033426825 0.013803214 0.011288246 4278342314
-0.031767529 0.015315775 0.0094699059 4278538918
-0.03000408 0.016130731 0.0083772074 4278669988
-0.028245825 0.016945444 0.0072855912 4278670243
-0.026492763 0.017759956 0.0061950125 4278669988
-0.024499405 0.01718111 0.0065494711 4278538918
-0.02275138 0.017995473 0.0054600053 4278473384
-0.02088045 0.018113382 0.0050925557 4278538918
-0.019140143 0.01892741 0.0040047998 4278407849
-0.017405067 0.019741189 0.0029181261 4278342314
-0.015402932 0.019163381 0.0032711448 4278342314
-0.01381176 0.020672534 0.0014668358 4278538664
-0.011806697 0.020095084 0.0018194104 4278276524
-0.0068054721 0.023229204 -0.0021456219 4278538919
-0.0049495324 0.023346983 -0.0025095241 4278605728
-0.057336885 0.0044097453 0.02154796 4282077554
-0.055509578 0.0052297041 0.020443443 4279785103
-0.053767074 0.0067508332 0.018611228 4279391383
-0.052035015 0.0082714371 0.01678109 4278866338
-0.050228346 0.0090903379 0.015680812 4279062688
-0.048251305 0.0085071772 0.016035955 4279718294
-0.046449516 0.0093259364 0.014936758 4279325848
-0.044466648 0.0087432973 0.015290871 4279063454
-0.042573985 0.0088614933 0.01491835 4278866594
-0.04077955 0.0096800439 0.013820782 4278669733
-0.039192516 0.011898555 0.011275163 4278473384
-0.037102293 0.010616504 0.012352878 4278735268
-0.035001162 0.0093352757 0.013428478 4278734758
-0.033216614 0.010153543 0.012333101 4278604198
-0.03154907 0.011670984 0.010516375 4278669988
-0.029892068 0.013187878 0.0087017342 4278538918
-0.028362785 0.01540323 0.0061678952 4278735523
-0.026489768 0.015520968 0.0057998113 4278669733
-0.024371471 0.014241353 0.0068724286 4278669733
-0.022367533 0.013661064 0.0072231609 4278735268
-0.020613905 0.014478002 0.0061343275 4278604198
-0.018734898 0.014596477 0.0057653328 4278669733
-0.017122317 0.016111169 0.003959938 4278800803
-0.015248399 0.016229499 0.003592073 4278538663
-0.013651647 0.017743416 0.0017898744 4278669733
-0.01150018 0.016466472 0.0028564874 4278538663
-0.0096258856 0.016585104 0.0024887575 4278473384
-0.0078981891 0.017401095 0.0014054468 4278473638
-0.0063251033 0.018913843 -0.00039178785 4278604963
-0.0044585504 0.019032277 -0.00075778039 4278998683
-0.046386022 0.0063631311 0.015258254 4282078063
-0.044491004 0.0064813457 0.014885174 4280243593
-0.042691361 0.007302288 0.013788123 4279521943
-0.040995155 0.00882544 0.011968669 4279260314
-0.039309431 0.010348059 0.010151299 4279195034
-0.037219655 0.00906156 0.011225812 4279325593
-0.035118956 0.0077758729 0.012298202 4278669733
-0.033225354 0.0078945234 0.011925787 4278407849
-0.031443227 0.0087148733 0.010832556 4278473384
-0.02978063 0.010236435 0.0090200938 4278604453
-0.02836265 0.013160016 0.0057701711 4278735268
-0.026487064 0.013277885 0.0054015554 4278800803
-0.024488922 0.012694921 0.0057517141 4278407594
-0.022235107 0.010710806 0.007537296 4278800803
-0.020476084 0.011530288 0.0064489637 4278801059
-0.01859184 0.011649065 0.0060789231 4278735524
-0.016973671 0.013168469 0.0042756665 4278800804
-0.0150945 0.013287116 0.0039067622 4278931874
-0.013353683 0.014105786 0.0028223284 4278866594
-0.011476941 0.014224462 0.002454035 4278669733
-0.0094562434 0.013643652 0.0028003082 4278538918
-0.0075765997 0.013762694 0.0024315827 4278735779
-0.0056968518 0.013881844 0.0020629102 4278670243
-0.0039688945 0.014700171 0.00098134764 4279327123
-0.040817868 0.0051568672 0.013007406 4282341224
-0.039023083 0.0059798285 0.011913035 4280898689
-0.037129987 0.0060982183 0.011540553 4280178314
-0.035024386 0.0048083663 0.012608726 4279129499
-0.033016708 0.0042233132 0.012955012 4281291644
-0.031114977 0.0043425225 0.012581034 4280635018
-0.029441457 0.0058691688 0.010769621 4279587224
-0.028012175 0.0088021643 0.0075240172 4279390109
-0.026245553 0.0096240267 0.0064356001 4279127458
-0.024239641 0.0090392642 0.00678261 4278997153
-0.022103313 0.0077520199 0.0078451745 4278801059
-0.020338867 0.0085739717 0.0067574326 4278735779
-0.01844937 0.0086930506 0.0063863378 4278866849
-0.016692679 0.0095147043 0.0053002574 4278801314
-0.014805574 0.0096338242 0.0049297735 4278801059
-0.013333291 0.011859477 0.0024173763 4278669989
-0.011453986 0.011978295 0.0020485641 4278735524
-0.0095745698 0.012097206 0.0016797967 4278735778
-0.0076950453 0.012216225 0.0013110805 4278538918
-0.0058154203 0.012335356 0.00094242487 4278670498
-0.0037839748 0.011753298 0.0012851562 4279588499
-0.027429584 0.0030155666 0.010698445 4282532983
-0.025885571 0.0052516423 0.0081763417 4280372113
-0.023991298 0.00537071 0.0078040771 4279717783
-0.021972131 0.0047846995 0.008146856 4279194268
-0.020329695 0.0063141622 0.0063451752 4279325338
-0.018567737 0.0071382187 0.0052596023 4279128733
-0.016678218 0.007257361 0.0048885467 4279194268
-0.014788557 0.0073766187 0.004517545 4279259804
-0.013175055 0.0089046955 0.002721793 4279195034
-0.011572145 0.01043215 0.00092823803 4278867358
-0.0096928477 0.010551039 0.00055948179 4278539428
-0.0078134425 0.010670036 0.00019077957 4278931874
-0.0056362115 0.0093818232 0.0012426712 4278932383
-0.0035996921 0.008797843 0.0015828125 4280440453
-0.021343265 -0.001020804 0.011296045 4283317873
-0.01981179 0.0012213029 0.0087814778 4280765324
-0.01436593 0.0029951036 0.0062362589 4281355140
-0.012741499 0.0045282394 0.0044416105 4280765323
-0.011127658 0.006060753 0.0026491508 4279783828
-0.0095244162 0.0075927451 0.00085880887 4279653269
-0.0076397695 0.0077120587 0.0004890617 4279129243
-0.0057550222 0.0078314692 0.00011936948 4279194524
-0.0035674274 0.0065395534 0.0011660689 4279653269
-0.0089271218 0.0025006421 0.0032763677 4280831369
-0.0070291981 0.0026207641 0.0029039988 4280963204
-0.0051311702 0.0027410053 0.0025316896 4280373388
-0.0030818284 0.0021534115 0.0028660297 4280374408
-0.032884289 -0.034837075 0.0080131683 4280701573
-0.031586792 -0.03028097 0.00346696 4278998938
-0.029763591 -0.029421195 0.0023930352 4279195289
-0.027717177 -0.030039087 0.0027054939 4279326614
-0.025665242 -0.030656502 0.0030169636 4279458449
-0.023846906 -0.02979672 0.0019442271 4279786888
-0.032792728 -0.037922688 0.0082365777 4280898178
-0.031489033 -0.033353083 0.0036988948 4279063454
-0.029771809 -0.03174974 0.0019339249 4279063198
-0.027608972 -0.033110581 0.0029353481 4278997918
-0.02578542 -0.032248415 0.0018631145 4278801314
-0.023847673 -0.032127038 0.0014819894 4279260568
-0.022153903 -0.030524716 -0.00027802773 4279261334
-0.020096462 -0.031143665 3.09553e-05 4279588755
-0.018415812 -0.029541902 -0.0017263554 4281357944
-0.032595929 -0.041760445 0.009144906 4280767618
-0.031500403 -0.035690241 0.0032341471 4279062943
-0.02966911 -0.034825653 0.0021618353 4278997663
-0.027729142 -0.034704357 0.0017801011 4278735778
-0.025789004 -0.034582958 0.0013984172 4278670243
-0.023967948 -0.033718683 0.00032836199 4278866594
-0.02190828 -0.034339815 0.00063519366 4279194523
-0.019967709 -0.034218028 0.00025368109 4279587479
-0.018154237 -0.033353873 -0.0008146246 4279784339
-0.016345996 -0.032489911 -0.0018817955 4279981198
-0.014542986 -0.031626165 -0.0029478632 4280439944
-0.012474626 -0.03224618 -0.0026423153 4281357433
-0.010400813 -0.03286574 -0.0023377617 4281684854
-0.0084621646 -0.032743379 -0.0027183765 4282472294
-0.031403687 -0.038777202 0.0034553753 4279587223
-0.029567014 -0.037910089 0.0023836205 4279194268
-0.027508121 -0.038533829 0.0026887087 4279259548
-0.0256765 -0.037666813 0.001618105 4278866593
-0.023850057 -0.03679996 0.00054858532 4278931873
-0.02190708 -0.03667818 0.00016648415 4279587478
-0.019839551 -0.037300952 0.0004702555 4279587734
-0.018020716 -0.036434233 -0.00059752073 4279849873
-0.016336869 -0.034823462 -0.0023488444 4279784849
-0.014663588 -0.03321325 -0.0040980135 4279980943
-0.012595542 -0.033835471 -0.0037940354 4280767363
-0.010522056 -0.034457244 -0.003491052 4281291643
-0.0014333464 -0.030872472 -0.0081153885 4282667114
-0.031415787 -0.041124754 0.0029830812 4279783828
-0.029576417 -0.040255308 0.0019124122 4279390618
-0.027742233 -0.039386071 0.000842846 4279194014
-0.025797036 -0.039264403 0.00046012457 4278801058
-0.023851674 -0.039142609 7.745903e-05 4278997408
-0.021906164 -0.039020672 -0.00030513946 4279456409
-0.019960519 -0.038898617 -0.00068767834 4279522198
-0.018141668 -0.03802973 -0.001753849 4279718803
-0.016328018 -0.037161097 -0.0028188587 4279849873
-0.014519613 -0.036292672 -0.0038827625 4279915918
-0.012581479 -0.036170624 -0.004263476 4280439944
-0.010505613 -0.036794439 -0.0039625843 4280832899
-0.0084242783 -0.037417784 -0.0036626728 4281487484
-0.006480474 -0.037295006 -0.0040442357 4282601833
-0.0048278905 -0.035681136 -0.0057856482 4282273649
-0.0012525655 -0.033945315 -0.0079041198 4281422458
0.00052716583 -0.033077694 -0.0089617111 4280964223
0.0023016222 -0.03221032 -0.010018133 4280832899
0.0042298399 -0.032087803 -0.010396093 4281684853
0.0061581172 -0.031965151 -0.010773972 4280702339
0.0077576302 -0.030353785 -0.012504335 4280243593
0.0095135532 -0.029487044 -0.013556797 4280440963
0.011603702 -0.030108541 -0.013257571 4280440964
0.013526786 -0.029985711 -0.013634056 4280573053
-0.032537948 -0.049599923 0.0083824191 4282667114
-0.03121211 -0.044976518 0.0038793338 4280373643
-0.029364694 -0.044104367 0.0028086333 4279586968
-0.02740908 -0.043982163 0.0024237791 4279324829
-0.025801476 -0.041611247 -1.3497658e-05 4279390364
-0.023734871 -0.042238675 0.00028695818 4279062943
-0.021905538 -0.041367233 -0.00077978242 4278736288
-0.01995736 -0.041245036 -0.0011628317 4279260059
-0.018262569 -0.039624937 -0.0029099705 4279915409
-0.016578328 -0.038005434 -0.0046549002 4279718803
-0.014640477 -0.037883528 -0.0050356621 4279719059
-0.012702491 -0.037761495 -0.005416357 4279915408
-0.010626931 -0.038387537 -0.0051170411 4279915409
-0.0084057674 -0.039761163 -0.004139238 4280570504
-0.0067450739 -0.038142487 -0.0058791349 4280963714
-0.0049494989 -0.037272096 -0.006938451 4280636294
-0.0031591803 -0.036401913 -0.0079966383 4281160318
-0.0012232885 -0.036279276 -0.008376372 4280505223
0.00071267784 -0.03615652 -0.0087560425 4279850384
0.0024925061 -0.035286613 -0.0098118903 4279784848
0.0041081607 -0.033670053 -0.011542398 4279391638
0.0058747195 -0.032800764 -0.012595471 4278736289
0.0076359846 -0.031931669 -0.013647407 4279129244
0.0093919188 -0.031062752 -0.014698248 4279588244
0.011312146 -0.030940257 -0.015074279 4279522453
0.013232406 -0.030817606 -0.015450209 4279391893
0.015502591 -0.032186538 -0.014480829 4279916429
0.017072985 -0.030571967 -0.01620182 4280244614
0.018632691 -0.028958015 -0.017920583 4280639609
-0.032133725 -0.054983027 0.010630669 4282928743
-0.030577946 -0.051850125 0.007502785 4280766344
-0.028822292 -0.050222591 0.0057464559 4280504458
-0.027077224 -0.048595592 0.0039922241 4279849109
-0.025458548 -0.046217412 0.0015576426 4279849108
-0.023500104 -0.046094835 0.0011723805 4279521689
-0.021662746 -0.045220673 0.00010562502 4278997153
-0.019830588 -0.044346772 -0.0009599789 4279128733
-0.018003669 -0.043473072 -0.0020244657 4279718803
-0.01631121 -0.041848689 -0.0037677633 4279522964
-0.014497418 -0.040975519 -0.0048295232 4279457429
-0.012554232 -0.040853187 -0.0052112537 4279784339
-0.010610927 -0.0407307 -0.0055929134 4279784339
-0.0086675175 -0.040608086 -0.0059744911 4280177294
-0.0070093088 -0.038985275 -0.0077106291 4280504969
-0.0050710626 -0.038862728 -0.0080910111 4280701829
-0.0031327344 -0.038740091 -0.0084713409 4280505478
-0.0011943094 -0.038617305 -0.0088515775 4280111758
0.00074417517 -0.038494401 -0.0092317509 4279849873
0.0023706704 -0.036872931 -0.010961176 4279587988
0.0041452162 -0.036001042 -0.01201433 4278932638
0.0060758665 -0.035878241 -0.012392677 4278736799
0.0080065653 -0.035755336 -0.012770951 4279128733
0.009603817 -0.034135222 -0.014494274 4278866593
0.011698667 -0.034760743 -0.014199264 4278736033
0.013454702 -0.033889458 -0.015248291 4279129244
0.015554968 -0.034514368 -0.014954153 4279194779
0.016950775 -0.032147415 -0.017342936 4279391384
0.018690798 -0.03127674 -0.018388534 4279325593
0.02042548 -0.030406311 -0.019433003 4279260314
0.022896776 -0.032525405 -0.017800637 4279195034
0.026324984 -0.038379095 -0.012829372 4279391894
0.030368594 -0.046470955 -0.0058627366 4280376193
-0.022911105 -0.052225173 0.004089782 4282273138
-0.021057662 -0.051347882 0.0030215215 4282206328
-0.019456949 -0.048963889 0.00059555285 4281879164
-0.017745707 -0.04733409 -0.0011482961 4281813628
-0.016174156 -0.044951685 -0.0035683489 4280832133
-0.01435497 -0.044076063 -0.0046295091 4280373899
-0.012541041 -0.043200657 -0.0056895623 4280176529
-0.01059521 -0.043078028 -0.0060717212 4280111248
-0.0087890886 -0.042202801 -0.0071300836 4279980433
-0.0072731748 -0.039823338 -0.0095387222 4280504968
-0.0051926039 -0.040453091 -0.0092433775 4280309129
-0.0032544173 -0.040330455 -0.0096236775 4279981454
-0.0013161562 -0.040207684 -0.010003888 4279457174
0.00046899915 -0.039333224 -0.011057642 4279325593
0.0022488609 -0.038458973 -0.012110264 4279063453
0.0043405183 -0.039087385 -0.011816633 4278866848
0.0062763728 -0.038964272 -0.012196005 4279194525
0.0082122721 -0.038841024 -0.012575296 4279260059
0.0098150559 -0.037216164 -0.014296502 4278932128
0.011745684 -0.037093006 -0.014674567 4279194524
0.013504412 -0.036219344 -0.015722491 4278932639
0.015257813 -0.03534589 -0.016769268 4279194779
0.016828585 -0.033722542 -0.018483829 4279129244
0.018568628 -0.032849707 -0.019527817 4278932893
0.020485964 -0.032726772 -0.019902816 4278998429
0.023144592 -0.03560181 -0.017608393 4278604708
0.02714064 -0.043720834 -0.010650457 4279129499
0.031767633 -0.054083556 -0.0017050342 4279326103
-0.011991009 -0.048572019 -0.0034680422 4281616514
-0.010168921 -0.047693722 -0.004528021 4280896649
-0.0084917024 -0.046061099 -0.0062614917 4280242318
-0.0068250969 -0.044429012 -0.0079927789 4280242573
-0.0050241239 -0.043551683 -0.009048325 4279784594
-0.0030807368 -0.043428741 -0.0094296606 4279653779
-0.0012876205 -0.042551711 -0.010483441 4279456663
0.00065324083 -0.042428672 -0.010864087 4279260313
0.0024384744 -0.041551881 -0.011916132 4278670498
0.004693538 -0.042935602 -0.01095415 4278801568
0.006476216 -0.042058721 -0.012005509 4279259548
0.0084173121 -0.041935176 -0.012385827 4278997663
0.010025647 -0.040305629 -0.014104837 4278735523
0.011961479 -0.040182143 -0.014483926 4279128733
0.013553809 -0.038553335 -0.016199663 4279129500
0.0153099 -0.037677497 -0.01724533 4279260313
0.016883541 -0.036049694 -0.018957186 4279129244
0.018806079 -0.035926521 -0.019333284 4278998174
0.021093559 -0.037307009 -0.018376779 4279063453
0.02376206 -0.040190183 -0.016090799 4278932383
0.027954619 -0.049084291 -0.0084871892 4278998173
-0.00080885366 -0.047168247 -0.0089530479 4283058283
0.00098970905 -0.046288572 -0.010006184 4281420928
0.0027829856 -0.045409106 -0.011058198 4280700809
0.0045709647 -0.044529803 -0.012109121 4279980433
0.0063536502 -0.043650761 -0.013158867 4279783574
0.0082945973 -0.043527186 -0.013539145 4279390364
0.010235585 -0.043403506 -0.013919344 4279456665
0.012176614 -0.043279678 -0.014299443 4279129499
0.013774492 -0.041646197 -0.016012974 4279194778
0.015361674 -0.040013209 -0.017724358 4279325849
0.016938176 -0.038380824 -0.01943351 4278932383
0.01868361 -0.037503272 -0.020475306 4278866848
0.020970594 -0.038888156 -0.019521955 4279194268
0.024008214 -0.043287925 -0.015914017 4278997918
0.028203914 -0.052208044 -0.0083304998 4279521943
0.0050805695 -0.049155049 -0.010592693 4282664053
0.0067132674 -0.047515467 -0.012310168 4281813119
0.008988861 -0.048906386 -0.011358527 4280635019
0.010777015 -0.048024528 -0.012407525 4280242828
0.012897331 -0.048657186 -0.012124011 4279588498
0.014508784 -0.047018461 -0.013836956 4279391129
0.016283643 -0.046137072 -0.014883062 4278932383
0.017699609 -0.043742619 -0.017256308 4278867104
0.019458443 -0.042861998 -0.018299084 4279195034
0.021211926 -0.041981615 -0.019340731 4278933148
0.024068907 -0.045638114 -0.016405901 4279063453
0.028077578 -0.053828433 -0.0095040146 4279718549
0.017899306 -0.05532293 -0.0094084013 4281880694
0.019519001 -0.053678997 -0.011119558 4281553274
0.020769434 -0.050518326 -0.014152536 4280897159
0.022180431 -0.048117436 -0.016519712 4280045969
0.024683183 -0.050267227 -0.01491789 4279784084
0.028325889 -0.056964763 -0.0093564307 4279653268
0.023874072 -0.057322018 -0.011077947 4281620339
0.026218455 -0.058716185 -0.010145458 4280570758
0.029134985 -0.062390633 -0.0072383611 4281029503
-0.06105547 0.00049069896 0.023348235 4285163308
-0.059215244 0.0013134517 0.022242654 4285360933
-0.057305884 0.0014320128 0.02186634 4285361189
-0.055550028 0.0029582679 0.020034615 4285164073
-0.05372506 0.0037803128 0.018932221 4285032494
-0.051987428 0.0053055473 0.017104244 4284901169
-0.061035704 -0.0024983026 0.023660909 4285228843
-0.059190061 -0.0016730763 0.022555843 4285361188
-0.057201419 -0.0022604056 0.02290507 4285427234
-0.0554373 -0.00072932616 0.02107499 4285426979
-0.053604241 9.5341355e-05 0.019972583 4285361189
-0.051858347 0.001625482 0.018146159 4285360933
-0.050038178 0.0024495199 0.017046412 4285164328
-0.048310522 0.0039786287 0.015223745 4285098793
-0.060947973 -0.0062045977 0.024693467 4285360169
-0.059236642 -0.0039596297 0.022137271 4285492003
-0.057319466 -0.0038406961 0.021759337 4285492258
-0.055631679 -0.0015970878 0.019207938 4285558048
-0.053642776 -0.0021864735 0.019555572 4285492513
-0.051812086 -0.0013597347 0.018455278 4285492513
-0.049986493 -0.00053321198 0.01735606 4285492769
-0.048166018 0.00029310957 0.016257858 4285426978
-0.046260748 0.00041178986 0.015882626 4285557793
-0.044447828 0.0012377724 0.014786093 4285492259
-0.042640049 0.0020635165 0.013690626 4285295144
-0.040837403 0.0028890371 0.012596244 4285229354
-0.038939264 0.0030076131 0.012222676 4285295654
-0.036937613 0.0024197809 0.012568356 4285164839
-0.034930412 0.001832366 0.012913004 4285033514
-0.060861159 -0.0099238455 0.02571661 4285360424
-0.059141401 -0.0076718405 0.023163609 4285623074
-0.057290014 -0.0068419054 0.022060653 4285623584
-0.055520091 -0.0053017624 0.020235829 4285558304
-0.053681564 -0.0044724531 0.019135529 4285558304
-0.051684666 -0.0050635152 0.01947997 4285492513
-0.049935404 -0.0035244562 0.017659435 4285492513
-0.04802243 -0.0034054182 0.017282601 4285558304
-0.046109218 -0.0032862835 0.016905779 4285492259
-0.044380661 -0.0017482601 0.015089516 4285492514
-0.042472366 -0.0016292594 0.014713785 4285360934
-0.040661637 -0.0008010529 0.013619356 4285426468
-0.038655099 -0.0013909526 0.013962397 4285426468
-0.036746155 -0.001271639 0.013586741 4285426723
-0.034731198 -0.0018607937 0.013928209 4285295654
-0.060979832 -0.011516713 0.024561688 4285294378
-0.059259687 -0.0092581511 0.022013452 4285623074
-0.057555314 -0.007000491 0.019468397 4285558304
-0.055714305 -0.0061689802 0.018369136 4285558559
-0.053799484 -0.0060501285 0.017991712 4285558304
-0.051802862 -0.0066434518 0.018334536 4285558303
-0.049969126 -0.0058121346 0.017236903 4285558049
-0.048140515 -0.0049810596 0.016140336 4285492514
-0.046227414 -0.0048619695 0.015763506 4285558049
-0.044406358 -0.0040311925 0.014668558 4285492514
-0.042495485 -0.0039120726 0.01429229 4285426723
-0.040584397 -0.0037928484 0.013916049 4285426723
-0.038572807 -0.0043846332 0.01425638 4285426723
-0.036761593 -0.0035540946 0.013163641 4285492004
-0.03463858 -0.0048560984 0.014218476 4285426469
-0.059095059 -0.013704807 0.023746517 4285360423
-0.057306226 -0.012154944 0.021924388 4285492003
-0.055603888 -0.0098907948 0.019384641 4285492514
-0.053759877 -0.0090568513 0.01828645 4285492259
-0.051839579 -0.008937642 0.017907964 4285492258
-0.050003115 -0.0081039593 0.016811348 4285558304
-0.048171747 -0.0072705448 0.015715847 4285492513
-0.046256091 -0.0071513653 0.015338467 4285492514
-0.044340204 -0.0070320591 0.01496112 4285492513
-0.042329323 -0.0076262951 0.015299799 4285426723
-0.040410314 -0.0075066239 0.014921963 4285492258
-0.038591232 -0.0066735297 0.013829211 4285492258
-0.036777284 -0.005840674 0.012737537 4285426469
-0.034546558 -0.0078599751 0.014502583 4285426213
-0.032299567 -0.0098781288 0.016264463 4285556519
-0.051551592 -0.014102653 0.020346573 4285229099
-0.049869519 -0.011832982 0.017815862 4285360679
-0.04811668 -0.010280587 0.016004369 4285360934
-0.046285037 -0.0094448775 0.014910428 4285294888
-0.044366587 -0.0093254671 0.014532538 4285492514
-0.042353299 -0.0099218339 0.014869127 4285558304
-0.04033443 -0.010517702 0.015204653 4285426723
-0.03870989 -0.0082510859 0.012685666 4285426979
-0.036895905 -0.0074160621 0.011595584 4285558048
-0.034771111 -0.0087267905 0.012643499 4285558049
-0.03241941 -0.011466816 0.015112927 4285622563
0.0082503296 -0.00095856562 -0.00093370629 4285361189
-0.046225134 -0.012460954 0.015193293 4285032749
-0.04420967 -0.01305946 0.015527684 4285295144
-0.042377543 -0.012221441 0.01443542 4285360933
-0.040550541 -0.011383653 0.013344232 4285360678
-0.038828474 -0.0098283291 0.01154233 4285361189
-0.037014451 -0.0089911595 0.010453835 4285558304
-0.034784947 -0.011023752 0.012209302 4285558049
-0.0325392 -0.013055205 0.013961596 4285621799
-0.03713293 -0.010565974 0.0093122795 4284968233
-0.034904044 -0.012605235 0.011062944 4284967213
0.026657371 -0.0014410503 -0.00830846 4285294123
0.030619342 0.0030910969 -0.016059425 4285493278
0.032903776 0.0017812103 -0.015049712 4285165603
0.034785572 0.0019027367 -0.015417119 4285035809
0.02901914 -7.9274178e-06 -0.015434489 4285426978
0.03049865 0.0015491135 -0.01717604 4285493023
0.032782607 0.0002348125 -0.016169496 4285426979
0.034870751 -0.00036116689 -0.015850907 4285426723
0.036964212 -0.00095674396 -0.015533231 4285361189
0.038427427 0.00059972703 -0.017271329 4285361444
0.039879866 0.0021555685 -0.019007184 4285165349
0.041538715 0.0029939935 -0.020056996 4284904228
0.043412 0.0031155236 -0.020422328 4284904739
0.029096518 -0.0022742674 -0.015868189 4285360934
0.030779868 -0.0014327094 -0.016921632 4285492769
0.033068717 -0.0027511194 -0.015919257 4285427233
0.035161912 -0.0033489466 -0.015603265 4285492514
0.037051432 -0.0032267906 -0.01597208 4285492513
0.038729221 -0.0023851506 -0.017024111 4285426979
0.040187217 -0.00082451105 -0.018757839 4285361188
0.041851468 1.6469508e-05 -0.019807067 4285295908
0.043729991 0.00013835728 -0.020173404 4285230373
0.045830805 -0.00045832247 -0.01985842 4285099558
0.047711827 -0.00033605844 -0.020225085 4285165094
0.049364999 0.00050463527 -0.021271832 4285295909
0.050782286 0.0020632334 -0.022997092 4285230373
0.052654952 0.0021852776 -0.023361892 4285100068
0.055942215 -0.0019994527 -0.019654859 4284970019
