# .PCD v0.7 - Point Cloud Data file format
VERSION 0.7
FIELDS x y z rgba
SIZE 4 4 4 4
TYPE F F F U
COUNT 1 1 1 1
WIDTH 971
HEIGHT 1
VIEWPOINT 0 0 0 1 0 0 0
POINTS 971
DATA ascii
0.0077893585 0.029842356 -0.0045329933 4284056353
0.010570362 0.026518768 -0.0013842415 4284121889
0.012616709 0.02596027 -0.0010779724 4284121634
0.014668427 0.025402267 -0.00077278912 4284121889
0.016921226 0.024154283 0.00023933314 4284121633
0.019184727 0.022907216 0.0012491709 4284056353
0.021659974 0.020970955 0.0029636472 4283990308
0.024151245 0.01903598 0.0046746777 4283858218
0.026864927 0.016412564 0.0070880326 4283923499
0.029599978 0.013790786 0.0094968276 4283989544
0.031509504 0.013927624 0.0090828696 4283924773
0.033847786 0.012686446 0.010076896 4283990053
0.036196746 0.0114461 0.011068731 4283989798
0.038336609 0.010895304 0.011355479 4283924264
0.040481776 0.01034499 0.011641153 4283858728
0.042632252 0.0097951181 0.011925797 4283858728
0.045243476 0.007869564 0.013611446 4283858728
0.046949022 0.0086968541 0.012491767 4283858218
0.049115323 0.0081484355 0.012773144 4283858474
0.051286884 0.0076004788 0.013053446 4283858473
0.053702138 0.0063656457 0.014031478 4283923753
0.055645786 0.0065059625 0.013610904 4283923754
0.058076851 0.005272489 0.014585611 4283989544
0.060764942 0.0033531003 0.016255166 4283988523
0.063718028 0.00074841827 0.018617798 4284054059
0.067951202 -0.0052864403 0.024455287 4283988779
0.0021315962 0.027929552 -0.0044396427 4282542673
0.0037943982 0.028754257 -0.0055497722 4283859238
0.0059984028 0.027497955 -0.0045306981 4284056099
0.0082131438 0.026242569 -0.0035139145 4284056608
0.011188604 0.022215325 0.0003332831 4284056099
0.013435487 0.020962402 0.0013432149 4284056099
0.015693091 0.01971034 0.0023508919 4284056353
0.017570399 0.019844305 0.0019434951 4283924774
0.020042278 0.017901145 0.0036536995 4283989798
0.022128494 0.017343678 0.0039499486 4283989544
0.025034131 0.014018588 0.0070638368 4283857453
0.027347926 0.012770958 0.0080597186 4283857453
0.030090107 0.010140933 0.010460385 4283989544
0.031795993 0.010969825 0.0093417438 4283989544
0.034139134 0.0097245947 0.010331481 4283924519
0.036059193 0.0098623708 0.0099153789 4283924264
0.038418286 0.0086185187 0.010901758 4283858729
0.04056583 0.008066155 0.011185323 4283858728
0.042943534 0.0068238191 0.012167812 4283858218
0.045331862 0.0055823587 0.013148076 4283858474
0.047040157 0.0064120293 0.012029448 4283923499
0.048975933 0.0065515153 0.011610375 4283923498
0.051382765 0.0053116232 0.012586889 4283858728
0.054038405 0.0033831038 0.014258281 4283858728
0.05646909 0.0021451265 0.015229779 4284054824
0.058423206 0.0022863075 0.014807017 4284054569
0.060869694 0.0010496974 0.015775193 4284120104
0.063575663 -0.00087483972 0.017436031 4284380968
0.068058558 -0.0076180622 0.023953401 4284576808
0.0047399402 0.023061335 -0.0024053464 4283135549
0.0069594644 0.0218018 -0.0013929773 4283990818
0.0095590092 0.019151986 0.0010314183 4283925539
0.011992656 0.017199144 0.0027446877 4283991328
0.014252402 0.01594276 0.0037485408 4283924773
0.016330216 0.015382208 0.004044746 4283924264
0.01841341 0.01482214 0.0043398589 4283858218
0.02069997 0.01356791 0.0053381454 4283923754
0.02279656 0.013008978 0.0056304904 4283857453
0.025305163 0.011062063 0.0073279282 4283923499
0.027623789 0.0098104589 0.0083194384 4283923753
0.030161772 0.0078658387 0.010010649 4283923753
0.032081746 0.0080034249 0.0095944265 4283858218
0.034215715 0.00744766 0.0098790331 4283858473
0.036138322 0.007585641 0.009462391 4283858728
0.038280245 0.0070306286 0.0097454125 4283923753
0.040427484 0.0064760745 0.010027413 4283989289
0.042804684 0.0052293427 0.011006729 4284054314
0.045192517 0.0039834641 0.011983811 4284054313
0.047360957 0.0034307204 0.012261436 4284054823
0.049534652 0.0028784983 0.012537948 4284054568
0.051948979 0.0016348213 0.013509517 4284251173
0.054373916 0.00039197132 0.014478902 4284512803
0.0056832433 0.017342288 0.00071997102 4282872389
0.0079182908 0.016079482 0.0017256737 4283595823
0.010164093 0.01481748 0.0027291523 4283858474
0.012607731 0.012858815 0.0044352673 4283858728
0.014687881 0.012296103 0.0047292924 4283858729
0.016773403 0.011733904 0.0050221737 4283858219
0.0188643 0.011172198 0.005313972 4283857964
0.020960568 0.010610968 0.0056046704 4283857708
0.023062205 0.010050163 0.005894321 4283857708
0.025372311 0.0087934695 0.0068843057 4283923754
0.027693111 0.0075376481 0.0078720516 4283923754
0.030024596 0.0062826388 0.0088575939 4283923753
0.032366741 0.0050285459 0.0098408638 4283989288
0.034505751 0.0044709072 0.010122773 4283989544
0.036217086 0.0053047687 0.0090063913 4283793193
0.038361385 0.0047477186 0.0092873098 4283858219
0.040510967 0.0041911863 0.0095671145 4284054824
0.04289034 0.002940245 0.010542679 4284053803
0.045280352 0.0016901307 0.011516063 4284185894
0.047451138 0.0011354275 0.0117915 4284185129
0.049627196 0.00058118626 0.012065862 4284642598
0.0062664896 0.012997776 0.0024160892 4283133764
0.0081485473 0.01313157 0.0020072768 4283725874
0.010583438 0.01116563 0.0037102913 4283857964
0.012473632 0.011300214 0.0032998668 4283858474
0.014932659 0.0093361214 0.0049978159 4283858219
0.016830944 0.0094714761 0.0045857839 4283857964
0.019119151 0.0082085133 0.0055770641 4283792684
0.021022843 0.0083444417 0.0051639983 4283792429
0.023327094 0.0070828572 0.0061518895 4283857453
0.02523616 0.0072193705 0.0057378141 4283857708
0.027762083 0.0052606687 0.0074217049 4283988779
0.029887442 0.0046997219 0.007704745 4283989799
0.032440051 0.0027431175 0.0093829902 4283989799
0.034367785 0.0028813854 0.0089651784 4283858729
0.036511786 0.0023220778 0.0092444038 4283792683
0.0064907894 0.010041025 0.002692583 4283331133
0.0085594729 0.0094728433 0.0029855259 4283922734
0.010633565 0.0089051053 0.0032774117 4283857454
0.012526304 0.0090398565 0.0028664274 4283857454
0.0147979 0.0077711642 0.0038578175 4283857453
0.016888142 0.0072049201 0.0041463822 4283922734
0.01917851 0.0059377179 0.0051338878 4283922734
0.021282163 0.0053726323 0.005419693 4283922734
0.02339117 0.0048080198 0.005704402 4283857708
0.025911052 0.0028422177 0.0073845899 4283988779
0.028241526 0.0015783459 0.0083636669 4284054058
0.030582685 0.00031527504 0.0093405331 4284118828
0.032934505 -0.00094686449 0.010315134 4284183343
0.034443263 0.00059206411 0.0085037155 4284704308
0.0063573085 0.0084852017 0.0015591066 4283396924
0.0086068958 0.0072102249 0.0025518052 4283857199
0.010867208 0.0059361383 0.003542196 4283791919
0.012951713 0.0053671002 0.0038302103 4283922733
0.015230823 0.0040945113 0.0048167137 4283988269
0.017328762 0.0035266243 0.0051019583 4283988269
0.019626625 0.002255626 0.0060845045 4283987758
0.02193521 0.00098545104 0.0070648445 4283987504
0.024254475 -0.00028381497 0.0080429008 4284053293
0.026584446 -0.0015522502 0.0090187592 4284118573
0.029130325 -0.0035226084 0.010688412 4284315433
0.0065805763 0.0055157579 0.0018264139 4283463223
0.0090160035 0.0035300255 0.0035144063 4283857199
0.011283834 0.0022520646 0.0044999244 4283857454
0.013562381 0.00097499415 0.0054831309 4284053294
0.015851669 -0.00030123815 0.0064641377 4284118318
0.017768271 -0.00016460195 0.0060481103 4284182578
0.0066249594 0.0032469817 0.0013888152 4283658299
0.0090623721 0.0012547746 0.0030714786 4283987248
0.011699349 -0.0014448911 0.0054481905 4284118574
0.014171571 -0.0034344122 0.0071234433 4284249389
0.041385785 -0.014948979 0.0064615505 4284575788
0.043339185 -0.014808387 0.00603854 4283202358
0.04574379 -0.0160923 0.0069824895 4282484024
0.049300522 -0.020935923 0.011338624 4282155073
0.054973256 -0.03218399 0.02182737 4282219843
0.037338991 -0.01683905 0.0061359713 4283135038
0.039509766 -0.017413758 0.0063963784 4282679099
0.041685838 -0.017987967 0.0066557201 4282483003
0.043644439 -0.017847009 0.0062315753 4281894209
0.046053879 -0.019134969 0.0071712537 4281567299
0.049842566 -0.024707846 0.012196287 4281567300
0.032874163 -0.017292626 0.0044433922 4283135803
0.035245903 -0.018588215 0.0053875353 4282416703
0.037628282 -0.019882903 0.0063293995 4281893953
0.03980406 -0.020459414 0.006587089 4281763139
0.041985158 -0.021035492 0.0068437466 4281370693
0.04394896 -0.02089414 0.0064184936 4281501763
0.046363205 -0.022186071 0.0073538003 4281501254
0.050383478 -0.028492682 0.013044628 4281370693
0.022408906 -0.017430887 0.0033320133 4284377653
0.024150297 -0.016571432 0.0022267308 4282873919
0.026288468 -0.017153561 0.0024904571 4281763139
0.028228264 -0.017014734 0.0020697992 4281893443
0.030374438 -0.017596021 0.0023319125 4281828418
0.032944027 -0.019616902 0.0039571766 4281435973
0.035317913 -0.020916685 0.004897574 4281501254
0.037702441 -0.022215568 0.0058357054 4281435973
0.039663512 -0.02207464 0.0054108743 4281435718
0.042063996 -0.023372188 0.006345761 4281370693
0.043807939 -0.022511572 0.0052407468 4281370693
0.046221662 -0.023807876 0.006172902 4281305414
0.050695512 -0.031571671 0.013205484 4281436229
0.022466537 -0.019751348 0.0028519612 4282744379
0.024210662 -0.018889569 0.001747774 4281763903
0.026552001 -0.020196497 0.0026915427 4281502783
0.028293476 -0.019334659 0.001588108 4281371458
0.030648176 -0.020640396 0.0025291648 4281501509
0.033013545 -0.021945283 0.0034680311 4281370949
0.035389565 -0.023249254 0.0044046426 4281436228
0.03777625 -0.024552375 0.0053390758 4281370693
0.039739851 -0.024411261 0.0049136942 4281436229
0.041703414 -0.024270028 0.0044884169 4281435718
0.043889131 -0.024849966 0.0047408389 4281370693
0.046304997 -0.02615048 0.0056692669 4281435463
0.051461864 -0.036100961 0.014713136 4281370438
0.022523815 -0.022075921 0.0023689307 4282026298
0.02446864 -0.021936968 0.0019470099 4281828928
0.026413487 -0.021797888 0.0015251748 4281567554
0.028561663 -0.022383519 0.0017834874 4281370693
0.030715171 -0.022968635 0.0020407336 4281500998
0.033291355 -0.025002174 0.0036547678 4281370438
0.035672199 -0.026310191 0.0045870999 4281370438
0.038277682 -0.028341353 0.006194911 4281435974
0.040465809 -0.028923512 0.0064450102 4281697093
0.042878587 -0.030228898 0.007370689 4281762629
0.045301978 -0.031533338 0.0082941102 4281631304
0.0486347 -0.035730116 0.011917167 4281762119
0.053136058 -0.043539934 0.0189077 4281566279
0.022775874 -0.025132164 0.0025631161 4283269933
0.024528094 -0.024265446 0.0014604451 4281763393
0.026675928 -0.024853386 0.0017171139 4281698113
0.028625969 -0.024713822 0.0012942376 4281500998
0.030987632 -0.026027821 0.0022272663 4281566534
0.033359952 -0.027340889 0.0031580301 4281500998
0.036165219 -0.030106008 0.0054400684 4281435208
0.038991809 -0.032869458 0.0077175843 4281305924
0.042056188 -0.036357328 0.01066614 4281436229
0.045366354 -0.040569022 0.01428401 4281631813
0.048930302 -0.045504004 0.018569518 4281696074
0.022247428 -0.025277749 3.6732294e-05 4281828674
0.024389576 -0.025868408 0.00029289071 4281500998
0.026537079 -0.026458554 0.00054799672 4281501509
0.028689936 -0.027048245 0.0008020578 4281239368
0.031053733 -0.028366432 0.0017312923 4281173068
0.03405305 -0.031870224 0.0046854811 4281238604
0.037500944 -0.036829293 0.0089842835 4281369164
0.041627012 -0.043970898 0.015298746 4281630539
0.044941247 -0.048195489 0.018905818 4281890893
0.022304032 -0.027610183 -0.00045202579 4282744888
0.024448518 -0.028202839 -0.00019800197 4281369164
0.026798449 -0.029526658 0.00073081721 4281108043
0.028956294 -0.030118138 0.00098211784 4281107789
0.031324908 -0.031440362 0.0019070776 4280845139
0.034952737 -0.037147813 0.006874484 4280647258
0.039255533 -0.045044675 0.0138534 4280776033
0.044043828 -0.054398432 0.022165563 4281691483
-0.013758793 -0.017547749 -0.0074467957 4283526974
-0.012015685 -0.016677141 -0.0085440781 4283789623
0.020218827 -0.029351495 -0.0011966964 4284574004
0.022360284 -0.029946685 -0.00094375666 4282482493
0.024507109 -0.03054142 -0.00069185253 4281040979
-0.02390641 -0.016810805 -0.0092662629 4283397434
-0.022022881 -0.016678765 -0.0096767955 4282547518
-0.019857056 -0.018026926 -0.0087164454 4281762373
-0.017824166 -0.018634215 -0.008443214 4281697348
-0.015639432 -0.019980796 -0.0074868705 4281632324
-0.013891064 -0.019107759 -0.0085837469 4281828673
-0.011844456 -0.019713745 -0.0083132517 4283463224
-0.03032428 -0.015040532 -0.012598395 4284379948
-0.028194211 -0.016396008 -0.01163386 4283398709
-0.02618622 -0.017007694 -0.011357198 4282351678
-0.024308294 -0.016876176 -0.011766601 4281763393
-0.022153795 -0.018229574 -0.010807199 4281632833
-0.019988477 -0.01958216 -0.0098500345 4281631813
-0.017668843 -0.021675967 -0.0082119536 4281501508
-0.015771702 -0.021542668 -0.0086252224 4281305668
-0.013874404 -0.021409236 -0.009038426 4281763648
-0.011825457 -0.022017308 -0.0087700579 4283461693
-0.034314223 -0.016095169 -0.013591301 4284708135
-0.03219831 -0.017456189 -0.012627183 4283924263
-0.030198947 -0.018070929 -0.012350401 4282287163
-0.0281941 -0.018685147 -0.012074789 4281763393
-0.026316464 -0.018553771 -0.012484223 4281567554
-0.024303302 -0.019167185 -0.012210257 4281436738
-0.022008613 -0.021269575 -0.010571795 4281502019
-0.01983849 -0.022626147 -0.0096190097 4281370949
-0.017657563 -0.023981899 -0.0086684497 4281566788
-0.015757889 -0.023848429 -0.0090822736 4281500743
-0.01415544 -0.022226863 -0.010857005 4282155073
-0.012109503 -0.022837304 -0.010589677 4283919673
-0.042351641 -0.015156753 -0.01583045 4284575023
-0.040382773 -0.015776299 -0.015549106 4283202103
-0.038408399 -0.01639542 -0.015268853 4282417724
-0.036428511 -0.017013982 -0.014989754 4281241409
-0.034321271 -0.018380091 -0.014027115 4281698369
-0.03220319 -0.01974538 -0.013066713 4281763394
-0.030201495 -0.020362131 -0.012792159 4281697603
-0.028194293 -0.020978376 -0.012518706 4281698113
-0.026314124 -0.020846844 -0.012928706 4281567554
-0.024298631 -0.021462291 -0.012656901 4281436228
-0.02213981 -0.022824198 -0.011704987 4281305923
-0.019970194 -0.024185188 -0.010755383 4281240899
-0.017646611 -0.02629187 -0.0091279736 4281436739
-0.015890241 -0.025411904 -0.010221803 4281500998
-0.013990574 -0.025278337 -0.010635559 4282220609
-0.01209078 -0.025144652 -0.011049249 4284115513
-0.045131311 -0.024455488 -0.0092685455 4284639539
-0.043792099 -0.020569116 -0.013109379 4283462459
-0.042368241 -0.017435454 -0.016259007 4282548028
-0.040283322 -0.018807836 -0.015294965 4281959998
-0.038303941 -0.019428745 -0.015017495 4281567553
-0.036200039 -0.020799585 -0.014057504 4281240644
-0.034328647 -0.020669103 -0.014465922 4281174599
-0.032084078 -0.022788666 -0.01282681 4281370948
-0.030204371 -0.022657409 -0.01323689 4281436738
-0.028194822 -0.023275688 -0.012965608 4281371458
-0.026312135 -0.023144007 -0.013376173 4281436484
-0.02415929 -0.024510831 -0.012426336 4281436228
-0.022133313 -0.025127612 -0.012158378 4281501254
-0.019961536 -0.026492812 -0.011212525 4281370949
-0.017778963 -0.027857199 -0.010268903 4281436228
-0.016022556 -0.02697508 -0.011361123 4281435208
-0.01412303 -0.026841529 -0.011774846 4282155584
-0.012223378 -0.026707858 -0.012188517 4284050488
-0.044416241 -0.032033026 -0.004918545 4282675274
-0.043595903 -0.024367541 -0.012177962 4282152524
-0.042385161 -0.019718274 -0.016690498 4281696583
-0.040411577 -0.020341888 -0.016413486 4281240133
-0.038432516 -0.020965025 -0.016137609 4281239879
-0.036210254 -0.023092896 -0.014498699 4281305158
-0.034336351 -0.022962272 -0.01490769 4281174853
-0.032089792 -0.025088221 -0.013273985 4281175109
-0.030080736 -0.025708817 -0.013004313 4281240898
-0.028066181 -0.026328996 -0.01273574 4281371204
-0.026046142 -0.026948623 -0.012468302 4281502019
-0.024155453 -0.026816301 -0.012880555 4281632069
-0.021989666 -0.028186418 -0.011936775 4281501254
-0.020093344 -0.028053463 -0.012350078 4281369928
-0.018054076 -0.028671339 -0.01208645 4280977229
-0.016300291 -0.027787171 -0.013176515 4280910928
-0.014255434 -0.02840443 -0.012913932 4280776544
-0.043508761 -0.027423263 -0.01193874 4282478924
-0.042402394 -0.022005148 -0.017125031 4281632578
-0.040426463 -0.022630811 -0.016850192 4281370693
-0.038329057 -0.024010956 -0.015895447 4281109318
-0.035983495 -0.02689983 -0.013582018 4281240133
-0.03410174 -0.026768684 -0.01399275 4281175109
-0.03197185 -0.028146297 -0.013044802 4281175109
-0.030084431 -0.028014541 -0.013456597 4281175363
-0.028196834 -0.02788265 -0.013868346 4281175618
-0.026177123 -0.028504521 -0.013602507 4281436228
-0.024151951 -0.029125869 -0.013337757 4281434698
-0.021983989 -0.030500256 -0.012397698 4281238603
-0.020085134 -0.030367129 -0.012811554 4281041999
-0.018186159 -0.030233882 -0.013225364 4280515679
-0.043530129 -0.029729739 -0.012386893 4282936139
-0.042419948 -0.02429615 -0.017562576 4281305669
-0.040667951 -0.023409143 -0.018649932 4281370183
-0.038457893 -0.025551043 -0.017018352 4281305414
-0.036231682 -0.027691752 -0.015390166 4281239623
-0.034110442 -0.029074393 -0.014443737 4281305414
-0.031730823 -0.031969421 -0.012144161 4281500743
-0.029835545 -0.031837136 -0.012557689 4281369164
-0.028069206 -0.030948505 -0.013647701 4281040213
-0.043444164 -0.032800265 -0.012158414 4283001164
-0.042327523 -0.02735097 -0.01732412 4281370948
-0.040231265 -0.028740086 -0.016375724 4281043019
-0.038008578 -0.030887671 -0.014751825 4281631558
-0.03553316 -0.034552403 -0.011776747 4281631049
-0.033272862 -0.036697134 -0.010160888 4281565769
-0.030996412 -0.038840659 -0.0085484218 4281369928
-0.029587708 -0.035672635 -0.011668108 4281038684
-0.042714141 -0.040451899 -0.0078681801 4283000398
-0.041575059 -0.034985811 -0.01302732 4281697094
-0.039458014 -0.036377862 -0.012086757 4281435973
-0.037099279 -0.039292075 -0.0097960271 4281631558
-0.034600966 -0.042966127 -0.0068341536 4281499724
-0.032196641 -0.045876965 -0.0045532179 4281498959
-0.010034487 0.02624752 0.024468649 4280305048
-0.0082932785 0.027057465 0.023326278 4281158278
-0.0060778297 0.025840882 0.024372038 4281225343
-0.014709085 0.027803419 0.020503536 4281488249
-0.013885826 0.032683924 0.014989722 4278273209
-0.012328342 0.034171894 0.013126734 4278467009
-0.010153528 0.032947913 0.014178003 4278598333
-0.024126403 0.024901178 0.022150602 4280830859
-0.022240058 0.025034066 0.021739949 4280765579
-0.020635031 0.026529336 0.019869652 4279389599
-0.019040525 0.028023975 0.018001657 4278734758
-0.017602615 0.030198662 0.015407368 4278603179
-0.016031787 0.031691782 0.013544637 4278273463
-0.0149258 0.035225384 0.0095017208 4278930088
-0.013075836 0.035356171 0.0090993354 4278405809
-0.0085782818 0.032218866 0.011923525 4278733993
-0.0065524541 0.031671189 0.012243559 4279325338
-0.0043563806 0.030444572 0.013287022 4280441729
-0.030297942 0.024997961 0.020053789 4282340204
-0.02800063 0.032785185 0.011206082 4278403513
-0.026016675 0.032231592 0.011532924 4278534329
-0.024027191 0.031678431 0.011858667 4278796979
-0.022172786 0.031809106 0.011454995 4278472365
-0.020318195 0.031939872 0.011051345 4278603434
-0.018755257 0.033436708 0.0091935424 4278667948
-0.013821766 0.036558315 0.0050849421 4278863788
-0.011669263 0.035323933 0.0061344346 4278340019
-0.006846074 0.030812226 0.010397241 4278931619
-0.0048177354 0.03026258 0.010715111 4280574583
-0.034548916 0.025243875 0.017549191 4281225853
-0.033177271 0.028121827 0.014221468 4278865574
-0.031953797 0.031684853 0.010168872 4278667439
-0.030367635 0.033187166 0.008308976 4278929833
-0.028791972 0.03468886 0.0064513823 4279519903
-0.026686579 0.033446103 0.0075073307 4278273463
-0.024570346 0.032204248 0.0085609471 4278470834
-0.022583649 0.031648763 0.0088856248 4278602414
-0.020877533 0.032464478 0.0077570891 4278603178
-0.019322336 0.033965074 0.0059042787 4278668968
-0.017629266 0.034780055 0.0047786497 4278275249
-0.0094773024 0.031878866 0.0067912517 4278537389
-0.007462725 0.031325951 0.0071103936 4278603433
-0.0054426938 0.03077355 0.0074283658 4278670754
-0.0035842955 0.030905271 0.007024399 4279982729
-0.044887066 0.028565323 0.01260421 4278403259
-0.039346457 0.028953275 0.011396251 4278536113
-0.037499137 0.029082766 0.010993603 4278996388
-0.036016181 0.031279542 0.008403725 4278734759
-0.034300633 0.032097571 0.0072743027 4278341295
-0.031273514 0.035798222 0.0028369995 4279716509
-0.02944918 0.035926476 0.0024396414 4279192994
-0.0270852 0.033302277 0.0049470598 4278930089
-0.022853494 0.030809699 0.0070479019 4278602668
-0.0214357 0.03300254 0.0044726329 4278407083
-0.019742697 0.033819564 0.0033486253 4278406828
-0.018054858 0.034636296 0.0022258032 4278734249
-0.016523093 0.036139734 0.00038147718 4278996134
-0.014387704 0.034895271 0.0014279466 4278996134
-0.012397714 0.034338281 0.0017505996 4278603434
-0.010084469 0.032408863 0.003514071 4278603433
-0.0082397573 0.03253942 0.0031129317 4278472363
-0.0063949116 0.032670088 0.0027118418 4278604454
-0.0042161942 0.031429105 0.003749202 4279129753
-0.048810571 0.02747385 0.01156563 4279389854
-0.047599278 0.031757005 0.0067777103 4278864809
-0.04620368 0.034653611 0.0034575285 4278271679
-0.044386417 0.034780741 0.0030612452 4278796723
-0.040171243 0.031577006 0.005911923 4278667694
-0.03834001 0.031705327 0.0055127526 4278537898
-0.036629893 0.03252501 0.0043861177 4278930853
-0.034924917 0.033344388 0.003260646 4278668203
-0.023402929 0.031355217 0.0037666885 4278602923
-0.021849997 0.032864261 0.0019208463 4278603434
-0.02016224 0.033683054 0.00079959445 4278603434
-0.018183634 0.033122793 0.0011228705 4278603433
-0.016500913 0.033941407 2.8451905e-06 4278800038
-0.014363326 0.032692701 0.0010455307 4278472363
-0.012682982 0.033511303 -7.3861331e-05 4278537388
-0.0024965219 0.030033348 0.0022344859 4279850638
-0.058151402 0.025308013 0.012465608 4278272954
-0.056217507 0.024740804 0.012795766 4278665653
-0.054372534 0.02486939 0.012393077 4279388324
-0.053110346 0.029168967 0.0076037282 4278866084
-0.05168017 0.032076485 0.0042823907 4278406828
-0.048357241 0.03441434 0.0013004914 4278798764
-0.046761297 0.035929743 -0.00055221096 4279453859
-0.044844329 0.035361852 -0.00021799002 4279388833
-0.04280863 0.034100346 0.00084272865 4278994859
-0.038704589 0.031579897 0.0029571727 4278537643
-0.037120894 0.033094846 0.0011073695 4278602923
-0.035423815 0.033915829 -1.4762394e-05 4278668714
-0.033858374 0.035429657 -0.0018604668 4278603178
-0.032045081 0.035556972 -0.0022555338 4278930854
-0.030099794 0.034991629 -0.0019269893 4278930343
-0.027880006 0.033041723 -0.00015370268 4278733738
-0.026055507 0.033170067 -0.0005510347 4278603434
-0.02423083 0.0332985 -0.00094834436 4278537898
-0.022548467 0.034119003 -0.0020668488 4278668968
-0.020435803 0.032863837 -0.0010221992 4278341293
-0.018607996 0.032992728 -0.0014200136 4278538154
-0.016629525 0.032430336 -0.0010983041 4278603689
-0.014645584 0.031868391 -0.00077773817 4278472108
-0.013123661 0.033379998 -0.002613259 4278733995
-0.0099503137 0.035710629 -0.0055601015 4279192228
-0.003303919 0.03126698 -0.0017395969 4279194268
-0.00094876438 0.02932776 5.1585957e-06 4280311169
-0.063803166 0.02340091 0.01256162 4280766344
-0.062798806 0.030511694 0.0048354063 4278471343
-0.061415702 0.03412839 0.00077995099 4278337724
-0.059613921 0.034253776 0.00038654543 4278533564
-0.055349298 0.029622057 0.0047103092 4278536879
-0.053722091 0.031143682 0.0028538285 4278734759
-0.052204952 0.033361867 0.00027071405 4278865574
-0.039186679 0.032159399 -0.00031672139 4278799529
-0.037368745 0.032286774 -0.00071300287 4278865319
-0.035674267 0.03310971 -0.0018329648 4278537898
-0.033858605 0.033237077 -0.0022286372 4278734504
-0.031913787 0.032669425 -0.0019017709 4278800038
-0.029831812 0.031407326 -0.00085410383 4278865318
-0.028141879 0.032230273 -0.0019728197 4278406828
-0.020853937 0.032743268 -0.0035597072 4278340018
-0.018883914 0.032177966 -0.0032378994 4278472363
-0.016908407 0.031613082 -0.0029171822 4278407083
-0.015080407 0.031742133 -0.0033149295 4278602923
-0.012215562 0.035465807 -0.0076910821 4278734248
-0.010400519 0.035594199 -0.0080858171 4279193248
-0.0084217004 0.035029985 -0.0077654957 4278799528
-0.0059384741 0.032388829 -0.0053031039 4278865064
-0.0037717782 0.031133872 -0.0042729978 4278735014
-0.0017659664 0.030571872 -0.0039583915 4278931874
-0.066474669 0.028058304 0.0052659297 4278997153
-0.065061986 0.031687807 0.0012120977 4278668968
-0.063675649 0.035315536 -0.002835935 4278864554
-0.062057182 0.036840647 -0.004687509 4279651993
-0.060182631 0.036264714 -0.0043477765 4278995879
-0.05802805 0.033589497 -0.0018220441 4278798764
-0.055946089 0.031615615 -2.9479153e-05 4278274484
-0.054138303 0.031741567 -0.00042408518 4278799273
-0.052529201 0.033266313 -0.0022733207 4278668969
-0.05093053 0.034790464 -0.0041202642 4278603178
-0.049132682 0.034915939 -0.0045125401 4278471599
-0.047442056 0.035740294 -0.0056303814 4278405809
-0.045426168 0.034468479 -0.0045720562 4278536879
-0.043399401 0.033197545 -0.0035160868 4278667949
-0.041361742 0.031927448 -0.0024624337 4278734503
-0.039667577 0.032752361 -0.0035808226 4278406828
-0.037857741 0.032879122 -0.0039753737 4278472363
-0.035800822 0.031610563 -0.002925708 4278407083
-0.03398525 0.031737886 -0.0033213878 4278472618
-0.032040715 0.03116798 -0.0029961392 4278603944
-0.03022211 0.031295676 -0.0033923658 4278537643
-0.028403312 0.031423464 -0.0037885681 4278667948
-0.019011945 0.030671826 -0.0043355012 4278602923
-0.017336972 0.031496368 -0.0054489686 4278603433
-0.015819989 0.033016235 -0.007276943 4278734248
-0.0042388327 0.031009842 -0.0067997905 4278668969
-0.0018957146 0.029056637 -0.0050623654 4278603943
0.0001152195 0.028492879 -0.0047504683 4279327378
-0.066833936 0.028665138 0.0019793389 4278997408
-0.062266476 0.036067016 -0.0064924289 4278995624
-0.060572147 0.036893278 -0.0076098475 4278602414
-0.054649949 0.033054613 -0.0044185105 4278799783
-0.052951947 0.033881407 -0.0055365227 4278668969
-0.051259018 0.034707926 -0.0066533657 4278668969
-0.049361974 0.034131784 -0.0063199536 4278472108
-0.047673926 0.034958109 -0.0074356208 4278930853
-0.045661166 0.033681694 -0.0063799825 4278537898
-0.04375013 0.033106703 -0.0060494156 4278734503
-0.041948803 0.033232678 -0.0064422553 4278340274
-0.036173828 0.031511459 -0.0054592919 4278341293
-0.034111828 0.03023893 -0.0044139829 4278603178
-0.032296181 0.030366285 -0.0048096599 4278472363
-0.03048034 0.030493751 -0.005205309 4278537388
-0.027394503 0.033544786 -0.0088668754 4279126694
-0.025728069 0.034370534 -0.0099771284 4279193758
-0.023782946 0.033798873 -0.0096533569 4278930089
-0.021398544 0.031132471 -0.0071831997 4278798764
-0.019434445 0.030562308 -0.0068634413 4278406319
-0.017764732 0.03138864 -0.0079741403 4278668969
-0.016252823 0.032912549 -0.0097977826 4278734248
-0.014440909 0.033040509 -0.010191996 4278930854
-0.012786798 0.033865988 -0.011299113 4278537389
-0.010977305 0.033993945 -0.011692675 4278406319
-0.0063623153 0.030068841 -0.008212517 4278472364
-0.0038620271 0.027411414 -0.0057669776 4278735014
-0.001854144 0.026845152 -0.0054561384 4278342058
0.00033312663 0.025583006 -0.0044369251 4278736798
0.0025311522 0.024321757 -0.003420027 4280770423
-0.066802956 0.025759116 0.0023463666 4279194523
-0.065632671 0.031525511 -0.0038754526 4278341549
-0.060872003 0.036830723 -0.010135675 4278403768
-0.056946322 0.034261167 -0.0080099506 4278537643
-0.05506359 0.033681527 -0.0076752193 4278603434
-0.053274386 0.033806141 -0.0080657993 4278734503
-0.051383175 0.03322728 -0.0077328496 4278538154
-0.049590826 0.033352271 -0.0081239967 4278538154
-0.047691189 0.032774143 -0.0077927806 4278603434
-0.045895718 0.032899499 -0.0081845 4278471854
-0.044100046 0.033024952 -0.008576205 4278668203
-0.040979043 0.036085993 -0.012239773 4278337468
-0.038952582 0.034806393 -0.011190157 4278337468
-0.03666909 0.032123454 -0.0087051177 4278666164
-0.034615576 0.030845948 -0.0076613287 4278996389
-0.032808028 0.030972702 -0.0080552688 4278472363
-0.031262435 0.032502614 -0.0098834354 4278472363
-0.026271403 0.034985542 -0.013207757 4278274484
-0.02419284 0.033710301 -0.012169042 4278340529
-0.018191695 0.031290032 -0.010492753 4278865318
-0.016532429 0.032117873 -0.011599489 4278406828
-0.014568217 0.031545758 -0.01128123 4278668968
-0.012598529 0.030974124 -0.010964087 4278669223
-0.010462962 0.029703464 -0.0099372817 4279062433
-0.0081535205 0.027734399 -0.008202591 4278997154
-0.005662214 0.025067531 -0.0057617957 4278866083
-0.0031494424 0.022402223 -0.0033255559 4278735013
-0.0011285171 0.021834679 -0.0030192123 4278735524
0.001071617 0.020569056 -0.0020060958 4278342568
0.003458932 0.018605959 -0.00028799474 4280049283
-0.066384472 0.01930736 0.0063428888 4280832133
-0.065675937 0.029336127 -0.0042296476 4278800293
-0.064378023 0.033703182 -0.0089779403 4278538154
-0.062598132 0.033826757 -0.0093667824 4278931109
-0.060817972 0.033950411 -0.0097556375 4278800039
-0.059037574 0.034074157 -0.010144487 4278603178
-0.057256944 0.034197994 -0.010533333 4278668713
-0.055476062 0.034321908 -0.010922188 4278603434
-0.053595997 0.033739973 -0.010588535 4278668968
-0.051710397 0.033158481 -0.010256045 4278407083
-0.049714997 0.031871822 -0.0092033325 4278407083
-0.047922522 0.031996846 -0.0095944917 4278799783
-0.046129823 0.032121964 -0.0099856416 4278602668
-0.044561386 0.033657268 -0.011816014 4278667949
-0.041338265 0.036021203 -0.014751214 4279651229
-0.03919737 0.034032345 -0.012985855 4278667949
-0.037040278 0.032044664 -0.011223922 4278668204
-0.034992568 0.030762298 -0.010182141 4278602923
-0.033318676 0.031592593 -0.011291068 4278799783
-0.031519048 0.031718835 -0.011683249 4278537898
-0.029986344 0.033252254 -0.013505292 4278537388
-0.022229873 0.030945921 -0.01221844 4278472109
-0.019983254 0.02896533 -0.010475481 4278865829
-0.018169172 0.029093208 -0.010870346 4278800293
-0.016202696 0.02851891 -0.010554264 4278734759
-0.014075883 0.027243104 -0.0095290355 4278735013
-0.011938252 0.025968101 -0.0085060531 4278735269
-0.0097898468 0.024694003 -0.0074853878 4278669734
-0.0073048323 0.022017773 -0.0050498475 4278276269
-0.002438698 0.017371289 -0.00089998823 4278342314
-0.00040471554 0.016802419 -0.00059809443 4278408104
0.001634676 0.01623407 -0.00029734988 4278735523
0.0038557462 0.014965683 0.00070794299 4280900983
-0.065479159 0.025014181 -0.0024119648 4279062943
-0.064417876 0.031522952 -0.0093261758 4278472619
-0.062635414 0.03164665 -0.0097156232 4278471853
-0.06094078 0.032479331 -0.010828292 4278341293
-0.059251204 0.033311732 -0.011939806 4278405808
-0.051935405 0.032390699 -0.012052317 4278406573
-0.050047189 0.031807229 -0.011722019 4278537898
-0.04815343 0.03122418 -0.011392836 4278734248
-0.046691649 0.033471353 -0.013939168 4278537134
-0.04370068 0.037255537 -0.01830389 4278996388
-0.041814052 0.036672346 -0.017972959 4279128224
-0.0396818 0.034676254 -0.016210627 4278996134
-0.037656091 0.033387881 -0.015167479 4278471599
-0.035744891 0.032806661 -0.014841717 4278602923
-0.0339562 0.032932024 -0.015231594 4278668969
-0.032167345 0.033057481 -0.015621452 4278668968
-0.030244924 0.032477256 -0.0152979 4278734504
-0.028725117 0.03401424 -0.017113844 4278800039
-0.026938416 0.034139808 -0.017503032 4278996643
-0.024727426 0.032149889 -0.015757367 4279127713
-0.022068188 0.02804626 -0.011882082 4279127968
-0.019670188 0.025354564 -0.0094346162 4278800548
-0.017549463 0.024073698 -0.0084114717 4278735014
-0.01556997 0.023498155 -0.008099922 4278472874
-0.013584994 0.022923093 -0.0077894954 4278473384
-0.011437193 0.021644458 -0.0067720744 4278473894
-0.0091185421 0.019662779 -0.0050493577 4278473894
-0.006783776 0.017682329 -0.003330078 4278604453
-0.0042675026 0.014999636 -0.0009078579 4278669988
-0.0018978342 0.013021898 0.00080393814 4278735523
0.00014650822 0.012451597 0.0011018738 4278735778
0.0021962784 0.011881743 0.0013987552 4278801569
0.0042514689 0.011312403 0.0016944781 4279326358
-0.064804219 0.016404949 0.0037332717 4281422204
-0.064210258 0.027204132 -0.0075090723 4278603433
-0.062843449 0.030884963 -0.011511901 4278275758
-0.06123928 0.032430686 -0.013344035 4278602668
-0.052261189 0.032337725 -0.014563927 4279126438
-0.050378583 0.031751644 -0.014234079 4278668203
-0.048703484 0.032585621 -0.015340488 4278799784
-0.047142729 0.034128971 -0.017162737 4278734249
-0.03586933 0.03133072 -0.015917584 4278800293
-0.033952892 0.030747691 -0.015594522 4278472874
-0.032161474 0.030873291 -0.015984964 4278669479
-0.030103505 0.029583123 -0.0149519 4278866084
-0.02830641 0.029709289 -0.015343448 4278931619
-0.02637063 0.029128006 -0.015024386 4278603689
-0.0240058 0.026425026 -0.012576427 4278538154
-0.021619476 0.023723647 -0.010133083 4278407339
-0.016931579 0.019032504 -0.0059684808 4278276524
-0.014939047 0.018455662 -0.0056614368 4278473129
-0.012941048 0.017879307 -0.0053555085 4278604453
-0.010937572 0.017303426 -0.0050507057 4278604453
-0.0089286566 0.016728029 -0.0047470098 4278735523
-0.0067517497 0.015447203 -0.0037390366 4278735778
-0.0043988712 0.013461553 -0.0020285696 4278866848
-0.0018620268 0.010771699 0.00038262177 4278735778
0.00018468127 0.01019932 0.00067843404 4278736033
0.0020636097 0.010332581 0.00027006865 4278867359
0.0041184872 0.0097610168 0.00056420173 4279457939
-0.063921645 0.02215429 -0.0049834605 4279456664
-0.06305106 0.030127892 -0.013304826 4278537898
-0.060129024 0.035366442 -0.019117599 4278995624
-0.058462985 0.036201552 -0.020220708 4279127714
-0.056514911 0.034898125 -0.019167788 4279061414
-0.054457612 0.032883018 -0.017399542 4279126694
-0.050709151 0.031705089 -0.016739566 4278668458
-0.049145669 0.033252895 -0.018559203 4278800038
-0.047483578 0.034088183 -0.019661102 4278734248
-0.045714945 0.034211569 -0.020047043 4278471853
-0.044060446 0.035046488 -0.021147173 4278733993
-0.041943036 0.033036113 -0.019391634 4278668714
-0.040048771 0.032449059 -0.019065596 4278799783
-0.037781999 0.02972986 -0.016603369 4278996898
-0.035868712 0.029144295 -0.016281359 4278997154
-0.033694573 0.027138222 -0.01453794 4278866339
-0.031764925 0.026553975 -0.014219369 4278604199
-0.029696777 0.025260117 -0.013191835 4278538409
-0.027753457 0.024677042 -0.012876155 4278473129
-0.025527976 0.022674888 -0.011143609 4278341804
-0.020884886 0.017964918 -0.0069811102 4278473129
-0.018754601 0.016675826 -0.0059667341 4278342059
-0.01676251 0.016096648 -0.0056613274 4278473384
-0.01476495 0.015517943 -0.0053570466 4278800803
-0.012761913 0.014939733 -0.0050538769 4278669733
-0.010753401 0.014361963 -0.0047517791 4278604453
-0.0087394528 0.013784714 -0.0044508409 4278932128
-0.0065577216 0.012499876 -0.0034472654 4278801059
-0.0043651909 0.011215866 -0.002445918 4278801059
-0.0019942224 0.0092250556 -0.00074430089 4278801059
5.2176416e-05 0.0086504444 -0.00045008212 4278669988
0.0021039918 0.0080763698 -0.00015700608 4278998429
0.004336901 0.0067956522 0.00083581358 4279851148
-0.063388117 0.014935095 -0.00031494722 4281225853
-0.063088447 0.027944129 -0.013656385 4279062688
-0.058769763 0.036181144 -0.022712983 4278274994
-0.051142424 0.032382015 -0.019953433 4278799783
-0.049480483 0.033219367 -0.021053752 4278603434
-0.047605984 0.032628417 -0.020725366 4278407083
-0.045502953 0.030610232 -0.01897173 4278603433
-0.043612063 0.030020589 -0.018646806 4278800549
-0.041481987 0.028004499 -0.01689899 4278866084
-0.039455235 0.026702853 -0.015866032 4278997409
-0.037295446 0.02468897 -0.014124521 4278669734
-0.035119496 0.022676349 -0.012386518 4278538664
-0.029158667 0.020207439 -0.010735886 4278408104
-0.027066827 0.018910892 -0.0097167064 4278408104
-0.02510231 0.018327188 -0.00940724 4278473384
-0.022709869 0.015608598 -0.0069784904 4278538918
-0.020726368 0.015026417 -0.0066730157 4278604453
-0.018737391 0.014444713 -0.0063686697 4278669988
-0.016891755 0.014574703 -0.0067704851 4278604198
-0.014743015 0.013282746 -0.0057633277 4278735268
-0.012583472 0.011991609 -0.0047584097 4278800803
-0.010413133 0.010701373 -0.0037558055 4278604198
-0.0083914809 0.010122415 -0.0034581651 4278866594
-0.0062022284 0.008833725 -0.0024595219 4278735524
-0.0041670278 0.0082559623 -0.0021647196 4278473384
-0.001958888 0.0069687553 -0.0011699982 4278604708
8.9865178e-05 0.006392166 -0.00087798201 4278408103
0.0023168549 0.0051065385 0.00011274777 4279129499
0.0043791197 0.0045311041 0.00040197466 4280178824
-0.06287206 0.02360253 -0.011858782 4279391384
-0.062304646 0.033774436 -0.022285517 4278472363
-0.059261113 0.037604418 -0.02663004 4278406318
-0.05713927 0.034856714 -0.024149939 4278406318
-0.054995909 0.032110579 -0.02167448 4278275504
-0.052931689 0.030082809 -0.019917626 4278799783
-0.051264562 0.03092259 -0.021017518 4278734504
-0.049496531 0.031045703 -0.021403491 4278865574
-0.047619656 0.030452676 -0.021077313 4278800549
-0.045514636 0.028428046 -0.019329065 4278669734
-0.043393433 0.026404662 -0.017584335 4278276524
-0.03910242 0.022361465 -0.014105191 4278342059
-0.037054621 0.02105701 -0.013080114 4278342569
-0.034871347 0.01903826 -0.011348625 4278342568
-0.032799184 0.017735686 -0.010328728 4278277034
-0.030586235 0.015719205 -0.0086035654 4278801058
-0.028622352 0.015133046 -0.0082957735 4278407848
-0.026652969 0.014547378 -0.0079890992 4278604453
-0.024678089 0.013962138 -0.0076835165 4278604453
-0.02255708 0.012663465 -0.0066739088 4278604453
-0.020425275 0.01136563 -0.0056665898 4278669988
-0.018720515 0.012209453 -0.0067736283 4278931873
-0.0167237 0.01162618 -0.0064725792 4278735268
-0.014872707 0.011756614 -0.0068755103 4278866338
-0.012559697 0.0097480267 -0.0051714941 4278735268
-0.010387167 0.008453507 -0.0041726292 4278931874
-0.0080445856 0.0064472482 -0.0024749432 4278931874
-0.0058478191 0.0051546358 -0.0014812062 4278735269
-0.0038049184 0.0045752302 -0.0011897255 4278538663
-0.0015892908 0.0032841973 -0.00019998383 4278735524
0.0004671514 0.0027059503 8.8706613e-05 4278801059
0.0027016513 0.0014164262 0.0010745497 4281159810
0.0052975193 -0.001295276 0.0034534214 4283124584
-0.062319018 0.016363282 -0.0072106253 4280374409
-0.062076539 0.029446956 -0.020480473 4278735013
-0.060851634 0.033887573 -0.025153778 4278407083
-0.059195966 0.034728378 -0.026249796 4278735013
-0.057164788 0.032691531 -0.024490744 4279193759
-0.054921769 0.029217595 -0.021309409 4278931618
-0.052852876 0.027183523 -0.019558478 4278735015
-0.050974056 0.026588256 -0.019234508 4278603944
-0.049195498 0.026712054 -0.019622827 4278472874
-0.045193225 0.024087004 -0.017559467 4278342314
-0.042948224 0.021339647 -0.015112435 4278669989
-0.040798165 0.019311775 -0.01337889 4278539174
-0.038751043 0.018002734 -0.012357006 4278604964
-0.036814839 0.017412063 -0.012045109 4278604453
-0.034748681 0.01610459 -0.011027276 4278670498
-0.032671683 0.014797904 -0.0100117 4278801568
-0.030583844 0.013492111 -0.0089984676 4278670243
-0.028617583 0.012903914 -0.0086928494 4278866848
-0.026510723 0.011599604 -0.0076835714 4278735778
-0.024530828 0.011012558 -0.0073807831 4278670243
-0.022685863 0.011142153 -0.0077827116 4278801313
-0.02055455 0.0098398849 -0.0067785927 4278801313
-0.018558174 0.009254232 -0.0064791408 4278866594
-0.0164079 0.0079535134 -0.0054789926 4278604453
-0.014549024 0.008084476 -0.005883655 4278604708
-0.012228675 0.0060698092 -0.0041861935 4278866594
-0.01004868 0.0047714785 -0.0031922953 4278866084
-0.0076987557 0.0027591027 -0.0015011188 4279521179
-0.0054945014 0.0014626868 -0.00051234197 4279521178
-0.0032794625 0.0001670979 0.00047420897 4279652503
-0.00088655204 -0.0018418804 0.0021562269 4280961929
0.0013527013 -0.0031355619 0.0031376639 4282336888
-0.061684497 0.0083668567 -0.0018737502 4281357434
-0.061762817 0.024380066 -0.017974474 4279259804
-0.060523614 0.028834686 -0.022641048 4278669478
-0.058854558 0.029678619 -0.023738414 4278800803
-0.056810707 0.027636046 -0.021987092 4278866338
-0.054653034 0.024873342 -0.019527964 4278735268
-0.052574158 0.022833414 -0.017784219 4278342059
-0.050376102 0.020073682 -0.015333785 4278342059
-0.04857903 0.020198725 -0.015726175 4278276523
-0.046781704 0.020323876 -0.016118553 4278342314
-0.044873238 0.019728653 -0.015802495 4278538918
-0.042732038 0.017693479 -0.01407204 4278669988
-0.04057464 0.015659485 -0.012345009 4278735523
-0.038520001 0.014346611 -0.011328112 4278473383
-0.036697701 0.014473934 -0.011725614 4278736033
-0.034750953 0.013881836 -0.011417573 4278801568
-0.032544851 0.011851642 -0.00970094 4278866848
-0.03058175 0.011260904 -0.0093963761 4278932383
-0.028480873 0.0099516883 -0.0083891694 4278866848
-0.026504099 0.0093621165 -0.0080874339 4278604708
-0.024521835 0.0087730028 -0.007786836 4278866849
-0.022674337 0.0089027584 -0.0081893299 4278866594
-0.020540833 0.0075962022 -0.0071889535 4278866849
-0.018396527 0.006290555 -0.0061908979 4278866593
-0.016093142 0.0042679235 -0.00449483 4279128733
-0.014226399 0.0043994188 -0.0049012247 4279063454
-0.011898763 0.0023787469 -0.0032103313 4279324829
-0.009711232 0.0010765046 -0.0022213338 4279652249
-0.0073540136 -0.00094188377 -0.00053672493 4279848089
-0.0051422492 -0.0022422001 0.0004471587 4281549703
-0.060930051 0.014945727 -0.011212257 4281160573
-0.059928961 0.021587849 -0.018009933 4278604454
-0.056268826 0.021111391 -0.018078769 4278342569
-0.054288246 0.019788232 -0.017049488 4278408104
-0.052296825 0.018465951 -0.016022554 4278735524
-0.050088972 0.015698124 -0.013580858 4278539174
-0.048281334 0.015823856 -0.013975588 4278538918
-0.046473481 0.015949693 -0.014370296 4278473384
-0.044665419 0.016075645 -0.014764981 4278604708
-0.042630292 0.014756791 -0.013747223 4278801313
-0.040468231 0.012716569 -0.012026208 4278801313
-0.038527489 0.01212164 -0.011718664 4278670243
-0.036581241 0.011527237 -0.011412301 4278539429
-0.034629464 0.010933302 -0.011107072 4278670243
-0.032545432 0.0096183605 -0.010099689 4278735778
-0.030709371 0.0097468942 -0.010500005 4278866848
-0.028609 0.0084332377 -0.0094960006 4279063199
-0.026497796 0.0071204789 -0.008494325 4279063199
-0.02451317 0.00652932 -0.0081959041 4278931874
-0.022523046 0.0059386194 -0.0078985523 4278997664
-0.020527452 0.0053484365 -0.0076023722 4279325084
-0.018235549 0.0033183172 -0.0059088245 4280241554
-0.015631407 -0.00015057251 -0.0028214403 4280831369
-0.013301916 -0.0021777935 -0.0011359658 4282271609
-0.060534306 0.0090957284 -0.0080371089 4281226618
-0.059604988 0.016484991 -0.015533744 4279914899
-0.057901181 0.017335568 -0.016635448 4278998429
-0.056013249 0.016734019 -0.016318668 4279063453
-0.054022498 0.015407145 -0.015294925 4278801568
-0.052120797 0.014806729 -0.014981024 4278801568
-0.050110973 0.013481401 -0.013961358 4278604453
-0.048195541 0.01288205 -0.013650297 4278801313
-0.04627455 0.012283221 -0.013340417 4278538918
-0.044458605 0.01240968 -0.013736852 4278670243
-0.042529225 0.01181161 -0.013428673 4278473638
-0.040478393 0.010489531 -0.012417588 4278604708
-0.038535304 0.0098925903 -0.012112275 4278801568
-0.036465459 0.0085720606 -0.011105249 4278867103
-0.034508646 0.0079762787 -0.010802778 4278801568
-0.032546327 0.0073809177 -0.010501405 4278735523
-0.030578502 0.0067860894 -0.010201196 4278735778
-0.028473295 0.0054684207 -0.00920159 4279259294
-0.026222698 0.0034284256 -0.0075042928 4279455388
-0.024230383 0.002835609 -0.0072092023 4279258528
-0.022232577 0.002243273 -0.0069152331 4280241298
-0.02022928 0.0016513765 -0.006622348 4281419909
-0.060313575 0.0046770498 -0.0062987013 4281488758
-0.059550092 0.013545889 -0.015198057 4279915154
-0.05793263 0.015127331 -0.017007012 4279522198
-0.056042321 0.014523678 -0.016692381 4278801313
-0.054146454 0.013920549 -0.016378939 4278604964
-0.05214531 0.012590129 -0.015360754 4278736033
-0.050030887 0.01053293 -0.01363953 4278866593
-0.048110411 0.0099317655 -0.013331273 4278801058
-0.046292134 0.010058265 -0.013728307 4278670243
-0.044584021 0.01091186 -0.0148289 4278735778
-0.042541876 0.0095847398 -0.013819341 4278997663
-0.040604599 0.0089850388 -0.013514446 4278801568
-0.038661785 0.0083858706 -0.013210734 4278801568
-0.036592424 0.0070609078 -0.01220691 4278604963
-0.034512207 0.0057367682 -0.011205327 4278802079
-0.032547526 0.005139403 -0.010906176 4279063964
-0.030448318 0.0038168132 -0.0099086445 4279326103
-0.060439244 0.0031645522 -0.0074017188 4281881713
-0.059584759 0.011329014 -0.015575249 4279455898
-0.058055945 0.013645478 -0.018087633 4279324318
-0.056071684 0.012309257 -0.017069163 4278866593
-0.054270335 0.012434211 -0.017462775 4278735778
-0.052070543 0.0096394308 -0.015039162 4278932383
-0.050053686 0.0083057657 -0.014027666 4278801313
-0.048025966 0.0069729276 -0.013018421 4279128478
-0.046202451 0.0070997514 -0.013416625 4278931618
-0.044488959 0.0079559162 -0.014516825 4278997918
-0.042554826 0.007353697 -0.014212977 4278932639
-0.040615179 0.0067520104 -0.013910301 4279326104
-0.038551822 0.0054221377 -0.012908543 4279456663
-0.036598474 0.0048215762 -0.012608727 4280047244
-0.034516081 0.0034931898 -0.011610924 4282340714
-0.059619717 0.0091079883 -0.015955478 4280374154
-0.058087796 0.011431128 -0.018463608 4279194014
-0.056195408 0.010823224 -0.018152814 4279128478
-0.05429744 0.0102158 -0.017843168 4278866593
-0.052195206 0.0081445016 -0.016129244 4278800803
-0.05007679 0.0060744733 -0.014418827 4279063198
-0.048151568 0.0054691508 -0.0141149 4279194524
-0.046328172 0.0055959262 -0.01451311 4279456663
-0.044614613 0.0064542592 -0.015611701 4279391383
-0.042568095 0.0051185861 -0.014609668 4279260823
-0.040741421 0.0052458718 -0.015008382 4281358454
-0.059654959 0.0068828426 -0.016338727 4280833408
-0.058119945 0.0092127062 -0.018842645 4279195034
-0.056319043 0.0093374476 -0.019236295 4279063964
-0.054421395 0.0087277852 -0.018928248 4279326104
-0.052518189 0.008118581 -0.018621355 4279653268
-0.05050759 0.0067756586 -0.017615056 4280899454
-0.048486143 0.0054336227 -0.016611096 4281817454
-0.059602149 0.0039162599 -0.016023133 4281358453
-0.058061384 0.0062530674 -0.018523466 4279916174
-0.056348957 0.0071150437 -0.019618928 4279457683
-0.05444891 0.006503325 -0.019313071 4282079084
0.026659269 -0.031135604 -0.00044104364 4280181373
0.029019348 -0.03246288 0.00048235152 4279654798
0.031595334 -0.034522705 0.0020766743 4279196054
0.035642639 -0.041713841 0.0083752116 4279326868
0.040374994 -0.051100135 0.01667814 4279785868
0.022221811 -0.031550914 -0.0021122722 4280443259
0.024368305 -0.03214784 -0.0018619215 4279523983
0.026520122 -0.032744236 -0.0016126884 4279064474
0.028879669 -0.034075916 -0.00069246069 4279063964
0.031454936 -0.036142342 0.00089709461 4279260569
0.035707898 -0.044090837 0.0078506013 4279063964
0.040650669 -0.054240689 0.016802546 4279260569
0.017807171 -0.031955101 -0.0037812325 4281685873
0.019942589 -0.032555215 -0.0035303566 4280244104
0.021889184 -0.032416269 -0.0039527635 4279261334
0.024229519 -0.033753969 -0.0030317786 4278736798
0.026381001 -0.034352563 -0.0027841101 4278997664
0.028942212 -0.036426663 -0.0011965185 4278932128
0.031519413 -0.03849946 0.00038764253 4279260059
0.035980336 -0.047209546 0.0079923971 4279326358
0.040715426 -0.056652337 0.016252112 4279260823
0.011838414 -0.03396941 -0.0036800127 4281292408
0.013782039 -0.033831164 -0.0041021402 4280505734
0.015539713 -0.032951467 -0.0051965336 4279784849
0.017858099 -0.034295432 -0.0042743939 4279129499
0.019995846 -0.034897558 -0.0040256674 4278539173
0.021750957 -0.034017667 -0.0051192152 4278670243
0.023894086 -0.03461916 -0.0048714648 4278866848
0.026441239 -0.036700927 -0.0032858327 4278866848
0.029004395 -0.038781434 -0.0017035939 4278866849
0.031583536 -0.040860638 -0.00012476742 4279128733
0.03583736 -0.048857078 0.0067925518 4279391383
0.040779814 -0.059067994 0.015698675 4279522453
0.0074640848 -0.034355775 -0.0053464803 4281422714
0.0097577348 -0.035706349 -0.0044226237 4279850383
0.011881642 -0.036312141 -0.0041728951 4279653779
0.013827786 -0.036173709 -0.0045955703 4279653779
0.015773974 -0.036035173 -0.0050181746 4279260824
0.017720204 -0.035896502 -0.0054406896 4278998429
0.019857612 -0.036500841 -0.0051935315 4278538663
0.021806568 -0.036361709 -0.0056164414 4278539173
0.023952033 -0.036965266 -0.005370792 4278801313
0.026501119 -0.039053395 -0.0037905499 4278866593
0.029268026 -0.041882664 -0.0015463531 4279063199
0.032260742 -0.045452476 0.0013599908 4279062944
0.036108684 -0.051988266 0.0069251833 4279259803
