# .PCD v0.7 - Point Cloud Data file format
VERSION 0.7
FIELDS x y z rgba
SIZE 4 4 4 4
TYPE F F F U
COUNT 1 1 1 1
WIDTH 981
HEIGHT 1
VIEWPOINT 0 0 0 1 0 0 0
POINTS 981
DATA ascii
0.0095615424 0.02856455 -0.020357467 4284121889
0.01137447 0.028694464 -0.020748943 4284056353
0.013601078 0.02740993 -0.019756904 4284056099
0.015628843 0.026833359 -0.01945826 4283990564
0.017025396 0.02837793 -0.021232365 4283927578
0.018411264 0.029921776 -0.023004046 4283794469
0.020221449 0.030051989 -0.023394553 4283661868
0.023132529 0.026650786 -0.020340851 4283728169
0.0274074 0.019014966 -0.013163328 4283729444
-0.026334263 -0.037736543 0.049487945 4281825104
-0.024967335 -0.03402032 0.045516878 4281696328
-0.023489647 -0.031020246 0.042256728 4281434954
-0.021753281 -0.02944994 0.040410295 4281826633
-0.019742228 -0.029308312 0.03997416 4282153289
-0.0059678666 -0.0095084012 0.017883508 4283858218
-0.0052097775 -0.0043856651 0.012575652 4283857709
-0.0053486601 0.0042941496 0.0037879883 4283791153
-0.0060753673 0.0151048 -0.0070768702 4283725619
-0.006350223 0.023775164 -0.015834946 4283792684
-0.0057893433 0.028884279 -0.02109983 4283990309
-0.0047179237 0.031857319 -0.024270678 4283991073
-0.0029266551 0.031984989 -0.024657998 4283925029
-0.00057146326 0.029980382 -0.022962825 4283990309
0.0017997883 0.027977012 -0.021271054 4283990819
0.0039937794 0.026685324 -0.020275693 4283990819
0.0056105852 0.027525142 -0.021359753 4284056354
0.0072220713 0.028364679 -0.022442587 4283991583
0.00902953 0.028494099 -0.022832958 4283991073
0.010837 0.028623629 -0.023223247 4284057119
0.012851112 0.028043812 -0.022923373 4284056354
0.014661239 0.028173722 -0.023314092 4284056354
0.016471356 0.028303744 -0.023704726 4283927323
0.01763748 0.030560503 -0.02616041 4283798549
0.019222217 0.031398818 -0.027236946 4283664673
0.021461565 0.03011133 -0.026250584 4283663653
0.025270194 0.023866612 -0.020459963 4283795234
0.029577492 0.016209248 -0.013307508 4283795999
-0.026213042 -0.040848248 0.049665622 4282151760
-0.024705596 -0.037837498 0.046405517 4281566023
-0.023219287 -0.034828193 0.043150108 4281435463
-0.022033602 -0.030387387 0.038493473 4281565259
-0.020452552 -0.028097413 0.035950903 4282414409
-0.018452134 -0.027956463 0.035517126 4283263814
-0.0061048828 -0.011105523 0.016711552 4283988013
-0.0050074309 -0.0073961094 0.012808137 4283988523
-0.0046235994 -0.00083197653 0.0061265924 4283922734
-0.0048109852 0.007870689 -0.0026307409 4283922479
-0.0054165274 0.017996393 -0.012763794 4283594293
-0.0051979497 0.024549086 -0.019409349 4283792683
-0.0044800714 0.02895836 -0.023963388 4284056099
-0.0028686784 0.02979956 -0.025044937 4284056608
-0.0008870475 0.02921454 -0.024740227 4284056863
0.0014808401 0.027204394 -0.023052679 4283991073
0.003285449 0.027333304 -0.023442661 4283991073
0.0048943087 0.028174775 -0.024523398 4283929363
0.0062994063 0.029728131 -0.02629308 4283796508
0.0082971789 0.02914477 -0.025991477 4283729954
0.010096516 0.029273709 -0.026380016 4283731229
0.012102306 0.028691111 -0.026079997 4283859493
0.013695182 0.029531894 -0.02715686 4284056354
0.015282707 0.030372394 -0.028232493 4283991329
0.016435938 0.03263478 -0.030680433 4283993623
0.018224526 0.032763448 -0.031066276 4283928344
0.020452695 0.03147082 -0.030080786 4283928089
0.024026318 0.025916107 -0.024987383 4283994644
0.027192339 0.021785133 -0.021271953 4283992093
0.031073764 0.01552625 -0.015511723 4283990563
0.035925075 0.0064312853 -0.0070285727 4284121379
-0.024713315 -0.040229678 0.045879818 4282087754
-0.023360617 -0.036492623 0.041928366 4281957703
-0.022173956 -0.032038726 0.037281379 4281693778
-0.020876907 -0.028305382 0.033342145 4281891149
-0.018881954 -0.028164849 0.032909527 4282611269
-0.016591739 -0.029460251 0.033876162 4283983423
-0.0049747005 -0.0096985027 0.012339402 4284573748
-0.0039003752 -0.005979754 0.0084493011 4283922479
-0.0035495833 0.00060176849 0.0017898432 4283988779
-0.0036005564 0.0086118281 -0.0062455973 4283659828
-0.0037101805 0.016617868 -0.014268313 4283594549
-0.0035139956 0.02318868 -0.020894101 4283858474
-0.0026261583 0.026894692 -0.024743456 4284121889
-0.0012022294 0.028453359 -0.02651421 4284121889
0.00059155375 0.028581409 -0.026901921 4283991073
0.0029641092 0.026565179 -0.025220314 4283992349
0.0041792057 0.028837798 -0.02767715 4283859748
0.0057747923 0.029680602 -0.028753292 4283858219
0.0073650703 0.030523073 -0.029828178 4283727914
0.0095608048 0.029223138 -0.028839452 4283731484
0.011560939 0.02863797 -0.028539855 4283990564
0.013357477 0.028766921 -0.028927632 4284056354
0.014942402 0.029609414 -0.03000105 4283991328
0.016307686 0.031164926 -0.031758416 4283991074
0.018096153 0.031293593 -0.032144226 4283925028
0.020543426 0.029283704 -0.03047793 4283859238
0.023895783 0.024424322 -0.026081353 4283925029
0.02638568 0.022417702 -0.0244241 4283990309
0.028891534 0.020412326 -0.022770215 4283990818
0.031413332 0.018408246 -0.021119732 4283990563
0.036047697 0.0099980906 -0.013342459 4283990818
-0.023638591 -0.037435792 0.0400065 4281890128
-0.022453606 -0.032968991 0.035369802 4281824848
-0.021016397 -0.029945493 0.032138318 4282086733
-0.019310966 -0.028364211 0.030308628 4282742594
-0.0038644932 -0.0082750842 0.007985061 4283921969
-0.0028132945 -0.0045469925 0.0041082841 4283857709
-0.0023188479 0.0013337582 -0.0018375022 4283725874
-0.0018670149 0.0072115362 -0.0077739437 4283660083
-0.0021860376 0.015957456 -0.016462965 4283726639
-0.0020149127 0.022546194 -0.023068413 4284056609
-0.0017043911 0.028414261 -0.028974107 4284121889
-0.0001061298 0.029259078 -0.030049369 4284056864
0.0016795509 0.029386636 -0.030435264 4283928089
0.0032698661 0.030231096 -0.031508651 4283860513
0.0048548579 0.031075269 -0.032580819 4283792428
0.0064345114 0.031919211 -0.033651799 4283792939
0.0088224635 0.02989791 -0.031978108 4283859748
0.011020347 0.028593924 -0.03099311 4283991583
0.013020175 0.028006611 -0.030694975 4284056353
0.014602486 0.028851148 -0.031766217 4284056354
0.01617945 0.029695362 -0.032836188 4284056608
0.018618049 0.027678201 -0.03117305 4284056608
0.021072634 0.025662299 -0.029513285 4284056099
0.02398736 0.022217903 -0.026493264 4284056354
0.025580181 0.023063701 -0.027566388 4284056609
0.0269402 0.02462367 -0.02931889 4283991074
0.02851958 0.025468655 -0.030388923 4283930129
0.032188427 0.019886333 -0.025342071 4283797529
0.037783351 0.008595854 -0.014872842 4283730463
-0.022593655 -0.034617536 0.034159742 4281367888
-0.021013983 -0.032308087 0.031632207 4282022219
-0.01945015 -0.029999673 0.029108239 4282350148
-0.0024265572 -0.0082763508 0.0050297049 4283856179
-0.0015696809 -0.0038181618 0.00047506625 4283790643
-0.00056555867 -8.2284212e-05 -0.0033831028 4283594804
-0.00067922473 0.0079714507 -0.011368547 4283725874
-0.00085155666 0.016021129 -0.01934121 4283791664
-0.0012697577 0.024786327 -0.027988849 4283857199
-0.00042290241 0.028511398 -0.031812701 4283990563
0.00078236684 0.030796329 -0.034257643 4283994133
0.0021668673 0.032361187 -0.036013048 4283994133
0.0039364509 0.032487795 -0.036395315 4283861788
0.0059065931 0.031895913 -0.036092691 4283927579
0.008491721 0.029149231 -0.033738423 4283928599
0.010686431 0.027840655 -0.032756042 4283991073
0.013100369 0.025814898 -0.031092757 4284056099
0.015107863 0.025226105 -0.030797889 4284056099
0.017120674 0.024637777 -0.030504104 4284056609
0.019138809 0.024049912 -0.030211331 4284056863
0.021381462 0.022745308 -0.029238898 4284056099
0.023412859 0.022158638 -0.028948879 4284056353
0.024551297 0.024439972 -0.031378411 4283991074
0.025673658 0.026720278 -0.033804443 4283991074
0.027009849 0.028283041 -0.035548463 4283794213
0.029498167 0.026263565 -0.033900518 4283793194
0.033649098 0.019232541 -0.027514642 4283727659
0.04070821 0.0036144294 -0.013019048 4283729189
-0.022733621 -0.036265761 0.032949902 4281235288
-0.021011874 -0.034674786 0.031123141 4281630794
-0.019300625 -0.033084378 0.029298713 4282545734
-0.0013513714 -0.006824173 0.00070659677 4283789624
-0.00016209856 -0.0037993044 -0.0024568546 4283790644
0.00027919561 0.0021127164 -0.0083646094 4283790899
0.00030916929 0.0094656907 -0.015636364 4283791919
-0.000275217 0.018980265 -0.024954794 4283791663
-0.0003599152 0.026325278 -0.032201599 4283989543
7.9091638e-05 0.031502426 -0.037381981 4283991073
0.0014558248 0.033071131 -0.039132457 4283925794
0.0032172799 0.033197165 -0.039512966 4283927324
0.0055798106 0.031160867 -0.03784376 4283926559
0.0081613809 0.028405216 -0.035495318 4283990818
0.010558605 0.02637165 -0.0338335 4283990563
0.012763485 0.025059517 -0.032856483 4283990563
0.014556963 0.025188368 -0.033243511 4284056099
0.016350428 0.025317304 -0.033630464 4284056354
0.018792955 0.023287423 -0.031978097 4284056354
0.020594364 0.023417138 -0.032366604 4284056353
0.022395734 0.023546975 -0.032755014 4284056353
0.023299566 0.02655321 -0.035855453 4283926049
0.024182009 0.029557977 -0.038951147 4283862553
0.025502451 0.03112397 -0.040688466 4283793193
0.027974058 0.029096745 -0.039041866 4283792428
0.031166738 0.0249159 -0.035371471 4283793194
0.036055367 0.015710637 -0.026981814 4283858729
0.04197482 0.0036388151 -0.015908692 4283924774
-0.019295931 -0.035450593 0.028789243 4282678078
6.1448663e-05 -0.0068046302 -0.0022262926 4283855414
0.0010539033 -0.0030477196 -0.0060653863 4283856179
0.0014672875 0.0028797984 -0.01195379 4283790898
0.0012775473 0.010976307 -0.01988638 4283791919
0.00083966553 0.019792438 -0.028490063 4283792174
0.00052990392 0.027880585 -0.036396559 4284055588
0.0013304278 0.031624354 -0.040193748 4284056354
0.00309176 0.03175037 -0.040574227 4284056354
0.005453594 0.02970749 -0.038909823 4284056099
0.0082371011 0.026220262 -0.035886776 4284056099
0.0102253 0.025625516 -0.0355912 4283990818
0.011802491 0.026476081 -0.036656421 4283990564
0.013163486 0.028048644 -0.038399719 4283927324
0.015367825 0.026732337 -0.037425723 4283796254
0.017798979 0.024695095 -0.035775848 4283861279
0.01980844 0.024102364 -0.035484418 4283925538
0.020937134 0.026396014 -0.037902065 4284056354
0.022049779 0.028688617 -0.040316168 4283925793
0.023146369 0.03098011 -0.042726699 4283796763
0.0244564 0.03254972 -0.044458468 4283862299
0.02668445 0.031235844 -0.043489031 4283927834
0.029392811 0.028481854 -0.041173588 4283928088
0.033310045 0.022127982 -0.035494938 4283992603
0.037515402 0.015057579 -0.02915358 4283991328
0.044688314 -0.00064785406 -0.014754905 4283991328
0.067576312 -0.05577746 0.036118157 4283992603
-0.01943551 -0.037091717 0.02758467 4282609228
0.00028428063 -0.0098184571 -0.002001904 4284181303
0.0012828857 -0.0060502365 -0.0058340984 4283855669
0.0024388209 -0.0030101016 -0.0089769857 4283922223
0.0028269365 0.002933193 -0.014846692 4283725618
0.0026045032 0.011051375 -0.022753965 4283661103
0.0021314248 0.019891296 -0.031330217 4283792429
0.0023728721 0.025824431 -0.037167985 4284055333
0.003360875 0.028853074 -0.040274128 4284121634
0.0053273961 0.028254382 -0.039975684 4284122144
0.0077045374 0.026206221 -0.038319491 4284056864
0.0094817691 0.026333682 -0.038703173 4283991583
0.010427091 0.02935968 -0.041799784 4283927579
0.011982974 0.03021105 -0.042858716 4283796764
0.014173463 0.028889395 -0.041885018 4283664419
0.017022546 0.025396515 -0.038883965 4283666459
0.01902367 0.024801061 -0.038592421 4283861278
0.020144809 0.027100697 -0.041003492 4284056353
0.02102592 0.030122712 -0.044085771 4284056608
0.022338934 0.0316968 -0.045814957 4283990818
0.023870558 0.032547113 -0.04686806 4283926559
0.026324749 0.03050559 -0.045227576 4283860769
0.028794877 0.028465372 -0.04359049 4283926303
0.032467589 0.022813883 -0.038597044 4283991329
0.036182903 0.017165583 -0.033612691 4283990308
0.042367451 0.0042993724 -0.02192957 4283990053
0.06494426 -0.050280698 0.028160514 4284056353
0.072776571 -0.066725552 0.043104339 4283990308
0.0028567947 -0.006740436 -0.0080648176 4283855668
0.0040000714 -0.003692437 -0.011198257 4283529779
0.0043655895 0.0022667646 -0.017049816 4283399473
0.0043048896 0.0096789263 -0.024252279 4283661103
0.0038019642 0.018542945 -0.03280222 4283726383
0.0040234737 0.024492197 -0.038622405 4284054823
0.0050014406 0.027528923 -0.041719716 4284121379
0.0067678727 0.027655512 -0.042101141 4283990563
0.0085342973 0.027782213 -0.042482488 4283991839
0.009677358 0.030089449 -0.04489373 4283858728
0.011014841 0.031669039 -0.046625365 4283859239
0.013194151 0.030342225 -0.04565255 4283728169
0.016031472 0.026837621 -0.042657193 4283795488
0.018240064 0.025513168 -0.041690581 4283860003
0.019574784 0.02709293 -0.043421257 4284056608
0.020674983 0.029397722 -0.045822777 4283990563
0.02221206 0.030250505 -0.046875481 4284056354
0.024202006 0.029652495 -0.046582844 4284056099
0.026660837 0.027604785 -0.044948302 4284056354
0.029604539 0.024108592 -0.041975319 4284056099
0.032811973 0.019889753 -0.038337667 4283990308
0.036530953 0.014224321 -0.033367276 4283990054
0.042232297 0.0027676448 -0.023052525 4283990053
0.07262183 -0.068474188 0.041822482 4283990054
0.0032736734 -0.010483667 -0.0071620364 4284181559
0.0044255592 -0.0074263066 -0.010290794 4283856179
0.0053672194 -0.0036400259 -0.014093935 4283465008
0.0057074688 0.0023349002 -0.019926762 4283727659
0.0054222904 0.010496724 -0.02778405 4283660338
0.0050784349 0.018654477 -0.035628565 4283791919
0.0052746683 0.024619438 -0.04143003 4283989799
0.0060349964 0.028393298 -0.045193579 4283990308
0.0073834285 0.029977821 -0.046924431 4283928598
0.0087211914 0.031561635 -0.048652865 4283862044
0.010258533 0.032415986 -0.049704451 4283727404
0.012216385 0.031812854 -0.049407024 4283792939
0.015041949 0.028296527 -0.046417367 4283794214
0.017457632 0.026238661 -0.044778857 4283926558
0.019447409 0.025638152 -0.044488069 4283990818
0.020771669 0.027221635 -0.046213105 4284121634
0.022537751 0.027349163 -0.046593726 4284056354
0.024761651 0.026021887 -0.045633387 4284056099
0.027922597 0.021786425 -0.04199576 4284056354
0.031115498 0.017553333 -0.038364891 4284056608
0.034103382 0.014049567 -0.035409577 4283992093
0.037836678 0.0083678178 -0.030455479 4283925283
0.043793075 -0.0038492084 -0.019502252 4283791918
0.063405931 -0.050046362 0.022338707 4283925283
0.072216816 -0.069496587 0.039875031 4283791918
0.004477825 -0.0097075924 -0.01074883 4284575533
0.0056117065 -0.0066427588 -0.013866985 4284055588
0.0065328628 -0.0028469414 -0.017657373 4283924009
0.0064570308 0.0046078302 -0.024823556 4283792173
0.0061311349 0.012790795 -0.032653842 4283661103
0.005746562 0.020969685 -0.040471356 4283726383
0.0061115734 0.026218228 -0.045577776 4283924773
0.0068487152 0.030001411 -0.049328003 4283991584
0.0081813969 0.031589225 -0.051052038 4283928853
0.0095033795 0.033176415 -0.052773725 4283928343
0.011452906 0.032570515 -0.052476149 4283928089
0.014053974 0.029773258 -0.050164472 4283993368
0.016894434 0.026247226 -0.047186185 4284056864
0.019540787 0.023453433 -0.044884115 4284121634
0.021761624 0.022121359 -0.043926504 4284055843
0.023766993 0.021520007 -0.043640565 4284120869
0.026235132 0.019459877 -0.042018015 4283856943
0.029413478 0.015212577 -0.038393971 4283791155
0.032389671 0.011696987 -0.035444453 4283725874
0.035155721 0.0089125 -0.033167675 4283725874
0.038421851 0.0046719275 -0.029562341 4283790899
0.04462491 -0.0083104372 -0.017972142 4283790899
0.063751593 -0.053189576 0.022431895 4283790899
0.071061946 -0.068329975 0.035938282 4283790899
0.0056669116 -0.0089191869 -0.014322139 4284054568
0.0065915436 -0.0051122606 -0.018105051 4283857963
0.007295642 -0.00057274848 -0.022556851 4283857198
0.0073781349 0.0061669536 -0.029024007 4283725873
0.0072133914 0.013637353 -0.036154348 4283726129
0.0065915547 0.0225715 -0.044619001 4283859238
0.0069284178 0.027833361 -0.049707737 4283990564
0.007642366 0.031625889 -0.053444624 4283991074
0.0091691613 0.032483857 -0.054490622 4283924774
0.011115696 0.031875562 -0.054194044 4283924774
0.013928421 0.028336544 -0.051218096 4283990563
0.016985688 0.024066918 -0.047578238 4284056099
0.020074913 0.019799758 -0.043945223 4284121634
0.022749675 0.016999431 -0.041655775 4283990308
0.025219828 0.0149328 -0.040038686 4283924519
0.027705941 0.012867421 -0.03842489 4283858219
0.030670438 0.0093400106 -0.035481155 4283791664
0.033427659 0.0065460764 -0.033209149 4283660083
0.036206134 0.0037538074 -0.030941632 4283725108
0.039484307 -0.00049894303 -0.027348755 4283724854
0.045938976 -0.014250614 -0.015125943 4283724853
0.064838171 -0.05853273 0.024508545 4283724853
0.070408389 -0.068606064 0.033339892 4283790643
0.073780149 -0.072103024 0.036196716 4283790643
0.076157525 -0.072678268 0.036401905 4283789114
0.0053450651 -0.0097259283 -0.016128816 4284707114
0.0064588562 -0.0066449568 -0.019229403 4283857963
0.0073576458 -0.0028288737 -0.022998396 4283725874
0.0084261373 0.00024909899 -0.026089024 4283725874
0.0088762268 0.0055340938 -0.031190841 4283790899
0.0082805492 0.01449623 -0.039641373 4283725873
0.0080295578 0.021982394 -0.046736401 4283791409
0.0081392564 0.027993711 -0.052479394 4284055079
0.0094644129 0.029589839 -0.054195177 4284056098
0.011840686 0.027509356 -0.052563138 4284055843
0.014878016 0.023225185 -0.04892898 4284055843
0.018165033 0.018208582 -0.044633683 4283990564
0.021268979 0.013929423 -0.041013725 4283923754
0.024181873 0.010387093 -0.038067345 4283792684
0.026669998 0.0083152093 -0.036459018 4283660084
0.029174073 0.0062445961 -0.034854032 4283725619
0.031463049 0.0049091242 -0.033917483 4283726129
0.033996332 0.0028408356 -0.032318633 4283660083
0.036781892 4.0438026e-05 -0.030059252 4283725108
0.04006679 -0.0042249262 -0.026477667 4283725108
0.04652565 -0.018017605 -0.014287014 4283724853
0.065181725 -0.061699435 0.024584597 4283724853
0.070005327 -0.069605589 0.031409234 4283724344
0.072616212 -0.070916787 0.032277256 4283789879
0.07472755 -0.070762917 0.031823307 4283656514
-0.0040326416 -0.029232115 0.0011474607 4283200318
-0.0020939484 -0.029094495 0.00072783651 4283134019
0.0063261949 -0.0081773475 -0.020353539 4284380203
0.0076127797 -0.0058277547 -0.022771494 4283988268
0.0088833831 -0.0034791529 -0.02518589 4283725874
0.0099391788 -0.0003933236 -0.028267059 4283791153
0.0097646341 0.0071199983 -0.035362251 4283791154
0.0091284215 0.016105458 -0.043784183 4283725874
0.0090486817 0.022873186 -0.050186366 4283989288
0.010387424 0.024474651 -0.051901776 4284120358
0.013200676 0.020913772 -0.048942439 4284056099
0.016470227 0.015880633 -0.044655021 4283924263
0.019559596 0.011587262 -0.041041885 4283858218
0.022240594 0.008769881 -0.038767032 4283792174
0.02494289 0.0059541501 -0.036496688 4283725363
0.027440974 0.0038764849 -0.034895428 4283659829
0.029498655 0.0032725222 -0.034625601 4283659829
0.031792447 0.0019330606 -0.033693369 4283791155
0.034563851 -0.00087722018 -0.031437572 4283725108
0.03712035 -0.0029502362 -0.02984857 4283790388
0.040648106 -0.0079637095 -0.02561602 4283790388
0.047352672 -0.022532687 -0.012796369 4283790388
0.065030836 -0.063404858 0.023334416 4283790388
0.069103658 -0.069131076 0.028163185 4283790134
0.07120166 -0.068978265 0.027712027 4283789113
-0.0043385141 -0.030080535 -0.00069515593 4282938944
-0.0022306554 -0.030685581 -0.00043963455 4282414918
-0.00046668202 -0.029805593 -0.0015331209 4282871878
0.0078671947 -0.0088351145 -0.022550739 4284445483
0.0093395337 -0.0072202906 -0.02429213 4283856944
0.010403935 -0.0041251034 -0.027368618 4283725618
0.011044398 0.00044932589 -0.03177673 4283791153
0.010428995 0.0094624124 -0.040183436 4283791154
0.010782797 0.014771257 -0.045241114 4283790898
0.012355108 0.015639022 -0.046291992 4284055334
0.015193928 0.012069162 -0.043346439 4284055843
0.018274037 0.0077619776 -0.039741255 4283858218
0.020734195 0.0056747049 -0.038137015 4283791919
0.022990331 0.0043277219 -0.037200309 4283725364
0.025257105 0.0029815584 -0.036265772 4283659573
0.027759796 0.00089776143 -0.034670472 4283725109
0.029822482 0.00029199943 -0.034403358 4283790644
0.031890456 -0.00031329691 -0.034137249 4283856434
0.034196988 -0.0016560741 -0.03321097 4283790388
0.036750108 -0.0037358366 -0.031626161 4283922224
0.040751003 -0.010240123 -0.026083974 4283922224
0.064633302 -0.064372897 0.021426095 4283921968
0.068701744 -0.070116788 0.026242601 4284052783
0.070796937 -0.069964156 0.025792068 4284247094
-0.0060775913 -0.033296347 -9.3588606e-05 4284704818
-0.0043057241 -0.03241393 -0.0011873003 4282350404
-0.0027108975 -0.030787103 -0.0029527042 4281826123
-0.0013011098 -0.028416552 -0.0053880122 4282283849
0.00044697151 -0.027535409 -0.0064763292 4283003714
0.0095987879 -0.010231376 -0.024075506 4284511019
0.010867592 -0.0078697503 -0.026479552 4283988524
0.011517052 -0.0032816343 -0.030879728 4283660849
0.01152315 0.0035312884 -0.037270892 4283791664
0.01189414 0.0088566281 -0.042320795 4283791919
0.013482505 0.0097277351 -0.043373484 4283791919
0.015912669 0.0076315589 -0.04176788 4283857199
0.018358795 0.0055366978 -0.040165674 4283726129
0.020820906 0.0034430511 -0.038566794 4283725363
0.023079185 0.0020918697 -0.037633836 4283659828
0.025348106 0.00074153766 -0.036703039 4283725109
0.02762763 -0.00060787424 -0.035774481 4283790134
0.029689986 -0.001215823 -0.035508938 4283921204
0.031757627 -0.0018233247 -0.035244405 4283855668
0.033830527 -0.0024302676 -0.034980949 4283921714
0.036380243 -0.0045167282 -0.033400372 4284314669
0.040615063 -0.011780754 -0.02721346 4284248623
0.064236157 -0.065336183 0.019521186 4284576299
-0.0060478523 -0.035636127 -0.00058982382 4284639283
-0.0042732768 -0.034751341 -0.0016824664 4283528758
-0.0030187517 -0.031626426 -0.0047878157 4281761099
-0.0017854869 -0.028502874 -0.0078884531 4281826888
-0.0003965497 -0.026127122 -0.010314267 4282089284
0.010735337 -0.0093925446 -0.027596531 4284445994
0.011787649 -0.0062806979 -0.030657137 4283791918
0.012004241 -0.00019220635 -0.036370598 4283791664
0.012796955 0.003660351 -0.040083323 4283792174
0.01418978 0.0052787028 -0.041800484 4283791154
0.0162067 0.004664626 -0.041527301 4283791154
0.018228929 0.004051052 -0.041255176 4283725874
0.020907253 0.0012072809 -0.03899958 4283660083
0.023387279 -0.00089147314 -0.037409402 4283725108
0.025660997 -0.0022457503 -0.036482964 4283725364
0.027495481 -0.0021132268 -0.036878284 4283790388
0.029557506 -0.0027233586 -0.036614299 4283986484
0.031855073 -0.004075624 -0.035692699 4284052784
0.033697382 -0.0039421767 -0.036089446 4284118829
-0.0044099092 -0.036343679 -0.0028508962 4283004734
-0.0033261888 -0.032461032 -0.0066194739 4281632323
-0.0022690557 -0.028580151 -0.0103822 4281305158
-0.00088504329 -0.026198246 -0.012802018 4282153798
0.00066245347 -0.024565801 -0.014550304 4282284613
0.0023813844 -0.023682147 -0.015628854 4284377398
0.011656035 -0.0077944621 -0.031767447 4284446248
0.012077425 -0.0024352111 -0.036805231 4283661358
0.012667533 0.0021750182 -0.041172698 4283726894
0.014269333 0.0030514523 -0.042224988 4283790899
0.016077185 0.0031814724 -0.042615015 4283790899
0.018099084 0.0025657043 -0.042344455 4283856179
0.020776499 -0.00028680637 -0.040095229 4283790899
0.023475215 -0.0031376816 -0.037850525 4283856179
0.025751069 -0.0044961423 -0.036927823 4283987504
0.027812827 -0.0051086396 -0.036665484 4283987503
0.029879849 -0.0057205632 -0.036404207 4284445229
-0.0050521791 -0.035681598 -0.0060251267 4281892679
-0.0034620017 -0.034042142 -0.0077796336 4281632579
-0.0020563118 -0.031652294 -0.010199303 4281892679
-0.00066654757 -0.029263459 -0.012615427 4281892423
0.00070728362 -0.026875675 -0.015027979 4282284358
0.0022470467 -0.025239259 -0.016771244 4283725108
0.003960751 -0.024353743 -0.017846892 4284574004
0.011947025 -0.0039333701 -0.037904058 4284054823
0.012949899 -0.0008074455 -0.040940654 4283858728
0.014348526 0.00082007423 -0.042652518 4283856943
0.016581336 -0.00054635108 -0.041724149 4283856434
0.018610897 -0.001163736 -0.041456889 4283856434
0.021078866 -0.003276512 -0.039874066 4283921713
0.023562776 -0.0053879842 -0.038294639 4283987248
0.025840789 -0.0067506731 -0.037375651 4284248623
0.027904864 -0.007365115 -0.037115484 4284509489
-0.0051881783 -0.037266739 -0.0071882815 4281433168
-0.0034267418 -0.036376297 -0.0082730893 4281827144
-0.0018442683 -0.034732901 -0.010022538 4281892168
-0.00044876337 -0.032337144 -0.012434984 4281826888
0.0011098348 -0.030695185 -0.01417914 4282219078
0.002657827 -0.029053889 -0.015920864 4282284359
0.0041952059 -0.027413204 -0.017660184 4282546498
0.012408756 -0.00079475716 -0.043350816 4284512803
0.014427356 -0.0014153644 -0.043083027 4283988268
0.01687333 -0.0035364665 -0.041500568 4283921968
0.018907888 -0.0041556805 -0.041236036 4284314924
0.021380469 -0.0062746257 -0.039659139 4284510254
-0.0037335157 -0.037203439 -0.010099275 4281298018
-0.0019799769 -0.036311246 -0.011180634 4281695053
-0.00040788203 -0.034664087 -0.012924505 4281826123
0.0013324544 -0.033772588 -0.014002809 4282022983
0.0025229864 -0.030616954 -0.017067624 4281892168
0.0040605888 -0.02897194 -0.018803725 4282154053
0.005400721 -0.026573107 -0.021198882 4284181303
0.0069143921 -0.024929494 -0.022929652 4284704818
0.014505843 -0.0036549307 -0.043516498 4284184873
0.016953748 -0.0057823807 -0.041939437 4284184109
0.018990653 -0.0064036176 -0.041676994 4284509998
-0.002115652 -0.037889279 -0.012338495 4281694034
-0.00054333359 -0.036237769 -0.014079137 4281695309
0.0010183901 -0.034586929 -0.015817342 4281826888
0.0025694855 -0.032936692 -0.017553214 4281892168
0.0039260015 -0.030530348 -0.019947035 4281826888
0.0054531917 -0.028881572 -0.021677544 4282219333
0.0071590804 -0.027989842 -0.022746382 4284313139
-0.0010303482 -0.036292084 -0.016554566 4281363808
0.00070472062 -0.035396568 -0.017628491 4281695053
0.0024345182 -0.034501344 -0.01870114 4281761609
0.0036076382 -0.031329468 -0.021748943 4281762119
0.0051323995 -0.029676542 -0.023475593 4281828418
0.0070247836 -0.029541418 -0.023884589 4282026554
0.0085336007 -0.027889341 -0.02560764 4284443698
0.00039146841 -0.036201559 -0.019436166 4281498194
0.0024805106 -0.036827043 -0.019191097 4281435209
0.0032896884 -0.032123946 -0.02354739 4281632323
0.0048120096 -0.030466877 -0.025270233 4281763139
0.0065126307 -0.029571146 -0.02633469 4282024513
0.008399561 -0.029436275 -0.026742401 4283005499
0.0097037107 -0.027020156 -0.029114675 4284377908
0.0025261715 -0.039156854 -0.019684 4281170264
0.003522411 -0.0352038 -0.023375647 4281629774
0.0046781152 -0.032015666 -0.026406446 4281630283
0.0061900169 -0.030354813 -0.02812369 4281696328
0.0080741271 -0.030220158 -0.028530801 4281957958
0.0097641796 -0.029322803 -0.0295911 4282285634
0.010858685 -0.026138544 -0.032608289 4284442423
0.0037543848 -0.038292058 -0.023210138 4281694033
0.0047301278 -0.034329481 -0.026889039 4281694799
0.0060563721 -0.031898968 -0.029256454 4281630028
0.008131545 -0.03252925 -0.029011281 4281760843
0.010018185 -0.032394275 -0.029418839 4282153799
0.011511736 -0.030730084 -0.03112852 4283527484
0.011600107 -0.023715854 -0.037389524 4284442169
0.0044103935 -0.035112359 -0.028678218 4281629518
0.0057343841 -0.03267549 -0.031040212 4281826123
0.0076155178 -0.032541037 -0.03144668 4282152779
0.010465164 -0.036241189 -0.028602673 4282152778
0.012359656 -0.036105521 -0.029011833 4282283338
0.012860967 -0.030603841 -0.03396339 4282806854
0.013324963 -0.025104672 -0.038906842 4284507704
0.0059773326 -0.035755873 -0.030871717 4281759823
0.008245334 -0.037159711 -0.02998117 4281761354
0.011685066 -0.043177418 -0.025201987 4281567298
0.014186565 -0.045347214 -0.023671459 4282349129
0.014914528 -0.040597074 -0.027970202 4282543948
0.0075354986 -0.044246547 -0.026173184 4281759058
0.0100176 -0.046424538 -0.024643548 4282217294
0.013288986 -0.051686488 -0.020529751 4281957193
0.016205709 -0.055403396 -0.017716553 4282348618
-0.023073614 0.029418916 0.069933407 4279324318
-0.022093453 0.034083147 0.064218476 4278601648
-0.02071327 0.03680668 0.06077534 4278666673
-0.018463753 0.035653688 0.061860755 4279520159
-0.01544793 0.031273309 0.066710852 4278732718
-0.030611895 0.034503765 0.061706498 4281816434
-0.028525352 0.033993088 0.062039226 4278668458
-0.026295751 0.032834098 0.063125409 4278734248
-0.024616107 0.034270346 0.0611929 4278472108
-0.019195497 0.03663085 0.057666272 4278798254
-0.036231279 0.030523319 0.064060584 4281487994
-0.033865377 0.038619533 0.054154422 4278337978
-0.02947174 0.036287893 0.056334168 4278536369
-0.026983872 0.033821277 0.058926716 4278537388
-0.025314614 0.035261117 0.056999736 4278864808
-0.011462193 0.026994079 0.064960726 4278668458
-0.039931104 0.026666366 0.065989524 4281226109
-0.03869164 0.030731456 0.061033957 4279128478
-0.037236288 0.033485986 0.057594061 4278733994
-0.035802096 0.03623911 0.054158721 4278864299
-0.034130692 0.037683263 0.052234352 4279323298
-0.032074243 0.037165921 0.052570157 4278337978
-0.029877774 0.03599567 0.053656768 4278798509
-0.027396068 0.033519804 0.056243986 4278864808
-0.025591992 0.034310609 0.055072226 4278930343
-0.023793086 0.035101131 0.053901572 4278864809
-0.021999314 0.035891317 0.052732129 4279060904
-0.020062864 0.036028743 0.052312966 4279126438
-0.017373629 0.032904938 0.055636592 4279061159
-0.015117105 0.031739276 0.056710526 4278930343
-0.013161454 0.031878226 0.056287341 4278537388
-0.040661216 0.028327329 0.06102927 4278997918
-0.039554991 0.033061158 0.055332959 4278668714
-0.036190897 0.035959415 0.051486071 4278274229
-0.034395546 0.036751524 0.050317656 4278864299
-0.027807444 0.033227343 0.053567763 4278602668
-0.025868937 0.033364706 0.053148001 4278799784
-0.024072565 0.034157157 0.051979568 4278341293
-0.021991372 0.033639632 0.052308481 4278406573
-0.020052329 0.033777192 0.051888715 4278668458
-0.017662104 0.031951427 0.053709801 4278734249
-0.015867703 0.032743961 0.052541975 4278667948
-0.010032609 0.033158615 0.051279332 4278534329
-0.040090151 0.02276225 0.064360157 4280373899
-0.039449766 0.030147498 0.055664957 4278866594
-0.03825064 0.034235932 0.050737947 4278537389
-0.03068734 0.035438187 0.048321631 4278733483
-0.028354757 0.03360144 0.050149973 4278799018
-0.026563801 0.03439559 0.048984293 4278864808
-0.024777994 0.03518948 0.047819734 4278799784
-0.022418149 0.03335483 0.049642302 4278799784
-0.020189568 0.032178279 0.050715469 4278799784
-0.018100265 0.031659171 0.051041059 4278733738
-0.015304558 0.036528945 0.044991199 4279126184
-0.013697281 0.037977781 0.043087773 4279978649
-0.01129641 0.036146432 0.04490168 4278929834
-0.0078983605 0.030381976 0.051166769 4278798764
-0.03881371 0.013204109 0.072175667 4280045969
-0.038621694 0.023259584 0.060490951 4279194778
-0.038139693 0.031327158 0.051072095 4278931364
-0.036840037 0.034766324 0.046909481 4278668968
-0.035181046 0.03622257 0.044997614 4278930344
-0.03300748 0.035037309 0.046079129 4278930854
-0.030956939 0.034512915 0.046411116 4278733738
-0.029037483 0.034648769 0.045995358 4278733229
-0.022988722 0.033738293 0.046237808 4278471089
-0.020621292 0.031897634 0.048053782 4278799273
-0.018987477 0.033352517 0.04614776 4278537643
-0.037314914 0.013684019 0.068285085 4279718293
-0.037167937 0.023769088 0.056635007 4278603688
-0.036346339 0.029871976 0.049486041 4278734759
-0.035058931 0.03332122 0.045334358 4278734248
-0.033142619 0.033456687 0.044919159 4278602924
-0.031359851 0.034254462 0.043758359 4278537389
-0.028087877 0.037172653 0.039951529 4278403004
-0.02134642 0.032948531 0.043913316 4278929834
-0.019423455 0.033084884 0.043496985 4278406573
-0.018110063 0.035864834 0.0401146 4278603434
-0.016197462 0.036000583 0.039700616 4278274484
-0.0099694282 0.034427874 0.040676367 4278471344
-0.0072192959 0.031264827 0.043953825 4278930343
-0.004442323 0.02810375 0.047225524 4278734248
-0.036132775 0.0047211871 0.075293697 4280373388
-0.035707936 0.013510942 0.065154001 4279783829
-0.035477802 0.02296092 0.054283585 4278867613
-0.034552827 0.02841693 0.047900047 4279193249
-0.033015914 0.030547079 0.045248341 4278799528
-0.030125715 0.03546837 0.039212018 4278864554
-0.028777815 0.038259175 0.035828531 4279455899
-0.026743248 0.03772936 0.03616073 4279258273
-0.024270467 0.035209022 0.038716685 4278864299
-0.02192305 0.033353768 0.040526938 4278339764
-0.020008177 0.033489518 0.040112335 4278603178
-0.018397622 0.034951478 0.038217966 4278799783
-0.016487762 0.035086989 0.03780454 4278406828
-0.014420178 0.034559883 0.038129866 4278734248
-0.012347117 0.034033228 0.038454056 4278733738
-0.010105629 0.032844678 0.039514732 4278602668
-0.0081845447 0.03298125 0.039099075 4278995624
-0.0040001497 0.031931113 0.039739519 4278534074
0.00070456415 0.021483276 0.051087189 4278272189
-0.035434783 -0.0016196966 0.079286046 4280569993
-0.034620821 0.005197864 0.071397185 4280242574
-0.034361444 0.01468043 0.060543604 4279456663
-0.034048535 0.023490831 0.05044971 4278997408
-0.033281967 0.029629217 0.043342482 4278996899
-0.02264519 0.034438033 0.036411006 4278668203
-0.0204423 0.033242047 0.037476406 4278930853
-0.018380623 0.032712162 0.037801225 4278865318
-0.016313456 0.032182738 0.038124911 4278800294
-0.0145556 0.032983564 0.036973227 4278603433
-0.012642872 0.033119377 0.036559258 4278668969
-0.010730013 0.033255268 0.036145307 4278471854
-0.0089824423 0.034055557 0.034995999 4278536624
-0.0056737624 0.036319196 0.031966649 4278534838
-0.0018633828 0.029153198 0.039625384 4278272444
-0.033782385 -0.0018198714 0.076122105 4280308363
-0.033373952 0.0070255399 0.066028975 4279849619
-0.03316249 0.01653536 0.055208981 4279522198
-0.033025533 0.026039977 0.044405174 4278996898
-0.032430373 0.032864206 0.036580395 4279390109
-0.031209156 0.036341608 0.032467913 4278340529
-0.029598877 0.037811905 0.030579923 4278602669
-0.027434342 0.036608595 0.031650141 4278471599
-0.025402814 0.036074158 0.031979661 4278406828
-0.023219228 0.034872286 0.033045892 4278472363
-0.021323211 0.035006616 0.032635316 4278537898
-0.019123293 0.033806071 0.033698067 4278930854
-0.016912524 0.032606322 0.034758564 4278668969
-0.015005369 0.032741636 0.03434572 4278669479
-0.013417847 0.034210891 0.03246301 4278472363
-0.0083828084 0.037281789 0.028295355 4279454114
-0.006320484 0.036750164 0.028618759 4279520668
-0.0032132789 0.032223247 0.033333238 4278734249
0.00081102178 0.024370171 0.041697033 4278733739
-0.033680767 -0.0048420802 0.076372899 4280571015
-0.032514721 2.8610229e-06 0.070744544 4280177549
-0.031896412 0.0075307563 0.062163286 4280177293
-0.031988211 0.018410608 0.049896326 4279456409
-0.032032192 0.02861347 0.038387008 4279390874
-0.031070746 0.033444207 0.032803249 4278864808
-0.02945485 0.034919266 0.030917266 4279127204
-0.027426437 0.034382321 0.031245729 4278799784
-0.025392495 0.033845779 0.031573083 4278537643
-0.023645736 0.034649894 0.03042681 4278799018
-0.020167746 0.036257137 0.028137865 4278402238
-0.015768386 0.033847354 0.030256992 4278275504
-0.014191251 0.035320204 0.028379815 4278537898
-0.012624666 0.036792338 0.026505018 4278668203
0.0026182234 0.02290618 0.040100571 4278865065
-0.033579804 -0.0078728348 0.076617338 4281030014
-0.032032803 -0.0050335154 0.073216774 4280439688
-0.031144239 0.0011723116 0.066127636 4280308108
-0.030563757 0.0087216124 0.057572804 4279915154
-0.030705802 0.019632887 0.045343284 4279260569
-0.030120201 0.026500139 0.037553649 4278734248
-0.029173359 0.031345174 0.031984657 4278996134
-0.02741883 0.032151803 0.030838268 4278734248
-0.02566947 0.032958176 0.029693002 4278471853
-0.022781543 0.03725826 0.024470007 4278271679
-0.016372994 0.034299392 0.0269136 4278536369
-0.014803573 0.035776 0.025041429 4278602414
-0.013082538 0.036580812 0.023902709 4278668968
-0.01120187 0.03671439 0.023495711 4278341293
-0.0070998296 0.035640709 0.024140576 4278341295
-0.0046949014 0.033763789 0.02591897 4278341294
-0.0020983294 0.031217918 0.028422153 4278603688
0.00034149736 0.029343672 0.030193062 4278406828
0.0029783249 0.026800826 0.032687664 4278603944
-0.032051116 -0.007387802 0.072722621 4282472038
-0.030649178 -0.0038651973 0.068595536 4280308363
-0.02966354 0.0016824193 0.062264875 4279980944
-0.02925086 0.0099287517 0.052999984 4279850129
-0.028901994 0.018170599 0.043749023 4278998683
-0.028754964 0.027083065 0.033777207 4279062944
-0.027833417 0.031941682 0.028225252 4278996389
-0.026375867 0.03409908 0.025615694 4278471599
-0.024642259 0.034906555 0.024475517 4278340019
-0.023211084 0.037062228 0.021871775 4279061923
-0.021644481 0.038542807 0.020003291 4279324829
-0.019472502 0.037327081 0.021062177 4278733484
-0.016976409 0.034764796 0.023580085 4278667694
-0.014936775 0.034224674 0.023903111 4278733483
-0.013377633 0.035705015 0.022036463 4278603178
-0.01133506 0.035165206 0.02235901 4278734248
-0.009287037 0.034625895 0.022680387 4278865318
-0.0068935789 0.032741554 0.024456175 4278668713
-0.0048293099 0.03220351 0.024774196 4278930854
-0.0027596243 0.031665958 0.02509105 4278603434
-0.0012185574 0.033145458 0.023228649 4278341294
-0.032443002 -0.0077117011 0.070017353 4282537318
-0.030791365 -0.0055345073 0.067370333 4280636293
-0.029415049 -0.0020027161 0.063257046 4279915409
-0.028197616 0.0022048354 0.058415346 4279784338
-0.027552389 0.0091199055 0.050645877 4279522453
-0.02778694 0.020094663 0.038489398 4278800803
-0.027685419 0.029032364 0.028548973 4279061923
-0.026937596 0.034580991 0.022283332 4278996389
-0.015229039 0.033349283 0.022036484 4278930343
-0.013348676 0.033482723 0.021629458 4278668713
-0.011468194 0.033616237 0.021222457 4278734503
-0.0092533231 0.032399565 0.022268957 4278603433
-0.0070276558 0.031183721 0.023313172 4278734503
-0.0051361658 0.03131824 0.02290396 4278603434
-0.0024198778 0.035633862 0.017739099 4278602414
-0.00090515614 0.037115857 0.015885785 4279192229
-0.029297158 -0.0050208941 0.063506506 4280505734
-0.027676634 -0.0028391965 0.060871229 4279916173
-0.026611552 0.0020598844 0.055311196 4279653523
-0.026271537 0.010353595 0.046101812 4279653269
-0.02669663 0.022039082 0.033251788 4278866084
-0.026497699 0.030322943 0.024073137 4279192738
-0.025634758 0.035208084 0.018557094 4278864809
-0.01989007 0.034925535 0.018074149 4278340018
-0.017554626 0.033023529 0.019852243 4278865319
-0.015679829 0.033156458 0.019446339 4278472108
-0.013966501 0.033967204 0.018314196 4278668713
-0.011929851 0.033422589 0.018634629 4278603434
-0.0097207725 0.032201059 0.019679096 4278603688
-0.0076705515 0.031657554 0.019996701 4278472618
-0.0059594549 0.032468446 0.018865274 4278669224
-0.0030859597 0.036119111 0.014437538 4278601903
-0.0015789866 0.037604958 0.012589153 4279390108
0.00064932182 0.036385261 0.013629811 4279324574
0.003816627 0.03178636 0.018273558 4278865319
0.0083396845 0.022459406 0.027952818 4278668714
-0.029309332 -0.0073653832 0.063018031 4281883244
-0.027553618 -0.005858995 0.061118066 4280244103
-0.026212543 -0.0023078173 0.057029054 4279980688
-0.025310129 0.003286466 0.050756201 4279914898
-0.025150537 0.012285031 0.040846158 4279653269
-0.025345609 0.022641249 0.029493751 4278997153
-0.025039002 0.030267702 0.02107124 4279127203
-0.02390255 0.033804815 0.017026862 4278733738
-0.022189692 0.034617379 0.01589622 4278996134
-0.020175196 0.034068678 0.016219545 4278864808
-0.017999139 0.032840103 0.0172676 4278406573
-0.01660604 0.035012979 0.014687095 4278536624
-0.0086511374 0.033503558 0.015244186 4278734248
-0.0066091046 0.032957353 0.015561961 4278669224
-0.0052607507 0.035127521 0.012991492 4278602924
0.010317389 0.020334981 0.027093308 4278735014
-0.026084021 -0.0053248256 0.057276443 4280504968
-0.024626061 -0.002447933 0.053928383 4279914898
-0.023888618 0.0038457327 0.046946567 4279980178
-0.023626648 0.012186423 0.037793901 4279784339
-0.023719005 0.021889213 0.027202057 4278931874
-0.023294427 0.028854573 0.019530196 4278735523
-0.02217032 0.03240177 0.01549679 4278538919
-0.02045989 0.033216394 0.014368363 4278799784
-0.018598765 0.033348229 0.013965322 4278471599
-0.013670232 0.036472 0.0098664649 4278403769
-0.0092912987 0.034008689 0.01195059 4278668458
-0.0074294806 0.034141041 0.011547752 4278668969
-0.0057421625 0.034954648 0.010424802 4278668969
-0.0038828403 0.035086978 0.010022623 4278733738
-0.0022033714 0.03590019 0.0089014918 4278537389
0.0028071813 0.03140201 0.013123479 4278342059
0.0054345764 0.028814916 0.015587132 4278866848
0.0080833957 0.026229437 0.018046219 4279195289
0.01152679 0.020926189 0.023365231 4279984259
-0.026224874 -0.0069779679 0.056063123 4281816433
-0.024492219 -0.0054643974 0.054174822 4280243084
-0.023328803 -0.0012081079 0.049384534 4279849363
-0.022624284 0.0051029399 0.042424768 4279914899
-0.022402711 0.01346704 0.033300739 4279587733
-0.022540405 0.023197275 0.022741918 4278997408
-0.022000909 0.029496893 0.015818089 4278801058
-0.020744137 0.032368749 0.01252057 4278930853
-0.019197196 0.033869784 0.010672884 4278340528
-0.017502412 0.034685612 0.0095495954 4279061413
-0.0159739 0.036185451 0.0077060624 4279128224
-0.014128521 0.036316372 0.0073065837 4278668968
-0.011950269 0.035079513 0.0083476976 4278864809
-0.0099302791 0.03452725 0.0086668432 4278274994
-0.0077331141 0.033291847 0.0097040273 4278669223
-0.0060483739 0.034107439 0.0085832775 4278537898
-0.004014764 0.033556372 0.0088996477 4278538154
-0.0019757301 0.033005789 0.0092149135 4278603943
0.00025113672 0.031772822 0.010245916 4278736034
0.0026738197 0.029858148 0.011990855 4278998429
0.0049248524 0.02862707 0.01301676 4279981708
-0.023189291 -0.004219614 0.049633201 4280439434
-0.022051357 4.8045069e-05 0.044858392 4279784338
-0.02123493 0.0056887828 0.038644016 4279849619
-0.021198578 0.014763985 0.028825281 4279849108
-0.021381661 0.024521641 0.018299485 4278997153
-0.020875111 0.030838652 0.011397719 4279259039
-0.01023034 0.033687294 0.006829143 4278407339
-0.0080363303 0.032447286 0.0078636929 4278473384
-0.0061799698 0.032579284 0.0074620643 4278670753
-0.0039697737 0.031340629 0.008493185 4278737053
-0.0019283593 0.030788006 0.0088062715 4279721609
-0.023189768 -0.0065493733 0.049152713 4281488248
-0.021906152 -0.0029584728 0.045109298 4280046479
-0.020649076 0.00063064322 0.041071687 4279784338
-0.020007767 0.0069766417 0.034155462 4279718294
-0.020164289 0.016766731 0.023647036 4279587734
-0.020242743 0.02586234 0.013874775 4278931363
-0.019769192 0.03219673 0.0069950758 4279126948
-0.018553555 0.035083257 0.0037197829 4278668204
-0.016877178 0.035902165 0.0026038005 4278733994
-0.01487935 0.035343751 0.0029242733 4278472109
-0.012544043 0.033409089 0.0046777683 4278996133
-0.01036131 0.032163836 0.0057113203 4278801314
-0.0083391368 0.031607389 0.0060267062 4279391638
-0.0064855516 0.031739186 0.0056256694 4280573818
-0.021478057 -0.0073579922 0.046795204 4281356413
-0.020209461 -0.0037571825 0.042763337 4280046478
-0.018967398 -0.00015816092 0.038737286 4279653524
-0.018800445 0.0082808249 0.029684627 4279718293
-0.019002341 0.018098354 0.01920923 4279456663
-0.019123711 0.027219377 0.0094677992 4279194524
-0.018525306 0.032880045 0.0033273394 4278801059
-0.017167129 0.035083145 0.00077921571 4278408103
-0.015172262 0.034522306 0.0010986566 4278735778
-0.012674484 0.031890303 0.0035633338 4278671263
-0.020059846 -0.0067737922 0.043005332 4281421693
-0.018664677 -0.0038575158 0.039704051 4280045969
-0.017739516 0.001138974 0.034255564 4279914898
-0.017460693 0.0089076981 0.025948254 4279914899
-0.017705306 0.018752821 0.01550529 4279849364
-0.017709289 0.027206115 0.0065097162 4278867104
-0.01665521 0.03080317 0.0025329669 4279327379
-0.015138831 0.032319654 0.00070523331 4281033073
-0.018656522 -0.0061772764 0.039228804 4280635530
-0.017428651 -0.0025574006 0.035222378 4280111503
-0.016379405 0.0017565712 0.030506665 4279914898
-0.016135842 0.0095468424 0.022225276 4279980178
-0.016108338 0.018028587 0.013242649 4279915153
-0.015824549 0.025115244 0.0057007228 4281292919
-0.016969603 -0.0069649667 0.03689383 4281814139
-0.015908681 -0.0026370995 0.032185484 4280373899
-0.014879625 0.001688607 0.027484117 4279849108
-0.014668692 0.0095006861 0.019227965 4280308363
-0.015591107 -0.0063478202 0.033139698 4280897925
-0.01455304 -0.0020083636 0.028446229 4280308363
-0.01370392 0.003028769 0.023049057 4280177039
-0.012892056 0.0080634058 0.017659983 4280834939
-0.015577663 -0.0086664706 0.032663867 4283123563
-0.01453593 -0.0043136925 0.027979491 4281487229
-0.013055466 -0.0020694099 0.025429519 4280373899
-0.011590913 0.00017387792 0.022882998 4281424243
-0.014365114 -0.007327646 0.028217843 4282992493
-0.012722205 -0.0057806671 0.026379006 4280504713
-0.011089843 -0.0042343736 0.024542576 4280439688
-0.012546495 -0.0087983906 0.026613181 4282862699
-0.011067696 -0.0065410286 0.024073469 4281815923
-0.023916125 -0.038374312 0.038088106 4281164399
-0.024193212 -0.039308123 0.036173157 4280571524
-0.024333753 -0.040964782 0.034957077 4280177549
-0.022734724 -0.03864105 0.032435127 4280309638
-0.025689617 -0.047142133 0.038345113 4280898433
-0.024610162 -0.041891418 0.033047378 4280308619
-0.02287478 -0.040290877 0.031224096 4280243849
-0.021149881 -0.038691007 0.029403223 4280310403
-0.025564782 -0.050275519 0.038505476 4282405739
-0.024614625 -0.044277191 0.032525577 4280112013
-0.023014762 -0.041940391 0.030013291 4279981454
-0.021571845 -0.038873054 0.026813449 4279982729
-0.025573574 -0.052683055 0.037968371 4282340203
-0.024483807 -0.047401145 0.032691389 4280178058
-0.023154698 -0.043589592 0.028802698 4279718548
-0.02157025 -0.041247308 0.0262988 4278800803
-0.02000165 -0.038905978 0.023798397 4280439943
-0.024353683 -0.050533563 0.032851052 4280308874
-0.023156509 -0.045974597 0.028280763 4279456664
-0.021709695 -0.042889662 0.02509327 4278604453
-0.020140685 -0.040541798 0.022597691 4279849874
-0.01844145 -0.03893052 0.020792384 4282471529
-0.023683392 -0.056628384 0.03575414 4281881204
-0.022882894 -0.049840286 0.029129541 4279784338
-0.02170857 -0.045269825 0.024574203 4279325338
-0.020136461 -0.042915225 0.022082888 4279783828
-0.018434323 -0.041299418 0.020280227 4280111503
-0.016594183 -0.040421769 0.019164469 4280964224
-0.022748001 -0.052978337 0.029283674 4279980689
-0.021988459 -0.046173453 0.022682855 4279849619
-0.020561621 -0.043072402 0.019512879 4279849618
-0.018718902 -0.042192534 0.01839811 4279980433
-0.016733032 -0.042052642 0.017967455 4280373898
-0.021707252 -0.050042339 0.023527101 4281225853
-0.020557493 -0.045447417 0.018996906 4280177293
-0.018712059 -0.044565201 0.01788317 4279980943
-0.016871836 -0.043683223 0.016770657 4279980944
-0.015338462 -0.041317977 0.014297871 4280177804
-0.013974458 -0.03821221 0.011148445 4281488504
-0.02069632 -0.047081999 0.017797085 4280766854
-0.018996164 -0.045453325 0.016004696 4280242574
-0.017158572 -0.044569336 0.014894348 4280242829
-0.015627444 -0.042197794 0.012427008 4279915153
-0.014265504 -0.039083496 0.0092845988 4279455899
-0.0189896 -0.047829732 0.015487008 4280438924
-0.017444879 -0.045450792 0.013021516 4280111504
-0.015916012 -0.043072864 0.010559548 4279586713
-0.014403019 -0.04069598 0.0081011485 4278603943
-0.012750104 -0.039065786 0.0063226088 4280308618
-0.011107743 -0.037436254 0.0045464798 4281685363
-0.0191283 -0.049461529 0.014289256 4281683069
-0.017583162 -0.047076076 0.01182859 4280504459
-0.016053885 -0.0446916 0.0093714669 4278931618
-0.014387541 -0.043056272 0.0075932448 4279718293
-0.012731738 -0.041421592 0.0058173924 4280111758
-0.011244752 -0.039039746 0.0033697053 4280571015
-0.017573986 -0.049451694 0.01131079 4281551998
-0.016191721 -0.046310015 0.0081836134 4278866083
-0.014525145 -0.044670343 0.0064086248 4279783828
-0.013024539 -0.042281143 0.0039628237 4280111503
-0.011381723 -0.040642925 0.0021931543 4280111758
-0.0097494759 -0.039005257 0.00042584678 4280570503
-0.0078009702 -0.038867362 3.7862919e-06 4282209389
-0.016029712 -0.049433514 0.0083414242 4281224835
-0.014662705 -0.046284117 0.0052242172 4280307598
-0.013161689 -0.043888383 0.0027832505 4279980433
-0.011676546 -0.041493684 0.00034585735 4280045968
-0.010046743 -0.039851859 -0.0014176397 4280177293
-0.0082642771 -0.038962454 -0.002508922 4280702084
-0.016018108 -0.051810548 0.0078218952 4282992239
-0.014800236 -0.047897562 0.0040400443 4281224578
-0.01329881 -0.045495287 0.0016039205 4280308109
-0.011655547 -0.043848351 -0.00015927013 4279784083
