# .PCD v0.7 - Point Cloud Data file format
VERSION 0.7
FIELDS x y z rgba
SIZE 4 4 4 4
TYPE F F F U
COUNT 1 1 1 1
WIDTH 978
HEIGHT 1
VIEWPOINT 0 0 0 1 0 0 0
POINTS 978
DATA ascii
-0.012593448 -0.020285342 0.036916569 4286987068
-0.01148966 -0.015956517 0.032186359 4286923063
-0.015752241 -0.027133737 0.041600078 4286857784
-0.014016036 -0.025590178 0.039727107 4287118903
-0.012438275 -0.023347039 0.037142418 4287118138
-0.01117754 -0.019704711 0.03313417 4287118393
-0.010249861 -0.014664341 0.027705835 4287184693
-0.012283772 -0.026417229 0.037362047 4286987833
-0.010866478 -0.023465823 0.034072541 4287183928
-0.0097765401 -0.019111615 0.029365046 4286922044
-0.0085627101 -0.015461449 0.025375372 4286595388
-0.012277525 -0.02879126 0.036864556 4287119414
-0.010706723 -0.026535418 0.03429126 4287184439
-0.0093046576 -0.023576248 0.031011691 4286856508
-0.0080793425 -0.019914355 0.027027668 4286856763
-0.0073552616 -0.014142413 0.020923695 4286856509
-0.012418952 -0.030462537 0.035654746 4286792248
-0.01069767 -0.028906818 0.033794984 4286792248
-0.0091396272 -0.02664518 0.031229394 4287053369
-0.0077528134 -0.023678239 0.02795977 4286922299
-0.006861303 -0.018594284 0.022573879 4287183419
-0.0060070157 -0.013512824 0.017196143 4286856509
-0.0089752749 -0.02972265 0.031440981 4287053624
-0.0075825006 -0.026746552 0.028176578 4287118393
-0.0063687786 -0.023063499 0.024211494 4287052859
-0.0055026487 -0.017965887 0.018842613 4286987578
-0.0045105442 -0.013578806 0.014186226 4286397508
-0.0092686266 -0.030675855 0.029531358 4286988599
-0.0075678937 -0.029112641 0.027682761 4287053369
-0.0061930306 -0.026128951 0.024428887 4287052604
-0.0051600523 -0.021725941 0.019773295 4286987323
-0.0039959475 -0.018035267 0.015827378 4287249208
-0.0060179904 -0.029202949 0.02464016 4286987323
-0.0046583861 -0.026211504 0.021396229 4287183929
-0.0034828186 -0.022509057 0.017455978 4287249463
-0.0024992898 -0.018096175 0.012821114 4287118138
-0.0061582178 -0.030855525 0.023443988 4287053624
-0.0046380535 -0.028570045 0.020906487 4287314744
-0.0031337626 -0.026285578 0.018372541 4287118393
-0.0021412335 -0.021858979 0.01374555 4287249464
-0.0010126531 -0.018148709 0.0098238979 4287249208
-0.0031106435 -0.028641511 0.01788407 4287117883
-0.0019493699 -0.024918076 0.013963308 4286987578
-0.00081465393 -0.021196451 0.010048481 4287118138
-4.7370791e-05 -0.016044181 0.0047473256 4286987068
-0.0035746172 -0.028844532 0.015303766 4287053369
-0.0020880401 -0.026548099 0.012783557 4287118138
-0.00061734393 -0.024252724 0.01026695 4287117883
0.00049694255 -0.020521495 0.0063648429 4287248699
0.0014117174 -0.016073775 0.0017746445 4286921534
-0.0022266582 -0.028177816 0.01160402 4287119158
-0.00058814511 -0.026596669 0.0097857136 4287118393
0.00069966912 -0.023574878 0.0065839272 4287183674
0.0017935112 -0.01983406 0.002694523 4287184183
0.0025099739 -0.014654536 -0.002572489 4287118648
0.0033672228 -0.010197554 -0.007140154 4286267204
-0.0023652315 -0.029807236 0.010424698 4287251248
-0.00089368969 -0.027498696 0.0079176929 4287053369
0.00056194514 -0.025191125 0.0054142084 4287249209
0.0018291175 -0.022161942 0.0022235382 4287053114
0.0028998405 -0.018411707 -0.0016525527 4287380533
0.0034103319 -0.012496475 -0.0075915409 4286922044
0.00042425096 -0.026807074 0.0042446982 4287053879
0.0016920418 -0.023769099 0.0010604281 4287184184
0.0031136051 -0.021457199 -0.0014305059 4287118648
0.0039861687 -0.016972896 -0.0059819194 4287053114
0.0048268139 -0.012490768 -0.010526221 4287118904
0.0017271675 -0.026103001 0.00058508106 4286988599
0.0033266507 -0.024511177 -0.0012146626 4286922554
0.0040280521 -0.019286681 -0.0064439969 4286987833
0.004872337 -0.014791135 -0.010979339 4287119413
0.0033643469 -0.026844572 -0.00169033 4286791740
0.0044241995 -0.023062203 -0.0055394769 4287052604
0.0050975047 -0.017824296 -0.010751174 4287183929
0.0041107722 -0.023926441 -0.007377129 4286856253
0.0051421598 -0.020135056 -0.011211818 4287118138
0.0039746948 -0.025519211 -0.0085297618 4286594878
0.0051864758 -0.022449907 -0.011675434 4287249464
-0.01539126 -0.055849988 0.012391634 4286202180
-0.015386917 -0.058253411 0.011872794 4286202179
-0.015526749 -0.059912201 0.010671878 4286529344
-0.014102094 -0.056776952 0.0075176843 4286529343
-0.015810207 -0.060819734 0.00879368 4286267204
-0.014094975 -0.059177365 0.0070002694 4286529344
-0.012390263 -0.057535622 0.0052092485 4286987324
-0.011150997 -0.053643439 0.0013934262 4286855488
-0.014380448 -0.060076062 0.0051292907 4286398274
-0.012529373 -0.059182826 0.004016785 4287706934
-0.011137895 -0.056032229 0.00088305771 4286725693
-0.014519565 -0.061725128 0.0039354283 4286789954
-0.01281707 -0.06007478 0.0021513607 4286921788
-0.011125118 -0.058425102 0.00036972389 4286529343
-0.0097515583 -0.05526692 -0.0027534598 4286267459
-0.0097358562 -0.057654921 -0.0032639401 4286529088
-0.008067403 -0.056002263 -0.0050369734 4286791228
-0.0098740421 -0.059288058 -0.0044461573 4286856509
-0.0082053877 -0.057631064 -0.006215998 4287314488
-0.0068650506 -0.054457519 -0.0093187056 4286595134
-0.0084993541 -0.058498595 -0.0080614062 4286136644
-0.0070023946 -0.056077246 -0.01049113 4286529853
-0.0055213124 -0.053656872 -0.012917273 4286594879
-0.0087929443 -0.059361409 -0.0099034579 4286332739
-0.0071397163 -0.057696674 -0.011663326 4286660670
-0.0054970384 -0.056032542 -0.013420791 4287183928
-0.0037010834 -0.055131499 -0.014512592 4287640634
-0.0090861097 -0.06021959 -0.011742082 4286593603
-0.0074353218 -0.058550645 -0.013498151 4287052093
-0.0056340992 -0.057647247 -0.014589549 4287511349
-0.003674455 -0.05750889 -0.015018039 4288558124
-0.0057711303 -0.059261713 -0.015758118 4286463809
-0.0036481842 -0.059890319 -0.015526471 4287969329
-0.0015198067 -0.060518388 -0.015295898 4288558888
-6.1228871e-05 -0.058079597 -0.017702192 4287707444
-0.006229382 -0.059337143 -0.018244693 4286332739
-0.0039488077 -0.060737524 -0.017354893 4288753198
-0.0016575009 -0.062136952 -0.016467361 4288623403
-2.9906631e-05 -0.060460422 -0.018211478 4287184184
-0.0045752376 -0.060037334 -0.020493802 4288357948
-0.013933223 0.022714496 0.07578101 4283990054
-0.018962704 0.024585258 0.070879489 4284054569
-0.017810345 0.028562343 0.065873399 4283859493
-0.016399466 0.031259343 0.062395632 4283925538
-0.014122624 0.030122327 0.063483074 4283860259
-0.010630727 0.02387755 0.070644259 4283797273
-0.028163873 0.027490681 0.065328248 4283788094
-0.026047066 0.026988979 0.065656409 4283855669
-0.023790359 0.025845848 0.066744745 4283922224
-0.02220773 0.027912186 0.064026624 4284055333
-0.020501204 0.029335886 0.062072262 4283990308
-0.018947519 0.031400271 0.059360541 4283927579
-0.01740963 0.033463553 0.056652352 4283795489
-0.015149258 0.03232092 0.057740062 4283794979
-0.01242701 0.029256735 0.061099179 4283795488
-0.0086068362 0.021710321 0.069753736 4283796254
-0.031676248 0.032795377 0.056193255 4283991328
-0.029849514 0.033578116 0.055004835 4283925794
-0.027502052 0.031783283 0.056859069 4283861278
-0.025138356 0.029989608 0.058709845 4283990819
-0.02316881 0.030128984 0.058279425 4283990564
-0.021338552 0.03091217 0.057090379 4283990564
-0.019655555 0.032338634 0.055144392 4283926558
-0.017983049 0.03376437 0.053200781 4283929364
-0.015731111 0.032616697 0.054287016 4283862298
-0.013168029 0.030183816 0.056883551 4283797019
-0.010277767 0.026466876 0.060986884 4283925793
-0.00735531 0.022752311 0.065083183 4283991329
-0.036381781 0.023636907 0.064680293 4283721283
-0.035121314 0.027660685 0.059679739 4283986993
-0.033892617 0.03168226 0.054686159 4283924009
-0.032443814 0.034407832 0.051219448 4283861279
-0.030630298 0.035191782 0.050035514 4283794723
-0.028165542 0.032742772 0.052646607 4283864593
-0.025679208 0.030295305 0.055253074 4283859748
-0.023581132 0.029787863 0.055582032 4283924773
-0.021756075 0.030572865 0.054395676 4283990818
-0.020078115 0.032003284 0.052454099 4283990818
-0.018121392 0.032141849 0.052026547 4283925539
-0.015869915 0.030989693 0.053109556 4283925539
-0.013307646 0.028547917 0.055699669 4283925539
-0.011029109 0.027397742 0.056776889 4283860514
-0.0092056245 0.02818295 0.055591106 4283861533
-0.006597463 0.025744576 0.05817131 4283928599
-0.037345685 0.026538651 0.05816815 4284118829
-0.03574159 0.028625833 0.055459775 4283990563
-0.034276344 0.031361252 0.051995948 4283927324
-0.032706425 0.033446077 0.049295165 4283794468
-0.031152308 0.035529874 0.046597824 4283794213
-0.028696351 0.033071354 0.049204282 4283860768
-0.026218839 0.03061441 0.051806062 4283861534
-0.023992628 0.029455803 0.052891113 4283924773
-0.022172779 0.030242538 0.051707543 4284056354
-0.020216316 0.030380988 0.051279984 4284056353
-0.018259674 0.030519495 0.050852418 4284056354
-0.01600863 0.029362867 0.051932201 4283991074
-0.013746731 0.028207021 0.053009704 4283991329
-0.011931293 0.028993716 0.051827304 4283860513
-0.01058637 0.03172126 0.048390262 4283733524
-0.008473739 0.031213067 0.048714638 4283665949
-0.0052324682 0.026178624 0.054293253 4283274779
-0.037131272 0.022952545 0.059263453 4284053294
-0.035999596 0.027653681 0.053526476 4284121124
-0.034659214 0.031049214 0.049312294 4284058138
-0.033094145 0.033140279 0.046617411 4283928343
-0.031288408 0.033927955 0.045438357 4283927833
-0.028964162 0.03211147 0.047282815 4283994899
-0.026623711 0.030296227 0.049123712 4283925539
-0.024403267 0.029132722 0.050206743 4284056354
-0.022588655 0.029921276 0.049025871 4284056609
-0.020496026 0.029409053 0.049352743 4284056353
-0.018542111 0.029547324 0.048925743 4284056608
-0.016441099 0.029035844 0.049250819 4284056609
-0.01463373 0.029824069 0.048071742 4283925284
-0.013136037 0.031910911 0.045391984 4283928089
-0.011499271 0.033347398 0.043466099 4283663399
-0.0094002672 0.032835998 0.043791778 4283661868
-0.0066547096 0.029729519 0.047112986 4283662889
-0.0030676499 0.023381539 0.054171264 4283794214
-0.035978884 0.014120389 0.066404507 4283788604
-0.035296805 0.021454755 0.057646982 4284054314
-0.034427702 0.027477561 0.050413758 4284056099
-0.032979518 0.030229257 0.046966799 4284056353
-0.031296358 0.03167285 0.045033559 4283990309
-0.029100813 0.030503025 0.046118625 4283990309
-0.027027749 0.029987041 0.046447925 4283991073
-0.025085174 0.03012429 0.046023235 4283926049
-0.023281105 0.030914214 0.044846319 4283929108
-0.021058045 0.029746588 0.045925491 4283994133
-0.019256271 0.030536465 0.044749171 4283991074
-0.017312922 0.030673994 0.044324487 4284056609
-0.015668176 0.032115325 0.04239998 4283990563
-0.013881877 0.032904282 0.041227177 4283928854
-0.01225549 0.034344383 0.039306812 4283797274
-0.010167431 0.033829972 0.039633214 4283730973
-0.0075936504 0.031362716 0.042201161 4283795999
-0.0046728887 0.027595244 0.04625842 4283796508
-0.0012236908 0.021877948 0.052547887 4283926303
-0.034596168 0.0039271116 0.075021021 4283787838
-0.034236975 0.013256576 0.064009376 4283921969
-0.033829689 0.021924902 0.053768173 4283989799
-0.032865576 0.027309608 0.047309853 4284121889
-0.031176768 0.028757902 0.045378663 4284121889
-0.029237367 0.028894763 0.044954546 4283991073
-0.027564131 0.030342113 0.043026812 4283991073
-0.025901347 0.031788744 0.041101448 4283928854
-0.024110526 0.032579869 0.039929032 4283796764
-0.02190125 0.031406835 0.041007899 4283731229
-0.019824974 0.030889053 0.041334987 4283862044
-0.017889708 0.031025965 0.040912032 4283991073
-0.016252674 0.032471068 0.038992517 4283990818
-0.014474265 0.03326162 0.037823036 4283991073
-0.01254651 0.033398181 0.037401855 4283992093
-0.01046139 0.032881327 0.037727229 4283926813
-0.0078911036 0.030404983 0.040289342 4283926559
-0.0054618865 0.028583372 0.042101398 4283925029
-0.0030165017 0.026762933 0.043910012 4283990819
-0.00038706884 0.024290979 0.046459362 4283990309
0.0037989691 0.015947651 0.055696718 4283990309
-0.032702163 0.002380982 0.073352277 4283789369
-0.032499835 0.01239698 0.061618604 4283791153
-0.032002285 0.02043343 0.052158333 4283923499
-0.031185515 0.026492111 0.044966094 4284121889
-0.02963452 0.028601903 0.042289011 4284056608
-0.028232321 0.03136804 0.038865246 4283861788
-0.026579909 0.032818288 0.036945403 4283793704
-0.024937995 0.03426788 0.035027832 4283726894
-0.02274251 0.033089381 0.036106437 4283793703
-0.020536169 0.031911746 0.037182674 4283794724
-0.018318959 0.0307349 0.038256623 4283991073
-0.016537949 0.031527735 0.037088141 4283990309
-0.014762111 0.032320298 0.035920791 4284056354
-0.012837101 0.032456629 0.035500184 4284056354
-0.01059787 0.03128159 0.036569506 4283990309
-0.0081881359 0.029451905 0.038380809 4283925284
-0.0059245788 0.028278716 0.039444916 4283925539
-0.0043103695 0.029726973 0.037533872 4283991074
-0.0025390014 0.030519556 0.036367826 4283995409
0.00059016421 0.026073724 0.041139215 4283861534
-0.031889357 -0.0045929216 0.078141384 4283789369
-0.031174399 0.0028161258 0.069430783 4283659828
-0.03089229 0.012201693 0.058481969 4283725108
-0.03068462 0.021582086 0.047549486 4283792174
-0.029900685 0.027658239 0.040379211 4284055844
-0.028633296 0.031092593 0.036213823 4283993623
-0.027256891 0.03386572 0.032802276 4283994133
-0.025349028 0.034000419 0.032385103 4283928088
-0.023159362 0.032817103 0.033461615 4283928088
-0.020815305 0.030975724 0.03528209 4283995154
-0.018747389 0.030452918 0.035607696 4283990564
-0.016971603 0.031247536 0.034441963 4283990564
-0.01504951 0.031383559 0.034021921 4284056353
-0.012973066 0.030861553 0.034345798 4284121889
-0.010734312 0.02968204 0.035411909 4284056353
-0.0084847063 0.028503411 0.036475658 4283990564
-0.0067108311 0.029298211 0.035310581 4283991329
-0.005271852 0.031407446 0.032663487 4283860514
-0.0036812387 0.032858424 0.030760957 4283794979
-0.0012502596 0.031023834 0.032562912 4283794723
0.0025797337 0.023936193 0.040280111 4283927579
-0.031675898 -0.0082881935 0.079155497 4283723834
-0.030463144 -0.0035046376 0.073458001 4283789878
-0.029910564 0.004588332 0.064024992 4283659573
-0.029930949 0.01532574 0.051613286 4283660593
-0.02938664 0.022747081 0.042958178 4283991074
-0.028635569 0.028840713 0.035809882 4283990818
-0.027391113 0.032284454 0.031657733 4283991073
-0.025621302 0.033080548 0.030494729 4283925794
-0.023434743 0.031892568 0.031568602 4283926049
-0.021237306 0.030705372 0.032640189 4283991329
-0.019174993 0.030179944 0.032965347 4284056609
-0.017850354 0.032958467 0.029571878 4283990818
-0.015790373 0.032432988 0.029897632 4283991074
-0.013570908 0.031247616 0.030964596 4283990564
-0.011183973 0.029402986 0.032770932 4284056609
-0.0095774457 0.030859258 0.030868037 4284056609
-0.007981468 0.032314889 0.028967446 4283926558
-0.0062313825 0.033110242 0.027809246 4283863319
-0.0044865049 0.03390529 0.026652226 4283728934
-0.0022368655 0.032722488 0.02771285 4283793703
0.00088693202 0.028245497 0.032462426 4283860004
0.0047495887 0.021136034 0.040154457 4283926814
-0.031820789 -0.010001559 0.077915199 4283789113
-0.030241489 -0.0071969889 0.074472077 4283724599
-0.029181011 -0.0017354004 0.068045028 4283659573
-0.028671391 0.0063809194 0.058641113 4283594293
-0.028225541 0.014492847 0.049251162 4283595058
-0.028108366 0.02392843 0.038384445 4283791663
-0.027119935 0.028711803 0.03274776 4284121634
-0.025617562 0.030837975 0.030096108 4284056608
-0.023288332 0.028982198 0.031909853 4284056609
-0.021372259 0.029117519 0.031490922 4283991074
-0.019747563 0.030579142 0.029587017 4283992094
-0.018430255 0.033365898 0.02620169 4283731228
-0.016227432 0.032174848 0.027268929 4283862299
-0.014013767 0.030984666 0.028333804 4283929618
-0.011789273 0.029795289 0.029396413 4283991074
-0.010190472 0.031255413 0.027498415 4284056609
-0.0086022057 0.032714821 0.025602816 4283990564
-0.006860029 0.033511776 0.024447953 4283927323
-0.004955925 0.033646844 0.024032081 4283928598
-0.0027120821 0.032459222 0.025090674 4283928599
5.9992075e-05 0.02928878 0.0283569 4283929363
0.0028588772 0.026120305 0.031617321 4283991328
0.0058623962 0.022292998 0.035607412 4284056099
-0.031846665 -0.012381893 0.077421732 4284443954
-0.030385621 -0.0089013539 0.073238276 4283855923
-0.028826736 -0.0060894229 0.069806188 4283594548
-0.027669698 -0.0012790449 0.064143918 4283529268
-0.026938513 0.0055281371 0.056256674 4283659573
-0.026921719 0.015662964 0.044662096 4283725618
-0.026579976 0.023793966 0.035314716 4283989798
-0.025476538 0.027925316 0.030437039 4284121889
-0.023563392 0.028060313 0.030018659 4284056608
-0.02193591 0.029526381 0.028117394 4283991328
-0.020464525 0.031657115 0.02547756 4283925539
-0.019157238 0.034451924 0.022100961 4283794213
-0.017116472 0.033920571 0.02242762 4283793959
-0.014916621 0.032724984 0.023492204 4283928599
-0.012393393 0.030201096 0.026031582 4283990819
-0.010484435 0.030336274 0.025614472 4283990563
-0.0088985413 0.031799875 0.02372265 4283990818
-0.0073232129 0.033262841 0.021833146 4283990563
-0.0054245442 0.033397507 0.021418447 4283990564
-0.002847258 0.030877793 0.023946268 4283925028
-0.00024851039 0.028359672 0.02646946 4283925029
0.0020217858 0.027169637 0.027519071 4283991328
0.003592331 0.028632581 0.025630927 4283991073
0.006234102 0.026117735 0.028144887 4283991329
0.010910064 0.016315211 0.038714007 4283992093
-0.030165456 -0.012613159 0.074238218 4284705839
-0.028721981 -0.0091228746 0.070066825 4283855923
-0.027051471 -0.006972041 0.067387961 4283725619
-0.025784917 -0.0028163046 0.062484309 4283725364
-0.0254746 0.0060165413 0.052392289 4283725364
-0.025368154 0.015512854 0.041573852 4283725364
-0.02492398 0.022999696 0.032994837 4284055589
-0.023697935 0.026475132 0.028871277 4284056609
-0.022355631 0.029280983 0.025493497 4283991839
-0.021179914 0.032752998 0.021381045 4283926558
-0.019586489 0.03422115 0.019490579 4283792174
-0.01770208 0.034354351 0.019078659 4283792684
-0.015510708 0.033153724 0.020141775 4283861533
-0.012996331 0.030620385 0.0226765 4283992348
-0.010936707 0.03008835 0.02299753 4283990564
-0.0090330318 0.030223191 0.022581602 4284056354
-0.0074574128 0.031690545 0.020695293 4284121634
-0.005558826 0.031825166 0.020280583 4284056353
-0.0029823855 0.029296577 0.022802008 4284056609
-0.00090079755 0.028766504 0.023118468 4283990818
0.0010114759 0.028902315 0.02270093 4283925539
0.0022140592 0.031699233 0.019354327 4283797783
0.0042959377 0.031169351 0.01967092 4283731228
0.0076627433 0.025985874 0.025104092 4283469089
-0.028494023 -0.012836125 0.071063489 4284706093
-0.02694159 -0.010007117 0.067645915 4284118319
-0.025410242 -0.0071795695 0.064233042 4283921459
-0.024559416 -0.0010000058 0.057121843 4283856179
-0.024159998 0.0071877502 0.047801122 4283790389
-0.023961611 0.016041361 0.03775499 4283725619
-0.023552641 0.023549918 0.029201748 4284056099
-0.022774532 0.029044677 0.022876104 4284056098
-0.021603294 0.032527283 0.01877285 4283994133
-0.020162798 0.034669012 0.016149612 4283993369
-0.018286504 0.034801599 0.015739428 4283993368
-0.016256809 0.034265071 0.016065227 4284059669
-0.013598062 0.031053115 0.019331204 4283991328
-0.011546735 0.030518301 0.019652331 4283990564
-0.0094899312 0.029983941 0.019972319 4283990564
-0.0079193562 0.031455263 0.018090421 4284056354
-0.0056930557 0.030253045 0.019142875 4284056099
-0.0034559518 0.029051635 0.020193072 4283990818
-0.0015518889 0.029186776 0.019777263 4283990818
3.0994415e-06 0.030657327 0.017898945 4283927578
0.0011929981 0.033462115 0.014561661 4283728678
0.0030813143 0.033596355 0.014149452 4283726639
0.0058826916 0.030395254 0.017384829 4283662379
0.0098224729 0.023194719 0.02498799 4283662888
-0.025424041 -0.009541031 0.063750394 4283986993
-0.024173878 -0.0053601228 0.05886998 4283921459
-0.023358569 0.00083672628 0.051781334 4283921714
-0.022865131 0.0083753318 0.043227538 4283790388
-0.022709563 0.017254516 0.033212125 4283859238
-0.022480808 0.025456719 0.023948582 4284056098
-0.021735817 0.030966751 0.017643327 4283990564
-0.020294838 0.033115063 0.01502488 4283990819
-0.018418632 0.033247612 0.014614694 4283991074
-0.016236179 0.032037459 0.015673196 4283990564
-0.014042918 0.030828185 0.016729349 4284056353
-0.012472324 0.032303721 0.014850592 4284056608
-0.010590188 0.032436982 0.01443933 4284056863
-0.0085442141 0.031899717 0.014760079 4283991329
-0.006326396 0.030692467 0.015811076 4283990308
-0.0040977672 0.029486034 0.016859831 4284056609
-0.0023735352 0.030290619 0.015715534 4283925028
-0.0010033324 0.032434665 0.013113102 4283799059
0.00070507079 0.033238281 0.011972385 4283731483
0.0027676821 0.03270264 0.012289833 4283598883
0.0052005462 0.030828843 0.014061999 4283535389
0.0083898082 0.026279874 0.018739974 4283536664
0.011616535 0.021733608 0.023409875 4283667734
-0.024184287 -0.0077123903 0.05839327 4284118319
-0.022828043 -0.00419515 0.05426567 4283921714
-0.021908782 0.0013444684 0.047935225 4283856178
-0.021450512 0.0089047402 0.039407231 4283659319
-0.021619447 0.019158397 0.027951816 4283594039
-0.021288887 0.026709817 0.019451866 4283923243
-0.020279303 0.030887347 0.014634229 4284056609
-0.018400513 0.031020038 0.014223447 4284056609
-0.016368717 0.03047923 0.014545403 4283990818
-0.014486946 0.030612284 0.014134087 4283991074
-0.013079606 0.032765076 0.011528103 4283931403
-0.011366427 0.033570744 0.01038762 4283797273
-0.0093314089 0.033030473 0.010709099 4283730973
-0.0069585368 0.03114534 0.01248908 4283730719
-0.0047384053 0.029933926 0.013536338 4283991073
-0.0030220896 0.030740116 0.012395393 4284056609
-0.0016594306 0.032890201 0.0097995214 4283991074
0.00021793321 0.033023551 0.0093896203 4283929874
0.0022749342 0.032485254 0.0097066835 4283665693
0.0045195594 0.031275958 0.01074888 4283470108
0.0069598407 0.029396167 0.01251455 4283600669
0.0094161928 0.027517632 0.014276724 4283662378
0.012269106 0.024298422 0.017484592 4283463989
-0.024063669 -0.010746133 0.058649302 4284706093
-0.022433273 -0.0085717849 0.055998974 4283921968
-0.021228641 -0.0043676309 0.051148199 4283725874
-0.020473786 0.0018645525 0.044102356 4283659064
-0.020192698 0.010123093 0.034866691 4283593784
-0.020120129 0.019053586 0.024912121 4283726129
-0.019527465 0.025274578 0.017901929 4284056098
-0.018232718 0.028112322 0.014560804 4284121634
-0.016348533 0.028245443 0.014148876 4283990818
-0.014930181 0.030405488 0.01154533 4283991839
-0.013685696 0.033239864 0.0082154013 4283860259
-0.012141105 0.034722403 0.0063488577 4283793194
-0.0099537112 0.033504054 0.0073998962 4283796764
-0.0074235089 0.030936887 0.0099049862 4283729954
-0.005040504 0.029045941 0.011677872 4283925283
-0.0033267699 0.02985413 0.010539122 4284056354
-0.0016182661 0.030662032 0.0094015747 4283991073
8.4970146e-05 0.031469665 0.0082651842 4283925538
0.0021416917 0.030929139 0.0085806586 4283728168
0.0040217899 0.031062821 0.0081702657 4283597099
0.0062713549 0.02984955 0.0092081483 4283531053
0.007782191 0.031330451 0.0073496141 4283068994
-0.022441328 -0.010927852 0.055518784 4284706094
-0.020960063 -0.0080686174 0.052143089 4283856178
-0.019778229 -0.0038528964 0.047307231 4283725364
-0.018911794 0.0017182082 0.041014634 4283725363
-0.018665746 0.010000709 0.03180629 4283659318
-0.018483542 0.018278725 0.022612004 4283660083
-0.017766014 0.023839578 0.016352164 4283989034
-0.016786069 0.028041447 0.011560746 4283991073
-0.015527733 0.030885527 0.0082342289 4283993879
-0.014290605 0.033728179 0.0049124062 4283861023
-0.012593254 0.034537062 0.0037786234 4283793194
-0.010574825 0.033991173 0.0041004084 4283794469
-0.0080534779 0.031414524 0.0066008922 4283796254
-0.0058476478 0.030193252 0.0076446719 4283991839
-0.0038021877 0.029649515 0.0079607293 4283990563
-0.0020989366 0.030459205 0.0068259463 4283925029
-0.00040093809 0.031268619 0.0056923777 4283858984
0.0016501434 0.030725515 0.0060073845 4283069249
0.0033429638 0.031534709 0.004875062 4281429344
-0.020965099 -0.010419887 0.051665671 4284052018
-0.019501679 -0.0075530745 0.048300475 4283856434
-0.018201016 -0.0040067248 0.044209711 4283790644
-0.017503969 0.0022610053 0.037206098 4283790644
-0.017148666 0.0098866075 0.028754832 4283725874
-0.016851895 0.017508201 0.02031639 4283792685
-0.01661367 0.025125697 0.011890849 4284055844
-0.015814193 0.030019013 0.0063875541 4283924773
-0.014894336 0.034229986 0.0016191676 4283862808
-0.013044614 0.034360837 0.0012149028 4283731228
-0.011031814 0.033812314 0.0015362538 4283600159
-0.0086822845 0.031905681 0.0033065081 4283795999
-0.0064849257 0.030679369 0.0043488927 4283858474
-0.0046187304 0.03081171 0.0039412715 4283858728
-0.0025787912 0.030265428 0.0042569265 4283662123
-0.00088604167 0.031076649 0.0031261351 4283203889
-0.017775275 -0.0083915554 0.045928471 4283855668
-0.016777776 -0.0034692585 0.040393084 4283856178
-0.016110964 0.0028161369 0.03341087 4283790643
-0.015641481 0.0097808838 0.025712246 4283791153
-0.015833572 0.01947163 0.015120039 4283791919
-0.015635937 0.027110472 0.0067214556 4283924518
-0.014867134 0.032017082 0.0012363382 4283860259
-0.013174947 0.032829929 0.00010691583 4283794213
-0.011487983 0.033642493 -0.0010213014 4283727913
-0.0093099028 0.032410353 2.1889806e-05 4283531054
-0.0076253712 0.033222906 -0.0011056764 4282673489
-0.017774642 -0.010737609 0.045453407 4284181558
-0.016485475 -0.0071701072 0.04138156 4283855923
-0.015369378 -0.0029193722 0.036589682 4283855668
-0.014583617 0.002698876 0.030354196 4283856433
-0.014751844 0.01242201 0.019779695 4283857199
-0.014685482 0.020771086 0.01066984 4283661613
-0.014211267 0.027062904 0.0037447698 4283858728
-0.012985401 0.029931106 0.00044508465 4283662378
-0.011618175 0.032114007 -0.0021275189 4283466539
-0.016337939 -0.010196578 0.041635789 4284181304
-0.014776349 -0.0079939179 0.039025195 4283921203
-0.013677739 -0.0037311949 0.034247026 4283921459
-0.01336962 0.0039636232 0.025860185 4283855924
-0.013274413 0.012341015 0.016763726 4283790134
-0.013243124 0.020714 0.0076812487 4283660083
-0.026310109 -0.024438534 0.055419162 4284573493
-0.014623709 -0.011021961 0.039276794 4284246838
-0.013369899 -0.0074349009 0.035229146 4284117043
-0.012597196 -0.0017824695 0.029022804 4283855669
-0.012021258 0.0045559257 0.022104835 4283724344
-0.0119638 0.012957074 0.013036286 4283789624
-0.011970256 0.021353804 0.0039817821 4281756253
-0.026452743 -0.026131283 0.054193638 4283658298
-0.025058098 -0.02252401 0.050122872 4284573493
-0.013211787 -0.010460194 0.035481393 4284312119
-0.012281023 -0.0054809935 0.030006541 4283724344
-0.011233449 -0.0011954233 0.025259277 4283724344
-0.010687795 0.0051606596 0.018362736 4283724344
-0.026468158 -0.028518897 0.053691901 4282087499
-0.025329679 -0.023510542 0.048182517 4282546245
-0.023300864 -0.023368139 0.047738276 4284704564
-0.012117073 -0.0084990375 0.03026261 4284049468
-0.010909319 -0.0048931576 0.026241513 4283724344
-0.0098846033 -0.00059592724 0.02150909 4283659573
-0.0095284246 0.0064706951 0.013917381 4283265598
-0.026483841 -0.030910682 0.053187184 4281694543
-0.025341518 -0.025886711 0.047688343 4282087754
-0.023310147 -0.025744181 0.047243513 4283724598
-0.010893546 -0.007212881 0.025782002 4283789623
-0.0097088255 -0.0035975911 0.021774197 4283790644
-0.0083917044 -0.00067919493 0.018487228 4283199299
-0.026246272 -0.034705702 0.054120176 4282347599
-0.024965301 -0.030365188 0.049350612 4281825869
-0.023319744 -0.028124359 0.04674574 4282283848
-0.021150842 -0.028680619 0.047019027 4282807619
-0.0093776435 -0.0073052607 0.022747012 4284116279
-0.0077342913 -0.0057721622 0.020891504 4283199044
-0.026262917 -0.037110161 0.053606264 4282347599
-0.024719752 -0.034159418 0.050282113 4281890894
-0.023065768 -0.031911474 0.047680259 4282087754
-0.02129297 -0.030365776 0.045799032 4282283593
-0.019393384 -0.029521685 0.044636585 4283328839
-0.0075545236 -0.0087883212 0.021144612 4283198023
-0.02615346 -0.040222671 0.053806499 4282281808
-0.024604335 -0.037262801 0.050487556 4282218059
-0.023076326 -0.034304302 0.047173299 4281825868
-0.021435022 -0.032050651 0.04457923 4281825868
-0.019946605 -0.029094737 0.041273803 4282022983
-0.018199839 -0.027546275 0.039401628 4282154819
-0.024747372 -0.038962718 0.049256794 4282282828
-0.023087189 -0.036701251 0.046663351 4282020943
-0.021442793 -0.034440834 0.044073492 4281760333
-0.020224862 -0.030065116 0.039347328 4282022218
-0.018480517 -0.028512474 0.037478924 4281958979
-0.016319983 -0.029075678 0.037749223 4283787074
-0.02424679 -0.044203345 0.051593348 4282739533
-0.022966973 -0.039810371 0.04686328 4282151504
-0.02145084 -0.036835153 0.043564737 4281760078
-0.020229265 -0.03244606 0.038847573 4282088519
-0.018760756 -0.029473986 0.035559617 4281827653
-0.016887277 -0.028625112 0.034407891 4282416449
-0.014584839 -0.029897686 0.035387136 4283852863
-0.021459214 -0.039233584 0.043052994 4282086734
-0.020097457 -0.035540942 0.039054908 4281892423
-0.018762179 -0.031850073 0.035062678 4281566279
-0.017311528 -0.028870415 0.031785227 4281566023
-0.015303962 -0.028729286 0.031345807 4282023238
-0.021200538 -0.043060612 0.043956444 4282085203
-0.019966327 -0.038644414 0.039256088 4281696328
-0.018485919 -0.035654042 0.035978571 4281827654
-0.017309986 -0.031241667 0.031291097 4281631048
-0.015732877 -0.028965961 0.028730923 4281892679
-0.020244315 -0.039613556 0.037330389 4281692503
-0.018765949 -0.036614638 0.034059882 4281825104
-0.017450236 -0.032903161 0.030088274 4281759568
-0.016160972 -0.029193465 0.026122591 4282939709
-0.01431099 -0.028339554 0.024981009 4284377399
-0.019184187 -0.036854248 0.031439841 4281692759
-0.017731689 -0.033848252 0.028181551 4281825614
-0.016300358 -0.030843664 0.024927964 4283396924
-0.014596932 -0.029271889 0.023085034 4284573494
-0.01801274 -0.034788672 0.026278211 4281302098
-0.01658345 -0.031775486 0.023031598 4283593528
-0.014736019 -0.030917417 0.021893812 4284574003
-0.018152423 -0.036444824 0.025079219 4280840803
-0.01643534 -0.034863498 0.023239719 4284117044
-0.0013415627 -0.02580006 -0.0047422256 4284182325
0.0012810528 -0.028588776 -0.0024276059 4283396414
-0.0016465187 -0.026663352 -0.006581476 4283658809
0.00062933564 -0.027993809 -0.0056381691 4283133764
-0.0033825412 -0.029867087 -0.0059484597 4284639794
-0.0016135685 -0.028993983 -0.0070537981 4283135803
0.00015018135 -0.028121147 -0.0081578325 4281956939
0.0020827502 -0.027984191 -0.0085800253 4282152523
-0.0014123693 -0.032066938 -0.0068488354 4282874683
1.4275312e-05 -0.029715475 -0.0093116704 4281826379
0.0015989132 -0.028102878 -0.011091879 4281956428
0.0031729601 -0.026490841 -0.012869708 4283132489
-0.0013802722 -0.03440794 -0.0073286695 4282677313
4.9449503e-05 -0.032049697 -0.0097872745 4281760334
0.0014632791 -0.02969249 -0.012242271 4281564748
0.0028611831 -0.027336251 -0.01469375 4281826888
0.0042431504 -0.024981026 -0.017141653 4282285379
0.0056091957 -0.022626851 -0.019585948 4284639538
-0.0015167035 -0.036010418 -0.008488453 4282348619
8.4303319e-05 -0.034388062 -0.010265807 4281760078
0.0013276823 -0.031281825 -0.013392465 4281564238
0.0027259961 -0.028919015 -0.015839146 4281566024
0.0039295331 -0.025815349 -0.018956918 4281632323
0.0054748468 -0.024196457 -0.020721745 4283724854
-5.1863492e-05 -0.035985846 -0.011422168 4281628754
0.0015387759 -0.034359697 -0.013193945 4281499214
0.0025908425 -0.030501444 -0.016984308 4281304648
0.003973648 -0.028133068 -0.019422615 4281630793
0.005340524 -0.025765751 -0.021857318 4282088519
0.0070594437 -0.024886761 -0.022944605 4283657789
0.0085864142 -0.023264531 -0.024702035 4284574004
-0.00052895397 -0.036089655 -0.013924806 4281171284
0.0012297295 -0.035206188 -0.015019543 4281238094
0.002807349 -0.033576507 -0.01678508 4281565513
0.0043743663 -0.031947423 -0.018548263 4281826123
0.0057496391 -0.029572908 -0.02097995 4281957193
0.0072927922 -0.027945314 -0.022737695 4282088263
0.0088253282 -0.02631836 -0.024493033 4283659318
0.001094047 -0.036796782 -0.016170656 4281301588
0.0028475076 -0.03591137 -0.017262509 4281695564
0.0045957044 -0.035026211 -0.018353133 4281695309
0.0059767254 -0.032644738 -0.020781172 4281696074
0.0077090412 -0.031760458 -0.021868141 4281695053
0.0088772401 -0.028632741 -0.024958353 4281957193
0.010402035 -0.027001787 -0.026708687 4282677059
0.0027118959 -0.037499491 -0.018411793 4281628754
0.0046382248 -0.037362803 -0.018832486 4281629519
0.0060223229 -0.034974564 -0.02125632 4281760078
0.0073904805 -0.032587338 -0.023676576 4281695309
0.008742705 -0.030201148 -0.026093211 4281826379
0.010267727 -0.028565835 -0.027840348 4282153544
0.011590719 -0.026181493 -0.030250423 4284115768
0.0024010763 -0.038334284 -0.02022817 4281101923
0.0043245852 -0.038197797 -0.020648248 4281497684
0.0060675703 -0.037308473 -0.02173442 4281695309
0.0074388124 -0.034914542 -0.024150431 4281695818
0.0084223077 -0.031016994 -0.027892837 4281826123
0.009944886 -0.029377494 -0.029636178 4281957704
0.011456855 -0.027738664 -0.031377066 4282742593
0.0057517067 -0.038136769 -0.023544576 4281563474
0.0073037408 -0.036491092 -0.025291231 4281565003
0.0082880221 -0.0325826 -0.029025666 4281567299
0.0096224546 -0.030184422 -0.03142859 4281370438
0.011514068 -0.030049581 -0.031841248 4281631048
0.013018277 -0.028406758 -0.033577122 4282938688
0.014511868 -0.02676462 -0.035310559 4284115259
0.0056164451 -0.039717417 -0.024688371 4280972128
0.0073515661 -0.038824227 -0.025769446 4281237584
0.0079682358 -0.033391196 -0.03082012 4281501254
0.0093004256 -0.0309867 -0.033217635 4281696328
0.010998353 -0.030095723 -0.034290344 4281826379
0.013271555 -0.031473372 -0.033381559 4282088263
0.014770683 -0.029826421 -0.035112984 4282939199
0.0080195442 -0.035712924 -0.031290688 4281563729
0.0091667995 -0.032542933 -0.034343652 4281826124
0.01105544 -0.032408301 -0.034755651 4281956429
0.013524082 -0.034548398 -0.033192165 4281629008
0.01561676 -0.035171095 -0.032947816 4281694289
0.01632417 -0.030487772 -0.037305765 4282282828
0.016194336 -0.022775736 -0.044283554 4284115259
0.0082556456 -0.038799752 -0.031105645 4281366103
0.0094088241 -0.035620604 -0.034153376 4281761099
0.011683594 -0.037007008 -0.033251554 4281956683
0.014934741 -0.042194936 -0.02906758 4281629009
0.017635792 -0.045099173 -0.026860528 4281563474
0.018770419 -0.041920859 -0.02990384 4282085969
0.019079216 -0.035704236 -0.035563 4283459144
0.010775883 -0.043285202 -0.030030444 4282083164
0.013451997 -0.046200212 -0.02782467 4281955153
0.016921248 -0.052164275 -0.023002286 4281824593
0.005215019 0.031667888 0.0044664741 4278998174
0.0067127869 0.033152238 0.0026140623 4278996899
0.010253973 0.034093462 0.0010786429 4278535603
0.0011594035 0.030530922 0.0034407116 4279066515
0.0026653111 0.032020103 0.0015896261 4278736799
0.0045292601 0.032152683 0.0011827908 4278472874
0.0071193613 0.036483519 -0.0039492836 4279650719
0.008967448 0.036615223 -0.0043524718 4279127459
0.011595596 0.034038261 -0.0018812036 4278865318
0.016024202 0.025369935 0.007047601 4278865319
-0.0057752915 0.033354081 -0.0015097987 4279651738
-0.0040985681 0.034166254 -0.0026355293 4278471599
-0.0018987358 0.032935977 -0.0015968457 4278537134
0.00013308227 0.032387033 -0.0012808992 4278996644
0.0018073767 0.033199325 -0.002405961 4278537898
0.0034764074 0.034011275 -0.0035297684 4278602924
0.017983042 0.02325955 0.0062171146 4278471854
-0.0082597211 0.033742636 -0.0043771416 4278537643
-0.0049222261 0.035370152 -0.0066219866 4278666164
-0.00017690286 0.031534538 -0.0031107971 4278602414
0.0014948063 0.032348774 -0.0042336239 4278406828
0.0029773265 0.033845089 -0.0060729599 4278864808
0.0046358258 0.034658566 -0.0071927728 4278668203
0.0062890239 0.03547179 -0.0083114132 4278274484
0.010163441 0.035052449 -0.0083987303 4278537134
0.012795225 0.032458294 -0.0059413658 4278668203
0.015848339 0.02850323 -0.0020600678 4278733993
0.018933507 0.024550594 0.0018142648 4278668969
-0.01263684 0.026337456 0.0014983471 4280312188
-0.011748321 0.030585768 -0.0032335678 4278933913
-0.0087251738 0.033590198 -0.0069192722 4278602414
-0.0073998608 0.035776917 -0.0094775762 4279390109
-0.0057443306 0.036591969 -0.010595482 4279193504
-0.0035668053 0.035351254 -0.0095584663 4278602924
-0.00084329024 0.032056544 -0.0063718688 4278668204
0.0013637431 0.03081814 -0.0053412123 4278537388
0.0028465241 0.032318849 -0.007177338 4278668713
0.0045051128 0.033134516 -0.0082955388 4278537898
0.0063474998 0.033265702 -0.0086975638 4278734504
0.008189939 0.033396982 -0.0090995301 4278734248
0.010032412 0.033528343 -0.0095014498 4278734249
0.012072027 0.032976188 -0.00919009 4278864808
0.014117002 0.032424498 -0.0088798422 4278667949
-0.011716213 0.028369479 -0.0036202567 4278736288
-0.0080396049 0.036327489 -0.012724621 4278405809
-0.0062191114 0.036456585 -0.013122263 4278602413
0.0010518171 0.02997471 -0.0071637379 4278537643
0.0028993264 0.030106075 -0.0075670183 4278668969
0.0043744333 0.031610705 -0.0093981326 4278538154
0.0062167123 0.031741876 -0.009800138 4278341293
0.0080590434 0.03187314 -0.010202091 4278603178
0.010095656 0.031318475 -0.0098917913 4278537643
0.011743817 0.032135941 -0.011005821 4278471853
0.012787912 0.035010044 -0.014251768 4278602159
0.014215164 0.036511835 -0.016072089 4278273209
0.016656376 0.034586612 -0.014340602 4278862769
0.020566769 0.027867157 -0.0076475041 4278796723
-0.011036351 0.023386989 -0.0011395626 4278867359
-0.010820448 0.030421972 -0.0087168328 4278472618
-0.0019945242 0.032451738 -0.012150669 4278734248
0.00037889183 0.03051433 -0.010409957 4278668968
0.0020349137 0.031334091 -0.011524403 4278734503
0.0038716905 0.031464767 -0.011925286 4278537898
0.0055198148 0.032284141 -0.013037875 4278668968
0.0073540211 0.032414816 -0.013438065 4278472363
0.0089942291 0.033233821 -0.01454878 4278406828
0.010629117 0.03405251 -0.015658293 4278340018
0.013478823 0.037064392 -0.019291362 4279584929
0.015501872 0.036506929 -0.018979471 4278996388
0.018567286 0.032513537 -0.015130214 4278865319
0.022505037 0.025774188 -0.0084593995 4278799274
-0.0098728165 0.016304534 0.0034733694 4280177294
-0.010456298 0.026825685 -0.0076696882 4279128478
-0.010116726 0.03318727 -0.014506192 4278537898
-0.0089758858 0.036084816 -0.017760884 4278930343
-0.0068212673 0.034829207 -0.01672885 4278734504
-0.0044807121 0.032882646 -0.014985984 4278799784
-0.0023018904 0.031628892 -0.013959057 4278799273
-0.00065387785 0.032450229 -0.015070228 4278799273
0.0082824454 0.033790622 -0.017771624 4278603433
0.009516336 0.035991468 -0.02029464 4278405808
0.024448061 0.023677498 -0.0092752911 4278799783
-0.0079040006 0.0057124123 0.011632947 4280571523
-0.0086144172 0.016963858 -0.00020758249 4279915664
-0.0090761445 0.026820261 -0.010602894 4278799783
-0.0085945837 0.032505296 -0.016705874 4278734249
-0.0067770779 0.032634139 -0.017102895 4278603434
-0.004609514 0.031375133 -0.016076913 4278603178
-0.002786506 0.031504538 -0.016475011 4278602668
0.001568947 0.036052614 -0.021923929 4278928303
0.0077655166 0.033668257 -0.020277247 4278472363
0.0089945272 0.035875328 -0.022794288 4278537898
0.010605577 0.036696807 -0.023895247 4278668458
0.012412984 0.036825918 -0.024289329 4278406828
0.014629107 0.035571378 -0.02327319 4278405808
0.017269962 0.032934286 -0.02085028 4278471853
0.019722488 0.03099031 -0.019135866 4278799784
0.022191009 0.029047612 -0.017424915 4278669478
0.024890576 0.026415002 -0.015014594 4278538663
-0.0067473203 -0.0014511943 0.016187133 4281556078
-0.0067769885 0.0070492849 0.0072164126 4279850638
-0.0075377561 0.018332295 -0.0045868009 4279653779
-0.0075365156 0.026126601 -0.012816051 4279194524
-0.0065611005 0.029738594 -0.016769528 4279192994
-0.0049130805 0.030564042 -0.017877555 4278996134
-0.0032703169 0.031389218 -0.018984355 4278471599
-0.0019931048 0.033605747 -0.02150742 4278733995
-0.00091464072 0.036516842 -0.024735069 4278865573
0.00069895759 0.037340224 -0.025835294 4279062179
0.005627621 0.032730781 -0.021674538 4278799020
0.0076363422 0.032165278 -0.021364689 4278733738
0.0088658035 0.034378976 -0.023876909 4278865318
0.010476932 0.035202637 -0.024976257 4278800039
0.012082737 0.036026012 -0.026074374 4278800039
0.014704019 0.033378694 -0.023653867 4278668969
0.017139841 0.031426854 -0.021940794 4278537898
0.019382181 0.030169945 -0.020933464 4278734504
0.020362157 0.033075038 -0.024138864 4278799783
-0.0060773902 -0.006551791 0.01858232 4281752428
-0.0052718967 -0.0015196502 0.013180997 4279850384
-0.005503282 0.0077036805 0.0035276208 4279981709
-0.0058039352 0.016922161 -0.0061104987 4279587988
-0.0061738752 0.026135869 -0.015733456 4278930853
-0.0053908415 0.030456062 -0.020383138 4278734504
-0.0012246259 0.035727449 -0.026517764 4278537644
0.004926905 0.033322006 -0.024874598 4278273209
0.0071205907 0.032056719 -0.023860397 4278406828
0.0087371096 0.032882877 -0.024959343 4278800038
0.010348313 0.033708729 -0.026057076 4278538154
0.012356792 0.033141345 -0.025748642 4278669224
0.014370628 0.032574445 -0.025441304 4278538154
0.016803099 0.030615779 -0.023732418 4278603433
0.018414337 0.031442024 -0.024829868 4278406574
0.019384282 0.034355167 -0.028026536 4278734248
0.022998611 0.034614407 -0.028813805 4278665653
-0.006214682 -0.0081664808 0.017413648 4282339693
-0.0049167611 -0.0052229948 0.014150627 4280373389
-0.003972888 -0.00087860972 0.0094754398 4279915664
-0.0040754564 0.0076694898 0.00056007318 4279719058
-0.0047572218 0.018315487 -0.010463076 4279587733
-0.0049956925 0.02685415 -0.01934861 4279259293
-0.0044126622 0.031886294 -0.024689475 4279061414
0.0042273439 0.033926785 -0.028064923 4278471854
0.0066056475 0.031957198 -0.026349492 4278668968
0.0082168989 0.032785155 -0.02744567 4278407594
0.010021277 0.032913964 -0.027839156 4278472873
0.012026787 0.03234417 -0.027531719 4278472873
0.013833866 0.032473356 -0.027925653 4278537898
0.016053848 0.03120603 -0.02692011 4278538153
0.017448036 0.032732017 -0.028713312 4278472618
0.019775409 0.037177518 -0.033688527 4278996644
0.022000698 0.035910919 -0.032683805 4278734758
0.025335606 0.031158425 -0.028197359 4278603179
0.029820191 0.022922866 -0.020237794 4278537644
-0.0047262534 -0.0082356967 0.01440341 4280897159
-0.0034435987 -0.0052844472 0.011150336 4280504204
-0.0025199614 -0.00092825294 0.0064894594 4279980943
-0.0030007809 0.0090497099 -0.0038098842 4279260313
-0.0035562292 0.019022476 -0.014092853 4278931618
-0.0040094033 0.028287446 -0.023654936 4278735269
-0.0034544542 0.03333303 -0.028978148 4278930343
-0.0022078417 0.035567179 -0.031479742 4279061923
-0.0004224591 0.035694145 -0.031869456 4278996134
0.001738131 0.034417525 -0.03085473 4278930343
0.0039094463 0.033141717 -0.029842243 4278799273
0.0058985613 0.032568276 -0.029533075 4278864808
0.0073062964 0.034099132 -0.03132632 4278406574
0.01149625 0.032252606 -0.030010715 4278603688
0.012890693 0.033782806 -0.031800844 4278472873
0.014893245 0.033210807 -0.031494249 4278472873
0.016065411 0.035440609 -0.033978887 4278733993
0.021221261 0.0365256 -0.035845064 4278667949
0.031309608 0.022228349 -0.022437964 4278274739
-0.0032478273 -0.0082965605 0.011402208 4281748859
-0.0018117353 -0.0060429163 0.0088637453 4279652503
-0.0012484416 -0.00026432425 0.0028083809 4278800549
-0.001597967 0.0090363398 -0.0067550959 4279652504
-0.00254694 0.020446695 -0.018412203 4278997663
-0.0028636865 0.029032536 -0.027241182 4278930853
-0.0019700639 0.03268294 -0.03114385 4278800039
-0.00054889172 0.034218743 -0.032937042 4278603434
0.0016111955 0.032937683 -0.031925499 4278603178
0.0034018978 0.033065215 -0.03231623 4278602924
0.0062018484 0.036134481 -0.035892859 4278337468
0.0081800297 0.035558261 -0.035582807 4278534329
0.012152467 0.034407258 -0.034965985 4278339764
0.014146701 0.033832468 -0.034659214 4278669224
0.015311327 0.036068261 -0.037137263 4278538408
0.017094148 0.036195993 -0.037525699 4278406574
0.026223976 0.030393744 -0.032841336 4278406574
0.028704925 0.028419562 -0.031157274 4278473129
0.031884119 0.024342984 -0.027400941 4278472874
-0.0016109049 -0.0090566017 0.0091130678 4280176529
-0.00052731484 -0.0053822212 0.0051768273 4279521689
8.0913305e-06 0.00041201338 -0.00085928757 4279718039
-0.00073477626 0.011152457 -0.011795314 4279391129
-0.0011992306 0.0204737 -0.021312308 4278472873
-0.0013692752 0.028376834 -0.029413795 4278996643
-0.00012169406 0.030624235 -0.031905681 4278865574
0.0014842935 0.031458132 -0.032996073 4278603435
0.0032748766 0.031585641 -0.033386778 4278275249
0.0044879019 0.033830877 -0.035870906 4278733994
0.0054897256 0.036780797 -0.039048761 4279651229
0.007261727 0.036907271 -0.0394352 4279388833
0.0096353777 0.03491791 -0.037733279 4278403769
0.011821829 0.033634931 -0.036730327 4278536624
0.01381309 0.033057749 -0.03642454 4278603434
0.014975496 0.035299964 -0.038897187 4278734504
0.016755529 0.035427511 -0.039285004 4278603434
0.017893886 0.037668236 -0.041752312 4278865318
0.02031555 0.035682891 -0.040060416 4278669224
0.022533964 0.034402803 -0.039063983 4278669224
0.025428699 0.031012205 -0.035995465 4278800039
0.027227275 0.031141581 -0.036386956 4278472618
0.029025808 0.03127104 -0.036778364 4278341293
-0.0014107861 -0.012078766 0.0093561672 4281552254
-0.00015005469 -0.0091026165 0.0061276443 4280177039
0.00074208528 -0.0047090612 0.0015032198 4279389853
0.0007205978 0.0032285154 -0.0066128634 4279587479
0.00010346994 0.013289127 -0.016813485 4279259803
-0.00022493675 0.021926805 -0.025600586 4279062944
-6.4294785e-05 0.028434101 -0.0322797 4279128479
0.00098341331 0.031395748 -0.035461247 4279127714
0.0033996217 0.035898603 -0.04041766 4278340019
0.0045837574 0.038148478 -0.042890556 4279258273
0.0065426491 0.03756649 -0.042579569 4279585948
0.0087072477 0.036277428 -0.041575156 4278602669
0.013479874 0.032287702 -0.038186479 4278733738
0.015265133 0.032415524 -0.038575511 4278800038
0.016839361 0.03325019 -0.039656624 4278538154
0.018408237 0.034084573 -0.0407365 4278407083
0.02040448 0.033505958 -0.040433135 4278538409
0.022844089 0.031515472 -0.03875003 4278538154
0.025077991 0.030232187 -0.037760105 4278341293
0.026425038 0.031772971 -0.03952954 4278733993
0.029316692 0.034147047 -0.042373002 4278273209
0.032725591 0.029339051 -0.037948087 4278403768
0.039227329 0.01536848 -0.024600914 4278403768
0.00095377862 -0.0077170171 0.0017537996 4279585949
0.0014680289 -0.0018891729 -0.0042513991 4279259803
0.0017608441 0.0046470053 -0.010944816 4279456409
0.0012797639 0.014024105 -0.020415578 4279718548
0.00091352314 0.02268552 -0.02917476 4278997919
0.00085695088 0.029921124 -0.036528252 4279259548
0.0015050247 0.034311108 -0.04108911 4278733483
0.0040689893 0.03811384 -0.045331247 4278338998
0.010958925 0.032813888 -0.040941201 4278471854
0.013147064 0.031522322 -0.03994504 4278799784
0.014721368 0.032359093 -0.041024603 4278603434
0.016501162 0.032486636 -0.041412368 4278800038
0.01828094 0.032614265 -0.041800056 4278472874
0.020493038 0.031324871 -0.040808856 4278603689
0.022496946 0.030744718 -0.040508717 4278668969
0.024284653 0.030873233 -0.040897898 4278341293
0.026498867 0.035377361 -0.04579854 4279061413
0.028040918 0.036212616 -0.046870485 4278800294
0.030738479 0.033510473 -0.044511549 4278799019
0.03510125 0.025859371 -0.037359759 4278732463
0.041422788 0.012556307 -0.024742486 4278338998
0.00099149346 -0.010019694 0.001301147 4281355139
0.0016857311 -0.0048876591 -0.003995385 4279194269
0.002342701 0.00024184585 -0.0092836767 4279784084
0.0025998093 0.0067952611 -0.01595445 4279587734
0.0024410114 0.014771581 -0.024004335 4279326103
0.0018503144 0.024169553 -0.033429764 4278866338
0.0015689023 0.032137297 -0.041452695 4279192483
0.0019966997 0.037251033 -0.046690576 4278603179
0.0035549998 0.038088337 -0.047765397 4278537389
0.005502589 0.037501156 -0.047455229 4278537898
0.00765552 0.036202505 -0.04645481 4278603178
0.010224409 0.033481263 -0.044075213 4278799784
0.012198724 0.032896288 -0.043770645 4278864808
0.014178373 0.032311805 -0.04346716 4278603434
0.015742064 0.033150107 -0.044542696 4278733995
0.018153662 0.031144243 -0.042863399 4278799528
0.020149278 0.030561212 -0.042563163 4278865829
0.022150204 0.029978653 -0.042264014 4278407594
0.023713807 0.030817352 -0.04333923 4278407338
0.027225709 0.036880866 -0.049982026 4278995878
0.029682394 0.034878947 -0.048312016 4278865064
0.032858979 0.030750008 -0.044594154 4278537389
-0.021070533 -0.040100526 0.03208188 4280505479
