# .PCD v0.7 - Point Cloud Data file format
VERSION 0.7
FIELDS x y z rgba
SIZE 4 4 4 4
TYPE F F F U
COUNT 1 1 1 1
WIDTH 960
HEIGHT 1
VIEWPOINT 0 0 0 1 0 0 0
POINTS 960
DATA ascii
0.012807656 0.0045143701 0.089904919 4284118318
0.014139172 0.0072186776 0.086455293 4284055843
0.017643798 0.0022561662 0.09200906 4283925794
0.0085114203 0.010374848 0.080106363 4284185639
0.0092901587 0.015010484 0.074419484 4284055078
0.010931615 0.016437557 0.072485119 4283860259
0.014023867 0.012736071 0.076539278 4283795999
0.017333623 0.0083961524 0.081334203 4283601179
0.020868884 0.0034184344 0.086868025 4283859239
0.023302831 0.0022862405 0.087913454 4284120613
0.025554152 0.0017951094 0.088210568 4284185128
0.026634643 0.005144503 0.084034413 4284054058
0.027291037 0.0097716339 0.07837455 4283989033
0.02931973 0.0099187307 0.077932239 4283925794
0.032980885 0.0049504451 0.083438851 4283925794
0.0062720366 0.016436692 0.069899052 4284188954
0.007905703 0.017867506 0.067969665 4283861024
0.0097085871 0.018654229 0.066789843 4283793194
0.012418624 0.01622471 0.069344476 4283794214
0.015150107 0.013796832 0.071894422 4283861279
0.017715242 0.012013305 0.073694289 4283991074
0.019915465 0.011516228 0.074000858 4283990818
0.021734757 0.012304392 0.072817653 4283924773
0.02335291 0.013734424 0.070891902 4283926304
0.024761897 0.015805798 0.068225332 4283794469
0.026959635 0.015308738 0.068532586 4283792684
0.029774344 0.012887206 0.071064711 4283727148
0.034056187 0.0059772134 0.078782037 4283795999
0.0041408464 0.01465633 0.069125965 4284118829
0.0054315142 0.017383784 0.065705039 4284121633
0.0070548169 0.01881819 0.063781217 4283929364
0.0090267472 0.018960748 0.063350953 4283862808
0.011545647 0.01716719 0.065155819 4283928344
0.014080655 0.015374897 0.066957176 4283927579
0.016444143 0.014228778 0.068011239 4283990819
0.018437777 0.014373107 0.067576401 4283990563
0.020431466 0.014517495 0.067141593 4283990818
0.022229556 0.015306355 0.065964706 4283927068
0.02382401 0.016739124 0.064047441 4283928599
0.026010804 0.016239077 0.064355418 4283795744
0.028610315 0.014451789 0.066143021 4283794978
0.032257587 0.0094475113 0.071626104 4283861024
0.03866481 -0.0039183795 0.086709522 4283926558
0.0034833066 0.014964798 0.065682001 4284185638
0.00459259 0.018348595 0.061524149 4283990563
0.0063822642 0.019138671 0.060350422 4283858728
0.0087049715 0.017985046 0.061409917 4283793194
0.011038445 0.016832292 0.06246705 4283860514
0.013567474 0.015032949 0.064264759 4283926048
0.015550278 0.01517643 0.063832223 4284056609
0.017723266 0.01467297 0.064141378 4284056354
0.019516084 0.015463566 0.062967256 4284056354
0.021303615 0.016253827 0.061794322 4283925028
0.022887699 0.017690215 0.059882637 4283861278
0.025063546 0.017187184 0.060191337 4283861789
0.027651716 0.015392508 0.061976422 4283861278
0.031492822 0.0097240172 0.068187028 4283860513
0.038096726 -0.0043343417 0.083975762 4283991584
0.0031693988 0.013985567 0.063736051 4284120103
0.004276894 0.017380135 0.059586894 4283925538
0.006064035 0.018172158 0.058415409 4283864594
0.0082043745 0.017663911 0.058729831 4283798803
0.010713968 0.015856536 0.060526717 4283797529
0.013239671 0.014050378 0.062320132 4283925538
0.015406985 0.013544256 0.062628806 4284056609
0.017389785 0.013687769 0.062196303 4284056353
0.01898746 0.015129389 0.060284894 4283925284
0.020574505 0.016570257 0.058375891 4283925284
0.022150904 0.018010413 0.056469262 4283859748
0.024519077 0.016856173 0.057515796 4283794214
0.027304534 0.014406273 0.060034309 4283793703
0.031141158 0.0087177791 0.066230915 4283924774
0.038363919 -0.0073326863 0.084192425 4283990564
0.0026849024 0.013663618 0.061051015 4284186404
0.0037879609 0.017068764 0.056911126 4283859493
0.0053934902 0.018514963 0.055001058 4283795233
0.0075255707 0.018003877 0.055315651 4283732759
0.010208201 0.015537322 0.057849582 4283799569
0.012727901 0.013724189 0.059639249 4283859749
0.015076663 0.012563828 0.060686503 4283925284
0.01705673 0.012707137 0.0602546 4283925283
0.018652044 0.01415295 0.05834702 4283925538
0.020041667 0.016249014 0.055704609 4283926304
0.021613028 0.017693207 0.053802349 4283863574
0.024175815 0.015883502 0.055582929 4283864084
0.027160842 0.012774173 0.058831047 4283797274
0.031818695 0.0044649169 0.067952774 4283860768
0.039047226 -0.01163977 0.085871428 4283860768
0.0015179068 0.01597045 0.055409066 4284187424
0.0029528253 0.018075896 0.05276135 4283861023
0.0045479946 0.019525656 0.050856903 4283792684
0.0066691078 0.019011607 0.05117216 4283792938
0.009340208 0.016535459 0.053701933 4283860769
0.012032766 0.01406092 0.056227073 4283861023
0.014559906 0.012241814 0.058010157 4283925283
0.016345013 0.013038304 0.056842629 4283925283
0.018124845 0.013834471 0.0556763 4283926304
0.01931474 0.016589975 0.052304268 4283860768
0.021273501 0.016731907 0.05187713 4283728934
0.023832969 0.014915403 0.053653438 4283793704
0.027017169 0.011142254 0.057627928 4283863318
0.031877991 0.0021519624 0.067461871 4283797018
-7.4245036e-05 0.01224789 0.056868561 4283986994
0.00086517259 0.016332414 0.052004442 4284121123
0.0022925772 0.018443851 0.049363337 4283927578
0.0038800575 0.019897403 0.047463875 4283862044
0.0061715282 0.01872398 0.048516758 4283862554
0.0086551197 0.016894994 0.050304301 4283928599
0.011522807 0.01375488 0.053561036 4283925539
0.013483949 0.013896724 0.053133182 4283925283
0.01525582 0.014694428 0.051970199 4283925283
0.016638368 0.016803039 0.049339198 4283928088
0.018394319 0.017599722 0.048179783 4283929109
0.020342318 0.01774087 0.047754988 4283861279
0.022890437 0.015916979 0.049528778 4283860514
0.026265413 0.011475023 0.05422812 4283860769
0.031731557 0.00048942491 0.06623619 4283860769
-0.0012221523 0.014589259 0.051247694 4284053803
4.3205917e-05 0.017367108 0.047872052 4284056353
0.0016335472 0.018825151 0.045975223 4283925538
0.0035648867 0.018964566 0.045553666 4283860004
0.005853232 0.017786535 0.046603892 4283925794
0.0085146241 0.015292166 0.049122453 4283925539
0.011013672 0.013457781 0.050901659 4283990563
0.012969393 0.013599221 0.050474979 4284056354
0.014546871 0.015056742 0.048581194 4283990818
0.015921932 0.017171327 0.045956865 4283991073
0.017669957 0.017969644 0.044800784 4283926559
0.019609863 0.018110191 0.044377744 4283928089
0.022149308 0.016279113 0.046148431 4283927578
0.025514845 0.011821136 0.050838232 4283992859
0.03117477 0.00014077872 0.06355051 4283925794
-0.0015297942 0.013648491 0.049329385 4284119594
-0.00026641414 0.01643491 0.04596081 4283990818
0.0011486262 0.018558504 0.043332338 4283925794
0.0032501519 0.018036323 0.043646839 4283860003
0.0057136305 0.016192712 0.04542866 4283859493
0.0083741732 0.013689512 0.047940727 4283925283
0.010688942 0.01250913 0.048981946 4284056353
0.012641907 0.012650352 0.048555851 4284056609
0.014028087 0.014772214 0.045934021 4283990563
0.015206654 0.017553018 0.042584345 4283990564
0.017141093 0.017693095 0.042162441 4283924774
0.019075574 0.017833244 0.041740581 4283925029
0.021808654 0.015335763 0.044237182 4283925029
0.025170073 0.01086222 0.048916187 4283925283
0.031233745 -0.0021760464 0.063056819 4283925284
-0.0021717735 0.014040224 0.045944486 4284119849
-0.0010857843 0.017498555 0.041849755 4283926049
0.0004918091 0.018964358 0.039962318 4283863574
0.0025850348 0.018439412 0.0402769 4283797529
0.0050398484 0.016588554 0.042055652 4283666713
0.0078722723 0.013412997 0.045295045 4283860004
0.010364633 0.011565026 0.047065657 4284057119
0.012500945 0.011043459 0.047371041 4284056609
0.013887614 0.013171896 0.04475408 4283991073
0.014875442 0.016623667 0.040681172 4283990819
0.016613029 0.017425539 0.039530728 4283926559
0.01893563 0.016241672 0.040567156 4283863064
0.022066746 0.012412149 0.044513218 4283862299
0.025432087 0.0079235733 0.049179785 4283860003
0.031906728 -0.0064807422 0.064740464 4283925028
-0.0028125569 0.014445292 0.042569488 4284121124
-0.0017337054 0.017914042 0.038484558 4283925283
-0.00050890073 0.020715117 0.035137754 4283726384
0.00139549 0.020852527 0.03472203 4283729698
0.0041893758 0.017663183 0.037961453 4283861024
0.0068295076 0.015141007 0.040464651 4283925538
0.0094910823 0.012620483 0.04296317 4284056609
0.011430528 0.012760699 0.042540003 4283990818
0.01318147 0.013565572 0.041388191 4283991328
0.014162164 0.017027739 0.037325144 4283925794
0.015891843 0.017831206 0.036178075 4283864849
0.018205959 0.016642345 0.03721302 4283730974
0.021327833 0.012799013 0.041151173 4283731228
0.025289487 0.0063035898 0.047985453 4283667988
0.03257817 -0.010802779 0.066411257 4283863829
-0.0050434582 0.013388447 0.041088227 4283920693
-0.0041201748 0.017537126 0.036277354 4283927068
-0.0027197711 0.019679187 0.033666942 4283796508
-0.00099059939 0.020484239 0.032521218 4283795998
0.0010833703 0.019953478 0.032836631 4283795743
0.0036958568 0.017420486 0.035339151 4283862043
0.0061494336 0.01555647 0.03710822 4283926303
0.0082530454 0.015028061 0.03741733 4283990818
0.010176379 0.015167095 0.036997668 4283991073
0.011723027 0.016639773 0.035123922 4283926558
0.013259031 0.018111784 0.033252504 4283862299
0.015171848 0.018250268 0.032835297 4283727404
0.017673872 0.016390178 0.034594119 4283726383
0.020789146 0.012533285 0.038523678 4283728424
0.024945181 0.0053496473 0.046067141 4283728169
0.032839283 -0.013810981 0.066622145 4283728169
-0.0058382675 0.014487265 0.036997236 4284052529
-0.0047577731 0.017977808 0.032928519 4283990563
-0.0031954199 0.019455468 0.031054283 4283926304
-0.0012993291 0.019592162 0.03064028 4283862043
0.00077170134 0.019058995 0.030954668 4283861533
0.0033806525 0.016516985 0.033451281 4283926048
0.0054705553 0.015985321 0.033761661 4283990818
0.0073830374 0.016123479 0.033344295 4284056609
0.0091100819 0.016930891 0.032200947 4283990819
0.010831852 0.017737992 0.031058805 4283925539
0.012739185 0.017876001 0.030642735 4283929364
0.014646571 0.018014081 0.030226702 4283863064
0.016946379 0.016815435 0.031258106 4283861789
0.019853525 0.013612974 0.0344566 4283862044
0.024601262 0.004400339 0.04415217 4283862298
0.032895431 -0.016159888 0.06610474 4283862809
-0.0067954473 0.016276784 0.032190278 4283987504
-0.0053941831 0.018431827 0.029589595 4284056354
-0.0033316649 0.017895699 0.029904054 4283925539
-0.0012636892 0.017360032 0.030217374 4283858983
0.00098436698 0.016152646 0.03125634 4283925284
0.0032431819 0.014946142 0.032292962 4284056353
0.0053328015 0.014412254 0.032601722 4284056863
0.0070625506 0.015221961 0.03145938 4284056353
0.0087870248 0.016031351 0.03031824 4284056609
0.010318231 0.017511655 0.028454447 4283990818
0.012029473 0.018320244 0.027316315 4283925029
0.013928756 0.018457729 0.026902044 4283925539
0.016612086 0.015912862 0.029376158 4283926049
0.019515503 0.012699205 0.032567147 4283925283
0.024660476 0.0021151453 0.043682501 4283924773
-0.0067680739 0.014037745 0.031764451 4283987758
-0.0053636692 0.016199585 0.029168004 4283991073
-0.0036369488 0.017010862 0.028027689 4283929874
-0.0014001653 0.015798248 0.029065678 4283929108
0.00067296252 0.015260821 0.029376248 4283929618
0.0029286444 0.014049668 0.030410262 4284056864
0.0046557523 0.014861267 0.029270088 4284056353
0.0067424886 0.014325049 0.029577861 4284056609
0.0086495169 0.014462851 0.029161716 4284056609
0.010181013 0.015947528 0.027301172 4283990818
0.011701889 0.017431477 0.025443049 4283991328
0.013405275 0.018241743 0.024308339 4283925539
0.016082402 0.015687687 0.026777158 4283924774
0.019376375 0.011117447 0.031400971 4283990563
0.024719313 -0.0001741834 0.043209709 4283990818
-0.0073953196 0.014503844 0.02843214 4283990563
-0.0059984438 0.016671659 0.025842296 4283926303
-0.0042796358 0.017484531 0.02470536 4283862299
-0.0020513386 0.01626691 0.025741855 4283795999
0.00018774718 0.015050096 0.026776092 4283731228
0.0024376027 0.013834188 0.027808001 4283860003
0.0043390505 0.013971426 0.027392952 4284056353
0.0064228438 0.013432745 0.027699733 4283990818
0.0085120462 0.012894578 0.028005349 4283991073
0.0098562278 0.015059199 0.025427472 4283925284
0.010994166 0.017898124 0.022133142 4283929109
0.012882579 0.018034801 0.021721227 4283730973
0.015944745 0.014121542 0.025622461 4283731228
0.019435555 0.0088611096 0.030953208 4283731993
0.025179693 -0.0038168803 0.044169191 4283730209
-0.0089444704 0.010769349 0.029870877 4283853883
-0.0083481222 0.016342338 0.023661276 4283991584
-0.0067980587 0.017836438 0.021802835 4283859748
-0.0052585602 0.019329822 0.019946806 4283726128
-0.0032154806 0.018785732 0.020260517 4283792174
-0.000992883 0.017563356 0.021295028 4283794724
0.0015939251 0.014984792 0.023769788 4283860513
0.0036639981 0.014442844 0.024077831 4283924774
0.0057394765 0.013901411 0.024384707 4284056609
0.0076356381 0.014038406 0.023970919 4283991583
0.0089696199 0.016208824 0.021400241 4283861023
0.01028765 0.018378131 0.018833153 4283794724
0.012167953 0.018514207 0.018422995 4283792174
0.015220832 0.014587214 0.022316236 4283794979
0.019296281 0.0072776154 0.029785743 4283797273
0.02543819 -0.0067957714 0.044403121 4283794724
-0.01036495 0.014659166 0.022930935 4283920183
-0.0092989579 0.018203011 0.018906763 4283993113
-0.0075960942 0.019018967 0.017776528 4283665948
-0.0058984719 0.019834666 0.016647451 4283730974
-0.0038636737 0.019287737 0.01696134 4283730209
-0.0016495772 0.018060407 0.017994324 4283797783
0.00092836097 0.015472407 0.0204644 4283859749
0.0031693317 0.01424717 0.021491637 4283925029
0.0048754364 0.015063824 0.020361049 4284056353
0.0067608133 0.015200026 0.0199496 4283991838
0.0080845952 0.017376248 0.017386127 4283865359
0.0097721927 0.018191805 0.016259758 4283793704
0.011647053 0.018327486 0.015850786 4283726128
0.014693342 0.014386917 0.019735491 4283793194
0.018365428 0.0084111318 0.025758335 4283728423
0.025294788 -0.0084251724 0.043201838 4283728933
-0.010980677 0.015163874 0.019624867 4283658043
-0.010084823 0.019401977 0.01488957 4283859239
-0.0080612227 0.018851927 0.015204063 4283596588
-0.0063688345 0.019669358 0.014077812 4283334958
-0.0043396801 0.019119872 0.014391219 4283336233
-0.0019577295 0.017204562 0.016140813 4283794214
0.00044032931 0.015290543 0.017886911 4283990309
0.0024964735 0.014743192 0.018194646 4283991074
0.0040129609 0.01624403 0.016350502 4283991329
0.0057032071 0.017061794 0.01522509 4283925794
0.0072011463 0.018561421 0.013385171 4283995409
0.0090678521 0.018696414 0.012977906 4283534368
0.011126969 0.018149734 0.013285259 4283598883
0.013971627 0.014877165 0.016447451 4283794724
0.017633859 0.008881025 0.022457493 4283860768
0.024750644 -0.0086919069 0.040575065 4283860768
-0.011915479 0.01705453 0.014888799 4283331644
-0.01054351 0.019246554 0.012324192 4283266873
-0.0085255317 0.018693848 0.012638275 4282148699
-0.0044732317 0.017589962 0.013262989 4283070269
-0.0020919554 0.015668036 0.015007731 4283595313
-4.6879053e-05 0.015117662 0.01531611 4283858474
0.0020036176 0.014567738 0.01562335 4283924774
0.0033335723 0.016757263 0.013068397 4283924773
0.0050158761 0.017576655 0.011946317 4283858218
0.0065060928 0.019080073 0.010111395 4283858219
0.0083646886 0.019214479 0.0097058956 4283594803
0.010607678 0.01798103 0.010726331 4283595313
0.013251081 0.015380854 0.01316925 4283726894
0.017298501 0.0079971701 0.020590089 4283857963
0.024807869 -0.010999862 0.040088613 4283857963
-0.012335997 0.0085046552 0.021356357 4281096058
-0.012208536 0.016213449 0.0130424 4278932129
-0.0025727339 0.015506813 0.012443971 4279587224
-0.00035732612 0.014266459 0.013466761 4279719568
0.0013329498 0.015088392 0.012344513 4279982219
0.0030179508 0.015910069 0.011223434 4280572033
0.0043297596 0.01810489 0.0086774714 4280965499
0.0058122352 0.019612134 0.0068474975 4280767874
0.0074734055 0.020432292 0.0057318523 4279586459
0.010089189 0.017821308 0.0081740916 4280045203
0.012726385 0.015211957 0.010611724 4281160319
-0.013413366 0.01109862 0.015908515 4280766599
-0.01298042 0.01744904 0.0090492666 4278406829
-0.011620849 0.01965319 0.0064972802 4278470579
-0.010277167 0.021856261 0.0039488873 4279913114
-0.0081105903 0.020607805 0.0049787718 4278994094
-0.0030526966 0.015354561 0.0098868925 4278931619
-0.0010188855 0.014798967 0.010194378 4278801058
0.00084190816 0.014933178 0.0097881276 4278801313
0.0023405589 0.016445724 0.0079578515 4278473384
0.0036448166 0.018646566 0.0054184585 4278866085
0.017023284 0.0048674196 0.018282609 4279390364
-0.014645305 0.014412249 0.0097645558 4280177039
-0.012401346 0.020912319 0.0025244956 4278797234
-0.010902982 0.022428725 0.00069715967 4279585183
-0.0090800375 0.022559848 0.00029890286 4278930090
-0.0065760277 0.019922655 0.0027517281 4278339253
-0.0038776696 0.016595172 0.0059120865 4278274994
-0.0016792603 0.015344886 0.0069318847 4278668969
-4.8279762e-06 0.016170003 0.0058163893 4278800039
0.0014834255 0.017686155 0.0039916937 4278406319
0.0027774796 0.019892789 0.0014594998 4278405044
0.0042418391 0.021407381 -0.00035985 4278799783
0.0060734116 0.021539802 -0.00075947773 4279521433
0.011679377 0.014901251 0.0055165659 4278537899
0.016885716 0.0033029243 0.017129144 4278931108
-0.016031194 0.018452039 0.002929417 4278865829
-0.0070475824 0.019804204 0.00021808781 4278404789
-0.0045283474 0.01715949 0.0026609511 4278799528
-0.0023384281 0.01590417 0.0036793076 4278799783
-0.00067191571 0.016730879 0.0025671921 4278734248
0.00062787533 0.018944375 3.8652215e-05 4278668203
0.0059413984 0.020034825 -0.001869146 4278864554
0.0083471313 0.018089088 -0.00014929194 4278275248
-0.016474921 0.018342536 0.00039490592 4278734504
-0.015127417 0.020565242 -0.0021395846 4278930343
-0.013472099 0.021392833 -0.0032480466 4278537134
-0.011657465 0.021523234 -0.0036445805 4278667949
-0.0098427385 0.021653725 -0.0040410743 4278799273
-0.0073484816 0.01899834 -0.001599431 4278864808
-0.0051778257 0.017737169 -0.00058026472 4278603434
-0.0029964149 0.016476898 0.00043657143 4278800038
-0.0018714257 0.019392952 -0.0027954995 4278472363
-0.00040664524 0.020916093 -0.0046084579 4278930853
0.0012307279 0.021743042 -0.0057124323 4278274739
0.017003756 -0.0012144297 0.016230134 4278538409
-0.016761508 0.017542388 -0.001422096 4278669478
-0.015575189 0.020470928 -0.0046614227 4278734759
-0.014086764 0.021999503 -0.0064767003 4278799018
-0.012115937 0.021430241 -0.0061624143 4279061159
-0.0099726655 0.020162588 -0.0051407772 4278865574
-0.0074792802 0.017498415 -0.0027055871 4278538154
-0.0054814406 0.016931308 -0.0023969635 4278276013
-0.0036532022 0.017063007 -0.002796229 4278603433
-0.0021802261 0.018591031 -0.0046077836 4278603434
-0.00071782991 0.020118363 -0.0064168996 4278537898
0.00073393062 0.021645034 -0.0082236901 4278996134
0.0027321279 0.021078445 -0.007914843 4278930853
0.005300764 0.018420324 -0.0054956088 4278996643
0.0075087696 0.017158095 -0.0044874526 4278538664
0.010889616 0.011715099 0.00073435018 4278473129
0.017062239 -0.003479287 0.015776074 4278473129
-0.017332386 0.0095962025 0.004259977 4282470763
-0.01689152 0.01604504 -0.0025265052 4278472618
-0.0077795088 0.016699577 -0.0045178654 4278864808
-0.0059567951 0.016830783 -0.0049159937 4278407083
-0.0041339919 0.016962081 -0.0053140791 4278668968
-0.0024885945 0.017793762 -0.0064166444 4278472363
-0.001028616 0.019325292 -0.0082219802 4278799784
0.00042076781 0.020856099 -0.010024892 4278602668
0.0022304989 0.020986816 -0.010419849 4278471089
0.0047929212 0.018319512 -0.0080059078 4278471599
0.0071859173 0.016353175 -0.0062981797 4278538409
0.010755938 0.010193311 -0.00038766256 4278342058
0.017512709 -0.0071461909 0.016719909 4278603944
-0.018230315 0.011600491 -0.00039965287 4281421694
-0.017645258 0.017364042 -0.0064610932 4278537134
-0.016626921 0.021013122 -0.010392129 4278274229
-0.015151296 0.022549439 -0.012198014 4278733993
-0.0082485899 0.016608454 -0.0070313783 4279060903
-0.0062593743 0.016036388 -0.0067242491 4278668713
-0.0044393577 0.016167458 -0.007121745 4278930853
-0.0026192591 0.016298631 -0.0075191865 4278799273
-0.0011590086 0.017834529 -0.0093212686 4278602669
0.0015443787 0.021606157 -0.013619412 4278337468
0.004097905 0.018929487 -0.011210172 4278271934
0.010815598 0.0079704039 -0.00081003737 4278668459
0.017962046 -0.010825977 0.017654253 4278668459
-0.019279394 0.014333352 -0.0057494855 4279061925
-0.016913641 0.020241998 -0.012186996 4278732974
-0.015440423 0.021782532 -0.013989095 4279259039
-0.013486493 0.021205407 -0.013676099 4278602668
-0.008885961 0.017231654 -0.010241321 4278471599
-0.0069050603 0.016656779 -0.0099340603 4278733738
-0.0050931573 0.016787266 -0.010329784 4278799784
-0.0032811761 0.016917845 -0.01072546 4278668203
-0.00075161085 0.021405047 -0.015717492 4279192228
0.0010445528 0.021534773 -0.016109494 4279782809
0.003404092 0.019552838 -0.014404502 4279059884
0.010681782 0.0064469539 -0.0019332767 4278865318
-0.020326141 0.017092807 -0.011079781 4278734759
-0.009691041 0.018575691 -0.014142822 4278603178
-0.0075495355 0.017290547 -0.013133941 4278734248
-0.0057457611 0.017420428 -0.013527907 4278603434
-0.0041188113 0.018257307 -0.014621546 4278471854
-0.0014274381 0.022049615 -0.018900665 4278928304
0.00036060438 0.022178737 -0.019290905 4279454879
0.0027114488 0.020189634 -0.017588994 4278733739
0.031307969 -0.055465739 0.055907443 4278733739
-0.022104394 0.014774181 -0.011072854 4279980433
-0.021065127 0.018457208 -0.014983835 4278669479
-0.019430909 0.019295994 -0.016077936 4279061923
-0.017801892 0.020134499 -0.01717083 4278864808
-0.01617809 0.020972719 -0.018262513 4278930344
-0.014232781 0.020390624 -0.017951023 4278930343
-0.011949938 0.018389333 -0.016239811 4278799783
-0.0099884123 0.017808592 -0.015931718 4278800039
-0.0083642192 0.018647211 -0.017023208 4278668968
-0.0067452826 0.019485591 -0.01811352 4278669224
-0.004954882 0.019614575 -0.01850451 4278538154
0.010799687 0.0019850396 -0.0027900417 4278406319
-0.022532295 0.014719889 -0.013569649 4279586714
-0.021650027 0.019126384 -0.018173041 4278406828
-0.020023737 0.019966755 -0.019263767 4278799273
-0.018244792 0.020094262 -0.019652754 4278667949
-0.016305227 0.019509465 -0.019341752 4278995624
-0.014360223 0.018925155 -0.019031867 4278995879
-0.012078062 0.01691727 -0.017325485 4278472363
-0.010285366 0.017046126 -0.017717205 4278538409
-0.0086637735 0.01788676 -0.018806523 4278538154
-0.0070474185 0.018727072 -0.019894578 4278538154
-0.0054363273 0.019567097 -0.020981416 4278407083
-0.0038304962 0.020406842 -0.022067029 4278538154
-0.0022299364 0.021246297 -0.023151422 4278669224
-0.00026560575 0.020664141 -0.022845179 4278800548
0.0020784996 0.018661505 -0.021151802 4278538153
0.0051981434 0.013818931 -0.016687609 4278604199
0.010858107 -0.00025209412 -0.0032229822 4278604199
0.032194078 -0.063146532 0.057535019 4278669479
-0.022510398 0.01252855 -0.013957752 4279783064
-0.021929089 0.018378662 -0.019952185 4278799783
-0.018844556 0.020777872 -0.022826985 4278599354
-0.012040485 0.014731258 -0.017713809 4278537134
-0.010245241 0.014860284 -0.018106095 4278538154
-0.0089628883 0.017130921 -0.02058637 4278538154
-0.0071754716 0.017259577 -0.020976797 4278603433
-0.0057406388 0.01881521 -0.022756835 4278407083
-0.0043164119 0.020370224 -0.024534523 4278275759
0.0017626584 0.017904401 -0.022928042 4278472365
0.0054471754 0.010908861 -0.016398782 4278604199
0.011108525 -0.0032056272 -0.0029675486 4278604199
0.032240085 -0.06558235 0.056954209 4278341039
-0.023086701 0.013203224 -0.017145116 4279651739
-0.022512015 0.019070288 -0.023124916 4278733993
-0.019758064 0.022908812 -0.027385945 4279059118
-0.017520171 0.020884465 -0.025680002 4278403004
-0.01266513 0.015406759 -0.020887416 4278603434
-0.010878004 0.015535178 -0.021277944 4278472618
-0.0092615932 0.016379725 -0.022362791 4278472363
-0.0074769594 0.016508166 -0.022752624 4278537898
-0.0060445294 0.018067962 -0.024528835 4278602669
-0.0033929534 0.021900848 -0.028766185 4278271679
0.011934645 -0.0083110742 -0.00064920401 4278930344
-0.023960385 0.015330819 -0.021717502 4278734504
-0.021795098 0.022059536 -0.028762076 4278996643
-0.02019779 0.022904431 -0.029841512 4278800549
-0.018125873 0.021592064 -0.028834347 4278603434
-0.015392717 0.017405469 -0.025051383 4278733995
-0.013288576 0.016095614 -0.024051104 4278340784
-0.011509575 0.016223444 -0.024439862 4278669224
-0.010242324 0.018506007 -0.02690693 4278603688
-0.0084711537 0.018633468 -0.027293829 4278471853
-0.0068758503 0.019478856 -0.028372269 4278667694
-0.0038823411 0.021886244 -0.031215973 4278602923
0.0055644736 0.0064969026 -0.017217271 4278274228
0.032528311 -0.071182474 0.056470539 4278535348
0.036438469 -0.077474192 0.062187809 4278274228
0.038370378 -0.076603398 0.061036739 4278866084
0.040091671 -0.075017169 0.059201729 4279325848
-0.025130313 0.018924441 -0.027665243 4278864808
-0.020793792 0.02363039 -0.032984458 4278274229
-0.014075931 0.01751869 -0.027897276 4278668458
-0.01264324 0.019086925 -0.029667214 4278799783
-0.011050697 0.019934077 -0.030743558 4278603433
-0.0094633959 0.020780953 -0.03181868 4278537134
-0.0061261728 0.021754025 -0.033275858 4278799528
-0.0041898228 0.021161003 -0.032970238 4278865828
-0.0022480786 0.020568479 -0.032665711 4278669223
0.00081763044 0.015660947 -0.028236233 4278734248
0.0052444041 0.0057228841 -0.019005235 4278799784
0.032573074 -0.073632717 0.055879168 4278668713
0.037608895 -0.076198444 0.057694647 4278931364
0.039527506 -0.075326249 0.056548182 4279980943
-0.02613711 0.013008613 -0.024176884 4280111504
-0.025701921 0.019652499 -0.030813325 4278538154
-0.024253618 0.021225581 -0.032583766 4278537388
-0.016456831 0.018110242 -0.030654937 4278471854
-0.014531936 0.01751362 -0.030348927 4278537643
-0.013104308 0.019085785 -0.032114409 4278537898
-0.011687264 0.020657333 -0.033877552 4278538154
-0.010107901 0.021505788 -0.034949299 4278406828
-0.0066084974 0.021757871 -0.035713527 4278272444
0.037253056 -0.077220514 0.055727519 4278800294
0.039169058 -0.076346397 0.054583333 4280504713
-0.026993211 0.015183957 -0.028717723 4279718294
-0.026272338 0.020393921 -0.033951487 4278538154
-0.024983149 0.022696905 -0.036409002 4278996134
-0.0232477 0.022821076 -0.036788646 4278931109
-0.021355424 0.022219634 -0.036477394 4278734503
-0.018979575 0.01944204 -0.034096438 4278865574
-0.016906369 0.018116752 -0.033099458 4278865318
-0.014987122 0.017517535 -0.032793883 4278800039
-0.013564575 0.019093713 -0.034554999 4278538154
-0.011982556 0.019944433 -0.035625756 4278472874
-0.010578502 0.021519436 -0.037382636 4278538409
-0.009009663 0.022369405 -0.038450364 4278734248
-0.0072680525 0.022494903 -0.038830679 4278668203
-0.0051649585 0.021172516 -0.037839733 4278471599
-0.0028677583 0.019127144 -0.036165994 4278799273
-0.00018240884 0.015635824 -0.033126809 4278406828
0.0044167787 0.0049122609 -0.023254761 4278603434
0.024722027 -0.057007533 0.034668308 4278799273
0.031874631 -0.075653881 0.051958904 4278537643
0.03458019 -0.077669024 0.053544071 4278406828
0.036493555 -0.076793045 0.052402016 4278538154
0.038606316 -0.076639563 0.051941596 4280767109
-0.027263951 0.014466703 -0.030475952 4279521434
-0.026693065 0.020420281 -0.036388848 4278537898
-0.023678739 0.022853145 -0.039218768 4278535093
-0.021479081 0.020793289 -0.037529491 4278338998
-0.019104112 0.018006913 -0.035154976 4278602668
-0.017193269 0.0174048 -0.034849308 4278406828
-0.015276987 0.01680314 -0.034544703 4278603689
-0.013689663 0.017656332 -0.035615101 4278472618
-0.012107585 0.018509213 -0.036684226 4278538154
-0.010703273 0.020088572 -0.038437866 4278472618
-0.0094847418 0.022393888 -0.040874302 4278603434
-0.0077485852 0.022518983 -0.041253436 4279061669
-0.0058318488 0.021918003 -0.040948514 4278800039
-0.0033601634 0.019139489 -0.038594447 4278472618
-0.00068124011 0.015636815 -0.035562143 4278406828
0.0048522279 0.0012519211 -0.022301825 4278406828
0.024768963 -0.059404429 0.034116875 4278734759
0.031722572 -0.07738246 0.050684482 4278472618
0.03442739 -0.079404175 0.052264843 4278406828
0.036340795 -0.07852602 0.051124435 4278603944
0.038044348 -0.076923624 0.049306497 4280963458
-0.027971264 0.01594672 -0.034300644 4279259294
-0.027112979 0.020455632 -0.038819514 4278406319
-0.025984544 0.023501396 -0.041953776 4278337978
-0.02410901 0.022894276 -0.041642278 4278271679
-0.017641392 0.017427163 -0.03728215 4278668713
-0.015730765 0.016822953 -0.036978021 4278537898
-0.013814721 0.016219227 -0.036675002 4278406828
-0.012062903 0.01634513 -0.037057798 4278603433
-0.010828 0.01865799 -0.03949289 4278341295
-0.00043660775 0.012734819 -0.035265893 4278537898
0.0056632012 -0.0038768463 -0.019997098 4278537898
0.033677626 -0.0789579 0.048950918 4278537898
0.035381414 -0.077351317 0.047136188 4278603943
0.037074525 -0.075745314 0.045323841 4282208879
-0.028531533 0.016711406 -0.037423868 4279193503
-0.027383942 0.019767122 -0.040555798 4278603179
-0.026106741 0.022088759 -0.042995837 4278602413
-0.024384964 0.022211909 -0.043372519 4279063199
-0.020305883 0.01953008 -0.041384026 4278340529
-0.018088717 0.017458552 -0.039708342 4278602923
-0.016347874 0.01758345 -0.040088903 4278734248
-0.014440138 0.016976938 -0.039785732 4278668713
-0.01269646 0.017102245 -0.040166762 4278472108
-0.011469107 0.019421125 -0.042595282 4278733738
-0.00074912608 0.012014903 -0.037014734 4278406319
0.033127859 -0.079227418 0.046323635 4279192994
0.034826536 -0.077616811 0.044513285 4278801059
0.036718696 -0.07673572 0.043380924 4282209134
0.050601073 -0.080186591 0.044677712 4282732903
-0.030109417 0.013688819 -0.036721531 4280898434
-0.029526521 0.019695265 -0.042597469 4278668204
-0.026680741 0.022880984 -0.046094414 4279389599
-0.024967093 0.023003528 -0.046469338 4278866594
-0.023097385 0.022391653 -0.046159789 4278996388
-0.016963813 0.018357385 -0.043189954 4278865318
-0.015064385 0.017748093 -0.04288663 4278668713
-0.013328832 0.017872801 -0.04326589 4278537134
-0.010905154 0.022521375 -0.048106141 4278799783
-0.0095399395 0.024111187 -0.049841214 4278800803
-0.0071056485 0.021303771 -0.04749893 4278406318
-0.0046499744 0.018497998 -0.04516124 4278274994
-0.00069068 0.0098349042 -0.03740418 4278865829
0.0059638806 -0.009073887 -0.020177303 4278799528
0.026067337 -0.071010247 0.036502145 4278406318
0.030482773 -0.079639837 0.044159997 4278274994
0.032380283 -0.078756422 0.043027934 4278734759
0.0340712 -0.077142075 0.041222624 4278538918
0.035955392 -0.07625939 0.040093645 4282274413
0.047469031 -0.079150289 0.041177794 4282667624
-0.031229924 0.017420476 -0.042577695 4280243083
-0.030374069 0.02196816 -0.047066383 4278341295
-0.019464251 0.019757271 -0.046585716 4278865318
-0.017578576 0.019144708 -0.046281125 4278800038
-0.015687462 0.018532636 -0.045977652 4278865318
-0.014129113 0.019392455 -0.047035009 4278930343
-0.0098397993 0.023440558 -0.051555987 4278472364
-0.0074090697 0.020624183 -0.049219549 4278472364
0.0263048 -0.074170426 0.036603715 4278472364
0.031633891 -0.07827203 0.039742179 4278406573
0.033317029 -0.076653838 0.037941843 4278669734
0.035600759 -0.077235952 0.038160853 4282536554
-0.031778734 0.01822372 -0.045674689 4278800803
-0.03092986 0.022783931 -0.050151937 4278669734
-0.02922735 0.022905432 -0.050524611 4278603688
-0.027674977 0.023766318 -0.051579595 4278668969
-0.02582198 0.023148783 -0.051269788 4278603435
-0.023963559 0.022531772 -0.050961141 4278406574
-0.021941472 0.021176599 -0.049973022 4278669224
-0.020069521 0.020560762 -0.049667172 4278472363
-0.018192131 0.019945381 -0.049362391 4278472618
-0.01630934 0.019330522 -0.049058761 4278407083
-0.014758933 0.020191928 -0.050112743 4278538153
0.030690456 -0.077038348 0.035794463 4278800549
0.03236315 -0.075416595 0.033999693 4278604453
0.034635872 -0.076001674 0.034219459 4282536809
0.03940621 -0.077905312 0.035325363 4282471019
-0.031758133 0.016072437 -0.046031937 4280373643
-0.030760851 0.019904129 -0.049818199 4278669989
-0.029053133 0.020025995 -0.050192021 4279062943
-0.027195256 0.019406565 -0.049885068 4279193759
-0.025484648 0.019528832 -0.050259374 4279193503
-0.02377392 0.019651212 -0.05063362 4279062689
-0.022063103 0.019773711 -0.051007807 4278735013
-0.020030741 0.018414972 -0.050025128 4278800549
-0.018314395 0.018538067 -0.050400376 4278735013
-0.01659796 0.01866127 -0.050775558 4278473128
-0.015050154 0.019524695 -0.051827364 4278407593
-0.01333623 0.019647921 -0.052201845 4278800549
-0.011970311 0.021250643 -0.053927209 4278866084
-0.010261577 0.021373712 -0.05430039 4278801059
-0.0083734207 0.020757578 -0.0539992 4278604198
-0.0057517178 0.017185455 -0.051004142 4278735268
-0.0014409684 0.0069650225 -0.041956406 4278669734
0.006691888 -0.018024649 -0.019473361 4278735268
0.017856609 -0.054079156 0.013050072 4278669733
0.025814002 -0.076824397 0.033431202 4278669733
0.028271032 -0.078150973 0.034322251 4278735268
0.03014465 -0.077262789 0.033200346 4278669733
0.031812251 -0.075637102 0.031410038 4278998429
-0.031170342 0.010940365 -0.043668751 4280111248
-0.030014399 0.014039928 -0.046769574 4278538664
-0.028438035 0.014906682 -0.047826573 4278538408
-0.026717011 0.015029583 -0.048203245 4278277034
-0.024843324 0.014409197 -0.047901332 4278408104
-0.023119409 0.014532505 -0.048278481 4278342314
-0.021395396 0.014655923 -0.048655573 4278473384
-0.019671272 0.014779465 -0.049032602 4278669989
-0.018110242 0.015645746 -0.050085768 4278604454
-0.016554456 0.016511763 -0.051137708 4278604709
-0.014835406 0.01663523 -0.051513411 4278997919
-0.012945097 0.01601677 -0.051214576 4279653268
-0.011397075 0.016882548 -0.052264575 4279849874
-0.0098543242 0.017748037 -0.053313352 4279653268
-0.0081376657 0.017871773 -0.053688191 4279063963
-0.0058754198 0.015771734 -0.052046604 4279326358
-0.0010139421 0.0032973439 -0.041006755 4279326358
0.0074946135 -0.023247872 -0.017238293 4279195288
0.018283442 -0.057927076 0.013862558 4279063963
0.025280181 -0.077036813 0.030843036 4279063963
0.027926512 -0.079108506 0.032401264 4279326358
0.029995337 -0.078958467 0.031950224 4279522708
0.031863675 -0.078068376 0.03083122 4279587988
-0.030726094 0.0065330528 -0.042000733 4280373898
-0.029414516 0.0088959262 -0.044418771 4278866084
-0.027677756 0.0090198331 -0.04479897 4278604198
-0.025940862 0.0091438517 -0.045179125 4278407849
-0.024203856 0.0092679821 -0.04555922 4278342314
-0.02246676 0.0093922168 -0.04593927 4278538918
-0.020887207 0.010261782 -0.046994999 4278473639
-0.019312885 0.011131082 -0.048049506 4278277034
-0.0052724667 0.011384316 -0.050406806 4278473638
-0.0005880259 -0.00038316473 -0.040066555 4278539173
0.027777389 -0.080803841 0.031151349 4278539173
0.029648406 -0.0799115 0.030033322 4278932128
0.031514108 -0.079019427 0.02891654 4280636039
-0.030566286 0.0036056563 -0.041700713 4280112268
-0.029248942 0.0059753992 -0.044115022 4278997918
-0.027213339 0.0046033487 -0.043143444 4278801059
-0.025465917 0.0047281161 -0.043525908 4278735524
-0.023718398 0.0048529729 -0.04390832 4278539173
-0.022125568 0.0057255365 -0.044965401 4278735779
-0.020380493 0.005850438 -0.045347117 4278735524
-0.018955607 0.0074698552 -0.047075883 4278408103
-0.017215665 0.0075946078 -0.047456309 4278735524
-0.015475634 0.0077194646 -0.04783668 4278669733
-0.013735522 0.0078444481 -0.04821698 4278801059
-0.012166146 0.0087160096 -0.049268484 4278604453
-0.010428555 0.0088410266 -0.049648065 4278539173
-0.0088670328 0.0097122043 -0.050697647 4278408103
-0.0069531798 0.0090913996 -0.050407033 4278408103
-0.0046710111 0.0069797114 -0.048779674 4278670498
0.00020501763 -0.0055674501 -0.037799202 4278670498
0.018565368 -0.063425973 0.013457756 4278408103
0.024407052 -0.078179315 0.026353283 4278604453
0.027043924 -0.080264747 0.027903708 4278604963
0.028906964 -0.079370782 0.026789015 4279063198
0.030964825 -0.079221413 0.026340464 4281750133
-0.030407194 0.00066973642 -0.041406915 4280112524
-0.029084105 0.0030464381 -0.043817572 4278997918
-0.027043644 0.0016703457 -0.042850323 4278932129
-0.025291044 0.0017954521 -0.043233939 4278866594
-0.023538325 0.0019206777 -0.043617502 4278604708
-0.021940123 0.0027958229 -0.044674158 4278866593
-0.020189848 0.0029210821 -0.045057021 4278866594
-0.018759381 0.004545223 -0.046783708 4278932128
-0.017176863 0.00541953 -0.047836646 4278538918
-0.015103739 0.0040465742 -0.046876002 4278473384
-0.013523709 0.0049209148 -0.047928229 4278801059
-0.011948943 0.0057949871 -0.048979223 4278866593
-0.010552719 0.0074172467 -0.050698064 4278866594
-0.0086392462 0.0067940876 -0.050409064 4278670243
-0.0067203939 0.0061714537 -0.050121207 4278866849
-0.0044336095 0.0040536374 -0.048499856 4278735779
7.6495111e-05 -0.00703495 -0.038881287 4278801314
0.0083986633 -0.033067066 -0.015957512 4278735779
0.018232334 -0.064316526 0.011584532 4278866849
0.023875425 -0.078366697 0.023783507 4278735779
0.026117032 -0.078965291 0.024001544 4278801314
0.027969448 -0.078069925 0.022890834 4278931873
0.030216424 -0.078667894 0.023107884 4282340204
-0.030389946 -0.0015216693 -0.041793801 4279718549
-0.029063735 0.00086173415 -0.044200204 4278997664
-0.027021144 -0.00051856786 -0.04323674 4279259804
-0.025415111 0.0003590323 -0.04429359 4278735779
-0.023510735 -0.00026789308 -0.044005044 4278801314
-0.021909822 0.00060955435 -0.045060616 4278866594
-0.020314116 0.0014867857 -0.046114996 4278473638
-0.018723648 0.0023637116 -0.047168106 4278538918
-0.01697598 0.0024889931 -0.047550242 4278735524
-0.015063126 0.0018632188 -0.047263138 4278866594
-0.013144854 0.0012378804 -0.046977103 4278932128
-0.01173247 0.002865538 -0.04869625 4278473384
-0.010330666 0.0044924989 -0.050412964 4278539429
-0.008587949 0.0046179816 -0.050793596 4278604708
-0.0066667534 0.0039933585 -0.050507896 4278801059
-0.0043780096 0.0018691048 -0.048891902 4278735524
0.00031548738 -0.010001849 -0.038632985 4278669479
0.008449737 -0.035360362 -0.016431196 4278735524
0.017710648 -0.064453006 0.0090508722 4278801059
0.022769375 -0.076297194 0.019230383 4278735524
0.025191713 -0.077648044 0.020112498 4278800804
0.02703351 -0.076751336 0.019005785 4278538154
0.029469194 -0.07810089 0.019885173 4282798439
-0.030091148 -0.0052274093 -0.040838078 4281749113
-0.02861293 -0.0035917871 -0.042569157 4278998429
-0.026998971 -0.0027115792 -0.043626182 4278932384
-0.025241297 -0.0025861263 -0.044010922 4278735524
-0.023635093 -0.00170625 -0.045066088 4278866849
-0.021879848 -0.0015807599 -0.045450136 4278538918
-0.020281438 -0.00070122629 -0.046503428 4278735014
-0.018528659 -0.00057568774 -0.046886764 4278866849
-0.016938049 0.00030356646 -0.04793822 4278932384
-0.014693055 -0.0018310174 -0.04631814 4278735779
-0.013102259 -0.00095158443 -0.047369428 4278604708
-0.011346493 -0.00082537904 -0.047753077 4278801314
-0.010109354 0.0015593246 -0.050134156 4278735779
-0.0085370019 0.0024377778 -0.051181152 4278473894
-0.006791696 0.0025635436 -0.051562276 4278538918
-0.0045036636 0.00043273717 -0.049951077 4278866594
0.00037019327 -0.012225181 -0.039054409 4278997409
0.0088729076 -0.039161433 -0.015582046 4278866594
0.017756417 -0.066835329 0.0085108541 4278538918
0.022431482 -0.07721138 0.017340573 4278866594
0.024656383 -0.077815533 0.017558882 4278997664
0.026689759 -0.077668056 0.01711558 4279128734
-0.030074935 -0.0074313618 -0.041234229 4282274668
-0.028593805 -0.0057912767 -0.042962629 4279392403
-0.026684981 -0.0064224713 -0.042678542 4279130009
-0.025216933 -0.0047830604 -0.044403955 4279129499
-0.023456614 -0.0046573207 -0.044789199 4278932893
-0.021850247 -0.0037751645 -0.04584267 4278801314
-0.020249095 -0.0028932691 -0.046894915 4278735779
-0.018653188 -0.0020116344 -0.047945924 4278736289
-0.016900469 -0.0018860064 -0.048329178 4278998174
-0.014818225 -0.0032713562 -0.04738047 4278735269
-0.013060007 -0.0031451136 -0.047764763 4278539173
-0.011301707 -0.0030187517 -0.048148975 4278801569
-0.0097160488 -0.0021372996 -0.049197324 4278670243
-0.008135654 -0.0012561046 -0.050244432 4278866339
-0.0063824952 -0.00112978 -0.050627276 4278997919
-0.0042678863 -0.0025121272 -0.049685121 4278867359
0.00079128146 -0.015961047 -0.038155038 4278867359
0.017801832 -0.06922169 0.0079678651 4278867359
0.021902641 -0.077367261 0.014794083 4278801824
0.023927839 -0.077220544 0.014352446 4278932894
0.026149752 -0.077826917 0.014569873 4279980943
-0.01461431 -0.0062269419 -0.047113892 4281882478
-0.013018098 -0.0053427555 -0.048163116 4280766853
-0.011087414 -0.0059735924 -0.047884669 4280505989
-0.0094963871 -0.0050895587 -0.04893259 4279786123
-0.007910613 -0.0042058155 -0.049979232 4279654798
-0.0063301064 -0.003322348 -0.051024638 4279195288
-0.0042133518 -0.0047088861 -0.05008626 4279130009
0.00084489584 -0.018196899 -0.038585681 4279130009
0.0091583766 -0.044533323 -0.015891133 4279064474
0.017469887 -0.070100129 0.0061036483 4279064474
0.021565773 -0.078269884 0.012912804 4279130009
0.02358814 -0.078123376 0.012471771 4279392658
0.025610536 -0.077976719 0.012030849 4281030524
-0.028145369 -0.010272585 -0.04135216 4284901678
-0.028127465 -0.012486786 -0.041756496 4285032748
-0.02620599 -0.013121448 -0.041478511 4285295653
-0.025020842 -0.0099502765 -0.044532802 4285361444
-0.023403827 -0.0090631582 -0.045585398 4285295653
-0.021792028 -0.0081762895 -0.046636771 4285098284
-0.019872759 -0.0088106468 -0.046357952 4285163819
-0.018107083 -0.0086842328 -0.046744149 4285163819
-0.016502988 -0.0077975914 -0.047793586 4284901168
-0.027967084 -0.015468664 -0.041498113 4285295399
-0.026186105 -0.015341707 -0.041888081 4285493023
-0.024701338 -0.013688177 -0.043607228 4285492513
-0.023076285 -0.012798265 -0.04465998 4285426723
-0.021302965 -0.01267153 -0.045048013 4285426468
-0.019529525 -0.012544654 -0.04543598 4285360933
-0.017755996 -0.012417682 -0.045823894 4285360933
-0.016143862 -0.011528298 -0.046873439 4285295654
-0.014208678 -0.012163363 -0.046599507 4285295399
-0.012434889 -0.012036033 -0.046987221 4285295654
-0.010661028 -0.011908561 -0.047374845 4285360933
-0.0090592355 -0.011019461 -0.048421782 4285426979
-0.0074627027 -0.010130625 -0.049467482 4285426978
-0.0055165216 -0.010764323 -0.049195517 4285426979
-0.0033848174 -0.012158513 -0.04826697 4285360933
0.0013166703 -0.024202388 -0.03814188 4285360933
0.0088852979 -0.047648516 -0.018188111 4285360933
0.016619131 -0.071082562 0.0017297105 4285360933
0.02070247 -0.079300895 0.0085052457 4285295143
0.022523081 -0.078395009 0.0074113063 4285032748
-0.027807411 -0.018458981 -0.041245956 4285426468
-0.026021238 -0.018331688 -0.041637078 4285492768
-0.024234954 -0.018204238 -0.042028118 4285492513
-0.022448551 -0.018076692 -0.042419113 4285492514
-0.020815346 -0.017183971 -0.043471884 4285492259
-0.018875446 -0.017821219 -0.043200899 4285492258
-0.017405998 -0.016164005 -0.044913061 4285426468
-0.015785817 -0.015271887 -0.045962721 4285426723
-0.014170889 -0.014380038 -0.047011159 4285360934
-0.012227964 -0.0150166 -0.046740483 4285361188
-0.010448921 -0.014888763 -0.047129247 4285361188
-0.0084978603 -0.015524499 -0.046860166 4285361188
-0.0067160204 -0.015396245 -0.047249377 4285426978
-0.0049341246 -0.015267871 -0.047638506 4285426979
-0.0027922988 -0.016665597 -0.046715502 4285427233
0.0019166507 -0.028743673 -0.036618408 4285361443
0.0091193281 -0.050731119 -0.018026536 4285361443
0.016288608 -0.071944758 -0.00012259325 4285361443
0.020176427 -0.079424918 0.0059821694 4285360933
0.021991733 -0.078517243 0.0048910468 4285163563
-0.027933385 -0.019921813 -0.042325191 4285426469
-0.025857087 -0.021330137 -0.041392274 4285492259
-0.024213407 -0.020434748 -0.042445868 4285492259
-0.022123571 -0.021841835 -0.041515782 4285492259
-0.020482335 -0.020946395 -0.042568665 4285492514
-0.018846314 -0.020051207 -0.043620318 4285426468
-0.017215554 -0.019156251 -0.044670783 4285492259
-0.015590001 -0.018261585 -0.045719977 4285426723
-0.013969693 -0.017367162 -0.046767928 4285492259
-0.012021769 -0.018005539 -0.046499997 4285426723
-0.010068454 -0.01864342 -0.046233159 4285426724
-0.0081097297 -0.019280855 -0.045967381 4285426723
-0.0064944737 -0.018386293 -0.04701392 4285426468
-0.0048844665 -0.01749203 -0.048059173 4285426469
-0.0023810081 -0.020424608 -0.045831077 4285426469
0.0019679032 -0.031006742 -0.037069131 4285360933
0.015958514 -0.07280229 -0.0019713952 4285360933
0.019651191 -0.079539925 0.0034658215 4285360678
0.021654261 -0.079394802 0.0030290014 4285229354
-0.027917039 -0.022154566 -0.042743225 4285295909
-0.02583861 -0.023567047 -0.041814134 4285361443
-0.024044614 -0.023439068 -0.042206869 4285492003
-0.022100236 -0.024080563 -0.041940346 4285492004
-0.020456288 -0.023182768 -0.042992182 4285492259
-0.018661972 -0.023054425 -0.043384738 4285492258
-0.01702581 -0.022156972 -0.044434704 4285426724
-0.015233982 -0.022028614 -0.044826552 4285492259
-0.013605636 -0.021131452 -0.045874607 4285426724
-0.0118163 -0.021003004 -0.046265721 4285426724
-0.0098579936 -0.021642696 -0.046001632 4285492259
-0.0077227168 -0.023049947 -0.045084089 4285426723
-0.0062736459 -0.021384824 -0.046784658 4285426468
-0.0046582781 -0.020488035 -0.047829449 4285360934
-0.0025095157 -0.021893937 -0.046914563 4285426468
0.001836583 -0.032506596 -0.038175091 4285426469
0.015066184 -0.071354389 -0.0057699992 4285426469
0.01893653 -0.078879163 0.00030558743 4285295398
0.021124329 -0.079501197 0.00052049197 4285229099
-0.027190585 -0.028253082 -0.039867528 4285099048
-0.025386188 -0.028124493 -0.040262651 4285230373
-0.023581687 -0.027995791 -0.040657707 4285492769
-0.021927152 -0.027095195 -0.041710299 4285427234
-0.020277832 -0.026194844 -0.042761657 4285427234
-0.018633742 -0.025294732 -0.043811847 4285426978
-0.016678747 -0.025937337 -0.04354899 4285426469
-0.015200522 -0.024266344 -0.045253132 4285426468
-0.013242703 -0.024908487 -0.044990778 4285426468
-0.011445519 -0.02477948 -0.045383614 4285426468
-0.0094795451 -0.025420848 -0.04512281 4285361188
-0.007850945 -0.024521116 -0.046169057 4285360933
-0.0062276013 -0.023621704 -0.047214027 4285360934
-0.0046095178 -0.022722539 -0.048257757 4285426469
-0.0024586245 -0.024132643 -0.047346644 4285360933
0.0015232675 -0.033236671 -0.03993145 4285360934
0.014550135 -0.071426973 -0.0082565602 4285360934
0.018603094 -0.079742819 -0.0015469659 4285294634
-0.018879678 -0.035405453 -0.037294023 4284901169
-0.017364156 -0.033727694 -0.039003219 4285033004
-0.015701275 -0.032823998 -0.040055729 4285033004
-0.014043648 -0.031920563 -0.04110701 4285099048
-0.012064863 -0.032563362 -0.040850881 4285294889
-0.010246523 -0.03243285 -0.041248336 4285294633
-0.0087651648 -0.030757006 -0.042949576 4285229354
-0.0071232058 -0.029854152 -0.04399709 4285295144
-0.0054865107 -0.028951634 -0.045043349 4285360679
-0.0035020486 -0.029593404 -0.044787988 4285426469
-0.0015122034 -0.030234721 -0.04453367 4285295399
0.0023013838 -0.038592089 -0.037790287 4285164329
0.014222033 -0.07226181 -0.010088624 4285164329
0.018080238 -0.079830781 -0.0040433723 4285228844
-0.0080564991 -0.044770729 -0.033233177 4284900914
-0.0063693039 -0.043862637 -0.034288995 4284901168
-0.0048583634 -0.042180169 -0.035993341 4284901423
-0.0031843483 -0.041272778 -0.03704609 4284967469
-0.0015155934 -0.04036564 -0.038097586 4284967214
0.00068483502 -0.041780833 -0.037203889 4285294634
0.0039858483 -0.047838185 -0.032427907 4285228843
0.014081314 -0.073865443 -0.011271024 4285163053
