# .PCD v0.7 - Point Cloud Data file format
VERSION 0.7
FIELDS x y z rgba
SIZE 4 4 4 4
TYPE F F F U
COUNT 1 1 1 1
WIDTH 978
HEIGHT 1
VIEWPOINT 0 0 0 1 0 0 0
POINTS 978
DATA ascii
0.012500063 0.023553103 0.030702695 4283795488
0.015336473 0.020354763 0.033936996 4283860258
0.017829247 0.018491492 0.035710331 4283990819
0.019962318 0.017962217 0.036026064 4284121889
0.021719631 0.018765751 0.034887623 4284121634
0.023085117 0.020901024 0.032298375 4283990818
0.024630509 0.022369374 0.03043801 4284056864
0.026562423 0.022505816 0.030029651 4283991074
0.028494347 0.022642322 0.02962134 4283925283
0.030222312 0.023444181 0.028489333 4283860003
0.032151558 0.023580641 0.028081696 4283926049
0.035336643 0.019727925 0.032009687 4283925539
0.040249679 0.010560133 0.041707121 4283990819
0.04716954 -0.0045826882 0.057881936 4283990564
0.05464711 -0.021045297 0.075472601 4283990563
0.0030808412 0.019959949 0.033028215 4283920183
0.0043334104 0.02277494 0.029702164 4284056099
0.0055646934 0.025588471 0.026380729 4283797019
0.0072976537 0.026392091 0.025248736 4283730718
0.0090253577 0.027195368 0.024117954 4283796253
0.011646211 0.024652645 0.026624274 4283861533
0.014470901 0.02144256 0.029852707 4283927833
0.017322395 0.018234435 0.03307553 4283990563
0.019449838 0.017702576 0.033390779 4283990818
0.021201905 0.018507916 0.032255109 4283990818
0.022176396 0.021985745 0.028223183 4283990819
0.023711376 0.023457732 0.026368365 4283929363
0.026029326 0.022257775 0.027408708 4283731228
0.028358005 0.021058617 0.028446894 4283730719
0.03049361 0.020527758 0.028760742 4283925283
0.03263456 0.019997349 0.029073514 4284056353
0.036662921 0.013463829 0.035873897 4284056609
0.042227335 0.002266027 0.04770584 4284056609
0.049812909 -0.014925368 0.065997101 4284121634
0.056451861 -0.02877441 0.080662735 4284055843
0.0019490942 0.02241249 0.027485084 4284186404
0.0036926866 0.023218829 0.026352428 4283990563
0.0054310262 0.024024876 0.025220942 4283860003
0.006989941 0.025502371 0.023363903 4283862044
0.008891888 0.025636112 0.022961434 4283862043
0.011332408 0.023755919 0.024735697 4283928344
0.013789043 0.021876972 0.026506562 4283925794
0.016076937 0.020670142 0.02754971 4283990563
0.018188052 0.020134943 0.027866736 4283990819
0.019733962 0.021611903 0.026012816 4283991839
0.021269199 0.023088222 0.024161164 4283926559
0.022793766 0.024563823 0.02231187 4283795488
0.025497016 0.022018678 0.024794471 4283860004
0.028422572 0.018805303 0.027993623 4283733014
0.03137489 0.01559389 0.031187177 4283860259
0.033941448 0.013723362 0.032935306 4284056609
0.038613345 0.0051614456 0.041873515 4284056353
0.045259237 -0.0094170719 0.057266049 4284121889
0.052237093 -0.024656042 0.073351972 4284121634
-0.0004234463 0.02205991 0.025272425 4283988269
0.00081964955 0.024891563 0.021961626 4283859748
0.0027159043 0.025024679 0.021560188 4283861789
0.0047835372 0.024483785 0.0218844 4283860003
0.0068566017 0.023943344 0.022207521 4283925283
0.0087584592 0.024077073 0.021805067 4284056099
0.011019018 0.022863798 0.022850536 4284056099
0.013290331 0.021651395 0.023893744 4284056354
0.015572403 0.020439822 0.024934728 4284056354
0.017115887 0.02192089 0.023084592 4283990818
0.018838715 0.022728516 0.021958429 4283927068
0.020170849 0.024881026 0.019391211 4283927579
0.022268411 0.024342904 0.019709598 4283793193
0.024767429 0.0224608 0.021466885 4283858219
0.028085362 0.017891828 0.026098456 4283859238
0.031440742 0.013325624 0.030722134 4283925794
0.035451774 0.0067472123 0.037492797 4283990819
0.040977493 -0.0045274943 0.049276225 4284055843
0.048074052 -0.020494483 0.066060498 4284055588
0.053800367 -0.031754829 0.077801667 4284121124
-0.0021426044 0.01900911 0.025969226 4283920948
-0.0013721436 0.023881096 0.020484377 4283862808
0.00018974394 0.025367215 0.01863322 4283795488
0.0022463091 0.024823276 0.018958045 4283665439
0.0046505146 0.022927195 0.020729799 4283865359
0.0068970732 0.021708462 0.021774735 4283925538
0.0089779645 0.021166414 0.022094626 4284056353
0.011064276 0.02062485 0.022413373 4284056353
0.012974206 0.020759275 0.022009306 4284056609
0.01469972 0.021569114 0.020884123 4284056354
0.016232774 0.023053838 0.019039473 4284056099
0.018134821 0.023187933 0.018637246 4283925283
0.019459404 0.025346445 0.016076623 4283929364
0.021353487 0.025480131 0.015676195 4283928598
0.023841143 0.023590682 0.017430875 4283928343
0.027347486 0.018331394 0.02277112 4283993623
0.031506233 0.011053193 0.030254003 4283926813
0.036959093 -0.00026379153 0.042024445 4284056864
0.043545652 -0.014942467 0.057356149 4284055844
0.049827449 -0.028265797 0.071231999 4284055333
0.054077204 -0.034848861 0.077935763 4284054313
-0.00323743 0.021517232 0.020458788 4283989288
-0.002318915 0.025724387 0.015712794 4283859239
-0.00077011809 0.027213911 0.013867715 4283726893
0.0014410317 0.02598816 0.014916683 4283795744
0.0041757002 0.022727804 0.018130578 4283794213
0.0067636222 0.020147681 0.020617042 4283925794
0.0088442378 0.019603413 0.020935308 4283990818
0.010930266 0.019059647 0.021252446 4284056354
0.012295261 0.021227231 0.018688031 4283990564
0.014012847 0.022038681 0.017566184 4283990309
0.015538156 0.023527205 0.015726494 4283859749
0.017621733 0.022983536 0.016044432 4283859239
0.019133739 0.02447127 0.014207669 4283925794
0.02122004 0.02392799 0.014525106 4283991584
0.023509376 0.022708537 0.015558217 4283991073
0.027412109 0.016078729 0.02231833 4284056353
0.032586426 0.0053954944 0.033360779 4284056609
0.039080448 -0.0093376935 0.048675295 4284056354
0.045692179 -0.024062514 0.063965045 4284121123
0.05052226 -0.032698132 0.072804943 4284121124
0.053925876 -0.036600523 0.076636896 4283656769
-0.0054228157 0.020512259 0.018984037 4283857963
-0.0040099174 0.022689071 0.016414041 4283797783
-0.00293836 0.026227323 0.012402548 4283599904
-0.0012319311 0.027039612 0.011284299 4283596333
0.00080534443 0.026489919 0.011609843 4283728934
0.0037016906 0.022537356 0.015538055 4283861279
0.00611002 0.020628534 0.01729898 4283926304
0.008534465 0.018720966 0.019056505 4283990563
0.010260042 0.019534988 0.017934503 4283990563
0.011617482 0.021708563 0.015376672 4283991074
0.01295894 0.023881057 0.012822332 4283994133
0.014844704 0.024013905 0.012423472 4283863573
0.017109405 0.022788165 0.013458235 4283732758
0.01938485 0.021563217 0.014490834 4283795233
0.021476217 0.021018108 0.014805527 4283924773
0.023967903 0.019115863 0.01654936 4284056099
0.028076824 0.011786114 0.024006061 4284056609
0.034272831 -0.0023234636 0.038590081 4284056609
0.041403171 -0.019137837 0.056003988 4284121634
0.047210045 -0.031196512 0.068399876 4284056098
0.050793864 -0.035792038 0.072940513 4284121124
-0.0083745755 0.022932282 0.013899015 4283460674
-0.0066550262 0.023747409 0.012779454 4283792939
-0.0047808588 0.02387866 0.012382453 4283728169
-0.0032316074 0.02537681 0.010543844 4283404318
-0.0015277751 0.02619111 0.0094277505 4283599903
0.00067442283 0.024955938 0.010471968 4283730208
0.0030579269 0.023038784 0.01223303 4283860768
0.00563078 0.020440146 0.01470934 4283925029
0.0076974481 0.019890549 0.01502716 4284056864
0.0094124191 0.020705987 0.013909051 4284057119
0.010578394 0.02356747 0.010641523 4283991074
0.012090847 0.025063658 0.0088111814 4283798038
0.013965819 0.025195744 0.0084146019 4283796509
0.01678713 0.021920219 0.011593912 4283731994
0.019635223 0.01864665 0.01476761 4283799314
0.022120878 0.016737364 0.016507659 4283990563
0.025214441 0.0127864 0.020384755 4284056609
0.030139748 0.0027107187 0.030671276 4284056354
0.037171658 -0.014165208 0.048064329 4284055843
0.043310747 -0.027629502 0.061870284 4284055843
0.047892965 -0.035644434 0.069964059 4284120869
0.051064745 -0.038894534 0.073069803 4283657534
-0.0033621117 0.023845302 0.0094077475 4282871113
-0.0014931709 0.023976315 0.0090119522 4283398198
0.00037585944 0.024107406 0.0086161885 4283728424
0.0024153367 0.023553554 0.0089379717 4283925029
0.0048062876 0.021630453 0.010692511 4284056609
0.006861981 0.021077851 0.011011023 4284056609
0.0083879568 0.022579217 0.0091809742 4283926049
0.0099033155 0.024079891 0.0073532891 4283729954
0.011408012 0.025579929 0.0055278707 4283661868
0.013647664 0.024343571 0.0065612439 4283660848
0.016087111 0.022424368 0.0083058979 4283727914
0.019309632 0.017772157 0.012899159 4283793959
0.022375204 0.013806064 0.016772123 4283860259
0.026458375 0.0064264573 0.024197623 4283990564
0.032198556 -0.0064126886 0.037300956 4284055843
0.039052606 -0.022658512 0.053936437 4284055843
0.043983847 -0.032069176 0.063443378 4284055333
0.047950998 -0.038062409 0.069386646 4283922224
0.050913922 -0.040641055 0.071774736 4283590468
0.00024521351 0.022576084 0.007480273 4283465774
0.0021142364 0.022707244 0.0070845671 4283596843
0.0043290108 0.021464394 0.0081194993 4283990054
0.0060280412 0.02228296 0.0070080142 4283990564
0.0077217892 0.023101229 0.0058977045 4283859239
0.0092293881 0.02460574 0.0040749367 4283603219
0.010909878 0.025423246 0.0029675597 4283469600
0.012957487 0.024868248 0.0032863077 4283468323
0.015577137 0.02225594 0.0057397503 4283664673
0.018984448 0.016902279 0.011034127 4283796508
0.023017272 0.0094951205 0.018451855 4283925793
0.028290404 -0.0020199679 0.030118551 4283924518
0.034652393 -0.016954385 0.045314357 4283924264
0.040323034 -0.02914042 0.057648957 4284055078
0.043835729 -0.033786938 0.062169574 4284054313
0.047385845 -0.038430691 0.066682294 4283657023
0.0067007691 0.025014414 0.0011991784 4282541908
0.0087372959 0.024456253 0.0015185243 4282739789
0.010595873 0.024587067 0.0011253264 4283334703
0.012826532 0.023341397 0.0021538883 4283402788
0.015445329 0.020720307 0.0046008453 4283730719
0.019233771 0.013973285 0.011301683 4283925793
0.024045939 0.0037914403 0.021537073 4283990818
0.030512117 -0.011885043 0.037424337 4283990563
0.036104366 -0.02411595 0.049745515 4284055589
0.040984638 -0.033591285 0.059216551 4283922223
0.043687627 -0.03550446 0.060895957 4283656769
0.010282259 0.023755563 -0.00071351603 4282545224
0.012695611 0.021814788 0.001021645 4283333683
0.015879072 0.017113995 0.0055881329 4283662379
0.02043828 0.0075851567 0.015103467 4283924774
0.026235519 -0.006077867 0.028848227 4283858983
0.032532819 -0.02111274 0.043984409 4283990054
0.037354156 -0.030622795 0.053444535 4283990054
0.041240998 -0.036680683 0.059359699 4283989543
0.043539539 -0.037221693 0.059622549 4283590214
0.038203299 -0.035776548 0.055711418 4282870349
0.041698299 -0.040470071 0.060200706 4283262793
0.012575261 -0.058697022 0.0063996706 4283000909
0.014259674 -0.059436746 0.0041008685 4282084694
-0.023438506 -0.004495196 -0.048093129 4284638774
0.0047110319 -0.059569083 -0.0024710502 4283852353
0.0068546608 -0.060189806 -0.0022280309 4283065933
0.0068836138 -0.062566705 -0.0027663177 4282739279
0.0092041604 -0.063950084 -0.0018668091 4282411348
-0.0015274137 -0.057844579 -0.013647551 4283395904
0.00041940808 -0.057708569 -0.01406019 4282411603
0.0026928782 -0.059108518 -0.013160845 4282279513
-0.008451391 -0.045056365 -0.026475679 4283852354
-0.005314786 -0.051090278 -0.021629471 4282611524
-0.0026087165 -0.054809324 -0.018758623 4282608464
-0.0087345131 -0.045829765 -0.028278122 4283331134
-0.0059120357 -0.050335385 -0.024753083 4282415429
-0.0033726208 -0.053293161 -0.022542434 4282608463
-0.011803724 -0.042077273 -0.033599839 4283069504
-0.0091693103 -0.045823224 -0.030730536 4281893188
-0.0063534081 -0.050342321 -0.027213983 4281891403
-0.0041350201 -0.051759295 -0.026313117 4282476374
-0.01103764 -0.04827182 -0.030820098 4284115513
-0.0086920597 -0.050472558 -0.02926575 4282545989
-0.0061758459 -0.05344937 -0.027063495 4281824083
-0.0039526336 -0.054870397 -0.026166925 4282082909
-0.010685101 0.022635777 0.011712762 4280243084
-0.0095854998 0.026197486 0.007711757 4280110739
-0.0077275932 0.026327493 0.0073181186 4280241553
-0.0053906068 0.02440021 0.0090837833 4281491308
-0.012686267 0.020971712 0.010971736 4280111503
-0.01063966 0.028805278 0.002266638 4278338998
-0.0036547184 0.023001866 0.0075542107 4280571524
-0.013957448 0.015852485 0.013827659 4282340713
-0.013559312 0.022893285 0.0062404331 4278865319
-0.012609445 0.027167516 0.0015373956 4278864299
-0.011075765 0.028677324 -0.00028816983 4279324318
-0.0090828389 0.028115407 3.9799139e-05 4278668968
-0.0067658685 0.026173575 0.0017997315 4278275248
-0.0044327639 0.024232991 0.003556259 4278668968
-0.0022481307 0.022983374 0.0045940951 4278866849
-0.00022001192 0.022424245 0.0049148593 4278802588
0.001473587 0.023244424 0.0038060443 4279982728
0.0031619295 0.024064312 0.0026984075 4281557354
-0.015837096 0.022628414 0.0040695947 4278668968
-0.011664838 0.029251155 -0.0035523623 4278995369
-0.0095237754 0.02799386 -0.0025088303 4278930088
-0.0027069263 0.022843132 0.0020358358 4278538408
-0.00051732361 0.021589568 0.0030693384 4278473383
0.0010038912 0.023103381 0.0012500659 4278735268
0.0021695867 0.025999337 -0.001990959 4278407594
0.0078850165 0.025697533 -0.0024519656 4280181628
-0.017674416 0.020286396 0.0040532053 4279389854
-0.016693406 0.02458865 -0.00063659437 4278603434
-0.015151434 0.026107548 -0.0024574138 4278668713
-0.0053378865 0.023970995 -0.0015492775 4278865318
-0.003329169 0.023406032 -0.0012278333 4278799783
-0.0014819317 0.023535516 -0.0016190382 4278734248
2.6185066e-05 0.025052743 -0.0034322226 4278275248
0.0024857409 0.030165449 -0.0091812043 4278536113
0.010517985 0.02085002 -0.00042435247 4278997918
0.013307299 0.017517678 0.0027200133 4279064729
0.016688358 0.012109816 0.0079799294 4279982729
0.022022165 -0.00021798536 0.020295627 4280244613
0.028420601 -0.015999474 0.03612059 4281361004
0.03415671 -0.02900447 0.049098231 4281557354
-0.019937083 0.020034181 0.0018881084 4281159809
-0.019229911 0.025745943 -0.0042243581 4278865319
-0.017693162 0.027268711 -0.0060408292 4278800039
-0.015722856 0.026698355 -0.0057133096 4278603434
-0.013747081 0.02612846 -0.0053868876 4278537898
-0.012072578 0.026953269 -0.0064870925 4278276013
-0.0099351443 0.025686979 -0.005449478 4278472873
-0.007786911 0.024421558 -0.0044141384 4278800294
-0.0054664798 0.02246039 -0.0026699072 4278734759
-0.0037861951 0.023285979 -0.0037711253 4278734504
-0.0022778921 0.024807423 -0.0055810614 4278668458
0.00053480268 0.028544182 -0.0099028414 4278668204
0.0020085871 0.030063506 -0.011705314 4279128223
0.0045363754 0.027409524 -0.0092593506 4278930599
0.0072657131 0.0240619 -0.0061107515 4278865573
0.010570202 0.018631049 -0.000848094 4278472874
0.013732061 0.013898168 0.0036995998 4278539173
0.018248312 0.0043052472 0.013177348 4278604708
0.023984304 -0.0094492398 0.026868444 4278736798
0.030020759 -0.023890443 0.041241296 4278867869
0.034992613 -0.034158871 0.051368125 4279392913
0.038851738 -0.04025799 0.057259113 4281623398
-0.021043986 0.023421384 -0.004233493 4279192483
-0.014024585 0.025330851 -0.0072093252 4278668458
-0.012046307 0.024759017 -0.0068850527 4278537898
-0.010062542 0.024187617 -0.0065618274 4278734504
-0.007914789 0.022917794 -0.0055297259 4278668968
-0.006078653 0.023046298 -0.0059187347 4278668968
-0.0045701824 0.024571996 -0.0077254637 4278668969
-0.003072314 0.026097085 -0.0095299184 4278865319
0.014896799 0.0074775517 0.0074870288 4278537644
0.020180807 -0.0049321875 0.019753303 4278603943
0.026132949 -0.019425139 0.03410897 4278800549
0.031230954 -0.03042753 0.044927627 4278932129
0.035434723 -0.037942268 0.052217752 4280702083
-0.023274288 0.023200421 -0.0063833641 4279127713
-0.020764105 0.029072419 -0.012851794 4278404278
-0.014452018 0.025239553 -0.0097384155 4278929834
-0.012173362 0.023262143 -0.0079955924 4278799273
-0.0098785423 0.021285912 -0.0062560774 4278668969
-0.0080426112 0.021414287 -0.0066451281 4278537898
-0.006689664 0.023645595 -0.0091576371 4278407083
-0.0055163428 0.026576612 -0.012373961 4278603433
-0.0038651973 0.027404519 -0.0134656 4278668969
-0.0020502731 0.027531773 -0.013849935 4278733993
0.0041032098 0.025114845 -0.012184885 4278340784
0.0068277866 0.021745108 -0.0090519264 4278602923
0.011220831 0.012082402 0.0004051663 4278799528
0.016244031 0.00032729283 0.011954706 4278603433
0.022109184 -0.014217526 0.026293729 4278669224
0.02732496 -0.025958873 0.037802693 4278800293
0.031666152 -0.034200288 0.045787293 4279718804
0.035484195 -0.040341564 0.051656969 4281554549
-0.025358602 0.022284331 -0.0078169107 4280505223
-0.022691987 0.027470065 -0.013565092 4278536879
-0.021173283 0.029004449 -0.015367895 4278996389
-0.019520313 0.029833943 -0.016458804 4278930343
-0.017135158 0.027142858 -0.014003352 4278601903
-0.014878668 0.025157284 -0.012260891 4278273973
-0.012453184 0.022469182 -0.0098138629 4278603178
-0.010472685 0.0218932 -0.0094933463 4278668713
-0.0088030584 0.022724286 -0.010587458 4278603433
-0.007621184 0.025664503 -0.013799019 4278472363
-0.0023458526 0.026748475 -0.015656637 4278472365
-1.9043684e-05 0.024768459 -0.013928505 4278734759
0.0019754693 0.02419408 -0.013610484 4278800549
0.0043291599 0.022216149 -0.011887892 4278669734
0.00741712 0.017432205 -0.0073596975 4278538154
0.01236479 0.0056347027 0.0041774772 4278603689
0.018142968 -0.008962024 0.018499905 4278603689
0.023470771 -0.02144701 0.030697033 4278669479
0.027753409 -0.029718779 0.038673978 4279849619
0.03190732 -0.037284985 0.045937993 4281488249
0.035533309 -0.042744935 0.051093094 4282210154
-0.027436778 0.021373423 -0.00924813 4279718804
-0.026422001 0.025742838 -0.013895628 4278603434
-0.015004583 0.023671864 -0.013362974 4278274229
-0.01273258 0.021680854 -0.011628702 4278799784
-0.011065677 0.022513814 -0.01272066 4278865319
-0.0095619634 0.024052041 -0.014516622 4278602924
-0.00014622509 0.023278452 -0.01503376 4278537134
0.0021960214 0.02129313 -0.013313855 4278603688
0.0049077459 0.017900623 -0.010194892 4278472874
0.0087224357 0.010286056 -0.0028777597 4278407083
0.014416318 -0.0043623894 0.011427509 4278407083
0.020222526 -0.019002855 0.025709134 4278472873
0.024642006 -0.028007828 0.034375645 4278538408
0.02818075 -0.033491477 0.039535701 4280963968
0.031955034 -0.039675117 0.045384608 4282012784
0.035777457 -0.045855239 0.051223412 4282472294
-0.028348751 0.024141485 -0.01460846 4278997663
-0.027081482 0.027104113 -0.017825551 4278603433
-0.025153279 0.026519436 -0.017497731 4278537898
-0.0232196 0.025935257 -0.017171061 4278930344
-0.02156394 0.026769139 -0.018259324 4278799018
-0.019769065 0.026894141 -0.018640064 4278864808
-0.017679825 0.025602384 -0.017609203 4278668203
-0.015429996 0.02360319 -0.015875302 4278799784
-0.013316467 0.022313312 -0.014849453 4278865319
-0.011967734 0.024563607 -0.01734625 4278733738
-0.0091575794 0.028353717 -0.021626649 4279060905
-0.0072013997 0.027771872 -0.02130409 4279322788
-0.0052397922 0.027190525 -0.02098266 4279323044
-0.00027335808 0.021788716 -0.016138822 4278733993
0.0024158731 0.018383652 -0.013023486 4278537898
0.005661387 0.012861446 -0.0078150909 4278407083
0.010562308 0.00098661333 0.0036753761 4278538154
0.016099684 -0.012999721 0.017241945 4278538408
0.021190491 -0.024861015 0.028692372 4278472873
0.024687484 -0.030365169 0.033847917 4278931618
0.028417148 -0.036571622 0.039691221 4280832644
0.03219495 -0.042774588 0.045524418 4281881203
0.036020897 -0.048974037 0.051347516 4282340204
-0.030531533 0.023964372 -0.016737346 4278866084
-0.029258445 0.026935991 -0.019949108 4278337978
-0.02747228 0.027060015 -0.02032828 4278993584
-0.025413491 0.025761403 -0.019294579 4278470578
-0.023343846 0.024463611 -0.018263057 4278668713
-0.021688119 0.025299646 -0.019349696 4278538154
-0.020037614 0.026135452 -0.020435203 4278800038
-0.018098444 0.02554968 -0.020111129 4278603689
-0.016004212 0.024253994 -0.019084595 4278472618
-0.013899177 0.022959102 -0.018060246 4278734504
-0.012558021 0.025215412 -0.020550512 4278734249
-0.0079782866 0.029140154 -0.025197502 4279060903
-0.0056964234 0.02713724 -0.023475025 4279258019
-0.0030618384 0.023717226 -0.020356536 4278471854
0.0028086342 0.014756981 -0.01204096 4278407084
0.0069421381 0.005674962 -0.0033574617 4278603688
0.012398105 -0.0083607249 0.010193055 4278472873
0.01759769 -0.020972349 0.022327326 4278472873
0.021603249 -0.028621159 0.029567644 4278669734
0.025106631 -0.034142256 0.034708533 4278867359
0.028842485 -0.040367819 0.040535513 4281291899
0.03262648 -0.046589904 0.04635245 4282012529
0.036263604 -0.052101254 0.051465303 4282340204
-0.032075554 0.020225734 -0.015326383 4282339184
-0.027995683 0.027738674 -0.023529768 4278337724
-0.021812253 0.02383041 -0.020439882 4278603434
-0.02030573 0.025381356 -0.02222687 4278669224
-0.018369541 0.024793211 -0.021903895 4278538154
-0.016577274 0.024918165 -0.022283975 4278538154
-0.014632814 0.024330739 -0.021962572 4278472363
-0.013301902 0.02659284 -0.024445692 4278668969
-0.011672057 0.02742976 -0.025524788 4278602668
0.0033737831 0.010406472 -0.010371063 4278734248
0.0083960593 -0.0022569895 0.0017707134 4278800293
0.014229804 -0.017755859 0.01667521 4278800293
0.018547948 -0.026852958 0.025298182 4278669478
0.022014905 -0.032394089 0.030433349 4279719568
0.025524676 -0.037932143 0.035559595 4280768128
0.029266736 -0.044176862 0.041370355 4281685363
0.032864772 -0.049708471 0.046478093 4282078064
0.036115915 -0.053818062 0.050192118 4282405228
-0.03320124 0.024480075 -0.022066571 4278799274
-0.032057606 0.028185101 -0.025969706 4278470578
-0.030548908 0.029740069 -0.027754195 4279650973
-0.028517917 0.028430659 -0.026721295 4278798764
-0.024146356 0.024383318 -0.023257002 4278733995
-0.022077546 0.02307684 -0.022231974 4278799528
-0.020429544 0.023916718 -0.023313625 4278668969
-0.018786751 0.024756329 -0.024394101 4278734504
-0.017149165 0.025595671 -0.025473397 4278668969
-0.01551681 0.026434746 -0.026551513 4278603434
-0.013889685 0.027273582 -0.027628498 4278734248
-0.012110554 0.027397869 -0.028005606 4278734248
-0.010491222 0.028236313 -0.029080745 4278406828
-0.0088771433 0.02907447 -0.030154712 4278668968
-0.0066073053 0.027057601 -0.028439632 4278407083
-0.0036496706 0.022187985 -0.023942348 4278538154
0.00019844249 0.013754483 -0.015973732 4278472618
0.0049770772 0.001760006 -0.0045423531 4278472618
0.010550417 -0.013079792 0.0096486937 4278538154
0.01570021 -0.025773324 0.021733642 4278669478
0.019314706 -0.032046936 0.027556174 4279587734
0.022793401 -0.037604675 0.032675613 4281357434
0.02631489 -0.043159246 0.037786033 4282012528
0.029689884 -0.047998741 0.04219567 4282143343
0.033102319 -0.05283545 0.046597429 4282601833
-0.034861848 0.021459233 -0.021362405 4279259294
-0.032307096 0.027454698 -0.027748205 4278274229
-0.03080079 0.029013826 -0.029528877 4279192228
-0.029038988 0.029136064 -0.029902952 4279192228
-0.022342406 0.022327861 -0.024020597 4278996134
-0.020553306 0.022452356 -0.024400186 4278603178
-0.019056804 0.024011293 -0.026178326 4278668713
-0.017868944 0.027003599 -0.029351657 4278799273
-0.010455038 0.026066447 -0.029462693 4278406574
-0.0086758249 0.026190909 -0.029839689 4278734759
-0.0065663829 0.024883701 -0.028825926 4278734503
-0.0031042807 0.017851867 -0.022256203 4278668968
0.001433786 0.0065309033 -0.011532492 4278538409
0.0070959292 -0.0090758502 0.0033350717 4278538409
0.012172684 -0.021813758 0.015405482 4278603943
0.016096734 -0.029540248 0.022608034 4278736034
0.019536324 -0.0351182 0.027722329 4280440453
0.023018736 -0.040693074 0.032827683 4281422968
0.026357489 -0.045550406 0.037233222 4281815923
0.029544597 -0.049690858 0.040940728 4282274158
0.032572009 -0.053114906 0.043951809 4282797673
-0.037369803 0.023477847 -0.025585689 4279783574
-0.035961896 0.025763644 -0.028071046 4278800038
-0.034320191 0.026606796 -0.029148601 4278275504
-0.031052276 0.0282922 -0.031300139 4278272444
-0.024945691 0.024339026 -0.028224267 4278471853
-0.022888519 0.023022957 -0.027203407 4278865319
-0.021107547 0.023146857 -0.027581299 4278537388
-0.019472636 0.02399026 -0.028656859 4278471599
-0.016976058 0.029271146 -0.034287103 4278664889
-0.015061773 0.028675178 -0.033964299 4278336448
-0.0084751956 0.023298817 -0.029530926 4278537898
-0.0060311444 0.020551486 -0.027134102 4278473129
-0.0017225854 0.0099091679 -0.017117076 4278472874
0.0036875382 -0.0050335266 -0.0029614447 4278472874
0.0093828514 -0.020685762 0.01186255 4278472874
0.013440128 -0.029156558 0.019747149 4278538919
0.016313933 -0.032602839 0.02278199 4278408359
0.019576326 -0.037480988 0.027191885 4280440199
0.023059774 -0.043073177 0.032283731 4281095039
0.026213499 -0.047229089 0.035988197 4281618808
0.029021481 -0.049949914 0.038308717 4282796398
-0.039382249 0.02262623 -0.02698902 4279455899
-0.038088053 0.025642248 -0.030172439 4278734504
-0.036571085 0.027210427 -0.031948954 4278668713
-0.034690678 0.026608894 -0.031621408 4278603433
-0.03293208 0.026730666 -0.031994987 4278603433
-0.031303294 0.027575208 -0.033067971 4278537898
-0.029547058 0.027697003 -0.03344091 4278799784
-0.027384698 0.025652049 -0.031718858 4278734248
-0.025482163 0.025052452 -0.031395629 4278406573
-0.023433484 0.023731465 -0.030376352 4278865319
-0.02180396 0.024576515 -0.031449147 4278537388
-0.018857904 0.027708543 -0.034982234 4278864553
-0.017249376 0.028552404 -0.036050364 4278865574
-0.015338063 0.027954033 -0.035728604 4279062689
-0.010542981 0.02243498 -0.030928917 4278799528
-0.0081132539 0.019677883 -0.028535835 4278537644
-0.0050032847 0.014041349 -0.023378784 4278538153
-0.00017683953 0.0012073554 -0.011315404 4278669479
0.005596038 -0.01521913 0.0041825082 4278669479
0.010455638 -0.027318813 0.015512057 4278473128
0.013827726 -0.032936543 0.020613924 4278473638
0.019796714 -0.040567018 0.027347159 4280112524
0.023283869 -0.046176329 0.03242493 4280898943
0.026255617 -0.049626239 0.035431009 4282077043
-0.040202342 0.025530724 -0.032269366 4278537643
-0.033180095 0.026016349 -0.03376158 4278472363
-0.03142412 0.026138013 -0.034134544 4278734503
-0.029667988 0.026259763 -0.034507483 4278668968
-0.0279117 0.026381632 -0.034880381 4278341548
-0.026017472 0.025779309 -0.034557112 4278668969
-0.024258234 0.025901554 -0.034930497 4278537643
-0.022641994 0.026747821 -0.035998836 4278996134
-0.017975733 0.030008411 -0.039890125 4278601903
-0.015767768 0.027960742 -0.038182247 4278733483
-0.0077523813 0.016044058 -0.027550237 4278275249
-0.0034844577 0.0053336173 -0.0175745 4278799783
0.0020339414 -0.010426827 -0.0027862787 4278669479
0.0073302463 -0.02473481 0.010598384 4278669479
0.011180807 -0.032538392 0.017761512 4278604453
0.014214233 -0.036729299 0.021471154 4279457174
0.016924065 -0.039474852 0.023798801 4280636804
0.020196933 -0.044382736 0.028183267 4281488504
0.023324043 -0.048566729 0.031873334 4281815924
-0.042501107 0.015112005 -0.024187237 4282602089
-0.041850336 0.022516599 -0.031563409 4279127204
-0.033427708 0.025306692 -0.035524793 4278799783
-0.031415276 0.023974041 -0.034504734 4278734759
-0.029788874 0.024822781 -0.035573877 4278537898
-0.028032698 0.02494462 -0.035946768 4278472618
-0.026551627 0.026519518 -0.037708692 4278734503
-0.024800517 0.026641186 -0.038080364 4278734504
-0.023478135 0.028941242 -0.040532127 4278864808
-0.021880388 0.029788513 -0.04159487 4278733738
-0.010631509 0.018795876 -0.032400899 4278340784
-0.0065843277 0.0087733939 -0.023127051 4278602923
-0.0016406588 -0.0048668087 -0.010424708 4278537898
0.0037385747 -0.019948676 0.0036328072 4278537898
0.0080424324 -0.029952854 0.012852535 4278800293
0.01138714 -0.035607353 0.01793348 4279980433
0.014424663 -0.039811037 0.021632336 4281357179
0.017138939 -0.042564958 0.023952343 4281684854
0.020235352 -0.046764292 0.027638905 4281881713
0.023180854 -0.050237902 0.03063383 4282405483
-0.043841533 0.021684932 -0.032957133 4279717783
-0.041255333 0.027768454 -0.039284043 4279126948
-0.039637677 0.028618291 -0.040350027 4278931363
-0.037903771 0.028738089 -0.040718563 4278996389
-0.035921499 0.027398847 -0.039695613 4278930599
-0.033674881 0.02460162 -0.037284546 4278472109
-0.031536169 0.022535184 -0.035572559 4278800039
-0.029777594 0.022657061 -0.035946053 4278603434
-0.028288409 0.024236759 -0.037706457 4278537898
-0.027084619 0.027273064 -0.040850304 4278341548
-0.025621839 0.028851116 -0.042604964 4278406828
-0.024169594 0.030428484 -0.04435727 4278341293
-0.022437029 0.030549023 -0.044724889 4278472363
-0.020556219 0.029941762 -0.044401828 4278603433
-0.018519185 0.028607257 -0.043389793 4278669224
-0.016317904 0.026546022 -0.041690443 4279061923
-0.013632111 0.022303959 -0.037927654 4278800039
-0.0099614114 0.013701178 -0.030041365 4278603434
-0.0049348176 -0.00071286038 -0.016666207 4278472363
0.000362847 -0.015846133 -0.0026263446 4278472363
0.0051055402 -0.028064959 0.0086430758 4278472363
0.0087527856 -0.035192408 0.015090652 4278865574
0.011764925 -0.039411001 0.018784778 4279719059
0.014634378 -0.042901166 0.02178723 4281815669
0.01735311 -0.045663513 0.024099685 4281946738
0.020093277 -0.048424222 0.026407707 4282078064
0.022672022 -0.050457783 0.028027978 4282928999
-0.045826577 0.020858428 -0.03434854 4282077553
-0.044625036 0.024642689 -0.038206473 4278733994
-0.041605942 0.02781211 -0.041730352 4278536879
-0.040112138 0.029395901 -0.043488853 4278800293
-0.038386345 0.029515112 -0.043855689 4278799783
-0.031915508 0.022559395 -0.038026191 4278734249
-0.029898562 0.021218413 -0.037013695 4278603178
-0.028409123 0.022802455 -0.038770851 4278471853
-0.022411481 0.028401794 -0.045086712 4278336959
-0.020380385 0.02706241 -0.044076826 4278667948
-0.018338487 0.02572385 -0.043069106 4278668968
-0.016285814 0.024386168 -0.042063646 4278472618
-0.013130769 0.017942525 -0.036249176 4278472618
-0.0086586922 0.0056675076 -0.024950825 4278407083
-0.0032893345 -0.01024691 -0.010240754 4278407083
0.0015418231 -0.02323705 0.0017020116 4278341548
0.0054694787 -0.031847566 0.0095141269 4278603943
0.0086148605 -0.036810465 0.013890363 4279653523
0.0117977 -0.041770592 0.0182587 4281422713
0.014843382 -0.045999728 0.021935854 4282143344
0.017566565 -0.04877045 0.024240732 4282274158
0.019951236 -0.050083853 0.02517673 4283059304
-0.046377182 0.022362782 -0.038197983 4278997153
-0.045075111 0.025422338 -0.041350216 4278472618
-0.043568067 0.027011169 -0.043108378 4278340274
-0.034420751 0.024672918 -0.042177636 4278799784
-0.032552175 0.024059715 -0.041855797 4278799784
-0.030414656 0.021980256 -0.040153526 4278734249
-0.029067375 0.024301222 -0.042595919 4278471599
-0.026560165 0.029673049 -0.04815954 4278338743
-0.020352975 0.02490684 -0.044445444 4278798509
-0.018308908 0.023564106 -0.043441564 4278537643
-0.015947871 0.020758377 -0.041067347 4278537898
-0.012319364 0.012100477 -0.033212081 4278472874
-0.0070424229 -0.0038682483 -0.018518999 4278472874
-0.0018089935 -0.019097313 -0.0045353179 4278472874
0.0022265762 -0.028469101 0.0039526653 4278603689
0.0054994635 -0.034180969 0.0090088136 4279129499
0.0088151842 -0.03988976 0.014056025 4281029504
0.012001932 -0.044864856 0.018411953 4281815923
0.015051693 -0.049106762 0.022078283 4282077808
0.017425083 -0.050425373 0.023013208 4282929254
-0.046173461 0.018724233 -0.037174374 4278603944
-0.044972979 0.022530064 -0.041015528 4278603688
-0.043573223 0.024860399 -0.043464687 4278800804
-0.0421893 0.027189774 -0.045910448 4278996644
-0.040584773 0.028045122 -0.046968739 4278996388
-0.038743652 0.027427601 -0.046642993 4278996389
-0.03664995 0.025338247 -0.044936582 4278865318
-0.034918718 0.025457967 -0.045304466 4278734248
-0.033058442 0.024842044 -0.044982579 4278865319
-0.031192698 0.024226591 -0.04466179 4278537388
-0.028129175 0.026673149 -0.047463678 4278602414
-0.026678987 0.028263232 -0.04920572 4278996644
-0.024670474 0.026913371 -0.048197858 4278472618
-0.022651136 0.025564315 -0.047192167 4278470834
-0.020621017 0.024216166 -0.046188727 4278537389
-0.018429875 0.022134535 -0.044502273 4278799784
-0.015458114 0.016383674 -0.039395943 4278668968
-0.010887839 0.0032968409 -0.027457859 4278668968
-0.0054301769 -0.013451792 -0.012122557 4278735014
-0.0011368617 -0.024323426 -0.002276781 4278669478
0.0024187565 -0.031522617 0.0041401871 4278932894
0.005196631 -0.035052143 0.0071368646 4281291388
0.0088458806 -0.042244539 0.013534179 4281881203
0.012033854 -0.047234751 0.017878233 4282012273
0.015085015 -0.051489584 0.021534301 4282274414
0.038834039 -0.070672452 0.036586847 4282733414
-0.045863397 0.014333408 -0.035467602 4278801058
-0.044541441 0.017411608 -0.038610861 4278735524
-0.043127924 0.019749364 -0.041057985 4278473129
-0.041845582 0.022825023 -0.044192676 4278735013
-0.040230319 0.023683265 -0.045251604 4279062688
-0.038620226 0.024541277 -0.046309412 4278866084
-0.036768563 0.023922332 -0.045987472 4278734758
-0.035289519 0.025518304 -0.047732752 4278603433
-0.033692278 0.026375653 -0.048787575 4278734504
-0.032231592 0.027970506 -0.050528761 4278865318
-0.027076505 0.02832807 -0.0516234 4279061669
-0.025073811 0.026973439 -0.050617632 4278865064
-0.018100664 0.018495835 -0.043511994 4278341039
-0.014053501 0.007574141 -0.033639163 4278734504
-0.0088384598 -0.0084945038 -0.01900604 4278669478
-0.0041380674 -0.021611221 -0.0071253316 4278735013
-0.0009487085 -0.027363904 -0.0020782119 4278735524
0.0021200813 -0.032377996 0.0022792071 4280832898
0.0053924024 -0.038124688 0.0073089637 4281553784
0.0090449862 -0.045338579 0.013688974 4281881203
0.01206544 -0.049608685 0.017341506 4282012528
0.038686354 -0.072385788 0.035316318 4282471274
-0.045554735 0.0099253878 -0.033773601 4279653013
-0.044221498 0.01301302 -0.036912642 4278866848
-0.042571858 0.013875578 -0.03797739 4278407849
-0.039877273 0.019304225 -0.043547228 4278341804
-0.038497455 0.021646457 -0.045982067 4278276269
-0.036640786 0.02102571 -0.045662921 4278669223
-0.035407834 0.024106981 -0.048780214 4278931619
-0.033810526 0.024966491 -0.049833398 4278800293
-0.032743126 0.02878551 -0.05362916 4278865574
-0.030899189 0.02816426 -0.053307023 4278668714
-0.021155849 0.022848612 -0.049664926 4278865319
-0.017472804 0.013367053 -0.041167311 4278603433
-0.012652546 -0.0012787469 -0.027914559 4278603433
-0.0072598159 -0.018131815 -0.012641864 4278603433
-0.0037964806 -0.025381088 -0.0062386887 4278603943
-0.0010823347 -0.028937019 -0.0032452894 4279783829
0.0016585961 -0.032490961 -0.00025748275 4281225854
0.0050898269 -0.038993023 0.0054390393 4281750389
0.0087377466 -0.046228968 0.011803498 4281881713
0.011754271 -0.050512381 0.015446907 4282471784
0.035075516 -0.069098838 0.029782519 4282471274
0.038340777 -0.073363513 0.033374254 4282405739
-0.045461468 0.0069877207 -0.033471189 4280373898
-0.043793298 0.0078536458 -0.034538362 4278867358
-0.042242587 0.0094626732 -0.036292598 4278866848
-0.040817373 0.011814333 -0.038732283 4278604709
-0.039172642 0.012678891 -0.039794199 4278735524
-0.037773743 0.015028924 -0.042228147 4278538918
-0.035023443 0.019725945 -0.047085676 4278276269
-0.033672072 0.022072975 -0.049509306 4278538664
-0.032467537 0.025161093 -0.052613743 4278931618
-0.031016886 0.02676402 -0.05434617 4279062688
-0.029576764 0.028366258 -0.056076247 4279062688
-0.027730182 0.027743207 -0.055756181 4279259039
-0.026019812 0.027861988 -0.056119248 4278930853
-0.023731969 0.025016095 -0.053756315 4278537898
-0.020687617 0.018466748 -0.047993276 4278406828
-0.016098358 0.0045126118 -0.035436857 4278406828
-0.010645859 -0.013137549 -0.019502979 4278406828
-0.0061502233 -0.025595509 -0.0083507197 4278472363
-0.0032982565 -0.029904038 -0.0046828478 4279129243
-0.00089520961 -0.031990021 -0.0030559506 4280112269
0.0015239492 -0.034074709 -0.0014324151 4281225853
0.0049533583 -0.040596433 0.0042495579 4281684853
0.0084309056 -0.047114663 0.0099214371 4282012784
0.032466993 -0.069467343 0.02762023 4282602598
0.03492935 -0.070796229 0.028523769 4282471274
0.037797868 -0.073599122 0.030765485 4282602344
-0.045262061 0.0032957047 -0.032487303 4280177294
-0.043914266 0.0064016171 -0.035616238 4278932638
-0.042363316 0.008014977 -0.037367225 4278736033
-0.040708035 0.0088823028 -0.038429823 4278605219
-0.038940437 0.0090041496 -0.038805734 4278735779
-0.037292816 0.0098711401 -0.039866567 4278604709
-0.035773166 0.01148276 -0.041610647 4278866594
-0.034264028 0.013093714 -0.04335238 4278407594
-0.032893553 0.015448555 -0.045775112 4278342058
-0.031669758 0.018546682 -0.048877079 4278472873
-0.02901344 0.023250956 -0.053704131 4278472874
-0.027292646 0.023370352 -0.0540695 4278866083
-0.025713198 0.02423341 -0.055115242 4278669734
-0.023129895 0.019892594 -0.051400747 4278472873
-0.019633524 0.011094924 -0.043617178 4278472873
-0.014129609 -0.0073572136 -0.027023628 4278472873
-0.0092529431 -0.022085823 -0.013849159 4278472873
-0.0055080466 -0.03086587 -0.0061180661 4278669478
-0.0032739751 -0.032216795 -0.0051708608 4280898434
-0.0005486235 -0.035793655 -0.0021964423 4281356923
0.0018778518 -0.037884384 -0.00057939254 4280898179
0.0051479489 -0.04368332 0.0044110194 4280897923
0.0077881441 -0.046512313 0.0066933688 4282668134
0.032513589 -0.071900032 0.027034607 4282536554
0.034588337 -0.071753435 0.02659611 4282602343
-0.045170315 0.00033893809 -0.032199085 4279980688
-0.043707281 0.0027059726 -0.034637049 4279194523
-0.042260058 0.0050720088 -0.037071589 4279194523
-0.040484749 0.0051942691 -0.03744923 4278801824
-0.038709268 0.0053166375 -0.037826832 4278670754
-0.036813647 0.0046918653 -0.037521016 4278997918
-0.035157815 0.0055617057 -0.038581919 4278604709
-0.033757724 0.0079249404 -0.041006017 4278670244
-0.032501452 0.011033867 -0.04410835 4278669989
-0.031005107 0.012648489 -0.045843963 4278735524
-0.029652588 0.015008718 -0.048257727 4278800804
-0.024701141 0.016863342 -0.050726723 4278276779
-0.021809779 0.011019759 -0.045669939 4278538918
-0.017849155 -3.8314611e-05 -0.035878401 4278669988
-0.0126139 -0.017052226 -0.020686863 4278669988
-0.008319594 -0.028842472 -0.010257126 4279128734
-0.0054862462 -0.033178478 -0.006605316 4280112524
-0.0030926913 -0.035278261 -0.0049864445 4281422969
-0.00052305683 -0.038121238 -0.0026960596 4281881203
0.0023933277 -0.042451106 0.0009384146 4282078064
0.0051765069 -0.04603453 0.0038924683 4282472294
0.029346528 -0.070029132 0.022873309 4282339438
0.032175817 -0.072852388 0.025109865 4282274669
-0.045185693 -0.0018759109 -0.032601736 4279457174
-0.043828689 0.0012479387 -0.035719402 4278932893
-0.042269252 0.0028704889 -0.037465617 4279129243
-0.040491387 0.0029929094 -0.037843809 4279063198
-0.038713373 0.0031154342 -0.03822197 4278801314
-0.036815397 0.002488669 -0.037918378 4278604709
-0.034911923 0.0018623807 -0.037615873 4278801058
-0.033503428 0.0042327307 -0.040036842 4278932128
-0.032110751 0.0066020302 -0.042454328 4278670244
-0.030603513 0.008221712 -0.044188961 4278866849
-0.028973654 0.0090922602 -0.045242351 4278604709
-0.027484797 0.010710832 -0.046972878 4278604709
-0.025868028 0.011580728 -0.048023377 4278735524
-0.02397421 0.010954447 -0.047718231 4278866594
-0.020924658 0.0043467879 -0.042001143 4278801059
-0.016801789 -0.0074902624 -0.03156177 4278408359
-0.011847794 -0.023058139 -0.017762929 4278342824
-0.0082995519 -0.031146236 -0.010737143 4278670754
-0.005773697 -0.034001179 -0.0084442906 4280898689
-0.0032263845 -0.036854528 -0.00615591 4281619319
-0.00017824769 -0.041946076 -0.0018522935 4281881203
0.0025824271 -0.045542039 0.0010981588 4282536809
0.029580222 -0.073201574 0.022958994 4281749624
0.032222107 -0.07528878 0.024521504 4282667114
-0.045413926 -0.0025898516 -0.034373295 4281227129
-0.043732166 -0.001714427 -0.035436809 4279916173
-0.042167149 -8.7182969e-05 -0.037180915 4279326103
-0.040384091 3.5572797e-05 -0.037560232 4279456663
-0.038600862 0.00015843287 -0.037939519 4279128478
-0.036697865 -0.00047017634 -0.037638672 4278735268
-0.03491164 -0.00034690276 -0.038018435 4278801058
-0.033500016 0.0020300746 -0.040435076 4278801058
-0.032104284 0.0044061169 -0.042848304 4278735524
-0.030594118 0.006030269 -0.044580217 4278801058
-0.028828621 0.0061525069 -0.044955272 4278735524
-0.027198575 0.0070253685 -0.046007019 4278735779
-0.025435485 0.0071476586 -0.046381395 4278474149
-0.023390383 0.0057698078 -0.045404557 4278605219
-0.020329274 -0.00085655227 -0.039704837 4278866848
-0.016342409 -0.011977855 -0.029968593 4278801058
-0.011679634 -0.026091665 -0.017553743 4278801058
-0.0084314272 -0.032704704 -0.011893485 4278997663
-0.0059064515 -0.035568386 -0.0096070804 4281160573
-0.0032030866 -0.039179429 -0.0066529554 4281881203
-0.00031333417 -0.043537296 -0.0030328231 4282143343
0.026251195 -0.070553042 0.018148687 4282274669
0.029246273 -0.074142173 0.021042228 4282077809
-0.038722537 -0.0012991689 -0.039021466 4280243338
-0.036819831 -0.0019299611 -0.038722206 4279784338
-0.035033733 -0.0018067285 -0.039101973 4279391129
-0.033496954 -0.00017662346 -0.040836398 4279260059
-0.03197071 0.0014529005 -0.042568546 4279259549
-0.030454978 0.0030817688 -0.044298336 4278931873
-0.02881702 0.0039571859 -0.045350157 4278670244
-0.027184255 0.0048323348 -0.0464008 4278866848
-0.025418617 0.0049547851 -0.046775736 4278539174
-0.023512103 0.0043250583 -0.046476666 4278866848
-0.020309359 -0.0030730441 -0.040118113 4278866593
-0.016322717 -0.014226861 -0.030406658 4278801058
-0.011809662 -0.027630188 -0.018695336 4278801058
-0.0087146908 -0.033511333 -0.013721293 4279653269
-0.0060391687 -0.037135296 -0.010769656 4281422714
-0.0031801239 -0.041508414 -0.0071530347 4281947249
-0.00028895587 -0.045879178 -0.003543132 4282340458
0.023323741 -0.069374256 0.014681175 4282471783
0.026293652 -0.072976105 0.017571598 4282274669
0.029290294 -0.076575913 0.020456489 4282405228
-0.035033897 -0.0040220283 -0.039509006 4279851149
-0.033369645 -0.0031429566 -0.040565006 4279654033
-0.031965047 -0.00075339526 -0.042970166 4279325594
-0.030446425 0.00088002533 -0.044697322 4279063453
-0.02880574 0.0017577633 -0.045748089 4279194013
-0.027170248 0.0026352666 -0.046797659 4279128479
-0.025539979 0.0035125129 -0.047846042 4278866593
-0.023493223 0.0021261312 -0.046876241 4278932128
-0.020289771 -0.0052935928 -0.040534399 4279063454
-0.016157456 -0.017234065 -0.030176507 4279063454
-0.01193966 -0.02916842 -0.019836705 4279063454
-0.0086950511 -0.035820723 -0.014205502 4279456409
-0.0058640428 -0.040208936 -0.010592978 4281554038
-0.0030009039 -0.044594847 -0.0069871405 4282274668
0.020058323 -0.06667266 0.009894548 4282209389
0.023364272 -0.071790583 0.014109667 4282143598
0.026149837 -0.074651852 0.016328774 4282405739
-0.030308463 -0.0020832308 -0.044426326 4281556079
-0.028794788 -0.00044572353 -0.046149042 4280046734
-0.027156591 0.0004340969 -0.047197562 4279390873
-0.025523588 0.0013136901 -0.048244871 4278997918
-0.023334272 -0.0008335039 -0.046608128 4278801824
-0.020270512 -0.0075182281 -0.040953722 4278801314
-0.016284324 -0.01873713 -0.031291831 4278735779
-0.01206962 -0.030706368 -0.02097787 4278866593
-0.0089778677 -0.036622413 -0.016029654 4279587478
-0.0059970506 -0.0417796 -0.011758347 4281029504
0.017183036 -0.065450273 0.0064464454 4282079848
0.020458125 -0.070585646 0.01065642 4281291643
0.02358753 -0.07496459 0.014196847 4282208879
0.026006045 -0.076327302 0.01508617 4282994534
-0.027143233 -0.0017711334 -0.047600485 4281619828
-0.025507517 -0.00088920817 -0.048646733 4279850384
-0.023456424 -0.0022839718 -0.047684491 4279195289
-0.020537324 -0.0082296878 -0.042713147 4279063708
-0.016411155 -0.020239905 -0.032406937 4279129243
-0.012051336 -0.033002257 -0.021451408 4278998173
-0.0085059218 -0.041209787 -0.014516093 4279456664
-0.0056694075 -0.045623623 -0.010924608 4282273649
0.017397668 -0.06860511 0.0065506436 4282274923
0.020496402 -0.072999313 0.010087546 4281815923
0.017256849 -0.070251554 0.0053294189 4282274924
0.020174276 -0.073900655 0.008197654 4282209134
0.01440097 -0.068996377 0.0019012289 4282340713
0.016938888 -0.07113713 0.0034504728 4282274669
0.01156833 -0.067721836 -0.0015183082 4281292918
0.014261123 -0.070633464 0.00068690721 4281684854
0.016798321 -0.072780743 0.0022313483 4282208879
0.011600886 -0.070115171 -0.0020701317 4282012784
0.014121305 -0.072270244 -0.00052719098 4282078063
0.016834587 -0.075188987 0.0016671605 4282536044
0.0084523372 -0.067279272 -0.0067850156 4281815158
0.011290543 -0.070977591 -0.003933399 4282274159
0.0048411414 -0.062104471 -0.013448389 4281225854
0.0081461444 -0.068125986 -0.0086373789 4281356414
0.01115169 -0.072605066 -0.0051406319 4282470508
0.001281701 -0.056886695 -0.020092631 4279391638
0.0045396686 -0.062928922 -0.015284983 4281750389
0.0078403652 -0.068968043 -0.010486293 4282536044
-0.0019058622 -0.053175464 -0.025414405 4281491053
0.0011476576 -0.058463447 -0.021262376 4279390874
0.004403986 -0.064523079 -0.016467601 4282143088
-0.0015588067 -0.057067394 -0.02462252 4280179334
0.0013387315 -0.061593391 -0.021132899 4279784084
0.0045987368 -0.06767004 -0.016352184 4281160063
-0.0037709661 -0.057989858 -0.026027014 4281948268
-0.0013725087 -0.060193047 -0.024488499 4280505223
0.0013667271 -0.063952796 -0.021657567 4280831368
0.0042977259 -0.068489246 -0.018184893 4282207858
-0.043745086 -0.003930822 -0.035841219 4284901423
-0.043324001 -0.0091779344 -0.03353212 4285163563
-0.041742526 -0.0075408854 -0.035273176 4285032494
-0.040057622 -0.0066608004 -0.036333889 4284901169
-0.043121487 -0.012928843 -0.032594074 4285229608
-0.041531771 -0.011286959 -0.034333549 4285295398
-0.039952531 -0.009645693 -0.036070712 4285360679
-0.038383789 -0.0080050118 -0.037805613 4285294634
-0.036587432 -0.007881213 -0.038187664 4285294634
-0.034912638 -0.006999366 -0.039244346 4285228844
-0.033243008 -0.0061177872 -0.040299855 4284900913
-0.043028198 -0.015931554 -0.032341387 4285294888
-0.041322045 -0.015045829 -0.033403426 4285361188
-0.03962104 -0.014160283 -0.034464315 4285426724
-0.038157605 -0.011754129 -0.036872406 4285426213
-0.036472261 -0.010869514 -0.037929773 4285360424
-0.034913607 -0.0092250109 -0.039659072 4285360423
-0.033365458 -0.0075811632 -0.041386012 4285229353
-0.031954706 -0.0051781945 -0.043782633 4284901424
-0.043043643 -0.018179491 -0.032769315 4285491749
-0.041334771 -0.017291412 -0.033830278 4285492003
-0.039744407 -0.015640728 -0.035563268 4285426469
-0.038164526 -0.0139907 -0.037293904 4285426469
-0.036713839 -0.01157878 -0.039694287 4285426468
-0.034914911 -0.011454742 -0.040076829 4285426468
-0.033239849 -0.010568481 -0.041130211 4285360679
-0.031696647 -0.0089205578 -0.042852722 4285426469
-0.030293323 -0.0065114982 -0.045242719 4285426724
-0.028773844 -0.0048650205 -0.046960037 4285426469
-0.026995525 -0.0047418512 -0.047337782 4285360678
-0.025217079 -0.0046185851 -0.047715481 4285229864
-0.043167263 -0.019666143 -0.033872955 4285360934
-0.041237295 -0.020306297 -0.033588082 4285294888
-0.039641351 -0.018650949 -0.035318915 4285426468
-0.038055927 -0.016996175 -0.037047472 4285426468
-0.036480971 -0.015342072 -0.038773682 4285426469
-0.034795351 -0.014453046 -0.039827749 4285426468
-0.033114895 -0.013564259 -0.04088062 4285492258
-0.03156615 -0.011911597 -0.042601064 4285492003
-0.02989874 -0.011023507 -0.043651007 4285426979
-0.028368369 -0.0093719028 -0.045367386 4285492258
-0.026579514 -0.0092480294 -0.045747384 4285492259
-0.025064856 -0.0075973459 -0.047460206 4285492258
-0.023281105 -0.0074736141 -0.047838967 4285360423
-0.020499706 -0.012690671 -0.04356043 4285164073
-0.016374364 -0.024770193 -0.033307061 4285164073
-0.011572249 -0.039894111 -0.020414988 4284966958
-0.008017838 -0.048148647 -0.013517988 4284966958
-0.042860135 -0.024222739 -0.032292113 4285163308
-0.041250825 -0.022562265 -0.034022585 4285294634
-0.039764985 -0.020135179 -0.036420699 4285360423
-0.038063653 -0.019243143 -0.037476629 4285360933
-0.036485806 -0.017584458 -0.039200187 4285360933
-0.034797475 -0.0166931 -0.040253185 4285426468
-0.033114307 -0.015801974 -0.041304991 4285492003
-0.03118369 -0.01644364 -0.041021455 4285426468
-0.029505573 -0.015552647 -0.04207202 4285557539
-0.027964301 -0.013895981 -0.04378742 4285492003
-0.02643355 -0.012239978 -0.045500446 4285492004
-0.024776369 -0.011350103 -0.046546314 4285492004
-0.022984736 -0.011225842 -0.046926759 4285492769
-0.020196766 -0.016457565 -0.042661253 4285558814
-0.016356468 -0.027041413 -0.033761643 4285558814
-0.011850804 -0.040679149 -0.022227541 4285427489
-0.0086018704 -0.0474286 -0.016671743 4285163818
