# .PCD v0.7 - Point Cloud Data file format
VERSION 0.7
FIELDS x y z rgba
SIZE 4 4 4 4
TYPE F F F U
COUNT 1 1 1 1
WIDTH 961
HEIGHT 1
VIEWPOINT 0 0 0 1 0 0 0
POINTS 961
DATA ascii
-0.034909967 -0.018313151 -0.001370315 4290064408
-0.033004828 -0.018267812 -0.0014996524 4289802523
-0.031099774 -0.018222343 -0.001628886 4289997599
-0.029079165 -0.018975014 -0.0011120844 4289408803
-0.026816484 -0.021323858 0.00069600204 4289736989
-0.024537586 -0.023672119 0.0025030589 4290260759
-0.022242445 -0.026019951 0.0043091187 4290390808
-0.02031067 -0.025973242 0.0041785194 4290063389
-0.01863749 -0.024330543 0.0027579116 4289605409
-0.017239217 -0.021092342 4.8479531e-05 4289604899
-0.015593484 -0.019450074 -0.0013700998 4289997344
-0.013821334 -0.018605733 -0.0021433411 4289932574
-0.01163438 -0.020154398 -0.00098325731 4289539873
-0.0094366819 -0.021702722 0.00017623324 4290194204
-0.0075193644 -0.021655574 4.7195703e-05 4289409313
-0.0057504624 -0.020810891 -0.00072551239 4290391319
-0.0042891577 -0.018371409 -0.0027849225 4289803799
-0.0025368631 -0.017526899 -0.0035563381 4289738518
-0.0012594685 -0.014290636 -0.0062569436 4289149979
0.0006326437 -0.014243606 -0.0063839117 4288953629
0.0026864931 -0.014993596 -0.0058679651 4289150234
0.004745625 -0.015743358 -0.0053523006 4288692508
0.0069773346 -0.017289929 -0.0041944189 4288758554
-0.038153827 -0.024731848 0.0016334625 4288493608
-0.0367558 -0.020682886 -0.0017225791 4289736478
-0.035062823 -0.019036373 -0.0031419762 4289474594
-0.033160564 -0.0189911 -0.0032711155 4290848789
-0.031371232 -0.018145174 -0.0040447246 4291045139
-0.029356278 -0.018900199 -0.0035291123 4291045139
-0.027217686 -0.020455286 -0.0023696579 4290390809
-0.024947278 -0.022810359 -0.00056685414 4290194459
-0.022660661 -0.025164861 0.0012349123 4289801759
-0.020610735 -0.025918543 0.0017484557 4289736224
-0.019072168 -0.023471575 -0.00031193532 4290193694
-0.017550055 -0.021024838 -0.0023711633 4290062879
-0.016044363 -0.018578462 -0.0044291792 4290978583
-0.014143117 -0.018532038 -0.0045573786 4291044373
-0.012101937 -0.019285355 -0.0040428173 4290782743
-0.0097698905 -0.021637978 -0.0022435419 4290325019
-0.0077126436 -0.022390716 -0.00172985 4289736224
-0.0056501105 -0.023143189 -0.0012164903 4289998108
-0.0041859969 -0.020697109 -0.0032712428 4289606429
-0.0025846958 -0.019050892 -0.0046830168 4289868313
-0.0013071522 -0.015805926 -0.0073771756 4290129689
0.00058484077 -0.015758898 -0.0075041363 4290653204
0.0026384965 -0.016511083 -0.0069898013 4290326039
0.0046974346 -0.01726304 -0.0064757485 4289933339
0.0070961267 -0.019613119 -0.0046802154 4289606174
0.0091710463 -0.020364486 -0.004167093 4289409824
0.011078559 -0.020316605 -0.0042947461 4289410333
0.012635119 -0.018670732 -0.0057029477 4289476124
0.014002509 -0.016226105 -0.0077505047 4289803288
0.015895933 -0.016178302 -0.0078770118 4289999894
0.018156275 -0.017727993 -0.0067238952 4289672983
0.020427287 -0.019277254 -0.005571445 4289411099
0.022897959 -0.021624841 -0.0037802188 4289213983
0.025576457 -0.024770424 -0.0013508196 4288951588
-0.038301256 -0.025465576 -0.00014645839 4288297258
-0.03690578 -0.021405827 -0.0034942781 4289801503
-0.035322893 -0.018952157 -0.0055535613 4289409059
-0.033426218 -0.018907035 -0.0056823348 4290063134
-0.031529628 -0.018861771 -0.0058109961 4289801504
-0.029748622 -0.018013805 -0.0065823062 4290979094
-0.027736697 -0.018770922 -0.0060680616 4290455834
-0.025477525 -0.021132786 -0.004269335 4289801503
-0.023202132 -0.023494078 -0.0024716468 4289867038
-0.021289691 -0.023447867 -0.0026009618 4289605409
-0.019635558 -0.021796981 -0.0040137907 4290193694
-0.018124264 -0.019344013 -0.0060674702 4289932064
-0.016360298 -0.018495634 -0.0068370146 4289212453
-0.014327358 -0.019251425 -0.0063235834 4289604898
-0.012289084 -0.020007059 -0.0058104168 4290979094
-0.0099601038 -0.022366272 -0.0040157717 4289932573
-0.0079057813 -0.023121243 -0.0035035606 4289801759
-0.005994305 -0.023074144 -0.0036321348 4289736479
-0.004384689 -0.021423467 -0.0050413087 4289998618
-0.0029396862 -0.018971248 -0.0070898738 4289605664
-0.0013548285 -0.017320998 -0.0084972493 4290325018
0.00021899492 -0.015670845 -0.0099038258 4290521369
0.0022670403 -0.01642542 -0.0093907081 4291110163
0.0043203458 -0.017179683 -0.0088778865 4291110163
0.0067132935 -0.019536465 -0.0070868339 4290129178
0.0087825879 -0.020290149 -0.0065749506 4289802269
0.01068455 -0.020242417 -0.0067022406 4289867804
0.012235694 -0.018592287 -0.0081068939 4290325783
0.013597779 -0.016141327 -0.010149223 4289933084
0.015485667 -0.016093697 -0.010275385 4290783508
0.017740309 -0.017647829 -0.0091251507 4290587669
0.020191848 -0.020002518 -0.0073375558 4290783508
0.022659503 -0.022356648 -0.0055510011 4290063134
0.025143288 -0.024710376 -0.0037654536 4289866528
-0.038652219 -0.024584468 -0.0032071155 4288035628
-0.037264731 -0.020514023 -0.0065463125 4289932574
-0.035475407 -0.019664049 -0.0073168445 4289801759
-0.033581603 -0.019618992 -0.0074454206 4289147174
-0.031800605 -0.018768955 -0.0082151946 4288754474
-0.029909682 -0.018723723 -0.0083433948 4289604899
-0.027900685 -0.019483097 -0.0078305732 4290128158
-0.025765464 -0.021046869 -0.0066772737 4289801249
-0.023743056 -0.021805722 -0.0061651398 4289997599
-0.021841627 -0.021759786 -0.0062937159 4290128158
-0.020069353 -0.020909218 -0.0070624226 4290062879
-0.01843439 -0.019254349 -0.0084706564 4289539364
-0.016675942 -0.01840394 -0.0092382235 4289016360
-0.014511436 -0.019966317 -0.0080863927 4289146918
-0.012476098 -0.020724136 -0.0075746719 4290521113
-0.010435443 -0.021481762 -0.0070631877 4289998110
-0.0083894767 -0.022239137 -0.0065520462 4289736224
-0.0064862892 -0.022192249 -0.0066800681 4289998364
-0.0047340244 -0.02134137 -0.0074467566 4289998619
-0.0032943785 -0.01888275 -0.0094901137 4290325018
-0.0015587136 -0.01803208 -0.010255537 4289212708
1.2405217e-05 -0.016377665 -0.011658721 4289670688
0.00205753 -0.017134437 -0.01114706 4290455323
0.0041079521 -0.017891016 -0.010635633 4289932574
0.0063307285 -0.019450827 -0.0094868857 4289998364
0.0082245991 -0.019403409 -0.0096137151 4289802013
0.010118298 -0.019355888 -0.0097404551 4290195223
0.011836581 -0.018504977 -0.010504214 4290718739
0.013371289 -0.01685085 -0.011904497 4289082148
0.015437067 -0.017606517 -0.011393708 4289082148
0.017691471 -0.019165024 -0.010246698 4289540128
0.020142704 -0.021526253 -0.0084639313 4290128924
0.022232383 -0.022281021 -0.0079545937 4290063134
0.024710409 -0.024641428 -0.0061735092 4289212198
-0.038901009 -0.024497425 -0.0056174919 4287512114
-0.03762329 -0.01960898 -0.0095885601 4289801248
-0.035842214 -0.018757004 -0.010356899 4290652183
-0.034066655 -0.017905083 -0.011124806 4290521114
-0.032296613 -0.01705314 -0.011892229 4289997344
-0.030301347 -0.017815148 -0.011380188 4290847768
-0.028182633 -0.019383783 -0.010229083 4291044118
-0.026053119 -0.020952087 -0.0090785846 4289801249
-0.023912828 -0.022519955 -0.0079287589 4290324764
-0.022140522 -0.021667402 -0.0086959191 4289735714
-0.020373762 -0.020814864 -0.0094626173 4290717209
-0.018875942 -0.018349169 -0.011505699 4290978583
-0.017125718 -0.017496815 -0.01227112 4289604898
-0.015243914 -0.01745088 -0.012398019 4289146918
-0.012942668 -0.019823998 -0.010611244 4290063134
-0.01105294 -0.019777691 -0.010738544 4290848534
-0.0090180486 -0.020537484 -0.010228248 4290128924
-0.0071258619 -0.020490883 -0.010355541 4289867294
-0.0052338168 -0.020444188 -0.010482754 4290521624
-0.0034953356 -0.019591395 -0.011246843 4290586904
-0.0017624572 -0.018738562 -0.012010498 4289801503
-0.00019402057 -0.017079934 -0.013410252 4288820008
0.0018481985 -0.017838951 -0.012900008 4288885543
0.0040600225 -0.019403545 -0.011753798 4289539874
0.006115526 -0.020162044 -0.011244305 4290456344
0.0080065578 -0.020114714 -0.011370959 4290129434
0.0097249672 -0.019261731 -0.01213319 4290063899
0.011437766 -0.018408766 -0.012895029 4290783764
0.012967087 -0.016750464 -0.014291679 4290783254
0.014846623 -0.016703084 -0.014417311 4289147429
0.016909309 -0.017460881 -0.013907913 4288950824
0.019163325 -0.019023743 -0.012764025 4289212453
0.021805562 -0.022196505 -0.010351617 4289735714
0.024277866 -0.024563542 -0.0085750371 4290389279
0.026960462 -0.027735151 -0.0061652241 4287707444
-0.039149534 -0.024401372 -0.008021282 4287446579
-0.037877012 -0.019500069 -0.011982291 4289604899
-0.036208607 -0.017836746 -0.013387112 4290063134
-0.034441303 -0.016982786 -0.014152875 4290324763
-0.03256692 -0.016938083 -0.014280055 4290455579
-0.030577298 -0.017702445 -0.013769202 4290390044
-0.028464299 -0.019275578 -0.012620948 4289670178
-0.026340511 -0.020848334 -0.011473337 4289408548
-0.024452865 -0.020802829 -0.011601054 4289997599
-0.022565331 -0.020757243 -0.011728702 4289735714
-0.020806801 -0.019902727 -0.012493229 4289800993
-0.019053809 -0.019048229 -0.013257293 4290586394
-0.017575081 -0.01657638 -0.015294178 4290978583
-0.01570157 -0.016530681 -0.015420543 4290455579
-0.013548587 -0.018102009 -0.014274294 4291044628
-0.011669874 -0.018055977 -0.014400857 4290128669
-0.0095008351 -0.019626617 -0.013255547 4289932574
-0.0076169334 -0.019580239 -0.013382297 4289867039
-0.0055824965 -0.020342054 -0.012873461 4290259739
-0.0038495287 -0.019487195 -0.013635549 4290259228
-0.0021221265 -0.01863239 -0.014397196 4290782488
-0.00024148077 -0.018585715 -0.014523448 4290717209
0.0014774948 -0.017730923 -0.015284386 4290586393
0.0036836118 -0.019299969 -0.014141064 4290783253
0.0055665448 -0.01925293 -0.014267241 4289605663
0.0074493065 -0.019205824 -0.014393354 4290063643
0.0093319342 -0.019158613 -0.014519375 4289736734
0.011389494 -0.019919004 -0.014011465 4289998108
0.013096683 -0.019063964 -0.01477121 4291044629
0.014617734 -0.01740147 -0.01616404 4290455578
0.016311012 -0.016546626 -0.01692274 4290521113
0.018742613 -0.018921409 -0.015148425 4290848023
0.021001659 -0.020488404 -0.014008037 4290782488
0.023654222 -0.023669576 -0.011602749 4289735203
0.026328303 -0.02685008 -0.0091988835 4288818988
-0.039296143 -0.025108127 -0.0097812582 4287119414
-0.038026102 -0.020193808 -0.013732399 4288950568
-0.036467526 -0.017714679 -0.015770711 4289146919
-0.034705736 -0.016858738 -0.016534457 4289473828
-0.032724414 -0.017625537 -0.01602478 4289081638
-0.030852973 -0.017580783 -0.016151669 4289147174
-0.028745681 -0.019158449 -0.015006214 4289277733
-0.026748285 -0.019924538 -0.014497384 4289539620
-0.024622146 -0.021501467 -0.013353069 4289670690
-0.02273747 -0.021455957 -0.01348053 4289343269
-0.020981725 -0.020599324 -0.014243248 4289604899
-0.019231524 -0.019742759 -0.015005541 4289932064
-0.017621174 -0.018075295 -0.016402397 4289081383
-0.016021792 -0.016408054 -0.017798407 4289474084
-0.014014248 -0.017173098 -0.01728967 4289670433
-0.012001377 -0.017937927 -0.016781226 4289670688
-0.0096928738 -0.020323712 -0.01500447 4289540129
-0.007811822 -0.020277422 -0.015131042 4289605408
-0.0059308931 -0.020231029 -0.015257526 4289605409
-0.0042034015 -0.019374177 -0.016017662 4289539619
-0.0021694377 -0.020137962 -0.015510253 4289343524
-0.00044766068 -0.019281037 -0.016269844 4290193693
0.0012685433 -0.018424165 -0.017029002 4289866784
0.0033075288 -0.019187551 -0.016521724 4289801758
0.0053517967 -0.019950733 -0.016014747 4289474593
0.0072317421 -0.019903665 -0.016140647 4289409314
0.0089392066 -0.019046681 -0.016898971 4289409314
0.010991164 -0.019809376 -0.016392294 4289343523
0.012692884 -0.018952331 -0.017150082 4289801758
0.014208525 -0.017285589 -0.018539373 4290259484
0.01589635 -0.016428739 -0.019296117 4290717464
0.017764494 -0.01638151 -0.019420888 4290717464
0.020198345 -0.018762741 -0.017651474 4289669923
0.022839673 -0.021952916 -0.015251909 4289408038
0.025890641 -0.026761167 -0.011591717 4289538343
-0.039442606 -0.025810281 -0.011537835 4286922554
-0.038070749 -0.021696759 -0.014843736 4288296493
-0.036405113 -0.020024762 -0.01624196 4288492843
-0.034530945 -0.01998022 -0.016369238 4288362029
-0.032544386 -0.020749116 -0.015861489 4288296749
-0.03066764 -0.020704255 -0.01598875 4288754728
-0.028790992 -0.020659273 -0.016115919 4288623913
-0.026793808 -0.021427533 -0.01560868 4288951079
-0.02479127 -0.022195552 -0.015101721 4288624168
-0.022909448 -0.022150107 -0.015228984 4288558634
-0.021027725 -0.022104569 -0.015356171 4288820008
-0.019146111 -0.022058889 -0.015483243 4288950569
-0.017398804 -0.021200115 -0.01624365 4289015848
-0.015520126 -0.021154299 -0.016370371 4288819753
-0.013781205 -0.020295512 -0.017130047 4289016103
-0.011905473 -0.02024957 -0.017256424 4289408803
-0.0097396746 -0.021829035 -0.016117383 4289016358
-0.0078587458 -0.021782771 -0.016243964 4289016358
-0.0061284602 -0.020923762 -0.017002739 4289081638
-0.0042505115 -0.020877363 -0.017128963 4289015849
-0.002216734 -0.021643344 -0.016623165 4288950568
-0.00049500167 -0.020784264 -0.017381158 4288950568
0.0012211651 -0.01992525 -0.018138722 4289081128
0.0030958503 -0.019878555 -0.01826445 4289212708
0.0051372126 -0.020643968 -0.01775888 4289016614
0.0070143268 -0.020597039 -0.017884638 4289147174
0.0087190419 -0.019737937 -0.018641159 4289212709
0.010768108 -0.020502903 -0.018135913 4289212453
0.012644783 -0.020455718 -0.018261448 4289604899
0.014340885 -0.019596584 -0.019017208 4289801249
0.016031377 -0.018737471 -0.019772576 4289474084
0.017716303 -0.017878447 -0.020527462 4289474083
0.019772738 -0.01864285 -0.02002243 4289735203
0.022216991 -0.021030273 -0.018258501 4289081129
0.025453299 -0.0266634 -0.013978007 4288949804
-0.03948741 -0.027323876 -0.012657057 4287053369
-0.038011152 -0.024015391 -0.015321086 4288427308
-0.036128897 -0.023970775 -0.015449001 4288230958
-0.03413704 -0.024741801 -0.01494336 4288427564
-0.032252211 -0.024696862 -0.015071257 4288558379
-0.030482572 -0.023836169 -0.015832152 4288558379
-0.028482787 -0.024606656 -0.015326788 4288623658
-0.026598204 -0.024561375 -0.015454411 4288623658
-0.02459044 -0.025331454 -0.014949427 4288820264
-0.02270332 -0.025285902 -0.015077065 4288689194
-0.020945001 -0.024424903 -0.01583676 4288492843
-0.019060802 -0.024379201 -0.015964039 4288492843
-0.017176703 -0.02433338 -0.01609122 4288689193
-0.015155848 -0.025102576 -0.015586701 4288623658
-0.013408832 -0.024241438 -0.01634533 4288689194
-0.011525076 -0.024195315 -0.016472254 4289670688
-0.0096414275 -0.024149086 -0.016599094 4289081893
-0.0079056397 -0.023287904 -0.017356727 4288819753
-0.0060249716 -0.02324154 -0.017483212 4288754474
-0.0039912313 -0.024009833 -0.016979124 4288819753
-0.0019522086 -0.024777886 -0.016475312 4288558123
-0.00022509694 -0.023916516 -0.017232068 4288689193
0.0013351291 -0.022240661 -0.018618334 4288885289
0.0032124072 -0.02219392 -0.018744249 4288820263
0.0054230765 -0.023775861 -0.017610883 4288951334
0.0073055178 -0.023728821 -0.017737018 4288885799
0.0090156123 -0.022867408 -0.018492281 4288951079
0.010720141 -0.022006096 -0.019247148 4288820008
0.012596689 -0.021958929 -0.019372683 4289539619
0.014473118 -0.02191169 -0.019498155 4289343268
0.01634936 -0.021864373 -0.019623552 4289081638
0.017853908 -0.020189121 -0.021005582 4288950824
0.019912921 -0.020955704 -0.020502314 4288754474
0.022359587 -0.023349583 -0.018743455 4288688429
0.025404118 -0.028184192 -0.015102196 4288099379
-0.039430752 -0.02965543 -0.013143743 4287249208
-0.0378475 -0.027156278 -0.015169311 4288034609
-0.035853058 -0.027929615 -0.014665531 4288231214
-0.033853251 -0.028702628 -0.014162044 4288165679
-0.031960402 -0.02865752 -0.014290501 4288296493
-0.030182689 -0.027794465 -0.015050332 4288296748
-0.028292719 -0.027749183 -0.015178414 4288231469
-0.026282351 -0.028521489 -0.014675305 4288296748
-0.024389833 -0.028475933 -0.014803403 4288296748
-0.022497416 -0.028430248 -0.014931395 4288296748
-0.020733736 -0.02756696 -0.015689854 4288362284
-0.018844232 -0.027521137 -0.015817495 4288362284
-0.016820751 -0.028292572 -0.015314861 4288558634
-0.014655139 -0.02988109 -0.014182522 4288493098
-0.01289732 -0.029017504 -0.014940259 4288362284
-0.011145055 -0.028153973 -0.015697561 4288951079
-0.00939833 -0.02729046 -0.0164544 4288754473
-0.0075094961 -0.027244017 -0.016581524 4288623658
-0.0056207851 -0.027197484 -0.01670857 4288558123
-0.0037322119 -0.027150854 -0.016835535 4288296238
-0.0018437505 -0.027104136 -0.01696242 4288230959
-0.00011397898 -0.026240516 -0.017717805 4288427308
0.0016102344 -0.025376962 -0.01847269 4288558634
0.003656812 -0.026146736 -0.0179708 4288362284
0.0055420026 -0.02609973 -0.018097196 4288427563
0.0075964779 -0.02686918 -0.017595667 4288493098
0.0094840825 -0.026821928 -0.017722085 4288427563
0.011371568 -0.026774608 -0.017848441 4288558379
0.013258889 -0.026727194 -0.017974716 4288558379
0.014785506 -0.025047217 -0.019355126 4288689449
0.016667098 -0.024999803 -0.01948091 4288492843
0.018548541 -0.02495232 -0.019606628 4288427564
0.020618215 -0.025720768 -0.019105732 4288427563
0.022884332 -0.027305042 -0.017978769 4288099634
0.025548793 -0.030520706 -0.015600091 4287641398
-0.039576985 -0.03035048 -0.014895068 4287445049
-0.037788186 -0.029485473 -0.0156544 4287707443
-0.035791241 -0.03026085 -0.015152423 4287773233
-0.033788923 -0.031036008 -0.014650742 4288362029
-0.031781245 -0.031810924 -0.01414934 4288296493
-0.02988318 -0.031765565 -0.014278058 4288427308
-0.028102901 -0.030900165 -0.015036369 4288296748
-0.025966875 -0.032494467 -0.013905715 4288296748
-0.024189487 -0.031628869 -0.014663706 4288362284
-0.022417627 -0.030763324 -0.015421191 4288427563
-0.0206513 -0.029897798 -0.016178213 4288231469
-0.018759206 -0.02985194 -0.01630605 4288427563
-0.016733207 -0.030625509 -0.015805217 4288296748
-0.01483861 -0.030579355 -0.015933048 4288362284
-0.012804676 -0.031352516 -0.015432589 4288296748
-0.011049747 -0.030486744 -0.016188458 4288688938
-0.009300366 -0.02962104 -0.016943898 4288623658
-0.0072613396 -0.030393749 -0.016443543 4288492843
-0.0053673238 -0.030347094 -0.016570952 4288100398
-0.0033203885 -0.031119445 -0.016071005 4288165934
-0.0015796572 -0.03025353 -0.016825549 4288034609
-2.9504299e-06 -0.028568717 -0.018206581 4288296493
0.0017239079 -0.027702913 -0.0189601 4288493098
0.0036091208 -0.027656004 -0.019086566 4288296748
0.0058274567 -0.029246546 -0.017960165 4288558634
0.0078871623 -0.03001802 -0.017460659 4288427563
0.0099521726 -0.030789278 -0.016961448 4288558634
0.011847682 -0.030741774 -0.017088357 4288296493
0.013565578 -0.029875731 -0.017840853 4288165934
0.014917471 -0.027372885 -0.019843888 4288427563
0.01680167 -0.027325436 -0.019969869 4288493098
0.018685736 -0.027277917 -0.020095786 4288427563
0.020946339 -0.028866746 -0.01897173 4288427563
0.023026563 -0.029637098 -0.018473146 4288230193
-0.039621748 -0.031863511 -0.016013877 4287575864
-0.037728991 -0.031818777 -0.016142603 4287902773
-0.035943054 -0.030951561 -0.016900051 4288034609
-0.033834189 -0.032551251 -0.015771147 4288231214
-0.031714521 -0.034150627 -0.014642861 4288034609
-0.029698964 -0.034927413 -0.014143519 4288361774
-0.027913317 -0.034059737 -0.014900601 4288493098
-0.026012842 -0.034014121 -0.015029334 4288493098
-0.024235532 -0.033146359 -0.015785713 4288427563
-0.022337951 -0.033100579 -0.015914077 4288231468
-0.020568971 -0.032232851 -0.016669694 4288231469
-0.018543072 -0.033008721 -0.016170558 4288362283
-0.016645782 -0.032962624 -0.016298663 4288231468
-0.014748596 -0.032916427 -0.016426681 4288165933
-0.012712132 -0.033691779 -0.015927991 4288427563
-0.010812443 -0.033645317 -0.016056031 4288689449
-0.0090576895 -0.032777254 -0.016810255 4288754729
-0.0073084943 -0.031909265 -0.017563988 4288427564
-0.0052643418 -0.032683942 -0.017065529 4288165934
-0.0032148734 -0.033458471 -0.016567342 4288362284
-0.001627177 -0.031769104 -0.017946007 4288296749
-0.00020887703 -0.029258814 -0.019949201 4288296749
0.0016763806 -0.029212022 -0.020075757 4288362284
0.0037253276 -0.029986193 -0.019577261 4288362284
0.0059461221 -0.031580992 -0.0184543 4288296749
0.0078390911 -0.031533748 -0.018581185 4288100654
0.0099039227 -0.032307215 -0.018083597 4288362283
0.011974044 -0.033080511 -0.017586261 4288362283
0.013694599 -0.032212179 -0.018337362 4288231468
0.015049346 -0.029702842 -0.020335749 4288231469
0.016753316 -0.028834792 -0.021085639 4288231469
0.01863727 -0.028787287 -0.021211561 4288100398
0.020897649 -0.030380527 -0.020090757 4288034608
0.022786744 -0.030332761 -0.020216921 4287445048
-0.039869014 -0.031726964 -0.018387726 4287574843
-0.038085822 -0.030857749 -0.019143458 4288033589
-0.036094733 -0.031637639 -0.018644327 4287968053
-0.033988852 -0.033241827 -0.017518431 4288164659
-0.031872183 -0.034845579 -0.016393209 4288295219
-0.029859543 -0.035624668 -0.015895253 4288295219
-0.028076697 -0.034754854 -0.016650582 4288230449
-0.026179083 -0.034709316 -0.016779127 4288164914
-0.024404552 -0.03383952 -0.017533686 4288230959
-0.022509832 -0.033793818 -0.017661864 4288099889
-0.020615187 -0.033748038 -0.017789975 4288034864
-0.018589493 -0.034526087 -0.01729244 4288034353
-0.01669234 -0.034480006 -0.017420543 4288230958
-0.014931884 -0.033610005 -0.018173747 4288165423
-0.012898333 -0.034387566 -0.017676519 4288296238
-0.01085946 -0.035164937 -0.017179532 4288623403
-0.009104766 -0.034294717 -0.017932154 4288688939
-0.0075030848 -0.032601021 -0.019308731 4288296238
-0.0056120232 -0.032554504 -0.019435991 4288100399
-0.0035681799 -0.033331305 -0.018939082 4288034864
-0.0016746521 -0.033284508 -0.019066341 4288165423
6.0416758e-05 -0.032414351 -0.019817257 4288230959
0.0017899349 -0.031544238 -0.020567726 4288361774
0.0040051788 -0.033143658 -0.019447725 4288296238
0.0060646683 -0.033919591 -0.018951509 4288165679
0.0077910572 -0.033049297 -0.019701581 4288165933
0.00985571 -0.033824969 -0.019205613 4288231469
0.011576399 -0.032954637 -0.019955166 4288100398
0.013468854 -0.032907203 -0.020081863 4288297004
0.015001044 -0.03121417 -0.021452989 4288166189
0.016887784 -0.031166723 -0.021579187 4288297004
0.018588871 -0.030296536 -0.022327248 4288230959
0.020284392 -0.029426463 -0.023074839 4287838004
0.022165269 -0.029378934 -0.023200475 4286725439
-0.030364335 -0.033837795 -0.019518815 4286136643
-0.028709944 -0.03213961 -0.020896643 4286660158
-0.026826058 -0.032094419 -0.021024272 4286856509
-0.024942249 -0.032049119 -0.021151815 4287052858
-0.023058545 -0.032003704 -0.021279261 4287510839
-0.021046527 -0.032784414 -0.02078253 4287510838
-0.018898081 -0.034391023 -0.019662071 4287380023
-0.017006494 -0.034345105 -0.019789821 4288099379
-0.015115 -0.034299094 -0.019917492 4288557614
-0.013362866 -0.033427041 -0.020668458 4288361263
-0.011190377 -0.035032615 -0.019549364 4288034098
-0.0095858499 -0.033334639 -0.020923011 4288622893
-0.007992316 -0.031636793 -0.022295885 4288230448
-0.0062596425 -0.030764826 -0.023045249 4288165169
-0.003921181 -0.033195321 -0.021304231 4288165169
-0.0021887645 -0.032323129 -0.022053484 4288230704
-0.00014533848 -0.033101998 -0.021557998 4288295983
0.0017423928 -0.033055212 -0.021684773 4288230193
0.0039573982 -0.034658998 -0.020567987 4288164913
0.0060167164 -0.035437159 -0.02007341 4287968818
0.007743068 -0.034564711 -0.020821881 4288165169
0.0096356943 -0.034517456 -0.020948723 4288034353
0.011179082 -0.032820001 -0.022317525 4287969074
0.013066009 -0.03277272 -0.022443861 4288361774
0.014952794 -0.03272539 -0.022570156 4288296238
0.016656719 -0.031853046 -0.023316856 4288230448
0.018169671 -0.030156069 -0.024683408 4287902773
0.020047881 -0.030108718 -0.024808951 4288163894
-0.023265552 -0.0012343265 0.0078093437 4284704309
-0.0058614761 -0.0077289771 0.0052460395 4281952603
-0.004560329 -0.0045532454 0.0024984879 4282478923
-0.0031268969 -0.00216005 0.00040711928 4282679353
-0.0015530139 -0.00054922886 -0.0010285703 4282678078
9.8198652e-06 0.0010614395 -0.0024634302 4283071543
0.00172396 0.0018901229 -0.0032434007 4283135293
0.00392773 0.00037326291 -0.0020610837 4283135038
0.0058066025 0.00042025372 -0.0021869463 4283004734
0.0075148046 0.0012490079 -0.0029662829 4283070524
0.0092173517 0.0020777639 -0.0037452085 4283595058
0.011090256 0.0021249093 -0.0038704472 4284377144
-0.0059091896 -0.0092567494 0.0041165454 4284311863
-0.0049107075 -0.0045037083 6.8972819e-05 4282678589
-0.0036367774 -0.0013198443 -0.0026702161 4281570104
-0.0019141957 -0.0004890319 -0.0034492521 4281830203
-3.7647784e-05 -0.00044237822 -0.0035751688 4281894974
0.0016764328 0.00038845837 -0.0043535372 4281763903
0.0037149489 -0.00034878217 -0.0038267451 4282090558
0.0055909902 -0.00030184165 -0.0039524036 4282090558
0.0072963983 0.00052908622 -0.004729962 4282089793
0.008996211 0.0013599116 -0.0055070431 4282089793
0.011042163 0.00062325597 -0.0049805269 4282220609
0.013093382 -0.00011321902 -0.0044542528 4282155329
0.015149839 -0.00084940717 -0.0039282897 4282285124
0.016843475 -1.8399209e-05 -0.0047047064 4282415428
0.018718228 2.9148534e-05 -0.0048298063 4282480709
0.02078227 -0.00070661679 -0.0043041771 4282741063
0.023812465 -0.0053586736 -0.0005263174 4283068994
0.027459778 -0.012359554 0.0052004205 4283199044
-0.005109489 -0.0052316226 -0.0017023166 4282678589
-0.0036840513 -0.0028256103 -0.003783416 4281308218
-0.0019615367 -0.0019926187 -0.0045608319 4281504313
7.4386597e-05 -0.0027322546 -0.004035668 4281634618
0.0017911568 -0.0018992126 -0.0048125563 4281569594
0.0036672503 -0.0018523652 -0.00493829 4281634363
0.0055431649 -0.0018054266 -0.0050639403 4281699644
0.0075892955 -0.0025444143 -0.004539167 4281438523
0.0094675943 -0.0024972409 -0.004664849 4281373499
0.011345707 -0.0024499744 -0.0047904458 4281438523
0.013223641 -0.0024026185 -0.0049159601 4281373499
0.015101396 -0.0023551956 -0.0050414084 4281438523
0.016978949 -0.0023076683 -0.0051667634 4281438268
0.01922968 -0.0038312953 -0.0039935578 4281699134
0.021112308 -0.0037834868 -0.0041191359 4282155583
0.024339549 -0.0092340037 0.00029762695 4281893954
-0.0050055683 -0.0075324066 -0.0021701418 4282613308
-0.0035773367 -0.0051197484 -0.0042466219 4281635128
-0.0016954467 -0.0050730575 -0.0043729679 4281440053
0.00018628687 -0.0050262623 -0.0044992226 4281375029
0.0020678714 -0.0049793869 -0.0046254052 4281440053
0.0037844181 -0.0041440651 -0.0054005804 4281505078
0.005662933 -0.0040970556 -0.0055264011 4281570359
0.0075412914 -0.0040499754 -0.0056521576 4281374264
0.0095925108 -0.0047909413 -0.005129288 4281178933
0.011648968 -0.0055316649 -0.0046066912 4281178424
0.013710678 -0.0062721632 -0.0040843748 4281243959
0.015596487 -0.0062245447 -0.0042103683 4281243959
0.017298199 -0.0053889621 -0.0049840803 4281374009
0.019180894 -0.0053412244 -0.0051097176 4281568828
0.021442086 -0.0068689212 -0.0039403532 4281437758
0.024482124 -0.011546862 -0.00018254016 4281698113
-0.0049017668 -0.0098372642 -0.0026410525 4282549558
-0.0034707561 -0.0074179824 -0.0047128578 4281571889
-0.0014296249 -0.0081619509 -0.0041913567 4281702449
0.00045742095 -0.0081150364 -0.0043179761 4281571123
0.0023443252 -0.008068027 -0.0044445149 4281440309
0.0040662661 -0.0072303936 -0.005218436 4281766454
0.0057825819 -0.0063928142 -0.0059919171 4281831223
0.0076635405 -0.0063456651 -0.006117844 4281570103
0.0097172856 -0.0070887264 -0.0055967472 4281180209
0.011776276 -0.0078315847 -0.0050759502 4281375029
0.013840556 -0.0085742641 -0.0045553963 4280722228
0.015728965 -0.0085265618 -0.00468155 4281310259
0.017433345 -0.0076886918 -0.0054538683 4281243958
0.01931867 -0.0076409169 -0.0055797044 4281243194
0.021582328 -0.0091728792 -0.0044137151 4281372478
0.024816528 -0.014653666 -2.0082109e-05 4281697093
-0.0047981068 -0.012146231 -0.003115 4282549814
-0.0033642948 -0.0097203739 -0.0051821666 4281506354
-0.0013206303 -0.010466499 -0.0046624071 4281570104
0.00056901574 -0.010419525 -0.0047892057 4281636404
0.0024585128 -0.010372447 -0.0049159145 4281506354
0.0043478534 -0.010325287 -0.0050425497 4281962293
0.0060695484 -0.0094853351 -0.0058148061 4282092598
0.0077856556 -0.0086454973 -0.0065865945 4281831479
0.0098419338 -0.0093906922 -0.0060672979 4281831479
0.011727877 -0.0093432516 -0.006193433 4281702959
0.013613626 -0.0092956945 -0.006319467 4281571379
0.015499227 -0.0092480816 -0.0064454451 4281310003
0.017384626 -0.0092003774 -0.0065713385 4281244979
0.019269839 -0.009152594 -0.0066971583 4281243958
0.021722451 -0.011481007 -0.0048901597 4281699134
0.024958789 -0.016977029 -0.00050794054 4281763648
-0.0045434907 -0.015254603 -0.0029468068 4283137079
-0.0027965903 -0.014412357 -0.0037195166 4282157623
-0.0012117699 -0.01277512 -0.0051365439 4281831989
0.00083969533 -0.013523093 -0.0046188971 4281374264
0.0028964579 -0.014270826 -0.0041015241 4281570614
0.004958488 -0.015018379 -0.0035843956 4282092344
0.0066910237 -0.014176028 -0.0043557975 4282093364
0.0085880533 -0.014128466 -0.0044827927 4282353464
0.010484926 -0.014080837 -0.004609724 4281962039
0.012206085 -0.013238504 -0.0053800927 4281637169
0.013921633 -0.012396237 -0.0061500315 4280983603
0.015993513 -0.013142945 -0.0056331917 4281178933
0.017886974 -0.013095045 -0.0057596304 4280982583
0.019780234 -0.013047091 -0.0058860108 4280981819
0.022240683 -0.015381838 -0.0040843831 4281371968
0.025676399 -0.021687051 0.00092842709 4281699134
0.022569448 -0.018499075 -0.0039291847 4284508214
0.003997907 0.04469439 0.022081211 4278791368
-0.0019554645 0.044513974 0.0199604 4278465733
-0.00090438128 0.048196364 0.016362049 4279317944
0.00044742227 0.050423641 0.014154556 4279776179
0.002283074 0.05046897 0.01403116 4278988229
0.0071594566 0.045470368 0.018642146 4278792644
0.0090135112 0.045516398 0.018517695 4279514803
0.010689631 0.046289485 0.01769973 4278990524
0.012540519 0.046335604 0.01757561 4278858688
0.014574304 0.045654964 0.018144805 4278726853
0.016055696 0.047154788 0.016634591 4278660809
0.017525993 0.048654366 0.015125222 4278593999
-0.0024775565 0.045209866 0.016776957 4278267343
0.00023733824 0.049677756 0.012370978 4279053763
0.0020701513 0.049723055 0.012247798 4279776179
0.0060795099 0.048355382 0.013386271 4278858433
0.0077422336 0.049130242 0.012570837 4279055293
0.0099321455 0.047717635 0.013831696 4278924479
0.011952385 0.047034483 0.014400105 4279186619
0.015265331 0.048584472 0.012770432 4278528974
0.016724788 0.050088193 0.011265068 4280564128
0.01836434 0.050862934 0.010451525 4279776689
0.020967953 0.047994051 0.013092711 4279317944
-0.0028407723 0.045187335 0.014295067 4279382458
0.005688794 0.048341092 0.010912851 4278793154
0.0075208768 0.048386659 0.010789924 4278793408
0.0097078308 0.046969693 0.012047733 4278727874
0.01172518 0.046284277 0.012614786 4278924479
-0.0032037497 0.04517388 0.011819812 4279250879
-0.0023321956 0.049622606 0.0075573064 4279317178
-0.00067414343 0.050401438 0.0067452211 4279317434
0.0013114437 0.049712691 0.0073124506 4279317434
0.0031329468 0.049757864 0.0071901418 4279383479
0.0051262826 0.049069483 0.0077569708 4279054783
0.0069500953 0.049114879 0.0076346397 4278793919
0.0091286451 0.047693331 0.0088898372 4279384499
0.011137657 0.04700559 0.0094558056 4278990269
0.012786031 0.047784779 0.0086448099 4278661318
0.014428727 0.048563939 0.0078342035 4279185854
0.019710392 0.049434733 0.0067803636 4278792133
0.022908047 0.044349547 0.011470719 4278728894
-0.0032497793 0.04369707 0.010727997 4278792899
-0.0025390014 0.048895057 0.0057870504 4279382204
-0.0007199049 0.048940022 0.0056647975 4279250623
0.001098983 0.04898506 0.0055426117 4279711409
0.0029176548 0.049030196 0.005420519 4279580338
0.0049080998 0.048339594 0.0059859566 4279316923
0.0069037676 0.047649208 0.0065511018 4278859964
0.0087272525 0.047694702 0.0064288713 4278859963
0.010730647 0.047004681 0.006993629 4279056824
0.0121907 0.048521485 0.0054979138 4278727619
0.014196374 0.047831666 0.0060626268 4279316923
0.015830651 0.048612881 0.0052543394 4279579064
0.017459258 0.049394008 0.0044464786 4279447739
0.019275941 0.049439814 0.0043250564 4279252664
0.021878183 0.046544861 0.0069470163 4278728128
-0.0032958165 0.042220559 0.00963639 4279316923
-0.002745688 0.048172127 0.0040202122 4278923458
0.0023640916 0.049783345 0.0022822581 4278461398
0.0043461919 0.049090374 0.0028466471 4278923204
0.0061589032 0.049135562 0.0027251057 4279383734
0.0083261058 0.047705051 0.0039746184 4278728639
0.010143831 0.047750529 0.0038528573 4278924988
0.011961326 0.047796067 0.0037311707 4278924988
0.0135931 0.048579361 0.0029246416 4279316923
0.021045372 0.048024904 0.0031238552 4278793153
-0.0035001263 0.041484822 0.0078598456 4279316924
-0.00327418 0.048934814 0.00088687241 4279054784
0.0059382543 0.048419248 0.00096436962 4279449013
0.0079251975 0.047724422 0.0015269704 4278859453
0.0099173859 0.047029775 0.0020893267 4278793663
0.011732072 0.047075283 0.0019678525 4278268364
0.013361074 0.047860753 0.0011631064 4279120063
0.024207622 0.041433793 0.006699807 4278726854
-0.0037043169 0.040753711 0.0060867229 4279579574
-0.0016753674 0.048270237 -0.00099112466 4279317944
-3.6738813e-05 0.049057532 -0.0017952677 4280104109
0.0017652884 0.049102325 -0.0019161869 4279513529
0.0033953264 0.049889643 -0.0027196538 4278398669
0.0053687319 0.049192186 -0.002157772 4279054784
0.0073473454 0.048494991 -0.0015962161 4278923458
0.0091512501 0.048540194 -0.0017170012 4278923458
0.010954961 0.048585448 -0.0018377192 4278660043
0.012573063 0.049372826 -0.002640048 4278266834
0.014185503 0.050160181 -0.0034419838 4279841714
0.016173907 0.049463596 -0.0028807428 4279710388
0.023563102 0.042183276 0.003566674 4279710898
0.033552416 0.019287765 0.024416398 4280693159
-0.0040664747 0.040772211 0.0036351094 4279645619
-0.00058107078 0.049844433 -0.0049092826 4278791114
0.0013816431 0.049144413 -0.004348455 4278660809
0.0046251565 0.050723035 -0.0059508737 4279054784
0.0064155832 0.050767835 -0.006070802 4279251389
0.0083856434 0.05006836 -0.0055102054 4278857924
0.010360941 0.049369086 -0.0049499068 4278791114
0.013951175 0.049459491 -0.005189959 4278922439
0.01593668 0.048760708 -0.0046301745 4280038828
0.018120892 0.047318082 -0.0033910929 4279841969
0.020119533 0.046619799 -0.0028320628 4278660299
0.022720076 0.043690052 -0.00023577409 4278726089
0.026753403 0.035554234 0.007112083 4280103599
0.031459287 0.025188755 0.016492493 4279906483
-0.0039543435 0.038558353 0.0032310812 4278400199
-0.0038928688 0.046820927 -0.0043730941 4278922693
0.0040564686 0.051524941 -0.0090516675 4278922948
0.0060156882 0.050822947 -0.0084920116 4278923714
0.0081599504 0.049374577 -0.0072537884 4278989503
0.010132357 0.048673104 -0.0066948775 4278856394
0.021877572 0.045214545 -0.0040251263 4279186108
0.025496088 0.038546409 0.0019509634 4279448248
0.030184597 0.028149951 0.011309865 4281281698
0.034121029 0.020738944 0.017955691 4281216164
-0.003684409 0.035591189 0.0035026679 4280498084
-0.0034561753 0.043128703 -0.0034055642 4279644344
-0.0019754246 0.044671807 -0.0048835301 4279710389
-0.00033964962 0.045465712 -0.0056826011 4279646129
0.0014593229 0.045510497 -0.005803267 4279711663
0.0029149875 0.047053259 -0.0072793476 4279447483
0.0043595582 0.048595849 -0.0087546706 4279185088
0.0063240677 0.047891799 -0.0081969239 4279186109
0.008653231 0.045690548 -0.0062850905 4278990013
0.010816082 0.0442384 -0.0050512557 4279120063
0.012434117 0.045032393 -0.0058486708 4279381948
0.013858594 0.046574902 -0.0073223431 4279580339
0.0156532 0.046620261 -0.0074422099 4278726853
0.017447568 0.046665695 -0.0075619984 4278792643
0.019241698 0.046711188 -0.0076817293 4279054784
0.021035619 0.046756756 -0.0078013781 4278924224
0.024844013 0.03932054 -0.0011633122 4278922948
0.029319085 0.029641423 0.0074979821 4280365229
-0.0030990243 0.031112563 0.0051221084 4281288074
-0.0025381222 0.03716946 -0.00041691866 4279450799
-0.00104101 0.038717363 -0.0018927259 4278795449
0.00044499338 0.040265117 -0.0033677658 4278532033
0.0020887107 0.041061465 -0.0041656317 4278728893
0.0037267953 0.041857745 -0.0049630636 4278399943
0.0053592101 0.042654004 -0.0057600257 4278990268
0.0073398575 0.04194824 -0.0052050059 4278926008
0.0093257353 0.04124267 -0.0046502827 4278794173
0.011134468 0.041288178 -0.0047712447 4278728128
0.012943 0.041333761 -0.0048921397 4278924989
0.014375709 0.042880815 -0.006363072 4278990523
0.015987836 0.043677028 -0.0071583283 4279515313
0.017980792 0.042972069 -0.006603763 4279449779
0.01978299 0.043017801 -0.0067240004 4279384498
0.02158498 0.043063592 -0.006844182 4279319219
0.024796523 0.037856888 -0.0022452427 4279646129
0.028862372 0.029649969 0.00504715 4280432039
-0.0026719943 0.027370397 0.0060534142 4281158534
-0.0017814487 0.031937838 0.0018772879 4279647659
-0.00010745227 0.032736942 0.0010788799 4279122869
0.0015609041 0.033536028 0.00028093951 4279123634
0.0032236204 0.034335043 -0.00051656691 4279058608
0.0048806965 0.035134066 -0.0013136654 4278861493
0.0065321326 0.035932999 -0.0021102757 4278664634
0.0083547905 0.035978701 -0.0022322845 4278664889
0.010356806 0.035271395 -0.0016802319 4278861748
0.011999473 0.036070365 -0.0024760638 4278860983
0.01400651 0.035363343 -0.0019242309 4278860983
0.015455574 0.036915202 -0.0033929918 4278859709
0.017274439 0.036961231 -0.0035144363 4278926008
0.019093089 0.037007328 -0.0036358137 4279255469
0.020911515 0.037053492 -0.0037571241 4278992818
0.022729732 0.037099715 -0.0038783655 4279712683
0.025755659 0.032630716 3.5683159e-05 4279908524
0.029630169 0.02515262 0.0066370964 4281350038
-0.0091809221 -0.0099821985 0.037557915 4280700298
-0.0071980916 -0.009933807 0.037424196 4281356159
-0.0027186424 0.025882877 0.0049536955 4280369309
-0.001506865 0.028951891 0.0021346118 4279582634
0.00033571571 0.028997656 0.0020109415 4279451819
0.0023439974 0.028287902 0.0025606398 4279516844
0.0038516447 0.029845025 0.0010907706 4279254449
0.0056909174 0.029890988 0.00096753053 4279254449
0.0073559135 0.030692499 0.00017160363 4279319983
0.0090152696 0.031493906 -0.0006238441 4278992309
0.0108485 0.031539984 -0.00074648065 4278795449
0.012499295 0.032341357 -0.0015412269 4279122869
0.014144421 0.033142667 -0.0023355293 4278794939
0.016159229 0.032433767 -0.0017857512 4279516844
0.017988883 0.032480087 -0.0019079016 4279319983
0.020011418 0.031771548 -0.0013585235 4280040868
0.02164752 0.032572929 -0.0021519992 4280303008
0.023873575 0.031109873 -0.00093174167 4280106403
0.026714072 0.027382929 0.0023006387 4280826778
-0.017800782 -0.0079710037 0.033546891 4280897413
-0.0099229366 -0.0077797808 0.033014853 4278733738
-0.0080951974 -0.0069733057 0.032208759 4278734759
-0.0059849471 -0.007683523 0.032749392 4278538409
-0.0029145256 0.016010854 0.011375126 4282135439
-0.0030806512 0.025911685 0.0025097169 4279450798
-0.0015533715 0.02747339 0.0010415707 4279385774
0.00061532855 0.026003435 0.0022616163 4279713959
0.0026288778 0.025291648 0.0028093569 4279713959
0.0043105483 0.026095547 0.0020138491 4280041889
0.0059865862 0.02689939 0.0012187827 4279451308
0.0078309849 0.026945613 0.0010952968 4279647659
0.0094984695 0.02774943 0.00030094385 4279647659
0.011519194 0.027038265 0.000848528 4279254449
0.012998663 0.028599497 -0.00061587803 4279123123
0.014836803 0.028645892 -0.00073870271 4279385774
0.01667472 0.028692361 -0.00086144917 4279516844
0.018512435 0.028738897 -0.00098412856 4279582378
0.020349935 0.028785516 -0.0011067316 4279450799
0.022187188 0.028832216 -0.0012292527 4279844518
0.024421178 0.027365007 -1.2755394e-05 4280040613
0.027269363 0.023627378 0.0032110391 4280302499
0.030348383 0.01913365 0.0071022036 4281220243
-0.018231787 -0.0072670132 0.030361667 4280963968
-0.016270418 -0.0072195604 0.030229088 4279913878
-0.014176108 -0.0079327933 0.030768845 4279913878
-0.012212303 -0.0078850575 0.030636266 4279192228
-0.0084264204 -0.0070286691 0.029699694 4278800039
-0.0064658225 -0.0069806613 0.029567596 4278669223
-0.0022462159 -0.0084051806 0.030645978 4283059049
-0.0031167045 0.0152601 0.0095872516 4282594693
-0.0032847971 0.025189247 0.00074302917 4279385264
-0.0017602071 0.026755285 -0.00072167255 4279713449
0.00056855381 0.02452084 0.0011655684 4279451308
0.0027476922 0.023046859 0.0023818067 4279582634
0.0044320375 0.023853082 0.001587722 4279648168
0.0059395358 0.025419042 0.00012442237 4279779493
0.0077838376 0.025465254 9.3644485e-07 4279845028
0.0094512776 0.026271284 -0.00079177134 4279778983
0.01129245 0.026317593 -0.00091491826 4279647659
0.013133414 0.026363987 -0.0010379814 4279582634
0.014974177 0.026410479 -0.0011609588 4279385774
0.016814716 0.026457042 -0.001283858 4279516844
0.018464804 0.027263027 -0.0020751171 4279516844
0.020688117 0.025791068 -0.00086123543 4279648168
0.022335052 0.026597135 -0.001652159 4279451308
0.024571508 0.025125664 -0.00043903897 4279844263
0.027421959 0.021377187 0.0027765185 4280630684
0.030503221 0.01687042 0.0066578863 4281547918
-0.016579032 -0.0072654709 0.027725179 4278666419
-0.0146234 -0.0072180256 0.027593087 4278534073
-0.0087573938 -0.007075049 0.02719735 4278734758
-0.0068023652 -0.007027179 0.027065624 4278668714
-0.0028928071 -0.0069311038 0.026802465 4281752938
-0.0028586537 0.021421913 0.0016557327 4280368289
-0.0014861524 0.023754865 -0.0004751184 4279582634
0.00068476051 0.022276271 0.00073832786 4279648933
0.0027006492 0.021560155 0.0012827306 4279386794
0.0045533702 0.021606438 0.001158576 4279714724
0.0060636327 0.02317689 -0.00030170055 4280172193
0.007736668 0.023985166 -0.0010932204 4280172193
0.0094040707 0.024793375 -0.0018843098 4280303263
0.011424437 0.024077892 -0.001339898 4280237983
0.013450034 0.023362607 -0.00079578208 4280107169
0.015480869 0.022647552 -0.00025194557 4279713959
0.017329462 0.022694338 -0.00037537189 4279779493
0.018797494 0.024264302 -0.0018323273 4279582634
0.020640239 0.024311073 -0.0019552619 4279779493
0.022482745 0.024357934 -0.0020781108 4279778983
0.024721704 0.022882164 -0.00086839171 4279712428
0.027775489 0.018361568 0.0030050669 4280826778
-0.018837579 -0.0073494967 0.025359724 4281818729
-0.016887393 -0.0073022973 0.025227912 4279191464
-0.015070315 -0.0064898226 0.024427187 4278862004
-0.012987457 -0.007207552 0.024964586 4278667438
-0.01089929 -0.0079250541 0.025501702 4278996898
-0.0092292316 -0.0063474085 0.02403317 4278537898
-0.0072825179 -0.0062997248 0.023902014 4278800039
-0.0033895597 -0.0062040407 0.023639984 4281425008
-0.0022754595 0.016877186 0.0032263221 4280958103
-0.00089200586 0.019216973 0.0010996023 4280630683
0.0011266172 0.018498722 0.001642108 4280303263
0.0031504929 0.01778068 0.0021843258 4280237984
0.0048429072 0.01859146 0.0013930015 4280369309
0.0063586384 0.020166393 -6.4342283e-05 4280304029
0.0080370754 0.020977028 -0.00085464725 4280237984
0.0095333681 0.022551663 -0.0023105484 4279909799
0.011735491 0.021070067 -0.0011020028 4280237983
0.013766371 0.020352699 -0.00055981334 4280106404
0.015617795 0.020399489 -0.00068347808 4280171938
0.017469011 0.020446334 -0.00080708507 4279713958
0.01912991 0.021257065 -0.0015958201 4279387303
0.020977974 0.021304008 -0.0017190843 4279583909
0.02282583 0.021351017 -0.0018422834 4280106149
0.025268249 0.019107465 2.8550625e-05 4280236709
0.027726732 0.016864415 0.0018983819 4281416084
-0.019140087 -0.0073772538 0.022868764 4282210663
-0.017065313 -0.0080975834 0.023404926 4279520669
-0.015118137 -0.0080503244 0.02327342 4278865573
-0.013171099 -0.0080029573 0.023142003 4278932129
-0.01136256 -0.0071882661 0.022343647 4278801314
-0.009700682 -0.0056064259 0.020878851 4278604199
-0.0077622719 -0.005558921 0.020748273 4278342314
-0.0055309758 -0.0070453901 0.021950785 4279001234
-0.0037366748 -0.0062305927 0.021153729 4280246144
0.021315433 0.018288389 -0.0014891578 4282662269
0.023168623 0.018335555 -0.0016126977 4282923388
-0.017243113 -0.0088882018 0.02158539 4279454879
-0.015298799 -0.0088410024 0.021454081 4278860984
-0.013354626 -0.0087937023 0.021322861 4279322789
-0.011410598 -0.008746272 0.02119175 4278997408
-0.010030724 -0.0056214146 0.018399719 4278866848
-0.0061652064 -0.0055265743 0.018139407 4279197583
-0.003934361 -0.0070172306 0.019338775 4279722629
-0.019616995 -0.0081775095 0.018571347 4280831369
-0.012011494 -0.0072176773 0.017384775 4278992819
-0.01036052 -0.0056273583 0.015927203 4278604453
-0.0062133968 -0.0070755593 0.016994216 4278608023
-0.0039828122 -0.0085705798 0.018190373 4279722118
-0.02004604 -0.0074063465 0.015435793 4281359473
-0.01772828 -0.0096815359 0.017293818 4280045204
-0.015792426 -0.0096345302 0.01716309 4279324574
-0.013856709 -0.0095874071 0.017032459 4278733483
-0.012059264 -0.0087664351 0.016239718 4278405554
-0.010549162 -0.0063980632 0.014123372 4278407084
-0.008624766 -0.006350873 0.01399376 4278604198
-0.0065542161 -0.0070771314 0.014525888 4278868634
-0.0043293387 -0.0085766856 0.015719239 4280115584
-0.018035516 -0.0096799405 0.014825041 4280306323
-0.016105253 -0.0096330503 0.014694707 4279914388
-0.014039766 -0.010362044 0.015225236 4279193758
-0.010596879 -0.0079399627 0.012983399 4278603434
-0.0088161416 -0.0071169864 0.012193571 4278538409
-0.0067485049 -0.0078455005 0.012724272 4279065749
-0.018342502 -0.0096692797 0.012362893 4280303774
-0.016285263 -0.010400783 0.012892266 4278338234
-0.010785326 -0.0087035764 0.011184813 4278603178
-0.0090073757 -0.007878473 0.010396802 4278931364
-0.00708884 -0.0078313071 0.01026767 4278410144
-0.005170472 -0.0077840406 0.010138632 4279263118
-0.018389657 -0.011210676 0.011223246 4281618044
-0.016597617 -0.010383504 0.010435564 4280174999
-0.014540717 -0.011117075 0.010963432 4280240279
-0.012754384 -0.010289803 0.01017631 4279454624
-0.010832977 -0.010242779 0.010046832 4278799783
-0.0090550967 -0.0094154971 0.0092604421 4278996643
-0.0053672865 -0.0085410345 0.0083456747 4279459978
-0.008959502 -0.011734607 0.0087796599 4283252594
-0.0070385188 -0.011687363 0.0086503793 4281946993
-0.048398241 0.0043068752 0.029048506 4285622563
-0.046641622 0.0058624856 0.02755614 4285950493
-0.044433881 0.0036418252 0.029464036 4286015774
-0.030642238 0.0024519712 0.029897682 4285753124
-0.028698776 0.0024982505 0.029765766 4285949729
-0.050631609 0.0049836617 0.025997277 4285492769
-0.049225282 0.009573549 0.02179376 4285820188
-0.047403596 0.010375455 0.020984795 4285949983
-0.045402721 0.0096625686 0.0215328 4286147099
-0.043016128 0.005920535 0.024792816 4286082074
-0.041091371 0.0059656631 0.024661642 4285493024
-0.039066151 0.0052536968 0.025208253 4285427744
-0.037138816 0.005299123 0.025077078 4285493024
-0.035105586 0.0045875926 0.025623325 4285558303
-0.033501823 0.0069043413 0.023460738 4285754144
-0.031691641 0.0077069439 0.022653282 4286081819
-0.029772859 0.0077526532 0.022523049 4286016029
-0.027386647 0.0047711898 0.025099222 4286016284
-0.025217958 0.0033038426 0.026321281 4285622563
-0.022426818 -0.0019465759 0.030923747 4285229353
-0.019597642 -0.0071960017 0.035523765 4284900914
-0.052603818 0.0033948142 0.024987102 4285164074
-0.05109676 0.0072382912 0.021469269 4285820954
-0.049443331 0.0095617957 0.019307446 4285557283
-0.047627188 0.010365803 0.01850044 4285425703
-0.045631975 0.0096505471 0.019047249 4285557284
-0.043536354 0.0081760846 0.020270202 4285754908
-0.041527633 0.0074614361 0.020816233 4285623839
-0.039513536 0.0067470297 0.021361981 4285558559
-0.03759725 0.0067922138 0.021231573 4285623839
-0.035681054 0.0068375133 0.021101266 4285754909
-0.033873595 0.0076421015 0.020295508 4285885724
-0.03218304 0.0092058368 0.018814895 4285557029
-0.0302753 0.0092512816 0.018685415 4285622564
-0.028134033 0.0077788457 0.01990597 4285819933
-0.025862426 0.0055478029 0.021800693 4285623584
-0.023330051 0.001799522 0.025043603 4285229864
-0.052810907 0.003374856 0.022493765 4285098283
-0.051225089 0.0064671859 0.019659977 4285886998
-0.04948758 0.0080352873 0.018178593 4286017559
-0.047671527 0.0088414773 0.017373219 4285885979
-0.04586098 0.0096476227 0.016568352 4286017558
-0.043771081 0.0081686229 0.0177885 4286018069
-0.041865706 0.0082133077 0.017658658 4285623839
-0.039759599 0.0067349672 0.018877834 4285558558
-0.03784892 0.0067800134 0.018747807 4285623839
-0.036150023 0.0083480589 0.017269686 4285886489
-0.034353543 0.0091546513 0.016466279 4286083604
-0.03256261 0.0099611729 0.01566337 4285885469
-0.030549169 0.0092451945 0.016208012 4285819934
-0.02853037 0.0085293837 0.016752392 4285951769
