# .PCD v0.7 - Point Cloud Data file format
VERSION 0.7
FIELDS x y z rgba
SIZE 4 4 4 4
TYPE F F F U
COUNT 1 1 1 1
WIDTH 965
HEIGHT 1
VIEWPOINT 0 0 0 1 0 0 0
POINTS 965
DATA ascii
-0.018315554 -0.025135465 0.055218063 4289081128
-0.016408615 -0.024334146 0.054417148 4289539109
-0.014507245 -0.023532823 0.053616669 4290258719
-0.012056448 -0.026519369 0.056200255 4290324764
-0.010721203 -0.021930147 0.052016947 4290520858
-0.018770438 -0.023706635 0.051322129 4289277479
-0.016769022 -0.023663238 0.051198963 4289408804
-0.014767703 -0.023619721 0.051075894 4289735713
-0.012100868 -0.028134661 0.055003632 4289277989
-0.011447404 -0.018974125 0.046780337 4289866784
-0.020715445 -0.026114 0.050932799 4289145133
-0.01912215 -0.02302216 0.04811335 4289015849
-0.01712906 -0.022978934 0.047990702 4290716698
-0.015027922 -0.023697618 0.048541863 4291044373
-0.012477927 -0.027463833 0.051786751 4290978838
-0.012172889 -0.015991598 0.041563358 4289539618
-0.021058701 -0.025424734 0.047726996 4288819498
-0.019473501 -0.022324339 0.044914529 4289278499
-0.017383385 -0.023045512 0.045464624 4290324253
-0.015287913 -0.023766467 0.046014465 4290259484
-0.012743823 -0.02754369 0.049251631 4290455834
-0.01278412 -0.013746617 0.037037663 4289539873
-0.021201905 -0.02625511 0.045872938 4288883759
-0.019619342 -0.023146074 0.043067168 4289735714
-0.017637469 -0.023103077 0.042945225 4289212453
-0.015655696 -0.023059964 0.042823371 4288820008
-0.013341758 -0.025315627 0.044712409 4289278244
-0.013054293 -0.013778334 0.034538716 4290259739
-0.021444779 -0.026312158 0.043353051 4289080364
-0.019765075 -0.023963125 0.041223206 4290324509
-0.017996576 -0.022382982 0.03976348 4290324764
-0.016131103 -0.021571498 0.038973335 4290194204
-0.013828397 -0.02383394 0.040858209 4290390554
-0.013551086 -0.01226416 0.030709445 4290390554
-0.021687414 -0.026360177 0.040839855 4289081128
-0.020013142 -0.024004713 0.03871521 4289277478
-0.018355317 -0.021649506 0.036591653 4290324764
-0.016498119 -0.020836003 0.03580365 4291175445
-0.014203917 -0.023105197 0.037684239 4290914069
-0.013707303 -0.013044102 0.02889394 4289409058
-0.02371205 -0.027988117 0.039787594 4288752433
-0.022129174 -0.02485298 0.037001122 4289276714
-0.02046578 -0.02249122 0.034882002 4289408293
-0.018608574 -0.021675657 0.034095526 4289212453
-0.016541217 -0.022405889 0.034640655 4289670944
-0.014136773 -0.025454465 0.037181828 4289605409
-0.013636794 -0.015364958 0.028412379 4288951078
-0.023948736 -0.0280223 0.037284136 4289931808
-0.022470843 -0.02410331 0.033839997 4289343524
-0.020713255 -0.022510421 0.032390587 4290389533
-0.018966671 -0.020917621 0.030941896 4290717208
-0.016799904 -0.022425339 0.032149933 4290390554
-0.014290776 -0.026257787 0.035348784 4289539873
-0.01367965 -0.016914945 0.027264152 4289082404
-0.013840839 0.0095152445 0.0044741547 4289865764
-0.012846395 0.014979538 -0.00028080912 4289276458
-0.011393625 0.017344136 -0.0023813923 4289013554
-0.0097036101 0.018159173 -0.0031553512 4287900989
-0.024185177 -0.028047524 0.034787398 4289341483
-0.022712596 -0.024117764 0.031351667 4289277734
-0.020960495 -0.0225206 0.029905785 4291305749
-0.019114383 -0.021700902 0.029123247 4290782744
-0.016735144 -0.024767572 0.031652935 4291044374
-0.014555126 -0.026279181 0.032856978 4290259484
-0.014062066 -0.016133169 0.024130046 4289474594
-0.013644673 0.0064856075 0.004704433 4289408294
-0.012644488 0.011965256 -3.9496459e-05 4289277224
-0.011186223 0.014336534 -0.0021356181 4289342249
-0.0096176304 0.015930682 -0.0035694134 4289537578
-0.0075419582 0.014417585 -0.0023583756 4289014574
-0.0055877641 0.013681538 -0.0018087765 4288229939
-0.0036282688 0.012945723 -0.0012594173 4289079853
-0.024518151 -0.027284048 0.031635854 4288754219
-0.023053609 -0.023343557 0.028208721 4289473828
-0.021207497 -0.022521801 0.027427714 4289409059
-0.019366924 -0.021700051 0.026647128 4289081383
-0.017101206 -0.02399607 0.028509926 4289736224
-0.015040029 -0.024732854 0.029050671 4289736224
-0.014783479 -0.013000088 0.019024607 4289540129
-0.013804454 0.0057851188 0.0029482325 4289146663
-0.01244282 0.0089425333 0.00019548903 4288884778
-0.010979071 0.01132049 -0.0018960936 4290454813
-0.0092783049 0.012140092 -0.0026674205 4290389024
-0.0074536428 0.012180734 -0.0027789073 4290585118
-0.0054969266 0.011442576 -0.0022310736 4289800484
-0.0035348833 0.010704584 -0.0016834531 4290062369
-0.0017051846 0.010745656 -0.0017950144 4289930789
-1.5981495e-05 0.011565588 -0.0025652694 4289865254
0.0015245453 0.013164114 -0.0039936369 4289668648
0.0030540489 0.014762472 -0.0054212725 4289276713
0.0045724846 0.016360741 -0.0068481853 4289277989
0.0063823797 0.016401883 -0.0069581578 4288688938
0.0080381595 0.017221488 -0.0077259857 4288884014
0.010001678 0.016484413 -0.0071778754 4289864489
0.012608137 0.012634348 -0.0039996682 4288423228
-0.024947483 -0.02572534 0.027834427 4289146919
-0.023394264 -0.022555988 0.025075674 4290128669
-0.021454256 -0.022513974 0.024956252 4290063389
-0.019619226 -0.021690164 0.02417763 4289735713
-0.017144058 -0.02555613 0.027354214 4290062879
-0.015414111 -0.023950377 0.025916509 4291044628
-0.015229244 0.0011413731 0.0046016239 4288493098
-0.014201138 0.0066520572 -0.00012149243 4289211943
-0.012726333 0.009036649 -0.0022089342 4289211688
-0.011020072 0.009858489 -0.002979097 4289146409
-0.0091926977 0.0098990798 -0.0030908324 4288688428
-0.0073654503 0.0099397749 -0.0032024821 4289800739
-0.0055383295 0.009980578 -0.0033140425 4290062369
-0.0037113428 0.010021482 -0.0034255153 4289604133
-0.0018844903 0.01006249 -0.0035368996 4289538854
-5.7779253e-05 0.010103617 -0.003648187 4289407783
0.0014827512 0.011706486 -0.0050733276 4289734949
0.0033037178 0.011747677 -0.0051841242 4289211178
0.004827626 0.013350364 -0.0066081034 4290651164
0.0067940168 0.012610998 -0.00606192 4289996323
0.0084578879 0.013432983 -0.0068286108 4290258208
0.010586042 0.011913378 -0.0056264801 4289276713
0.013202924 0.0080526732 -0.0024569849 4289014829
0.017143387 -0.0020506121 0.0059574395 4288293688
0.020660039 -0.0098111015 0.012400722 4288424504
-0.026846694 -0.028111221 0.027457502 4287640633
-0.025279686 -0.024933029 0.024704322 4289277989
-0.023635175 -0.022539105 0.022610564 4290128413
-0.021700773 -0.022497207 0.022491489 4290782999
-0.019766457 -0.022455204 0.022372495 4290847768
-0.017294466 -0.02633211 0.025541201 4290978583
-0.01567756 -0.023938291 0.02344951 4289670943
-0.015501957 0.0012229346 0.0021869587 4288362539
-0.014479004 0.0067486949 -0.0025244835 4289473318
-0.012888439 0.0083562396 -0.003950105 4290323999
-0.01130886 0.009963613 -0.0053749345 4289669669
-0.0094870739 0.010004088 -0.0054863235 4289473574
-0.0077947453 0.010827973 -0.0062538069 4289342503
-0.0058438592 0.010085341 -0.0057088463 4290062113
-0.0041572414 0.010909326 -0.0064758146 4289800739
-0.0020636655 0.0093838908 -0.0052753314 4289604389
-0.00023980811 0.0094249472 -0.0053864503 4289539109
0.0015839115 0.0094660856 -0.0054974975 4289735203
0.0034074709 0.0095073469 -0.0056084348 4289473573
0.0050824918 0.010331575 -0.0063743275 4289866274
0.0069030412 0.010372948 -0.0064849546 4290062624
0.0085695721 0.011197187 -0.0072501721 4290455069
0.010230508 0.012021396 -0.0080149816 4290062623
0.01300082 0.007367041 -0.0041988594 4288819244
0.016775604 -0.001982037 0.0035405827 4288884013
0.020780224 -0.012112008 0.011930124 4288622383
-0.027170442 -0.027314082 0.024330329 4288098358
-0.025514934 -0.024913529 0.022240639 4289146919
-0.023875851 -0.022513198 0.020152062 4289866784
-0.021845002 -0.023257568 0.020689599 4289801248
-0.019808795 -0.024001651 0.021226861 4290651929
-0.017337255 -0.027889442 0.024387516 4290455578
-0.016050968 -0.023131344 0.020333476 4289932573
-0.015890073 0.0020992346 -0.00087640807 4288885033
-0.014756627 0.0068543591 -0.004920858 4289408038
-0.013292629 0.0092517808 -0.006997929 4290454814
-0.011597406 0.010077711 -0.0077641197 4290454558
-0.0097812004 0.010118049 -0.007875178 4290520093
-0.0079651102 0.010158516 -0.0079861311 4290454558
-0.0062811524 0.010984551 -0.0087514445 4290520093
-0.0043333098 0.010239739 -0.0082077915 4289669668
-0.0023801662 0.0094951876 -0.0076644281 4289538853
-0.00042170286 0.0087508708 -0.0071213087 4289473574
0.0012562722 0.0095771514 -0.0078858975 4290193184
0.0030742697 0.0096182711 -0.0079965163 4290520093
0.0045954362 0.011229675 -0.0094138859 4289146664
0.0067098178 0.0097008124 -0.0082174875 4289081128
0.0083735846 0.010527164 -0.0089809252 4289081128
0.01034474 0.009783715 -0.008438142 4289277479
0.013117258 0.0051163547 -0.0046318546 4288819498
0.01689389 -0.0042587928 0.0030880752 4288426799
0.020570975 -0.012847615 0.010151675 4288361263
-0.027400026 -0.027292011 0.021868117 4288817713
-0.025653403 -0.025673483 0.020438608 4289016104
-0.023818497 -0.024843369 0.019664679 4289277989
-0.021989118 -0.024013225 0.018891126 4289736224
-0.019851133 -0.025547821 0.020081431 4289474594
-0.017702352 -0.027082004 0.021271128 4289866783
-0.016534179 -0.021522913 0.016573176 4289801759
-0.016162232 0.0022009052 -0.0032761749 4288950568
-0.015034001 0.0069689564 -0.007310546 4289604644
-0.013454352 0.0085849129 -0.0087289959 4289473318
-0.01176193 0.0094130039 -0.0094934423 4290193184
-0.0099485852 0.0094532929 -0.0096043125 4290323999
-0.0081353486 0.0094936751 -0.0097151063 4290192928
-0.006322246 0.0095341876 -0.009825794 4289342503
-0.0045092627 0.0095747933 -0.0099364016 4289211944
-0.0026964098 0.0096154921 -0.010046932 4289015593
-0.00074357912 0.0088688172 -0.0095050475 4289080873
0.00092887506 0.0096972138 -0.010267715 4289538853
0.0027413107 0.0097382031 -0.010377996 4290847259
0.0042570531 0.011353787 -0.011791761 4290585629
0.0060637482 0.011394851 -0.011901542 4290193184
0.0081777014 0.009861771 -0.01070832 4289996833
0.010615278 0.0067548715 -0.0082130497 4290520093
0.014029358 -0.001073461 -0.0018122075 4290193184
0.017335799 -0.0081135295 0.0039344486 4289015849
0.020526443 -0.014365502 0.0090274289 4288623148
-0.027723113 -0.026470402 0.01875907 4288425779
-0.025888234 -0.025638208 0.017986614 4289147428
-0.023959666 -0.025596561 0.017867805 4290520858
-0.022133105 -0.024764333 0.017096093 4291175699
-0.019893464 -0.027093729 0.018936193 4290913813
-0.017959695 -0.027051605 0.018817335 4290063644
-0.017237101 -0.01831628 0.011520946 4289344289
-0.017251454 -0.0048407689 0.0003142436 4288558888
-0.016665228 0.0038918369 -0.0069736466 4288754218
-0.015311122 0.0070924796 -0.0096936161 4289081129
-0.013857938 0.0095027499 -0.011760372 4288884779
-0.011926334 0.0087528564 -0.011219312 4289146153
-0.01011584 0.0087930746 -0.011330013 4288557613
-0.0080471374 0.0072536506 -0.010137913 4289408038
-0.0064952075 0.008873824 -0.011551156 4289408038
-0.0045504756 0.0081246421 -0.011010583 4289342759
-0.0028750747 0.008955013 -0.011771939 4289538853
-0.0009251684 0.0082061626 -0.011231519 4289277224
0.00088728219 0.0082470551 -0.011341873 4289146663
0.0025541075 0.0090775378 -0.01210248 4290258463
0.0040671267 0.01069741 -0.013512847 4290651164
0.0058709718 0.010738414 -0.013622451 4290651164
0.0079819672 0.0092009157 -0.01243228 4290454558
0.010885563 0.0037174821 -0.0079942141 4290323999
0.014304336 -0.0041325055 -0.0016098227 4289211944
0.017615531 -0.011192035 0.0041220048 4289015594
0.020152871 -0.014305087 0.0066049574 4288230194
-0.029605065 -0.028848186 0.018386822 4286790719
-0.028045848 -0.025635401 0.015659874 4288491313
-0.02621923 -0.024801269 0.014889572 4289081383
-0.024199847 -0.025552493 0.015422834 4290913814
-0.02227696 -0.025510831 0.015304475 4290128924
-0.020144969 -0.027054213 0.016488643 4290717719
-0.018431433 -0.025427191 0.015068015 4290259994
-0.017829258 -0.015875645 0.00713913 4289605664
-0.01763083 -0.0039482638 -0.0027378337 4287970348
-0.017052248 0.0048080795 -0.010007421 4289408294
-0.015588012 0.007225018 -0.012070085 4289146409
-0.014019288 0.0088494383 -0.013481402 4289800483
-0.012214255 0.0088894367 -0.013591844 4289996833
-0.010409337 0.0089295283 -0.013702207 4289996833
-0.0082172453 0.0065936632 -0.011863296 4289277223
-0.0065362193 0.0074261092 -0.012623544 4289015593
-0.0047262236 0.0074666552 -0.012733969 4289015593
-0.0030536167 0.0082991458 -0.01349353 4289473318
-0.0011066087 0.0075480305 -0.012954566 4289343014
0.00070298463 0.0075888783 -0.013064734 4289081128
0.0023670271 0.0084214546 -0.013823566 4289146663
0.0041736215 0.0084624402 -0.013933393 4289080873
0.0058292113 0.0092950203 -0.014691568 4289342759
0.0077863745 0.0085446499 -0.014152844 4289080619
0.010530371 0.0038373508 -0.010374013 4289342249
0.013942953 -0.0040345266 -0.0040054033 4289276713
0.017086279 -0.010322489 0.0010645078 4288949549
-0.030010263 -0.02721337 0.014640064 4287575098
-0.028461864 -0.023992121 0.011920244 4289015338
-0.026549878 -0.02395096 0.01180236 4289408548
-0.024538878 -0.024704535 0.012334527 4288885543
-0.022522494 -0.025457913 0.012866494 4288885543
-0.020291701 -0.027800508 0.0146974 4289343779
-0.018688168 -0.025374517 0.012630723 4289867804
-0.018235236 -0.0014533456 -0.0070782974 4288232233
-0.017323475 0.0049431361 -0.012382456 4289473829
-0.015628345 0.0057775415 -0.013142348 4289407783
-0.0141805 0.0082006939 -0.015199044 4290716189
-0.012254741 0.0074463002 -0.014660872 4290520093
-0.010576267 0.0082806572 -0.015419501 4290651164
-0.0083872192 0.0059381984 -0.013585255 4290716444
-0.006577231 0.0059786327 -0.013695757 4289015593
-0.004767362 0.0060191564 -0.01380618 4289277224
-0.0030948222 0.0068538152 -0.01456413 4289342759
-0.0012879297 0.0068944842 -0.014674216 4289211688
0.00037619099 0.0077291466 -0.015431507 4289081129
0.00203472 0.0085637979 -0.016188372 4289277223
0.0038357563 0.0086046346 -0.016297881 4289080873
0.0056366511 0.0086455643 -0.016407307 4288884779
0.0075909086 0.0078929253 -0.015870038 4288557359
0.010175448 0.0039661191 -0.012747149 4289015338
0.01342288 -0.0031341482 -0.0070406329 4289145644
0.016719099 -0.010233194 -0.0013370006 4288229428
-0.030233268 -0.02715537 0.01220411 4288490804
-0.028596662 -0.024722677 0.010139767 4289146408
-0.026880154 -0.023087399 0.0087250415 4289997088
-0.024976563 -0.023046291 0.0086077712 4289604899
-0.022869546 -0.024599029 0.0097869281 4289409059
-0.020647239 -0.026948377 0.01161355 4290455833
-0.019051865 -0.024515975 0.0095521938 4290456598
-0.018388469 -0.0021233987 -0.0088123931 4287970603
-0.017363723 0.0034937151 -0.013456172 4289539364
-0.015904848 0.0059235469 -0.015508766 4289277223
-0.0143416 0.0075565986 -0.016913317 4289866018
-0.012542285 0.0075964555 -0.017023422 4289604389
-0.010743082 0.0076364316 -0.01713343 4290323999
-0.0086860396 0.0060837045 -0.015950307 4290650908
-0.0067499243 0.005327668 -0.015414157 4289538853
-0.0049429089 0.0053681396 -0.015524401 4289408038
-0.0032731555 0.0062049106 -0.016280562 4289146408
-0.0016089641 0.0070416443 -0.017036323 4289538853
4.9632043e-05 0.0078784302 -0.017791681 4289277223
0.00170267 0.0087151006 -0.018546619 4290585629
0.0034981444 0.0087558106 -0.018655788 4290651164
0.00544421 0.0080007315 -0.0181197 4290651164
0.0077025108 0.0056541376 -0.01629382 4289800484
0.010445509 0.00092074275 -0.012534301 4288950058
0.013538796 -0.0054032933 -0.0074873064 4288884269
0.016352195 -0.01013492 -0.0037319362 4288294964
-0.030546838 -0.026288964 0.0091275321 4288752434
-0.028824855 -0.024649337 0.0077156117 4289211688
-0.027017592 -0.023809038 0.0069513209 4289408039
-0.025116876 -0.023768 0.0068342206 4290128159
-0.023012843 -0.025325201 0.0080103669 4290390044
-0.020793598 -0.027681099 0.0098322872 4290782998
-0.019200906 -0.025242278 0.0077759828 4290259994
-0.018879317 -0.00039211102 -0.012480828 4287773998
-0.017749876 0.004441116 -0.016466863 4288950569
-0.016063068 0.0052796677 -0.01722303 4290258463
-0.014502563 0.0069170073 -0.018624183 4289473574
-0.012706101 0.0069568157 -0.018734101 4289080873
-0.010783561 0.0061980933 -0.018198892 4289015594
-0.0088556893 0.0054395571 -0.017663885 4289538853
-0.007054124 0.005479794 -0.017773882 4289735204
-0.0052526705 0.005520124 -0.017883796 4289342759
-0.0034513511 0.005560562 -0.017993625 4289146408
-0.0017899573 0.0063994601 -0.018747631 4289473318
-0.00027664378 0.0080365241 -0.020145256 4289342759
0.0015161186 0.0080770701 -0.020254336 4290389278
0.0034567118 0.0073195919 -0.019719601 4290324509
0.0054025985 0.0065623224 -0.01918513 4290323999
0.0075071789 0.0050072111 -0.018007468 4290520094
0.010246981 0.00026066974 -0.014257467 4289865763
0.013178091 -0.0052829515 -0.0098662516 4288884013
0.015823994 -0.0092299506 -0.0067631239 4288097594
-0.030678565 -0.027012469 0.0073520546 4287248189
-0.028959345 -0.025368497 0.0059435023 4288230194
-0.027058711 -0.025327582 0.0058263186 4288819498
-0.025257055 -0.024485148 0.0050641233 4289212454
-0.023257654 -0.025245385 0.0055922396 4289604899
-0.021044176 -0.02760797 0.0074097132 4289343269
-0.019671056 -0.023560299 0.0040693083 4289736223
-0.019642822 -0.009899104 -0.0070027495 4288035373
-0.019257151 0.00055574253 -0.015491898 4288427308
-0.017905165 0.0037996992 -0.018179525 4288884778
-0.016339127 0.0054414012 -0.019577868 4289800739
-0.014784075 0.0070829131 -0.020975426 4289931554
-0.013116602 0.0079234801 -0.021728665 4290062113
-0.011328552 0.0079632103 -0.021837987 4289866019
-0.0092829056 0.0064015053 -0.020660654 4290520093
-0.0074896365 0.0064415634 -0.02077014 4289408038
-0.005696483 0.0064816996 -0.020879559 4289473318
-0.0039034486 0.0065219402 -0.020988889 4289408038
-0.0021105371 0.0065623 -0.021098122 4289735204
-0.00031775609 0.0066027269 -0.021207292 4289866018
0.0014748909 0.0066432729 -0.021316364 4289081128
0.0032674037 0.0066838861 -0.021425378 4289277734
0.005059775 0.0067246184 -0.021534294 4289211944
0.0073120184 0.0043648556 -0.019717731 4289800483
0.010204632 -0.0011949483 -0.015335622 4289015594
0.013135199 -0.0067538228 -0.010955695 4288818734
0.01561917 -0.0099116415 -0.008501933 4287902264
-0.030719483 -0.028535115 0.0062239915 4287771449
-0.0289069 -0.027690506 0.0054625636 4288557103
-0.026907571 -0.028453173 0.0059888791 4288557613
-0.025100559 -0.027608473 0.0052279504 4288558379
-0.023095921 -0.028370745 0.0057541486 4288689194
-0.021190211 -0.028329378 0.0056369063 4288623659
-0.020354744 -0.020253887 -0.000910284 4288035119
-0.020561449 -0.0049493797 -0.013239645 4287250483
-0.019971997 0.003926672 -0.02042114 4288427054
-0.018521063 0.0063758045 -0.022458855 4289342759
-0.016614936 0.0056120083 -0.021926064 4289342759
-0.015306588 0.0088639632 -0.024604432 4289996833
-0.013526723 0.0089033954 -0.024713341 4290258463
-0.011873037 0.0097458661 -0.025464017 4290389278
-0.0097097382 0.007376723 -0.023647599 4289735204
-0.0077932626 0.0066137463 -0.023115076 4289538853
-0.0060056709 0.0066537447 -0.023224164 4289342503
-0.0043551587 0.0074965842 -0.023974326 4289604133
-0.0025705323 0.0075367242 -0.024083074 4289538853
-0.00078603625 0.0075769946 -0.024191722 4290585629
0.0011434369 0.006814789 -0.023659635 4290062369
0.0027825609 0.0076577626 -0.02440881 4289277223
0.0048677623 0.0060934052 -0.023236521 4289408038
0.0069636889 0.0045294426 -0.022064839 4289604389
0.010006327 -0.001848055 -0.017053626 4289931298
0.012933601 -0.0074221771 -0.012684849 4289211179
0.015575919 -0.011391012 -0.0095976656 4288098868
-0.030579155 -0.031669337 0.0063809026 4287640889
-0.028761219 -0.030822476 0.0056207324 4288099124
-0.026756657 -0.031587191 0.0061451225 4288427053
-0.024944298 -0.030740192 0.0053854864 4288558123
-0.022934426 -0.031504568 0.0059097139 4288623913
-0.021127652 -0.030657433 0.0051506134 4288558634
-0.020609882 -0.020143416 -0.0033048363 4288820263
-0.020711359 -0.0056032706 -0.014961992 4288754728
-0.020011701 0.0024911985 -0.021484535 4288230704
-0.01856073 0.0049468502 -0.023517407 4288557869
-0.016890485 0.0057915673 -0.024267703 4288557869
-0.015466902 0.0082467757 -0.026298698 4288688428
-0.013936471 0.0098965839 -0.027688257 4289015594
-0.012165006 0.0099359155 -0.027796589 4289342759
-0.010136195 0.0083651543 -0.026624676 4289080873
-0.0082280561 0.0075998046 -0.026093267 4289277224
-0.0064487606 0.0076396205 -0.026201848 4289081129
-0.0049433745 0.0092893913 -0.027589492 4289276969
-0.0033093579 0.010134105 -0.028336979 4289342504
-0.0012539253 0.0085644424 -0.027166314 4289473064
0.00052216649 0.0086045861 -0.0272744 4290389279
0.0022981204 0.0086448342 -0.0273824 4290454558
0.0042244345 0.0078805536 -0.026851609 4290389279
0.0067688711 0.0038983487 -0.023766764 4290585629
0.0099640898 -0.0033010971 -0.018129878 4290127394
0.01304945 -0.0096949153 -0.013134106 4289014828
0.015694071 -0.013674567 -0.010055137 4288098869
-0.030529616 -0.034003966 0.0058907373 4288033588
-0.02870905 -0.033154886 0.0051320121 4287903029
-0.026605966 -0.034729742 0.0062951166 4288558124
-0.024689522 -0.03468838 0.0061770361 4288558378
-0.022671696 -0.035454735 0.006699176 4288362283
-0.021065205 -0.032989644 0.0046612429 4288493354
-0.020650979 -0.021639565 -0.0044132005 4288493098
-0.020641897 -0.0078679677 -0.015401748 4288623913
-0.019714385 -0.001366986 -0.020629421 4288427053
-0.018255197 0.0010953695 -0.022657949 4288950313
-0.016694643 0.0027499385 -0.024046231 4289015849
-0.015386079 0.0060192719 -0.026711706 4289081385
-0.013606485 0.0060586743 -0.026820615 4288557868
-0.012078889 0.0077128634 -0.028206702 4288754219
-0.0100476 0.0061377846 -0.027038187 4288557613
-0.0082683228 0.0061775036 -0.027146835 4288557613
-0.0066232607 0.0070244521 -0.027893517 4288623149
-0.0049837604 0.0078714043 -0.028639838 4288753964
-0.0033498071 0.0087183192 -0.029385686 4288950058
-0.0014368892 0.0079512857 -0.028855905 4288884268
0.00019137189 0.0087982491 -0.029601272 4289276713
0.0019617714 0.0088383332 -0.029708959 4290061603
0.0040328912 0.0072649494 -0.028542276 4289799973
0.0065741949 0.0032717809 -0.025465328 4289865764
0.0097660013 -0.0039472971 -0.019842766 4289342248
0.013006616 -0.011165174 -0.014223102 4289014828
-0.030570686 -0.035532452 0.0047583454 4287902773
-0.028563755 -0.03630165 0.0052792937 4288099123
-0.026743356 -0.035450205 0.004522264 4288427563
-0.024829783 -0.035408914 0.0044043534 4288362283
-0.022713494 -0.036987603 0.0055635851 4288296748
-0.021002855 -0.035325959 0.0041688299 4288624424
-0.020478383 -0.024755357 -0.004245026 4288428073
-0.020243876 -0.012566386 -0.013930517 4288427819
-0.019305132 -0.006047776 -0.019145969 4288099889
-0.017835014 -0.0035786759 -0.021170333 4288427054
-0.016263586 -0.0019195396 -0.02255607 4288361774
-0.014823597 0.00054911152 -0.024578433 4288622893
-0.013153687 0.0013983659 -0.025325328 4288558125
-0.011363439 0.0014381073 -0.025434811 4288492589
-0.0097019076 0.0022874288 -0.026181087 4288819499
-0.0080459192 0.0031366721 -0.026926912 4288884778
-0.0063954704 0.0039858967 -0.027672321 4288885034
-0.0046138242 0.0040258467 -0.027780984 4288623149
-0.0031112656 0.0056842938 -0.029161882 4288491823
-0.0011930913 0.0049151927 -0.028634045 4288426543
0.00029562414 0.0065735355 -0.030014023 4288164658
0.0020686276 0.0066136979 -0.030121855 4288295474
0.0038415007 0.006653931 -0.030229628 4288492079
0.0065327398 0.0018408746 -0.026525192 4288557869
0.0097238757 -0.0053977873 -0.020917129 4288753709
0.013122309 -0.013444005 -0.014676948 4288229428
-0.030702187 -0.036248274 0.0029885604 4287968309
-0.028698198 -0.037019663 0.0035080351 4288295984
-0.02668882 -0.03779088 0.0040272931 4288427563
-0.024772681 -0.037749514 0.00390924 4288231469
-0.022755273 -0.038520254 0.0044281539 4288362283
-0.021148723 -0.036042135 0.0023998963 4288297259
-0.020519566 -0.026255419 -0.0053562922 4288558889
-0.020065304 -0.015657946 -0.013744806 4288885798
-0.019008569 -0.0099337418 -0.018311512 4288165679
-0.017530236 -0.0074580107 -0.020331513 4288361774
-0.015833009 -0.0066061597 -0.021078676 4288558124
-0.014261704 -0.0049425978 -0.022461116 4288295983
-0.012455154 -0.0049025919 -0.022571672 4288427053
-0.010774534 -0.0040508565 -0.023317557 4288492589
-0.0090994649 -0.0031991005 -0.024062999 4288688939
-0.0074299462 -0.0023473408 -0.024808079 4288557868
-0.0057659745 -0.0014956351 -0.025552694 4288754474
-0.0039708428 -0.0014553983 -0.025662191 4288623403
-0.0023152567 -0.00060369819 -0.026406161 4288950314
-0.00066522881 0.00024798512 -0.027149711 4288819244
0.00097922236 0.0010996945 -0.027892884 4288818733
0.0024705566 0.0027624667 -0.029269699 4288818988
0.0044017732 0.0019917712 -0.028744061 4288949803
0.0067973398 -0.0012119357 -0.026317447 4288950313
0.0099932291 -0.0084700603 -0.020724211 4288557869
0.013079461 -0.014916072 -0.015767284 4288164404
-0.032829225 -0.0361857 0.00070384913 4287378748
-0.030923948 -0.036144953 0.00058618025 4287902518
-0.028832506 -0.037733182 0.0017401765 4287903029
-0.026921898 -0.037692077 0.0016223618 4288165423
-0.024715692 -0.04009423 0.0034110018 4288165423
-0.022594504 -0.041681442 0.0045634452 4288165423
-0.021086473 -0.038382389 0.0019045651 4288623914
-0.020105846 -0.017129557 -0.014834982 4288820263
-0.019048829 -0.011390166 -0.019390427 4287969585
-0.017455578 -0.0097219888 -0.020771138 4288296494
-0.015755694 -0.008867966 -0.021516822 4288296493
-0.013941031 -0.0088279229 -0.021627981 4288296238
-0.012249507 -0.0079738218 -0.022373028 4288295983
-0.010563523 -0.0071197711 -0.023117613 4288099889
-0.0090115555 -0.0054519922 -0.024495415 4288295983
-0.0070769712 -0.0062254798 -0.023972113 4288361773
-0.005270984 -0.0061851162 -0.024082355 4288427309
-0.0034651048 -0.0061446335 -0.024192505 4288296493
-0.0017987005 -0.0052905325 -0.024935529 4288296493
-0.00013784692 -0.0044364501 -0.025678139 4288296238
0.0015174299 -0.0035823397 -0.026420366 4288427054
0.003167145 -0.0027283207 -0.027162157 4288623404
0.0049615502 -0.002687607 -0.027271241 4288623404
0.007367637 -0.0058997907 -0.024851747 4288492333
0.010418054 -0.012364103 -0.019905638 4288492843
0.01367021 -0.019640438 -0.014330299 4288361773
0.016165588 -0.022850305 -0.011916016 4287314233
-0.027058944 -0.038401093 -0.00014194008 4286464318
-0.024954285 -0.039993171 0.0010081741 4287184439
-0.02253516 -0.044034593 0.0040587587 4286791483
-0.021128252 -0.039910279 0.00077267154 4289081128
-0.020146366 -0.018600978 -0.01592502 4287969584
-0.018864863 -0.014479043 -0.019203138 4288100143
-0.01738102 -0.011990111 -0.021213837 4288034864
-0.015678495 -0.011133866 -0.021958075 4288231214
-0.013861239 -0.011093784 -0.022069402 4288100144
-0.012167063 -0.010237508 -0.02281297 4288427053
-0.010478426 -0.009381203 -0.023556158 4288361518
-0.008666914 -0.009340927 -0.023666896 4288099889
-0.0068554953 -0.0093005337 -0.023777541 4288099889
-0.0050441884 -0.0092600584 -0.023888115 4288165168
-0.0032330006 -0.0092194788 -0.023998603 4288231214
-0.0014219172 -0.0091788042 -0.024109013 4288296493
0.00024703145 -0.0083223917 -0.024850518 4288099889
0.0019104145 -0.0074659847 -0.025591597 4288361519
0.0035682358 -0.0066096317 -0.026332282 4288558124
0.0055208541 -0.0073842313 -0.025811203 4288296238
0.007784564 -0.0097894743 -0.024029322 4288361519
0.010998126 -0.017086333 -0.018466234 4288492844
0.013943795 -0.022751398 -0.014166453 4288231214
0.016444247 -0.025969846 -0.011758939 4286987068
-0.018569097 -0.018394876 -0.018390808 4287838258
-0.016962279 -0.016717736 -0.019765917 4287707189
-0.015366428 -0.015040688 -0.021140315 4287969073
-0.013541155 -0.015000429 -0.021252133 4288099889
-0.011961799 -0.013323566 -0.022625316 4288230704
-0.010267794 -0.012465034 -0.023367189 4288099634
-0.0085793212 -0.011606518 -0.024108652 4288099634
-0.006896399 -0.010747975 -0.024849731 4288099634
-0.0050852224 -0.010707514 -0.024960309 4287968563
-0.0031376258 -0.011484945 -0.02444087 4288230704
-0.0011847131 -0.012262112 -0.023921721 4288296239
0.00034765154 -0.010585524 -0.025291532 4288099889
0.0020137019 -0.0097269211 -0.026031185 4288295983
0.0038215779 -0.0096860509 -0.0261412 4288558123
0.0054792352 -0.0088274516 -0.026880205 4288426798
0.0082011409 -0.013691965 -0.02321646 4288427308
0.011266615 -0.02019071 -0.018297102 4288427053
0.014375459 -0.026688382 -0.013380314 4288034098
-0.014585018 -0.022242617 -0.017814208 4287053114
-0.012981117 -0.020560991 -0.019185755 4287314743
-0.011388186 -0.018879434 -0.020556577 4287903283
-0.0095550641 -0.018838821 -0.020668745 4288034099
-0.0079786368 -0.017157484 -0.022038374 4287903284
-0.0047250129 -0.014615366 -0.024146978 4287772215
-0.0030423626 -0.01375453 -0.024886262 4288099378
-0.00094773248 -0.015353894 -0.023740783 4288164913
0.00059007481 -0.013672911 -0.025107678 4288164658
0.0022615083 -0.012812018 -0.025846049 4288099889
0.0037800409 -0.011131266 -0.027211692 4288165168
0.0058877878 -0.012729989 -0.02606668 4288295983
0.008464586 -0.016787628 -0.023040388 4288558124
0.011690382 -0.024123359 -0.017507132 4288361518
0.014332142 -0.028179325 -0.014484637 4287837494
-0.0057995245 -0.021044159 -0.021350622 4286398529
-0.004097797 -0.020180847 -0.022089545 4287248699
-0.0024016164 -0.019317543 -0.022828046 4287641144
-0.00057185814 -0.019276496 -0.02293963 4287837495
0.0011159442 -0.018413186 -0.023677472 4287837494
0.002798181 -0.017549846 -0.024414938 4287641654
0.0044748783 -0.016686609 -0.025151975 4287640888
0.0064459778 -0.01746735 -0.024636894 4287902774
0.0090332292 -0.021535696 -0.021619298 4287968309
0.011647526 -0.025603272 -0.018603299 4288098868
0.014447007 -0.030491959 -0.014963535 4287379004
0.0076034032 -0.025518665 -0.020722851 4286267459
0.0097540505 -0.02712507 -0.019586883 4286921278
0.012070794 -0.029555108 -0.017827615 4287378749
-0.0038284585 0.037806559 0.02471558 4279640263
-0.0084582604 0.041391764 0.019001275 4278923204
-0.0067617074 0.042167459 0.018197656 4278528208
0.0012427755 0.038654406 0.02120709 4279514804
0.003801737 0.035020459 0.024549555 4279121339
-0.010201219 0.03914867 0.018718302 4278988484
-0.0071945265 0.042917017 0.015043523 4279776180
-0.0052451007 0.042219821 0.015622435 4280367269
-0.0035625622 0.042997655 0.014821418 4279514293
-0.0016079918 0.042300757 0.015400147 4278529484
0.00021030754 0.04234137 0.01528913 4278989503
0.0024612136 0.040170517 0.017246071 4278661063
0.004581321 0.038737196 0.018513007 4278530758
0.0064127184 0.038778383 0.018401405 4278596039
0.0080914684 0.039556701 0.017601039 4278661318
0.0096094199 0.041071881 0.016112503 4278986188
0.01143207 0.041113142 0.016001638 4278462163
0.013736349 0.038943987 0.017955763 4278331859
-0.010617394 0.039900985 0.015564999 4278727363
-0.0003969036 0.043840926 0.011457572 4278857923
0.0016985983 0.042402674 0.012722675 4278661318
0.0036579072 0.041704055 0.013299689 4278989759
0.0057721399 0.040266354 0.014563827 4278922694
0.0091021098 0.041826833 0.012968171 4280170664
0.01075865 0.042607013 0.012170989 4280367779
0.012730625 0.04190914 0.012747567 4278858943
0.01470786 0.04121143 0.013323935 4279712428
-0.01235744 0.037658554 0.015282287 4280237984
-0.011033222 0.040666711 0.012421563 4278793408
-0.0093476176 0.041448694 0.01162347 4278922948
-0.0023838393 0.043093 0.0098080058 4278726854
-0.00057940558 0.043133352 0.0096978713 4279055293
0.0013690032 0.04243223 0.010273861 4278661829
0.0033226833 0.041731317 0.010849612 4279054784
0.0052816309 0.041030634 0.011425108 4279054528
0.010401253 0.04263607 0.0097239632 4278922948
-0.012642585 0.037684817 0.012827584 4280040359
-0.011448693 0.041445781 0.0092880893 4278531268
-0.0096436106 0.041485686 0.0091775674 4279449013
-0.0082300194 0.04375786 0.0070112869 4279384498
-0.0065665804 0.044541743 0.0062163286 4279384498
-0.0047728457 0.044581685 0.0061067194 4279186874
-0.0027020238 0.043133993 0.0073667336 4278925244
-0.00076180324 0.042430434 0.0079415515 4278990778
0.0011837073 0.041727055 0.0085161645 4279581614
0.0028408654 0.042511333 0.0077219084 4278531268
0.0047914721 0.041808251 0.0082963537 4279120573
0.014297079 0.039782833 0.0097980238 4278529994
-0.012805302 0.036973748 0.011063673 4280170664
-0.011613965 0.040745597 0.0075324699 4278727874
-0.004813429 0.043143909 0.005041685 4279251643
-0.0028814003 0.042437907 0.0056153238 4279056568
-0.00080280378 0.040986132 0.0068717003 4278859453
0.00085448474 0.041772489 0.0060790498 4278859453
0.002652891 0.04181293 0.0059694555 4279122104
0.0043016486 0.042599279 0.0051774606 4279121338
0.0062491708 0.041894104 0.0057505164 4279251133
0.0075823031 0.044171911 0.0035946667 4279251134
0.0093718134 0.044212539 0.0034858957 4279580339
0.011481855 0.04276209 0.0047408827 4279186618
0.014254924 0.03832997 0.008721903 4279513529
-0.012845762 0.03551865 0.0099857673 4280563109
-0.011654247 0.039301444 0.0064626634 4279121083
-0.0051255748 0.043203 0.0026133917 4278919889
-0.0031991936 0.042494733 0.0031857826 4278662849
-0.0012675039 0.0417866 0.0037579425 4279252663
0.00052550435 0.04182687 0.003648635 4279187384
0.0021716617 0.042615298 0.0028583147 4278859198
0.0039615929 0.042655688 0.0027493387 4278923459
0.0057513677 0.042696152 0.0026404299 4278792134
0.0091727786 0.043525163 0.0017424896 4279055293
0.01127987 0.042070296 0.0029944256 4279711408
0.01372369 0.03912041 0.0056058592 4279056058
-0.013374571 0.03706697 0.0061844173 4279055294
-0.011944167 0.039359014 0.0040315907 4278529994
-0.010657791 0.042401459 0.0011992753 4279186109
-0.0088723116 0.042441081 0.0010900684 4280170663
-0.0072199591 0.043231327 0.00030070171 4278857924
-0.0053017847 0.042520601 0.00087190047 4278660809
-0.0037936233 0.044061344 -0.00059687719 4278660553
-0.0017318614 0.042600501 0.00065406039 4279119809
5.2858144e-05 0.042640593 0.00054526888 4278793154
0.0019840151 0.041930553 0.0011159778 4278660808
0.0037711263 0.041970883 0.0010071788 4278792134
0.013681669 0.03767461 0.0045349724 4279251134
-0.013780892 0.037880111 0.0030754614 4279186618
-0.010825343 0.041723821 -0.00053934567 4278530248
-0.0090427138 0.041763399 -0.00064835511 4280172703
-0.0073931478 0.042555783 -0.0014359262 4279449779
-0.0056135319 0.042595487 -0.0015446171 4278266833
-0.004249204 0.044893127 -0.0036881473 4279053764
-0.0021958686 0.043427769 -0.0024399087 4279120318
-0.00013177469 0.041962687 -0.0011922233 4278989249
0.0017964803 0.041250404 -0.00062295794 4278725324
0.0034314692 0.042043049 -0.0014091916 4278922949
0.0050608255 0.042835664 -0.0021950267 4278922438
0.0069940127 0.042123783 -0.0016258433 4279644088
0.013313819 0.037733201 0.0021106354 4279382459
-0.014782827 0.031115051 0.0068645431 4282922878
-0.014430787 0.040216926 -0.0013789204 4279055804
-0.0042894781 0.043473888 -0.0047394391 4279054529
-0.0023774169 0.042758901 -0.0041709282 4279120064
-0.00046007708 0.042044107 -0.003602678 4279185343
0.0017555356 0.039820295 -0.0016822689 4278593743
0.0051717125 0.040655483 -0.0025752075 4278922438
0.006798137 0.041450325 -0.0033591557 4280302244
0.0087336861 0.040736418 -0.0027916618 4279973039
0.01067451 0.040022735 -0.002224416 4279054784
0.013434727 0.035538051 0.0017185446 4278529994
-0.015061557 0.031175826 0.0044349795 4282661249
-0.014470566 0.038789134 -0.0024366048 4279186619
-0.012937184 0.04034311 -0.0038975887 4279579573
-0.011160117 0.040382486 -0.0040063225 4278923459
-0.0093831941 0.040421966 -0.0041149687 4278660299
-0.0076063983 0.040461529 -0.0042235442 4278660809
-0.0059652887 0.041258227 -0.0050072484 4278792643
-0.0044680201 0.042811859 -0.0064656064 4278791624
-0.0025588647 0.042094637 -0.0058985259 4278660809
-0.00050072372 0.040620778 -0.0046569742 4279185598
0.0014217272 0.039903995 -0.0040905196 4278791369
0.029387686 -0.012667509 0.042054024 4279316668
0.032049697 -0.015646856 0.044626635 4279186619
-0.014022987 0.034323487 -0.00079628732 4279904954
-0.012478702 0.035882097 -0.0022546784 4279709623
-0.010818154 0.036681097 -0.0030381833 4279775159
-0.0091631971 0.037480112 -0.0038212473 4279971509
-0.007381089 0.037519816 -0.0039301263 4280038319
-0.0057345815 0.038318831 -0.0047125332 4280103853
-0.0042318739 0.039877016 -0.0061680116 4278858689
-0.0025992878 0.040675912 -0.0069494229 4278923969
-0.00082866848 0.040715758 -0.0070573017 4278661319
0.0012345128 0.039237764 -0.0058192126 4278726854
0.0028611682 0.040036831 -0.0066000428 4279185343
0.0096315481 0.041715417 -0.008375017 4278399178
0.013187956 0.033411179 -0.0010906188 4279055804
0.024683524 -0.0021549501 0.030258358 4279055804
0.028657887 -0.011211686 0.038199496 4279120318
0.031135064 -0.013441648 0.040095024 4279124399
0.033452008 -0.014912821 0.041318476 4278796978
0.037936125 -0.01709602 0.04309291 4278406318
0.040651243 -0.020082433 0.045656074 4278931873
-0.013697676 0.030602414 0.00015844312 4280101559
-0.012269732 0.032927152 -0.0019698245 4279773373
-0.010476578 0.032966923 -0.0020795176 4280036789
-0.0088135153 0.033768337 -0.0028615026 4278727619
-0.0039959885 0.036933657 -0.0058766408 4278332624
-0.0024988689 0.038496185 -0.0073284581 4278659023
0.00090111792 0.039337274 -0.0082157589 4278661828
0.0028203167 0.038616229 -0.0076523013 4278858178
0.0044412911 0.039417457 -0.008431077 4279251898
0.0059021823 0.040979657 -0.009880323 4279840949
0.0073520131 0.042541642 -0.011328792 4279841713
0.0095903687 0.04029924 -0.0094239581 4279316159
0.013145972 0.031971019 -0.0021573184 4279447483
0.024470229 -0.0029370021 0.028445717 4279447483
0.028099384 -0.010498734 0.035027929 4279251134
0.030394558 -0.011974884 0.036249451 4278993583
0.032876629 -0.014211111 0.038139869 4279126439
0.035195854 -0.015686519 0.039360072 4279454878
0.037344027 -0.016401194 0.039910488 4278341804
0.040050622 -0.019396555 0.042467736 4278997408
-0.014468398 0.022244852 0.0052428599 4282985099
-0.013494462 0.02763233 0.00043248991 4281282464
-0.012061018 0.029963795 -0.0016912809 4280167604
-0.010262545 0.030003678 -0.0018012961 4279708603
-0.0084642023 0.030043673 -0.0019112239 4279840184
-0.0065333694 0.029320117 -0.0013505328 4280102833
-0.0051386207 0.031651098 -0.0034715859 4280102833
-0.0033461452 0.031691264 -0.0035809232 4280234414
-0.0018354058 0.033258487 -0.0050303182 4280430509
-0.00019220635 0.034062114 -0.0058090342 4280692138
0.0014453903 0.034865711 -0.0065873442 4279710134
0.0032263398 0.034906019 -0.0066956887 4278726853
0.0048554353 0.035709616 -0.0074733393 4279707584
0.006478902 0.036513235 -0.0082506062 4280363189
0.0080967806 0.037316773 -0.0090274336 4280166329
0.010348435 0.035068128 -0.0071282694 4279448759
0.013916846 0.026716251 0.00011980208 4279644854
0.024425063 -0.0044772457 0.027304906 4279644854
0.027882721 -0.011298025 0.033202741 4279318709
0.03017493 -0.012778537 0.034421179 4278533054
0.039634701 -0.019459739 0.039956655 4279194014
-0.014627982 0.021549303 0.0034903195 4281872279
-0.013656478 0.026952021 -0.0013085413 4280758694
-0.012225714 0.029289976 -0.0034272852 4280824484
-0.010175876 0.027797937 -0.0021985914 4280429998
-0.0083749406 0.027837995 -0.00230867 4280429998
-0.0063090101 0.026346456 -0.0010807808 4280561579
-0.0050440356 0.029449932 -0.0038660942 4280429998
-0.0031109639 0.028724473 -0.0033069882 4280627369
-0.0017355122 0.031061817 -0.0054218927 4280627369
0.00019727275 0.030336503 -0.0048625814 4280299184
0.0018429719 0.031142522 -0.0056397961 4279971764
0.0037808716 0.030417535 -0.0050806412 4280103089
0.0052691884 0.031989012 -0.0065251263 4279906229
0.0070551224 0.032029632 -0.0066336216 4279380928
0.0086838268 0.032835599 -0.0074094804 4280233394
0.011105869 0.02981548 -0.0048485333 4280299183
0.01484957 0.02067478 0.0030480642 4280364718
0.02437989 -0.0060172323 0.02616429 4280693413
0.027495515 -0.011327729 0.030714381 4279450799
0.029782023 -0.012812702 0.031929944 4279977374
0.031903107 -0.013532517 0.032478642 4279322278
0.034029406 -0.014252121 0.033027094 4278930344
0.036342483 -0.015736282 0.03424127 4278931108
0.03921904 -0.019513991 0.037452262 4278997153
-0.013453592 0.023971602 -0.001042217 4281021598
-0.011892993 0.025547989 -0.0024885922 4280627368
-0.010216381 0.02635619 -0.0032665837 4280954789
-0.0085453428 0.027164314 -0.0040441277 4281151648
-0.0066149011 0.026436426 -0.0034866235 4281151648
-0.0050848052 0.028012566 -0.0049308119 4281346723
-0.0031519197 0.027284939 -0.0043732999 4281675674
-0.001495067 0.028093167 -0.0051496709 4281282463
0.00044296309 0.02736586 -0.0045923227 4280954789
0.0020940676 0.028174143 -0.0053682001 4280561578
0.0038883872 0.028214768 -0.0054773437 4280430253
0.0055309869 0.02902307 -0.0062525431 4280365483
0.0073222555 0.029063832 -0.0063613532 4280431274
0.0091133676 0.029104676 -0.0064700833 4279971508
0.011543188 0.02607603 -0.0039160773 4280364973
0.024334695 -0.0075569656 0.025023863 4280759204
0.027108531 -0.011348393 0.028232638 4279780513
0.029562701 -0.013604959 0.030110188 4280109974
0.031504843 -0.013560008 0.029992782 4280240788
0.033446755 -0.013514953 0.029875468 4278734758
0.03556994 -0.014236724 0.03042255 4278668969
0.038803611 -0.019559279 0.034954514 4278341294
-0.013372481 0.021753144 -0.0014485251 4281415318
-0.011809178 0.023333978 -0.002891805 4281347488
-0.010129903 0.024144366 -0.0036683083 4281347488
-0.008456219 0.024954792 -0.0044444203 4281610649
-0.0063908026 0.023454566 -0.0032229442 4281610649
-0.0048552714 0.025035247 -0.0046642553 4281609884
-0.0031928867 0.025845665 -0.0054394193 4281741463
-0.001676701 0.027426083 -0.0068793511 4281609884
0.00011509657 0.027466465 -0.0069884798 4281151648
0.0019067302 0.027506966 -0.0070975078 4280758438
0.0036982149 0.027547535 -0.0072064744 4280693924
0.0054895394 0.027588222 -0.0073153405 4280235178
0.0074349083 0.02685928 -0.0067597833 4280431529
0.0092286207 0.026900206 -0.0068686549 4280103853
0.011660796 0.02386291 -0.0043212548 4280168368
0.024289493 -0.009096425 0.023883641 4280168369
0.026721802 -0.011360129 0.025757585 4279909034
0.0288237 -0.012084804 0.026304167 4278597569
0.035160761 -0.014257643 0.027942419 4279062433
0.038572576 -0.020364508 0.033125956 4278341549
-0.013170019 0.018757943 -0.0011930806 4281741463
-0.011477083 0.019570764 -0.0019689072 4281413278
-0.010043558 0.021928478 -0.0040731095 4281413278
-0.0082375631 0.021968681 -0.0041834787 4281414808
-0.0062993355 0.021236636 -0.003629664 4281808018
-0.0044908896 0.0212771 -0.0037400238 4281676439
-0.0030960441 0.02363443 -0.0058415886 4281742228
-0.0014365911 0.024447087 -0.006614862 4281543839
0.00021726638 0.025259715 -0.0073877294 4281347489
0.0021574944 0.024528209 -0.0068336651 4280758693
0.0039542988 0.024568919 -0.0069429465 4280692648
0.0057509355 0.024609726 -0.0070521347 4280431019
0.007393267 0.025422495 -0.0078239981 4280169390
0.0091868602 0.025463417 -0.007932866 4280038319
0.011618678 0.022417415 -0.0053919032 4280103089
0.020508084 -0.0021919515 0.015576763 4280038064
0.024244297 -0.010635655 0.022743586 4280497829
0.026505802 -0.012134342 0.023950908 4279125674
0.028604809 -0.0128613 0.024496086 4278668714
0.035114553 -0.015812078 0.026791148 4279389853
0.038525727 -0.021936376 0.03196178 4278341549
-0.0025860444 0.019095752 -0.0042603761 4282331278
-0.0011967309 0.021459568 -0.0063566118 4282526864
0.00060571358 0.021500207 -0.0064663775 4282132889
0.0024079941 0.021540962 -0.0065760426 4281872024
0.0042101331 0.021581799 -0.0066856369 4281087644
0.0060121082 0.021622729 -0.0067951512 4280826269
0.0073516257 0.023985948 -0.0088880379 4280956573
0.0089882873 0.024800863 -0.0096578635 4280562599
0.01141702 0.021746092 -0.0071231835 4280038064
0.015652154 0.010179322 0.002677436 4280038064
0.020463686 -0.0037069395 0.014454657 4279840693
0.024199065 -0.012174625 0.02160373 4280432039
0.026289929 -0.012903979 0.022147693 4279716253
0.02803975 -0.012085903 0.02137142 4279521434
0.030135658 -0.012814974 0.021915201 4279520413
0.032236774 -0.013543816 0.022458743 4279061668
0.03488702 -0.016592771 0.024980549 4278734504
0.038110863 -0.021961289 0.029479124 4278472363
0.002804108 0.017768849 -0.0056647267 4283246983
0.0044656992 0.018586244 -0.0064346511 4282724743
0.0062729903 0.018627316 -0.0065444671 4281742993
0.0074640028 0.021773417 -0.0092923716 4281742993
0.009260077 0.021814413 -0.0094013736 4281677969
0.011693876 0.018751059 -0.0068734605 4280170409
0.015933398 0.0071517155 0.0029026144 4280301734
0.020584192 -0.0059976596 0.013991605 4280301734
0.023818586 -0.012161491 0.01914667 4280369053
0.025903825 -0.01289315 0.019689355 4278466753
0.034840878 -0.018144539 0.023831256 4278733994
0.038064148 -0.023528283 0.028318562 4278865319
0.023605894 -0.01291745 0.017353296 4280436373
0.025858548 -0.014429428 0.018551502 4278404535
0.031788293 -0.015073972 0.018860385 4278929834
0.034794707 -0.019696051 0.022682153 4278865318
0.037833553 -0.024317343 0.026502062 4278341294
0.023393366 -0.013668856 0.015563364 4280895374
0.025302593 -0.013624784 0.015447858 4279323553
0.027384553 -0.014360769 0.015987583 4279651739
0.029647451 -0.015876688 0.017182061 4278734758
0.031742636 -0.016612194 0.017721113 4278603434
0.034567449 -0.020467373 0.020878568 4278537898
0.037603069 -0.025101734 0.024688944 4278406829
0.023348402 -0.015198126 0.014430691 4282072709
0.026820671 -0.013545221 0.01289273 4278398923
0.029075157 -0.015065644 0.014084443 4278862004
0.03116199 -0.015803501 0.014622395 4279127968
0.033978228 -0.019669779 0.01777227 4278800804
0.037005212 -0.024317443 0.021573506 4281422459
0.023136061 -0.015942506 0.012645964 4281744268
0.024702143 -0.014329374 0.011226466 4278401473
0.030760039 -0.015765961 0.012185136 4279388068
0.033208448 -0.018074606 0.014024441 4278866339
0.036775146 -0.025088364 0.019770436 4281619063
0.022756536 -0.015895508 0.01021399 4281614474
0.024487231 -0.015064836 0.009448491 4280635018
0.026385035 -0.015020927 0.0093337502 4278667948
0.030180123 -0.01493286 0.0091044959 4278800039
0.032800999 -0.018034726 0.011589272 4279062944
0.036361564 -0.025068207 0.017321091 4281881459
0.022210028 -0.015050532 0.0071395785 4281410984
0.02393252 -0.014217922 0.0063762306 4278798253
0.025994752 -0.014963048 0.0069106952 4278537899
0.029956874 -0.015664006 0.0073304502 4278602923
0.032574672 -0.018774634 0.0098089557 4279062435
0.035948265 -0.025039179 0.014878387 4281881458
0.021831091 -0.014983408 0.004722436 4281871768
0.023717988 -0.014939856 0.0046082763 4278862004
0.025604714 -0.014896214 0.0044941995 4278403769
0.027491268 -0.01485249 0.0043801959 4278665909
0.029733751 -0.016390543 0.005559817 4278866084
0.032348488 -0.019509979 0.0080320165 4278735269
0.03553522 -0.025001163 0.012442268 4282077809
0.021452431 -0.014907438 0.0023119175 4280371603
0.027095977 -0.01477691 0.0019706786 4278340784
0.029510785 -0.017112544 0.0037925432 4278669734
0.032122422 -0.020240741 0.0062584733 4278801059
0.03512248 -0.024954284 0.010012783 4281029250
0.020906966 -0.014026968 -0.00073620491 4280895119
0.023119625 -0.015574681 0.00043855701 4278930854
0.024997976 -0.015531234 0.00032498408 4278866083
0.027051363 -0.01628305 0.00085516507 4278801059
0.028932083 -0.016239386 0.00074156886 4278472874
0.031715859 -0.020171709 0.0038448917 4278735014
0.034893367 -0.025693625 0.008233102 4282471529
0.020194929 -0.012335569 -0.0044170218 4279842734
0.024608683 -0.015439834 -0.0020733201 4278531014
0.026656482 -0.016194012 -0.0015443866 4280107678
0.028709535 -0.016947918 -0.0010157311 4278669479
0.031490173 -0.020891182 0.0020797076 4278866594
0.034664381 -0.026428372 0.0064567504 4282537063
0.019817259 -0.012226267 -0.0068029314 4279058099
0.022352409 -0.015382711 -0.0043520452 4278860218
0.02439205 -0.016139284 -0.0038243318 4278268363
0.028487127 -0.017651875 -0.0027696448 4278866084
0.031625655 -0.02320521 0.0015981749 4278866849
0.034802046 -0.028757632 0.0059638061 4282209389
0.019773606 -0.013712192 -0.0079035005 4279454878
0.021799643 -0.014471343 -0.0073766457 4279192484
0.026042562 -0.016790969 -0.0056848396 4278406573
0.028264862 -0.018351249 -0.0045202374 4278603943
0.031400125 -0.023919929 -0.00016349042 4278866849
0.034573246 -0.029487601 0.0041909902 4282537063
0.02158631 -0.015155099 -0.0091162538 4278667948
0.023614738 -0.015916318 -0.0085911229 4278602924
0.027865078 -0.018242143 -0.0069044977 4278931619
0.030813973 -0.023022253 -0.0031956723 4278997664
0.033795308 -0.027801588 0.00051128562 4282602598
0.017501909 -0.015113229 -0.011264362 4282793338
0.021203686 -0.015028005 -0.011488483 4278469048
