# .PCD v0.7 - Point Cloud Data file format
VERSION 0.7
FIELDS x y z rgba
SIZE 4 4 4 4
TYPE F F F U
COUNT 1 1 1 1
WIDTH 967
HEIGHT 1
VIEWPOINT 0 0 0 1 0 0 0
POINTS 967
DATA ascii
0.032419227 -0.020619389 0.005843835 4290847769
0.035189457 -0.023681276 0.0083418246 4289080619
0.037776873 -0.025965303 0.010183908 4288099379
-0.0037627369 -0.019128017 0.0035885666 4290853124
0.01523602 -0.016329603 0.00041131862 4289476889
0.017359577 -0.017063443 0.00094545633 4290456599
0.019670844 -0.018577013 0.002133714 4290259994
0.021807574 -0.019310363 0.00266717 4290063643
0.023197837 -0.016924366 0.00058433227 4291110418
0.025143497 -0.016877865 0.00046409667 4290651929
0.026895605 -0.016051626 -0.00030971318 4288950568
0.029230259 -0.0175642 0.00087734871 4289212198
0.031774387 -0.019855987 0.0027171876 4289408549
0.034133092 -0.021367885 0.0039029159 4290062368
0.036502413 -0.022879394 0.0050880145 4289211178
0.039089344 -0.025169952 0.0069253612 4288622128
-0.0020076782 -0.019863872 0.001653688 4289737499
-0.00036734343 -0.018252999 0.00022343174 4288823324
0.011129424 -0.01719681 -0.0011547562 4289347094
0.012896501 -0.016368628 -0.0019283164 4289998873
0.014834933 -0.016322721 -0.0020484198 4290718484
0.016773172 -0.01627671 -0.0021684282 4290587158
0.019076042 -0.01779479 -0.00098292716 4290259738
0.021204449 -0.018530527 -0.00045058317 4290063388
0.023150243 -0.018484095 -0.00057088025 4290194203
0.024905227 -0.017655689 -0.0013433117 4290782998
0.026847877 -0.017609179 -0.0014632996 4290717208
0.028790295 -0.017562578 -0.0015832037 4290717208
0.031129971 -0.019079316 -0.00039963424 4290716954
0.03327886 -0.019814108 0.00013185665 4289800738
0.035841256 -0.022111822 0.0019657612 4289342504
0.038212866 -0.023627615 0.0031475704 4289276204
-0.0044538379 -0.019115772 -0.0013409499 4289738263
-0.0023587346 -0.019855587 -0.00080898963 4290457109
-0.00041351467 -0.019810291 -0.00093008392 4289607195
0.0015315339 -0.019764891 -0.0010510888 4289607704
0.0094786957 -0.02036689 -0.00088228844 4289542424
0.010911115 -0.017967418 -0.0029583927 4289803799
0.012675419 -0.017137092 -0.0037302105 4290587669
0.014434114 -0.016306836 -0.0045015626 4290914579
0.016546428 -0.017045295 -0.0039699627 4291307278
0.01866401 -0.017783582 -0.0034385771 4291241743
0.020786807 -0.018521626 -0.0029075034 4289932829
0.022914849 -0.019259453 -0.0023766849 4290063644
0.024667084 -0.018428938 -0.0031473301 4289998108
0.026606932 -0.018382501 -0.0032671504 4290063134
0.028742492 -0.019119905 -0.002736615 4290259229
0.030883268 -0.019857116 -0.0022063535 4290062624
0.033230662 -0.021377986 -0.0010263938 4289277223
0.035384595 -0.022114741 -0.00049683638 4288687918
0.037957385 -0.024418699 0.0013316795 4288687664
-0.0073240101 -0.015991971 -0.0062818127 4291375873
-0.0047989935 -0.01909619 -0.0037957747 4290914834
-0.0025571361 -0.0206255 -0.0026136879 4290391319
-0.00045967847 -0.021367334 -0.0020834152 4290194968
0.0011696145 -0.019747911 -0.0035064388 4290653459
0.0032694563 -0.020489478 -0.0029761568 4290063898
0.0052113011 -0.020443954 -0.0030968152 4289998875
0.0074849278 -0.021971958 -0.001916362 4289867804
0.0092631653 -0.021139365 -0.0026875306 4290521879
0.010864377 -0.019520117 -0.0041084494 4290849554
0.012454487 -0.017900985 -0.0055286465 4289474848
0.014210418 -0.017068634 -0.0062982207 4289998109
0.016319849 -0.01780933 -0.0057680542 4290063898
0.018434517 -0.018549807 -0.00523814 4291176208
0.020369425 -0.018503724 -0.0053578308 4289605408
0.02230414 -0.018457549 -0.0054774368 4290259739
0.024238646 -0.01841132 -0.005596987 4290259228
0.026366122 -0.019151215 -0.0050675869 4289932064
0.028498806 -0.01989088 -0.0045385035 4289670179
0.030835293 -0.021416385 -0.0033611953 4288558124
0.033383779 -0.023727601 -0.0015361421 4287314998
0.035744302 -0.025252383 -0.00036020577 4286856765
0.037908748 -0.025991045 0.0001671724 4286463298
-0.0073693171 -0.017533537 -0.0074237129 4291440899
-0.0049942955 -0.019857079 -0.0055940151 4291045904
-0.0029077381 -0.020601451 -0.0050647613 4289736988
-0.0011259764 -0.019767072 -0.0058348831 4290194459
0.00049243122 -0.018143548 -0.0072539952 4290325273
0.0025812238 -0.018887563 -0.006724651 4289671199
0.0046752542 -0.019631347 -0.0061955545 4290194204
0.0067745671 -0.020374924 -0.0056667235 4290128668
0.008710511 -0.020329345 -0.0057868706 4289932574
0.010132216 -0.017917059 -0.0078526 4291045139
0.011885539 -0.017082622 -0.0086204922 4290783254
0.013810061 -0.017037058 -0.0087397406 4289736734
0.016093403 -0.018568791 -0.0075627593 4289540639
0.018387407 -0.02010012 -0.0063863974 4289867804
0.020507164 -0.020842645 -0.0058583356 4290325274
0.022256829 -0.02000788 -0.0066256914 4290128669
0.024381615 -0.020750105 -0.0060978066 4290455579
0.026125439 -0.019915342 -0.0068647023 4290193438
0.028842673 -0.023022158 -0.0043958835 4288361518
0.031184405 -0.024551954 -0.003222106 4287053624
0.034140505 -0.02844589 -0.00010880269 4286595389
0.035899796 -0.027610503 -0.00087638572 4286529343
-0.0072678179 -0.019866524 -0.0079169245 4289738263
-0.0051894635 -0.020613354 -0.0073888432 4290129179
-0.0032580718 -0.020568483 -0.0075091533 4289802014
-0.0014818087 -0.019732054 -0.0082773156 4289736479
-0.00018421561 -0.01652154 -0.010988482 4289932574
0.0017330945 -0.01647668 -0.011107679 4290063388
0.0039764866 -0.018014196 -0.0099318894 4290325018
0.0063964352 -0.020342615 -0.0081093926 4289474594
0.008326821 -0.020297166 -0.0082291942 4290194204
0.010085732 -0.019460589 -0.0089958673 4290390554
0.011665024 -0.017833011 -0.010408926 4291045139
0.013586715 -0.017787494 -0.010527986 4291045394
0.015687652 -0.018532747 -0.010000529 4290914579
0.017793834 -0.019277854 -0.0094733089 4291045139
0.020090133 -0.020813407 -0.0083002662 4289866529
0.022397123 -0.022348698 -0.0071278065 4289473573
0.024524458 -0.023092998 -0.0066017425 4289146664
0.026657037 -0.023837106 -0.0060759522 4287118903
0.029186308 -0.026161971 -0.0042595118 4286595388
0.031731702 -0.028486354 -0.0024440698 4286529854
0.034293182 -0.030810338 -0.00062953681 4286398528
0.036259063 -0.030762978 -0.00075074285 4286398018
-0.0077534318 -0.019028326 -0.01100066 4290391064
-0.0056834221 -0.019777548 -0.010473691 4289997343
-0.0037603229 -0.019732861 -0.010593481 4290258973
-0.0019922778 -0.018894464 -0.011359526 4290259228
-0.00038745254 -0.017262556 -0.012771325 4290979094
0.0016873553 -0.018011266 -0.012244361 4291175444
0.0037674382 -0.018759726 -0.011717625 4291175444
0.0060185641 -0.02030134 -0.010545496 4290979094
0.008111909 -0.021049373 -0.010019427 4289605154
0.0098680481 -0.020210642 -0.01078435 4289997853
0.011618584 -0.01937197 -0.011548799 4289932829
0.013540171 -0.019326478 -0.01166787 4290456088
0.015640929 -0.020073913 -0.011142019 4290259483
0.017746948 -0.02082119 -0.010616396 4289997598
0.020227812 -0.023154028 -0.0088021029 4289408293
0.022537299 -0.024693608 -0.0076330295 4289146664
0.024857424 -0.026232822 -0.0064646043 4287380278
0.026802301 -0.026186252 -0.0065847272 4286529854
0.029334009 -0.028517611 -0.0047733057 4286333504
0.031881832 -0.030848511 -0.0029628221 4286267968
0.034244627 -0.032386404 -0.0017968137 4286202179
0.036006615 -0.031546615 -0.0025613438 4286071108
-0.0076519027 -0.0213608 -0.011493566 4290194969
-0.0055793822 -0.022112131 -0.010968365 4290193948
-0.0039579198 -0.020475684 -0.012378115 4290063134
-0.0021926537 -0.019635193 -0.013142384 4290848023
-0.00090567768 -0.016407497 -0.015839938 4289997598
0.0013210699 -0.017954232 -0.014669674 4289735968
0.0033955351 -0.018705092 -0.014144203 4289997598
0.0059724078 -0.021842243 -0.011686834 4291109909
0.0078971311 -0.021796936 -0.011806292 4289932574
0.0098216608 -0.02175154 -0.011925666 4290325019
0.01157216 -0.020910714 -0.012688512 4290259739
0.013493627 -0.020865226 -0.012807574 4290521114
0.015414916 -0.020819645 -0.012926555 4290193694
0.017700069 -0.022364333 -0.011759343 4289735714
0.020180643 -0.024703698 -0.009949876 4288296239
0.022677347 -0.027042676 -0.0081413295 4287314488
0.024999954 -0.028586166 -0.0069762804 4287053114
0.027140372 -0.029334486 -0.0064541688 4286464319
0.029481605 -0.030877393 -0.0052901683 4286398528
0.032031849 -0.03321477 -0.0034846961 4286333249
0.033794031 -0.032372873 -0.0042476719 4286071364
0.03555055 -0.031531002 -0.0050102938 4286266948
-0.014297742 -0.018242259 -0.016137887 4288562203
-0.012390636 -0.018198365 -0.016256992 4290327058
-0.010195866 -0.019750813 -0.015088428 4290457109
-0.0081369802 -0.020504801 -0.014564043 4289998110
-0.0060728043 -0.021258486 -0.014039928 4289932573
-0.0043074563 -0.020415924 -0.014802664 4290063389
-0.0025476888 -0.019573338 -0.01556501 4291240979
-0.0011085123 -0.017135045 -0.017612807 4290717718
0.00095505267 -0.017888362 -0.017088369 4289409314
0.0031868368 -0.019439237 -0.01592158 4289278499
0.0054293051 -0.020989804 -0.014755338 4289736224
0.0071773753 -0.020147055 -0.015516562 4290455833
0.0090909377 -0.020101937 -0.015635271 4290324763
0.011178136 -0.020854251 -0.015111969 4290258973
0.013447113 -0.022403792 -0.013947149 4289866019
0.015906021 -0.024750421 -0.012141283 4288623403
0.018381059 -0.027096601 -0.010336366 4287184183
0.020872183 -0.029442264 -0.0085324189 4286660668
0.02319207 -0.03099031 -0.0073704645 4286267713
0.025142394 -0.030943722 -0.0074910065 4286398528
0.027478166 -0.032491181 -0.0063299546 4286398528
0.029433534 -0.032444332 -0.0064507024 4286464064
0.031388722 -0.032397427 -0.0065713953 4286790718
-0.014480557 -0.018966883 -0.017910175 4290196244
-0.012858536 -0.017322099 -0.01931385 4290260758
-0.010672189 -0.018879138 -0.018147953 4290324763
-0.0087682083 -0.018835105 -0.018266708 4290063389
-0.0062672719 -0.021992102 -0.01581797 4290194203
-0.004504703 -0.021147387 -0.016578959 4290063389
-0.0027477294 -0.020302741 -0.017339479 4290586904
-0.0011537597 -0.018658068 -0.018740932 4291306514
0.0007494688 -0.018613575 -0.018859284 4291175699
0.002815403 -0.019368909 -0.018336535 4290913813
0.0052177906 -0.021723863 -0.016532356 4290913813
0.006963104 -0.020878972 -0.017291842 4290521369
0.0088738278 -0.020833926 -0.017410379 4289735713
0.010958128 -0.021588527 -0.016888471 4289408549
0.013577066 -0.024741741 -0.014446385 4288492333
0.016217574 -0.027894441 -0.012005558 4286857273
0.018879622 -0.031046506 -0.0095659746 4286464573
0.021194018 -0.03259914 -0.0084069939 4286529854
0.023331776 -0.033352003 -0.0078881215 4286464064
0.025284715 -0.033305384 -0.0080088479 4286333249
0.02723746 -0.033258673 -0.0081294915 4286529088
0.028994553 -0.032412734 -0.0088890586 4286790718
-0.018200651 -0.021379691 -0.018158741 4290261013
-0.016293548 -0.021336049 -0.018278034 4290588178
-0.014663231 -0.019686913 -0.01967906 4290260249
-0.01332603 -0.016432617 -0.022360843 4291110674
-0.011291876 -0.017191578 -0.021838259 4291109909
-0.0093989074 -0.017147815 -0.021956338 4291109909
-0.006760031 -0.021116205 -0.018873125 4291175699
-0.004701823 -0.021874323 -0.018351829 4289801503
-0.0027929768 -0.021829879 -0.018470664 4290325019
-0.0013563558 -0.019378625 -0.020508623 4290259739
0.00038393587 -0.018531963 -0.021266393 4290455834
0.0024442673 -0.019289689 -0.020744901 4290651673
0.0045098513 -0.020047138 -0.020223694 4289604898
0.0067489594 -0.021606376 -0.019063704 4289604899
0.0089987889 -0.023165304 -0.017904261 4288034863
0.011606656 -0.026327582 -0.01546803 4287184694
0.0142361 -0.029489331 -0.013033048 4286661178
0.016887106 -0.032650471 -0.010599328 4286595389
0.019377828 -0.035009336 -0.0088050859 4286267969
0.02133105 -0.034962855 -0.008925938 4286267969
0.023284093 -0.034916326 -0.0090467418 4286332994
0.025046974 -0.034068242 -0.0098051773 4286659648
-0.020672284 -0.019727658 -0.021728115 4290852359
-0.018643256 -0.020489348 -0.021207152 4290784274
-0.01674445 -0.020445894 -0.021325924 4290260759
-0.014845781 -0.020402335 -0.021444606 4290194458
-0.013511173 -0.017139416 -0.024119778 4290848789
-0.011479922 -0.017900676 -0.023598596 4289408803
-0.0097362325 -0.01705228 -0.024355348 4290848023
-0.0072523803 -0.020227056 -0.021918463 4290128668
-0.0052025095 -0.020987598 -0.021398231 4289932574
-0.0031473562 -0.021747852 -0.020878278 4290128669
-0.0015588254 -0.020094585 -0.022272985 4290193949
0.00033872575 -0.020050235 -0.022390991 4290193949
0.0022361279 -0.020005792 -0.022508917 4289670178
0.0044642985 -0.021569785 -0.021351514 4289212198
0.0068713352 -0.023937548 -0.019557299 4288427054
0.0094654113 -0.027108992 -0.017126709 4286922808
0.012081072 -0.030279862 -0.014697408 4286530363
0.014718309 -0.033450119 -0.012269369 4286529854
0.016839951 -0.034208 -0.011752943 4286398783
0.019148625 -0.035769563 -0.010600139 4286464064
0.02091454 -0.034919355 -0.011357314 4286398273
0.022674851 -0.034069244 -0.012114039 4286659904
-0.022357542 -0.022901218 -0.021455409 4288821793
-0.020716004 -0.021243423 -0.022850968 4289017634
-0.018819939 -0.021200135 -0.022969645 4289475358
-0.016923998 -0.021156739 -0.023088234 4289409824
-0.015442785 -0.018692102 -0.025119873 4290848534
-0.01383708 -0.017034741 -0.026512828 4289016359
-0.011955112 -0.016991355 -0.02663031 4289016103
-0.0097805634 -0.018561574 -0.025473343 4289604898
-0.0077443272 -0.019324725 -0.024953965 4289277989
-0.0058546066 -0.019280864 -0.025071712 4290259483
-0.0039650276 -0.019236898 -0.02518937 4290324254
-0.0017611235 -0.020806044 -0.024033941 4290389789
0.00029355288 -0.021568317 -0.02351545 4289997343
0.0023535118 -0.022330405 -0.022997171 4287577139
0.0045841336 -0.023898652 -0.021843199 4286988088
0.0071617067 -0.027079286 -0.019418122 4286726204
0.0097608492 -0.030259345 -0.016994335 4286530109
0.012381576 -0.033438768 -0.014571793 4286333504
0.014671348 -0.03500529 -0.013421245 4286267713
0.016613841 -0.034959272 -0.013541589 4286464064
0.01855617 -0.03491319 -0.013661868 4286594624
0.020313911 -0.034061048 -0.014416881 4286071108
-0.02522999 -0.03098407 -0.017245959 4288234528
-0.023555592 -0.029321454 -0.018640475 4288035884
-0.022146713 -0.026040006 -0.021307785 4288100908
-0.02062973 -0.023568347 -0.023337049 4288493098
-0.018996481 -0.021906348 -0.024728753 4289409314
-0.017374229 -0.020244438 -0.026119718 4289736224
-0.015901115 -0.017773522 -0.028145973 4290717464
-0.014303587 -0.016111944 -0.029535219 4290717209
-0.0124299 -0.016068768 -0.029652201 4290586394
-0.010263741 -0.017643603 -0.028497919 4290390043
-0.0083848834 -0.017600089 -0.028615061 4290782743
-0.0065061599 -0.017556507 -0.028732141 4289800993
-0.0043186769 -0.019130509 -0.027579017 4289669668
-0.0016489327 -0.023130514 -0.024521749 4289408293
0.00072806329 -0.025512358 -0.022735532 4288230959
0.0027960017 -0.026276408 -0.022219418 4287315253
0.005034551 -0.02784889 -0.02106915 4286529853
0.0074518397 -0.030229475 -0.01928528 4286529853
0.010226808 -0.034226578 -0.016234227 4286399038
0.012161404 -0.034180932 -0.016354216 4286267969
0.014272027 -0.034943588 -0.015840389 4286267969
0.016030066 -0.034089409 -0.016593985 4286332993
-0.02490861 -0.034956437 -0.016478088 4288430368
-0.023226075 -0.033289246 -0.017869927 4288101419
-0.021808919 -0.029998999 -0.020531282 4288362538
-0.020283729 -0.027520632 -0.022556217 4288362538
-0.018774968 -0.025042541 -0.02458005 4289082404
-0.017282635 -0.022564761 -0.026602732 4289277988
-0.016082894 -0.01846445 -0.029893305 4289866784
-0.014628887 -0.015987299 -0.031913482 4289997598
-0.012904279 -0.015133 -0.032664254 4290390043
-0.010600314 -0.017523514 -0.030878745 4290390043
-0.0085780472 -0.018291365 -0.030361746 4290128158
-0.0063988194 -0.019869991 -0.0292114 4289931808
-0.0042088702 -0.021448284 -0.028061658 4288688683
-0.0012226254 -0.027081057 -0.02374601 4287642163
0.0011622235 -0.02946928 -0.021965157 4287184438
0.0032381266 -0.03023535 -0.021451179 4286791483
0.0053193122 -0.031001154 -0.02093742 4286595133
0.007573761 -0.0325775 -0.019791365 4286464319
0.010009632 -0.034964155 -0.018013407 4286398783
0.011767969 -0.034108032 -0.018765507 4286333248
0.013520718 -0.033251952 -0.019517198 4286594878
-0.027003087 -0.035729393 -0.018134208 4287971113
-0.024830967 -0.037313722 -0.016987531 4288297768
-0.023145732 -0.035642207 -0.018376296 4288297258
-0.021598622 -0.033156954 -0.020397857 4288297258
-0.020197786 -0.029858232 -0.023051692 4288231723
-0.018553682 -0.028187294 -0.024437616 4288624679
-0.017191153 -0.024889227 -0.027088888 4288755238
-0.015712485 -0.022405107 -0.029105846 4289212708
-0.014531713 -0.018294273 -0.032387093 4289670178
-0.012804456 -0.017437752 -0.033136427 4289800993
-0.010790415 -0.018208001 -0.032620627 4289473573
-0.0083243996 -0.021418028 -0.030208519 4289212199
-0.0059883744 -0.023814183 -0.028429678 4287838513
-0.0034818426 -0.027023077 -0.026019949 4287249974
-0.00079667568 -0.031044492 -0.022979822 4286988088
0.0014362484 -0.032625958 -0.021835854 4286726203
0.0035174042 -0.033394083 -0.021323821 4286595388
0.0057690591 -0.034974977 -0.020180844 4286595133
0.0076955929 -0.034929737 -0.020300496 4286595134
0.0097925961 -0.035697218 -0.019789245 4286660158
-0.025239982 -0.036410671 -0.02002917 4288101928
-0.023189854 -0.037183184 -0.019517854 4288493608
-0.021515619 -0.035507426 -0.020902663 4288166443
-0.020241752 -0.031384025 -0.024181979 4288493864
-0.018597644 -0.029708771 -0.025564693 4288493864
-0.016964536 -0.028033627 -0.02694669 4288493608
-0.015618328 -0.024727147 -0.029590413 4288886309
-0.014434647 -0.020605389 -0.032863773 4289081638
-0.012704726 -0.019746659 -0.033611678 4289670178
-0.010542043 -0.021334633 -0.032466881 4289473574
-0.0082197934 -0.023737717 -0.030692171 4287576884
-0.0057298169 -0.026955791 -0.028287945 4287118903
-0.003218241 -0.030173264 -0.025884995 4287053624
-0.00084202737 -0.03257484 -0.024113379 4286857018
0.0015503466 -0.034975909 -0.022342747 4286660668
0.0034716278 -0.034930985 -0.022462215 4286464574
0.0053927749 -0.034886003 -0.022581631 4286660413
0.0071459189 -0.034025852 -0.023330323 4286725694
-0.023482542 -0.037087496 -0.021920299 4287250484
-0.021559738 -0.037043884 -0.022040863 4287839279
-0.020026226 -0.034545887 -0.024051799 4288297258
-0.018376689 -0.032866139 -0.025431681 4288231723
-0.016873311 -0.030368602 -0.027440561 4288624424
-0.015524261 -0.027053388 -0.03007802 4288297004
-0.014197066 -0.023738576 -0.032714039 4288231468
-0.012461774 -0.022877544 -0.033460662 4287838513
-0.010293908 -0.024469726 -0.032319479 4287184183
-0.007817775 -0.027696932 -0.029920943 4286725948
-0.0054714903 -0.030105934 -0.028152466 4286791483
-0.0031090602 -0.032514427 -0.026384968 4286791483
-0.0010442659 -0.033287495 -0.025875302 4286725948
0.001185447 -0.034877807 -0.024737582 4286594879
0.0031011924 -0.034833048 -0.024856733 4286529599
-0.021984667 -0.036119189 -0.025065079 4288100908
-0.019940592 -0.036895946 -0.024556506 4288231724
-0.018288359 -0.035211798 -0.025933335 4288297259
-0.016782206 -0.032707706 -0.027937565 4288100908
-0.015430305 -0.029383747 -0.030568752 4287773744
-0.013959724 -0.026880238 -0.03257066 4287838768
-0.012219049 -0.026016928 -0.033316016 4287315254
-0.010046005 -0.027613331 -0.032178387 4286791994
-0.0077135041 -0.030029312 -0.030413996 4286595388
-0.0055162385 -0.031625021 -0.029277707 4286660668
-0.0033082366 -0.033220351 -0.028142061 4286594878
-0.0014031976 -0.03317605 -0.028260697 4286660158
0.00066126138 -0.033951215 -0.027752563 4286725693
-0.020114284 -0.037605304 -0.026318178 4288035118
-0.018200114 -0.037561692 -0.026438056 4288231468
-0.016556151 -0.035873331 -0.027811091 4288297259
-0.015336446 -0.031718317 -0.031062609 4287904559
-0.013722595 -0.03003047 -0.032433558 4287642418
-0.011833347 -0.029987037 -0.032551587 4287053369
-0.009652406 -0.031587619 -0.031417686 4286791483
-0.0077579543 -0.031543873 -0.031535897 4286333504
-0.0057123005 -0.03232196 -0.03102844 4286333505
-0.0039694607 -0.031456102 -0.031772073 4286398784
-0.018773284 -0.035792902 -0.030071704 4287380278
-0.017005209 -0.034924991 -0.030815821 4287576883
-0.015655782 -0.031583764 -0.033433981 4287707699
-0.013766535 -0.031540439 -0.033552088 4287707699
-0.01187741 -0.03149702 -0.033670116 4286922299
-0.0096966997 -0.033101995 -0.032539465 4286594878
-0.0079509467 -0.032234102 -0.033281818 4286594879
-0.0060594752 -0.032190323 -0.033399764 4286071364
-0.017318953 -0.03479008 -0.033187445 4287249463
-0.015699562 -0.033093549 -0.034552384 4287707444
-0.013810441 -0.033050261 -0.034670509 4287707444
-0.011778373 -0.033833362 -0.034165695 4286856508
-0.0097409785 -0.034616228 -0.033661135 4286790973
-0.016018458 -0.032945618 -0.036913924 4287052603
-0.013994608 -0.0337312 -0.036410302 4287183418
-0.012251448 -0.032859258 -0.037149444 4286332993
-0.014459062 -0.032745913 -0.039386347 4287052348
-0.012395833 -0.0020059124 0.021992037 4281561433
-0.012715425 -0.0020726658 0.019471025 4280322389
-0.011172898 0.00023652241 0.017318996 4282221374
-0.0090770721 -0.00047340244 0.017873188 4283789623
-0.012623966 -0.0044014379 0.018981664 4280062034
-0.011078656 -0.002085682 0.016834376 4280847178
-0.009265095 -0.0012838803 0.016037444 4281630539
-0.012669515 -0.0059751198 0.017815923 4279603543
-0.011124149 -0.003652785 0.015673513 4280063308
-0.0094529763 -0.0020897426 0.014205189 4280586824
-0.0077928677 -0.00052686967 0.012737693 4281436483
-0.005848296 -0.00048201717 0.01261632 4282024258
-0.012988694 -0.0060257893 0.015306903 4279014749
-0.011309206 -0.0044582561 0.013841255 4280128334
-0.0097829998 -0.0021297056 0.011704989 4280588099
-0.0079833642 -0.0013237689 0.01091231 4280849474
-0.0061893612 -0.00051779486 0.010120029 4281958469
-0.0042505488 -0.00047295727 0.009999102 4284181304
0.027485043 -0.010430646 0.017552549 4282738769
-0.01303415 -0.0075945165 0.014144836 4279798364
-0.011354662 -0.0060226265 0.012682421 4280062799
-0.0095440224 -0.0052143633 0.011890594 4279933259
-0.0078839287 -0.0036427323 0.01042961 4280849474
-0.0063825399 -0.0013079364 0.0082998835 4280652614
-0.0047473088 0.00026332773 0.0068405978 4280456773
-0.0028169677 0.00030808337 0.006720284 4282939199
0.020050965 -0.0060556214 0.011407845 4283394884
0.022189043 -0.0067716055 0.011954093 4282805834
0.024709284 -0.0090121208 0.013833934 4282413134
0.027627915 -0.012776672 0.017046357 4282347088
-0.038565814 0.0048701111 0.0017186999 4284704308
-0.013352979 -0.0076314639 0.011645909 4279731298
-0.011539541 -0.0068210382 0.010855468 4279606094
-0.0097316951 -0.006010633 0.010065455 4280128844
-0.0079294741 -0.0052002389 0.0092758834 4280456519
-0.0062804595 -0.0036243666 0.0078188535 4279999814
-0.004642494 -0.0020486657 0.0063626505 4279869253
-0.0027095452 -0.0020038318 0.0062421877 4281502529
-0.00077680498 -0.0019588824 0.0061218254 4282939963
0.017510295 -0.0053738579 0.0083713587 4283200064
0.019820526 -0.006856991 0.009582242 4282481474
0.021955736 -0.0075752493 0.010127105 4282479943
0.024661325 -0.010586859 0.012667594 4282478924
0.027961738 -0.015891213 0.017202215 4282543439
-0.011445612 -0.0091505144 0.010365397 4279994968
-0.009493053 -0.0091056358 0.010243405 4279737419
-0.0078302473 -0.0075252 0.0087887421 4280130373
-0.0060309768 -0.006712595 0.0080010481 4280390218
-0.0043875799 -0.0051323548 0.0065477118 4280326723
-0.0024493337 -0.0050873719 0.006426936 4280653123
-0.0008226186 -0.0035073515 0.0049748383 4281240898
0.00079301745 -0.0019274577 0.0035234541 4282416448
0.013224579 -0.0054911692 0.0061283819 4283200318
0.015341237 -0.0062122587 0.0066725425 4282286398
0.01746311 -0.0069331229 0.0072164573 4282026298
0.019773088 -0.0084206071 0.0084241312 4282156604
0.022093736 -0.0099078035 0.0096312389 4282548284
0.024801686 -0.012928045 0.012165127 4282741573
0.028104261 -0.018247584 0.016688293 4283000909
-0.016600914 -0.0038720462 0.0034622699 4283919419
-0.0098226741 -0.0091292234 0.0077553391 4279928414
-0.0077311397 -0.0098542525 0.0082985703 4280064838
-0.0059292316 -0.0090393685 0.0075123608 4280457284
-0.0041329339 -0.0082245301 0.006726563 4280914244
-0.0023422539 -0.0074097011 0.005941201 4281372224
-0.00086843967 -0.005055571 0.0038280375 4280982074
0.00058887154 -0.0027017053 0.0017159916 4281959999
0.0021907166 -0.001117697 0.00026883185 4282286908
0.010894537 -0.0055530835 0.0037709083 4282939708
0.01317773 -0.0070458595 0.0049768537 4282352699
0.015294209 -0.007769106 0.0055194274 4282157369
0.017235816 -0.0077230725 0.0053991675 4282026554
0.019725651 -0.0099839782 0.0072661955 4282223158
0.022231601 -0.012244448 0.0091323424 4282354739
0.025130145 -0.016042218 0.012321683 4282613308
0.028055646 -0.019839261 0.015509417 4282937668
-0.010294005 -0.0083716307 0.0046105701 4279864918
-0.007921502 -0.010643233 0.0064790603 4280587334
-0.0058276057 -0.011370271 0.0070206132 4280391494
-0.004028663 -0.010553176 0.0062362812 4281110594
-0.0023881495 -0.0089642024 0.004789738 4281176893
-0.0009142682 -0.0066035111 0.0026814416 4281569338
0.00054309517 -0.0042431001 0.0005742535 4281635383
0.0019839704 -0.0018830243 -0.0015317984 4281962804
0.0042268857 -0.003381433 -0.00032690912 4281960254
0.006314069 -0.0041079093 0.00021559559 4282482238
0.0089139715 -0.0071487483 0.0027427729 4282679609
0.010847926 -0.0071031488 0.0026227981 4282352444
0.013130873 -0.0086002816 0.003825523 4282288694
0.014892533 -0.0077830181 0.0030442104 4282419253
0.017188661 -0.0092796432 0.0042462647 4282680629
0.019678198 -0.01154709 0.0061084591 4282551598
0.022183836 -0.013814086 0.007969778 4283269168
-0.013391089 -0.003773177 -0.0017131455 4282148444
-0.0058734566 -0.01293104 0.0058644898 4280713814
-0.0039245263 -0.012885891 0.0057429876 4281633599
-0.0022812933 -0.011292494 0.0042995159 4281766198
-0.0008046329 -0.0089252032 0.002195904 4282092344
0.00081375241 -0.0073321741 0.00075413473 4281767219
0.0022601187 -0.004965378 -0.0013474356 4281962804
0.004180938 -0.0049203578 -0.0014667939 4281962804
0.006267935 -0.0056490283 -0.00092590414 4282417468
0.008698374 -0.0079248827 0.00093481503 4282418744
0.010973103 -0.0094265789 0.0021347292 4282483769
0.013083994 -0.010154433 0.0026743989 4282679354
0.015377373 -0.011655534 0.0038732737 4282680629
0.017681405 -0.013156264 0.005071573 4282811188
0.020178802 -0.015430086 0.0069284756 4283790898
-0.0059192926 -0.014491554 0.004708549 4282874429
-0.0038205236 -0.015222714 0.0052466523 4282418744
-0.0021745712 -0.01362488 0.0038062613 4282615604
-0.00085052848 -0.010474799 0.0010480862 4281505589
0.00076784194 -0.0088774022 -0.00039043836 4281897779
0.0023751482 -0.0072801244 -0.0018282421 4281702959
0.0042985752 -0.0072350483 -0.001947768 4282157369
0.0063881055 -0.007965805 -0.001408631 4282288693
0.0089899674 -0.011024008 0.0011054873 4282223924
0.011269905 -0.012529974 0.0023018904 4282419508
0.013560519 -0.01403557 0.0034976415 4282681139
0.015684612 -0.014765141 0.0040349085 4283072309
0.018173762 -0.017045766 0.0058874153 4283334194
-0.00058571994 -0.013580923 0.0012157597 4282159920
0.00088001788 -0.011200679 -0.00087735616 4281831989
0.0024900585 -0.0095989872 -0.0023120977 4282224688
0.0044160709 -0.0095538441 -0.0024317801 4282092089
0.006674394 -0.011064871 -0.0012374204 4282222394
0.0091123506 -0.013353587 0.00061314926 4282680629
0.011566423 -0.015641805 0.0024627242 4282878253
0.013513446 -0.01559579 0.002342023 4284576554
-0.00063176453 -0.015134352 6.5106899e-05 4283401769
0.00099206716 -0.013528071 -0.0013673231 4282421038
0.0027655661 -0.012702399 -0.0021432564 4281440564
0.0048603565 -0.013437493 -0.0016077626 4282287164
0.0067942291 -0.013392041 -0.0017278399 4282616368
0.0092345923 -0.015687235 0.00011771917 4283401003
0.011347853 -0.016421594 0.00065228902 4283924009
0.0033621565 -0.017379478 -0.00067255832 4283333173
0.0054676309 -0.018116478 -0.00013933145 4283398199
0.0074122697 -0.018070798 -0.00026009791 4283922734
0.005747743 -0.021243216 1.1736527e-05 4284248114
0.0071735978 0.050658282 0.023365205 4278462674
0.0092353895 0.04999378 0.023955779 4278462419
-0.0013699904 0.044659186 0.027077539 4280172704
5.5260956e-05 0.046834584 0.024835424 4278793919
0.0019523278 0.046878118 0.02471686 4278530503
0.0049045086 0.050517377 0.020944262 4278528973
0.0064452738 0.051981512 0.01941281 4280695709
0.0086697191 0.050604325 0.020709326 4280104108
0.011257648 0.047807064 0.023418454 4279315904
-0.0029871985 0.05025639 0.018881319 4279316924
-0.00094906986 0.049586635 0.019469952 4279381948
0.0014197305 0.047491733 0.021469964 4279122103
0.012747474 0.047753599 0.020763362 4278596294
0.015179992 0.045660656 0.022759842 4278793408
-0.007622987 0.043611992 0.023051644 4278857924
-0.0067876354 0.04866137 0.017998451 4278460633
-0.0053726956 0.050849553 0.015766734 4278460633
0.00088749081 0.048118677 0.018233037 4279645619
0.0027677789 0.048161995 0.018115638 4279382458
0.0043115765 0.049634952 0.016590504 4278988994
0.010110237 0.049050625 0.016943363 4278660808
0.011986598 0.049094234 0.016826494 4278793408
0.013862714 0.049137924 0.016709702 4278923969
0.015738554 0.049181681 0.016592981 4279447483
0.018550076 0.045653824 0.019989816 4280298929
-0.0098572671 0.043479469 0.020634079 4278923969
-0.0084118322 0.045674775 0.018405231 4278399178
-0.0071346611 0.048587162 0.015474157 4279251899
-0.0057250783 0.05078188 0.013247645 4278988739
-0.001676552 0.049433101 0.01442015 4278595018
0.00068078935 0.0473249 0.016411187 4279448759
0.002392903 0.048085202 0.015591567 4278988739
0.004267402 0.048128519 0.015474623 4278990014
0.0061416775 0.048171896 0.015357746 4278728129
0.0080157146 0.048215348 0.015240943 4278334408
0.0097132698 0.048975658 0.014422478 4278858688
0.011584103 0.049019177 0.014305981 4278990014
0.013091311 0.050496075 0.012786759 4279054783
0.016633682 0.051299784 0.011853708 4278656729
0.019444525 0.047761124 0.01524256 4279377869
0.03219679 0.022107698 0.040107839 4282265488
-0.011650011 0.041197043 0.020329138 4279123124
-0.01033958 0.044118781 0.017402371 4278793919
-0.0074814707 0.048521984 0.01295655 4278531014
-0.0060772598 0.050723176 0.010735279 4279711408
-0.0040612295 0.050046433 0.011320405 4279120318
0.00031162798 0.047254976 0.01389184 4279317689
0.0023487955 0.046578977 0.014475835 4279121339
0.0038872063 0.048060622 0.01295766 4278859453
0.0057559311 0.04810391 0.012841159 4279187638
0.007624425 0.048147295 0.012724744 4279056313
0.009316504 0.048909705 0.011908272 4278793663
0.01082401 0.050390977 0.010392206 4278464713
0.012501992 0.051153202 0.0095767248 4278528719
0.014174283 0.051915366 0.0087616574 4278922948
0.016027912 0.051958773 0.0086464416 4279381693
0.018260852 0.050564978 0.00992986 4278330073
-0.011760287 0.030246805 0.028430128 4282206839
-0.01083336 0.03534402 0.023405274 4279319729
-0.0097986832 0.039718609 0.019083267 4279057589
-0.0087969303 0.044092599 0.01476335 4278791369
-0.000544779 0.049358513 0.0092810839 4279055293
0.0016438216 0.047958646 0.010563519 4279121338
0.0035072193 0.048001785 0.010447327 4278793919
0.0053704008 0.048044983 0.010331206 4279122104
0.0070599616 0.04880948 0.0095164888 4278925243
0.0089199394 0.048852783 0.0094006956 4279384244
0.010600865 0.049617235 0.0085866302 4279186619
0.013945632 0.051146019 0.0069597047 4279775669
0.01579646 0.051189397 0.0068446863 4279581358
0.017836757 0.050511982 0.0074274559 4279580594
0.020459525 0.047672469 0.010102412 4279709879
0.023494102 0.043392148 0.014170745 4279643578
0.035028502 0.022630457 0.034029037 4280498084
-0.011382945 0.026524536 0.029379385 4281549703
-0.010160834 0.030189093 0.025763238 4280960143
-0.0094043985 0.036025271 0.020052599 4280173468
-0.0086917579 0.041860487 0.014344802 4279252154
-0.0077199191 0.046247024 0.010036595 4279447739
-0.0064724982 0.04918519 0.0071270503 4279184578
-0.0049331635 0.050675336 0.0056151208 4278463693
-0.0030855387 0.050717894 0.0054997522 4278988738
-0.0012381524 0.050760534 0.005384462 4279186109
0.0009393096 0.049356092 0.0066643767 4279251898
0.0026238412 0.050122518 0.0058515035 4278726854
0.0064958483 0.049485076 0.006318178 4279514804
0.0085236132 0.048804853 0.0068998449 4279645364
0.010199055 0.049571443 0.006087739 4279381183
0.033761449 0.02539156 0.028691197 4279974058
-0.011005998 0.022789385 0.030319108 4282142578
-0.0097755194 0.026465122 0.026710598 4281286544
-0.0087185055 0.030866578 0.022406699 4280566678
-0.0078431293 0.035993494 0.017408019 4279516335
-0.0070061162 0.041119669 0.012411764 4279316414
-0.0062074587 0.046245012 0.0074180104 4279316924
-0.0051333532 0.049917627 0.003819624 4278922693
-0.0036078319 0.051411998 0.0023118593 4278923458
-0.0016063452 0.0507286 0.0028932672 4278727108
0.0004003495 0.050045457 0.0034743715 4278858178
0.0022444874 0.050088223 0.0033594389 4278329054
0.0040884018 0.050131071 0.0032445807 4278458594
0.0061053261 0.049448412 0.0038252287 4278328544
0.009797439 0.049534608 0.0035955533 4279578553
0.011824548 0.048852418 0.004175745 4279118534
0.013672732 0.04889575 0.0040609092 4278988993
0.019600369 0.047575865 0.0051053911 4278726853
0.022818126 0.042544041 0.0098490976 4279253429
0.029768027 0.031033311 0.020717202 4278925243
0.033307835 0.025279634 0.026147278 4280105893
-0.011050917 0.021227017 0.02916172 4281352589
-0.00953383 0.023456801 0.026952708 4281417358
-0.0081792325 0.026414704 0.024049299 4280960144
-0.0068466365 0.029372193 0.021147331 4280501143
-0.0059902072 0.034514111 0.01616131 4279911583
-0.0051721334 0.039655272 0.011177689 4279057078
-0.0043924302 0.044795599 0.006196592 4279316923
-0.0030128211 0.047022786 0.003996592 4279120063
-0.001162909 0.04706556 0.0038812049 4279120318
0.00052178651 0.047836374 0.0030715726 4278266833
0.0022008121 0.048607145 0.0022623558 4279382458
0.0038741678 0.049377855 0.0014535487 4279841458
0.0095746815 0.048779119 0.0018035155 4279119808
0.011780255 0.047367144 0.0030755959 4279185343
0.013628341 0.047410529 0.0029608048 4279316159
0.015476175 0.047453966 0.0028460734 4279250369
0.01770281 0.04604267 0.0041170679 4279381948
0.020708993 0.041722391 0.0081579648 4279185089
0.024137489 0.035948377 0.013581851 4279054784
0.02741155 0.03090271 0.018310795 4279581613
0.030723438 0.025857955 0.02303748 4280173469
0.033870004 0.021541297 0.027069898 4282336889
-0.010955453 0.018934213 0.028698774 4281220498
-0.0094355792 0.021170657 0.026494497 4281286544
-0.0077863559 0.022676166 0.024985241 4281025423
-0.0061482564 0.024181571 0.023476714 4280894354
-0.0049752221 0.027878225 0.019888317 4280107423
-0.004137747 0.033035133 0.014914935 4279255723
-0.0034953952 0.038921628 0.0092507601 4279189169
-0.0024183542 0.042616334 0.0056685582 4279316923
-0.0010443181 0.04485007 0.0034738705 4279316924
0.0019894242 0.047856394 0.00047292933 4278660044
0.0034896061 0.04935934 -0.0010264553 4279448248
0.00532493 0.049402136 -0.0011406653 4279382713
0.0071600154 0.049445022 -0.0012547933 4278857158
0.0093520135 0.048028257 1.4897436e-05 4279054273
0.011554636 0.046611886 0.0012839474 4279119809
0.01376792 0.045195837 0.0025523938 4278988484
0.01636529 0.042320784 0.0052029639 4278988228
0.019173644 0.038716745 0.0085434392 4279185089
0.022393286 0.033654343 0.013264352 4279645618
0.025650755 0.028592948 0.017982924 4280238239
0.028550819 0.024991289 0.021317875 4281026443
0.031678133 0.020660996 0.025341759 4281353863
0.034025624 0.01924862 0.026602259 4282991473
-0.010860145 0.016637322 0.028232804 4282664308
-0.0091943815 0.018147513 0.026725711 4281156239
-0.0076855272 0.020390388 0.024527086 4280829328
-0.0060446858 0.021900214 0.023021704 4280697493
-0.0047174767 0.024875246 0.020133199 4280107424
-0.003104277 0.026384674 0.01862965 4279516844
-0.0021290481 0.030824043 0.0143605 4279911073
-0.0013461336 0.035995211 0.0094020609 4279649444
-0.00076374412 0.041898016 0.003754776 4279513274
0.0001046285 0.046335194 -0.00050750002 4278725834
0.0094863996 0.045818005 -0.00038980879 4279186618
0.012053974 0.042933393 0.0022560321 4279120318
0.014827028 0.039317477 0.0055904873 4279383479
0.018000357 0.034238622 0.010302786 4279318453
0.021211542 0.029160704 0.01501284 4279976099
0.024268448 0.024815474 0.019031158 4280698258
0.026968107 0.021934375 0.021669099 4281223558
0.0294917 0.019785415 0.0236167 4281551234
0.031831086 0.01836846 0.024874436 4282009469
0.034181066 0.016951825 0.02613158 4282140283
-0.0092395246 0.016586039 0.025569005 4281483403
-0.0077306032 0.018835481 0.023375256 4281222284
-0.0060897619 0.020349726 0.021873156 4280698004
-0.004460007 0.021863848 0.02037177 4280500633
-0.0028413609 0.023377754 0.01887119 4279910563
-0.0015471056 0.026360977 0.015991399 4280239259
-0.00075296313 0.031547781 0.011043604 4280108189
2.8312206e-06 0.036733739 0.0060983077 4279648678
0.00039063394 0.04338799 -0.00022349134 4279252664
0.0013993755 0.04710329 -0.0037849611 4279513529
0.0027211905 0.049349252 -0.005966411 4279054783
0.0048913807 0.047923174 -0.0047019133 4279185854
0.0072479472 0.045763176 -0.0027492996 4279119808
0.0099775046 0.042135213 0.00057966635 4279580084
0.013096347 0.037039619 0.0052839294 4279581104
0.016253032 0.031945039 0.0099858642 4279976863
0.019447587 0.02685139 0.014685551 4280436118
0.022301354 0.023226649 0.018007031 4280698768
0.024797983 0.021070395 0.019951357 4281026189
0.027310677 0.018914644 0.02189471 4281420419
0.029641964 0.017493043 0.023149719 4281682558
0.031983837 0.016071819 0.024404084 4281878909
0.034133419 0.015384551 0.024970757 4282271099
-0.0091417283 0.014287606 0.025101693 4282531199
-0.0076300204 0.016543709 0.022912672 4281680774
-0.0061348528 0.018799491 0.020724798 4280960399
-0.0045050904 0.020318013 0.019226683 4280501143
-0.0028864369 0.021836326 0.017729374 4279779238
-0.0012788773 0.02335453 0.016232798 4280698004
-0.00016034395 0.027083088 0.012672437 4280304538
0.00076872855 0.031547844 0.0084258337 4280238239
0.0013353676 0.03748541 0.0028056316 4279711664
0.002025716 0.042685363 -0.0021240581 4279120318
0.0033585057 0.044938158 -0.0043013012 4279119809
0.0055393651 0.043507989 -0.0030406974 4279185853
0.0084334612 0.039132331 0.0009679608 4279515313
0.011360012 0.034757502 0.0049746633 4279976608
0.014500082 0.029647149 0.0096662696 4280173724
0.01767797 0.024537828 0.014355561 4280895374
0.02052068 0.020901859 0.017669572 4281157768
0.023201086 0.018002748 0.020295659 4281354629
0.025519066 0.016576376 0.02154818 4281420164
0.027847655 0.015150346 0.022800038 4281485953
0.029989459 0.014460616 0.023365499 4281485954
0.032336555 0.013035141 0.02461637 4281878909
-0.0060316175 0.016510289 0.020263912 4281942913
-0.0045502037 0.018772479 0.01808182 4281091214
-0.0029315352 0.02029518 0.016587773 4279713704
-0.0013239682 0.021817777 0.015094457 4280959379
-4.5977533e-05 0.024818223 0.012228826 4280893589
0.0012099966 0.027818296 0.0093645994 4280762263
0.0021146014 0.032295782 0.0051293187 4280760988
0.0034885481 0.03455599 0.0029543824 4280760479
0.0046758056 0.03755473 9.4622374e-05 4280105639
0.0068782195 0.036120765 0.0013506263 4279645874
0.0096180215 0.032471169 0.0046627037 4279648168
0.012919724 0.026606511 0.010029329 4279976098
0.015540652 0.023697056 0.012652459 4280894864
0.018366843 0.02004974 0.015959354 4281223049
0.020847082 0.017879911 0.017894903 4281288329
0.023343384 0.015710589 0.019829469 4281223048
0.025471933 0.015018199 0.020394085 4281485699
0.028384186 0.011373237 0.023695884 4281551489
0.030533977 0.010681532 0.024259245 4281551744
0.033089086 0.0085138567 0.026190439 4282532983
-0.0045953542 0.017227203 0.016937157 4282466173
-0.0031304061 0.019495647 0.014761103 4280698003
-0.0016820133 0.02176385 0.012586107 4280893589
-0.00025015324 0.024031766 0.010412212 4281024404
0.0011651665 0.026299346 0.0082394667 4281089938
0.0027285367 0.027825613 0.0067523867 4280958869
0.0044481531 0.028610647 0.0059505422 4280172703
0.0061621219 0.029395618 0.0051491037 4280893078
0.0085615739 0.027216993 0.0070844609 4280040614
0.010977142 0.025038797 0.009018939 4279976098
0.013943531 0.020638779 0.013003746 4280632469
0.016218506 0.019202381 0.014252232 4281091724
0.018687792 0.017025743 0.016183516 4281419399
0.020986766 0.015590105 0.017430665 4281222793
0.023674615 0.012673769 0.02004336 4281616259
0.026000299 0.011238944 0.021288911 4281420419
0.028725713 0.0083236657 0.023899408 4281617533
0.031078078 0.0068895705 0.025143454 4282075514
0.03364104 0.0047156401 0.027069295 4282664309
-0.0015706569 0.019488566 0.012134915 4281351824
-0.0001359731 0.021763083 0.0099657755 4280892059
0.0014439598 0.02329402 0.0084808562 4280630429
0.0030128062 0.024824753 0.0069967359 4280697238
0.0050723925 0.02412574 0.007561842 4280499613
0.0069672018 0.024170034 0.0074440129 4280500379
0.0092072412 0.022728279 0.0086912289 4280632469
0.01145795 0.021286834 0.009937901 4280500633
0.014075659 0.018359806 0.012548232 4281353864
0.016534001 0.016176309 0.014475288 4281288329
0.019008443 0.013993233 0.016401453 4281289094
0.021312617 0.012553409 0.017645 4281485699
0.024005547 0.0096284971 0.020250918 4281550978
0.026528209 0.0074468032 0.022174271 4281944443
-0.0014594421 0.017209198 0.011680704 4282006663
-2.1979213e-05 0.019490354 0.0095162764 4281220498
0.0012371615 0.022516791 0.0066713858 4280104874
0.0031322911 0.022560947 0.0065534282 4280367779
0.0048599914 0.023350585 0.0057543647 4280238238
0.0074317157 0.020413533 0.0083609018 4280239004
0.00967969 0.018967621 0.0096043963 4281026188
0.012113705 0.01677683 0.011528039 4280304284
0.014385723 0.015331656 0.012770174 4281223049
0.017210864 0.011651587 0.016052814 4281224069
0.019512355 0.010207236 0.017293284 4281027463
0.022010721 0.0080183335 0.019213142 4281551744
0.024525188 0.0058298614 0.02113211 4282009724
0.0015155822 0.019501071 0.0069050826 4281746054
0.0032516196 0.020293035 0.0061070789 4281549448
0.0049819946 0.021084934 0.0053094812 4280763029
0.0073862001 0.018886749 0.0072300043 4280305049
0.0098065212 0.016689051 0.0091495328 4280961674
0.012418285 0.013744403 0.011747247 4279518373
0.014873542 0.011547673 0.013664784 4281092998
0.017525658 0.0086041428 0.016260119 4281420929
0.020015813 0.0064084418 0.018175578 4282075768
-0.014837164 -0.0087752091 0.030888477 4278271678
-0.013108235 -0.0072286949 0.029403275 4279059373
0.0033707842 0.018021014 0.0056576915 4282138753
0.0049367398 0.019564964 0.0041836221 4281351824
0.0075104609 0.016610529 0.006777091 4280566423
0.010105737 0.013656713 0.009369297 4280960653
0.013073064 0.0092043616 0.013315143 4279976864
0.015538909 0.0070013553 0.015227182 4281551488
-0.019004978 -0.0097137047 0.029274298 4279586203
0.0078043044 0.013578337 0.0069973208 4281810568
0.01057712 0.0098641254 0.010258751 4281943168
0.013201736 0.0069023818 0.012842739 4282596988
-0.021415953 -0.0090917014 0.026183086 4278734503
-0.017699726 -0.007491773 0.024579545 4279651994
-0.01598157 -0.005936861 0.02310144 4279849109
-0.026142608 -0.0062280428 0.021196684 4279063453
-0.023930643 -0.0076984689 0.02242483 4278801059
-0.021831237 -0.0084112268 0.022976553 4278734503
-0.024698749 -0.0047236029 0.017206134 4279587733
-0.022369388 -0.0069579296 0.01910576 4278932384
-0.02014979 -0.0084322691 0.020330386 4278538664
-0.016072609 -0.009102026 0.02075672 4278404535
-0.023030262 -0.0047250912 0.014575457 4280243594
-0.020698633 -0.0069657676 0.016470181 4278735523
-0.018608093 -0.0076828264 0.017019415 4278931873
-0.016512226 -0.0083996914 0.017568445 4278473128
-0.02137284 -0.0047177263 0.011952311 4280375429
-0.01916755 -0.0062009953 0.01317144 4279260823
-0.019983534 -0.0031695887 0.0079985745 4281161339
-0.015618984 -0.007704014 0.0092755128 4280377213
-0.014263019 -0.0061382521 0.0053375252 4279591814
-0.015126966 -0.0030547641 0.00020717084 4281425774
-0.030617855 0.0065709837 0.0048470311 4285163819
-0.034816422 0.0072461888 0.0019376408 4285295399
-0.033360031 0.010345161 -0.00086904131 4286082074
-0.031465758 0.010387562 -0.00098823383 4286081819
-0.029336251 0.0089021251 0.00023531355 4286082074
-0.036977887 0.0072117262 -0.00041284412 4285427233
-0.035296965 0.0087867044 -0.0018729996 4285689374
-0.033739213 0.011127885 -0.0040024677 4285754144
-0.031738374 0.010403879 -0.003451257 4285819424
-0.029614568 0.0089139268 -0.0022305343 4285951003
-0.027118981 0.0051260255 0.00099819712 4285557539
-0.024596259 0.0013388675 0.004225323 4285097773
-0.040921181 0.0063758846 -0.0019686054 4285099304
-0.039231926 0.0079552308 -0.0034262557 4285361954
-0.037447009 0.0087658204 -0.0042143045 4285689373
-0.035667639 0.0095764138 -0.0050019128 4286017559
-0.034005921 0.011155453 -0.0064575272 4285622819
-0.032125566 0.01119756 -0.0065758312 4285491493
-0.030010212 0.0097031072 -0.0053578513 4285622819
-0.027643517 0.0066723954 -0.002804596 4285623328
-0.02537816 0.0044105202 -0.00092035346 4285361188
0.0025587082 -0.0011150967 0.0027382486 4285360933
-0.045140259 0.0078584813 -0.0055248635 4285228843
-0.043549284 0.010212898 -0.0076471381 4285557284
-0.041570179 0.0094834343 -0.0070981802 4285492513
-0.039585713 0.0087542646 -0.0065495046 4285624093
-0.037595876 0.0080253296 -0.0060010841 4285623584
-0.035710007 0.0080673397 -0.0061199004 4286083604
-0.034048308 0.0096507408 -0.0075722681 4285951513
-0.032282863 0.010463484 -0.0083572473 4285885978
-0.0301705 0.0089645647 -0.0071422746 4285952279
-0.028047357 0.0074660443 -0.005927938 4285820444
-0.025913432 0.005967835 -0.0047141584 4285492258
-0.024145734 0.0067811012 -0.0054989252 4285427488
-0.021741666 0.0037428755 -0.0029542241 4285296164
-0.019184839 -6.4954162e-05 0.00025482476 4285427488
-0.047160931 0.0070814937 -0.0071898485 4285622818
-0.045564394 0.0094424523 -0.0093077049 4286016284
-0.043689229 0.0094837323 -0.0094262101 4286212888
-0.041713063 0.0087520927 -0.0088787135 4285951259
-0.03983533 0.0087936781 -0.0089971945 4285623584
-0.037851155 0.0080624111 -0.0084499838 4285623328
-0.035970878 0.008104302 -0.0085684424 4285689119
-0.034314658 0.0096920021 -0.010017253 4286083604
-0.032440037 0.0097339936 -0.010135192 4285951769
-0.030448098 0.0090033859 -0.0095881782 4285952278
-0.02821051 0.0067277178 -0.0077119758 4285558049
-0.026325334 0.0067702867 -0.007830319 4285558559
-0.024565883 0.0075855069 -0.0086129038 4285558558
-0.02268368 0.0076282434 -0.0087308912 4285426723
-0.020408474 0.0053539164 -0.0068567563 4284966704
-0.050881676 0.0047172196 -0.007402298 4285230374
-0.049265906 0.0070848987 -0.0095166881 4285427234
-0.047573708 0.0086768679 -0.01096512 4285558049
-0.045701347 0.0087179802 -0.011083528 4285623073
-0.043829054 0.0087592266 -0.011201832 4285819933
-0.041956834 0.0088005774 -0.011320053 4286148628
-0.040084705 0.0088420697 -0.011438159 4285689118
-0.038212661 0.0088836551 -0.011556191 4285558048
-0.036231518 0.0081502981 -0.011010362 4285558558
-0.034356929 0.0081921779 -0.011128377 4285558558
-0.032482449 0.008234188 -0.011246288 4285558304
-0.030490715 0.0075014271 -0.010700861 4285558049
-0.028253458 0.0052192099 -0.0088294977 4285623839
-0.02649124 0.0060365461 -0.0096107312 4285689374
-0.025111202 0.0091780126 -0.012379764 4285754908
-0.023496553 0.010769766 -0.013822183 4286344469
-0.02149998 0.010037668 -0.013276645 4286147098
-0.018829547 0.0054332092 -0.0094202114 4285950494
-0.016126588 0.00082961097 -0.0055657215 4285359914
0.0225069 -0.016930142 0.0081254393 4285491493
-0.052808858 0.0031679068 -0.00840024 4285032494
-0.051272161 0.0063198935 -0.011173919 4285361443
-0.049667265 0.0086938292 -0.013282721 4285952533
-0.047893226 0.0095123611 -0.014064079 4285688864
-0.045933679 0.0087757148 -0.013518902 4285425958
-0.043968752 0.0080393516 -0.012974021 4285491494
-0.041998461 0.0073032193 -0.012429394 4285688608
-0.040126469 0.0073446967 -0.0125475 4285755163
-0.038360976 0.0081636123 -0.013327819 4285623584
-0.036382765 0.0074280053 -0.012783431 4285558814
-0.034511052 0.0074698478 -0.012901247 4285558558
-0.032410286 0.0059575401 -0.011695377 4285493023
-0.030533332 0.0059997197 -0.011813357 4285558559
-0.028536461 0.0052649491 -0.011269755 4285558559
-0.026779778 0.0060844067 -0.012049044 4285689373
-0.02540506 0.0092344135 -0.014811235 4285820443
-0.023795884 0.010830466 -0.016250102 4286016284
-0.021935884 0.010872837 -0.01636659 4286081563
-0.019541424 0.0078084953 -0.013840531 4286082074
-0.016852595 0.0031915046 -0.009994871 4285426214
-0.051400356 0.0056005362 -0.012946638 4285361443
