# .PCD v0.7 - Point Cloud Data file format
VERSION 0.7
FIELDS x y z rgba
SIZE 4 4 4 4
TYPE F F F U
COUNT 1 1 1 1
WIDTH 970
HEIGHT 1
VIEWPOINT 0 0 0 1 0 0 0
POINTS 970
DATA ascii
0.027136065 -0.019736642 0.020275649 4290063899
0.029105596 -0.019695235 0.02017004 4290717973
0.031252787 -0.020425614 0.020726331 4290063388
0.033585876 -0.021927707 0.021944076 4289081383
0.035929583 -0.023429433 0.023161277 4289080619
0.038656071 -0.026474353 0.025700722 4289406763
0.022820152 -0.019848155 0.017995611 4289085973
0.024614878 -0.019032728 0.017229497 4289671964
0.026403934 -0.018217348 0.01646382 4290718484
0.028537601 -0.01895027 0.017019149 4290587158
0.030854337 -0.020457147 0.018234469 4290979348
0.033181742 -0.021963634 0.019449256 4290782998
0.035886377 -0.025017809 0.02198334 4289015083
0.038426518 -0.027297536 0.023856591 4289995814
0.022444174 -0.019868055 0.015510767 4289870099
0.024063781 -0.018274155 0.01408763 4289344544
0.02601698 -0.018233141 0.013982861 4289017123
0.027969986 -0.018192047 0.013878164 4289278754
0.030456111 -0.020479655 0.01574922 4290848788
0.032597356 -0.021214461 0.016302705 4289801759
0.035476699 -0.025053635 0.019489061 4289015593
0.037825197 -0.026563874 0.020699602 4288491313
0.020443179 -0.021477325 0.014452876 4289150234
0.022402123 -0.021436375 0.01434766 4289409569
0.023852162 -0.019059461 0.012270342 4290980113
0.025630243 -0.018239938 0.011508499 4289474849
0.027402684 -0.017420471 0.010747009 4289278499
0.029702663 -0.01893634 0.011956726 4289540129
0.032013305 -0.020451926 0.013165987 4289736733
0.034884103 -0.024302188 0.016344689 4289344289
0.037410118 -0.026595257 0.018209003 4286922044
0.020073116 -0.021483591 0.011977832 4288561183
0.022193283 -0.022223581 0.012528845 4289802013
0.02364067 -0.019840196 0.010456518 4290587669
0.025415994 -0.019018574 0.0096964324 4290587413
0.027185656 -0.018196955 0.0089367284 4290979858
0.029305018 -0.018936615 0.0094880452 4290979349
0.031790406 -0.02123725 0.011349545 4290391063
0.034291863 -0.023537399 0.013210217 4289475103
0.036809444 -0.025837166 0.015070132 4286006338
0.021817833 -0.022223141 0.010059086 4289933084
0.023598745 -0.021399308 0.0093002534 4289474849
0.025201827 -0.019792588 0.007887789 4289409058
0.027143627 -0.019751713 0.0077837063 4289998108
0.029085219 -0.019710759 0.0076796981 4289931809
0.031928264 -0.023583442 0.010843654 4289539108
0.03443218 -0.02589011 0.012699383 4289799974
0.021275952 -0.021428622 0.0069433013 4289670943
0.023218036 -0.021387909 0.0068390789 4290325529
0.024987824 -0.020562034 0.0060825376 4290456344
0.026926786 -0.020521211 0.0059786132 4289147684
0.029043093 -0.021265291 0.0065268511 4289800738
0.031705484 -0.024363944 0.0090307882 4289408804
0.03457237 -0.028246906 0.012185452 4289145899
0.020734407 -0.020620728 0.0038373657 4289671454
0.022837564 -0.021367503 0.004384513 4291372558
0.024429798 -0.019752312 0.0029790998 4291175699
0.026535265 -0.020498864 0.0035262518 4290913813
0.028645992 -0.021245237 0.0040731737 4289670433
0.031663015 -0.025926927 0.0078716809 4289605154
0.034529522 -0.029820804 0.011018255 4290257699
0.018431351 -0.02062948 0.0014943359 4290588179
0.020193227 -0.01979954 0.00074128807 4289409568
0.021949507 -0.0189697 -1.1374243e-05 4289867294
0.024044134 -0.019718761 0.00053466484 4289670689
0.026144013 -0.020467641 0.0010805484 4290913559
0.028426573 -0.022005631 0.0022750236 4289539109
0.031080127 -0.025121884 0.0047664875 4288818989
0.033755198 -0.028237589 0.0072568683 4287968053
0.017898723 -0.019797012 -0.0015939474 4290588178
0.019652419 -0.01896514 -0.0023449194 4290587414
0.021569699 -0.018924955 -0.0024478165 4288493098
0.023486786 -0.018884677 -0.0025506318 4289212453
0.025753006 -0.020427454 -0.0013585817 4289539363
0.027852505 -0.021178398 -0.00081428234 4289080873
0.030677676 -0.025095029 0.0023183115 4288753454
0.033346981 -0.028219521 0.0048024831 4286332993
0.01753021 -0.019745287 -0.0040259855 4290260503
0.019444838 -0.019705247 -0.0041288063 4291175953
0.021020979 -0.018077413 -0.005523778 4290717719
0.02310168 -0.018831093 -0.0049802107 4290717208
0.025362231 -0.020378388 -0.0037910542 4290651674
0.027456164 -0.021131635 -0.0032480797 4290323744
0.030095451 -0.0242656 -0.0007687984 4289014573
0.032573536 -0.026605479 0.0010640295 4286005828
0.017652914 -0.022073017 -0.0045170994 4290064408
0.019403771 -0.021236856 -0.0052646846 4289998618
0.021149017 -0.02040069 -0.0060119522 4290651928
0.022716835 -0.018768631 -0.0074031325 4291109909
0.024797179 -0.019524448 -0.0068611288 4290848279
0.027060054 -0.021075957 -0.005675266 4289408039
0.029873535 -0.025014546 -0.002558264 4289079853
0.032531321 -0.028156735 -8.6377375e-05 4289080109
0.017448299 -0.022808297 -0.0062976032 4289998873
0.019362718 -0.022768296 -0.0064004394 4289605663
0.020938881 -0.021131767 -0.0077889478 4289343524
0.022675738 -0.020293554 -0.0085340384 4289474339
0.024581462 -0.020253474 -0.0086362129 4289867294
0.027018584 -0.022607429 -0.0068110153 4289474593
0.029651761 -0.025758887 -0.0043443888 4289472808
0.015171252 -0.022778274 -0.0086136805 4290396929
0.0170803 -0.022738481 -0.0087162973 4289998618
0.018989161 -0.022698581 -0.0088188248 4290848788
0.020897843 -0.022658614 -0.0089212889 4290782743
0.02263467 -0.021818262 -0.009664786 4289670433
0.024540298 -0.021778185 -0.0097669549 4289539873
0.026977144 -0.024138685 -0.0079466058 4289540128
0.02978985 -0.028099045 -0.0048457365 4289538344
0.014648274 -0.021896757 -0.011666092 4290130198
0.016385555 -0.021054424 -0.012408221 4290914578
0.018449649 -0.021817429 -0.011870362 4291306514
0.020519003 -0.022580206 -0.011332771 4290913558
0.022593625 -0.023342766 -0.010795384 4291109909
0.024673499 -0.024105133 -0.010258217 4289670943
0.026935719 -0.025669739 -0.0090820463 4289344034
0.029388443 -0.028036326 -0.0072673936 4288557358
0.014286362 -0.021806808 -0.01407024 4291111183
0.015854724 -0.020157646 -0.015448743 4289540128
0.017910495 -0.020922983 -0.014912114 4289605154
0.019971542 -0.021688113 -0.014375697 4289866784
0.022209436 -0.023257745 -0.013201579 4290717208
0.02463232 -0.025631638 -0.011390293 4289474849
0.026540287 -0.025591468 -0.011492556 4289473573
0.028807551 -0.027160263 -0.010319849 4287379513
0.014085375 -0.022515111 -0.015830938 4290652438
0.01565101 -0.020861648 -0.017206129 4291045139
0.017703906 -0.021629248 -0.016670909 4289212198
0.019593261 -0.021589743 -0.016772378 4289277734
0.021825485 -0.02316381 -0.01560124 4289539364
0.023894183 -0.02393081 -0.015066742 4289605154
0.025968142 -0.024697652 -0.014532418 4290259738
0.028586417 -0.027884258 -0.012090893 4285875268
0.013723902 -0.022409581 -0.018223532 4289866783
0.015284128 -0.020751946 -0.019595172 4291044884
0.017331414 -0.021521814 -0.019061327 4290389788
0.019046471 -0.02067337 -0.019797299 4290389788
0.021270335 -0.022251969 -0.018628951 4290847258
0.023679107 -0.024639288 -0.016826594 4289930788
0.025927104 -0.026217276 -0.015659388 4289604644
0.011639059 -0.023145733 -0.019874476 4289806603
0.013523251 -0.023106635 -0.019975889 4289474338
0.015080765 -0.021444721 -0.021344161 4289670688
0.016959198 -0.02140555 -0.021445122 4290128159
0.018668771 -0.020555053 -0.02217919 4290848279
0.020886995 -0.022138156 -0.0210138 4290193183
0.023290038 -0.024532136 -0.019215997 4289472808
0.025709234 -0.026925627 -0.017419025 4289472298
0.011599138 -0.024651857 -0.020991486 4288823069
0.013322733 -0.023799179 -0.021724902 4288951333
0.015040733 -0.022946518 -0.022457946 4288885543
0.016587228 -0.021280382 -0.02382239 4288951079
0.018459968 -0.021241277 -0.023923006 4288885543
0.020503908 -0.022015501 -0.023392092 4289147174
0.023075305 -0.025229378 -0.020967595 4289605664
0.025314748 -0.02681629 -0.01980643 4289407273
0.01171694 -0.02697359 -0.021477804 4288364578
0.01360362 -0.026934434 -0.021579344 4288886309
0.015163869 -0.025263846 -0.022941358 4288886054
0.016878963 -0.024409015 -0.023672584 4289016613
0.018588468 -0.023554226 -0.024403457 4289147429
0.020463675 -0.023515005 -0.024504159 4289082404
0.022860743 -0.025922131 -0.022715792 4288820774
0.025273971 -0.028328912 -0.020928212 4288033843
0.011992313 -0.030117534 -0.021338247 4288429349
0.013884313 -0.030078303 -0.021440104 4288362538
0.015776195 -0.030039016 -0.021541908 4288362538
0.017336302 -0.028363947 -0.022900652 4288689448
0.018885404 -0.02668909 -0.024258722 4288558633
0.020252228 -0.024196627 -0.026244368 4287968818
0.02264633 -0.026610421 -0.024460681 4288491313
0.011952303 -0.031629615 -0.022459682 4288101419
0.014004514 -0.032410555 -0.021934405 4288493609
0.016062021 -0.03319126 -0.021409325 4288362538
0.017627597 -0.031511821 -0.022765122 4288427563
0.019182131 -0.029832475 -0.024120301 4288427563
0.020383313 -0.026513593 -0.026727986 4287968308
0.022432067 -0.027294187 -0.026202213 4288229939
0.010330006 -0.034825452 -0.022227369 4288561184
0.012227394 -0.034786269 -0.022329632 4288166698
0.014124632 -0.034747001 -0.022431822 4288231979
0.016021729 -0.034707654 -0.022533946 4288428074
0.017587312 -0.033023883 -0.023886524 4288231214
0.019141875 -0.031340241 -0.025238514 4288165678
0.020343192 -0.028012676 -0.027839746 4287837494
0.022391796 -0.028795473 -0.027315602 4287379259
0.010290064 -0.036341563 -0.023351802 4288560419
0.012029864 -0.035477906 -0.024078177 4288821028
0.013924286 -0.035438739 -0.024180248 4288493609
0.015818566 -0.035399456 -0.024282224 4288362539
0.017547086 -0.034535788 -0.025007812 4288231214
0.01927001 -0.033672143 -0.025733029 4288165423
0.020645246 -0.031160064 -0.027704675 4287837494
0.0099407732 -0.036204103 -0.025721425 4288167463
0.011832505 -0.036165081 -0.025823418 4288297768
0.013563968 -0.035299353 -0.026547678 4288297004
0.015452713 -0.035260241 -0.026649397 4288231469
0.017175741 -0.034394488 -0.027373128 4288296749
0.019061498 -0.03435529 -0.027474575 4288099888
0.020605087 -0.032663204 -0.028819449 4287706679
0.01851669 -0.033376768 -0.030453354 4287053114
0.020223096 -0.032509107 -0.031174444 4287640633
-0.010127887 -0.00037968159 0.017279357 4282088774
-0.008324381 0.00042111054 0.016501833 4283853628
-0.01185523 -0.0034912266 0.01758169 4279994203
-0.010290835 -0.0011595376 0.015462828 4280585038
-0.008490134 -0.00035660714 0.014687085 4280652614
-0.0065659136 -0.00031787343 0.014582631 4280913989
-0.0046418421 -0.00027902238 0.014478267 4281632578
-0.002717942 -0.00024009123 0.014373981 4281632833
-0.00093149394 0.00056300685 0.013599352 4281764159
0.00098934025 0.00060210004 0.013495394 4282286654
0.0030527562 -0.00012261048 0.014061698 4282940474
-0.0099591985 -0.0050007161 0.016328111 4280257873
-0.0082767531 -0.0034289733 0.014884076 4280457538
-0.0064762868 -0.0026237369 0.014110061 4280718913
-0.004681427 -0.0018185098 0.013336432 4280196164
-0.0028921664 -0.0010132901 0.012563181 4281175874
-0.00097128749 -0.00097427145 0.012459171 4281241664
0.00080946088 -0.0001690276 0.011686527 4281438269
0.0025845692 0.00063627958 0.010914247 4281307964
0.004644908 -9.0613961e-05 0.011479215 4281830713
0.006710507 -0.00081723183 0.01204395 4282221883
0.0086304992 -0.00077772513 0.011940357 4283527993
0.010396719 2.7738512e-05 0.011168889 4284443699
-0.010122158 -0.0057800356 0.014511981 4280783174
-0.0081898831 -0.0057412162 0.014407032 4280652359
-0.0063867792 -0.0049337074 0.013634454 4280914754
-0.0045892783 -0.0041262284 0.012862309 4280327999
-0.002662912 -0.004087206 0.012757921 4280784959
-0.00073670596 -0.0040480644 0.012653631 4281046843
0.00090949982 -0.0024721771 0.011215259 4281569338
0.0025446266 -0.00089636073 0.0097775245 4281570358
0.0044594184 -0.00085714087 0.0096740806 4281636404
0.0063740164 -0.00081782043 0.0095707281 4281701429
0.0082884431 -0.00077841803 0.0094674481 4281701429
0.010202669 -0.00073892064 0.0093642464 4281700664
0.012116723 -0.00069933385 0.0092611304 4281700664
0.014507495 -0.0029635075 0.011156292 4282287164
0.017561205 -0.0082988255 0.015714303 4282808894
0.020652793 -0.013633222 0.020270303 4283854649
-0.010038003 -0.008096382 0.014032 4279934023
-0.0082293749 -0.0072867051 0.013260727 4280652869
-0.0064263567 -0.0064770076 0.012489776 4281110849
-0.0046289228 -0.0056673437 0.011719265 4281307199
-0.0027026981 -0.0056283101 0.011614894 4281307709
-0.00077662617 -0.0055891722 0.01151061 4281111868
0.0011492595 -0.00554993 0.011406415 4281569338
0.0029324144 -0.004740132 0.010636992 4281439289
0.0045646355 -0.0031599328 0.0092027942 4281310258
0.0064818412 -0.0031205639 0.0090992963 4281700664
0.0083988681 -0.0030810889 0.0089958897 4281376304
0.010315701 -0.0030415207 0.0088925632 4281962804
0.012232356 -0.0030018743 0.0087893093 4281766454
0.014625557 -0.0052724592 0.010679458 4281700664
0.017681457 -0.010622978 0.015226019 4282222394
0.020775251 -0.015972557 0.019770578 4283007283
-0.012374464 -0.0073632859 0.010994756 4280521544
-0.010447778 -0.0073246844 0.010890027 4280980544
-0.0083950646 -0.0080589205 0.01144999 4280916284
-0.0063370317 -0.0087929983 0.012009778 4280851513
-0.0045369677 -0.007981047 0.011240711 4280982074
-0.0026081502 -0.0079419557 0.011136201 4281178424
-0.00081655383 -0.0071300045 0.010367793 4281243193
0.0012490079 -0.0078634527 0.010927453 4281504060
0.0030348077 -0.0070514083 0.010159518 4281178678
0.0048149899 -0.0062393807 0.0093919588 4281637169
0.0067375079 -0.0061998777 0.0092881927 4281702194
0.0085091591 -0.0053878166 0.0085212486 4281572144
0.010428607 -0.0053481758 0.0084177973 4281702704
0.012660123 -0.0068531632 0.0096403444 4282028848
0.014902346 -0.0083578695 0.010862433 4281765688
0.017963164 -0.013723484 0.015397356 4282549304
0.020733275 -0.017543819 0.018605277 4284512293
-0.015047941 -0.0042904895 0.0059763482 4283406868
-0.0091912337 -0.0049507916 0.0063278498 4281712904
-0.006892059 -0.0072375536 0.0082125561 4282619174
-0.0048398226 -0.0079737566 0.0087710926 4282289459
-0.0029165894 -0.0079347547 0.0086669018 4281439543
-0.00085649639 -0.0086705759 0.0092251757 4281243193
0.0012088716 -0.0094061922 0.0097832354 4281636913
0.0031370744 -0.0093667749 0.0096790111 4281766964
0.005065091 -0.0093272664 0.0095748669 4281833774
0.00714086 -0.010062393 0.010132645 4282093619
0.0090712532 -0.010022623 0.010028531 4282028593
0.010848083 -0.0092081111 0.0092629781 4281766964
0.012619309 -0.0083936788 0.0084978277 4282225199
0.014861293 -0.0099027418 0.0097166942 4282222393
0.017760076 -0.014509173 0.013579269 4282679863
-0.0080905929 -0.0017779861 0.0011224365 4284183088
-0.0060630701 -0.0025168583 0.0016806982 4282623509
-0.003895998 -0.0040327273 0.0028996924 4281382424
-0.0018551573 -0.0047711153 0.0034573907 4281901094
0.00061000884 -0.0078404788 0.0059967609 4282356268
0.0025271848 -0.0078012776 0.0058931401 4282095149
0.0045893118 -0.0085389018 0.0064499313 4282421038
0.006804578 -0.010053229 0.0076666614 4282290988
0.0090305507 -0.011567252 0.0088829482 4282094894
0.010960631 -0.011527369 0.0087789418 4282095149
0.012890525 -0.011487406 0.0086750044 4282226983
0.014978983 -0.012224009 0.0092307338 4282550834
0.017880008 -0.016843434 0.013083487 4282614838
0.01030685 -0.0099559315 0.0050004497 4282687514
0.012693614 -0.012252852 0.0068714647 4282422059
0.014937863 -0.013770556 0.0080837505 4282878253
0.017838411 -0.018403042 0.011926829 4284706094
0.008887589 -0.0044611059 -0.002048173 4284247603
0.011717297 -0.0091083385 0.0017888509 4283215364
-0.0026456192 0.044834986 0.039145324 4279842223
-0.00073783845 0.044872969 0.039041452 4278524129
0.0011697263 0.044911027 0.038937651 4279113689
0.0035097227 0.042827919 0.040970866 4280162758
-0.0045920759 0.043265715 0.038113397 4279712174
-0.003364075 0.046850935 0.03445372 4279317433
-0.0016087443 0.047598064 0.033639632 4279840949
0.00014091283 0.048345178 0.032825932 4279317178
0.0045045763 0.045583941 0.035462908 4279053763
0.0068520531 0.043494575 0.037491031 4279054783
0.0092156827 0.041405663 0.039518297 4278923713
0.011440374 0.040026188 0.040834703 4279251134
-0.0066690259 0.042408496 0.036371823 4282073219
-0.005429741 0.046004787 0.032719675 4278858433
-0.0023403913 0.049638107 0.028966919 4278725068
-0.00032167137 0.048964128 0.029574037 4279184068
0.0059155375 0.046231933 0.032102872 4279383989
0.0081102476 0.044847406 0.033417609 4278990269
0.010005608 0.04488574 0.03331485 4278793154
0.011900738 0.044924133 0.033212159 4278922694
0.015037507 0.047845528 0.030174822 4279050704
0.017086916 0.047172889 0.030780815 4279245779
0.01981613 0.043656513 0.034217566 4279444168
-0.0072290413 0.043735564 0.032405157 4279250624
-0.0060005076 0.047342643 0.028761763 4278662084
0.0033993199 0.047530815 0.028250709 4278726853
0.0055776611 0.046141557 0.029563058 4278923203
0.007614471 0.045466125 0.030167848 4278727108
0.0095015466 0.045504332 0.03006557 4279054783
0.012793779 0.047720976 0.027741522 4279185089
0.014508843 0.048472509 0.026933488 4280629409
0.016384088 0.048510775 0.026832078 4279907248
0.018764831 0.046409622 0.028849125 4279316923
-0.0075279512 0.043648131 0.029864833 4279842224
-0.0064377934 0.047982134 0.02552348 4278531014
-0.004701525 0.048735484 0.024715334 4279448759
-0.002970919 0.049488857 0.023907524 4278857414
-0.00082217157 0.048094407 0.025218058 4278529483
0.001193285 0.047416158 0.025822226 4279186363
0.0033607259 0.046022311 0.027131841 4279186618
0.0053893998 0.045344442 0.027735449 4279251389
0.0074233413 0.044666819 0.028338801 4278793154
0.0091526881 0.045420632 0.027531482 4279120574
0.021293178 0.042074494 0.030443061 4278268618
-0.0078266859 0.043569721 0.027331207 4279318198
-0.0051467679 0.049390487 0.021489054 4278397648
-0.0032859109 0.049427718 0.021387875 4279908524
-0.0012840629 0.048746966 0.021991119 4279645109
0.00086701661 0.04734832 0.023298372 4279579063
0.0028820932 0.046668001 0.02390103 4279251389
0.0050518289 0.045269936 0.025207352 4279121594
0.0069280267 0.045307919 0.025105659 4279383989
0.0088040009 0.045345984 0.025004044 4278923969
0.010522164 0.046101876 0.024199046 4278923204
0.021082118 0.041271016 0.028612223 4278663104
-0.0092378482 0.039139703 0.029127326 4281547663
-0.0082554705 0.04422088 0.024100941 4279186618
-0.0053203143 0.048618093 0.019678805 4278984403
-0.0036007315 0.049375668 0.018874884 4278853588
-0.0013221875 0.047252044 0.020882312 4278328289
0.00054089725 0.047289543 0.020781167 4279121338
0.0024037659 0.047327124 0.0206801 4279121339
0.0045651197 0.045924522 0.021983709 4278662594
0.006585069 0.045242317 0.022584621 4278793154
0.0083007142 0.046000309 0.021781359 4279186109
0.010010652 0.046758309 0.020978421 4279119298
0.011554681 0.048236132 0.01947422 4279973038
0.013739444 0.046834454 0.020776808 4279512763
0.015272111 0.048312202 0.019273337 4278724814
0.01746729 0.046910904 0.02057549 4279512763
-0.009913329 0.041234545 0.024491474 4279907503
-0.0085537769 0.044162706 0.021582328 4278792644
-0.0070833303 0.046367921 0.019375946 4278857924
-0.0054937936 0.047850341 0.017871931 4279841713
-0.0037769824 0.048610069 0.017069872 4278463184
0.00035879761 0.046517327 0.018971648 4278989503
0.0020722821 0.047277242 0.018169962 4279317943
0.003929399 0.047314823 0.018069297 4278727874
0.0057862997 0.047352493 0.017968711 4278990014
0.0077977031 0.046668068 0.018568564 4279252153
0.013374574 0.04678195 0.018267028 4278396883
0.015233077 0.046820059 0.018166661 4278987974
0.017428041 0.04541444 0.01946561 4279315648
-0.010588288 0.043351553 0.019872062 4279646129
-0.0055316053 0.046362445 0.016768321 4279776434
-0.00395317 0.047849104 0.015268304 4279514039
-0.00011076033 0.047198996 0.015766874 4278726853
0.0018874779 0.046511889 0.016365647 4279317433
0.0037417486 0.046549454 0.016265165 4279055293
0.0055958182 0.046587102 0.016164761 4278923713
0.0072949976 0.047349207 0.015365698 4279054783
0.017725356 0.042469993 0.01975197 4279252408
-0.010880694 0.043309294 0.017364882 4279121338
-0.0092799105 0.044800572 0.015866671 4279185600
-0.0002925992 0.046440423 0.013967478 4278989503
0.0015563071 0.046477839 0.013867256 4279120318
0.0035541877 0.045788653 0.01446451 4278923458
0.0052535236 0.046552896 0.013667022 4278792134
0.0086352155 0.048081316 0.012073175 4280629918
0.010637686 0.047392562 0.012670432 4280695454
0.012482591 0.047430396 0.012570803 4279448249
0.01449278 0.04674197 0.013167766 4279316923
0.017854132 0.040243365 0.019335601 4278726854
-0.010791048 0.041088186 0.016955324 4280435864
-0.0093175583 0.043313153 0.014763412 4279319474
-0.0078605823 0.045537829 0.012572502 4279187638
-0.0060137436 0.045574866 0.012472142 4279579064
-0.0043052994 0.046341076 0.011675485 4278856138
-0.0023206323 0.045649208 0.012271659 4279184833
-0.00033071637 0.044957533 0.012867619 4279053508
0.0013717189 0.045723878 0.01207148 4279186109
0.0032175928 0.045761354 0.011971508 4279054783
0.0050632656 0.045798905 0.011871614 4278792644
0.010118954 0.048098028 0.00948676 4278925753
-0.010319851 0.036668435 0.018628798 4280498339
-0.0089653507 0.039631642 0.015745983 4279383734
-0.0073674619 0.041131698 0.014254577 4278990014
-0.0057806745 0.042631678 0.012763807 4279447739
-0.0039286688 0.042668931 0.012663254 4279841713
-0.0020768642 0.042706281 0.012562783 4279644344
-0.0002252534 0.042743728 0.012462397 4279447228
0.0013335198 0.04424347 0.010973466 4279513529
0.0031792894 0.044280961 0.01087352 4279119809
0.0048730746 0.045049541 0.010079638 4279579064
0.0067157 0.045087159 0.0099800015 4278726853
0.017943107 0.036508419 0.017800592 4278989504
-0.011236619 0.029258927 0.023167659 4282994024
-0.010103472 0.033698857 0.018902007 4281088918
-0.0084835999 0.035203665 0.017412607 4280762263
-0.0067421757 0.035974771 0.016617306 4280173469
-0.0050063841 0.036745854 0.015822377 4280107678
-0.0031381436 0.036783479 0.015720971 4279582378
-0.0014109015 0.037554637 0.014926617 4279713194
0.00031068176 0.038325734 0.014132687 4279648169
0.0018803701 0.039830089 0.012646432 4279714469
0.0034389272 0.041334361 0.01116081 4279516843
0.0051381215 0.042105272 0.010368292 4279645873
0.006831646 0.042876147 0.0095761353 4280105129
0.0085195079 0.043647006 0.0087843584 4279842734
0.0102017 0.044417866 0.0079929037 4279579575
0.012203485 0.043722697 0.0085855136 4279382714
0.014375828 0.042294852 0.0098695206 4278923713
0.018575683 0.032073051 0.019451272 4279054783
-0.009887334 0.030720795 0.019168988 4281285779
-0.0082620271 0.032230139 0.017682519 4281089428
-0.0063826405 0.032267809 0.017580375 4280630938
-0.0046387315 0.033041291 0.016786665 4280630938
-0.0027624145 0.033079088 0.016684826 4280565403
-0.0010270625 0.033852585 0.015891727 4280369053
0.00070265681 0.034626052 0.015098997 4280435354
0.0022805184 0.036135025 0.013615531 4280042653
0.0038472563 0.037643813 0.012132778 4280500379
0.0055545792 0.038417116 0.011341467 4280499613
0.0075650066 0.037719749 0.011931772 4278926263
0.009266451 0.038493104 0.011140912 4279123633
0.010962211 0.039266452 0.010350374 4278465988
0.012489766 0.040774889 0.0088700699 4278859709
0.014667332 0.039342836 0.010150579 4278596549
-0.011188943 0.025482198 0.021604434 4282206329
-0.0097985193 0.028472329 0.018739153 4281154198
-0.0080406927 0.02924809 0.017946176 4280827544
-0.0064210184 0.030761814 0.016463354 4280500379
-0.0045419261 0.030799611 0.016361326 4280434589
-0.0028009862 0.031575337 0.01556949 4280434589
-0.00078429282 0.030875487 0.016157519 4280828819
0.00095082074 0.031651288 0.015366142 4280500379
0.0026802868 0.03242705 0.014575132 4280959889
0.0042552203 0.03394042 0.013095216 4280501144
0.0059706494 0.034716137 0.012305071 4280107678
0.0078347623 0.034754276 0.012204335 4279385519
0.010012776 0.033317588 0.013481447 4279582378
0.011722125 0.03409341 0.012691868 4279451819
0.013263293 0.035606563 0.01121406 4278862004
0.015619501 0.033433124 0.013179072 4279648169
-0.01097881 0.022480557 0.021854229 4281153944
-0.0094558112 0.024739286 0.019684061 4281287053
-0.0079493523 0.026997799 0.01751481 4280499869
-0.0063269585 0.028515952 0.016035158 4280566169
-0.0047156475 0.030034 0.014556129 4280565403
-0.0027016699 0.029331846 0.01514263 4280631193
-0.0009637028 0.030109813 0.014352669 4280828054
0.00091199577 0.03014786 0.014251062 4280696984
0.0027874932 0.030185992 0.014149529 4280631959
0.0045139715 0.030964008 0.013360404 4280631703
0.0062348023 0.031742007 0.012571656 4280631703
0.0082585216 0.031040629 0.013158058 4280303518
0.010444477 0.029599814 0.014431472 4280434589
0.012321673 0.029638438 0.014330189 4280303519
0.013711318 0.03189569 0.012168163 4279975079
0.016075417 0.029715946 0.014127865 4280106149
-0.011463404 0.012006992 0.029077195 4283059559
-0.010644674 0.018727915 0.022785172 4281155474
-0.0092404224 0.021735849 0.019932158 4280895374
-0.0075987801 0.023258654 0.018454641 4280237984
-0.0061006323 0.025523702 0.016290821 4280828054
-0.0044838749 0.02704622 0.01481481 4280828054
-0.0026024804 0.027084218 0.014712767 4280565403
-0.00072126091 0.027122291 0.014610798 4280893079
0.0011597648 0.027160482 0.01450893 4281221519
0.0031866506 0.026456712 0.015093333 4280893843
0.004772462 0.027979137 0.013619321 4280762518
0.0064987019 0.028759448 0.01283192 4280499869
0.008219257 0.029539747 0.0120449 4280237984
0.010561943 0.027352745 0.014000763 4280172194
0.01260142 0.026649708 0.014584838 4280303519
0.013996564 0.028913694 0.012427361 4280303519
0.016696073 0.025244208 0.015752327 4280499613
-0.0088983662 0.017979311 0.020859651 4283251573
-0.0073781945 0.020251269 0.018699441 4280959123
-0.0056098439 0.021033967 0.017910898 4280631193
-0.0041172691 0.023305578 0.015752338 4280762009
-0.002227813 0.023343755 0.015649881 4280827033
-0.00047907978 0.024126368 0.014862626 4281482639
0.0012640208 0.024908958 0.014075751 4281613963
0.0030014813 0.025691519 0.013289242 4281418123
0.0047332793 0.026474116 0.012503081 4281221263
0.0064594522 0.027256651 0.011717335 4280958869
0.0084882826 0.026551047 0.012300241 4280762009
0.01067926 0.025101619 0.013566974 4280762264
0.012880892 0.023652548 0.014833164 4280499869
0.014443897 0.025179302 0.013364027 4280566169
0.017316222 0.020755267 0.01736404 4281090194
-0.0036160052 0.018805446 0.017363966 4282859383
-0.0017157644 0.018843858 0.017260935 4282269313
4.3816864e-05 0.019628892 0.016474731 4282138753
0.001654543 0.021160418 0.015005759 4282204544
0.0032541901 0.022691758 0.01353749 4281942404
0.0048427358 0.024222979 0.012069902 4281352588
0.0067229494 0.024261491 0.011968325 4280827033
0.0086029544 0.024300078 0.011866826 4281024404
0.010482766 0.024338761 0.011765405 4280370073
0.012681462 0.022885283 0.01302852 4280696984
0.01456628 0.02292425 0.012926969 4280828054
0.017935894 0.016249122 0.018962994 4280828308
0.0093336776 0.019051326 0.014153977 4283121268
0.011070207 0.019838719 0.013371057 4282006918
0.01296059 0.01987773 0.013269148 4281222028
0.015012965 0.019168561 0.013847842 4281680264
0.018719986 0.010977583 0.021229513 4281352078
-0.017159034 -0.0093790833 0.038531903 4278269638
-0.01516765 -0.0093397927 0.038423207 4278533054
-0.01130385 -0.0085095204 0.03752492 4279258529
-0.01040715 -0.0017084721 0.03128707 4280176529
0.019503489 0.0056844968 0.023480047 4282662779
-0.021181609 -0.011051062 0.037567385 4278734503
-0.017529685 -0.0087117795 0.035309676 4279127713
-0.015546631 -0.0086726267 0.03520146 4279520923
-0.013447944 -0.0093869157 0.035773069 4279127204
-0.011699434 -0.0078404192 0.034305684 4278668969
-0.010568105 -0.0025268327 0.029441778 4279718038
-0.02290627 -0.0149515 0.038531013 4279914643
-0.021535449 -0.010376589 0.03434933 4278865573
-0.017900027 -0.0080310274 0.032097362 4278665143
-0.015925296 -0.0079920236 0.031989604 4278729149
-0.011857811 -0.0086693633 0.032452341 4279257509
-0.010607798 -0.0040961262 0.028277788 4280175509
-0.023353815 -0.013518371 0.03463541 4279718039
-0.021784227 -0.010446848 0.031818233 4278407339
-0.020021621 -0.0088918451 0.030356273 4279322534
-0.016416591 -0.0065400545 0.028111037 4278269383
-0.014221724 -0.008017024 0.029357031 4278797233
-0.012371264 -0.0072199833 0.028573386 4279324828
-0.010889735 -0.0041495096 0.025761534 4278993838
-0.023800936 -0.012067474 0.030752987 4278735014
-0.022242196 -0.0089874323 0.027942896 4278734758
-0.020383116 -0.0081885345 0.027160112 4278734758
-0.018529613 -0.007389633 0.026377715 4278866084
-0.016455933 -0.0081110317 0.02694577 4278800549
-0.014376938 -0.0088321995 0.027513631 4278603688
-0.01276594 -0.0065129548 0.025382362 4279128989
-0.011413574 -0.0026739202 0.021902855 4279524238
-0.025321521 -0.017500767 0.033058845 4281945463
-0.024145715 -0.011361416 0.027557787 4278800293
-0.020744294 -0.0074718352 0.023973882 4278268874
-0.016833767 -0.0073946249 0.023760475 4278537898
-0.014878698 -0.0073558521 0.023653917 4278538154
-0.013160311 -0.0057925098 0.022201218 4279194778
-0.025757212 -0.0160338 0.029187579 4279258783
-0.024490178 -0.010641957 0.024372451 4278668713
-0.016872965 -0.008958457 0.022600513 4278602414
-0.014802538 -0.0096841846 0.023165651 4278866084
-0.013199691 -0.0073519535 0.021044523 4279195544
-0.026291572 -0.013782121 0.024658561 4279390109
-0.024834331 -0.0099090934 0.021197058 4278537133
-0.022881791 -0.0098708197 0.021090299 4278799274
-0.021251153 -0.0075320173 0.018972214 4279586968
-0.019307029 -0.007493671 0.018866088 4279126948
-0.015188277 -0.0089499112 0.019994188 4278996643
-0.013357241 -0.0081445314 0.019218162 4278933149
-0.026726358 -0.01227751 0.02081522 4279062434
-0.015342914 -0.0097399838 0.018169485 4279062434
-0.013514686 -0.0089324676 0.017395243 4278999193
-0.028623745 -0.014650018 0.020430781 4279980943
-0.027259693 -0.009983819 0.016317364 4278342314
-0.017553635 -0.0097928829 0.015787166 4278865318
-0.015497439 -0.010525402 0.016348235 4278801313
-0.01367205 -0.0097156912 0.015575751 4278870928
-0.028854504 -0.014667762 0.017937481 4279456153
-0.027495738 -0.0099886227 0.013834125 4278604199
-0.025661558 -0.009177316 0.013062292 4278735268
-0.023728557 -0.0091394018 0.012956616 4278997409
-0.021581475 -0.010648068 0.014182276 4278800804
-0.019533422 -0.011383117 0.014741958 4278603944
-0.017592579 -0.011344689 0.014636124 4278735014
-0.015767153 -0.010532968 0.013865204 4279196054
-0.029277336 -0.013125005 0.014121675 4279128223
-0.026106127 -0.0076197349 0.0092590125 4278268874
-0.024184179 -0.0075820461 0.0091539333 4278794174
-0.021941215 -0.0098707881 0.01104099 4279977374
-0.019682001 -0.012159146 0.012927278 4278604454
-0.017856527 -0.011345366 0.012157884 4278801314
-0.016497519 -0.0074300617 0.008734622 4280900474
-0.030976463 -0.017047938 0.015066809 4280570248
-0.029699728 -0.011564551 0.010318995 4278931364
-0.026347186 -0.0076000765 0.0067942319 4278991034
-0.024430845 -0.0075624548 0.0066894935 4278269893
-0.022193633 -0.0098579042 0.0085720355 4278270403
-0.020159617 -0.010597568 0.0091292588 4278538664
-0.018570021 -0.0082266144 0.0070379162 4278801568
-0.031574357 -0.013924513 0.009942309 4279586459
-0.028301354 -0.0091689099 0.0057631629 4279520669
-0.026588034 -0.007571457 0.0043361774 4278801058
-0.024677288 -0.0075339768 0.0042317221 4278735014
-0.022659712 -0.0082762372 0.0047881529 4278930343
-0.020856116 -0.0074586347 0.0040231152 4279062178
-0.019507635 -0.0035218634 0.0006165402 4281096059
-0.03189186 -0.013121661 0.006817109 4279652249
-0.026727226 -0.0083160382 0.0025442299 4278536368
-0.021442365 -0.0050752815 -0.00040441565 4279324318
-0.032115836 -0.013090004 0.0043601412 4278997409
-0.030388802 -0.01148376 0.0029386682 4278931109
-0.021699406 -0.0050224531 -0.0028434261 4279129243
-0.033800859 -0.01702014 0.0052988669 4280111503
-0.032432746 -0.012262658 0.0012531094 4278735013
-0.030618053 -0.011438899 0.00049188361 4278669734
-0.028808899 -0.010615122 -0.00026894547 4278669989
-0.023307927 -0.0089300741 -0.0018931814 4278538154
-0.022175219 -0.0033879932 -0.0065873079 4279653269
-0.0341998 -0.015403437 0.0015363852 4279587479
-0.032749332 -0.011421974 -0.0018440252 4278669223
-0.029142033 -0.0097704083 -0.0033619418 4278603943
-0.027346689 -0.0089446008 -0.0041203052 4278800548
-0.025452897 -0.0089074187 -0.0042238077 4278603944
-0.023559202 -0.0088701323 -0.0043272264 4278735014
-0.022431709 -0.0033128727 -0.0090097822 4280309638
-0.034507997 -0.014560216 -0.001559373 4278538154
-0.033065591 -0.010568028 -0.0049312506 4278732718
-0.02758655 -0.0088754427 -0.0065483632 4278467263
-0.025490474 -0.010420067 -0.0053458307 4278931619
-0.023916919 -0.0080104191 -0.0074073672 4278604454
-0.03490613 -0.012910367 -0.0052972701 4278800039
-0.033288535 -0.010493942 -0.0073568164 4278668714
-0.031591654 -0.008870909 -0.0087636458 4278928813
-0.029807314 -0.0080411043 -0.009518276 4278929834
-0.025631931 -0.011139393 -0.0071189203 4278734249
-0.024061084 -0.0087233353 -0.0091754291 4278997663
-0.036839474 -0.014461273 -0.0063164532 4279521179
-0.035213634 -0.012038297 -0.0083717015 4278537899
-0.033418335 -0.011206318 -0.0091254739 4278274994
-0.03162856 -0.010374334 -0.0098788589 4279585948
-0.029942706 -0.008747017 -0.011281814 4279717784
-0.027863391 -0.010300787 -0.010084921 4279192739
-0.024524804 -0.0070462637 -0.012888544 4279325593
-0.037051052 -0.014379933 -0.0087374132 4279259039
-0.035430647 -0.011950587 -0.010787474 4278603944
-0.031665459 -0.01187752 -0.010993894 4278273719
-0.029881306 -0.011043354 -0.011745268 4278404024
-0.026225843 -0.010172276 -0.012598865 4278668713
-0.024988085 -0.0053515062 -0.016588543 4280572288
-0.037262406 -0.014289714 -0.011151713 4279325084
-0.035467237 -0.013453516 -0.01190234 4278801568
-0.033584755 -0.013417057 -0.012005596 4278605218
-0.026574239 -0.0092723258 -0.015649661 4278997663
-0.037298888 -0.015794579 -0.012268025 4279784083
-0.03550382 -0.014956219 -0.013017037 4279784083
-0.033714261 -0.014117839 -0.013765654 4278998938
-0.031834725 -0.014081303 -0.013868649 4279588753
-0.030053504 -0.013242801 -0.014616672 4278867613
-0.028075904 -0.014007898 -0.014074377 4278670753
-0.026714966 -0.0099624656 -0.017401027 4278801824
-0.037335362 -0.017299183 -0.013384143 4279325084
-0.035450391 -0.017262809 -0.013487636 4279193758
-0.033750933 -0.015618139 -0.014878558 4278604453
-0.031966995 -0.014777507 -0.015625184 4278670243
-0.029992241 -0.015544964 -0.015084448 4278866848
-0.028012127 -0.01631212 -0.014543933 4279653779
-0.026855581 -0.010647988 -0.019149043 4279587989
-0.038918711 -0.022065571 -0.011826115 4282404209
-0.037284605 -0.019609958 -0.01385767 4279586969
-0.035576954 -0.017960906 -0.0152459 4279586969
-0.033787593 -0.017118186 -0.015991278 4279259803
-0.032003757 -0.016275428 -0.016736314 4279325338
-0.029931087 -0.017851196 -0.015555317 4279324573
-0.027948447 -0.018620484 -0.015016561 4279390109
-0.026892506 -0.012135039 -0.020252082 4279652759
-0.03895523 -0.023578437 -0.012948373 4282207094
-0.037233949 -0.021924876 -0.01433427 4279718294
-0.035433725 -0.021079902 -0.015078722 4279587479
-0.033731628 -0.019426476 -0.016463315 4279521688
-0.031849824 -0.019389898 -0.016566437 4279587223
-0.029673904 -0.02177822 -0.014748776 4279652503
-0.027884867 -0.020932985 -0.015492259 4279652503
-0.026825905 -0.014430155 -0.020714987 4280111248
-0.039076127 -0.024280328 -0.014709851 4280242318
-0.037270501 -0.023433164 -0.015453121 4279390618
-0.035470378 -0.022586025 -0.016195957 4279391129
-0.033768322 -0.020928271 -0.017577332 4279456408
-0.031791374 -0.021702267 -0.017041681 4279587478
-0.029613048 -0.0240971 -0.015228953 4279521943
-0.027720649 -0.024060098 -0.015332496 4279456154
-0.026759412 -0.01672934 -0.021180987 4280701574
-0.039028227 -0.026603526 -0.015192414 4279587479
-0.037219971 -0.025754182 -0.015934173 4279521944
-0.035417229 -0.024904795 -0.016675593 4279587223
-0.033527479 -0.02486819 -0.016779246 4279456409
-0.031637795 -0.024831504 -0.016882833 4279521944
-0.029454328 -0.027232759 -0.015075236 4279718293
-0.02785866 -0.024757748 -0.017089708 4279456408
-0.026796408 -0.018220102 -0.022286778 4280964478
-0.03923329 -0.026485492 -0.017586544 4282405483
-0.037256554 -0.02726425 -0.017054347 4281029249
-0.035453908 -0.026412679 -0.017794136 4280243083
-0.033471853 -0.027191114 -0.017262066 4279717274
-0.031579599 -0.027154354 -0.017365778 4280176019
-0.029491611 -0.028747195 -0.016198609 4279587223
-0.027996555 -0.025450874 -0.018843491 4279457174
-0.033323914 -0.030335223 -0.017113885 4282341224
-0.031331241 -0.031115459 -0.016583964 4281881969
-0.029431038 -0.031078447 -0.016688038 4280964479
-0.028033756 -0.026956435 -0.019960269 4279326104
0.02052705 -0.01834045 0.016779274 4286017049
-0.015911829 -0.00037525222 0.00021088589 4284901679
-0.01450317 0.0027722865 -0.0025385553 4284966959
-0.01262309 0.0028099809 -0.0026407288 4285031983
-0.018416751 0.0019739661 -0.0041091526 4285230119
-0.016774945 0.003570715 -0.0055317096 4285492768
-0.015144158 0.0051673558 -0.0069535822 4286344724
-0.013154548 0.0044252165 -0.0063951267 4286212633
-0.011285637 0.0044628028 -0.0064966073 4286081563
-0.0090306588 0.0021621436 -0.0046192445 4285819423
-0.0070223883 0.0014206693 -0.0040615113 4285229609
-0.005008813 0.00067944638 -0.0035040309 4285165094
-0.0029899664 -6.1556697e-05 -0.0029467558 4285495319
-0.00068654865 -0.0023608599 -0.0010716664 4285628429
-0.019029878 0.0043829102 -0.0085157948 4285361699
-0.017283939 0.0052019004 -0.0092758061 4285689118
-0.015664082 0.0068026688 -0.010693852 4285820189
-0.013685565 0.006058136 -0.010136405 4285754399
-0.011827685 0.0060955081 -0.010237281 4286016284
-0.0097125843 0.0045697261 -0.0090221334 4285819679
-0.0077181198 0.0038257986 -0.0084652686 4285558559
-0.0055842362 0.0023006331 -0.0072509618 4285427743
-0.0035764612 0.0015572235 -0.0066947066 4285427743
-0.0017029569 0.0015954338 -0.0067960406 4285295908
0.00017038733 0.0016337447 -0.0068972874 4285230118
0.0017535388 0.0032347497 -0.0083126193 4285361444
0.0036211014 0.0032731481 -0.0084134014 4285229353
0.0060903654 0.00018686429 -0.005886896 4284966958
0.017796829 -0.019962396 0.010770359 4286738698
-0.019182444 0.0036775172 -0.010277682 4285558303
-0.017557036 0.0052826609 -0.011692863 4285952023
-0.01594267 0.0068877432 -0.013107397 4285557283
-0.014092959 0.0069248322 -0.013207916 4285557028
-0.01224339 0.0069620255 -0.013308348 4285688864
-0.010136697 0.0054316875 -0.012095932 4285885979
-0.0081506036 0.0046854634 -0.011540268 4285623839
-0.0061592013 0.0039394554 -0.010984809 4285558304
-0.0040256977 0.0024099685 -0.0097736157 4285558814
-0.0024395362 0.0040152371 -0.011186059 4285624349
-0.00057993084 0.004053276 -0.01128656 4286082839
0.00098960102 0.0056583341 -0.012697931 4286147353
0.0029911175 0.0049130414 -0.012142645 4286212633
0.0051483214 0.0033846106 -0.01093238 4286212889
0.0076225027 0.00028982945 -0.0084125325 4285491493
0.010585815 -0.0051541962 -0.0039290818 4285295653
0.013904206 -0.012163716 0.0018618759 4285230119
0.017432675 -0.019955251 0.0083048763 4285097519
-0.02119299 0.002939811 -0.011934926 4285164584
-0.01967974 0.0053355526 -0.014002625 4285493279
-0.017947592 0.0061586332 -0.014758641 4285886489
-0.016341411 0.0077678617 -0.016169455 4286016794
-0.014623147 0.0085909348 -0.016924584 4286083093
-0.012658745 0.0078418236 -0.016369492 4286214673
-0.010303359 0.0047350526 -0.013850405 4286148628
-0.0083201639 0.0039865393 -0.013296168 4285623838
-0.0063316673 0.0032383036 -0.012742166 4285623838
-0.0044746138 0.0032760892 -0.012842677 4285624094
-0.0027571619 0.0040997248 -0.013597262 4285755419
-0.0010453165 0.0049234014 -0.014351503 4285754399
0.00080583245 0.004961377 -0.014451463 4285622563
0.0026568323 0.0049994346 -0.014551352 4285688609
0.0048083663 0.003466459 -0.013343995 4286148119
0.006817542 0.0027193576 -0.012790585 4285754399
0.009610936 -0.0019547194 -0.0089710075 4285558559
0.013070889 -0.0097695701 -0.0025405204 4285295909
0.017068736 -0.019939099 0.005846004 4285360169
-0.02145464 0.0030322392 -0.014344174 4285230118
-0.019946802 0.005434351 -0.016406689 4285427489
-0.018220186 0.0062594917 -0.017160788 4285623838
-0.016499154 0.0070846882 -0.017914534 4286017558
-0.014660615 0.0071215611 -0.01801444 4286082584
-0.012570631 0.0055820886 -0.016807657 4286148118
-0.010726903 0.0056192819 -0.016907685 4285689374
-0.0087520741 0.0048684757 -0.016354648 4285624093
-0.0069058947 0.0049059372 -0.016454645 4285689884
-0.0049231797 0.0041555185 -0.015901867 4285623839
-0.0032139681 0.0049811658 -0.016654387 4286083859
-0.0015103444 0.0058067944 -0.017406531 4286017303
0.00033251196 0.0058445837 -0.017506057 4285622563
0.0021752268 0.0058824848 -0.017605485 4285557028
0.0043183565 0.0043450426 -0.016400946 4285754398
0.0066252202 0.0020202193 -0.014545068 4285951514
0.0095711574 -0.0034545623 -0.010083357 4285558049
0.012871943 -0.010503599 -0.004320561 4285360934
0.016543873 -0.019126553 0.0027424414 4287327494
-0.021828167 0.0039242152 -0.017399158 4285361443
-0.020443324 0.0071233418 -0.02010867 4285558558
-0.018727694 0.0079504605 -0.020860538 4285623839
-0.016777057 0.0071965624 -0.020308126 4285623583
-0.014698088 0.005652437 -0.019104112 4285754909
-0.012608346 0.0041085947 -0.01790056 4285689629
-0.010893196 0.0049361233 -0.018652091 4285689883
-0.0090524592 0.0049733724 -0.018751873 4285624348
-0.0070779547 0.0042204987 -0.018200347 4285624093
-0.0050981529 0.0034678318 -0.017649038 4285623839
-0.0033917278 0.0042955931 -0.01839979 4285755163
-0.0018329844 0.0059134569 -0.019800972 4286017049
-0.0001404658 0.0067411419 -0.020550819 4285951258
0.0016939491 0.0067788716 -0.020649806 4286083094
0.0038286895 0.0052368622 -0.019448008 4286082839
0.0062800422 0.0021155495 -0.016946377 4286016794
0.0095313787 -0.0049541779 -0.011195539 4285492259
0.012673132 -0.011233104 -0.0060971719 4285360678
-0.021865197 0.0024510119 -0.018491892 4285427489
-0.020480271 0.0056588333 -0.021194946 4285820954
-0.01888223 0.0072808918 -0.022595732 4286083603
-0.016934507 0.0065247025 -0.022044742 4285820443
-0.014981456 0.0057688039 -0.021493983 4285689374
-0.012771729 0.0034279283 -0.019643314 4285623838
-0.011187792 0.0050501283 -0.021043014 4285558559
-0.0093526319 0.005087262 -0.021142494 4285558814
-0.0075175986 0.0051245 -0.021241887 4285558304
-0.005409576 0.0035771057 -0.020042242 4285558303
-0.0035693683 0.0036146287 -0.02014178 4285689373
-0.0021553785 0.006029034 -0.022188731 4285952024
-0.00061310828 0.0076509994 -0.023585722 4286148119
0.0013604909 0.0068963859 -0.023035353 4286082583
0.0036397204 0.0045578778 -0.021187812 4285820189
0.0062409043 0.00063575245 -0.018043868 4285557539
0.0094916075 -0.0064535663 -0.012307552 4285492514
0.01279112 -0.013541796 -0.0065738065 4285426214
-0.022238232 0.0033631064 -0.021532029 4285558304
-0.020631939 0.0049895067 -0.022930078 4286148628
-0.019036643 0.0066158529 -0.024327487 4286082329
-0.017212015 0.0066523384 -0.024426721 4286017048
-0.015387498 0.0066889282 -0.024525866 4286017303
-0.013060629 0.0035466366 -0.02203114 4285623583
-0.011097122 0.0027889572 -0.021482427 4285558559
-0.0092593692 0.0028261505 -0.021582041 4285558813
-0.0075555295 0.0036580153 -0.022329565 4285624604
-0.0058572702 0.0044898465 -0.023076726 4285624349
-0.0041646063 0.0053216871 -0.023823494 4285557793
-0.0024775341 0.0061535519 -0.024569931 4285623584
-0.00065136701 0.0061910097 -0.024668546 4285623583
0.0013220608 0.0054342095 -0.024119794 4285624094
0.0036009923 0.0030891858 -0.022277076 4285624093
0.0062017813 -0.00084384158 -0.019141208 4285558558
0.0096074119 -0.0087469295 -0.012772562 4285558303
0.012750737 -0.01506056 -0.0077001806 4285557539
-0.023892336 0.0002659671 -0.021224059 4285229609
-0.022498976 0.0034912638 -0.023914702 4285689628
-0.020898163 0.0051219519 -0.025309261 4285754398
-0.019308344 0.0067524817 -0.026703101 4285622563
-0.017489295 0.006788848 -0.026802033 4285820188
-0.015670355 0.0068253484 -0.026900861 4285951769
-0.013349276 0.0036741979 -0.024412323 4285689373
-0.011391409 0.0029142499 -0.023864906 4285558559
-0.0094282255 0.0021545216 -0.023317698 4285493023
-0.0078609064 0.0037852451 -0.024709838 4285558558
-0.0060317256 0.0038224701 -0.024808833 4285623838
-0.0044810213 0.0054530744 -0.026199985 4285951769
-0.0027994514 0.006286962 -0.026944462 4286214674
-0.00097884238 0.0063243043 -0.02704278 4285886489
0.001136288 0.0047687888 -0.025849739 4285558049
0.0032621622 0.0032135397 -0.024657169 4285623583
0.0061626583 -0.0023231972 -0.020238372 4285493023
0.0097231194 -0.011044373 -0.013240674 4285558303
0.013026789 -0.018171648 -0.0075362464 4285951003
-0.024365831 0.0019933544 -0.024899086 4285361188
-0.02287139 0.0044277422 -0.026936755 4286083604
-0.02116416 0.0052632559 -0.027681798 4285885979
-0.019579817 0.0068980809 -0.029072139 4285557028
-0.017886408 0.0077335332 -0.02981627 4285491493
-0.015952993 0.006970698 -0.029269312 4285820444
-0.013763223 0.004609853 -0.02743211 4285689629
-0.011557233 0.0022494234 -0.025595715 4285558558
-0.0097279064 0.0022864249 -0.025694888 4285558814
-0.0081660673 0.0039214343 -0.027083538 4285558558
-0.0063424408 0.0039585233 -0.027182251 4285623838
-0.0049363114 0.0063921567 -0.029214282 4286345999
-0.0029792897 0.005630536 -0.028668053 4286083349
-0.0013060868 0.0064664986 -0.029410407 4286083349
0.00095065683 0.0041078646 -0.027576275 4285952279
0.0032235831 0.0017496124 -0.0257429 4285623329
0.0061235651 -0.0038023572 -0.021335393 4285493023
0.0096832663 -0.012547458 -0.014355429 4285492514
0.013144471 -0.020492747 -0.008022083 4286541838
-0.024620652 0.0021351594 -0.027272101 4285427234
-0.023019787 0.0037743933 -0.028660234 4285755418
-0.02142993 0.0054135416 -0.030047745 4286017303
-0.019733764 0.0062511135 -0.030790489 4286017049
-0.018043157 0.007088704 -0.031532843 4286017048
-0.015989922 0.0055222865 -0.030343622 4286148884
-0.013925903 0.0039561838 -0.029154841 4285624349
-0.011979297 0.0031916518 -0.028610054 4285624348
-0.010158263 0.0032284632 -0.028708793 4285558813
-0.0086045898 0.0048676189 -0.030093718 4285624094
-0.0066529177 0.0041034818 -0.029548991 4285820699
-0.0051131286 0.0057425816 -0.030933067 4285623074
-0.0033007935 0.0057796296 -0.031031027 4285557283
-0.0014885813 0.0058167819 -0.031128902 4285820189
0.00076515228 0.003451515 -0.029299419 4285885978
0.0030350685 0.0010866635 -0.027470741 4285558048
0.0060844794 -0.0052813049 -0.022432256 4285493024
0.0094880387 -0.013249675 -0.016112002 4285360678
0.012787737 -0.020416193 -0.010436474 4287459329
-0.024984296 0.0030896217 -0.030281313 4285361443
-0.023279861 0.0039293654 -0.031023093 4285623584
-0.021695465 0.005572712 -0.03240703 4286017813
-0.019887596 0.0056087431 -0.032505438 4286148373
-0.01819979 0.0064484123 -0.033246048 4285951513
-0.016149517 0.0048776139 -0.032059882 4285623839
-0.014213871 0.0041105822 -0.031516194 4285624604
-0.012144759 0.0025403108 -0.030330863 4285624349
-0.010588266 0.004183786 -0.031712845 4285624349
-0.0089092106 0.0050238091 -0.032452587 4285689883
-0.0072357319 0.0058638435 -0.033191931 4286083348
-0.0052898191 0.0050975177 -0.032648433 4285819934
-0.0034803189 0.0051345024 -0.032746244 4285557029
-0.0015265122 0.004368525 -0.032203034 4285557284
0.00057977438 0.0027997252 -0.031019181 4285820189
0.0031464547 -0.0011775978 -0.027913883 4285820188
0.0061980262 -0.0075629652 -0.022888409 4285492003
0.0096036121 -0.015553004 -0.016584482 4285491239
-0.024911579 0.00083358213 -0.030715663 4285492004
-0.02342796 0.0032873005 -0.032738205 4285426723
-0.021617409 0.0033232644 -0.032836851 4285360933
-0.019806955 0.0033593439 -0.0329354 4285426469
-0.017996605 0.0033955183 -0.033033874 4285492769
-0.016186371 0.0034318231 -0.033132244 4285493023
-0.014376249 0.003468208 -0.033230547 4285558813
-0.012566239 0.0035046972 -0.03332876 4285559069
-0.011017919 0.0051523093 -0.034707032 4285624604
-0.0092135891 0.0051888619 -0.034804806 4285624604
-0.0074093938 0.005225556 -0.034902468 4285885978
-0.0056053251 0.0052623209 -0.035000071 4286017048
-0.0036597177 0.0044939071 -0.034458097 4286016794
-0.0017087981 0.003725687 -0.03391635 4286016793
0.00024740398 0.0029576868 -0.033374809 4286279699
0.0026584193 -0.00022551976 -0.030916329 4285623329
0.0061589107 -0.0090436824 -0.023986585 4285491749
0.0097190812 -0.017860476 -0.017060032 4285556773
-0.024730012 -0.0022347271 -0.030513454 4285753889
