# .PCD v0.7 - Point Cloud Data file format
VERSION 0.7
FIELDS x y z rgba
SIZE 4 4 4 4
TYPE F F F U
COUNT 1 1 1 1
WIDTH 961
HEIGHT 1
VIEWPOINT 0 0 0 1 0 0 0
POINTS 961
DATA ascii
0.023034435 -0.020598635 0.025099587 4289802779
0.025340166 -0.022091694 0.02629343 4289476379
-0.053447358 -0.0061008092 0.01355866 4287247934
-0.051597111 -0.0052828901 0.012763664 4287968054
-0.049620584 -0.0060155187 0.013301976 4288033843
-0.047775794 -0.005197484 0.012507526 4288231214
-0.045865148 -0.0051545892 0.012379598 4288296493
-0.044102602 -0.0035614055 0.010919996 4288100143
-0.042197444 -0.0035183821 0.010792626 4287904048
-0.040292315 -0.0034752153 0.010665361 4288100143
-0.038387217 -0.0034319423 0.010538183 4288230704
-0.036482163 -0.0033885501 0.010411093 4288426798
-0.034577154 -0.0033450294 0.010284107 4288230704
-0.032762591 -0.0025266279 0.0094923824 4288099888
-0.030767286 -0.003257608 0.010030428 4288296493
-0.028862445 -0.0032137204 0.009903729 4288231214
-0.026957667 -0.0031697154 0.0097771231 4288165423
-0.025154267 -0.002351094 0.0089864973 4288361774
-0.023252368 -0.0023068879 0.0088602807 4288296238
-0.021457296 -0.0014882497 0.008070441 4288427053
-0.019667767 -0.00066961721 0.0072810627 4288100399
-0.017883778 0.00014902651 0.0064921542 4288231469
-0.016105343 0.000967687 0.0057036481 4288035118
-0.014097162 0.0002380684 0.0062416303 4288296748
-0.011963286 -0.0012652781 0.0074421107 4288296493
-0.010064807 -0.0012203362 0.0073167286 4288427308
-0.0080406405 -0.0019491725 0.0078538861 4288230704
-0.0062682219 -0.0011301171 0.0070662531 4288295983
-0.0045013838 -0.00031108223 0.0062790713 4288361519
-0.0027401224 0.00050792657 0.0054923384 4288231214
-0.00084774196 0.00055329502 0.0053677852 4288231214
0.0011839233 -0.00017479993 0.0059048678 4288165679
0.0027944297 0.001417879 0.0044575431 4288362029
0.0048285276 0.00069000572 0.0049946602 4288296493
0.0076058917 -0.0039044581 0.0088365525 4288362029
0.01086669 -0.010817975 0.014658919 4288296493
0.013717208 -0.015410452 0.018496171 4288362029
0.015977155 -0.016909368 0.01968948 4289540129
0.018089328 -0.017634749 0.020221842 4290063899
0.02052917 -0.019906044 0.022074193 4291241488
0.022657294 -0.020630844 0.022605658 4289605663
0.025123943 -0.022901218 0.024456374 4289671964
0.026082475 -0.018215545 0.020369824 4288234528
-0.053308494 -0.0099614561 0.014417093 4287051328
-0.051513255 -0.0083636511 0.01295813 4287771703
-0.049597301 -0.0083208885 0.01282966 4287968054
-0.047749881 -0.0075006206 0.012036657 4288164658
-0.045765407 -0.0082349833 0.012573007 4288099634
-0.043923467 -0.0074145868 0.011780556 4287968819
-0.042086996 -0.0065941792 0.010988571 4287903283
-0.04017657 -0.0065509081 0.010860944 4287837748
-0.038266182 -0.0065075047 0.010733418 4288229939
-0.036355834 -0.006463984 0.010605985 4288295219
-0.034445524 -0.0064203441 0.010478642 4288164403
-0.032625601 -0.005599685 0.0096882302 4288099124
-0.030625071 -0.0063326862 0.010224251 4288230193
-0.028714931 -0.006288657 0.010097215 4287837748
-0.026903365 -0.0054678358 0.0093076248 4287903539
-0.025097324 -0.004646983 0.008518517 4288296238
-0.023192853 -0.0046027359 0.0083921198 4288427053
-0.021395151 -0.0037817918 0.0076037035 4288165679
-0.01960298 -0.0029609241 0.0068157692 4288034864
-0.017928481 -0.0013636574 0.0053665894 4288231468
-0.016150121 -0.00054283626 0.0045797047 4288362539
-0.014377315 0.00027796067 0.0037933378 4288297259
-0.012489762 0.0003225375 0.0036686021 4287969584
-0.010356274 -0.0011850931 0.0048659886 4288034608
-0.0083377659 -0.001916239 0.0054018931 4287969073
-0.0064423904 -0.0018711295 0.0052768984 4288100144
-0.0046783425 -0.0010499805 0.0044915299 4288165423
-0.0027859621 -0.001004722 0.0043668966 4288624169
-0.00089371204 -0.00095936842 0.0042423452 4288624169
0.00099838153 -0.00091389008 0.0041179 4288427563
0.002890341 -0.0008683186 0.0039935368 4288558634
0.0049269535 -0.0015982389 0.0045288405 4288362283
0.0078540184 -0.0069812275 0.0090202447 4288231214
0.010819037 -0.012363233 0.013509283 4288100399
0.01351605 -0.016193353 0.016677804 4289409569
0.015617315 -0.016921293 0.01720917 4289474594
0.017723855 -0.017648987 0.017740281 4289540384
0.02015793 -0.019926932 0.01958815 4289801758
0.022444282 -0.021429224 0.020776726 4289932828
0.024741318 -0.022931103 0.021964645 4289541658
0.026033279 -0.019782525 0.019204101 4288627228
-0.045381121 -0.014441908 0.015411515 4288426034
-0.043522932 -0.013618905 0.014619576 4288164404
-0.041746851 -0.012016581 0.013165666 4288229683
-0.039822958 -0.011972995 0.013037143 4288360499
-0.037817009 -0.012708554 0.013570806 4288229173
-0.035805646 -0.013443848 0.014104212 4288490803
-0.033876419 -0.013399776 0.013975607 4288294709
-0.032037519 -0.012576496 0.013185564 4287836984
-0.030111121 -0.012532234 0.013057338 4287902774
-0.02828051 -0.011708898 0.012268029 4287902774
-0.026356967 -0.011664441 0.01214019 4287706678
-0.024838176 -0.0085045472 0.009369107 4288099889
-0.023237355 -0.0061238557 0.0072602411 4288296748
-0.021546356 -0.0045220517 0.0058129882 4288231469
-0.019866336 -0.0029204208 0.0043666032 4288231723
-0.018085241 -0.0020974725 0.0035810773 4288231723
-0.016309693 -0.0012745373 0.0027960776 4288231723
-0.014422178 -0.0012300797 0.0026712543 4288297258
-0.012534771 -0.0011855178 0.0025465186 4288297258
-0.010524515 -0.001919141 0.0030812626 4288035629
-0.0086346231 -0.0018742718 0.0029565482 4288100908
-0.0067448318 -0.0018292945 0.0028319196 4288231724
-0.0049863085 -0.0010060966 0.002048546 4288231724
-0.0030995123 -0.00096096098 0.0019242871 4288493609
-0.0013494194 -0.00013773516 0.0011416362 4288689703
0.00053437799 -9.2452392e-05 0.0010177405 4288689703
0.0025600493 -0.00082493201 0.0015520505 4288558888
0.0048805065 -0.0031127874 0.0034020296 4288297258
0.0078069754 -0.0085109938 0.0078821238 4288428074
0.01077139 -0.013908239 0.012359835 4288100908
0.013467934 -0.017749228 0.015520278 4289409058
0.015413377 -0.017701808 0.015392818 4290521624
0.017358657 -0.017654296 0.015265439 4290325018
0.019786958 -0.01993889 0.017108826 4290979349
0.022231381 -0.022222931 0.0189512 4288951078
0.024525452 -0.023729281 0.020136101 4289344543
0.025645625 -0.019794868 0.016725887 4288953883
0.013266969 -0.018525077 0.013707161 4287838004
0.014898453 -0.016918279 0.012268623 4288294963
0.01667716 -0.016091347 0.011486344 4288162619
0.018772248 -0.016823545 0.01201505 4288424249
0.021363761 -0.019894071 0.014508754 4288817968
0.023477528 -0.02062563 0.015036376 4289212454
0.024919908 -0.018239506 0.012944827 4288755749
-0.021803994 -0.0044768099 0.0033668806 4283001418
-0.020020172 -0.0036517102 0.0025827293 4282415684
-0.018241886 -0.0028266832 0.0017990624 4282939453
-0.016469132 -0.0020016767 0.0010158462 4283069758
-0.014584489 -0.0019572712 0.00089122495 4283069503
-0.012820121 -0.0011322219 0.00010874076 4282938943
-0.010815516 -0.0018681325 0.00064225262 4282938434
-0.0090568252 -0.0010429695 -0.00013967277 4283591999
-0.0070470162 -0.0017785355 0.00039365841 4283787838
-0.00529401 -0.00095329806 -0.00038773334 4283788094
-0.0034127943 -0.00090828724 -0.00051161693 4283984698
-0.0015317202 -0.00086318515 -0.00063541951 4284311609
0.0046893805 -0.0038471017 0.0016190936 4284312118
-0.021954883 -0.0052055847 0.0015846365 4281564749
-0.020283077 -0.0035954546 0.00014528399 4281239369
-0.018286448 -0.0043342151 0.00067733461 4281305158
-0.01662844 -0.0027241539 -0.00076091429 4281239369
-0.014746666 -0.002679836 -0.00088536227 4281174089
-0.012985103 -0.0018526614 -0.0016660262 4281042763
-0.01098343 -0.0025908109 -0.0011339406 4281173834
-0.0091019906 -0.0025461316 -0.0012580887 4281238859
-0.0070923828 -0.0032838769 -0.00072636642 4281173578
-0.0053394474 -0.0024564546 -0.0015061214 4281108554
-0.0035920925 -0.001629062 -0.0022854311 4280977739
-0.0017138757 -0.0015840083 -0.0024090335 4281108554
0.00030337274 -0.0023211185 -0.001877476 4281696583
0.0021840408 -0.0022757985 -0.002001083 4281827908
0.0043537728 -0.0037946254 -0.00081516197 4281500489
0.0069762282 -0.007659357 0.0023337598 4281696329
0.0099258386 -0.013087376 0.0067897341 4281364573
-0.022105642 -0.0059297942 -0.00019413419 4281240898
-0.020218275 -0.0058856979 -0.00031921454 4280522308
-0.018331014 -0.005841475 -0.00044419058 4280653379
-0.016673025 -0.0042270645 -0.001879192 4280653633
-0.014908716 -0.0033977777 -0.0026585059 4280653379
-0.013149958 -0.0025684442 -0.0034373985 4280717639
-0.011151213 -0.0033089034 -0.0029067183 4280391493
-0.009272635 -0.0032642856 -0.0030306745 4280261188
-0.0072659552 -0.0040042587 -0.0025003706 4280522054
-0.0053848922 -0.0039593596 -0.0026243231 4280587334
-0.0036376044 -0.0031297952 -0.0034020049 4280717638
-0.00162315 -0.0038692448 -0.0028719646 4280522308
0.00039661676 -0.0046084635 -0.0023421901 4280716873
0.0022798739 -0.0045630708 -0.0024659601 4280455498
0.0041629821 -0.0045175776 -0.0025896416 4280258128
-0.023311719 -0.012993073 0.0033889231 4282542928
-0.022043537 -0.0082241967 -0.00066150958 4280915774
-0.020371776 -0.0066053737 -0.0020943689 4280849983
-0.018487379 -0.0065611992 -0.0022191429 4280589119
-0.016832136 -0.0049425252 -0.0036507328 4280588609
-0.014836125 -0.005685389 -0.0031216918 4280326978
-0.013194703 -0.0040667504 -0.0045522237 4280587334
-0.011196163 -0.0048093759 -0.0040231431 4280325958
-0.0093177222 -0.0047647581 -0.00414709 4280587334
-0.0073112547 -0.0055069104 -0.003618394 4280326469
-0.0052994676 -0.0062488243 -0.0030899658 4280261444
-0.0034159496 -0.0062037501 -0.0032139947 4280065859
-0.0016688593 -0.0053719077 -0.003989961 4280196419
0.00035070255 -0.0061132889 -0.0034617861 4280129609
0.0019503236 -0.0044948012 -0.0048888586 4280129609
0.0038278587 -0.0044494309 -0.0050121648 4279800149
-0.023459848 -0.01372538 0.001603886 4281043784
-0.022194158 -0.0089435317 -0.0024366518 4280456263
-0.020416118 -0.0081099253 -0.0032138922 4280654909
-0.01853187 -0.0080657676 -0.0033386662 4280654909
-0.016762178 -0.0072321072 -0.0041151671 4280393279
-0.014763653 -0.0079770759 -0.0035879095 4280262719
-0.012879692 -0.0079325773 -0.0037124041 4280457794
-0.011118472 -0.0070987716 -0.0044880873 4280065094
-0.0092374571 -0.0070540998 -0.0046122074 4280000579
-0.0073565431 -0.0070093106 -0.0047362316 4280326468
-0.0053449683 -0.0077533908 -0.0042094034 4280195908
-0.0034615807 -0.0077083316 -0.0043334314 4280326468
-0.001578331 -0.0076631457 -0.0044573531 4279870018
0.00030479208 -0.0076178648 -0.0045811958 4279934024
0.0020460933 -0.0067837499 -0.0053549809 4279672904
0.0039262176 -0.0067383219 -0.0054784622 4279146584
-0.023504328 -0.015244902 0.00047319895 4281109574
-0.022238411 -0.010450006 -0.0035576182 4280979779
-0.020460457 -0.0096142273 -0.0043332288 4279935299
-0.018576358 -0.0095700733 -0.0044579925 4280392514
-0.016806744 -0.0087342542 -0.0052328752 4279806015
-0.014808435 -0.0094813984 -0.0047072247 4279804738
-0.013044465 -0.0086454786 -0.0054815598 4280457538
-0.011163473 -0.0086009149 -0.0056057572 4279934023
-0.0092826039 -0.0085562579 -0.0057298765 4280392514
-0.0074018352 -0.0085114595 -0.0058538811 4280066624
-0.0055211894 -0.0084665697 -0.0059778066 4279610174
-0.0036406666 -0.0084215757 -0.0061016446 4280066624
-0.0017602742 -0.0083764642 -0.0062253829 4279936319
0.00011999533 -0.0083312467 -0.0063490337 4279674433
0.0020001233 -0.0082859267 -0.0064725946 4280066624
0.003735777 -0.0074496567 -0.0072442973 4279404643
0.025421064 -0.011684962 -0.0047171535 4284704308
-0.023652256 -0.015970148 -0.0013066572 4280780879
-0.022494994 -0.010368409 -0.0059766737 4280193868
-0.020722572 -0.0095306039 -0.0067503098 4279544129
-0.018732451 -0.010280345 -0.006225911 4279610174
-0.016851306 -0.010236124 -0.006350378 4279999813
-0.015087325 -0.0093981475 -0.0071231788 4278432583
-0.013209105 -0.0093537644 -0.0072472813 4280064073
-0.011208478 -0.010102807 -0.0067232405 4279542854
-0.0093277432 -0.010058142 -0.0068473406 4279673158
-0.0077030212 -0.008426521 -0.0082667824 4279737419
-0.0058279559 -0.0083817672 -0.0083903428 4279608643
-0.0039530136 -0.0083368961 -0.0085138045 4279936319
-0.0019420795 -0.0090851821 -0.0079899896 4279088443
0.0018126033 -0.008994773 -0.0082368171 4279997008
0.030270178 -0.011392556 -0.0099077821 4284704309
0.032335166 -0.01213989 -0.0093878545 4284573239
-0.018606044 0.044393111 0.020822193 4278398413
-0.016983237 0.045888696 0.019301428 4279250623
-0.013161782 0.04524925 0.019754851 4278660299
-0.011060368 0.043840755 0.021028941 4279317434
-0.0093299486 0.044610422 0.020207874 4279449013
-0.0070852116 0.042476606 0.022179198 4279448504
-0.0052223764 0.042520639 0.022056118 4278790859
-0.003495127 0.043290477 0.021235526 4279382204
-0.00033926591 0.046281237 0.018201126 4278593999
-0.019103754 0.045820605 0.016926663 4279381948
-0.017259315 0.045863632 0.016804373 4280170155
-0.015534006 0.046635095 0.015985083 4278987973
-0.011975661 0.047449667 0.015044592 4278857159
-0.010137204 0.047492962 0.014923006 4278857414
-0.0080390498 0.046080243 0.016194208 4279185343
-0.002646748 0.046939205 0.015133258 4280694943
-0.00094715506 0.047710795 0.014316283 4280235944
0.0010339059 0.047026929 0.014890622 4278791879
-0.012143724 0.046707321 0.013253737 4278857923
-0.010180995 0.046020288 0.013827233 4278727108
-0.0080830902 0.044603232 0.015095221 4279186619
-0.0062395856 0.044646855 0.01497346 4278529738
0.0032679178 0.043406744 0.015753174 4278266323
-0.022447251 0.039849158 0.01775144 4279318453
-0.02147742 0.04575507 0.012073465 4278790859
-0.014387775 0.047391731 0.01020029 4279054784
-0.012436006 0.046702188 0.010772839 4278726598
-0.010478903 0.046012808 0.011345133 4279318453
-0.008646287 0.04605611 0.01122405 4279251899
-0.0065487958 0.044634838 0.012488848 4279185598
-0.0048462562 0.045410726 0.011674838 4278595018
0.0029307306 0.043389786 0.013267295 4278859454
-0.022598475 0.039098915 0.015953271 4279580848
-0.021741621 0.045757297 0.0095957182 4279119809
-0.019913815 0.0457999 0.0094745085 4279316924
-0.018318284 0.047312405 0.0079686586 4279710898
-0.01661497 0.04808991 0.0071557923 4279186363
-0.014552634 0.046663065 0.0084193777 4279579063
-0.012479521 0.045236591 0.0096823294 4279251899
-0.010522608 0.044545058 0.010253038 4279188148
-0.0086901076 0.044588376 0.010131966 4279385264
-0.0068577603 0.044631798 0.010010984 4278923969
-0.0051607229 0.04540978 0.009198932 4279119809
-0.0034692995 0.046187717 0.0083873756 4279448248
-0.0017834865 0.046965595 0.0075762584 4279382713
0.00032674149 0.045540679 0.0088372696 4279580339
0.0027398542 0.042647678 0.011478441 4279513274
-0.022533927 0.036878753 0.01554111 4279778473
-0.02189501 0.045031313 0.0078158472 4279120064
-0.018709287 0.048064876 0.0048109046 4278328289
-0.014960323 0.047413025 0.0052611395 4279251643
-0.012895636 0.045981947 0.006521435 4279186619
-0.010820191 0.044551279 0.0077810674 4278662594
-0.0091229081 0.045331236 0.0069705374 4278531268
-0.0071664862 0.044637788 0.0075397841 4278727619
-0.0054749586 0.045417819 0.0067297867 4279514293
-4.2021275e-06 0.045548383 0.0063692792 4278267088
0.0021110587 0.044119354 0.0076267938 4279711408
-0.022685051 0.03613342 0.013746602 4280432039
-0.022048291 0.04430994 0.0060394048 4279055294
-0.018983971 0.048091423 0.0023522596 4278527189
-0.017057065 0.0473946 0.0029214579 4278522599
-0.013063129 0.045262512 0.0047476343 4279317434
-0.011244368 0.045305457 0.0046274378 4279054783
-0.0094257481 0.045348492 0.0045073158 4279055804
-0.00760727 0.045391623 0.0043872832 4278661574
-0.0057889409 0.045434844 0.0042673289 4279186109
-0.022943754 0.036134396 0.011267534 4279580084
-0.020608541 0.04511876 0.0027704551 4279317944
-0.019026641 0.046644073 0.0012753042 4280170153
-0.017218538 0.046686467 0.001155592 4279316413
-0.015410561 0.046728972 0.0010359655 4278857159
-0.013478637 0.046030302 0.0016033645 4278726853
-0.011668194 0.04607306 0.0014837268 4278988994
-0.0098578669 0.046115924 0.001364171 4279054528
-0.0079154521 0.045417819 0.0019311137 4279251134
-0.0042901002 0.045504149 0.0016920655 4279185088
-0.0026180744 0.046288315 0.00088678626 4279839929
-0.0006653741 0.045590851 0.0014533526 4278592978
0.0012926236 0.044893596 0.0020196191 4278396373
0.0044446699 0.038271103 0.0080683548 4279315903
-0.023417499 0.037632052 0.0074223042 4279842224
-0.019069321 0.045196999 0.00019855378 4279776434
-0.017261352 0.045239408 7.8856479e-05 4279447739
-0.013893779 0.046811458 -0.0015309607 4278922948
-0.012091633 0.046854038 -0.0016500396 4279186109
-0.010289613 0.046896715 -0.0017690328 4278857668
-0.0086199269 0.047682744 -0.0025727195 4278792133
-0.0028022975 0.045582253 -0.00087562995 4280169388
-0.00085251033 0.044882569 -0.00031048851 4279775668
0.00095676258 0.044926014 -0.00042951526 4278331094
-0.02367558 0.037655432 0.0049598389 4280496554
-0.022617728 0.042919699 4.6196394e-05 4278725069
-0.014184602 0.046860296 -0.0039716032 4278791368
-0.012388036 0.046902765 -0.0040903022 4278857159
-0.010591596 0.046945322 -0.0042089154 4278923458
-0.0086631849 0.046242569 -0.0036442732 4279185089
0.0027216226 0.04352076 -0.0016263658 4279644853
-0.02361089 0.03544319 0.0045536575 4280954534
-0.022660237 0.041470978 -0.0010317946 4278726598
-0.020962544 0.042261329 -0.0018346021 4279381948
-0.019039035 0.041555662 -0.0012717256 4279514549
-0.017347012 0.042346086 -0.0020740004 4279514549
-0.015660569 0.043136496 -0.0028758207 4279383224
-0.013979696 0.043926928 -0.0036772345 4279054273
-0.012304403 0.044717278 -0.0044781612 4279054528
-0.010376044 0.04401226 -0.003915214 4279317435
-0.0085744262 0.044055063 -0.0040340768 4279381949
-0.0066381618 0.043350372 -0.0034714649 4279580339
-0.0048341118 0.043393452 -0.0035903314 4279514548
-0.0031704344 0.044184092 -0.0043901475 4278922949
-0.0013694055 0.044227276 -0.0045086825 4278989249
0.00057713315 0.043523241 -0.0039464394 4278988483
0.0029741377 0.040577818 -0.0013431301 4279054784
-0.023223989 0.030975755 0.0061890432 4281348509
-0.022262052 0.037021246 0.00061586546 4278792644
-0.020553518 0.037814032 -0.00018602936 4279382458
-0.018734928 0.037856642 -0.00030645682 4279317434
-0.017034806 0.038649503 -0.0011076769 4278531524
-0.015219163 0.03869224 -0.0012277653 4278662083
-0.013403643 0.038735081 -0.0013477681 4278793409
-0.011588261 0.038778041 -0.0014676703 4278793409
-0.0097729899 0.038821083 -0.0015875017 4278531524
-0.0079578646 0.038864244 -0.0017072363 4278400199
-0.0061428882 0.038907502 -0.0018268814 4278859709
-0.0043280572 0.038950842 -0.0019464521 4278925243
-0.0027936846 0.040493477 -0.0034246901 4278531524
-0.00084172934 0.039787371 -0.0028645238 4278990269
0.00096991658 0.039830927 -0.0029836679 4279121083
0.003374707 0.03687695 -0.00038732169 4279513528
0.0074627288 0.025680821 0.0096730161 4279382204
-0.021864381 0.032554343 0.0022507538 4279844263
-0.019919351 0.031844731 0.0028088898 4279253938
-0.017968975 0.031135384 0.0033667688 4278993073
-0.016249832 0.031930849 0.0025659841 4278795449
-0.014415238 0.031974044 0.0024446459 4278664888
-0.012704507 0.032769509 0.001644569 4278730169
-0.010872893 0.032812867 0.0015236032 4278795703
-0.0091706067 0.033608396 0.00072420249 4278466753
-0.0073419809 0.033651892 0.0006035869 4278466753
-0.0053788498 0.032943528 0.0011612144 4278795958
-0.0018569902 0.033782955 0.00024226168 4278533053
-2.8967857e-05 0.033826847 0.00012199255 4278467519
0.0019444413 0.033119131 0.0006792401 4278598844
0.0040713847 0.031660106 0.0019133915 4278862004
0.0077189319 0.02268618 0.0099174157 4279319983
-0.021357197 0.027315598 0.0045509762 4279845029
-0.019511506 0.027358755 0.0044286861 4279779238
-0.01755042 0.026647475 0.0049842237 4279385773
-0.01582044 0.027445387 0.0041843592 4279320239
-0.013975084 0.027488858 0.0040623299 4279254448
-0.012253519 0.028286785 0.0032631806 4279385774
-0.010411136 0.028330393 0.0031415052 4279057588
-0.0088271424 0.029882606 0.001666184 4278728894
-0.0068586245 0.029172141 0.0022217142 4279057078
-0.0050193779 0.029216018 0.0021004952 4279253938
-0.0030429624 0.02850591 0.0026557087 4279253938
-0.0013413206 0.029304054 0.0018583103 4278795193
0.00049747527 0.029348206 0.0017373334 4279057078
0.0023361109 0.029392477 0.0016164682 4279057078
0.0046191774 0.027175505 0.0035224943 4279450288
-0.022709932 0.022011984 0.0069584711 4283315323
-0.021290589 0.025082771 0.0041291914 4279976864
-0.019329604 0.024369214 0.0046830443 4279714469
-0.017363265 0.023655906 0.0052366271 4279713704
-0.015391588 0.022942767 0.0057899696 4279582378
-0.013656352 0.023743145 0.0049914359 4279845029
-0.011803076 0.023786925 0.0048689707 4279648679
-0.0099499226 0.023830809 0.0047465968 4279451053
-0.0083550178 0.025387596 0.0032738573 4278991798
-0.0066393688 0.026187915 0.0024769879 4278860218
-0.0046602972 0.025475647 0.0030302866 4279188403
-0.0026759058 0.024763618 0.0035833162 4279385773
-0.00096615031 0.025564101 0.0027870643 4279189679
0.00088069215 0.025608476 0.0026655863 4279647914
0.0027273782 0.025652956 0.0025441977 4279320493
0.0050182901 0.023429647 0.004444838 4279319983
0.018552583 -0.014978841 0.03842552 4279713704
-0.022753492 0.020525362 0.0058522704 4283315323
-0.021224111 0.022845868 0.0037043751 4280040868
-0.019373246 0.022889163 0.0035817535 4280106148
-0.01729174 0.021414727 0.0048082736 4279779238
-0.01543564 0.021458365 0.0046854676 4279779238
-0.013579648 0.021502122 0.0045627602 4279713704
-0.011847332 0.022304736 0.0037661339 4279845029
-0.0098680444 0.02158995 0.0043176101 4279451819
-0.0082704276 0.023151215 0.0028479141 4279123124
-0.0064203963 0.023195256 0.0027259183 4278991798
-0.004704956 0.023997862 0.0019307747 4279319729
-0.0025836006 0.022525281 0.0031552701 4279319983
-0.00087118149 0.023328017 0.0023604804 4279516843
0.0011208728 0.022614215 0.002911543 4279451053
0.0029728822 0.022658836 0.0027898154 4279385518
0.0055650473 0.01891287 0.0060300068 4279582378
0.018034589 -0.014300387 0.03522313 4280368798
-0.022582803 0.017516501 0.0060931421 4282660228
-0.021047909 0.019843638 0.0039498131 4280105639
-0.019304316 0.020648256 0.0031537409 4280171173
-0.017335661 0.019930605 0.0037039691 4280302754
-0.015361667 0.019213233 0.0042538797 4280303008
-0.013623849 0.020018008 0.0034584855 4280106658
-0.011768118 0.02006188 0.0033358824 4279975334
-0.010038726 0.020866718 0.0025411635 4280172448
-0.0081859678 0.020910751 0.0024189311 4279647404
-0.0063333474 0.020954862 0.0022967714 4279319218
-0.0044808723 0.0209991 0.0021747178 4280106148
-0.0023543276 0.019522261 0.0033956752 4279516588
-0.000636518 0.020327304 0.0026021549 4279647914
0.0013607927 0.019611482 0.0031512701 4279385518
0.0032181144 0.019656245 0.0030292016 4279582634
0.0058152527 0.015899565 0.0062609087 4279582378
0.017673146 -0.014368737 0.032700911 4281548173
-0.022519421 0.015262615 0.0056559821 4282857598
-0.020871975 0.016833019 0.0041889348 4280498594
-0.019123007 0.017639901 0.0033941814 4280040614
-0.017149102 0.01692025 0.0039423932 4280106148
-0.0154058 0.017727237 0.0031481893 4280236454
-0.013547361 0.017771062 0.0030253273 4280630429
-0.01181246 0.018578071 0.002231847 4280303264
-0.0099569894 0.018622052 0.0021093502 4280172449
-0.0079727806 0.017903212 0.0026573115 4280629664
-0.0059832633 0.017184611 0.0032050055 4279908014
-0.0041227415 0.017229039 0.0030824211 4280303263
-0.0019882955 0.01574805 0.0042996188 4280106658
-0.00040213764 0.0173182 0.002837515 4279909033
0.0014579259 0.017362956 0.00271521 4279582634
0.0031726509 0.018170338 0.0019236901 4279713704
0.0060651861 0.012877822 0.0064855353 4279516844
0.013957996 -0.0076148324 0.024295893 4280761754
0.017468039 -0.015190301 0.030853935 4282529923
0.015679795 -0.012947108 0.0064127608 4282858618
0.018080231 -0.015245362 0.0082482081 4283251318
0.0091286115 -0.010699788 0.0023852414 4279458959
0.011491131 -0.013005804 0.0042180694 4279192994
0.014999527 -0.0113445 0.0026631695 4278532798
0.01930337 -0.013602602 0.0043693199 4279977119
0.021550428 -0.015123088 0.0055475305 4279650973
0.023301128 -0.014292086 0.0047706352 4279849108
0.0086318888 -0.0098629203 -0.00070065912 4279064473
0.010985922 -0.012175692 0.0011279075 4279256999
0.012890052 -0.012129264 0.0010031643 4279386793
0.014794011 -0.012082744 0.00087850308 4279977373
0.019091975 -0.014347475 0.0025801263 4279387303
0.02116983 -0.015086471 0.0031052749 4279127459
0.022915032 -0.014253359 0.0023303418 4279063199
0.006100446 -0.0082699731 -0.0043024905 4280181628
0.0082854219 -0.0098013114 -0.0031271121 4278865573
0.010481123 -0.011332244 -0.0019524028 4278402238
0.012376968 -0.011286026 -0.0020766086 4279650208
0.014430638 -0.01202802 -0.0015517492 4279846813
0.016328882 -0.011981545 -0.0016759639 4279781534
0.020623345 -0.014252719 2.121646e-05 4279061669
0.022529218 -0.014205738 -0.00010326086 4278472874
0.0059070252 -0.0089857336 -0.0060713803 4279917448
0.0079392307 -0.0097307377 -0.0055469712 4278603943
0.011864278 -0.010429496 -0.0051464937 4278729914
0.013909612 -0.011173923 -0.0046226759 4278729148
0.018179495 -0.013452367 -0.002928941 4279057588
0.02007727 -0.013405697 -0.0030529727 4278996644
0.02197488 -0.013358938 -0.0031769229 4278538664
0.0058607236 -0.010489827 -0.0071903989 4280376449
0.0078927241 -0.011237036 -0.0066676168 4278997918
0.0097775869 -0.011191156 -0.0067911563 4278733738
0.011662308 -0.011145219 -0.0069146412 4278600629
0.013546851 -0.011099156 -0.0070380173 4278860474
0.015591849 -0.011845632 -0.0065157758 4278597568
0.017478805 -0.011799324 -0.0066391714 4278799528
0.019365583 -0.011752924 -0.0067624822 4278603688
0.0215897 -0.013291297 -0.0055956333 4278669479
-0.023903433 -0.015894689 -0.0037307483 4278802078
-0.022645209 -0.011073962 -0.0077415621 4278867358
-0.020984422 -0.009437969 -0.009160758 4278868123
-0.01888841 -0.010986026 -0.0079904133 4279130518
-0.017124411 -0.01014596 -0.00876173 4278867868
-0.015248962 -0.01010176 -0.0088857356 4278671774
-0.013373606 -0.010057442 -0.0090096444 4278346139
-0.0113759 -0.010808768 -0.0084869908 4279001998
-0.0096231997 -0.0099684875 -0.009257202 4278607513
-0.0080039166 -0.0083326995 -0.010673004 4278738329
-0.0063956454 -0.0066970736 -0.012088004 4278542999
0.0056675225 -0.011198608 -0.0089540966 4279259804
0.0076966099 -0.01194803 -0.0084327236 4278669734
0.0095786192 -0.01190225 -0.0085560996 4278406828
0.01130541 -0.011061447 -0.0093236752 4278668968
0.013184402 -0.011015544 -0.0094467057 4278603178
0.015063237 -0.010969535 -0.0095696449 4278865319
0.016941916 -0.010923447 -0.0096925115 4278668969
0.01915234 -0.012466544 -0.008528118 4278472108
0.021036129 -0.012420127 -0.0086511662 4279195289
-0.024154343 -0.015810244 -0.0061482261 4279128988
-0.022795301 -0.01177487 -0.0095030647 4279586458
-0.015527379 -0.010002805 -0.011290005 4279390109
-0.013537958 -0.010756575 -0.010768555 4279586969
-0.011665568 -0.010712214 -0.010892185 4279521433
-0.0099183805 -0.0098699424 -0.011660375 4279521433
-0.0081767365 -0.009027699 -0.012428118 4279259804
-0.0064406544 -0.0081854574 -0.013195401 4279586458
-0.0027132072 -0.0080961697 -0.013440784 4278734249
-0.00071097165 -0.0088488404 -0.012919588 4279455643
0.0012965687 -0.0096012615 -0.012398652 4279259038
0.0034535676 -0.011150829 -0.011234613 4278536624
0.0054744482 -0.011902776 -0.010714362 4279325084
0.0075006224 -0.012654461 -0.010194434 4278538154
0.009379793 -0.012608742 -0.010317618 4278669478
0.010948773 -0.010968713 -0.011726115 4278341549
0.01689497 -0.012424951 -0.010809543 4278537644
0.01893926 -0.0131756 -0.010290356 4278537898
0.02065159 -0.012332505 -0.011055011 4278997153
0.022529658 -0.012286155 -0.011177631 4278407339
0.024407547 -0.012239702 -0.01130016 4280178314
0.026285272 -0.012193168 -0.011422614 4280046734
0.027983341 -0.011350079 -0.012186079 4280897158
0.029857997 -0.011303458 -0.012308212 4280962439
0.031917389 -0.012053126 -0.011789558 4280897413
0.033794392 -0.012006287 -0.011911724 4281748858
0.03662296 -0.015940504 -0.0088319331 4282142834
-0.02548445 -0.022165265 -0.0032767602 4282404973
-0.024301734 -0.016517431 -0.0079145692 4279520158
-0.022733275 -0.014072163 -0.0099725192 4279651739
-0.013582598 -0.012251232 -0.011880667 4278733994
-0.011832651 -0.011406844 -0.012647508 4278865574
-0.010088265 -0.010562474 -0.013413893 4278931109
-0.0082216598 -0.010518027 -0.013536975 4278406573
-0.0066161267 -0.0088737309 -0.014945348 4278274483
0.0011095516 -0.010294234 -0.014151066 4278862259
0.0049879439 -0.011003453 -0.013754493 4278866339
0.0070057623 -0.011757499 -0.013235627 4278538664
0.0088766403 -0.01171199 -0.013358273 4278538154
0.012144972 -0.0092231203 -0.015525976 4278399943
0.014167655 -0.0099766515 -0.015007133 4278399943
0.018560488 -0.013081101 -0.012689551 4279715998
0.020267326 -0.012235917 -0.013452262 4278603944
0.024012197 -0.01214342 -0.013696711 4278407848
0.025884379 -0.012097048 -0.01381882 4278996133
0.033558924 -0.012709247 -0.013667539 4278929578
0.03619406 -0.015855959 -0.011234436 4278865828
0.039236713 -0.020598806 -0.0075254557 4279719059
-0.025629273 -0.022882989 -0.0050511854 4282405738
-0.024345789 -0.018022669 -0.0090346299 4278931874
-0.022883218 -0.014768241 -0.011730431 4279389598
-0.021116581 -0.013921881 -0.012497194 4278735013
-0.019466825 -0.012273053 -0.013905812 4278601649
-0.017599877 -0.012229173 -0.014029345 4278601649
-0.015733026 -0.012185186 -0.01415279 4279454368
-0.012121838 -0.011294657 -0.015040996 4278733739
-0.010382973 -0.010448212 -0.015805446 4278537389
-0.0085219555 -0.010403913 -0.01592817 4278406064
-0.00666105 -0.0103595 -0.016050797 4279651484
-0.0048002601 -0.01031499 -0.016173346 4278995368
-0.0030754395 -0.0094684623 -0.016936485 4278733229
0.00078137964 -0.010180812 -0.016540444 4279585694
0.0026416779 -0.010135863 -0.01666262 4278666929
0.0045018382 -0.010090832 -0.016784726 4279127458
0.0065113194 -0.010847308 -0.016266903 4278669223
0.010391261 -0.011558067 -0.01587161 4278929834
0.011941094 -0.009909723 -0.017272295 4279191718
0.014121193 -0.011466872 -0.016115779 4278863789
0.018347751 -0.013778801 -0.014443418 4279322533
0.020051848 -0.012931589 -0.015204309 4278407339
0.021579158 -0.011283398 -0.016603149 4278669989
0.023617145 -0.012038283 -0.016086601 4278800294
0.027170923 -0.011144899 -0.016967868 4278273208
0.029034514 -0.011098584 -0.017089304 4279191209
0.030897919 -0.011052191 -0.017210664 4278402493
0.035575274 -0.014962017 -0.014267435 4279586204
0.038995113 -0.021319102 -0.0092936987 4279194268
-0.024492975 -0.018722855 -0.010795763 4279456154
-0.021377753 -0.013806633 -0.014890744 4279192485
-0.019622166 -0.012958226 -0.015655056 4279455899
-0.01787211 -0.012109801 -0.016418964 4279128224
-0.015894096 -0.012870523 -0.015901677 4279061668
-0.01241076 -0.011173531 -0.017427908 4278602669
-0.0068363026 -0.011040863 -0.017795531 4278405299
-0.0049783625 -0.010996405 -0.017917879 4279323298
-0.0032563321 -0.010147778 -0.018679217 4279913623
-0.0014013499 -0.010103207 -0.018801233 4279323554
0.0041628219 -0.0099688228 -0.019166714 4278735014
0.0061666667 -0.010727573 -0.018650191 4278865573
0.011737358 -0.010591825 -0.019015199 4279913624
0.01375423 -0.011349881 -0.018499246 4279585439
0.015613403 -0.011304285 -0.018620849 4278995369
0.019499715 -0.012016172 -0.018226855 4278734504
0.021189999 -0.011166995 -0.018985201 4278669224
0.023222413 -0.01192425 -0.018469878 4278799783
0.026765157 -0.011028962 -0.019348875 4278994858
0.028441224 -0.010179853 -0.020106006 4279389854
0.030481081 -0.010936538 -0.019590953 4278996388
0.032526221 -0.011693055 -0.019076146 4278865063
0.035147022 -0.014857546 -0.016655119 4279062179
0.038560811 -0.021232156 -0.011693958 4278997408
-0.024846155 -0.017804392 -0.013832767 4279325339
-0.02360582 -0.012918985 -0.017793795 4278668458
-0.019888598 -0.012831989 -0.018040035 4278666163
-0.014552176 -0.011087408 -0.019685799 4278735014
-0.012821518 -0.01023693 -0.02044655 4278341804
-0.010971565 -0.010193022 -0.020568639 4278276524
-0.0089941435 -0.010955477 -0.020052597 4278407594
-0.0033013597 -0.011628794 -0.019781111 4278469814
0.0021189377 -0.010688731 -0.020783788 4278668458
0.0039706826 -0.010643911 -0.020905348 4278669224
0.0059716068 -0.011404911 -0.020390259 4278603943
0.0079778321 -0.012165675 -0.019875441 4278668714
0.011691254 -0.012075109 -0.020118697 4278403514
0.017591532 -0.013549654 -0.019211944 4278995369
0.019284662 -0.01269835 -0.019968938 4278995878
0.020972203 -0.011847133 -0.020725457 4278603688
0.02282792 -0.011801282 -0.020846577 4278669224
0.026538897 -0.011709347 -0.021088608 4278402748
0.034719098 -0.014744231 -0.019036151 4279324064
0.038319577 -0.021941192 -0.013453827 4278996898
-0.026163207 -0.024199411 -0.010992252 4282340204
-0.025095932 -0.01768193 -0.016221883 4279194013
-0.023860812 -0.012783607 -0.020172833 4278735013
-0.022007748 -0.012740321 -0.020295648 4278996899
-0.020043597 -0.013505891 -0.019780893 4278668458
-0.018301856 -0.012653386 -0.020540986 4279192993
-0.016565654 -0.011800835 -0.021300655 4279127713
-0.014834974 -0.010948349 -0.022059835 4278866594
-0.012865722 -0.011713339 -0.021545075 4278669989
-0.010891132 -0.012478154 -0.021030555 4278538919
-0.0087837204 -0.014051289 -0.019879961 4278603943
-0.0070561506 -0.013198431 -0.020638604 4279127969
-0.0053341351 -0.012345612 -0.02139681 4278340784
-0.0017684139 -0.011448307 -0.022276226 4278274738
8.0745667e-05 -0.011403782 -0.022397788 4279127459
0.0019297823 -0.011359142 -0.022519255 4278865828
0.0037786812 -0.011314398 -0.022640631 4278538409
0.0057767034 -0.012077697 -0.022126943 4278407594
0.0079319887 -0.013648741 -0.020978795 4278603943
0.0099433251 -0.01441147 -0.020465869 4278799784
0.013341431 -0.012704979 -0.021977801 4278468539
0.015032109 -0.011851804 -0.02273312 4279189933
0.016882744 -0.011806352 -0.022854114 4278996389
0.018733237 -0.01176082 -0.022975035 4278931619
0.020754565 -0.012522754 -0.022462351 4278473384
0.022607472 -0.012477 -0.02258331 4278669989
0.024460208 -0.012431142 -0.022704177 4278604454
0.03224412 -0.013861291 -0.021922044 4278865318
0.034481499 -0.015429133 -0.020778306 4278997154
0.037693094 -0.021031693 -0.01647464 4278604199
-0.026407644 -0.024085212 -0.01338806 4282209134
-0.025139567 -0.019173246 -0.017331583 4279849109
-0.023904212 -0.014261923 -0.021272847 4278996898
-0.021942914 -0.015029849 -0.020759614 4278865828
-0.020198457 -0.014175229 -0.021518355 4279193503
-0.018231872 -0.014942811 -0.021005306 4279127968
-0.016493015 -0.014088089 -0.021763502 4279128223
-0.014640428 -0.014044349 -0.021885937 4278931363
-0.012665942 -0.014811384 -0.021373142 4278997153
-0.010561429 -0.016389064 -0.020225698 4278997153
-0.0088283829 -0.015534017 -0.020983165 4278997154
-0.0071008876 -0.014678998 -0.021740187 4279193503
-0.0055118091 -0.013013319 -0.02313122 4279324574
-0.0037981346 -0.012158429 -0.023887182 4279389598
-0.0019517057 -0.012114072 -0.024008641 4279521178
3.5617501e-05 -0.012880071 -0.023496145 4279324319
0.0020282716 -0.013645856 -0.022983862 4279193248
0.0038797706 -0.013601077 -0.023105431 4279062434
0.0057311431 -0.013556206 -0.023226921 4279193758
0.0075823702 -0.013511217 -0.023348309 4279324574
0.0094334744 -0.013466149 -0.023469629 4279062943
0.011441771 -0.014231046 -0.022958068 4279324829
0.013295319 -0.01418572 -0.023079399 4279520669
0.015311468 -0.014950217 -0.022568196 4279520669
0.01700196 -0.014094803 -0.023321826 4279257763
0.018855069 -0.014049224 -0.023442933 4279258528
0.020537097 -0.013193831 -0.02419587 4279193503
0.022560816 -0.013957825 -0.023684924 4279063198
0.024413455 -0.013911992 -0.023805803 4278670499
0.026265938 -0.013866081 -0.023926608 4278997918
0.028300036 -0.014629557 -0.023416147 4279063198
0.03015491 -0.014583438 -0.023536997 4278997663
0.032196846 -0.015346549 -0.023026917 4278998173
0.034433972 -0.016918767 -0.021886425 4278866339
0.037259731 -0.020918202 -0.018855086 4278866593
-0.026651805 -0.023962181 -0.015777225 4282405229
-0.025286071 -0.019850839 -0.01907591 4279520924
-0.0239476 -0.015740022 -0.022372704 4278866083
-0.021878194 -0.017323546 -0.021226684 4278603944
-0.020020057 -0.017280018 -0.021349741 4278538664
-0.012466419 -0.017917879 -0.021207569 4278472874
-0.0070155226 -0.016972262 -0.022208661 4278276013
-0.0054237247 -0.015302223 -0.02359659 4278341294
0.0096967779 -0.016569059 -0.023306722 4278341039
0.015427906 -0.017245047 -0.02304044 4278341039
0.016955648 -0.015575404 -0.024423305 4278275759
0.024542984 -0.016204404 -0.024277339 4278275758
0.028616477 -0.017735731 -0.023260048 4278341548
0.030476686 -0.017689504 -0.023381267 4278472619
0.032336731 -0.017643195 -0.023502409 4278604199
0.034386482 -0.018408258 -0.02299444 4278538154
0.036826637 -0.02079579 -0.021228971 4278473129
0.040064108 -0.026428102 -0.016949609 4281487993
-0.026795613 -0.024645999 -0.017526422 4282404718
-0.025329612 -0.021339597 -0.020183707 4279586968
-0.023885448 -0.018033551 -0.022839433 4278997664
-0.021813594 -0.019621357 -0.021696813 4279128478
-0.019952882 -0.019577771 -0.021820044 4278997919
-0.017978542 -0.020349575 -0.021310722 4278866848
-0.016348097 -0.018674925 -0.02269852 4278997664
-0.014252074 -0.020261751 -0.021557119 4279063199
-0.01251084 -0.019402366 -0.022312107 4279063199
-0.010525972 -0.020173471 -0.021803144 4278997664
-0.0087903626 -0.01931401 -0.022557603 4278997664
-0.0068002604 -0.020084757 -0.022048814 4278931619
-0.0050702989 -0.019225217 -0.02280274 4278931619
-0.0030749738 -0.019995622 -0.022294132 4278996898
-0.0013506711 -0.019136006 -0.023047529 4278931363
0.00064986572 -0.019906092 -0.022539118 4278734758
0.002512116 -0.019861182 -0.022661489 4278865829
0.0043742433 -0.019816168 -0.022783771 4279062433
0.006087184 -0.018956408 -0.023536112 4279062433
0.0077945702 -0.018096734 -0.024287978 4278996898
0.0094963871 -0.017237104 -0.025039406 4279259039
0.011507038 -0.018006299 -0.024531253 4279193248
0.013682913 -0.019589663 -0.023393951 4279127714
0.015706863 -0.020358358 -0.022886533 4278931108
0.017405409 -0.019498441 -0.023637479 4279193248
0.019098375 -0.018638518 -0.024388023 4279128224
0.02078576 -0.017778706 -0.025138112 4278996898
0.022814561 -0.018546922 -0.024630744 4279521434
0.024496216 -0.017687082 -0.025380332 4279259294
0.026709091 -0.01926893 -0.024244998 4278932129
0.028569374 -0.019222798 -0.024366289 4279063199
0.030613836 -0.019990319 -0.023859715 4278800548
0.032102365 -0.018316619 -0.02523634 4278997664
0.034339022 -0.019897556 -0.024102317 4279324829
0.036778886 -0.022291642 -0.022341711 4279653268
-0.026939284 -0.025325228 -0.019272279 4282339439
-0.02537315 -0.022828115 -0.021291329 4279718549
-0.023717936 -0.021149023 -0.022677882 4279128989
-0.021749094 -0.021923348 -0.022169983 4279194524
-0.019885805 -0.021879729 -0.022293404 4278997664
-0.018022589 -0.021836003 -0.022416739 4279128734
-0.016159452 -0.021792147 -0.022539971 4279325338
-0.014296405 -0.021748174 -0.022663109 4278932384
-0.012433443 -0.021704108 -0.022786168 4279193759
-0.010695096 -0.02084253 -0.023539279 4279193759
-0.0089622661 -0.019981025 -0.024291907 4279194269
-0.0069750883 -0.020753991 -0.0237846 4279194269
-0.0049825683 -0.021526763 -0.023277523 4279194269
-0.0029847249 -0.022299241 -0.022770744 4279194269
-0.0012577586 -0.021437461 -0.023522679 4279521688
0.00060447678 -0.021392658 -0.023645127 4278866339
0.0024665929 -0.021347761 -0.023767497 4279128479
0.0043285973 -0.021302773 -0.023889789 4279390108
0.006339442 -0.022074424 -0.023383481 4279325083
0.0080522187 -0.021212481 -0.024134103 4279390618
0.0099138357 -0.021167202 -0.024256147 4279455643
0.011932436 -0.021938393 -0.023750145 4279390109
0.013796512 -0.021892857 -0.023872202 4279127968
0.015497874 -0.02103081 -0.024621792 4279062434
0.017193656 -0.020168759 -0.025370982 4279062434
0.019051868 -0.020123124 -0.025492476 4279062434
0.021080654 -0.020893646 -0.024986755 4279194014
0.022767846 -0.020031583 -0.025735218 4279194014
0.024625618 -0.019985683 -0.025856476 4279063198
0.026662115 -0.020755796 -0.025351094 4279128989
0.028885443 -0.022341603 -0.024219666 4279194524
0.030750889 -0.022295296 -0.024341259 4279128989
0.032429192 -0.021433095 -0.025088802 4279390618
0.034291614 -0.021386711 -0.025210086 4279259549
0.036923628 -0.024603087 -0.022828657 4280111759
-0.026782911 -0.028460318 -0.019124368 4282274158
-0.025313985 -0.025136497 -0.021768896 4279325339
-0.023550652 -0.024273036 -0.022522617 4279325593
-0.02179284 -0.023409555 -0.023275862 4279325593
-0.019929688 -0.02336595 -0.023399282 4279063454
-0.018066615 -0.023322215 -0.023522599 4278932384
-0.016203623 -0.023278387 -0.023645841 4279194269
-0.014340714 -0.023234442 -0.023768984 4279456408
-0.012599617 -0.022370759 -0.024520753 4279194269
-0.01073961 -0.022326652 -0.024643535 4279194269
-0.0087525249 -0.023101946 -0.024137886 4279325338
-0.0067601055 -0.023876956 -0.023632545 4279259804
-0.0047623552 -0.02465174 -0.023127481 4279063199
-0.0027592704 -0.025426297 -0.022622695 4279390873
-0.0010269322 -0.024562212 -0.023373356 4279521689
0.00069985539 -0.023698168 -0.024123581 4278866338
0.0025645718 -0.023653226 -0.024246134 4278669733
0.0044291615 -0.023608178 -0.024368599 4279324573
0.0062936284 -0.02356304 -0.024490984 4279194013
0.0080063455 -0.022698939 -0.025239989 4279194013
0.0097135045 -0.02183483 -0.025988597 4279193503
0.011729222 -0.02260834 -0.025484014 4279390363
0.013590466 -0.022562891 -0.025605898 4279193503
0.015614051 -0.023335963 -0.025101721 4279127968
0.017477732 -0.023290293 -0.025223643 4279456154
0.019341264 -0.023244541 -0.025345493 4279456154
0.021375295 -0.024017097 -0.024841804 4279325338
0.023067903 -0.023152785 -0.025588969 4279259804
0.02493101 -0.02310678 -0.025710594 4278932129
0.026793953 -0.023060707 -0.025832154 4279194269
0.02865677 -0.023014566 -0.025953654 4279194523
0.030519407 -0.022968357 -0.026075087 4279063454
0.032194968 -0.022104055 -0.026820831 4279129754
0.034433898 -0.023693649 -0.025693536 4279063963
0.036875885 -0.026100799 -0.023942791 4282144109
-0.027026394 -0.028314745 -0.021496834 4282077808
-0.025460161 -0.025804639 -0.023506191 4279652504
-0.023594305 -0.025761187 -0.023629954 4279718293
-0.021836568 -0.024895571 -0.024381597 4279522199
-0.019862778 -0.025673993 -0.023877244 4279522199
-0.017997123 -0.025630213 -0.024000742 4279587734
-0.015899118 -0.027230073 -0.022869313 4279718803
-0.014028184 -0.027185973 -0.022993015 4279456664
-0.012400657 -0.025498226 -0.024370717 4279718803
-0.010659724 -0.024632325 -0.025120741 4279521689
-0.0087972246 -0.024588054 -0.02524361 4279456154
-0.0068050027 -0.025365265 -0.024739895 4279521689
-0.0049399771 -0.025320746 -0.02486279 4279521689
-0.0030750632 -0.025276111 -0.024985589 4279521689
-0.0010722838 -0.026052741 -0.024482325 4279456154
0.00065444782 -0.025186548 -0.025230942 4279194015
0.0026624426 -0.025962871 -0.024727887 4278603943
0.0042373799 -0.024275435 -0.026101418 4279259549
0.006247852 -0.025051465 -0.025598347 4279325084
0.007960517 -0.024185238 -0.026345763 4279390619
0.0099761747 -0.024960972 -0.025842909 4279455898
0.011840146 -0.024915582 -0.025965065 4279128223
0.013703991 -0.024870098 -0.026087139 4279324829
0.015567686 -0.024824522 -0.026209135 4279521433
0.017431255 -0.024778876 -0.026331067 4279455898
0.019462544 -0.025553774 -0.025828898 4279259549
0.021499138 -0.026328482 -0.025327027 4279390619
0.023021128 -0.024641449 -0.026696425 4279128734
0.024884131 -0.02459548 -0.026818071 4279325338
0.026746992 -0.024549434 -0.026939644 4278997919
0.028791126 -0.025323628 -0.026438024 4278932384
0.030472245 -0.024457147 -0.027182607 4278997919
0.03252152 -0.025231047 -0.026681196 4278670244
0.034576077 -0.02600478 -0.026180105 4278997919
0.037020508 -0.028418399 -0.024434393 4282275943
-0.02716976 -0.028984794 -0.02323579 4280177294
-0.025503658 -0.027292619 -0.024613414 4279586969
-0.023637936 -0.027249219 -0.024737202 4279586969
-0.02177228 -0.027205653 -0.024860863 4279717529
-0.01979598 -0.027986182 -0.024358291 4279783064
-0.017927747 -0.027942356 -0.024481975 4279849108
-0.015943438 -0.028722478 -0.02397977 4279390363
-0.014072649 -0.02867838 -0.024103463 4279652758
-0.012445133 -0.026986323 -0.025477944 4279521688
-0.010579951 -0.026942123 -0.025601089 4279062688
-0.0087148696 -0.026897818 -0.02572415 4279063199
-0.0065903738 -0.028500875 -0.024597324 4279391129
-0.0048525222 -0.027632572 -0.025345296 4279586714
-0.0028498247 -0.028411485 -0.02484373 4279061669
-0.0011176132 -0.027543128 -0.025591191 4278800548
0.0008903034 -0.028321721 -0.025089823 4278931619
0.0027602091 -0.028276687 -0.025212742 4278407848
0.0043378696 -0.02658488 -0.026583236 4279390620
0.0060533211 -0.025716502 -0.027329277 4279062688
0.0079147108 -0.025671383 -0.027451422 4279587224
0.0099301822 -0.026449308 -0.026950184 4280241298
0.011950966 -0.027227029 -0.026449244 4279454368
0.013817418 -0.027181501 -0.026571505 4279650973
0.01600844 -0.028781798 -0.025448188 4279586460
0.017714981 -0.027913081 -0.026193231 4278931364
0.019583743 -0.027867248 -0.026315458 4279651994
0.021452356 -0.027821336 -0.026437614 4279848088
0.023320843 -0.027775344 -0.026559697 4279521434
0.025189172 -0.027729258 -0.026681699 4278997153
0.026878703 -0.026860597 -0.02742536 4279194269
0.028562661 -0.025991963 -0.028168574 4279259549
0.030425128 -0.025945805 -0.028290031 4279455643
0.032474246 -0.02672193 -0.027790271 4279062688
0.034718152 -0.028320119 -0.026669808 4278538664
0.036972795 -0.029918034 -0.025549963 4282340459
-0.0070244037 -0.02751548 -0.027577514 4282537318
-0.0051623657 -0.027471051 -0.027700227 4282471783
-0.0031653047 -0.0282523 -0.027199931 4282275433
-0.0011629052 -0.029033322 -0.026699916 4282537319
0.00084481016 -0.029814105 -0.026200164 4282406248
0.0028578565 -0.030594664 -0.025700694 4282276454
0.0042922646 -0.028072966 -0.027690362 4282144874
0.0061563738 -0.028027907 -0.027812775 4281227129
0.0077175088 -0.026331954 -0.029178865 4280964224
0.0098842271 -0.027937474 -0.028057341 4281290624
0.011747975 -0.027892148 -0.028179526 4280766854
0.013930742 -0.029497072 -0.027058974 4280636038
0.015799668 -0.029451452 -0.027181372 4280505989
0.017668452 -0.029405704 -0.027303664 4280374664
0.019369382 -0.028534925 -0.028046697 4281422713
0.021405619 -0.029314034 -0.027548086 4281357433
0.022754539 -0.026793525 -0.029531483 4281291899
0.024614621 -0.026747692 -0.029652987 4280702594
0.026295979 -0.025877018 -0.030394532 4280375174
0.028515693 -0.027480451 -0.029275883 4280832898
0.030378062 -0.02743433 -0.029397361 4281291389
0.032427009 -0.028212657 -0.02889923 4281684598
0.034481268 -0.028990768 -0.02840138 4281292154
0.0036730096 -0.031521354 -0.033965196 4282733414
0.028815594 0.001223838 0.02339696 4285427233
0.03057171 0.0020268243 0.022598693 4285623839
0.032322187 0.0028297435 0.021800851 4286277403
0.034617525 0.0013673846 0.023018414 4286277404
0.036551032 0.0014153998 0.022892395 4286211868
0.038862225 -4.6441332e-05 0.024109095 4285623074
0.040800717 1.8645078e-06 0.023982879 4285492514
0.042933341 -0.00070456415 0.02452768 4285558814
0.047014382 -0.0013621412 0.024945844 4285493024
0.048147175 0.00170503 0.022137851 4286213398
0.050079029 0.0017535444 0.022012342 4286212123
0.052634533 -0.00046130829 0.023897145 4286081053
0.028241027 0.0019467864 0.020232528 4285624094
0.02963296 0.0042665377 0.018095655 4285819933
0.031550501 0.0043139942 0.017970555 4285753888
0.033467826 0.0043615513 0.017845551 4285819679
0.03557108 0.0036519878 0.018390467 4285951258
0.03749067 0.0036997646 0.018265435 4285754399
0.039410029 0.0037476048 0.018140474 4285624094
0.041523475 0.0030385461 0.018684918 4285689629
0.043642115 0.0023297053 0.019229092 4285689119
0.045366455 0.0031347442 0.01843502 4285885979
0.046882641 0.0046964996 0.016972583 4285819933
0.048798103 0.0047446266 0.016848158 4285687844
0.050921198 0.0040361695 0.017392248 4285885723
0.053681362 0.001058178 0.019940913 4285754654
0.027842063 0.0019234102 0.01774702 4285820189
0.029406581 0.0034900047 0.016284151 4286476048
0.03286906 0.0051038228 0.014697572 4285622308
0.034963977 0.0043919012 0.015241429 4285754144
0.036875311 0.0044394918 0.01511695 4285885979
