# .PCD v0.7 - Point Cloud Data file format
VERSION 0.7
FIELDS x y z rgba
SIZE 4 4 4 4
TYPE F F F U
COUNT 1 1 1 1
WIDTH 956
HEIGHT 1
VIEWPOINT 0 0 0 1 0 0 0
POINTS 956
DATA ascii
0.011555545 0.0064060688 0.00044159405 4288361008
0.013264209 0.0072215684 -0.00032287091 4288557614
0.01496724 0.008036986 -0.0010869196 4287969073
0.016838633 0.0080772974 -0.0011906466 4287510838
0.0181797 0.010442734 -0.0032736787 4287313213
0.024504237 0.015253138 -0.007640996 4288818223
0.026349932 0.015293334 -0.0077429712 4288754219
0.028195404 0.015333619 -0.0078448644 4289081129
0.030236423 0.014599357 -0.0072879689 4289866019
0.031687282 0.016188927 -0.0087070623 4290323999
0.033328213 0.017003838 -0.0094670514 4289931554
0.035167411 0.017044235 -0.0095684165 4290651163
0.037419587 0.015535973 -0.008353428 4289800738
0.039682418 0.014027949 -0.0071389521 4289539108
0.041955896 0.012520265 -0.0059250551 4289342504
0.043810524 0.012561243 -0.0060270918 4289211689
0.045447439 0.013376404 -0.0067866095 4290127649
0.046858519 0.014965605 -0.0082032131 4289538853
0.04848142 0.015780549 -0.0089618927 4289669923
0.051001139 0.013499569 -0.007091816 4289931553
0.053308569 0.011992913 -0.0058795824 4290651419
0.057243951 0.0050696563 -7.025199e-05 4290259228
-0.019150417 -0.016826132 0.019080132 4288888603
-0.017555304 -0.014450918 0.016986202 4287901753
-0.0060197562 -0.0024987254 0.0063186055 4287051328
-0.0042576566 -0.0016808975 0.0055520507 4287772468
-0.0025011525 -0.00086309202 0.0047859559 4288427308
-0.00075027347 -4.5318156e-05 0.0040202336 4288558379
0.00099500269 0.00077241845 0.0032548876 4288362029
0.0028868243 0.00081243366 0.0031494843 4288165678
0.004623577 0.0016302466 0.0023847288 4288230958
0.0061971024 0.0032256003 0.00096116262 4288362029
0.0079199001 0.0040432718 0.00019737147 4288230958
0.0096370503 0.0048609208 -0.00056603178 4288427308
0.011845902 0.0033462066 0.00064727152 4288492844
0.01339148 0.0049413331 -0.00077447109 4288296493
0.0152684 0.0049816761 -0.00087856688 4288230958
0.016971178 0.0057994258 -0.0016409475 4288362029
0.018668339 0.0066170655 -0.0024029305 4288296749
0.020180494 0.0082118101 -0.0038225669 4288361518
0.021681562 0.0098064505 -0.0052415635 4288034098
0.023171544 0.011400882 -0.0066598491 4288295729
0.024837986 0.012218181 -0.0074198931 4288558124
0.026689015 0.012258515 -0.0075221504 4288230703
0.028346874 0.013075817 -0.00828165 4288230448
0.029999107 0.013893019 -0.0090407534 4288296239
0.031447276 0.015486885 -0.010456472 4289473574
0.032884367 0.017080653 -0.011871549 4289277223
0.034718044 0.017120931 -0.011972607 4289866020
0.037171163 0.014831569 -0.010103989 4289604134
0.039221816 0.014095675 -0.0095489835 4289342504
0.041277692 0.013359942 -0.0089942347 4289277224
0.042909406 0.014177121 -0.0097518852 4289473319
0.044970281 0.013441589 -0.0091973431 4290585374
0.046816237 0.013482485 -0.00929882 4289538853
0.048439153 0.014299609 -0.010055887 4288819753
0.050507516 0.013564397 -0.0095016398 4289016104
0.052809373 0.012053218 -0.0082922839 4289146664
0.057431631 0.002782166 -0.00053161196 4288950823
-0.018724017 -0.021512432 0.020564388 4289411353
-0.017117977 -0.019130461 0.018474687 4289016359
-0.015528426 -0.016748657 0.016385961 4290127903
-0.013955355 -0.014367083 0.014298244 4290058289
-0.012015957 -0.014327029 0.014189473 4288683838
-0.0044394433 -0.0024229623 0.0037688361 4287447089
-0.0028296709 -0.00082297064 0.002346117 4288231978
-0.00093763322 -0.00078314357 0.0022405591 4288362283
0.00065544993 0.00081674755 0.00081888307 4288230959
0.0028459281 -0.00070323423 0.0020296676 4288427308
0.0047374517 -0.00066311657 0.0019243616 4288427308
0.0063136965 0.00093669631 0.00050382782 4288230958
0.0078788772 0.0025363471 -0.00091595948 4288231213
0.0097589791 0.0025764983 -0.0010204241 4288362029
0.011804596 0.0018371083 -0.00046765199 4288427308
0.013518609 0.0026570465 -0.0012291372 4288492844
0.015398152 0.0026974399 -0.001333382 4288427308
0.017103627 0.0035173688 -0.0020942634 4288427308
0.018980049 0.003557872 -0.0021982065 4288296493
0.020497642 0.0051571596 -0.0036149409 4288295983
0.022186212 0.0059769638 -0.004374709 4288295983
0.02386912 0.0067967176 -0.0051341094 4288427054
0.025546402 0.0076164529 -0.0058931233 4288361263
0.027027838 0.0092152469 -0.0073076412 4288819244
0.028498225 0.010813836 -0.0087214503 4288753963
0.030153133 0.011633322 -0.0094791222 4288688428
0.031802401 0.012452703 -0.010236396 4288361263
0.033446044 0.01327204 -0.010993304 4288426799
0.034880266 0.0148701 -0.012404921 4288753964
0.03692285 0.014131766 -0.011851149 4289211689
0.038761452 0.014172282 -0.011952382 4289277224
0.040811785 0.013434254 -0.011398938 4289342504
0.042223424 0.015032042 -0.012809144 4289473319
0.044058681 0.015072651 -0.012910069 4290454558
0.045893751 0.015113294 -0.013010957 4290258463
0.047505781 0.0159324 -0.013765852 4289474084
0.049788684 0.014416408 -0.012558708 4289146919
0.052538604 0.011344191 -0.010044677 4289669668
-0.020956773 -0.021558909 0.018196337 4290262288
-0.018881295 -0.022301758 0.018744417 4289670688
-0.017158587 -0.020696061 0.017317861 4289408549
-0.015446924 -0.019090418 0.01589198 4291174678
-0.013746269 -0.017484948 0.014466832 4289866528
-0.011546489 -0.01901 0.015673123 4290324509
-0.0095964856 -0.018969614 0.015563841 4289866783
-0.0081785768 -0.015799114 0.012825093 4288754473
0.0025009364 -0.00065441988 -0.00040262844 4287775784
0.0045416579 -0.0013964642 0.00014852965 4288363303
0.0061151832 0.00020761974 -0.0012685708 4288428329
0.0079980791 0.00024772994 -0.0013732663 4288428074
0.0097178519 0.001069786 -0.002133593 4288362284
0.011763304 0.00032822415 -0.0015824144 4288492843
0.013645634 0.00036861189 -0.001686865 4288623914
0.015527785 0.00040906668 -0.0017912532 4288427564
0.017235935 0.0012312401 -0.0025506634 4288296493
0.018938437 0.0020533651 -0.0033097048 4288427309
0.02081456 0.0020939466 -0.0034135696 4288492333
0.022508524 0.0029160902 -0.004172063 4288427054
0.024381518 0.0029567797 -0.0042756242 4288165168
0.026066929 0.0037788432 -0.0050334907 4288295983
0.027746677 0.0046008863 -0.0057909684 4288361774
0.029035136 0.006985303 -0.007856261 4288623148
0.030502625 0.0085882805 -0.009266614 4288753963
0.032355584 0.0086288564 -0.0093688294 4288753964
0.033806339 0.010231622 -0.010778217 4288753963
0.035246037 0.011834156 -0.012186911 4288884778
0.036881089 0.012655593 -0.012941649 4288753964
0.038510494 0.013476957 -0.013696035 4288426798
0.040557981 0.012736682 -0.013144052 4288754219
0.04196696 0.014338817 -0.014550925 4288950313
0.04379943 0.01437936 -0.0146517 4288950058
0.045411721 0.01520057 -0.01540498 4289538853
0.047241069 0.015241127 -0.015505522 4290258718
0.049295634 0.014501236 -0.014953759 4290258464
0.052039847 0.011420179 -0.012445867 4289930788
-0.021224886 -0.021556243 0.015724365 4289999128
-0.019388232 -0.020731363 0.014957785 4289605154
-0.017557148 -0.019906472 0.014191615 4290062878
-0.015853677 -0.018296696 0.012769456 4288819753
-0.013911709 -0.018256702 0.012660456 4288950568
-0.011587419 -0.020570958 0.014519758 4289473828
-0.0093771257 -0.022100061 0.015722372 4289474084
-0.0082195587 -0.017351355 0.01167819 4289212964
0.0059168115 -0.00051687844 -0.0030375889 4287775528
0.0077968538 -0.00047680922 -0.0031421131 4288167209
0.0095138624 0.00034737214 -0.0039006646 4288296748
0.011556424 -0.00039643236 -0.0033509454 4288623914
0.013604239 -0.0011400469 -0.0028014535 4288623914
0.01531525 -0.0003157109 -0.0035594685 4288492843
0.01736813 -0.0010590367 -0.0030101256 4288362029
0.019073308 -0.00023465417 -0.0037676899 4288362029
0.020952053 -0.00019402429 -0.0038717038 4288427309
0.0226487 0.00063031353 -0.0046286886 4288296238
0.024708949 -0.00011251122 -0.0040795039 4288492589
0.026399761 0.00071184523 -0.0048360568 4288296238
0.028084911 0.0015362073 -0.0055922796 4288296238
0.029571675 0.0031438693 -0.0070005334 4288361773
0.031438343 0.0031847022 -0.0071035358 4288492588
0.033106588 0.0040088631 -0.0078586256 4288558124
0.034367353 0.0063994303 -0.0099173887 4288754218
0.035611585 0.0087897032 -0.011975186 4288623148
0.037045695 0.010396529 -0.013380306 4288361773
0.038677819 0.011220139 -0.014133224 4288884778
0.040516093 0.011260707 -0.014234394 4288950569
0.042139657 0.012084227 -0.014986768 4288819754
0.043974787 0.012124825 -0.015087696 4288558124
0.045589767 0.012948323 -0.015839547 4288426798
0.047199123 0.013771668 -0.016591035 4288753964
0.049028225 0.01381227 -0.016691528 4288884779
0.05222556 0.009157192 -0.012888936 4289014829
-0.038936894 -0.022684768 0.014906249 4288691744
-0.037353713 -0.019495297 0.012169759 4289084188
-0.035602938 -0.017881405 0.010747272 4289149724
-0.033765674 -0.017055184 0.0099816425 4288365343
-0.021378953 -0.022331867 0.013914312 4289802779
-0.019428588 -0.022292063 0.013804573 4289671199
-0.017836094 -0.019890742 0.011730171 4290782488
-0.016138114 -0.018276652 0.010311526 4289866273
-0.01420173 -0.018236786 0.01020283 4288950569
-0.011883199 -0.020557726 0.012057665 4289800993
-0.0096786208 -0.022091262 0.013257329 4289997343
-0.0083934031 -0.01811648 0.0098773269 4289147429
0.013058074 -0.00029009953 -0.0058724531 4287317038
0.014931843 -0.00024981424 -0.0059763682 4288428838
0.017152816 -0.001781458 -0.0047763982 4288494119
0.019031651 -0.0017408989 -0.0048804712 4288362794
0.021268554 -0.0032719895 -0.0036813039 4288035119
0.022970594 -0.0024453476 -0.004436966 4288165679
0.025036134 -0.0031902641 -0.0038897083 4288558124
0.02673234 -0.0023635998 -0.0046449383 4288361774
0.02823291 -0.00075135008 -0.0060507823 4288296494
0.029915124 7.5206161e-05 -0.0068051685 4288361773
0.031396292 0.0016871579 -0.008209846 4288361773
0.033460811 0.0009425953 -0.0076622558 4288230958
0.034727119 0.0033397675 -0.0097164437 4288427053
0.036180496 0.0049513504 -0.011119487 4288688683
0.037622802 0.0065627135 -0.012521829 4288361519
0.039472058 0.0066034682 -0.012623646 4288492588
0.041109383 0.0074294619 -0.013375245 4288427053
0.042526662 0.0090404339 -0.014776089 4288623403
0.044367157 0.0090811439 -0.014877316 4288623404
0.046207473 0.0091218986 -0.014978495 4288623148
0.047824971 0.0099476129 -0.015728809 4288688684
0.049662173 0.0099883787 -0.015829757 4288622893
0.053095244 0.0045356005 -0.011388388 4288360753
-0.0392434 -0.02187546 0.011788116 4288885543
-0.037576385 -0.01946727 0.0097134095 4289409315
-0.035736419 -0.01863895 0.0089491419 4290586904
-0.033707164 -0.019390112 0.0094943652 4290455578
-0.031672545 -0.020141039 0.010039377 4290064408
-0.029735424 -0.020102117 0.0099299299 4289540893
-0.027798388 -0.020063056 0.0098205926 4289410333
-0.025753159 -0.020813398 0.01036528 4288298024
-0.023591544 -0.022353053 0.011563553 4289213983
-0.021532901 -0.023102891 0.012107658 4289670688
-0.019818354 -0.021484403 0.010691163 4289801503
-0.017995626 -0.020655273 0.0099286521 4290258974
-0.016178463 -0.019826211 0.0091665639 4290586139
-0.014242221 -0.019786337 0.0090578841 4290586394
-0.01205137 -0.021324683 0.01025504 4290913559
-0.009979859 -0.022073559 0.010798938 4290979348
-0.0086999424 -0.018087991 0.0074273059 4289279008
0.018990003 -0.0032469146 -0.0059930859 4287775529
0.021405742 -0.0055704229 -0.0041471655 4287839278
0.023474053 -0.0063175745 -0.0036016866 4288035119
0.025363088 -0.0062765572 -0.0037061498 4288165679
0.027064696 -0.0054475646 -0.0044601131 4288557614
0.028380789 -0.0030430295 -0.0065124044 4288427053
0.030065715 -0.0022143014 -0.0072653014 4288230958
0.031549625 -0.00059787743 -0.0086669382 4288427309
0.033418626 -0.00055694021 -0.0087700309 4288296238
0.034885839 0.0010591913 -0.010170617 4288296238
0.036341973 0.002675198 -0.011570578 4288230703
0.038199529 0.0027160626 -0.011672908 4288492589
0.039847918 0.0035443753 -0.012423505 4288427309
0.04170236 0.0035852753 -0.012525585 4288296494
0.04312782 0.0052007847 -0.01392365 4288492588
0.044976406 0.0052416585 -0.014025331 4288361773
0.046604984 0.0060697868 -0.014774725 4288557868
0.048227929 0.0068977848 -0.015523737 4288950314
0.050295733 0.0061516166 -0.014977568 4288622894
0.054192372 -0.00089024007 -0.009253324 4288491569
-0.039549589 -0.021052746 0.0086798137 4289147429
-0.037798833 -0.019430231 0.0072636418 4290194203
-0.035869785 -0.019391824 0.0071543902 4289932573
-0.033940818 -0.019353285 0.0070452411 4290390298
-0.031711698 -0.021690324 0.0088945339 4290913813
-0.029774729 -0.021651383 0.0087851109 4289278499
-0.027626798 -0.023195894 0.0099807633 4289540383
-0.025684576 -0.023156613 0.0098712174 4289605663
-0.023631472 -0.023908855 0.010413938 4289867293
-0.021800429 -0.023077676 0.0096524265 4289539618
-0.019974951 -0.022246446 0.0088912761 4290063134
-0.018155023 -0.02141526 0.0081305634 4289801249
-0.016218804 -0.021375507 0.0080217971 4289604643
-0.014158119 -0.022127008 0.0085645244 4289932064
-0.011964798 -0.023669666 0.0097583095 4289932319
-0.010020796 -0.023629393 0.0096493708 4289605408
-0.0087407343 -0.019632936 0.0062857931 4289083169
0.027958319 -0.01091026 -0.0023377493 4287247678
0.029098213 -0.0077088661 -0.0050337631 4288359989
0.03040877 -0.0052978117 -0.0070809047 4287968054
0.031702846 -0.002887072 -0.0091271019 4287903028
0.033376463 -0.0020562727 -0.0098776557 4288230703
0.035245202 -0.0020152796 -0.0099806879 4288295728
0.036910273 -0.0011845566 -0.01073069 4288361263
0.038775913 -0.0011435151 -0.010833465 4288361774
0.040432453 -0.00031287037 -0.011582914 4288230958
0.042083353 0.00051772967 -0.012331996 4288427309
0.043728635 0.0013482925 -0.013080776 4288296494
0.045151234 0.0029681195 -0.014475441 4288230958
0.047002286 0.0030090995 -0.014577218 4288492588
0.048630677 0.003839368 -0.015324939 4288165423
0.051154144 0.0015127119 -0.013489041 4288034099
0.055061027 -0.0055485331 -0.0077798907 4287968053
-0.041436143 -0.023432167 0.0082984222 4287838513
-0.039766319 -0.021010978 0.0062331436 4290128158
-0.038021058 -0.019384269 0.0048205443 4288885033
-0.03619219 -0.018551812 0.0040601352 4288819243
-0.034174249 -0.019307546 0.0046027787 4289212198
-0.031950895 -0.021651233 0.0064475583 4289866273
-0.029711291 -0.023994396 0.0082914913 4289866528
-0.02756089 -0.025543243 0.0094837556 4288820008
-0.025616091 -0.025503902 0.00937407 4289147429
-0.023893241 -0.023876719 0.0079633472 4289474339
-0.022295009 -0.021455912 0.0059029702 4289604899
-0.020596877 -0.019829016 0.0044937981 4290193694
-0.018552482 -0.020583255 0.0050356602 4290062623
-0.016624577 -0.020543683 0.0049273521 4289277734
-0.014447723 -0.022091132 0.0061187642 4289409059
-0.012260113 -0.023638198 0.0073096165 4289474339
-0.010451674 -0.02280462 0.0065514976 4289016614
-0.0089142248 -0.020384209 0.0044950899 4288362793
0.032636955 -0.008348668 -0.0070068864 4287444539
0.033928223 -0.0059314426 -0.0090480037 4288099633
0.035604358 -0.0050983541 -0.0097970422 4288033589
0.037478253 -0.0050572045 -0.0099003268 4288164914
0.039145827 -0.0042241346 -0.010648843 4287968818
0.040390134 -0.0018077008 -0.012687195 4288099888
0.042252578 -0.001766637 -0.012789724 4288165679
0.043900564 -0.0009338893 -0.013537007 4288361773
0.045542911 -0.00010117888 -0.014283988 4288296494
0.047179669 0.00073138997 -0.015030599 4288230958
0.049033172 0.00077245384 -0.015132491 4288034608
0.051561832 -0.0015606768 -0.013301687 4288034099
-0.041560851 -0.024184411 0.0065035941 4288230959
-0.03989375 -0.021756735 0.0044433149 4290193438
-0.038243052 -0.01932933 0.0023840796 4290389278
-0.036419738 -0.018494764 0.0016255542 4289800483
-0.0345047 -0.018456513 0.0015171864 4289539364
-0.032389797 -0.020010667 0.0027080532 4290716953
-0.030161411 -0.022360593 0.0045477776 4289735714
-0.027916752 -0.024710117 0.006386715 4289343779
-0.025980271 -0.024670944 0.0062774979 4289343523
-0.024265617 -0.023039652 0.004870479 4289866783
-0.022561967 -0.021408375 0.0034641568 4290193948
-0.020753007 -0.020573184 0.0027071955 4290847768
-0.018830568 -0.020533834 0.0025991118 4291109654
-0.016908251 -0.020494357 0.0024911342 4291240469
-0.014861573 -0.021250503 0.0030314196 4289670689
-0.012682371 -0.022802172 0.0042195385 4289409059
-0.010622345 -0.023557816 0.0047592437 4289343779
-0.0088222921 -0.022722108 0.0040032994 4289082659
0.038859211 -0.012118929 -0.0065043024 4287575608
0.039927632 -0.0089013036 -0.0091831926 4287837749
0.041182905 -0.0064781122 -0.01121732 4287837239
0.042421684 -0.004055161 -0.013250524 4287968818
0.044286609 -0.0040140264 -0.013353178 4288427053
0.045934401 -0.0031790771 -0.014098817 4288230194
0.047576576 -0.0023442134 -0.014844116 4288034099
0.049435467 -0.0023030601 -0.014946326 4288034353
0.052419432 -0.0062297769 -0.01183547 4287968563
-0.043700524 -0.024171354 0.0041729202 4287315254
-0.04185804 -0.02333463 0.0034147017 4288492078
-0.040110078 -0.021699293 0.0020082993 4289277224
-0.03837309 -0.020063974 0.00060259411 4289342504
-0.036647055 -0.018428825 -0.00080238236 4290389279
-0.034640424 -0.019189157 -0.00026233681 4289996833
-0.032628432 -0.019949265 0.00027748989 4290324254
-0.030405801 -0.022305876 0.0021127481 4289277734
-0.02837763 -0.023065403 0.0026518507 4289278244
-0.026344117 -0.023824723 0.003190726 4289867039
-0.024748478 -0.021391019 0.0011400874 4290193948
-0.022828683 -0.02135196 0.0010319785 4289866783
-0.021257773 -0.018918499 -0.0010171481 4289147174
-0.019227389 -0.019677386 -0.0004777289 4289277734
-0.017435074 -0.018840123 -0.0012319703 4290847768
-0.015523911 -0.018800773 -0.0013392461 4290063134
-0.013231441 -0.021154923 0.00049284799 4289474339
-0.011182491 -0.021912994 0.0010315478 4289343523
-0.0092608184 -0.021873096 0.00092392648 4289802269
-0.0077452101 -0.019439973 -0.0011215042 4289933338
-0.0063840896 -0.016209517 -0.0038117096 4289214239
-0.0047633871 -0.014574505 -0.0052093412 4289018654
0.043647818 -0.010328192 -0.010505727 4287510074
0.045314826 -0.0094907032 -0.011250853 4288098869
0.046759345 -0.0078573711 -0.012637079 4287837239
0.048192814 -0.0062242001 -0.014022709 4287837238
0.049837515 -0.0053870846 -0.014766521 4287903028
0.052601553 -0.0085288212 -0.012304991 4287968564
-0.043822069 -0.024912136 0.0023863567 4286790973
-0.042068645 -0.023272458 0.00098278141 4286595134
-0.040237226 -0.022433678 0.00022687344 4287053114
-0.038502999 -0.020794075 -0.0011754618 4288491823
-0.036685329 -0.019955304 -0.0019303947 4289669669
-0.034678906 -0.020717818 -0.0013919524 4289408295
-0.032766975 -0.020679519 -0.0015000617 4289539108
-0.030855127 -0.0206411 -0.0016080784 4289016359
-0.028943367 -0.020602539 -0.0017159828 4289277989
-0.026923671 -0.0213643 -0.0011779289 4289409058
-0.025009375 -0.021325476 -0.0012858198 4290390044
-0.023208644 -0.020486211 -0.0020391773 4290520603
-0.021413479 -0.019646956 -0.0027921451 4288819754
-0.019623853 -0.018807685 -0.0035447057 4289016104
-0.017596513 -0.019568702 -0.0030066469 4289539620
-0.015688211 -0.019529428 -0.0031137769 4290586393
-0.013652947 -0.020290056 -0.0025759952 4289867040
-0.011612363 -0.021050476 -0.0020384393 4289343523
-0.0098315142 -0.020210832 -0.0027900967 4289540128
-0.0081914924 -0.018571323 -0.0041857027 4290063643
-0.0065625012 -0.016931903 -0.0055806604 4290914834
-0.004663147 -0.016892139 -0.0056867893 4290849809
-0.0026205257 -0.01765204 -0.0051489212 4290326549
-0.00057259947 -0.018411662 -0.0046112984 4289018653
0.001331754 -0.018371506 -0.0047174916 4288627739
0.049247734 -0.011713234 -0.011931444 4287836983
0.050683796 -0.010075667 -0.013313929 4288229684
-0.043860037 -0.026451435 0.0012488249 4286921789
-0.042192854 -0.024004368 -0.0007970212 4287903028
-0.040364258 -0.023163401 -0.0015511829 4287968563
-0.038632795 -0.021519564 -0.0029501088 4288230703
-0.0369123 -0.019875824 -0.004348326 4288099888
-0.034814455 -0.021443427 -0.0031662781 4288295983
-0.032905396 -0.021405194 -0.0032742319 4288950313
-0.0308939 -0.022169529 -0.0027374995 4288885034
-0.029192779 -0.020525677 -0.0041342503 4289211943
-0.027178731 -0.021289749 -0.0035975052 4289539108
-0.025380719 -0.020448487 -0.0043491898 4289539109
-0.023474842 -0.020409703 -0.0044565084 4290847258
-0.021685202 -0.019568384 -0.005207553 4289604389
-0.019782249 -0.01952944 -0.0053145448 4289866529
-0.018001001 -0.018688029 -0.0060649961 4290520859
-0.016100999 -0.0186489 -0.0061716409 4290128159
-0.013947062 -0.020214135 -0.0049917689 4289670688
-0.012041859 -0.020174718 -0.0050985701 4289409058
-0.010136787 -0.02013517 -0.0052052662 4290128669
-0.0085022338 -0.018491406 -0.0065974034 4289539873
-0.0066028759 -0.018451739 -0.0067036031 4290390299
-0.0047036558 -0.018412001 -0.0068097422 4290063389
-0.002804555 -0.018372161 -0.0069157933 4291045139
-0.00075953454 -0.019134087 -0.0063795974 4290325784
0.0012907609 -0.019895736 -0.0058436454 4289802268
0.0031948537 -0.019855514 -0.0059497701 4289672219
0.0050987825 -0.019815173 -0.0060557975 4289737498
0.0068456009 -0.018973168 -0.0068032769 4289608469
0.0082674548 -0.016528081 -0.0088331532 4289412629
-0.043647774 -0.03040632 0.0020436607 4286986558
-0.041972414 -0.027952524 2.1425076e-06 4287183418
-0.040135745 -0.027109297 -0.00075084623 4287510838
-0.03848774 -0.024655789 -0.0027906275 4287838768
-0.036667544 -0.023812635 -0.0035424938 4288034863
-0.034755833 -0.023774471 -0.0036506886 4288165678
-0.032943949 -0.022931222 -0.0044018915 4287904048
-0.031137597 -0.022087984 -0.0051527061 4287903793
-0.029231582 -0.022049556 -0.005260299 4287445558
-0.027433559 -0.021206245 -0.0060104672 4286202688
-0.025530446 -0.021167645 -0.0061177253 4287903283
-0.023627434 -0.021128939 -0.0062248977 4290519073
-0.021724522 -0.021090128 -0.0063319844 4290911518
-0.019940522 -0.02024658 -0.00708105 4290061348
-0.018040542 -0.020207597 -0.0071877996 4290323999
-0.016140684 -0.020168483 -0.0072944453 4289538853
-0.014240947 -0.020129265 -0.007401004 4289866274
-0.012341321 -0.020089952 -0.0075074853 4289932063
-0.010574248 -0.019246258 -0.0082551595 4289604899
-0.0088127255 -0.018402584 -0.0090024527 4289539618
-0.006918937 -0.018363059 -0.0091083599 4288885544
-0.0048846975 -0.01912755 -0.0085733663 4289539618
-0.0028451607 -0.019891821 -0.0080385897 4290259738
-0.0009463504 -0.019851914 -0.0081445714 4289540383
0.00095231831 -0.019811876 -0.008250447 4289933083
0.0030023083 -0.020575685 -0.0077160001 4289998618
0.0049033985 -0.020535424 -0.0078218821 4289933339
0.0066474229 -0.019691255 -0.008567635 4289868058
0.0082262605 -0.018043466 -0.0099527389 4289606428
0.0096317008 -0.015592116 -0.011976804 4289411098
0.011845946 -0.017159062 -0.010802504 4288888348
-0.043685883 -0.031951696 0.00090164086 4287052094
-0.041838367 -0.031106191 0.00014956482 4287379514
-0.040085152 -0.029453319 -0.0012442973 4287445558
-0.038342889 -0.027800558 -0.0026373847 4287642418
-0.036611594 -0.02614785 -0.0040298025 4287707953
-0.03469732 -0.026109613 -0.004138127 4287904048
-0.032882806 -0.025264172 -0.0048878929 4287969584
-0.030971408 -0.025225762 -0.0049958834 4288100143
-0.029165223 -0.02438025 -0.0057450025 4288034353
-0.027472436 -0.022727754 -0.0071347547 4288099379
-0.025790643 -0.02107531 -0.0085238358 4286333248
-0.021995883 -0.020998016 -0.0087374635 4286136898
-0.020098668 -0.020959204 -0.0088441437 4288164659
-0.018323023 -0.020113599 -0.0095910141 4290062114
-0.016552933 -0.019268015 -0.010337504 4289800484
-0.014661495 -0.019228965 -0.010443596 4289996835
-0.012640543 -0.019996343 -0.0099097919 4289866274
-0.010746613 -0.019957054 -0.010015884 4289997344
-0.0091229789 -0.018304814 -0.011400964 4290651418
-0.0072347596 -0.018265417 -0.011506569 4289147174
-0.0053466782 -0.018225927 -0.011612095 4288951080
-0.0031722263 -0.019798858 -0.010439388 4289212708
-0.0011330172 -0.020565219 -0.0099061355 4290194458
0.00091148913 -0.021331374 -0.0093731061 4289998619
0.0028098971 -0.021291269 -0.0094789146 4289802268
0.0045540333 -0.020445086 -0.010223107 4290325783
0.0062925667 -0.019598914 -0.01096691 4290325783
0.0078659579 -0.017946858 -0.012348538 4290390554
0.0099151507 -0.018712502 -0.011815393 4290652439
0.011804618 -0.018672148 -0.011920378 4290849044
0.013861634 -0.019437382 -0.011387562 4290064154
0.015583076 -0.018591162 -0.012130108 4289736989
0.017991491 -0.020967312 -0.010322658 4289344543
0.020767801 -0.024954161 -0.007241521 4287708718
-0.045738056 -0.032725118 -0.0007712869 4286855488
-0.043640688 -0.034306444 0.00040063076 4287182908
-0.041704528 -0.034268294 0.00029067788 4287444793
-0.039945908 -0.032610998 -0.0011002161 4287445814
-0.038289722 -0.030144269 -0.0031307884 4287577138
-0.036461551 -0.029296627 -0.003879901 4287642674
-0.034735806 -0.027639557 -0.0052686911 4287707699
-0.032821752 -0.027601229 -0.0053769317 4287904049
-0.03101014 -0.026753543 -0.0061248275 4287838513
-0.029098969 -0.026715029 -0.0062327255 4287707443
-0.027295697 -0.025867272 -0.0069799745 4287706933
-0.02560848 -0.02421044 -0.0083661163 4287641654
-0.023819003 -0.02336267 -0.0091124447 4287837749
-0.021919101 -0.023323938 -0.0092193764 4288295219
-0.020137984 -0.02247617 -0.0099650351 4286791228
-0.018241007 -0.022437243 -0.010071613 4286202688
-0.016344141 -0.022398222 -0.010178113 4286268224
-0.01457426 -0.021550354 -0.010922896 4287118648
-0.012809921 -0.020702496 -0.011667291 4288688683
-0.011051159 -0.0198546 -0.012411334 4289081128
-0.0092979521 -0.019006737 -0.01315493 4289997089
-0.0075503178 -0.018158907 -0.013898153 4290258973
-0.0055273324 -0.018928019 -0.013365779 4290455324
-0.0033558607 -0.020505343 -0.012196112 4290651929
-0.00131955 -0.021273961 -0.011664326 4290390554
0.00072205812 -0.022042386 -0.011132773 4289801759
0.0024662837 -0.021194128 -0.011875438 4290063643
0.0040508434 -0.019537669 -0.013254602 4290391319
0.0059379637 -0.019497624 -0.013359646 4290063643
0.0076654181 -0.018649455 -0.01410118 4289867038
0.0097117126 -0.019417301 -0.013569532 4290063388
0.011433423 -0.018569075 -0.014310611 4290652183
0.013484843 -0.019336643 -0.013779122 4290848533
0.015541561 -0.020104062 -0.013247829 4290063388
0.018295869 -0.024102343 -0.010173592 4289867039
0.021077216 -0.028099971 -0.0071007982 4289670433
-0.045936987 -0.032644104 -0.0031901572 4287901754
-0.043845326 -0.034229942 -0.0020211013 4287444538
-0.041742828 -0.035815384 -0.00085260067 4287642164
-0.039984256 -0.034153741 -0.002240272 4287445814
-0.038145229 -0.033303786 -0.0029885208 4287511349
-0.036499985 -0.030830678 -0.0050135111 4287773234
-0.034677416 -0.029980857 -0.0057606073 4287707698
-0.032760795 -0.029942492 -0.0058690039 4287773234
-0.030741945 -0.030715406 -0.0053391526 4287838513
-0.028822757 -0.030676741 -0.0054475102 4287773234
-0.027011398 -0.029826652 -0.006193608 4287772979
-0.02531606 -0.02816527 -0.0075770346 4287969074
-0.023631692 -0.026504025 -0.0089597041 4288034098
-0.021726489 -0.026465181 -0.0090669319 4287838004
-0.020058654 -0.024803996 -0.01044854 4288099634
-0.01828045 -0.023954019 -0.011192355 4288295983
-0.016383722 -0.023915 -0.011298847 4288753963
-0.014613915 -0.023064967 -0.012042021 4288230703
-0.012979187 -0.021404026 -0.013421446 4287249718
-0.011223204 -0.020554073 -0.014163694 4287772723
-0.0094727911 -0.01970412 -0.014905543 4288230703
-0.0075902678 -0.01966488 -0.015010857 4289081128
-0.0057078749 -0.019625533 -0.015116083 4289473573
-0.0036824867 -0.020396683 -0.014585391 4289866529
-0.0015059412 -0.021978162 -0.013419164 4289277989
0.00038419664 -0.021938369 -0.013524612 4289474594
0.0022742078 -0.021898473 -0.013629975 4289278498
0.0040100738 -0.021048088 -0.014370539 4289867549
0.0055836141 -0.019387512 -0.015745794 4290456088
0.0071461499 -0.017727025 -0.01712033 4288820264
0.0091841295 -0.018497277 -0.016589873 4289212708
0.010897629 -0.017647052 -0.017328884 4290652183
0.012940735 -0.018416993 -0.01679856 4289474594
0.015329733 -0.02080673 -0.014999793 4289605154
0.018427014 -0.026435921 -0.010665055 4289997344
0.021034926 -0.029634502 -0.0082344897 4289146663
-0.042124782 -0.034106568 -0.0045456132 4286856508
-0.040111236 -0.034882374 -0.004017524 4287379768
-0.038366392 -0.033216532 -0.0054011079 4287510839
-0.036538411 -0.032364562 -0.0061469977 4287641654
-0.034522332 -0.033139937 -0.0056187701 4287838004
-0.032500878 -0.033915136 -0.0050907973 4287838515
-0.030678574 -0.033062886 -0.005836078 4287707699
-0.028756805 -0.033024173 -0.005944584 4287707699
-0.026942823 -0.032171879 -0.0066892351 4287904048
-0.02513437 -0.03131957 -0.0074334815 4287838513
-0.023444593 -0.029653825 -0.0088132806 4287904049
-0.021534085 -0.029614883 -0.008920812 4287969585
-0.01974225 -0.028762575 -0.0096638734 4288165679
-0.01795597 -0.027910244 -0.01040652 4288100399
-0.016175233 -0.027057942 -0.011148795 4288231214
-0.014273319 -0.027018718 -0.011255505 4288427564
-0.01263044 -0.025353286 -0.012632187 4288296493
-0.011130761 -0.022874992 -0.014643019 4288492588
-0.0095125921 -0.021209897 -0.016018111 4288492844
-0.0077678189 -0.02035781 -0.016757976 4288230959
-0.0058882684 -0.02031853 -0.016863048 4287707699
-0.0038657933 -0.021091927 -0.016333815 4288819499
-0.0019837767 -0.021052396 -0.016438875 4289016104
4.6595931e-05 -0.021825427 -0.015909933 4289343013
0.001477398 -0.019347932 -0.017916366 4289408548
0.0033535361 -0.019308262 -0.018020906 4289735714
0.0050728619 -0.018455975 -0.018758882 4290782744
0.0069460124 -0.018416181 -0.018863115 4290324764
0.0086569041 -0.017563969 -0.01960047 4289539618
0.01052703 -0.017524052 -0.019704398 4289212453
0.012732081 -0.019108595 -0.018542476 4289801504
0.015118085 -0.021504954 -0.016748399 4290390043
0.018212132 -0.027149461 -0.012424778 4289800994
-0.038587313 -0.033120364 -0.0078071086 4287118139
-0.036670849 -0.033082269 -0.0079156915 4287510328
-0.034657702 -0.033859912 -0.0073889368 4288164659
-0.032539699 -0.035453144 -0.0062273126 4287707188
-0.030615285 -0.035414502 -0.0063360594 4287576628
-0.028795868 -0.034560055 -0.0070795063 4287773234
-0.026981972 -0.03370557 -0.0078225303 4287904303
-0.025173608 -0.032851096 -0.0085651651 4287904303
-0.023370788 -0.031996571 -0.0093074422 4287904049
-0.021457698 -0.031957589 -0.0094151311 4288100398
-0.01978175 -0.030287616 -0.010790734 4288296749
-0.017995544 -0.029433142 -0.011531788 4287969584
-0.016214892 -0.028578674 -0.012272452 4288165678
-0.014313105 -0.028539466 -0.012379164 4288231213
-0.01254084 -0.02768492 -0.013119244 4288296749
-0.011038389 -0.025200104 -0.015125371 4288165678
-0.0092826746 -0.024345679 -0.015864357 4288231214
-0.0078076608 -0.021861229 -0.017868795 4288558123
-0.0057879537 -0.022636954 -0.017341087 4288231214
-0.0039059371 -0.022597555 -0.017446248 4288819754
-0.0018783212 -0.023372937 -0.016918849 4288230703
-0.00014229119 -0.022518476 -0.017656334 4288492588
0.0014370084 -0.020849265 -0.019025601 4289081384
0.0033130422 -0.020809621 -0.019130154 4289604388
0.0050323159 -0.019955179 -0.01986653 4290193439
0.006586723 -0.018286247 -0.021234225 4290324509
0.0082921237 -0.017431971 -0.021969661 4290455324
0.010486215 -0.019021165 -0.020810477 4290455579
0.012858517 -0.021424489 -0.019020505 4290847768
0.015417174 -0.024641739 -0.016600251 4289669924
0.017824478 -0.027044101 -0.014812142 4289866018
-0.034986336 -0.032939181 -0.010423028 4286006083
-0.03287676 -0.03453698 -0.0092641115 4287445304
-0.030960657 -0.034498516 -0.0093723983 4287707188
-0.029044624 -0.034459949 -0.0094806012 4287772979
-0.027128685 -0.034421261 -0.00958871 4288034864
-0.025212828 -0.034382455 -0.0096967258 4287903794
-0.02329706 -0.034343544 -0.0098046567 4287903794
-0.021381389 -0.034304503 -0.0099124834 4287969328
-0.019584287 -0.033447713 -0.010652676 4288165678
-0.017792724 -0.032590959 -0.011392422 4288296749
-0.015882801 -0.032551713 -0.01149969 4288035119
-0.013972979 -0.032512374 -0.01160688 4288100654
-0.012192629 -0.031655531 -0.012345761 4288100654
-0.010681976 -0.029164001 -0.014347571 4287969583
-0.0090529583 -0.027490016 -0.015716854 4287969583
-0.0074349605 -0.025816109 -0.017085481 4288100399
-0.0056877285 -0.024959546 -0.017822206 4288231214
-0.0036601648 -0.025737217 -0.017296501 4288558379
-0.0017729476 -0.025697624 -0.017401889 4288689194
-3.426522e-05 -0.02484097 -0.018137936 4288623658
0.0013966411 -0.022350442 -0.020134725 4288558379
0.0031187311 -0.021493888 -0.020869736 4288492589
0.0048352554 -0.020637412 -0.021604333 4288427053
0.0065462142 -0.019780971 -0.022338558 4288819498
0.0082515627 -0.018924553 -0.023072403 4289081129
0.010280743 -0.019701475 -0.022546254 4289539363
0.01281748 -0.02292799 -0.020131301 4289342759
0.015375786 -0.026153976 -0.017717494 4289408038
0.017782822 -0.028562894 -0.015934221 4288295728
-0.025472529 -0.034273669 -0.012090685 4287641908
-0.023336399 -0.035874724 -0.010936076 4287576374
-0.021536566 -0.035015814 -0.011674891 4287707443
-0.01962385 -0.034976732 -0.011782479 4288100399
-0.017832365 -0.034117844 -0.012520641 4288231469
-0.015922572 -0.034078617 -0.01262791 4288165934
-0.014012892 -0.034039281 -0.012735091 4287969583
-0.012232617 -0.033180282 -0.013472373 4287969583
-0.010589898 -0.031501789 -0.014839292 4287969328
-0.0088234469 -0.030642848 -0.015575703 4288034864
-0.0072000176 -0.02896454 -0.016941382 4288231214
-0.0051670671 -0.029744372 -0.016417664 4288100399
-0.0034145713 -0.028885458 -0.017153021 4288754474
-0.001667656 -0.028026551 -0.017887987 4289016103
-7.4647367e-05 -0.02634847 -0.019251741 4288623403
0.0018094555 -0.026308767 -0.019356824 4288231213
0.0035396516 -0.025449939 -0.020090656 4288492589
0.0051078051 -0.023772137 -0.021452766 4288492588
0.0065057278 -0.021275504 -0.023442749 4288623403
0.0083729699 -0.021235835 -0.023546655 4288623403
0.010240078 -0.021196071 -0.023650479 4288492334
0.012609102 -0.02361257 -0.021870036 4288753963
0.015334427 -0.027666034 -0.018834606 4288884779
0.017568395 -0.029262884 -0.017683934 4287248954
-0.022154149 -0.032434531 -0.015951304 4286922298
-0.020255171 -0.032395769 -0.016058147 4288099889
-0.018114135 -0.034000747 -0.014906792 4287904304
-0.016086131 -0.034783509 -0.014384891 4287904048
-0.014052782 -0.035566039 -0.013863198 4288230958
-0.012272578 -0.034704901 -0.014598886 4287969583
-0.010365967 -0.034665443 -0.014705759 4287904303
-0.0087288059 -0.032982636 -0.016069088 4288034864
-0.0069652833 -0.032121476 -0.016803645 4288100399
-0.0052073002 -0.03126036 -0.017537765 4288165679
-0.0034548715 -0.030399304 -0.018271532 4288688939
-0.0017080158 -0.029538231 -0.019004889 4288361774
0.00018155575 -0.029498558 -0.019110385 4288230959
0.0019199774 -0.028637443 -0.019843183 4288296238
0.0036528483 -0.027776418 -0.020575579 4288034609
0.0052237287 -0.026094228 -0.021934636 4288296493
0.0071018785 -0.026054436 -0.022039227 4288231214
0.0088180229 -0.025193501 -0.022770494 4287904303
0.010528587 -0.024332553 -0.02350143 4288035119
0.012735464 -0.025934536 -0.022352558 4288296239
0.015123092 -0.028357077 -0.02057799 4287903283
-0.016744502 -0.032187693 -0.018647626 4286333504
-0.014724944 -0.032972712 -0.018126791 4287968564
-0.012441687 -0.035405397 -0.016352214 4287903284
-0.010669827 -0.034542166 -0.017085755 4287969073
-0.0087688901 -0.034502745 -0.017192248 4287903793
-0.0071427561 -0.032815676 -0.018551711 4288362029
-0.0052475035 -0.032776181 -0.018657746 4288623658
-0.0036379099 -0.031089332 -0.020016111 4288623404
-0.0018938407 -0.030226121 -0.02074776 4288099888
-7.1153045e-06 -0.030186525 -0.02085311 4288230448
0.0021813586 -0.031793803 -0.019706845 4288099634
0.0039196163 -0.030930521 -0.020437956 4287969329
0.0058086589 -0.030890571 -0.020543208 4287904048
0.0073793977 -0.029203964 -0.021899056 4288100399
0.0092627481 -0.029164001 -0.022003893 4288231469
0.010652393 -0.026654435 -0.023983631 4288035119
0.012861766 -0.028260719 -0.022838198 4287968819
0.015081882 -0.029866679 -0.021693289 4287052858
-0.011105273 -0.033583954 -0.020084463 4286791483
-0.0092126206 -0.033544738 -0.020190515 4287642164
-0.0073200837 -0.033505417 -0.020296484 4288492589
-0.005567655 -0.032640144 -0.021027127 4288623403
-0.0036780834 -0.03260066 -0.021132767 4288361774
-0.0017886236 -0.032561123 -0.021238353 4288034609
0.00039701164 -0.03417287 -0.020095274 4288034354
0.0024425387 -0.034958668 -0.019576872 4287641909
0.0040325895 -0.033267554 -0.020930681 4288034608
0.0059242472 -0.033227604 -0.021036122 4288100399
0.007497713 -0.031536598 -0.022388905 4288034864
0.0092219189 -0.030671189 -0.023117431 4288035119
0.010940574 -0.029805847 -0.023845613 4287969583
0.012987994 -0.030591082 -0.02332693 4288034354
0.014870822 -0.030550938 -0.023431595 4286137154
-0.0041462108 -0.031627908 -0.024118364 4287772468
-0.0022650212 -0.031588562 -0.024223506 4287576119
-8.7752938e-05 -0.033204854 -0.023083191 4287837493
0.0021002516 -0.034820881 -0.021943375 4287641399
0.0039919466 -0.034781061 -0.022048917 4287772469
0.0057272613 -0.033913452 -0.022776607 4287838003
0.0072980076 -0.032218177 -0.024126034 4288034608
0.0091811568 -0.03217829 -0.024230912 4287904304
0.010735355 -0.030483253 -0.025579263 4287838258
0.012779899 -0.031270783 -0.025062069 4287772214
-0.0004241094 -0.033053719 -0.025440235 4286137154
0.0017582402 -0.034674201 -0.024303392 4287183419
0.0036443919 -0.034634523 -0.024408638 4287771959
0.0053742081 -0.033764884 -0.025134437 4287903283
0.0069395602 -0.032065473 -0.026480339 4287707188
0.0088171735 -0.03202574 -0.026584934 4287903794
0.010530308 -0.031156203 -0.027309615 4287772724
0.012404926 -0.031116368 -0.027413927 4287445049
0.0086150467 -0.032696273 -0.028313711 4287575863
0.010161124 -0.030992756 -0.02965527 4287379513
0.011863224 -0.030121272 -0.030377723 4286006084
-0.0066544898 -0.0024177376 0.0014378158 4282220864
-0.0049034357 -0.0015957374 0.00067514321 4282156094
-0.0031579658 -0.00077382661 -8.7128021e-05 4283005754
-0.0012714937 -0.00073412992 -0.00019238424 4283659318
-0.0068331435 -0.003148295 -0.00033717183 4281765689
-0.0050848648 -0.0023242496 -0.0010980596 4281505079
-0.0034860075 -0.00071575679 -0.0025137032 4281830204
-0.0016051084 -0.00067617744 -0.0026186483 4281895738
0.00012634695 0.00014783628 -0.0033783584 4282808129
0.0021561906 -0.00059672445 -0.0028282891 4283525953
-0.0067350157 -0.0054478236 -0.00080098398 4281634618
-0.0051251352 -0.0038348157 -0.0022141407 4281438778
-0.0032387599 -0.0037952121 -0.0023194631 4281440054
-0.001352556 -0.0037555192 -0.0024247044 4281439033
0.0003842786 -0.0029292125 -0.0031830985 4281372733
0.001963608 -0.0013164803 -0.0045942059 4281698623
0.0038411692 -0.0012766626 -0.0046987394 4282155583
0.0058759153 -0.0020230841 -0.0041503967 4282481983
0.0077558458 -0.0019830167 -0.0042549153 4283003968
0.0096356124 -0.0019428842 -0.0043593687 4283135548
-0.0067752711 -0.006962521 -0.0019201268 4281830203
-0.0048834309 -0.0069229119 -0.0020258334 4281569594
-0.0031354576 -0.0060943589 -0.0027834328 4281373499
-0.0012466535 -0.0060546044 -0.0028888152 4281438268
0.00034370273 -0.0044373758 -0.0042973794 4281439034
0.0020748824 -0.0036089234 -0.0050537824 4281503549
0.0038004518 -0.0027804691 -0.005809783 4281568828
0.0056777149 -0.002740562 -0.0059142262 4281895229
0.0075548217 -0.0027005728 -0.0060185995 4281764159
0.0092689842 -0.001872059 -0.0067738169 4281829184
0.011143014 -0.0018319376 -0.0068778712 4282350403
0.01284866 -0.0010034535 -0.0076324278 4282937923
-0.0077590011 -0.014054583 0.0016222242 4284377144
-0.0065391138 -0.010059156 -0.0017378209 4281831223
-0.0049238056 -0.0084373839 -0.0031448014 4281962549
-0.0031759068 -0.0076066274 -0.0039007645 4281439544
-0.0012872294 -0.0075668748 -0.004006139 4281374264
0.00030311942 -0.0059452988 -0.0054114829 4281634618
0.0020342395 -0.0051146802 -0.0061662756 4281438268
0.0037597492 -0.0042840485 -0.0069206585 4281634108
0.0056368932 -0.0042441413 -0.0070250952 4281634873
0.0075138807 -0.0042041559 -0.0071294615 4281439034
0.0095533803 -0.0049546547 -0.0065844809 4281438523
0.011432745 -0.0049144439 -0.00668885 4281568318
0.013143793 -0.0040836781 -0.0074421009 4281830204
0.014849208 -0.0032528993 -0.0081950156 4281633088
0.01672259 -0.0032125264 -0.0082988385 4281959489
0.018948369 -0.0047527272 -0.0071055493 4282024768
0.021900855 -0.0094534792 -0.0033193114 4282612798
-0.0076640919 -0.016377373 0.0011413386 4284116278
-0.0063031763 -0.013164334 -0.0015617535 4282484534
-0.0046824515 -0.011538016 -0.0029658277 4281962293
-0.0030727461 -0.0099118818 -0.0043691769 4281961529
-0.0011814758 -0.0098720808 -0.0044747 4281569849
0.00026254356 -0.0074530076 -0.0065254271 4281505334
0.001993604 -0.0066201985 -0.0072785933 4281766198
0.0035645738 -0.0049944371 -0.0086795287 4281635128
0.0054388791 -0.004954597 -0.0087838126 4281569594
0.0073130354 -0.0049146656 -0.0088880155 4281308728
0.0095122904 -0.0064602178 -0.0076967981 4281308728
0.011391535 -0.0064200088 -0.0078011611 4281374009
0.013270609 -0.0063796956 -0.0079054339 4281439289
0.014807917 -0.0047541298 -0.0093041109 4281438523
0.016854711 -0.0055063367 -0.0087608388 4281568319
0.01890675 -0.0062583219 -0.0082178544 4281829438
0.02221667 -0.012557014 -0.0031477285 4282024769
-0.0062055513 -0.015482472 -0.0020393883 4283660338
-0.0047229305 -0.013056381 -0.0040876726 4283268659
-0.002826184 -0.013016559 -0.0041935719 4282288183
-0.00092958659 -0.012976634 -0.0042993827 4281897014
0.00081788749 -0.012141419 -0.0050519379 4281570104
0.0024080575 -0.010510984 -0.0064507816 4281700663
0.0041416064 -0.0096758641 -0.0072024139 4281766454
0.0057124272 -0.0080457237 -0.0086000189 4281375029
0.0075918958 -0.0080056768 -0.0087045198 4280983604
0.0094712079 -0.0079655647 -0.0088089574 4281309749
0.01118505 -0.0071304701 -0.0095592011 4281113654
0.012893274 -0.0062953737 -0.010309119 4281243959
0.014766619 -0.0062551089 -0.010413019 4281504314
0.016813271 -0.0070095211 -0.0098713711 4281568828
0.019217476 -0.0093529839 -0.0080394093 4281699389
0.02271115 -0.016463591 -0.0023373268 4281894719
0.0013727546 -0.016847048 -0.0035911698 4283856943
0.0028221831 -0.014414698 -0.0056324485 4282875449
0.0044094846 -0.012779946 -0.0070278146 4282222649
0.0061428025 -0.011942508 -0.0077777877 4281962804
0.0078705177 -0.011105126 -0.0085273292 4281570359
0.0094301328 -0.0094706714 -0.0099209379 4281505334
0.010978684 -0.00783634 -0.011313925 4280918834
0.012684152 -0.0069991909 -0.012062049 4281178424
0.014554687 -0.0069590136 -0.012165815 4281243959
0.016771831 -0.0085125379 -0.01098178 4281047354
0.019527987 -0.012456224 -0.0078672301 4281568574
0.0228476 -0.018789522 -0.0028235062 4282024514
0.0049857125 -0.017491447 -0.0055729211 4284183598
0.0067298636 -0.016651588 -0.0063218735 4282942769
0.0083086789 -0.015012493 -0.007713418 4282419763
0.0095515475 -0.011774899 -0.010389967 4281571635
0.011268005 -0.010935431 -0.011137159 4281311279
0.01281096 -0.0092967628 -0.012526534 4281376048
0.014854722 -0.010055684 -0.011988021 4281309239
0.017077073 -0.011613447 -0.010807572 4281113654
0.020014301 -0.016366908 -0.0070592873 4281177914
0.022983983 -0.021119647 -0.0033127114 4281894718
0.01155708 -0.014042969 -0.010966707 4283921968
0.013273336 -0.013201241 -0.011712211 4282680884
0.015154533 -0.013160864 -0.011816588 4281961529
0.017382093 -0.014722864 -0.010639648 4281831479
0.020324305 -0.019489342 -0.0069012903 4281961529
0.023120254 -0.023453867 -0.0038050185 4282547009
0.015624627 -0.017078059 -0.011012236 4284250409
0.017860115 -0.018644255 -0.0098389713 4283137589
0.02081003 -0.023423582 -0.0061107548 4282612798
0.023077786 -0.024988977 -0.0049391254 4283132489
0.0045521855 0.048164021 0.014422604 4279711664
0.0060709044 0.049661804 0.012930599 4279383478
0.00098154694 0.045875017 0.014228404 4278925243
0.0055466369 0.050381448 0.0097615169 4279317944
0.0077032819 0.048956756 0.011045299 4279252154
0.0095365494 0.048995536 0.010943159 4278267089
0.011539355 0.048302893 0.011533619 4279251899
0.013547361 0.047610443 0.01212385 4278923969
-0.0010536611 0.04508866 0.012544685 4279907504
0.00017541647 0.048063409 0.0096744187 4278924734
0.010651022 0.050496321 0.0069892313 4278464458
0.012472861 0.050535057 0.0068878774 4278858689
0.014469586 0.04984029 0.0074771941 4278792898
0.016827241 0.047678646 0.0094472393 4278463949
0.018659271 0.047717821 0.0093454793 4278595018
0.020674348 0.04702368 0.0099339569 4278397648
-0.0015446618 0.045818146 0.0093805119 4279317688
-0.00032363832 0.048801508 0.0065172035 4278662593
0.0016553923 0.048103619 0.0071054734 4279252919
0.0031634942 0.049614262 0.0056238305 4278398669
0.0084556118 0.050465632 0.0046302099 4279056059
0.010102496 0.051240128 0.0038397815 4278662593
0.012088418 0.050542857 0.0044280905 4278924734
0.014079563 0.049845811 0.0050161239 4278989503
0.016431488 0.047677573 0.0069816113 4278528210
0.019900985 0.04849143 0.0060903095 4280039339
0.021724261 0.04853062 0.0059891865 4279974059
0.023924679 0.047098879 0.0072646253 4279252154
-0.0032702908 0.043568667 0.0090838978 4278989504
-0.0020353273 0.046561014 0.0062262379 4278859454
-0.00082235783 0.049552988 0.0033698846 4278465479
0.0011483282 0.048852745 0.0039570723 4278858433
0.0028069243 0.049629372 0.0031673927 4279777708
0.0046212599 0.049667682 0.0030662511 4278859964
0.0062712654 0.050444249 0.0022772159 4279056059
0.0080824569 0.050482664 0.0021763798 4278662593
0.0098934248 0.050521147 0.0020756144 4279056569
0.011704177 0.050559711 0.0019749198 4278662593
0.013514698 0.050598349 0.0018743034 4278859453
0.017315514 0.049938019 0.0023603458 4278458593
0.019311242 0.049239118 0.0029467475 4278327778
0.025520958 0.046406057 0.0053908937 4278530759
-0.003900297 0.04505704 0.0052452944 4279253174
-0.0026761219 0.04805794 0.0023947414 4278595784
0.0006415993 0.049615268 0.00081850588 4278789839
0.0042593554 0.049691644 0.00061683357 4279186619
0.0060679391 0.04972994 0.00051609427 4279121083
0.0077095181 0.050508637 -0.00027076155 4278794173
0.009684436 0.049806792 0.00031486526 4279253938
0.011664599 0.049105134 0.00090026297 4279057588
0.013475031 0.049143795 0.00079967268 4278728129
0.01546289 0.048442464 0.0013847593 4279121594
0.025480382 0.044938561 0.0043067336 4279318454
-0.004382208 0.045820225 0.0021055173 4278465224
-0.0030157045 0.048086885 -5.2578747e-05 4279120828
-0.0015126243 0.049610447 -0.0015242957 4279317944
0.0037363693 0.050467264 -0.0025108755 4278726598
0.0058646873 0.049020264 -0.0012415908 4279382968
0.0076702237 0.049058612 -0.0013420694 4278662338
0.0094755292 0.049097057 -0.0014424622 4278728638
0.011452816 0.048393179 -0.00085850805 4278729149
0.013085529 0.049174141 -0.0016430542 4278795448
0.015067793 0.048470538 -0.0010592528 4278795194
0.016514279 0.049993742 -0.0025271997 4279253173
0.018681884 0.048548188 -0.0012597218 4279316669
0.020302795 0.049329203 -0.0020433925 4278988739
0.022483528 0.047884073 -0.00077653117 4279317688
0.025822207 0.041987348 0.0045892922 4278925499
-0.0062387362 0.044323545 0.0011293679 4278858434
-0.0048637986 0.046596859 -0.0010243994 4278465734
-0.0015513673 0.048162755 -0.0025939124 4279580339
-0.00021515042 0.050435539 -0.0047453102 4280039594
0.0015799925 0.05047344 -0.0048453826 4279055294
0.0032137334 0.051256221 -0.0056286547 4278463438
0.0053336322 0.049804758 -0.0043621529 4279186108
0.0072975531 0.049098279 -0.0037791692 4278793409
0.0092667267 0.048391949 -0.0031963699 4278793664
0.011241116 0.047685858 -0.0026138464 4278532289
0.018641926 0.047096413 -0.0023322741 4278397903
0.0202628 0.047879647 -0.0031143019 4279120319
0.022443324 0.046430182 -0.0018506446 4278924478
-0.0064222589 0.043612476 -0.00063083554 4278925498
-0.0050499812 0.04589228 -0.0027795325 4278859453
0.0028525516 0.051311608 -0.0080549251 4278398924
0.0048028976 0.050602611 -0.0074728411 4278792898
0.006925106 0.049146879 -0.0062095877 4278923968
0.0088886619 0.048438307 -0.0056281257 4278267854
0.010857448 0.047729958 -0.0050468743 4279120064
0.020037107 0.047176782 -0.0048653409 4278727363
0.022591457 0.044230107 -0.0022444264 4278596549
-0.0061714202 0.040657412 -0.00034463312 4279976098
-0.0047936514 0.042943951 -0.0024888057 4278991289
-0.0035826191 0.04597963 -0.0053126556 4279252664
-0.0019347742 0.046766873 -0.0060936348 4278858944
0.0024915934 0.051375967 -0.010474497 4279055548
0.0044363439 0.050664667 -0.0098937098 4279186619
0.0065528676 0.049204532 -0.0086333901 4279055294
0.0086800978 0.04774465 -0.0073735714 4278726854
