# .PCD v0.7 - Point Cloud Data file format
VERSION 0.7
FIELDS x y z rgba
SIZE 4 4 4 4
TYPE F F F U
COUNT 1 1 1 1
WIDTH 969
HEIGHT 1
VIEWPOINT 0 0 0 1 0 0 0
POINTS 969
DATA ascii
-0.029869705 -0.020052465 0.036360577 4289147174
-0.027771674 -0.020778149 0.036915608 4289279773
-0.0064922087 -0.0049564261 0.022153404 4287445559
-0.0049622208 -0.0026172046 0.020035509 4287445558
-0.003729187 0.0012535155 0.016581418 4287380023
-0.037364878 -0.026426407 0.039661244 4285940548
-0.035716731 -0.023309248 0.036864772 4288230195
-0.034090482 -0.020192392 0.03406968 4290715933
-0.032293029 -0.018613834 0.032615021 4290324254
-0.030308016 -0.018573184 0.032499798 4290520859
-0.02832311 -0.018532416 0.032384671 4290259993
-0.02612884 -0.020029105 0.033607729 4290195733
-0.012076497 -0.02050712 0.033471011 4289085463
-0.0099579729 -0.021233493 0.034024112 4289803288
-0.0087389797 -0.01658152 0.029903522 4288755238
-0.0079487748 -0.0096254777 0.023782499 4288035118
-0.0066689476 -0.0057430696 0.020333666 4287772724
-0.0050042048 -0.0041655134 0.018887982 4287772979
-0.0037710071 -0.00028386526 0.015441997 4287772979
-0.0024223253 0.0028292779 0.012664484 4287380023
-0.039846167 -0.024219412 0.0352429 4289015593
-0.038023986 -0.02263632 0.033789724 4289015593
-0.036212783 -0.021053381 0.032337308 4289211944
-0.034506336 -0.018699266 0.030217549 4289081383
-0.032623343 -0.017887723 0.029434653 4289735714
-0.030646674 -0.017847221 0.029319933 4290455833
-0.028670091 -0.017806627 0.029205291 4289671198
-0.02648427 -0.019307883 0.030425647 4289998618
-0.024395037 -0.020037854 0.030978145 4290588944
-0.016694613 -0.018331144 0.029186172 4288496158
-0.014595088 -0.019060316 0.029738581 4290197519
-0.012242761 -0.021330375 0.031623371 4289869588
-0.010253653 -0.021288423 0.031508818 4289475359
-0.00903989 -0.016623523 0.027398294 4288885799
-0.0079909079 -0.011188775 0.022623841 4288231723
-0.0067109056 -0.0072954651 0.019183099 4287904304
-0.0050461888 -0.0057135317 0.017740667 4287904304
-0.0035326257 -0.0033614449 0.015633537 4287707188
-0.0021784008 -0.00023943745 0.012862204 4287641654
-0.00070057809 0.0021120403 0.010757308 4286921788
0.025236025 0.021239959 -0.0068813371 4287704129
0.027649045 0.018973637 -0.0049982164 4288163638
0.03046719 0.015169624 -0.001791358 4289277478
-0.040228762 -0.022723164 0.03139066 4288164149
-0.038329281 -0.02190947 0.030608149 4289277224
-0.036526307 -0.020322289 0.029159417 4290062369
-0.034734316 -0.018735249 0.027711457 4289539363
-0.032953314 -0.01714829 0.026264237 4289015848
-0.030885812 -0.017881243 0.026816113 4289539874
-0.028914843 -0.017840734 0.026701814 4290652183
-0.026525516 -0.020892769 0.029250884 4289606174
-0.024543837 -0.0208518 0.029136145 4289540893
-0.022672348 -0.020037632 0.028355965 4290130964
-0.018599503 -0.020728189 0.028792502 4289740559
-0.016618304 -0.020686738 0.028678158 4290261268
-0.014637236 -0.020645173 0.028563907 4290785294
-0.012532607 -0.021376256 0.029114453 4289344543
-0.010549087 -0.0213344 0.029000236 4291242253
-0.0093405731 -0.016656531 0.024899734 4290194459
-0.008164905 -0.011979215 0.020801157 4287447089
-0.0066182874 -0.009620144 0.018696867 4288101164
-0.0048135594 -0.0088062119 0.017921403 4287772979
-0.0032944977 -0.0064475071 0.01581886 4287772979
-0.0017919466 -0.0040890221 0.01371729 4287772468
-0.00030592829 -0.0017307717 0.011616755 4287511094
0.0010154024 0.0013994146 0.0088539841 4287183418
0.019318312 0.021187056 -0.0089832339 4287899458
0.021151066 0.021227691 -0.0090873111 4288948528
0.023169883 0.02049702 -0.0085301753 4289276969
0.025193945 0.019766498 -0.0079732351 4289865509
0.027223222 0.019036196 -0.0074165873 4290126883
0.029452167 0.017534882 -0.0061995089 4290454303
0.032283284 0.013720341 -0.0030014256 4290519329
-0.040183537 -0.025087871 0.030878073 4286790974
-0.038457841 -0.022720594 0.028766764 4288884779
-0.0368395 -0.019577887 0.02599146 4289866019
-0.035055734 -0.017986579 0.024547201 4290324509
-0.033282958 -0.016395438 0.023103694 4290586139
-0.031025626 -0.018681664 0.024983505 4290847768
-0.028853878 -0.020191997 0.026198072 4290128413
-0.026462201 -0.023252698 0.028740531 4289278244
-0.024585228 -0.022436401 0.027961602 4289278244
-0.02271384 -0.021620035 0.027183069 4290063899
-0.020848002 -0.020803705 0.026404982 4290521623
-0.018525895 -0.02308787 0.028281579 4290718228
-0.016778491 -0.021496218 0.026840238 4290390553
-0.014921211 -0.020679705 0.026062915 4290521114
-0.013193134 -0.019088276 0.0246229 4289474593
-0.011223387 -0.0190467 0.024509486 4289670178
-0.010028284 -0.014356012 0.020419419 4288234019
-0.0049929321 -0.0095834034 0.016108956 4287642419
-0.0031965971 -0.0087673981 0.015335727 4287576628
-0.0016912892 -0.0064022895 0.013238875 4287838514
-5.7049096e-05 -0.0048119612 0.011804912 4287838003
0.0012698323 -0.0016728882 0.0090482645 4287772979
0.0024238899 0.0022401623 0.0056314217 4287182908
0.017443791 0.019677565 -0.0099676587 4287835198
0.019457437 0.018944435 -0.0094119683 4288947508
0.021476321 0.01821148 -0.0088564586 4289603114
0.023314193 0.018252321 -0.0089607574 4289995303
0.025151849 0.018293254 -0.0090649724 4290061348
0.026797637 0.019107733 -0.0098283831 4289407783
0.028632157 0.019148748 -0.0099323075 4289211944
0.031057797 0.016869742 -0.0080594625 4289603878
0.034698464 0.0099514835 -0.0022349793 4290257699
-0.040053003 -0.028234582 0.031026212 4286529343
-0.038409993 -0.02508276 0.028255878 4287903793
-0.036970608 -0.020375675 0.024160175 4288950313
-0.03537681 -0.017224604 0.021392887 4289474084
-0.033419609 -0.017184637 0.021279195 4289997343
-0.03106628 -0.020255091 0.023817213 4289801249
-0.028894797 -0.021769758 0.025028579 4289604899
-0.026607994 -0.02406168 0.026901996 4289343269
-0.024948318 -0.021688268 0.024800004 4289474083
-0.023085184 -0.020869946 0.024023602 4289605154
-0.021227624 -0.020051612 0.023247613 4289343524
-0.018914014 -0.022342436 0.025119808 4289801248
-0.017056704 -0.021523854 0.024344021 4289932064
-0.015084092 -0.021482464 0.02423026 4289735713
-0.013482351 -0.019109549 0.022132147 4290782998
-0.011518199 -0.019068083 0.022019062 4288558123
-0.0053093731 -0.0095791528 0.01363924 4287643694
-0.0033786446 -0.0095378337 0.013528494 4287708719
-0.0017333776 -0.0079429634 0.012097027 4287577139
-9.9152327e-05 -0.0063482616 0.01066632 4287707443
0.0013759211 -0.0039770547 0.0085762162 4287707188
0.0026836917 -0.00082957186 0.0058272183 4287313979
0.003969498 0.0023175348 0.0030795475 4287116864
0.014868073 0.021272413 -0.013585955 4287313214
0.016868159 0.020536751 -0.013031157 4288882993
0.019234955 0.018249471 -0.011160149 4289602604
0.021250956 0.017514318 -0.010606138 4289733674
0.023272179 0.016779318 -0.01005232 4289734183
0.024920858 0.017595995 -0.010814311 4290257954
0.026563898 0.018412538 -0.01157591 4290388769
0.028201297 0.019229069 -0.012337109 4289146409
0.030621246 0.01694341 -0.010468794 4288819244
0.033456773 0.013107292 -0.0072870678 4289146409
0.03672421 0.0077210665 -0.0027928632 4289211434
-0.039922692 -0.031389661 0.031168072 4286464064
-0.038450349 -0.026668981 0.027080057 4286857273
-0.037010789 -0.021948816 0.02299406 4287511603
-0.035510477 -0.018009067 0.019571612 4289277478
-0.033459872 -0.01874906 0.020119568 4289539364
-0.031304922 -0.020268561 0.021328552 4289277989
-0.029139157 -0.021787757 0.022537047 4289343524
-0.027067024 -0.022526879 0.023084 4289604899
-0.025311049 -0.020926828 0.021648271 4290782488
-0.023236405 -0.021665685 0.022195309 4290782233
-0.021494281 -0.020065665 0.020760572 4290913304
-0.019301787 -0.021583695 0.021967975 4290193438
-0.017570805 -0.019983655 0.020534072 4289604643
-0.015488449 -0.020721823 0.021080984 4289866273
-0.013771348 -0.019121906 0.019648077 4290324763
-0.011939015 -0.018301323 0.018875608 4290455323
-0.0020606294 -0.007925598 0.0096378494 4287577393
-0.00028656423 -0.007105466 0.0088693146 4287576883
0.00133387 -0.0055065453 0.0074426783 4287576118
0.002943255 -0.0039078388 0.0060167657 4287706678
0.004234612 -0.00075186789 0.0032752752 4287772469
0.004723087 0.0062967017 -0.0027548848 4287118139
0.0095268413 0.018913958 -0.013699263 4287965248
0.011012524 0.02051064 -0.015117615 4288751924
0.012832157 0.020550698 -0.01522116 4289211944
0.014476359 0.021369033 -0.015981516 4289669669
0.016648792 0.019852944 -0.014771271 4289930534
0.018831924 0.018337127 -0.013561541 4289668904
0.021025725 0.016821694 -0.012352379 4288949294
0.023044065 0.016084496 -0.01180006 4289211179
0.024878837 0.016125359 -0.011904113 4289931044
0.026330292 0.017721929 -0.013320044 4290781724
0.027964957 0.018540569 -0.014079472 4290454814
0.029987931 0.017803747 -0.013527209 4289538853
0.032415532 0.015511815 -0.011664118 4289800739
0.03506162 0.012442809 -0.0091465488 4290192928
0.038344637 0.0070416816 -0.0046644872 4289145898
-0.039877899 -0.033770908 0.03064323 4286464064
-0.038402665 -0.029037107 0.026564753 4286726203
-0.037050966 -0.023521671 0.021828158 4287119158
-0.035457037 -0.020353168 0.019073816 4288754219
-0.033500146 -0.020313196 0.018960154 4289277478
-0.031345457 -0.021837058 0.020165918 4289605154
-0.02948495 -0.021014778 0.019392645 4289408804
-0.0275256 -0.020974386 0.019279113 4289343013
-0.025887679 -0.01858836 0.017188093 4290324509
-0.02371702 -0.020111457 0.018393328 4289997089
-0.021985836 -0.018507294 0.016962472 4290978329
-0.0198045 -0.020029908 0.018167285 4289997344
-0.017848421 -0.01998896 0.018054409 4290128159
-0.015530258 -0.022292495 0.019916823 4289931809
-0.013689715 -0.021469682 0.019145411 4289801248
-0.01172857 -0.021428276 0.019032501 4289082404
-0.0022451282 -0.0086803045 0.0078424867 4287708973
-0.00032860786 -0.0086390842 0.007732708 4287642418
0.0014397725 -0.0078167412 0.0069661597 4287641909
0.0030518696 -0.0062135924 0.0055433493 4287510839
0.004346095 -0.0030488707 0.0028081546 4287903794
0.0049938187 0.0032386165 -0.0025512327 4287446069
0.0096528754 0.01667168 -0.014126709 4289145643
0.011311002 0.017492369 -0.014886409 4289996578
0.012963519 0.01831295 -0.015645705 4289343013
0.014610417 0.019133504 -0.016404608 4290454559
0.016607441 0.018393435 -0.015852856 4290454303
0.018429115 0.018433794 -0.015956327 4290061348
0.020617269 0.016913816 -0.014750056 4289930533
0.022816077 0.015394211 -0.013544361 4289342249
0.024836801 0.014654975 -0.012993729 4289342249
0.026288293 0.0162559 -0.014406424 4290127648
0.027922936 0.017076716 -0.015164234 4290520093
0.029748842 0.017117597 -0.015267624 4290520093
0.03217344 0.014819127 -0.013409248 4290651164
0.03441181 0.013300765 -0.012205448 4289408038
0.036660813 0.011782758 -0.011002246 4289276969
0.039543822 0.0079261288 -0.0078392429 4289014829
-0.039833214 -0.036156297 0.030115398 4286398528
-0.038179122 -0.032978129 0.027363827 4286529599
-0.036637604 -0.02901594 0.02395511 4286923064
-0.035123423 -0.025054187 0.020548074 4288623659
-0.033348095 -0.023445494 0.01911735 4289015849
-0.031583752 -0.021836944 0.017687401 4289473828
-0.0298304 -0.020228475 0.016258119 4289408548
-0.02798371 -0.019404192 0.015487349 4289866529
-0.02624961 -0.017795894 0.014059426 4288819498
-0.024306964 -0.017755602 0.013947045 4288819498
-0.022364419 -0.017715167 0.013834778 4289473573
-0.020076297 -0.020026091 0.015693901 4289997344
-0.018007867 -0.02076903 0.016238289 4289670179
-0.015934087 -0.021511778 0.016782498 4289735714
-0.014101818 -0.020686891 0.016013158 4289081894
0.0015455857 -0.010131116 0.0064866161 4287641399
0.0031603798 -0.0085234996 0.0050668558 4287641399
0.0043040961 -0.0045669843 0.0016830685 4287707443
0.0054204017 -0.0006109681 -0.0016990826 4287577138
0.0061917454 0.0049103163 -0.0063888142 4287707443
0.0072478503 0.0088652335 -0.0097674457 4287968309
0.0082765669 0.012819618 -0.013144391 4289996578
0.0097787753 0.014425311 -0.01455726 4290258718
0.011269905 0.016030893 -0.015969474 4290258719
0.012922376 0.01685366 -0.01672714 4289015849
0.014744326 0.016893867 -0.016830742 4288950313
0.016566105 0.016934142 -0.016934281 4288557869
0.018387675 0.016974501 -0.017037744 4290389279
0.020392336 0.016232572 -0.016487934 4290192163
0.022588223 0.014708508 -0.015285266 4289538600
0.024606071 0.013967015 -0.014736099 4289734949
0.026246302 0.014790088 -0.015492646 4289081129
0.027880922 0.015613057 -0.016248854 4289146408
0.029706746 0.01565396 -0.016352221 4288099889
0.031731948 0.014912914 -0.015803266 4289015849
0.033762366 0.014172047 -0.015254553 4288557613
0.035798013 0.01343137 -0.014706086 4288557613
0.037631162 0.013472669 -0.014809698 4289015594
0.040726736 0.0088234656 -0.011003153 4289277224
-0.042374596 -0.03307943 0.025099786 4286463553
-0.040044237 -0.036185808 0.027612789 4286660158
-0.037955917 -0.036931876 0.028153392 4286398528
-0.03631546 -0.033745136 0.025409194 4287183928
-0.03469687 -0.030558785 0.022666382 4288623403
-0.033292368 -0.025799841 0.018611701 4287315253
-0.031723 -0.02261417 0.015871914 4289081128
-0.030073963 -0.020215154 0.013789805 4289669668
-0.028232817 -0.019388799 0.013020979 4290389533
-0.026611205 -0.016990051 0.010940606 4289539108
-0.02478661 -0.016163805 0.010172915 4289342758
-0.02285511 -0.016123608 0.010061277 4290389788
-0.020463031 -0.019227341 0.012571726 4290782489
-0.018285077 -0.020758562 0.013770318 4289670178
-0.016337574 -0.020717658 0.013658034 4289670434
-0.014390215 -0.020676661 0.013545828 4289278244
-0.012695108 -0.019063991 0.012124013 4287578923
0.0013555586 -0.01087886 0.0046967594 4287773999
0.0031182095 -0.01005225 0.0039338749 4287708208
0.004415378 -0.0068700556 0.0012114495 4287707953
0.0056906044 -0.0036882143 -0.0015096315 4287707443
0.0066264421 0.0010633674 -0.0055353758 4287707443
0.0076908842 0.0050293338 -0.0089063337 4287838004
0.0085637867 0.0097797252 -0.01292835 4288557614
0.0099045485 0.012174822 -0.014990863 4289342504
0.0112288 0.014569633 -0.017052379 4289931553
0.012708917 0.016179364 -0.018460624 4290062368
0.014353 0.017004207 -0.019216135 4288754219
0.016346991 0.016259726 -0.018667441 4288492333
0.01816576 0.016300015 -0.018770749 4288230448
0.02016753 0.015555844 -0.018222397 4289473064
0.022360481 0.014027365 -0.017022792 4289734694
0.02456411 0.012499228 -0.015823789 4289407783
0.026204318 0.013324451 -0.016578734 4289669669
0.027838908 0.014149621 -0.017333306 4289146409
0.02986145 0.013406273 -0.016785864 4289015594
0.031889208 0.012663122 -0.016238658 4289015594
0.03351777 0.013488341 -0.016992748 4289342503
0.03493572 0.015097611 -0.018396862 4289277223
0.036757946 0.015138648 -0.018499866 4289996834
0.039000712 0.013611872 -0.017302649 4290389279
0.042106502 0.0089499466 -0.01350638 4290193184
-0.040510468 -0.033839945 0.023150019 4286659903
-0.038084514 -0.037743468 0.026311664 4286594879
-0.036084339 -0.037702858 0.026195301 4287314744
-0.03445752 -0.034507565 0.023458457 4288361263
-0.033044666 -0.02973544 0.01941303 4286922299
-0.031862132 -0.023386789 0.014059916 4288034608
-0.030114301 -0.021769755 0.012637481 4289277224
-0.028481692 -0.019364381 0.010561226 4289408293
-0.026651636 -0.018535959 0.0097947475 4290389788
-0.024827119 -0.017707525 0.0090286899 4290389534
-0.022895768 -0.017667344 0.0089170532 4290913304
-0.020734303 -0.01920337 0.01011328 4290455323
-0.018679898 -0.019950947 0.010655247 4289539363
-0.016740717 -0.019910229 0.010543434 4289343269
-0.014924951 -0.019081378 0.0097783227 4289409059
-0.012988742 -0.019040504 0.0096668471 4288952609
0.0046797991 -0.0099646179 0.0013885335 4287838768
0.0059605837 -0.0067739598 -0.001326404 4288100399
0.0072194263 -0.0035836827 -0.0040400154 4287903794
0.0082949474 0.00039339811 -0.007403526 4287838004
0.0091789886 0.0051570833 -0.011416481 4288492333
0.01003021 0.009920191 -0.015427538 4288361264
0.011018164 0.013895623 -0.018785851 4288884779
0.012323298 0.01629658 -0.020841323 4290062113
0.014136896 0.016336605 -0.020944452 4290323999
0.016128004 0.015589878 -0.020397214 4290454814
0.018304802 0.014056578 -0.019200083 4290520093
0.02030915 0.013310291 -0.018653492 4290585629
0.022132874 0.013350837 -0.018756974 4289669925
0.024144992 0.012604825 -0.01821067 4289277223
0.025588438 0.014218681 -0.01961324 4289342504
0.027796902 0.012686402 -0.018417597 4289800484
0.02962257 0.012727272 -0.018520981 4289669669
0.031448036 0.012768216 -0.018624295 4289342504
0.033071123 0.013595548 -0.019376492 4289669669
0.034688599 0.014422745 -0.020128304 4289604389
0.036508039 0.014463726 -0.020231146 4289669925
0.038537562 0.013718683 -0.019685473 4289866018
0.040785365 0.012187697 -0.018491752 4289669668
0.0439068 0.0075131059 -0.014706041 4290257954
-0.036215704 -0.038509898 0.024357155 4287706934
-0.034405023 -0.036887549 0.022933988 4287641653
-0.032989267 -0.032102317 0.018898092 4286987834
-0.031704996 -0.026526919 0.014210995 4287053368
-0.030053206 -0.02411475 0.012138387 4287315253
-0.028417856 -0.021702791 0.010066824 4288819499
-0.02669204 -0.020081615 0.0086490773 4289343014
-0.024867631 -0.019251006 0.0078846412 4289343014
-0.022936426 -0.019210815 0.0077730231 4289670434
-0.020775221 -0.020751214 0.0089660203 4289604899
-0.0188388 -0.020710671 0.0088542812 4289735458
-0.01702299 -0.019879751 0.0080907056 4289343270
-0.015335992 -0.018258635 0.0066756858 4289473573
-0.013282139 -0.0190081 0.0072163641 4289016358
-0.01135166 -0.018967219 0.0071053123 4290260249
0.0046376139 -0.011488548 0.00025913585 4288167463
0.0060744211 -0.0090786554 -0.0017994153 4288231469
0.0076533332 -0.0074585062 -0.0032071609 4287904048
0.0088985413 -0.0042597484 -0.0059134718 4287838258
0.0097937137 0.00051724166 -0.009917357 4288361519
0.010489307 0.0060829036 -0.014568633 4288295984
0.011316121 0.010858584 -0.018568479 4288622893
0.012282357 0.014844473 -0.021917436 4289146409
0.01409585 0.014884494 -0.02202056 4289408038
0.016086802 0.014135592 -0.021474931 4289996834
0.018263377 0.012597919 -0.020281032 4290454814
0.020084493 0.012638338 -0.020384416 4289538853
0.021905392 0.012678836 -0.020487724 4289146408
0.023537621 0.013508134 -0.021239053 4289604133
0.025164187 0.014337424 -0.021989979 4289604134
0.02717305 0.013589334 -0.021445056 4289473319
0.029383823 0.012052868 -0.020252768 4289538598
0.031206481 0.012093734 -0.020355932 4289473319
0.032624766 0.013711587 -0.021753618 4289604133
0.034236789 0.01454084 -0.022503501 4290389279
0.036050722 0.014581695 -0.022606036 4289996834
0.037864462 0.014622603 -0.022708513 4289015594
0.039890967 0.013875335 -0.022164276 4289015338
0.04213836 0.012340095 -0.020973757 4289211434
0.045706779 0.0060764924 -0.015905514 4289865763
-0.036527924 -0.037726168 0.021218281 4287772214
-0.034632254 -0.036892675 0.020450767 4287052604
-0.032933973 -0.034473274 0.018380128 4286922043
-0.031548087 -0.029675454 0.014355771 4287118904
-0.029890835 -0.027256656 0.012287686 4287118903
-0.028354116 -0.024045341 0.009569427 4288100143
-0.02673246 -0.021626998 0.0075036101 4289604644
-0.025017694 -0.020001527 0.0060897917 4289800738
-0.022977084 -0.020754024 0.0066291876 4289800738
-0.020816147 -0.02229877 0.0078189736 4289800993
-0.018997587 -0.021465763 0.0070567476 4289670179
-0.017184585 -0.020632755 0.0062949294 4290585884
-0.015500333 -0.01900734 0.004883307 4290716954
-0.013575308 -0.018966684 0.0047724871 4291044374
-0.011650417 -0.018925922 0.0046617547 4290194204
0.0061881393 -0.01138748 -0.0022754879 4288035118
0.0077697784 -0.0097629111 -0.0036801491 4288034864
0.0090178326 -0.0065553896 -0.0063801543 4287772723
0.010079958 -0.0025567524 -0.0097266622 4288034353
0.010948025 0.0022327714 -0.013719245 4287969074
0.011783265 0.0070217177 -0.017709929 4288688684
0.012585707 0.01180999 -0.021698635 4288819244
0.014229678 0.012641378 -0.022449274 4289342504
0.01586803 0.013472684 -0.02319956 4289538599
0.018041663 0.011930615 -0.022008713 4289473063
0.019859955 0.011970967 -0.022111941 4289473319
0.021492325 0.012802377 -0.022861714 4289342504
0.023119085 0.013633735 -0.023611113 4289080874
0.024549022 0.015255988 -0.025006454 4290127649
0.026355699 0.015296366 -0.025108812 4289931299
0.028555408 0.013755221 -0.023919115 4289407783
0.030566454 0.013005152 -0.023375822 4289015338
0.032178663 0.01383654 -0.024124136 4289342504
0.033785239 0.014667876 -0.024872145 4289996578
0.035386205 0.015499122 -0.025619742 4290716188
0.036981553 0.016330276 -0.026366992 4290192928
0.038997062 0.01558058 -0.025823748 4289473318
0.041017815 0.014831059 -0.025280762 4289342759
0.043698773 0.011710849 -0.022803724 4289604389
0.047064386 0.0062204991 -0.018394019 4289276968
-0.03495241 -0.036093622 0.017323865 4286594623
-0.033070542 -0.035258114 0.016558859 4286790974
-0.03139139 -0.032832481 0.014494324 4286856763
-0.029728677 -0.030407038 0.01243078 4286857019
-0.028082393 -0.027981792 0.010368291 4286988088
-0.026666082 -0.023967031 0.0070078149 4288230958
-0.025167622 -0.020747513 0.0042983796 4289538853
-0.023129955 -0.021502197 0.0048362901 4289931299
-0.020971987 -0.023051402 0.0060230549 4289931299
-0.019273918 -0.02142158 0.0046136938 4289473574
-0.017586835 -0.01979191 0.0032050982 4289408293
-0.015787665 -0.0189569 0.0024457825 4289735714
-0.013742387 -0.01971085 0.0029836819 4290455579
-0.011948921 -0.018875722 0.00222487 4290848534
-0.010029733 -0.018834975 0.0021145446 4289671964
-0.0082446858 -0.017999806 0.0013563787 4289345819
0.0077276379 -0.011277691 -0.0048027476 4288363049
0.0092982277 -0.0096488874 -0.0062035257 4288297003
0.010529935 -0.0064329877 -0.0088960323 4288100399
0.011406384 -0.0016301759 -0.012879432 4288230959
0.012419425 0.0023784414 -0.016214926 4288100144
0.01306092 0.0079734623 -0.020840351 4288623148
0.014363393 0.010394078 -0.022881087 4288622894
0.015826903 0.01202099 -0.024275351 4289341993
0.017639853 0.012061145 -0.024378335 4289603623
0.019452617 0.012101367 -0.024481256 4289538854
0.021265194 0.012141645 -0.024584118 4289734948
0.022512406 0.014561415 -0.026621437 4289342759
0.024316452 0.014601655 -0.026723703 4290520093
0.025732696 0.016227953 -0.028114963 4290585629
0.027924038 0.014682315 -0.026928069 4290585629
0.029926792 0.013929859 -0.026385942 4289669669
0.031934805 0.013177589 -0.025844064 4289342504
0.033333972 0.014803737 -0.027234182 4289408039
0.034722105 0.016429726 -0.028623609 4289996578
0.03630928 0.017262902 -0.029368835 4290650909
0.038529366 0.015718233 -0.028183253 4290454814
0.040544562 0.014966402 -0.027641576 4290258464
0.043219782 0.011837326 -0.025170697 4289146408
0.045916542 0.0087087899 -0.022701008 4288622384
0.050871715 -0.0023425221 -0.013804026 4288491569
-0.033206984 -0.036038339 0.014741013 4286790719
-0.031432007 -0.034403481 0.013329836 4286725693
-0.029668007 -0.032768667 0.011919353 4286725948
-0.027914997 -0.031133996 0.010509646 4286922299
-0.026493113 -0.027108232 0.0071569402 4287118903
-0.024989117 -0.023879906 0.0044536423 4288426798
-0.023282688 -0.022245808 0.0030468469 4289342759
-0.021472376 -0.021408726 0.002288254 4289996834
-0.01978521 -0.019774819 0.00088280067 4290193183
-0.01798873 -0.018937778 0.00012511527 4288819499
-0.016074762 -0.01889747 1.484761e-05 4288688684
-0.013909355 -0.020450406 0.0011982941 4289474083
-0.012247179 -0.018816544 -0.00020543532 4289867294
-0.010464799 -0.017979372 -0.00096191512 4289998618
-0.00855406 -0.01793867 -0.0010716547 4289542168
0.0094172508 -0.011955038 -0.0066779237 4288166953
0.010815658 -0.0095261531 -0.0087195486 4288165678
0.012030996 -0.0063017551 -0.011404615 4288231214
0.013055094 -0.0022820495 -0.014732681 4288165679
0.013879828 0.0025327969 -0.018703273 4288492589
0.014846489 0.0065514073 -0.022027943 4288361264
0.015608326 0.011365063 -0.025994882 4289015084
0.017238274 0.012200624 -0.026741395 4289407529
0.019045524 0.012240704 -0.026844015 4289604133
0.021223813 0.010690112 -0.02565977 4289866020
0.022471115 0.013116408 -0.027692251 4289408038
0.024084046 0.013951853 -0.0284376 4290062369
0.025497593 0.015582483 -0.029825514 4290062369
0.02748955 0.014827497 -0.029284403 4290585629
0.029486731 0.014072746 -0.02874358 4290389279
0.031691089 0.012523148 -0.027560577 4289342503
0.033292226 0.013358664 -0.028305011 4289342504
0.034265712 0.016578756 -0.030975562 4289538854
0.036267586 0.015824322 -0.030434841 4289342249
0.038487479 0.014275279 -0.029252494 4289407783
0.040933535 0.011931859 -0.027429087 4289276714
0.043395691 0.0095888302 -0.025606494 4288884268
0.046536662 0.0048625041 -0.021860665 4288622383
0.051051795 -0.0046301167 -0.014269181 4288164404
-0.031571101 -0.035174783 0.011518741 4286725183
-0.029607449 -0.035134416 0.011404876 4286725438
-0.027851753 -0.033495352 0.0099982359 4286856253
-0.026320357 -0.030257868 0.0072997361 4287118139
-0.024920221 -0.026221579 0.0039564436 4287314489
-0.023547415 -0.022185702 0.00061484845 4288688173
-0.021857459 -0.020547483 -0.00078767864 4289604389
-0.020296056 -0.018110406 -0.0028350821 4290455069
-0.018390264 -0.018070387 -0.0029449661 4290716699
-0.0164846 -0.018030273 -0.0030547718 4290390043
-0.014201913 -0.020386524 -0.0012289332 4290782744
-0.012416761 -0.019547239 -0.0019840472 4291175953
-0.010637175 -0.018707968 -0.0027387622 4290652949
-0.0089970492 -0.017070036 -0.0041377773 4290064154
-0.0069581345 -0.017828021 -0.0036024104 4290457108
0.011101149 -0.012627806 -0.008549354 4288689704
0.012322068 -0.0093946727 -0.011228265 4288362029
0.013521068 -0.0061618723 -0.01390589 4288231214
0.014526173 -0.0021316353 -0.01722474 4288296238
0.015503913 0.0018980913 -0.020541962 4288296494
0.015922099 0.008320462 -0.025784291 4288557869
0.017377332 0.0099559948 -0.027171617 4288622893
0.018638693 0.012388919 -0.029200131 4289211688
0.020625778 0.011631407 -0.028660612 4289408038
0.022053324 0.0132665 -0.030046163 4289865764
0.023660779 0.014104061 -0.030789612 4288230448
0.025262654 0.01494148 -0.031532682 4288165169
0.027055323 0.014981586 -0.031634219 4288950058
0.029046945 0.014224499 -0.031094717 4289865763
0.031245671 0.012670416 -0.029914565 4289407784
0.032841377 0.013507944 -0.030657103 4289342504
0.034431458 0.014345456 -0.031399317 4289211178
0.036435924 0.013588872 -0.030860312 4288884013
0.039083749 0.010441702 -0.028400958 4288884269
0.041753121 0.0072950274 -0.025942732 4288818478
0.044662155 0.0033521038 -0.022845766 4288491568
0.047819011 -0.0013869796 -0.019110501 4287641143
-0.031906929 -0.034338374 0.0084208194 4286921024
-0.029850457 -0.035099693 0.008952423 4286659648
-0.027892489 -0.035059325 0.008838973 4287052604
-0.026254419 -0.032614551 0.0067915991 4287183418
-0.024851426 -0.028567309 0.0034562387 4286987578
-0.023475755 -0.024520539 0.00012252945 4287641909
-0.021897878 -0.022076668 -0.0019211085 4288688684
-0.02021895 -0.020434262 -0.0033196416 4289538853
-0.018551003 -0.018791962 -0.0047174483 4289735203
-0.016771149 -0.017950784 -0.0054708403 4290651929
-0.014745522 -0.018711742 -0.0049366355 4290586393
-0.012714587 -0.019472394 -0.0044026668 4289932829
-0.010678329 -0.020232847 -0.0038689398 4290129179
-0.0090382136 -0.018590586 -0.0052647362 4290325783
-0.0072725862 -0.017749157 -0.0060169008 4290194969
-0.0053732619 -0.017708521 -0.0061258534 4289346329
0.011222705 -0.014937842 -0.0090268254 4287578669
0.012779385 -0.013296151 -0.010417007 4288362539
0.014155857 -0.01085458 -0.012447525 4287838513
0.015172035 -0.0068132337 -0.015758926 4288034864
0.015986241 -0.0019724313 -0.019709533 4288231214
0.016412966 0.0044675265 -0.024939422 4288492589
0.017336227 0.0085070543 -0.028245365 4288623149
0.01841493 0.011746239 -0.030909359 4288884524
0.020028152 0.012585938 -0.031651646 4289277223
0.021635778 0.01342554 -0.032393519 4290650653
0.023428708 0.013465505 -0.032495175 4289996579
0.025221497 0.013505507 -0.032596793 4289473574
0.027014084 0.013545599 -0.032698333 4288950058
0.02900555 0.012786333 -0.032160439 4289865763
0.031204112 0.011227854 -0.030983539 4289211689
0.033004291 0.011268262 -0.0310854 4289146153
0.035011522 0.010509528 -0.030548265 4289145644
0.037233941 0.0089517795 -0.029372646 4288426033
0.039892323 0.0057961009 -0.026920311 4288884014
0.042572252 0.0026409421 -0.024469171 4287772214
0.045273684 -0.00051365793 -0.022019189 4287379513
0.048659034 -0.0060645491 -0.01765592 4286987068
-0.030093227 -0.035055991 0.0065065511 4286790209
-0.027933225 -0.036623038 0.0076799048 4286987068
-0.026295125 -0.034171768 0.0056373579 4286987068
-0.024782728 -0.03091719 0.0029529538 4286856508
-0.023292214 -0.027662955 0.00026990008 4287183928
-0.021823578 -0.024409084 -0.0024117492 4287969328
-0.020259392 -0.021958878 -0.0044496744 4289277223
-0.018711638 -0.019508895 -0.0064865621 4289670434
-0.016934574 -0.018665677 -0.0072381594 4289409059
-0.014911875 -0.019428797 -0.006705422 4289801248
-0.012755524 -0.020994866 -0.0055310703 4289736224
-0.0108505 -0.020954454 -0.0056406069 4289605409
-0.0093468986 -0.018504851 -0.0076745423 4289801504
-0.0077232644 -0.016858485 -0.0090660807 4290193949
-0.00583224 -0.016818022 -0.0091745537 4290063643
-0.0035155639 -0.019185957 -0.0073598884 4289802778
0.014282815 -0.01315773 -0.012920348 4288362284
0.015301913 -0.0091054756 -0.016223859 4288427053
0.016293667 -0.005053727 -0.019525742 4288296238
0.016903505 0.00060166232 -0.024104057 4288296495
0.017835125 0.0046522394 -0.027402405 4288296238
0.018556699 0.0095042102 -0.03133785 4288361264
0.019616358 0.012751766 -0.033994302 4288884523
0.021030374 0.014395278 -0.035372682 4290061858
0.02300594 0.013633251 -0.034835599 4290585374
0.024986781 0.012871433 -0.03429883 4290716188
0.027169168 0.011308145 -0.033124395 4290716188
0.029163249 0.010546692 -0.032588243 4290258209
0.031364284 0.0089839436 -0.031414777 4289341993
0.033575997 0.0074215122 -0.030241849 4288884014
0.03621272 0.0042564999 -0.027794864 4288556849
0.038451232 0.0026947223 -0.026623344 4287575864
0.041125596 -0.00046932511 -0.024178401 4287052348
0.043390892 -0.0020303708 -0.023008373 4286660159
0.046102889 -0.0051934849 -0.020565491 4286594623
0.049498573 -0.01075931 -0.016214151 4286528833
-0.028181463 -0.036574889 0.0052377423 4286986303
-0.026335817 -0.03572876 0.0044832835 4286725183
-0.024604931 -0.034076933 0.0030879444 4286791229
-0.022996951 -0.031619523 0.0010521645 4286987578
-0.02163472 -0.02755117 -0.002264522 4287249974
-0.020299811 -0.023483289 -0.0055795573 4287707954
-0.018872127 -0.020221315 -0.0082522575 4289604899
-0.017097864 -0.019375985 -0.009002082 4289932320
-0.015203632 -0.019335998 -0.0091111446 4289866784
-0.012924705 -0.021711845 -0.0072995177 4289867039
-0.011022538 -0.021671489 -0.0074088862 4289801249
-0.0095216297 -0.01921542 -0.0094378181 4290324763
-0.0079007223 -0.017564738 -0.010826027 4290913813
-0.0060125478 -0.017524343 -0.010934342 4290979348
-0.0038407668 -0.019093927 -0.0097637326 4290456344
-0.0019474253 -0.019053217 -0.0098721916 4289346584
0.014409661 -0.015465043 -0.013396258 4288100398
0.015431695 -0.011401858 -0.01669186 4288165168
0.016426362 -0.0073391926 -0.019985843 4288165168
0.017570913 -0.0040812865 -0.022640826 4288034353
0.018513612 -1.9630417e-05 -0.025931753 4287969074
0.019063681 0.0056497864 -0.030495262 4288295984
0.019760899 0.010514334 -0.034419581 4288491823
0.020989619 0.012966227 -0.036431678 4288949803
0.022774234 0.013005946 -0.036532901 4289342504
0.024945736 0.01143796 -0.035361085 4289538854
0.02732417 0.0090664513 -0.033553526 4289734948
0.02971869 0.0066954009 -0.031746879 4289407783
0.031927697 0.005128419 -0.030577067 4289080363
0.034351721 0.0027581695 -0.028771985 4288426289
0.03699901 -0.00041531958 -0.026332073 4287575863
0.039248198 -0.0019812454 -0.025164416 4286856509
0.041508056 -0.0035468321 -0.023997366 4286660159
0.043993831 -0.0059155468 -0.022195593 4286463808
0.046713665 -0.0090872031 -0.019759636 4286463808
-0.026589364 -0.035669692 0.0020496948 4286790463
-0.024536498 -0.036437239 0.0025769332 4286922044
-0.022813898 -0.034781124 0.0011853883 4286987578
-0.021331482 -0.031509545 -0.0014841841 4287119159
-0.020222906 -0.025815176 -0.00607007 4287119414
-0.018792413 -0.022544462 -0.0087364819 4287708208
-0.017261036 -0.020081734 -0.010762624 4289604899
-0.015244164 -0.020849371 -0.010232816 4289997088
-0.013093773 -0.022424217 -0.0090646241 4290128158
-0.011325389 -0.021576501 -0.0098122433 4289670178
-0.0098298639 -0.019114064 -0.01183605 4290324764
-0.0080780499 -0.018266492 -0.012582563 4289866784
-0.006053634 -0.019033408 -0.012052771 4290325018
-0.0040239096 -0.01980016 -0.011523171 4290848788
-0.0022779405 -0.018952379 -0.012269175 4289410333
-0.00053755194 -0.018104646 -0.01301473 4288757533
0.014149249 -0.02507779 -0.008040309 4287381809
0.015043423 -0.02019633 -0.011966482 4286920259
0.016907841 -0.011241837 -0.01917715 4287837748
0.018060692 -0.0079750866 -0.021826165 4287838513
0.019371495 -0.0055150688 -0.023838237 4287838004
0.019935489 0.00016985089 -0.028391248 4288099889
0.020461276 0.0058539398 -0.032942001 4288165168
0.021324918 0.0099249221 -0.036220204 4288491823
0.022924155 0.01077088 -0.036956739 4288949548
0.025485091 0.007586468 -0.034518618 4289080363
0.027871378 0.0052086264 -0.032716416 4288818478
0.030273817 0.0028311517 -0.030915048 4288360754
0.032490753 0.0012600403 -0.029748958 4287052858
0.034922697 -0.0011166465 -0.027949166 4286790973
0.03778483 -0.0051044095 -0.024882082 4286529344
0.040044665 -0.0066744108 -0.023718311 4286529343
0.042527668 -0.0090497937 -0.02192129 4286529344
0.045026772 -0.011424782 -0.020125158 4286398274
0.047759861 -0.014604843 -0.017696414 4286332738
-0.027161788 -0.033171311 -0.0022919553 4286267458
-0.024904549 -0.035561435 -0.00048942212 4286987324
-0.02263106 -0.037951142 0.0013123006 4286856253
-0.021143116 -0.034670755 -0.0013511349 4286922554
-0.019677058 -0.031390753 -0.0040132459 4286857273
-0.018472824 -0.02649143 -0.0079488652 4287119159
-0.016933255 -0.024021965 -0.0099706743 4288100144
-0.015284691 -0.02236248 -0.011354292 4289538853
-0.013390843 -0.022322429 -0.011463277 4289800483
-0.011627965 -0.021472679 -0.012208981 4289866529
-0.010004256 -0.019813368 -0.01359098 4289146919
-0.0081189238 -0.019773148 -0.013699217 4288689194
-0.0062337294 -0.019732848 -0.013807383 4289997853
-0.0046321526 -0.018073749 -0.015187846 4289997854
-0.002897121 -0.017224062 -0.015931558 4290456598
-0.0011676848 -0.016374368 -0.016674925 4290326549
0.001155816 -0.018761512 -0.014874961 4288955159
0.014937647 -0.030648377 -0.0059975456 4287249718
0.015676722 -0.024944836 -0.010549473 4287379768
0.017214596 -0.014348639 -0.019012339 4287248698
0.01855012 -0.011881669 -0.021021055 4287838004
0.019869186 -0.0094150184 -0.023028726 4287903028
0.020624191 -0.0045231879 -0.026937075 4288230704
0.021161206 0.0011763256 -0.031477191 4288230704
0.022035912 0.0052584186 -0.034747947 4288492078
0.023646019 0.0061067529 -0.035483509 4288818734
0.026217468 0.0029139183 -0.033052493 4288622383
0.028614379 0.00052971952 -0.031255718 4287706678
0.031027406 -0.0018540453 -0.029459801 4287052604
0.033053488 -0.0026212633 -0.028930355 4286660158
0.035697564 -0.0058123022 -0.026503252 4286529599
0.038156219 -0.0081948228 -0.024709826 4286529344
0.040631011 -0.010577003 -0.022917259 4286529344
0.04333429 -0.013766558 -0.020493388 4286398529
-0.022783719 -0.038693149 -0.00047595659 4286790973
-0.020954959 -0.037840515 -0.0012243446 4287052859
-0.019483369 -0.034551702 -0.0038803192 4286856763
-0.01803365 -0.03126321 -0.006534928 4287118649
-0.016728438 -0.027163154 -0.0098238755 4287380534
-0.015074469 -0.025499174 -0.011204623 4288034608
-0.013687663 -0.02221169 -0.01385537 4289735204
-0.012061115 -0.020548111 -0.015234333 4290586139
-0.010445572 -0.0188847 -0.016612612 4290324764
-0.0085685253 -0.018844688 -0.016720396 4289474339
-0.006691616 -0.018804584 -0.016828101 4289474339
-0.0048148409 -0.018764362 -0.01693571 4290063134
-0.0030825958 -0.017912554 -0.017677713 4290325783
-0.0012087971 -0.017872199 -0.017785005 4290064154
0.0011143982 -0.02026587 -0.01598987 4289934358
0.0037589148 -0.024281694 -0.012927693 4288495648
0.010408185 -0.029024903 -0.0094514359 4287054133
0.012809515 -0.031416446 -0.0076604402 4287053879
0.014894649 -0.032185469 -0.0071366644 4287380024
0.016478434 -0.030521492 -0.0085121952 4286790209
0.018508129 -0.013368859 -0.022123162 4287706423
0.020007029 -0.011706424 -0.02349362 4287772213
0.020947501 -0.0076122023 -0.026760183 4288099889
0.021860644 -0.0035185013 -0.03002513 4288165168
0.022746474 0.00057464652 -0.03328849 4288165169
0.024558023 0.00061492808 -0.033391275 4287837748
0.026949383 -0.0017759334 -0.031599119 4287445304
0.029356897 -0.0041664224 -0.029807793 4286987068
0.031581767 -0.0057461821 -0.028648714 4286529344
0.033817351 -0.0073256865 -0.02749015 4286398529
0.03647197 -0.010525195 -0.025070112 4286398529
0.039355054 -0.014534287 -0.022020413 4286398529
0.041845866 -0.016922604 -0.020233653 4286267459
-0.021339148 -0.036947269 -0.0042765588 4286921789
-0.019524183 -0.036092643 -0.0050224555 4286790974
-0.017834645 -0.034423821 -0.0064022099 4286987578
-0.016278673 -0.031941045 -0.0084152548 4287053114
-0.014989756 -0.027830372 -0.01169512 4287183928
-0.013856195 -0.022906095 -0.015607091 4288754474
-0.012363136 -0.020424338 -0.017616285 4289604643
-0.010753054 -0.018756643 -0.018991053 4290651418
-0.0088815764 -0.018716775 -0.019098537 4290651929
-0.0068713203 -0.019490559 -0.018572811 4290521114
-0.0051390082 -0.018636715 -0.019313231 4290193949
-0.002979219 -0.020223889 -0.018154819 4289736223
-0.00095575303 -0.020997079 -0.01762962 4289997854
0.0015223771 -0.024210701 -0.01520714 4288558634
0.0040221438 -0.027423769 -0.012785833 4288166188
0.0065434799 -0.030636229 -0.010365728 4288101164
0.0081387684 -0.028968018 -0.011738958 4287839024
0.010365687 -0.030553123 -0.010583995 4287773233
0.012439951 -0.031324726 -0.010061267 4287576374
0.014685586 -0.032909241 -0.0089072371 4287642419
0.019965097 -0.01318914 -0.024592407 4287248954
0.021270595 -0.01070969 -0.026589649 4287772213
0.022189386 -0.0066050272 -0.029846864 4287903283
0.023456536 -0.0041263122 -0.031841841 4288099378
0.025278866 -0.0040858202 -0.031945258 4287968819
0.027680859 -0.0064830445 -0.030158537 4287641654
0.029707015 -0.0072547719 -0.029632449 4286987324
0.032135822 -0.009651293 -0.027847167 4286398529
0.034580752 -0.012047382 -0.026062746 4286267459
0.037654169 -0.016880032 -0.022390977 4286267203
-0.021951709 -0.034407862 -0.0085847788 4286987069
-0.019916266 -0.035184156 -0.0080627641 4286987323
-0.017995287 -0.035143889 -0.0081735775 4287053114
-0.016442008 -0.032654632 -0.010181684 4286987578
-0.015030406 -0.029349428 -0.012821008 4286922554
-0.013896618 -0.024412131 -0.016723318 4287315509
-0.012534209 -0.021107715 -0.019359697 4289081128
-0.010926854 -0.019435802 -0.020731058 4289277734
-0.0090582222 -0.019396001 -0.020838384 4289604899
-0.0069120228 -0.020987974 -0.019682612 4289605154
-0.0048966333 -0.021763775 -0.019158687 4289604898
-0.0025873557 -0.024170971 -0.017372657 4289343269
-0.00055591017 -0.024946196 -0.016849553 4288950568
0.0019300282 -0.02816835 -0.014433986 4288820008
0.0042851269 -0.030574307 -0.012650318 4288558889
0.0065012202 -0.032164194 -0.011498116 4288035373
0.0082544014 -0.031307168 -0.012237703 4288362284
0.010483809 -0.032896649 -0.011086104 4287773233
0.012397297 -0.032854915 -0.011195276 4287445303
0.014144577 -0.03199774 -0.011934396 4287380789
0.021593496 -0.013815771 -0.02642541 4287968309
0.022517934 -0.0097001493 -0.029674895 4287837749
0.023790628 -0.0072148051 -0.031665355 4287968563
0.025808796 -0.0079890452 -0.031140545 4287903028
0.028218694 -0.010392645 -0.02935914 4287052604
0.030448765 -0.011981086 -0.028206889 4286529344
0.033086792 -0.015198523 -0.025798962 4286398528
0.03594774 -0.01923001 -0.02276428 4286201923
-0.02042501 -0.033443883 -0.011724427 4287250229
-0.018275537 -0.035040922 -0.010572588 4287053114
-0.016360238 -0.035000674 -0.010682996 4287183929
-0.014945827 -0.031686693 -0.013316078 4286922299
-0.013681192 -0.02755473 -0.016578343 4287053369
-0.012574509 -0.022604898 -0.020469354 4287315509
-0.010833815 -0.02174687 -0.021207282 4288231214
-0.0090986602 -0.020888869 -0.021944823 4289408549
-0.0068139099 -0.023303347 -0.020162333 4289669924
-0.004795976 -0.024081251 -0.019640232 4289081384
-0.002340056 -0.02731296 -0.017229564 4288950823
-0.00030335039 -0.028090261 -0.016708391 4288754728
0.0023373291 -0.032138903 -0.013670322 4288820264
0.0042431355 -0.032097735 -0.013779352 4288558889
0.0064589977 -0.033691976 -0.012630374 4288297004
0.0082121268 -0.032832824 -0.013368376 4287969329
0.010441311 -0.034426663 -0.012219999 4287576883
0.011864893 -0.03193219 -0.014214727 4287314488
0.022661276 -0.011986663 -0.030136555 4287575608
0.024124481 -0.01031181 -0.031495247 4288164404
0.026338391 -0.011905158 -0.030345384 4287771958
0.029142432 -0.01594897 -0.027315697 4287183163
0.031581752 -0.018358409 -0.025540788 4286332484
-0.018555552 -0.034929018 -0.012965049 4286594878
-0.01664583 -0.034888923 -0.013075165 4287052859
-0.014861345 -0.034028132 -0.013814244 4286987323
-0.013593834 -0.029885253 -0.01706861 4287118393
-0.012353636 -0.025742857 -0.02032133 4287118649
-0.010740861 -0.024062118 -0.021686604 4287314998
-0.0088670477 -0.024022251 -0.021794261 4289015849
-0.006577149 -0.026443152 -0.020016918 4288950568
-0.0042710602 -0.028863603 -0.018240431 4288754729
-0.0019487888 -0.031283598 -0.016464863 4288689449
9.5896423e-05 -0.032062966 -0.015945736 4288885799
0.0022954941 -0.033662133 -0.014799223 4288885543
0.0042011738 -0.033620991 -0.014908265 4288362284
0.0061067119 -0.033579744 -0.01501722 4288165679
0.008012116 -0.033538427 -0.015126112 4288035120
0.0099173784 -0.033497017 -0.015234925 4286922554
0.02445817 -0.013417441 -0.031331465 4287902518
0.027058043 -0.016653351 -0.028934468 4287902518
0.029872537 -0.02070781 -0.025913458 4286659648
-0.01656409 -0.037236746 -0.013577872 4287117883
-0.014776964 -0.036373749 -0.01431551 4286987068
-0.013250973 -0.033865396 -0.01630735 4287052603
-0.012263488 -0.028066685 -0.020806825 4287380279
-0.010647997 -0.026381612 -0.022169003 4287249464
-0.008635629 -0.027164217 -0.021649987 4288230959
-0.0063406043 -0.029591499 -0.01987784 4288296748
-0.0038879812 -0.032840762 -0.017479977 4288231468
-0.001701951 -0.034444831 -0.016336039 4288035118
0.00020115077 -0.034403943 -0.016445082 4288427308
0.0021041408 -0.034362998 -0.016554071 4288557868
0.0040069893 -0.034321934 -0.016662965 4287707189
0.0059096962 -0.034280803 -0.016771797 4286857273
-0.014817685 -0.037898611 -0.015445704 4286725184
-0.013163917 -0.036208615 -0.016807029 4287052604
-0.012042969 -0.031219462 -0.020669863 4287183418
-0.010422058 -0.02952995 -0.022029139 4287380533
-0.0082685426 -0.031139307 -0.020886824 4287773489
-0.0059656501 -0.033573002 -0.019119944 4287969583
-0.0036465526 -0.036006279 -0.017353937 4287969583
-0.0015993789 -0.036790024 -0.01683832 4288231214
0.00030630827 -0.03674911 -0.016947534 4287968818
0.0017634407 -0.034234893 -0.018930044 4287903283
0.0035085231 -0.033369638 -0.019662924 4286464573
-0.015483182 -0.035287846 -0.019697018 4286463298
-0.013587661 -0.03524787 -0.019806184 4287248698
-0.012083456 -0.032726839 -0.021787083 4287052859
-0.01019631 -0.032686833 -0.021895612 4287380533
-0.0080375969 -0.034300506 -0.020756807 4287577138
-0.0058681257 -0.035913784 -0.019618576 4287773489
-0.0038291588 -0.036700059 -0.019104164 4287577139
-0.0019288808 -0.036659367 -0.019213144 4287772979
-0.00017544627 -0.035791934 -0.019945089 4287641399
-0.014138665 -0.033444755 -0.023418048 4286594369
-0.01225426 -0.033404924 -0.023526506 4286921789
-0.010236889 -0.034194097 -0.023012737 4287380023
-0.0080784075 -0.035812147 -0.021877173 4287249208
-0.0061861724 -0.035771854 -0.021985861 4286987579
-0.0042940527 -0.035731476 -0.022094479 4286987834
-0.012815751 -0.031584546 -0.027124776 4287248699
-0.010676447 -0.033207446 -0.025991408 4287706679
-0.0085263662 -0.034829967 -0.024858626 4288295219
-0.0066424012 -0.034789894 -0.02496687 4286791484
-0.0086023957 -0.011215505 0.01765666 4283856434
-0.0090395473 -0.010438382 0.014522031 4283269169
-0.0072402582 -0.0096203415 0.013750095 4283463989
-0.0093446635 -0.010427055 0.012056667 4282548284
-0.0075509027 -0.0096069481 0.011286674 4282417468
-0.0057627261 -0.0087868646 0.010517068 4283265599
-0.0092546418 -0.012750731 0.01157137 4282875193
-0.007726945 -0.010365869 0.0094875591 4282483769
-0.0059415773 -0.0095436247 0.0087197646 4282811443
-0.0040220171 -0.0095025608 0.0086096488 4283331898
-0.0094278939 -0.013511464 0.0097706318 4283136824
-0.0076342896 -0.012687006 0.0090038804 4283202359
-0.0061203018 -0.010295817 0.0069258502 4282484789
-0.0042035952 -0.010254807 0.0068159001 4282352698
-0.0024295151 -0.0094303684 0.0060504917 4283398198
-0.0094695054 -0.015053281 0.0086279009 4283267383
-0.0078102127 -0.013441055 0.0072083781 4283137843
-0.0062989146 -0.011043339 0.0051353201 4282288949
-0.004524745 -0.010216891 0.0043714736 4281897014
-0.002613768 -0.010175896 0.0042619323 4282354739
-0.00070295483 -0.010134772 0.0041525001 4283659573
-0.0093796514 -0.017382726 0.0081383279 4283725108
-0.0078518391 -0.014978253 0.0060690809 4283072308
-0.0062035993 -0.013361781 0.0046535246 4282551088
-0.0045664087 -0.011745392 0.0032386417 4282420019
-0.0027979016 -0.01091678 0.0024768161 4282092344
-0.00088992715 -0.010875736 0.0023675328 4282482493
0.0013134554 -0.012409548 0.0035623359 4283854138
-0.0078934655 -0.016515225 0.0049299533 4283856433
-0.0062452331 -0.014894399 0.0035176324 4282549813
-0.0047476217 -0.012483815 0.0014551398 4282354738
-0.0029819012 -0.011653103 0.00069508003 4282288438
-0.0013667941 -0.010032621 -0.00071514398 4282352444
0.00082817674 -0.011571011 0.00047694705 4282614073
0.0025825277 -0.01074022 -0.00028222287 4284051508
-0.006286867 -0.016426764 0.0023819273 4282942258
-0.0046497136 -0.014801667 0.00097351708 4282486318
-0.0030235574 -0.013176773 -0.00043416116 4282158134
-0.0014084727 -0.011551924 -0.001841139 4281961529
0.00049091876 -0.011510964 -0.0019498556 4282483003
0.0023901537 -0.011469888 -0.0020584734 4282874938
-0.0048307925 -0.015535278 -0.00080641825 4282878254
-0.0032073781 -0.01390607 -0.0022106906 4282679864
-0.0015950128 -0.012276957 -0.0036142997 4281831223
0.00015392154 -0.011442037 -0.0043700039 4281961273
0.0020475984 -0.011401092 -0.0044783121 4282550579
0.0040941462 -0.012153951 -0.0039396975 4282810678
0.0059902295 -0.012112757 -0.0040479968 4284509489
-0.0033910796 -0.014630748 -0.0039838706 4283007029
-0.0017814413 -0.012997393 -0.0053840531 4282158134
-0.0001828298 -0.011364121 -0.0067835636 4282157624
0.001705274 -0.011323309 -0.0068915631 4282093108
0.0035932213 -0.01128238 -0.0069994647 4282091323
-0.0034325868 -0.01614939 -0.005109387 4284183089
-0.0016781837 -0.015310094 -0.0058622388 4282288183
-0.00022435933 -0.012874068 -0.0079026157 4282091069
0.0013632029 -0.011236656 -0.0092981672 4282092599
0.0030926839 -0.010397616 -0.010049384 4281960508
0.0052834824 -0.011953169 -0.0088698165 4282417214
0.0076433793 -0.014306579 -0.0070474488 4282874428
-0.0018644631 -0.016025743 -0.0076284446 4282810678
-0.00026587397 -0.014383798 -0.0090215094 4282417978
0.0013216957 -0.012742032 -0.010413825 4282027574
0.0030511022 -0.01190084 -0.011163438 4282156604
0.0050860792 -0.012660398 -0.01062895 4282090814
0.0074429512 -0.015020373 -0.008811241 4282417213
0.0096549615 -0.016579641 -0.0076359874 4283200319
0.00013474375 -0.018301485 -0.0082180696 4283790388
0.0012801886 -0.01424718 -0.011529313 4282091069
0.0030095503 -0.013403837 -0.012277323 4282090558
0.0048888251 -0.013363029 -0.012384679 4281762628
0.0074009374 -0.016532112 -0.0099315885 4282023748
0.0096126944 -0.018095737 -0.0087595563 4282219844
0.011344127 -0.017251959 -0.0095073953 4283134273
0.0013887435 -0.016556989 -0.012005739 4282418233
0.0032734945 -0.016516183 -0.012113497 4281765434
0.0051580891 -0.016475283 -0.012221174 4281827398
0.0072007179 -0.017238939 -0.011690294 4282089028
0.009570457 -0.019611632 -0.0098829763 4282154819
0.011629075 -0.020374749 -0.0093528666 4283134273
0.013360292 -0.019528726 -0.010099022 4284114749
0.0011972561 -0.017256938 -0.013759896 4283007794
0.0033845454 -0.018830085 -0.012593145 4282156349
