# .PCD v0.7 - Point Cloud Data file format
VERSION 0.7
FIELDS x y z rgba
SIZE 4 4 4 4
TYPE F F F U
COUNT 1 1 1 1
WIDTH 971
HEIGHT 1
VIEWPOINT 0 0 0 1 0 0 0
POINTS 971
DATA ascii
0.0093387887 0.0058161356 0.013846677 4289867549
0.010766774 0.0081239678 0.011700021 4289279009
0.012346417 0.009677615 0.010229066 4289868059
0.014598675 0.0082154498 0.011456704 4288361263
0.017903462 0.0022307336 0.016729334 4287903029
0.021604307 -0.0052604601 0.023347551 4286725439
-0.003465265 0.00017101318 0.016935011 4288953119
-0.0013796538 -0.00054021925 0.017485676 4289345054
0.00041305274 0.00026204437 0.016687596 4289409569
0.0023519471 0.00030770898 0.016564013 4290194714
0.0039815977 0.0018663909 0.015092809 4289605919
0.0057574138 0.0026685204 0.014296073 4289671453
0.0073676333 0.004226977 0.01282621 4289409824
0.0092921481 0.0042727012 0.012703843 4290064153
0.011051044 0.0050747246 0.011908406 4289933339
0.0128043 0.0058767013 0.011113392 4289802524
0.015235312 0.0036543608 0.013010085 4289671198
0.018203184 -0.00083558634 0.016923858 4288754474
0.021556102 -0.0068365447 0.022180585 4286922298
0.00021768361 -0.00053334981 0.01486418 4288954139
0.002305463 -0.0012464337 0.015413215 4289214749
0.0039351135 0.00031662919 0.013945267 4289671963
0.0057108775 0.0011209454 0.013150159 4289671709
0.0073211044 0.0026837941 0.011683559 4289998874
0.0092455 0.0027295407 0.011561217 4289737244
0.011004329 0.0035337638 0.010767421 4289933338
0.01292561 0.0035796184 0.010645414 4289736988
0.015359044 0.0013507847 0.012537163 4289475103
0.018155605 -0.0023939498 0.015770011 4288885798
0.021507874 -0.0084123537 0.021013832 4287577393
0.0037342235 -0.00047204085 0.012127303 4289476889
0.0056643263 -0.00042632781 0.012004472 4289606939
0.0071147159 0.0019015875 0.0098708402 4289998873
0.0091988295 0.0011866633 0.010418808 4289671708
0.010957614 0.0019930769 0.00962664 4289868058
0.013214774 0.00051796436 0.010844188 4289605663
0.015482612 -0.00095685758 0.012061156 4289475103
0.018281452 -0.0047124103 0.015285786 4289017123
0.021283448 -0.0092275552 0.019177994 4288166444
0.024138987 -0.012981572 0.022399159 4288035884
0.0072279945 -0.00040174834 0.0093988739 4289542933
0.0091521442 -0.00035597198 0.0092765745 4290196754
0.0110761 -0.00031009503 0.0091543701 4289802523
0.013167784 -0.0010268316 0.0097003747 4290129689
0.015435375 -0.0025059786 0.010914151 4289802524
0.018060401 -0.0055098925 0.013462912 4289082658
0.020883061 -0.0092756767 0.016678007 4288363303
0.011029281 -0.001852436 0.0080123674 4289674003
0.013288654 -0.0033362359 0.0092233568 4290195989
0.015388116 -0.00405485 0.0097673349 4290457108
0.018186077 -0.0078321956 0.012975845 4289344798
0.021011002 -0.011608794 0.016182721 4287644714
0.033264801 -0.021308616 0.024210511 4288232999
0.03544952 -0.022024445 0.024749627 4287446834
0.030101672 -0.018356118 0.019170498 4289280283
0.032077886 -0.018308133 0.019045612 4290195733
0.034246132 -0.019026529 0.019584162 4290194459
0.036614574 -0.020511104 0.020785647 4290193949
0.039191373 -0.022761708 0.022649577 4291109399
0.02789221 -0.019220494 0.017459376 4288691999
0.02967906 -0.01840388 0.016672505 4289803799
0.031649731 -0.018356029 0.016547972 4290063899
0.033427946 -0.017539464 0.015761765 4290259739
0.035785295 -0.019028656 0.016960716 4289932318
0.038153283 -0.020517554 0.018159093 4290586394
0.040732279 -0.022774503 0.020018054 4289931043
0.043530382 -0.025799379 0.022537185 4288556849
0.025144517 -0.017766876 0.013768943 4288693273
0.026923373 -0.016948327 0.012984084 4289410588
0.028696567 -0.01612984 0.012199713 4289999384
0.030464128 -0.01531144 0.01141574 4291045394
0.032610297 -0.016034706 0.011952465 4288689704
0.034956545 -0.017528551 0.013148937 4288558123
0.037511013 -0.019792709 0.015004532 4289604899
0.040081546 -0.022056419 0.016859232 4289539363
0.04287117 -0.025090227 0.019372417 4289146153
0.02455236 -0.017021019 0.010625921 4288691744
0.026506953 -0.0169737 0.010502294 4289933849
0.028461322 -0.016926322 0.010378735 4289998873
0.030415475 -0.016878825 0.010255279 4291307024
0.032369412 -0.016831286 0.010131873 4290783253
0.034517907 -0.017556567 0.010666912 4290782998
0.037066653 -0.019827435 0.012518065 4290586138
0.039631449 -0.022097776 0.01436823 4290324509
0.04221233 -0.024367709 0.016217468 4289669924
0.045014918 -0.027409814 0.01872343 4289014573
0.022370927 -0.017859919 0.0089315232 4288234529
0.024141751 -0.017037258 0.0081503708 4289868568
0.0257231 -0.015439343 0.0067122392 4289671963
0.028039627 -0.016942814 0.0079038981 4289867549
0.030177541 -0.017670743 0.0084379073 4289670943
0.032320641 -0.018398408 0.0089716166 4290652184
0.034468986 -0.019125888 0.0095050391 4291110164
0.036622547 -0.019853169 0.010038184 4290847769
0.039181605 -0.022130212 0.011883909 4289800993
0.041959658 -0.025181711 0.01438489 4288360754
0.022679448 -0.020980045 0.0090852827 4289541403
0.024093546 -0.018599823 0.0069934558 4290260503
0.026042476 -0.018552631 0.0068701971 4290652694
0.028177716 -0.019282905 0.0074026827 4289932829
0.030318163 -0.020012889 0.0079348888 4289670433
0.032271892 -0.019965328 0.0078115109 4290063134
0.034614727 -0.021472262 0.0089984592 4290390043
0.036573455 -0.021424428 0.0088748839 4290062624
0.039132237 -0.02370801 0.010715775 4289407784
0.041504294 -0.025214005 0.011901049 4286725694
0.020322628 -0.021036267 0.0067382026 4290064919
0.022096299 -0.020209275 0.0059600361 4289605918
0.023864336 -0.019382369 0.0051823389 4290783254
0.025994152 -0.020114947 0.0057134777 4290849044
0.027942777 -0.020067681 0.0055903029 4290782744
0.030080363 -0.020799972 0.0061210971 4291044629
0.032223143 -0.021531999 0.0066515934 4289997599
0.034371145 -0.022263814 0.0071818214 4289997599
0.036524363 -0.022995435 0.00771177 4289801504
0.039082855 -0.025285557 0.0095478278 4289539619
0.041860156 -0.02835449 0.012035914 4286398784
0.018149763 -0.021865338 0.0050503351 4289541913
0.020099081 -0.021818377 0.0049268752 4290260503
0.022048205 -0.02177136 0.0048034713 4290587924
0.023635261 -0.020160291 0.0033746455 4288951334
0.025762193 -0.020895135 0.0039043371 4289474594
0.027521625 -0.020066081 0.0031289347 4290848534
0.029842682 -0.02158241 0.0043106731 4290782744
0.032174386 -0.023098439 0.0054918453 4290062878
0.034516752 -0.024614081 0.0066723619 4289604134
0.036672525 -0.025347849 0.0072005838 4289407273
0.011924051 -0.021998392 0.0029604565 4289215769
0.015472539 -0.02033638 0.0014101453 4289541913
0.01775647 -0.021858487 0.0025906079 4290261013
0.019875668 -0.022595963 0.0031189714 4289933339
0.021643817 -0.021764772 0.00234445 4291110674
0.023225471 -0.020149488 0.00091919675 4290390809
0.024979614 -0.01931842 0.00014564674 4289409058
0.027100749 -0.02005554 0.00067418907 4289867039
0.029416136 -0.02157636 0.0018530525 4289932318
0.031550422 -0.022312935 0.0023808591 4290063134
0.034467772 -0.026184656 0.0055095609 4289931043
0.036820561 -0.02770438 0.0066862721 4287576118
0.011876665 -0.023555629 0.0018074345 4289803034
0.01348646 -0.021935768 0.00038329698 4290064409
0.015085198 -0.020316038 -0.001040115 4289932828
0.017018162 -0.020269584 -0.001162624 4290456344
0.019652389 -0.023368914 0.0013145003 4289932829
0.021595858 -0.023322018 0.0011914652 4290194203
0.023177527 -0.021702381 -0.00023055449 4290193948
0.024748132 -0.020082874 -0.0016518449 4291044374
0.026680142 -0.020035997 -0.0017739646 4290979349
0.029178813 -0.022347486 5.1079318e-05 4290782999
0.031501889 -0.023872396 0.001226278 4289670179
0.034613185 -0.028541042 0.004995646 4290063133
0.0095616281 -0.023581147 -0.00052023027 4290131219
0.011500448 -0.023534829 -0.00064331759 4290195224
0.01327195 -0.022699546 -0.0014151465 4290325783
0.014867991 -0.02107559 -0.0028351257 4289409313
0.016625561 -0.020240486 -0.0036058817 4290259739
0.019078657 -0.022559967 -0.0017831484 4289801503
0.021191888 -0.023301914 -0.0012575481 4289670688
0.02312962 -0.023255071 -0.0013801549 4289735968
0.024700239 -0.021631196 -0.0027982043 4289997854
0.026632145 -0.021584332 -0.0029203258 4289866784
0.028941631 -0.023114048 -0.0017475169 4289342758
0.031644955 -0.02621986 0.00071910769 4289277478
0.034758464 -0.030901533 0.0044786166 4286399038
0.0091912374 -0.023551224 -0.0029647537 4289736989
0.010960147 -0.022713963 -0.003734828 4290194459
0.012723446 -0.021876749 -0.0045044832 4289344033
0.014311343 -0.020248566 -0.0059207333 4290979348
0.016233213 -0.020202387 -0.0060425457 4290913813
0.01868058 -0.022528607 -0.0042242808 4290848534
0.020966128 -0.024063554 -0.0030534882 4290848023
0.022901028 -0.02401677 -0.0031759106 4289997598
0.024468981 -0.022388693 -0.0045905476 4289931808
0.026770242 -0.023922976 -0.0034205392 4289735203
0.029271036 -0.026247485 -0.0016053393 4289408038
0.032170966 -0.030152351 0.0015001539 4287249464
0.0068932474 -0.023558367 -0.0052801538 4289673748
0.0088211298 -0.02351243 -0.0054026339 4289736478
0.010420255 -0.021879818 -0.0068165073 4289932829
0.012008347 -0.02024743 -0.0082295779 4289801503
0.013924845 -0.020201474 -0.0083511192 4290521368
0.0160136 -0.020948485 -0.0078273658 4290324509
0.018107608 -0.02169526 -0.0073038647 4290913558
0.020562656 -0.024027752 -0.0054908814 4290979094
0.022672608 -0.024773968 -0.0049682613 4289932319
0.024421178 -0.023934392 -0.0057349643 4289866529
0.026908256 -0.026265835 -0.0039238026 4289735204
0.029411443 -0.028596763 -0.0021136422 4288230448
0.0063701943 -0.022714864 -0.0083562471 4289476888
0.0084512904 -0.023464622 -0.007833913 4290325783
0.010045014 -0.021827865 -0.0092441961 4290063643
0.011627659 -0.020191219 -0.010653732 4290782743
0.013029642 -0.017759502 -0.012706244 4289016359
0.015276998 -0.019304244 -0.011539627 4288885289
0.017710157 -0.021643858 -0.0097301584 4289735969
0.020159438 -0.023982948 -0.0079216817 4289735969
0.022263803 -0.024731545 -0.0074003022 4290259993
0.02437339 -0.0254799 -0.0068792403 4289670434
0.026860178 -0.027817868 -0.0050729029 4288884779
0.0039360523 -0.02190356 -0.011301019 4289607194
0.0056888238 -0.021060377 -0.012065384 4289998873
0.0077588707 -0.021812575 -0.011543964 4289736479
0.009505868 -0.020969335 -0.012307819 4289932319
0.01124727 -0.020126121 -0.013071237 4290979094
0.012813479 -0.018485472 -0.014476391 4290913559
0.014885575 -0.019237267 -0.013954839 4290978838
0.01713796 -0.020786159 -0.012791714 4290913814
0.019401051 -0.022334773 -0.011629177 4290848023
0.021855272 -0.024680192 -0.0098258052 4289997344
0.024325624 -0.027025191 -0.008023357 4289015338
0.027369775 -0.031760968 -0.0042984793 4286856764
0.001671955 -0.021878555 -0.01359529 4289347348
0.003578037 -0.021833327 -0.013716525 4290195479
0.0051666647 -0.020188211 -0.015120182 4290259994
0.0073897243 -0.021742627 -0.01395878 4289605408
0.0091312528 -0.020897342 -0.014720668 4289801504
0.011200778 -0.021651549 -0.0142007 4290063134
0.012767009 -0.020006567 -0.015602638 4290521113
0.014666677 -0.019960951 -0.015723065 4291109909
0.016741149 -0.020714752 -0.015203196 4291175444
0.018998548 -0.022267796 -0.014043562 4290062623
0.021807835 -0.026218729 -0.01096493 4289473573
0.024644092 -0.030168911 -0.0078879334 4287118394
0.0013197809 -0.021799259 -0.016004536 4290784528
0.0032202825 -0.021754174 -0.016125428 4290195224
0.0048034787 -0.020104796 -0.017525552 4290848279
0.0070208684 -0.021663751 -0.016366985 4291109909
0.0089209229 -0.021618413 -0.016487649 4290520858
0.010987557 -0.022374859 -0.015969109 4289735969
0.013059452 -0.023131097 -0.015450843 4289735713
0.014792286 -0.02228358 -0.016210368 4289408804
0.016694404 -0.022237815 -0.016330883 4290062879
0.018951558 -0.023795255 -0.015174496 4289408038
0.021940738 -0.028558634 -0.01146566 4287903283
-0.00077686459 -0.022560298 -0.017648054 4290392593
0.00096786767 -0.021711018 -0.018407237 4289736989
0.0028628185 -0.021666078 -0.018527783 4290063898
0.0045991093 -0.020816801 -0.01928628 4291175188
0.0066522807 -0.021575943 -0.01876865 4290782998
0.0083828196 -0.020726597 -0.019526631 4291109909
0.010607794 -0.022289505 -0.01837169 4290455579
0.012674101 -0.023048099 -0.017854646 4289800993
0.014573552 -0.0230025 -0.017975068 4289604643
0.016647682 -0.023760699 -0.017458439 4289735203
0.019259706 -0.026930153 -0.015031605 4288753709
-0.0034581348 -0.020089768 -0.021836877 4290134788
-0.0014236048 -0.020851944 -0.021319985 4289933849
0.0004632175 -0.020807309 -0.021440098 4290260759
0.0023498982 -0.020762581 -0.021560131 4290259739
0.0043948963 -0.021524243 -0.021043634 4290128413
0.006283991 -0.021479273 -0.021163683 4289932063
0.0081729442 -0.02143421 -0.021283651 4290258974
0.010394953 -0.02300155 -0.020131761 4289539363
0.012627684 -0.024568584 -0.018980443 4289735459
0.014871106 -0.026135245 -0.017829791 4289473573
0.017300017 -0.028507628 -0.016044319 4289407784
0.019922525 -0.031685505 -0.01362467 4286987579
-0.00365071 -0.02078801 -0.023588341 4290130708
-0.0016190782 -0.021552414 -0.023072869 4289409313
0.00041784346 -0.022316609 -0.022557672 4290259738
0.00214874 -0.021463247 -0.023312699 4290652183
0.0037156641 -0.019801274 -0.024702068 4288754473
0.0055937693 -0.019756565 -0.024821419 4289016104
0.0076355562 -0.02052027 -0.024306253 4289408549
0.010182269 -0.023709055 -0.021888474 4289539364
0.012581289 -0.026088877 -0.020106101 4289866274
0.014996454 -0.028468195 -0.018324738 4289603878
0.017427772 -0.030847069 -0.016544286 4288164914
-0.0054323524 -0.023148118 -0.023948556 4289607703
-0.0038431287 -0.02148168 -0.02533642 4288886564
-0.0018144101 -0.022248371 -0.024822412 4289605663
-8.6151063e-05 -0.021392975 -0.025575712 4289801758
0.0017921254 -0.021348476 -0.025695231 4290259483
0.0033536181 -0.019682266 -0.027081087 4290913559
0.0052261874 -0.019637723 -0.02720011 4291044374
0.0072623715 -0.02040381 -0.026686184 4290913304
0.009803243 -0.023601361 -0.024274517 4290520603
0.012365729 -0.02679842 -0.021864166 4289735203
0.014949776 -0.029994834 -0.019455088 4289407784
-0.0048985779 -0.027908009 -0.022534434 4288952099
-0.0035932511 -0.024610499 -0.025184356 4289017123
-0.0018594936 -0.023752937 -0.025936492 4289212963
-0.00028409809 -0.022082299 -0.027320113 4288820264
0.0015913472 -0.022037886 -0.027439468 4289081894
0.0029918849 -0.019554455 -0.029453518 4289736223
0.0046979189 -0.018697169 -0.030203607 4290521114
0.0065620691 -0.018652748 -0.030322038 4290520858
0.00942453 -0.023484888 -0.026653992 4289931553
0.011981204 -0.02669077 -0.024249725 4289015593
-0.0064129233 -0.031914286 -0.021642461 4289085719
-0.0047991052 -0.030238681 -0.023025587 4288821283
-0.0033435971 -0.027747866 -0.025038546 4288886309
-0.0017544925 -0.026072649 -0.026419954 4289147428
-0.0003291443 -0.023582367 -0.028430855 4289081638
0.0015461892 -0.023537969 -0.028550211 4288951079
0.0031049922 -0.021863166 -0.029929467 4288623914
0.0048137009 -0.021003656 -0.030678121 4289800993
0.0066804513 -0.020959178 -0.03079672 4289604388
0.0093787983 -0.024989396 -0.027767977 4289669924
-0.0063162744 -0.034253512 -0.022139743 4288952098
-0.0046997294 -0.03257354 -0.023519773 4288624934
-0.0030941814 -0.030893698 -0.024899079 4288951589
-0.0013496652 -0.030031573 -0.025648702 4289016869
8.392334e-05 -0.027534544 -0.027655335 4288885798
0.0018118769 -0.02667262 -0.028403763 4288427818
0.0032180175 -0.024176052 -0.030408507 4288558633
0.0050902292 -0.024131566 -0.030527543 4289081383
0.0069623217 -0.024086997 -0.030646509 4288492589
0.0099982098 -0.029762255 -0.026370447 4287445559
-0.007710956 -0.039101373 -0.02063432 4288889624
-0.0060779788 -0.037416775 -0.022012323 4288821028
-0.0044559836 -0.035732355 -0.023389492 4289082659
-0.0026977956 -0.034867831 -0.024138441 4288951589
-0.0010951012 -0.033183645 -0.025514293 4289016868
0.00034400076 -0.030680038 -0.02751641 4288689449
0.0020773411 -0.029815786 -0.028263617 4288689449
0.0034889877 -0.027312649 -0.03026386 4289081894
0.005366534 -0.027268048 -0.030383242 4288950313
0.0074074343 -0.028042732 -0.02987616 4289407783
-0.0080342107 -0.038989171 -0.023021547 4288103204
-0.0061232783 -0.038944487 -0.023143578 4288690469
-0.0042124689 -0.038899705 -0.023265533 4288821028
-0.0025960356 -0.03721099 -0.024639059 4289213219
-0.00099059939 -0.035522465 -0.026011832 4289146918
0.00045128167 -0.033012252 -0.028009346 4289016613
0.0021873042 -0.032145835 -0.028755089 4289016613
0.0037597418 -0.030457746 -0.030125579 4288427308
0.0056426153 -0.030413065 -0.030245338 4288492844
0.0075253472 -0.03036828 -0.030365005 4287772723
-0.0045465603 -0.038778961 -0.025645457 4287773744
-0.0029355511 -0.037086077 -0.027015446 4289146919
-0.0011857674 -0.036217317 -0.027760644 4289473828
0.00040598214 -0.034524672 -0.029129244 4288427564
0.0021419376 -0.033656117 -0.029873392 4288297259
0.0038723275 -0.032787535 -0.030617144 4287904558
0.0055971742 -0.031919062 -0.031360451 4288034864
0.0076431558 -0.032697994 -0.030856937 4287380278
-0.0034217611 -0.03612601 -0.03000794 4287118648
-0.0015304759 -0.036081523 -0.030128522 4288165424
0.00036070496 -0.036036972 -0.030249054 4288296238
0.0022517592 -0.035992321 -0.030369496 4287904303
0.0039848462 -0.035121586 -0.031111792 4287904303
0.0057123378 -0.034250855 -0.031853713 4287904049
0.0075975657 -0.034206077 -0.031973589 4286530109
1.0743737e-05 -0.035892468 -0.032610111 4287511093
0.0018962622 -0.035847984 -0.032730229 4287838258
0.0037816316 -0.035803404 -0.032850266 4288165678
0.0055063963 -0.034930639 -0.033590376 4287903794
0.0015410334 -0.035694849 -0.035084374 4286202688
0.0034208968 -0.035650447 -0.035204098 4288034609
0.0051401705 -0.034775659 -0.03594226 4288033844
-0.008425191 -0.0029386561 0.022518193 4283131979
-0.0088776425 -0.002235515 0.019332087 4281105493
-0.0072060898 -0.00067649037 0.017857736 4283788093
-0.0093297288 -0.0015189797 0.016155902 4280715344
-0.0075282268 -0.00071480125 0.015358601 4280977993
-0.0055914931 -0.00066959113 0.015234858 4281436483
-0.0037984923 0.00013461523 0.014438275 4282089539
-0.001718536 -0.00057885423 0.014987659 4284248114
-0.010519415 -0.0076860748 0.019161453 4279927393
-0.0091047622 -0.0045954995 0.016348917 4280454734
-0.0072978847 -0.0037890021 0.015552904 4280260168
-0.005637411 -0.0022213161 0.014085814 4280261188
-0.003987968 -0.00065384246 0.012619536 4281045568
-0.0020571575 -0.00060853548 0.012496348 4281829439
-0.00012652576 -0.0005631391 0.012373246 4284311864
-0.010697931 -0.0084892772 0.017330794 4279863134
-0.0092858747 -0.0053900834 0.014524952 4280389454
-0.007481806 -0.0045813899 0.013730725 4280520269
-0.0058240481 -0.0030094553 0.012267087 4280652359
-0.0040339082 -0.0022009388 0.011473931 4280392514
-0.0022493973 -0.0013923664 0.010681203 4280392514
-0.00017270446 -0.0021102019 0.011227682 4281437248
0.0019092262 -0.0028277431 0.011773881 4281894208
0.003842108 -0.002782071 0.011650797 4282613563
-0.010876313 -0.0092878696 0.01550363 4279667803
-0.0091964602 -0.0077112801 0.014041651 4280060759
-0.0073897392 -0.0069003608 0.013248935 4279998283
-0.0058699213 -0.0045584384 0.011120073 4279999049
-0.0040798485 -0.0037477203 0.010328557 4280914754
-0.0022953972 -0.0029369723 0.0095374491 4280588864
-0.00021892041 -0.0036569778 0.010082334 4280849984
0.0017112941 -0.0036114454 0.0099593662 4281241664
0.0036413223 -0.0035658199 0.00983648 4281569338
0.0054141805 -0.0027549267 0.0090464205 4281959999
-0.013520874 -0.0070552118 0.011135109 4282153799
-0.011186987 -0.0093139689 0.013012711 4280846924
-0.0093774647 -0.0085009206 0.012221351 4279997009
-0.007435672 -0.0084556509 0.012097243 4279933769
-0.0059157982 -0.0061071683 0.0099732466 4280717639
-0.0039824918 -0.0060618799 0.0098498426 4280980544
-0.0023414195 -0.0044813044 0.0083939023 4280849983
-0.00026512146 -0.0052034929 0.0089371838 4280850749
0.0016649514 -0.0051579513 0.0088142306 4281374009
0.0037490427 -0.0058796722 0.0093571506 4281113144
0.0053676441 -0.0042992122 0.0079029519 4281504568
0.0072944686 -0.0042534526 0.0077804253 4281831223
0.0090587363 -0.003440408 0.006992735 4282091579
0.010982446 -0.0033945236 0.0068705529 4282549048
-0.014603291 -0.0024448149 0.0046608914 4284706349
-0.012291525 -0.0047106072 0.0065350663 4282301443
-0.0099635646 -0.0069758911 0.0084083006 4281569084
-0.0077572167 -0.008470742 0.0096153133 4280718404
-0.0058211572 -0.0084254891 0.0094916597 4280915519
-0.0040285066 -0.0076103155 0.0087032467 4281111868
-0.0022414625 -0.0067951679 0.0079152714 4280786745
-0.000460051 -0.005979998 0.0071276948 4281242939
0.0016186014 -0.0067041796 0.0076693017 4281177914
0.0035483763 -0.0066585131 0.0075464658 4281440054
0.0054779723 -0.0066127777 0.0074236952 4281505079
0.0070882365 -0.0050280448 0.0059733484 4281831223
0.0088497251 -0.0042128861 0.0051874593 4281505079
0.010605589 -0.0033977777 0.0044019856 4281765688
0.012859017 -0.0048903432 0.0056068711 4282156094
0.015464053 -0.0079209339 0.0081374347 4283135549
0.018610187 -0.01325824 0.012655608 4284050233
-0.013262756 -0.00084437244 0.00074743386 4284049469
-0.010954197 -0.0031165835 0.0026170257 4282162213
-0.0086294375 -0.0053883772 0.0044856854 4278899743
-0.0064289458 -0.006887598 0.0056899264 4280852533
-0.0040745437 -0.0091584753 0.0075568557 4280982838
-0.0019957572 -0.0098849908 0.0080966465 4281048884
-6.0327351e-05 -0.0098394044 0.007973291 4281504060
0.0018749312 -0.0097937267 0.0078500211 4281178678
0.0038100258 -0.0097479448 0.0077268369 4281504314
0.0055881441 -0.0089303944 0.0069413744 4281635383
0.0072011352 -0.0073412247 0.005494101 4281570358
0.0088030547 -0.0057522804 0.0040476322 4281571123
0.010558859 -0.0049349703 0.0032637995 4281439544
0.01264438 -0.0056604873 0.003803784 4281243193
0.015587091 -0.010242542 0.0076510981 4282026044
0.018735364 -0.015595034 0.012157818 4283268148
0.021218181 -0.017861649 0.014017485 4284641834
-0.0054085925 -0.0037388075 0.00045590568 4282817563
-0.0026253387 -0.0083386097 0.0043029916 4281898799
-0.00010669976 -0.011389464 0.0068255197 4281766198
0.0021310076 -0.012891772 0.0080245212 4281766710
0.0039173961 -0.0120719 0.0072400328 4282222648
0.0058549047 -0.012025947 0.0071167834 4281701173
0.0074733496 -0.010432342 0.0056724362 4281962039
0.0090807229 -0.0088388305 0.0042288434 4281440308
0.010841914 -0.0080192033 0.0034462977 4281766454
0.013100289 -0.0095204078 0.0046444368 4281569849
0.015880339 -0.013341811 0.0078216717 4282287164
0.019033447 -0.018709365 0.01231673 4283988524
-0.0068845265 0.002496697 -0.0072758175 4283919928
-0.0041290149 -0.0021168143 -0.0034366623 4283267384
-0.00089552253 -0.0090581533 0.0023795441 4282617643
0.00193315 -0.013669729 0.0062141921 4282485553
0.0041785836 -0.015176069 0.007409567 4282354484
0.005964756 -0.014353964 0.0066268295 4281963059
0.0077452958 -0.013531839 0.0058444925 4282093109
0.009358108 -0.011933892 0.0044038296 4281441838
0.010959864 -0.010336075 0.0029638931 4281767219
0.013220713 -0.01184157 0.0041586459 4281569338
0.016173281 -0.016449492 0.0079859402 4282222393
0.019158281 -0.021056589 0.011811296 4284250409
0.0056046769 -0.014351411 0.0041611381 4282552618
0.0075390339 -0.014305394 0.0040381905 4282356013
0.0093111843 -0.013481247 0.003258111 4281833009
0.01091294 -0.011879062 0.0018214174 4281571888
0.013508476 -0.014944782 0.0043266565 4282093109
0.016125582 -0.018009894 0.0068305936 4283594803
0.0097501352 -0.01736911 0.004079381 4282487339
0.011195391 -0.014982198 0.0019899923 4282289459
0.013461165 -0.016496215 0.003177939 4282614838
0.013748549 -0.01961207 0.0033366643 4284443954
-0.037365071 -0.0026460737 -0.011117199 4284574513
0.0087147877 0.046899941 0.031934552 4278658258
0.011115126 0.044826631 0.033944532 4279182793
0.0034376904 0.043114524 0.033296272 4278990524
0.0047112852 0.045992088 0.030336952 4278529484
0.005962871 0.048869219 0.027379094 4280169644
0.0076848194 0.049621444 0.026549654 4280236709
0.0097347945 0.048957434 0.02713822 4279052998
0.01229874 0.046169516 0.029852411 4279775413
0.015401162 0.041258339 0.034690626 4279513529
-0.00057498366 0.042202618 0.031696394 4280695708
0.00056511909 0.045799892 0.028034134 4279252154
0.0023013279 0.046554442 0.027205264 4278989758
0.011575304 0.047485497 0.025895214 4278723794
0.014149547 0.044689205 0.028602341 4279251643
0.016395412 0.043313701 0.029894805 4279185598
0.019184992 0.039808426 0.033306122 4279250624
-0.0016724989 0.045661118 0.025616037 4279317434
6.1146915e-05 0.046417747 0.024788922 4279252919
0.0017891452 0.047174323 0.023962228 4279383478
0.0036700144 0.047218192 0.023842031 4279120318
0.01136072 0.046682041 0.02406737 4278791624
0.013415337 0.046014007 0.024652569 4278791114
0.015300281 0.04605845 0.024532469 4278922949
0.017184965 0.046102975 0.024412444 4279120318
0.020770542 0.046904307 0.023468101 4278329054
0.02339492 0.044100855 0.026165837 4279639753
0.03508231 0.022169344 0.047623821 4282987138
-0.003751412 0.04481652 0.023909071 4279838908
0.0012772828 0.04780763 0.020729071 4278528718
0.0031498671 0.047851343 0.020609429 4279645363
0.0050222501 0.047895137 0.02048987 4279646129
0.0068944022 0.047939021 0.020370388 4279120828
0.0092663318 0.045838971 0.0223628 4278858434
0.010976799 0.046597812 0.021539142 4279251898
0.013197944 0.045212943 0.022826737 4278988739
0.014905229 0.045971844 0.022003444 4278988738
0.016429245 0.047445107 0.020477304 4278791624
0.017761871 0.049632493 0.018248903 4278527698
0.019443899 0.050391067 0.017427361 4278921163
0.02186314 0.048292655 0.019417154 4278985934
0.024863809 0.044052284 0.023513598 4278982363
-0.005679965 0.043259334 0.022908906 4279383224
-0.004385829 0.046172205 0.019974148 4279250113
0.0027885064 0.047780823 0.018089632 4279054783
0.0048164874 0.047107559 0.018673105 4279056313
0.0066858158 0.04715142 0.018553836 4278990524
0.0087215081 0.046478491 0.019136941 4278990524
0.010762423 0.045805778 0.019719778 4279384499
0.012808569 0.045133281 0.020302342 4278727874
0.014510371 0.045894269 0.019481054 4279186619
0.019032829 0.050326329 0.014915893 4280694943
0.021446355 0.048221271 0.016901208 4280236199
0.023875929 0.046116728 0.018885529 4279119554
0.026703805 0.042580072 0.022270413 4278529229
0.041516423 0.016984329 0.046994433 4281545623
-0.0083185397 0.045300517 0.01839765 4278529485
-0.0065926164 0.046063382 0.017575802 4278924479
-0.004872337 0.046826217 0.016754312 4279054018
-0.0030075237 0.04686958 0.016635044 4279841969
-0.001295805 0.04763237 0.015814286 4280695199
0.0005658716 0.047675829 0.015695345 4278593234
0.0024273619 0.047719378 0.015576478 4279055293
0.0042886287 0.047762994 0.015457682 4279711409
0.005985871 0.048525777 0.014638105 4278727874
0.008177042 0.047131423 0.015921013 4279253173
0.010040365 0.047175352 0.015802281 4278859453
0.01241941 0.045062568 0.017784657 4279121338
0.013941035 0.046544518 0.016265225 4279186364
0.02627562 0.042500023 0.019748973 4278792643
0.038488857 0.018932447 0.042445645 4279514293
0.041467562 0.015388794 0.045813084 4282336889
-0.0095371008 0.04014584 0.020909218 4281286544
-0.0085043609 0.044520218 0.016584681 4278727363
-0.0032017305 0.046093587 0.014825944 4278398413
-0.0016456246 0.047580075 0.013307083 4278593999
0.0019081309 0.048388343 0.012370411 4279055293
0.0039221495 0.047710408 0.012951624 4279317435
0.0057776421 0.047754016 0.012833294 4278662594
0.007799387 0.047076482 0.013414104 4278728128
0.0098263621 0.04639915 0.013994642 4278793154
0.011686638 0.046443108 0.013876185 4278922948
0.013197407 0.047929216 0.012360724 4279383989
0.014874391 0.048694219 0.011544362 4279252154
0.020798914 0.047384832 0.012587182 4278331859
0.026611537 0.039546411 0.020024205 4279120828
0.039236903 0.014466222 0.044060521 4281615749
0.041822366 0.012352742 0.046025537 4283190374
-0.0093029328 0.037184965 0.021187315 4280365484
-0.0082644746 0.041572634 0.016872199 4279056314
-0.0066805072 0.043063905 0.015354626 4279514293
0.0017057136 0.047623467 0.010570241 4279185600
0.0037168264 0.046943363 0.011150004 4278988994
0.0055695027 0.046986934 0.011031879 4279054783
0.0075883567 0.046307135 0.01161132 4279185598
0.010954343 0.047841426 0.0099808741 4278526169
0.014297619 0.049375463 0.0083521642 4279121083
0.01632078 0.048696209 0.0089315809 4279381949
0.018531866 0.047294136 0.010207133 4279053508
0.020939074 0.045169394 0.012178335 4279119809
0.024115093 0.040153492 0.016932854 4279381949
0.036815301 0.014271125 0.041615456 4280698514
0.039984353 0.0099827573 0.045662642 4282863464
-0.0086518079 0.032036826 0.023551865 4280366249
-0.0073158257 0.034985621 0.020640401 4279974314
-0.0062909089 0.039386246 0.01633599 4278990778
-0.004857108 0.041608002 0.014124915 4279579573
-0.0035898536 0.044555496 0.01121806 4279513784
-0.0018864721 0.045324814 0.010402756 4279185343
-0.00034414977 0.046819892 0.0088914055 4279185600
0.0015033707 0.046863209 0.0087735038 4279054019
0.003672488 0.045455161 0.010048026 4278922438
0.0056886822 0.044773068 0.010625973 4279251898
0.0072110817 0.046268072 0.0091161039 4278922694
0.016095921 0.047937933 0.0071381442 4279316414
0.018486738 0.045806248 0.0091054458 4279119809
0.021449842 0.041499492 0.013155695 4278792643
0.025197804 0.034293275 0.01998171 4278727874
0.034404688 0.014085229 0.039176412 4279253174
0.037748046 0.0090583339 0.043909095 4281355394
-0.008279372 0.028323937 0.024508527 4281416849
-0.0067933388 0.030553348 0.022298822 4280629664
-0.0054683089 0.033510778 0.019394657 4280172449
-0.004312478 0.037196029 0.015796555 4279320749
-0.003034167 0.040152516 0.012895554 4279056824
-0.00147257 0.041652422 0.011386137 4279187894
7.7940524e-05 0.04315209 0.0098775215 4279514293
0.0019335449 0.043195639 0.0097591393 4279119554
0.0036281198 0.043967236 0.0089462493 4278988739
0.0053170323 0.044738736 0.0081338193 4279119809
0.008508876 0.047009308 0.0058162007 4280105383
0.010006353 0.048508305 0.0043113232 4280958359
0.012016036 0.04782429 0.0048882943 4280235944
0.013676591 0.048595537 0.0040779784 4279513528
0.016051047 0.046456818 0.0060414653 4278922693
0.018989399 0.042136375 0.010083482 4279381949
0.022701472 0.034907386 0.016895501 4278858689
0.03571064 0.0074114874 0.042851157 4281289603
0.038483851 0.0045510139 0.045494445 4282797673
-0.0080463216 0.025328856 0.024761314 4280826524
-0.0062713921 0.026103839 0.023944484 4280303008
-0.004790917 0.028339777 0.021740152 4280237474
-0.0034741089 0.031305872 0.018843094 4280106913
-0.0021793097 0.034271564 0.015947521 4279714213
-0.0007539317 0.03650656 0.013746884 4278730169
0.00081022829 0.038010966 0.012240682 4278664378
0.0022052377 0.04024541 0.010042109 4279054274
0.0037444755 0.041749407 0.0085376278 4279185343
0.0051091015 0.043983322 0.0063411314 4279185343
0.016365752 0.04351664 0.0063284058 4278988993
0.019674145 0.037724022 0.011743527 4279448249
0.033863842 0.0050354451 0.04248447 4279975334
0.036822207 0.0014366806 0.045812622 4282470509
-0.0079524294 0.023058049 0.024315165 4281483404
-0.0063164569 0.0245681 0.022807246 4280827798
-0.0045472234 0.025345258 0.021992495 4280303773
-0.0029306933 0.026855014 0.02048601 4280041124
-0.0014750585 0.029097196 0.01828826 4280172448
-3.5963953e-05 0.031339094 0.016091643 4280041378
0.001541838 0.032848217 0.014587838 4280238749
0.0027925819 0.035821933 0.011701804 4279583143
0.0040213391 0.038795229 0.0088172443 4279123889
0.0052280948 0.041768078 0.0059341434 4279579574
0.0065789968 0.044008303 0.0037435237 4279775668
0.0077444836 0.046980362 0.00086318515 4278856648
0.017039664 0.039104264 0.0079893097 4279185854
0.030883804 0.0070450865 0.037977524 4280107424
0.034768008 -0.0002232343 0.044746339 4282011254
-0.0089640915 0.016328335 0.02813659 4282994024
-0.0078587011 0.020783208 0.023865951 4280893079
-0.0063615553 0.023032639 0.021670217 4279844264
-0.004592374 0.02381203 0.020857124 4280500635
-0.0029758364 0.025326177 0.019353902 4279844264
-0.001520142 0.027574953 0.017161047 4279975588
0.000223957 0.028354045 0.016349779 4280172959
0.0016520247 0.030602347 0.01415881 4279976353
0.0029056519 0.033584911 0.011279117 4279976863
0.0044585615 0.035098039 0.0097803064 4279911329
0.0060003176 0.036611039 0.0082822386 4279188914
0.0073649436 0.038858179 0.0060956366 4279055548
0.0083753914 0.04257362 0.002531765 4279382204
0.0095299184 0.045554284 -0.00034128595 4279579064
0.011185154 0.046332028 -0.0011464143 4279119298
0.014073491 0.04197095 0.0028695557 4279579574
0.018431753 0.031738497 0.012391411 4279776179
0.031962276 0.0010524951 0.040928394 4281552508
-0.0074876137 0.017029911 0.024792628 4281285268
-0.0062651895 0.020760342 0.021222679 4279976099
-0.0044933483 0.021542009 0.020411065 4279780003
-0.0028740689 0.023060627 0.018910943 4280369818
-0.0012659058 0.024579115 0.017411554 4279975079
0.00033119321 0.026097409 0.015912991 4280369054
0.0017620698 0.028352365 0.013726743 4280237728
0.0034920797 0.029133543 0.012918169 4280172194
0.0050558895 0.030651338 0.011421937 4280567188
0.0066085905 0.032168984 0.0099264234 4280173468
0.0081501827 0.033686437 0.0084317513 4279976098
0.0091744661 0.037413176 0.0048751496 4279187638
0.010514222 0.039666522 0.0026951041 4279186619
0.012185775 0.040446829 0.0018906314 4279646384
0.015620634 0.033864237 0.0079569928 4280301988
0.029363796 0.0016104039 0.037808724 4282142323
-0.0060275532 0.017744631 0.021459842 4281483404
-0.0043944642 0.019267902 0.019961985 4281090194
-0.0029193386 0.02153014 0.017777624 4281417613
-0.0013111606 0.023053043 0.016281512 4281220498
0.00013363361 0.025314774 0.01409924 4280826779
0.0018719509 0.026098289 0.01329165 4280564893
0.003604643 0.026881736 0.012484537 4280500379
0.0054921806 0.026926301 0.012364315 4280762264
0.0068898425 0.029187299 0.010185327 4281090704
0.0086028427 0.029970609 0.0093796346 4281091469
0.010141522 0.031492464 0.0078884661 4280829329
0.011497691 0.033752795 0.0057122763 4279779238
0.013707884 0.032320082 0.0069652162 4279910563
0.01716654 0.025718432 0.013015483 4279779494
0.029684983 -0.0014617946 0.037997134 4282339183
-0.0025242046 0.017775875 0.01870163 4281615239
-0.0010573566 0.020044599 0.01652276 4281417613
0.00039293617 0.022313084 0.014344987 4280760988
0.0022916347 0.022357751 0.014223929 4280762264
0.0040324479 0.023143597 0.013417939 4280893589
0.0056071728 0.024670474 0.011927504 4281024404
0.0070076585 0.026938133 0.009753231 4281024914
0.0087233409 0.027723674 0.0089490563 4280762264
0.010433353 0.0285092 0.0081452597 4280697238
0.012480363 0.027813036 0.008710254 4280304028
0.014880672 0.025635708 0.010642875 4279976353
0.018711224 0.01753353 0.018045032 4280239258
0.00065196306 0.019302901 0.014584519 4282137733
0.0024010763 0.020091098 0.013779528 4280957848
0.00398691 0.02162252 0.012291633 4280892058
0.0054012984 0.023897029 0.010121249 4280958613
0.0069622248 0.025428027 0.0086350646 4280828054
0.0086778626 0.026215769 0.007832529 4280828054
0.01038783 0.027003523 0.0070303902 4280959379
0.012434676 0.026305202 0.0075937901 4280565913
0.0153566 0.021892607 0.011568686 4280435353
0.019371152 0.013023827 0.019634696 4280435353
0.004098922 0.019356236 0.011847291 4281548174
0.0056764185 0.020891935 0.010363257 4281286034
0.0072427988 0.022427522 0.0088799577 4281221519
0.0089638308 0.023217592 0.008078713 4281155729
0.01051075 0.024752848 0.0065968316 4280959379
0.012731306 0.023307335 0.0078393444 4280630683
0.016006008 0.017391566 0.013165718 4280237984
0.020030543 0.0084968582 0.021211656 4280236453
-0.0086479969 -0.0072582942 0.034307972 4279125674
0.0076860413 0.01867095 0.0097984187 4282400893
0.0092495158 0.020210944 0.0083186366 4281483913
0.010633498 0.02249812 0.0061602015 4281154964
0.012856528 0.021048322 0.0073993355 4280826524
0.01630716 0.014367905 0.013391741 4280892569
0.020336255 0.0054470971 0.021417988 4280237729
-0.0086946487 -0.0088530127 0.03312704 4278533309
0.010924421 0.019489706 0.0063983873 4281548174
0.013494782 0.016536608 0.0089893416 4280892823
0.016781807 0.010586277 0.014289031 4280760734
0.020994641 0.0008900892 0.022972712 4280695964
-0.014709942 -0.010585232 0.032328814 4278472619
-0.012847662 -0.0097866748 0.031522408 4278734758
-0.010860845 -0.0097408164 0.031395078 4279389344
-0.0091399066 -0.0081896186 0.029910898 4279387303
0.021123178 -0.0014293678 0.02248753 4283315069
-0.018497366 -0.013780946 0.032759219 4279259039
-0.015254691 -0.0091594551 0.028438671 4278531268
-0.011427619 -0.0083133131 0.027508004 4279258784
-0.0098503903 -0.0060032308 0.025350897 4279390874
-0.020771496 -0.013910117 0.030351156 4281159044
-0.019258127 -0.010835445 0.027518788 4278996644
-0.015674386 -0.0084731132 0.025237499 4279450289
-0.011863884 -0.0076251626 0.024309522 4278930599
-0.022920705 -0.014789529 0.028624045 4280111249
-0.021398935 -0.01170605 0.025797537 4278735013
-0.017934084 -0.008577887 0.022846384 4279650974
-0.016093716 -0.0077733621 0.022046184 4279717783
-0.014004484 -0.0084873885 0.022594405 4279390364
-0.012039892 -0.0084419996 0.022468535 4279781788
-0.023874599 -0.010286398 0.0220597 4278735269
-0.021909501 -0.010241549 0.021933386 4278800548
-0.025774054 -0.012668571 0.021692736 4279259039
-0.024373621 -0.0088039264 0.018207958 4279062689
-0.022419572 -0.0087593161 0.018082364 4279128223
-0.020346712 -0.0094784684 0.018628182 4278866083
-0.018390179 -0.0094335638 0.018502606 4278537898
-0.014350399 -0.010107074 0.018922476 4278603433
-0.027894821 -0.013522207 0.019982388 4279455388
-0.020986248 -0.0072148982 0.014119752 4279849873
-0.019165069 -0.0064043161 0.013325538 4280111503
-0.017100845 -0.007125577 0.013870485 4279784084
-0.015031308 -0.0078465976 0.014415108 4279456664
-0.02990463 -0.015139525 0.018944146 4279455389
-0.028371241 -0.012021219 0.016142569 4278995878
-0.025030129 -0.0080907177 0.012549145 4278665653
-0.020425275 -0.00027608871 0.0054965932 4282341478
-0.018140029 -0.0025362894 0.0073770732 4280768384
-0.015838556 -0.0047959853 0.009256538 4280047498
-0.030685067 -0.011317204 0.013108395 4278472874
-0.028847158 -0.010502515 0.012315948 4278405553
-0.027125362 -0.0089172199 0.010856953 4279783064
-0.025641121 -0.0057910625 0.0080652051 4280177294
-0.032777328 -0.01214522 0.011414837 4278603944
-0.031044465 -0.010555549 0.0099582002 4278472619
-0.035062857 -0.011417945 0.0083955675 4279128479
-0.033332668 -0.0098241083 0.0069422424 4279259549
-0.031613454 -0.0082304236 0.0054897685 4279062689
-0.032076895 -0.0066604465 0.001700148 4278734758
-0.039019287 -0.014599844 0.0063531287 4278996644
-0.03413507 -0.0074541699 2.9298477e-05 4278271679
-0.032749563 -0.0035139471 -0.0033980459 4281750900
-0.041270662 -0.013844482 0.0033519492 4279456154
-0.03953217 -0.012237784 0.0019075759 4278734248
-0.037708022 -0.011412971 0.0011237673 4279127458
-0.035790045 -0.011369878 0.00099997781 4279520669
-0.034586661 -0.0058550667 -0.0037396476 4280504459
-0.043328278 -0.014643576 0.0016770642 4279718549
-0.041769274 -0.01146442 -0.0010813875 4278735268
-0.038040876 -0.010594884 -0.0019866591 4278406828
-0.036429092 -0.0082002711 -0.0040838514 4279325339
-0.043636087 -0.013822485 -0.0014331657 4279653268
-0.04199411 -0.011421083 -0.0035276935 4278932383
-0.040180981 -0.010592284 -0.0043076463 4278342569
-0.043502178 -0.016930547 -0.0012561819 4279654033
-0.041854728 -0.014522457 -0.0033462616 4278342059
-0.04069227 -0.0081727244 -0.0087106843 4278997663
-0.039476998 -0.0026122145 -0.013417253 4281750898
-0.044952344 -0.023252739 0.0016552303 4282405229
-0.043280307 -0.020837683 -0.00043167081 4279718549
-0.041897453 -0.01605108 -0.0044784071 4279652759
-0.041015618 -0.0073123313 -0.01179038 4281620339
-0.043146931 -0.023964813 -0.00026881136 4280111758
-0.041667551 -0.019957818 -0.0036541745 4279652503
-0.040870629 -0.010402182 -0.011600843 4279849363
-0.043189965 -0.02551035 -0.0014134953 4279979923
-0.041710444 -0.021492451 -0.0047907718 4279914388
-0.040632341 -0.014295433 -0.010767275 4280505223
-0.041662578 -0.02382396 -0.0052783545 4280111504
-0.040487885 -0.017404366 -0.010591871 4281161084
-0.041886888 -0.023761684 -0.0077106343 4280045968
-0.040623903 -0.018124016 -0.012363832 4282144109
-0.042020321 -0.024491854 -0.0094906949 4280374154
0.0056177452 -0.0019733552 0.010858972 4285297694
0.013073772 -0.0041155871 0.0074133743 4285163563
0.023814343 -0.016965952 0.018217148 4284966704
0.02614858 -0.01845181 0.019420525 4285032493
-0.023332033 0.004312031 -0.00084597711 4285622564
-0.021441326 0.0043554436 -0.0009673154 4285950748
-0.019178193 0.0020881854 0.00090972148 4285884704
-0.017025746 0.00059161335 0.0021199081 4285163309
0.0235871 -0.017778005 0.016383952 4285098283
0.025737062 -0.018499348 0.016921801 4285753379
-0.025614284 0.0050732344 -0.0038402341 4285164073
-0.023969121 0.0066614971 -0.005290796 4286148118
-0.021970775 0.005932074 -0.0047465563 4286212889
-0.019718885 0.0036580656 -0.0028736973 4286081308
-0.01770445 0.0029292926 -0.0023303581 4286016538
-0.015555121 0.0014284067 -0.0011231238 4285163818
-0.027540173 0.0035236981 -0.0048349388 4285361444
-0.026121225 0.0066659413 -0.0076094363 4285754909
-0.024368364 0.0074835494 -0.008392809 4285688609
-0.022378407 0.0067517944 -0.007849697 4285557028
-0.020259071 0.0052456781 -0.0066439854 4285622818
-0.018255722 0.0045144297 -0.0061015114 4285688863
-0.016117569 0.0030089691 -0.0048968391 4285558048
-0.014233094 0.0030527152 -0.0050174212 4285493024
-0.01194391 0.00077344291 -0.003151428 4285295908
0.021345615 -0.020208992 0.013511671 4285492258
-0.027922735 0.0043486115 -0.0079362588 4285493024
-0.026164398 0.0051684156 -0.0087184412 4286083349
-0.024648704 0.0075420775 -0.010823394 4286017303
-0.022664391 0.0068079643 -0.010281501 4285688354
-0.02079875 0.0068509616 -0.010401112 4285688609
-0.018553074 0.0045638569 -0.008537475 4286017304
-0.016550068 0.0038305931 -0.0079965461 4285755163
-0.014673904 0.0038741603 -0.0081165861 4285624093
-0.012797873 0.0039178208 -0.0082365461 4285493024
-0.010784376 0.0031850785 -0.0076960055 4285361443
-0.0089059062 0.0032290053 -0.0078159655 4285033003
0.021121539 -0.021009339 0.011686916 4286081054
-0.031606559 0.0019845143 -0.0081449151 4285098793
-0.030060548 0.0043650083 -0.010247182 4285558559
-0.028417945 0.0059660599 -0.011688032 4285558814
-0.026670586 0.0067878067 -0.012467882 4285754653
-0.024928775 0.0076095164 -0.013247308 4286148883
-0.023071323 0.0076522008 -0.013366483 4286016794
-0.021090068 0.0069160387 -0.012825942 4286082329
-0.018976815 0.0054011531 -0.011626175 4286148118
-0.016982187 0.004665494 -0.011086345 4285689629
-0.015114319 0.0047088675 -0.011205852 4285624093
-0.0132466 0.0047523491 -0.011325271 4285624349
-0.011516545 0.0055745728 -0.01210336 4285689884
-0.0096518286 0.0056182034 -0.012222424 4286081818
-0.0077872351 0.0056619272 -0.012341407 4286146844
-0.0051942877 0.0018134266 -0.0091691054 4285949984
-0.0022774041 -0.0035911407 -0.0046823528 4285425448
0.019110076 -0.022630064 0.010646274 4286146333
-0.032187015 0.0043907985 -0.012552123 4285492768
-0.030434094 0.0052145906 -0.013330903 4285952024
-0.028686717 0.0060384087 -0.014109218 4285754909
-0.026829194 0.0060808435 -0.014228584 4285623073
-0.024971772 0.0061234199 -0.014347837 4285623073
-0.022993322 0.0053848997 -0.013808817 4285688864
-0.021133404 0.0054277554 -0.013928065 4285688864
-0.019147016 0.0046896301 -0.013389395 4285623584
-0.017413914 0.0055137873 -0.014166296 4285624093
-0.015554365 0.0055569634 -0.014285279 4285689884
-0.013694938 0.0056002624 -0.014404158 4285558049
-0.011835653 0.0056436434 -0.014522964 4285820699
-0.0099765025 0.0056871437 -0.014641672 4286213143
-0.008117497 0.0057307631 -0.014760282 4286147099
-0.00596736 0.0042131394 -0.013565544 4286147354
-0.0033613965 0.00035416335 -0.010402082 4285623584
-0.00087947398 -0.0027235281 -0.0078965835 4285098538
0.015907757 -0.018789992 0.0050203707 4285033769
-0.033987924 0.0020745471 -0.012878117 4285361444
-0.032444466 0.0044679716 -0.014970641 4286214418
-0.030697081 0.005293835 -0.015747435 4286278169
-0.028842326 0.005336117 -0.015866693 4286082583
-0.027218934 0.0069455728 -0.017299738 4285689118
-0.025133118 0.0054210164 -0.016104929 4285623583
-0.023278669 0.0054636262 -0.016223919 4285558559
-0.021176741 0.0039397143 -0.015030012 4285558559
-0.019317072 0.0039826743 -0.015149162 4285558559
-0.017586779 0.0048089586 -0.015924256 4285558558
-0.015730079 0.0048520677 -0.016043052 4285558303
-0.014142897 0.0064614899 -0.017473185 4285820699
-0.012291912 0.0065046921 -0.01759145 4285820443
-0.010300923 0.0057650171 -0.017054232 4285491493
-0.0084474906 0.0058085024 -0.017172487 4285425448
-0.0064486265 0.0050692447 -0.016635671 4285754654
-0.0044444799 0.0043302476 -0.016099092 4285689119
-0.0021329969 0.0020260364 -0.014253439 4285558303
0.00065585226 -0.0026255697 -0.010445293 4285492513
0.0041030273 -0.010406576 -0.0040218513 4285229608
0.0074452758 -0.017403681 0.0017440896 4285097774
-0.03610003 0.0021122769 -0.015175354 4285164838
-0.034553736 0.0045121908 -0.01726329 4285755674
-0.032809068 0.0053400509 -0.018038377 4285951513
-0.030959819 0.0053820945 -0.018157363 4286017049
-0.028997816 0.0046384931 -0.017620783 4286083093
-0.027261589 0.0054665171 -0.018395063 4285885979
-0.025294345 0.0047232695 -0.017858647 4285623583
-0.023442756 0.004765816 -0.017977446 4285558303
-0.021343812 0.0032374375 -0.016786544 4285558558
-0.019234098 0.0017094705 -0.015596283 4285558559
-0.017630327 0.0033233501 -0.017024375 4285558558
-0.015905671 0.0041517988 -0.017797403 4285558304
-0.014455836 0.0065507479 -0.01987822 4285820699
-0.012610428 0.0065938309 -0.019996122 4286017814
-0.010905221 0.0074221231 -0.020767683 4285819933
-0.0089200139 0.0066802986 -0.020231664 4285754143
-0.0070750229 0.0067236871 -0.020349309 4285951769
-0.0047854781 0.0044123232 -0.018507184 4286083603
-0.002630733 0.0028863698 -0.017319089 4285623328
0.00045680255 -0.0033481438 -0.012214309 4285623328
0.0040568709 -0.01193574 -0.0051541198 4285426723
0.0077166334 -0.020521866 0.0019023847 4286345744
-0.038299941 0.0029476024 -0.018121306 4285033258
-0.036549762 0.0037775338 -0.018895304 4285690139
-0.035014316 0.0061836876 -0.02097765 4285755419
-0.033065956 0.0054373629 -0.020441983 4285623073
-0.031332351 0.0062672608 -0.02121466 4285491239
-0.029265944 0.0047333799 -0.020025272 4285688864
-0.02741975 0.0047755875 -0.020143893 4285820188
-0.025573649 0.0048178919 -0.020262424 4285623583
-0.023727652 0.0048603229 -0.020380862 4285558303
-0.021758098 0.0041151829 -0.019846033 4285624348
-0.019783206 0.0033702813 -0.019311469 4285624349
-0.018061224 0.0042007267 -0.020082792 4285558558
-0.01621297 0.0042436458 -0.020201046 4285558048
-0.0144994 0.0050741136 -0.020971671 4285623584
-0.012791406 0.005904559 -0.021741861 4286149139
-0.010948982 0.0059476756 -0.021859497 4286083093
-0.0091066882 0.0059908964 -0.021977045 4286082584
-0.0072645545 0.0060342215 -0.022094499 4286214163
-0.0051262304 0.0045034103 -0.020908674 4285754653
-0.0026753843 0.0013988242 -0.018420558 4285492258
0.00056509674 -0.0056400895 -0.012677409 4285492259
0.0041670427 -0.01425157 -0.0056351181 4286212634
-0.039904628 -0.00094623864 -0.017138468 4285098028
-0.038539976 0.0030477066 -0.020524206 4285426978
-0.036795326 0.0038796961 -0.021296225 4285624349
-0.035265297 0.0062922984 -0.023373412 4286083349
-0.033644412 0.0079143755 -0.024796806 4285885469
-0.031814508 0.0079559647 -0.024914559 4285885213
-0.029646546 0.0056273602 -0.023075443 4285951258
-0.027577773 0.00408924 -0.021889325 4285886234
-0.02573454 0.0041314848 -0.02200767 4285689373
-0.023891408 0.0041738488 -0.022125922 4285690139
-0.021924779 0.0034264717 -0.02159252 4285689628
-0.020079143 0.0034691282 -0.021710757 4285689118
-0.018362675 0.0043016113 -0.022480123 4285754654
-0.016519997 0.0043444075 -0.022598013 4285688864
-0.01467745 0.0043873116 -0.022715818 4285623074
-0.012835022 0.0044303201 -0.022833532 4285689373
-0.011132672 0.005262915 -0.023601666 4285820699
-0.0091505758 0.0045166612 -0.023068689 4285952023
-0.0073085651 0.0045599826 -0.023186136 4285820953
-0.0047261864 0.00065691024 -0.020053517 4285754654
-0.00196594 -0.0040346254 -0.016272712 4285492259
0.0015945286 -0.012671183 -0.0092456052 4285556774
-0.03848264 0.000778988 -0.020965913 4285557794
-0.036837116 0.002405744 -0.022387831 4285558049
-0.035516016 0.0064098351 -0.025762497 4285819934
