# .PCD v0.7 - Point Cloud Data file format
VERSION 0.7
FIELDS x y z rgba
SIZE 4 4 4 4
TYPE F F F U
COUNT 1 1 1 1
WIDTH 964
HEIGHT 1
VIEWPOINT 0 0 0 1 0 0 0
POINTS 964
DATA ascii
0.02761323 0.018202847 -0.0039939643 4289603878
0.029462345 0.018240688 -0.0040886109 4288950568
0.031500764 0.017509384 -0.0035195653 4289866018
0.033159941 0.018316587 -0.004277701 4289996833
0.035008401 0.018354615 -0.0043721613 4288884778
0.036659025 0.019161722 -0.0051297289 4289015594
0.039506093 0.015355056 -0.001908733 4289211688
0.042786241 0.010011198 0.0026367628 4289342248
-0.015474219 -0.019013528 0.027361017 4288758554
-0.013845667 -0.016657243 0.025260642 4289148449
-0.0062094368 -0.0033336207 0.013442632 4287837748
-0.0045530647 -0.0017511304 0.012013063 4288362029
-0.002772741 -0.00094124302 0.011248956 4287903283
-0.00099804252 -0.00013135001 0.010485226 4288099633
0.0004901439 0.0022232402 0.0083928369 4287837493
0.0019618347 0.0045775771 0.0063014259 4287575864
0.0034170076 0.0069317315 0.0042109019 4286855999
0.023161381 0.019731162 -0.0075527169 4288622639
0.024999961 0.01976865 -0.0076469257 4289866273
0.027022302 0.019034753 -0.0070788157 4288753709
0.029049896 0.018301034 -0.0065109194 4288819499
0.031082697 0.017567502 -0.0059432336 4289538854
0.032736443 0.018376714 -0.0066994396 4290651163
0.034384534 0.019185899 -0.0074552936 4290454813
0.036224544 0.019223819 -0.007549277 4289866018
0.038865522 0.016177284 -0.0049974774 4290193184
0.041730992 0.012360202 -0.0017854404 4290258464
0.044417702 0.0093147215 0.0007641078 4289211688
0.046917476 0.0070407372 0.0026515522 4289146663
-0.037008025 -0.023329284 0.029327918 4287446833
-0.035366043 -0.020190366 0.026560411 4288951588
-0.033657365 -0.017827213 0.024459738 4289213729
-0.031691156 -0.01779067 0.024356354 4288690468
-0.017599195 -0.019856676 0.025628813 4289217554
-0.015625652 -0.019819003 0.025525782 4290130199
-0.013999823 -0.017456183 0.023430362 4289474339
-0.012034714 -0.017418429 0.023327952 4289539364
-0.010312378 -0.015830792 0.021897901 4288295728
-0.0062475167 -0.004870519 0.012304058 4287904304
-0.0045911781 -0.0032836497 0.010877743 4287969073
-0.0028109401 -0.0024715774 0.010115264 4287969073
-0.0010363162 -0.0016594939 0.0093531664 4287969329
0.00073268265 -0.00084742531 0.0085914284 4288164913
0.0022098571 0.0015136003 0.0065045455 4288034608
0.0039621741 0.0023255404 0.0057438225 4287838768
0.0054117739 0.0046862382 0.0036585261 4287576883
0.0068448558 0.007046653 0.0015741945 4287182144
0.021284118 0.018220192 -0.0085499529 4288949294
0.022944324 0.019031418 -0.0093051661 4289473574
0.024417676 0.020616239 -0.01072078 4289407784
0.026247792 0.020653652 -0.010814486 4289146408
0.028264359 0.019917523 -0.010247648 4288622893
0.030475512 0.018408028 -0.0090206079 4289146408
0.032505237 0.017672313 -0.0084543396 4289211944
0.034345388 0.017710211 -0.0085483491 4289996833
0.036185309 0.017748153 -0.0086423103 4290258463
0.038425483 0.016239559 -0.007416599 4290323999
0.040879279 0.013957961 -0.0055316836 4289211943
0.043143466 0.01244997 -0.0043071182 4288885034
0.045001544 0.012488535 -0.0044018244 4289015338
0.047492713 0.010207864 -0.0025186979 4289343269
0.050213739 0.0071545746 2.2774562e-05 4289016614
-0.037377149 -0.02180491 0.025495153 4288427054
-0.035574395 -0.020212973 0.024062958 4290455578
-0.033782631 -0.018621074 0.022631388 4290717464
-0.031819303 -0.01858457 0.022528166 4290325018
-0.029762067 -0.019325532 0.023088712 4289803799
-0.027892917 -0.018511174 0.022322029 4288561949
-0.017747656 -0.020657469 0.023796856 4290001423
-0.016003162 -0.019065337 0.022368595 4290129689
-0.014153861 -0.01825054 0.021603554 4290325018
-0.012073103 -0.018989939 0.0221637 4290978838
-0.010229547 -0.018175002 0.021399144 4290193438
-0.0088874996 -0.014251955 0.017986491 4288295474
-0.0062856041 -0.0064071305 0.011165699 4287970349
-0.0046292841 -0.0048159175 0.0097426102 4287839023
-0.0028491244 -0.0040016435 0.008981768 4288165934
-0.00093698502 -0.003964141 0.0088826884 4288296749
0.00083467364 -0.0031498261 0.0081224442 4288100144
0.002457656 -0.0015588645 0.006701455 4288165934
0.0040695816 3.1996518e-05 0.0052810539 4287773489
0.0056704357 0.0016227011 0.003861343 4288166189
0.0072602108 0.0032133404 0.0024422468 4287772468
0.020894222 0.0182989 -0.010960206 4290062114
0.022548944 0.019112146 -0.011713479 4289081384
0.024379179 0.019149488 -0.011807242 4290389024
0.026209213 0.019186897 -0.011900945 4290520349
0.028039046 0.019224355 -0.011994598 4290258463
0.030057952 0.018486211 -0.011429414 4289604389
0.032274157 0.016972506 -0.010205833 4289146408
0.034306236 0.016234761 -0.0096412282 4289277478
0.036540993 0.014721638 -0.0084185228 4289081384
0.038386077 0.014759755 -0.0085126972 4288950058
0.040636718 0.013247037 -0.0072906679 4288884779
0.042486779 0.013285385 -0.0073850015 4289211688
0.044128284 0.014099156 -0.0081370855 4289146409
0.046186261 0.013362231 -0.0075735161 4289211688
0.048035681 0.013400735 -0.0076676905 4290389279
0.05075077 0.010338655 -0.005132352 4290389024
-0.039388001 -0.023419039 0.024430189 4288819498
-0.037745867 -0.020262804 0.021675529 4289147174
-0.035954081 -0.018666718 0.020247143 4289735969
-0.033996284 -0.018630443 0.020144116 4290063134
-0.031947348 -0.019373849 0.020703401 4291044628
-0.0297991 -0.020896792 0.021924559 4289605409
-0.027833384 -0.020859983 0.021821406 4290260249
-0.026066557 -0.019263726 0.020394802 4290130198
-0.022146516 -0.019189712 0.020189546 4288626719
-0.019863922 -0.021491095 0.022071138 4289934103
-0.018006317 -0.020674128 0.021307083 4289998618
-0.016154278 -0.019857189 0.020543452 4290063133
-0.014307812 -0.019040238 0.019780198 4289539874
-0.012229975 -0.019781891 0.020338865 4289604899
-0.010510426 -0.018185582 0.018915441 4289343524
-0.0091737136 -0.01425174 0.015511155 4289082914
-0.0028873309 -0.00553146 0.0078484621 4288101674
-0.00097530335 -0.0054939464 0.0077493959 4287970094
0.00093653798 -0.0054563172 0.007650428 4288231469
0.0024192408 -0.0030821282 0.0055730273 4288100144
0.0040311441 -0.0014869105 0.0041558598 4288034608
0.0054835379 0.0008869376 0.002080143 4288165423
0.0072217658 0.0017031543 0.00132353 4288230958
0.0086465925 0.004076587 -0.00075058918 4288035118
0.010054894 0.0064498279 -0.002823831 4287772724
0.0109687 0.011158319 -0.0068721371 4286854468
0.017018922 0.017534027 -0.012518106 4288359478
0.019022584 0.016792925 -0.011954108 4289145388
0.020680211 0.017608317 -0.012705982 4290127393
0.022510551 0.017645603 -0.012799796 4289342504
0.024340682 0.01768293 -0.012893563 4290127648
0.026354447 0.01694235 -0.012329847 4290585629
0.028000362 0.017757827 -0.013080884 4290781979
0.030208386 0.016239597 -0.011860194 4290062113
0.032235131 0.015499441 -0.01129695 4289015594
0.034656443 0.013203962 -0.0094202561 4289342503
0.036699049 0.012464328 -0.0088577494 4289081129
0.038546756 0.012502497 -0.0089520635 4289146408
0.040394261 0.012540726 -0.0090463134 4288950058
0.042035982 0.013356583 -0.009796788 4288950058
0.043880336 0.013394868 -0.0098907892 4289538853
0.045724474 0.013433216 -0.009984727 4290192928
0.047354676 0.014248969 -0.010734516 4289146409
0.049628496 0.012732701 -0.0095167384 4289146408
0.051912971 0.011216646 -0.0082994336 4289734694
0.055539154 0.0050375517 -0.0031497979 4290454814
-0.04147613 -0.024250509 0.02270421 4288753963
-0.039745446 -0.021867739 0.020616643 4289408549
-0.038031191 -0.019485129 0.018530052 4288623403
-0.036247633 -0.01788483 0.017105337 4288950569
-0.034209736 -0.01863075 0.017663486 4288885289
-0.031984121 -0.020940471 0.019542672 4289277734
-0.029648334 -0.024031704 0.022081545 4290128158
-0.027773935 -0.023212899 0.021317814 4289605154
-0.026004445 -0.021612203 0.019894253 4290456343
-0.02424594 -0.020011606 0.018471427 4290064408
-0.022079259 -0.021538075 0.01968874 4290064663
-0.020116828 -0.021500833 0.019586127 4289933594
-0.018044259 -0.022245092 0.020143209 4289670943
-0.016192321 -0.021425975 0.019381199 4290521114
-0.014230244 -0.021388382 0.019278871 4290586393
-0.012386728 -0.0205692 0.018517472 4288361773
-0.010791101 -0.018187109 0.016438365 4289213474
-0.0094597153 -0.014242485 0.013042439 4289018398
-0.0012886375 -0.0054612681 0.0052999626 4287840299
0.00061765313 -0.00542376 0.0052012741 4288231469
0.0023808181 -0.0046051405 0.0044447868 4287969839
0.0039926991 -0.0030055437 0.0030308724 4288231214
0.0058903098 -0.0029678885 0.0029328675 4288296493
0.0074855238 -0.0013684686 0.0015200055 4288296493
0.0092235059 -0.00054992177 0.00076506287 4288231469
0.010642745 0.0018300302 -0.0013038465 4287838514
0.01156766 0.0065518077 -0.005343026 4287772724
0.012459725 0.011273054 -0.0093804924 4287640634
0.015149988 0.016030649 -0.013510261 4288031294
0.016980819 0.016067693 -0.013604287 4289210923
0.018811457 0.016104812 -0.013698243 4289669669
0.020641893 0.016142013 -0.013792126 4289735203
0.022293836 0.016959557 -0.014542028 4289408038
0.024302199 0.016216623 -0.013979698 4288884779
0.026315801 0.015473863 -0.01341759 4288819243
0.027961686 0.016291516 -0.014167007 4290192928
0.029791132 0.016329071 -0.01426056 4289931298
0.03181228 0.015586657 -0.013698695 4289342759
0.034227915 0.013284499 -0.011826512 4289211688
0.0364623 0.011762654 -0.010610255 4289407783
0.038107164 0.012580624 -0.011359369 4289276968
0.040151931 0.011838963 -0.010798513 4289146409
0.041379929 0.014216373 -0.012856615 4289276968
0.043424278 0.013474839 -0.012295639 4289211688
0.044841066 0.015072336 -0.013698157 4290520093
0.046674035 0.015110491 -0.0137915 4289342759
0.048723206 0.014369136 -0.013230635 4289146409
0.051215678 0.012069093 -0.011362051 4288949803
0.053724281 0.0097693931 -0.0094942097 4289603879
-0.043707956 -0.023508141 0.019661723 4288688684
-0.041822255 -0.022687856 0.01889834 4289080873
-0.040102486 -0.020298734 0.016816217 4289474084
-0.038399138 -0.01790984 0.014735088 4290128159
-0.036626551 -0.016305346 0.013314143 4289473573
-0.034511369 -0.017837916 0.01453042 4289473828
-0.032203127 -0.020938437 0.017064149 4290389788
-0.03006085 -0.022470232 0.018279206 4290455833
-0.028100889 -0.022433538 0.018176351 4289605409
-0.02633962 -0.020828631 0.016756462 4289670943
-0.024385307 -0.020791773 0.016654102 4289670689
-0.022431098 -0.02075481 0.016551828 4289736224
-0.020262044 -0.022285497 0.017765928 4289343269
-0.018082209 -0.023815816 0.018979512 4289343269
-0.016230363 -0.022994526 0.018219125 4290128159
-0.01438408 -0.022173211 0.017459124 4290978583
-0.012661759 -0.020568188 0.016041907 4290848534
-0.011071559 -0.01817972 0.013967972 4290588433
0.0023424029 -0.0061279126 0.0033167233 4287840299
0.0040998757 -0.0053070728 0.002562189 4288231469
0.0058517531 -0.0044862982 0.0018080552 4288100654
0.0074469596 -0.0028825197 0.00039842678 4288165679
0.0091848597 -0.002061775 -0.00035487721 4288231469
0.010760665 -0.00045820884 -0.0017633745 4288165934
0.012166172 0.001928132 -0.0038267039 4288230958
0.013069354 0.0066626426 -0.0078549869 4287969329
0.014269017 0.0098310914 -0.010571207 4288230959
0.015446737 0.012999168 -0.013286249 4288427054
0.017112806 0.013818962 -0.014035417 4288885034
0.018773243 0.014638701 -0.01478425 4289211688
0.020428054 0.015458426 -0.015532723 4289996833
0.022077233 0.016278146 -0.016280899 4290127393
0.023901746 0.016315376 -0.016374366 4289604133
0.025726072 0.016352674 -0.016467772 4289473574
0.027550176 0.016390061 -0.016561097 4289734949
0.029752389 0.014862949 -0.01534654 4290127139
0.031581543 0.014900571 -0.015440024 4289407528
0.033994205 0.0125918 -0.013572552 4289473064
0.035831101 0.01262969 -0.013666352 4289211178
0.037667789 0.012667662 -0.013760079 4289211689
0.039301544 0.013487672 -0.014507014 4289211433
0.04113511 0.013525685 -0.014600502 4289146408
0.042968459 0.013563735 -0.014693946 4289146408
0.044590734 0.014383642 -0.015440123 4290389279
0.046207361 0.015203485 -0.016185973 4290454814
0.048034661 0.015241565 -0.016278995 4290258464
0.050080746 0.014498061 -0.015719594 4289408038
0.052575529 0.012191536 -0.013855903 4289277224
0.055984154 0.0067593437 -0.009384593 4289669158
-0.043818526 -0.024289742 0.017841499 4287838004
-0.042013101 -0.022680683 0.016421763 4288558379
-0.040459119 -0.018712036 0.013028897 4289343013
-0.038600914 -0.017889794 0.012268793 4290324509
-0.036748216 -0.01706754 0.011509065 4290586139
-0.034547675 -0.019390926 0.013379768 4290389788
-0.032421924 -0.020927474 0.014592316 4290782744
-0.030379146 -0.02167739 0.015147176 4289539873
-0.028524041 -0.020854592 0.01438769 4289081893
-0.026575238 -0.020817963 0.014285527 4289212453
-0.024728492 -0.019995073 0.013526665 4289735969
-0.022677917 -0.02074435 0.014081482 4289604899
-0.020729419 -0.020707367 0.013979599 4289408548
-0.018450581 -0.023028284 0.015846942 4289408548
-0.016607009 -0.022204924 0.015088562 4289931808
-0.014653407 -0.022167467 0.014986694 4289735714
-0.012818255 -0.021344088 0.014228966 4290128414
-0.011109725 -0.019734904 0.012815829 4289933594
0.004061386 -0.0068274084 0.0014359416 4287970603
0.0058132038 -0.0060044657 0.00068341801 4288166443
0.0075593889 -0.0051815175 -6.8724155e-05 4288100654
0.0094536841 -0.0051437411 -0.00016641989 4288100654
0.011034906 -0.0035356395 -0.0015719836 4288231214
0.012445912 -0.0011426937 -0.0036306975 4288231214
0.013678536 0.0020350274 -0.0063422238 4288165423
0.015053809 0.004427474 -0.0083990116 4287969328
0.016077921 0.0083894189 -0.011761678 4288623403
0.017584786 0.0099964086 -0.013163061 4288753963
0.018735044 0.013172818 -0.015870089 4288427054
0.020214319 0.014779447 -0.01726998 4288753964
0.021682538 0.016385896 -0.018669195 4289996834
0.023682445 0.015638439 -0.018109662 4290454814
0.025503963 0.015675662 -0.018202936 4290454814
0.02732528 0.015712982 -0.018296126 4290585118
0.029146388 0.015750354 -0.018389264 4290061858
0.031350911 0.014219021 -0.017177995 4289015084
0.033177063 0.014256639 -0.017271286 4288949804
0.035003036 0.01429431 -0.017364521 4289015083
0.036428876 0.015900491 -0.018761197 4289015084
0.038248986 0.015938146 -0.018854059 4289015594
0.040274262 0.015191784 -0.018295396 4289342503
0.042512886 0.013661521 -0.017085599 4289146409
0.044129729 0.014483472 -0.017829897 4289669669
0.045740917 0.015305405 -0.018573906 4290389279
0.047562711 0.015343389 -0.018666634 4290258464
0.049822226 0.013813747 -0.017457765 4289996579
0.052757405 0.0099331308 -0.014297526 4290062114
0.056392662 0.0037019998 -0.0091871256 4289342249
-0.043705013 -0.027433207 0.01799453 4287641654
-0.04212635 -0.023453344 0.014608355 4287838259
-0.040494896 -0.020262595 0.011880029 4288819498
-0.038719635 -0.018649496 0.01046537 4289211944
-0.036784206 -0.018613748 0.010363439 4289473828
-0.034672268 -0.020155039 0.011573384 4289343269
-0.032549504 -0.02169602 0.012782916 4289474594
-0.030603401 -0.0216597 0.0126807 4289409059
-0.028753843 -0.020834835 0.011923118 4289539873
-0.026909839 -0.0200099 0.011165882 4289735969
-0.024867535 -0.020761667 0.011719473 4290716953
-0.022819884 -0.021513173 0.012272829 4290716953
-0.020766888 -0.022264477 0.012825979 4291043863
-0.018708553 -0.023015531 0.013378963 4290782233
-0.016870528 -0.022190152 0.012622528 4289670179
-0.014922511 -0.022152817 0.012520937 4289800738
-0.013092905 -0.021327345 0.01176513 4289735713
-0.011389859 -0.019713879 0.010355461 4288493865
0.0073698312 -0.0059098955 -0.0018441891 4287905324
0.0092612803 -0.0058721583 -0.0019417233 4287904813
0.010996163 -0.0050470158 -0.0026915625 4288362029
0.01272545 -0.0042219572 -0.0034410185 4288362029
0.014287278 -0.0026097726 -0.0048421863 4288165679
0.015508935 0.00057652406 -0.0075466158 4288230958
0.016708657 0.0037624706 -0.01024985 4288492589
0.018056415 0.0061610769 -0.01230024 4288688429
0.01938767 0.0085593816 -0.014349686 4288492078
0.020702422 0.010957474 -0.016398262 4288688173
0.02200067 0.013355305 -0.018445941 4288361264
0.023825012 0.013392517 -0.018539408 4288688429
0.025465563 0.014216525 -0.019283753 4289342504
0.02728679 0.014253838 -0.019376939 4289342759
0.029296838 0.013504615 -0.018819395 4289865764
0.031120405 0.013542106 -0.018912608 4289407784
0.033138223 0.012793122 -0.018355323 4289211433
0.034569755 0.014403699 -0.019749112 4289146154
0.035990223 0.016014056 -0.021142256 4290323488
0.037602231 0.016837923 -0.021884814 4290520093
0.039824553 0.015302954 -0.020677499 4290258463
0.041849509 0.014554461 -0.020120403 4290258463
0.04387971 0.013806118 -0.019563541 4289342504
0.045488186 0.014630122 -0.020305758 4289080874
0.047523409 0.013881987 -0.019749075 4289015338
0.050001636 0.011561995 -0.017894283 4288949803
0.053382419 0.0060986485 -0.013444183 4288884014
-0.043666303 -0.029794145 0.017486358 4287183419
-0.042084835 -0.025803296 0.014108079 4287445303
-0.040450606 -0.022603834 0.011386111 4287773234
-0.038755462 -0.020195451 0.0093199238 4288819753
-0.036820188 -0.020159705 0.0092180017 4289081128
-0.034708515 -0.021705331 0.010424744 4289212199
-0.032676972 -0.022459982 0.010976911 4289408804
-0.030733749 -0.022423701 0.010874856 4289343268
-0.028983444 -0.020806052 0.009465158 4289474339
-0.027045846 -0.020769656 0.0093635656 4289997343
-0.025210198 -0.019942619 0.0086085182 4289538853
-0.023170933 -0.02069645 0.0091607049 4289539109
-0.021233629 -0.020659687 0.0090594031 4290454813
-0.019186396 -0.021413138 0.0096113421 4290978583
-0.017359354 -0.020585787 0.0088571012 4289408548
-0.015422393 -0.020548645 0.0087561011 4289539364
-0.01336734 -0.021301601 0.0093078893 4289147174
-0.011427905 -0.021264203 0.009206919 4288166443
0.0092225894 -0.007385483 -0.0030627546 4287775019
0.011113763 -0.0073476788 -0.0031602203 4287970349
0.012845695 -0.0065203384 -0.0039082319 4288362029
0.014248483 -0.0041144099 -0.0059567611 4288231469
0.015634738 -0.001708664 -0.0080044065 4288492843
0.017004527 0.00069675408 -0.010051124 4288362028
0.018697657 0.0015236624 -0.01079688 4288427053
0.020039856 0.0039287265 -0.01284203 4288623403
0.021365553 0.0063335579 -0.014886329 4288688429
0.022318579 0.010316143 -0.018228957 4288622894
0.023786642 0.011931406 -0.019621694 4288557614
0.02542717 0.012757583 -0.02036443 4288557614
0.027062066 0.013583725 -0.021106811 4289146409
0.02906926 0.012832252 -0.020550748 4289277224
0.030890033 0.012869677 -0.020643821 4289211689
0.032710582 0.012907172 -0.02073683 4289473319
0.034136735 0.014521936 -0.022127077 4289931298
0.035751626 0.015347978 -0.022868209 4289996579
0.037766002 0.014596967 -0.022312278 4289735204
0.039580345 0.01463457 -0.022404796 4290520093
0.041602477 0.01388382 -0.021849182 4290650908
0.04341913 0.013921572 -0.021941744 4290192928
0.045235589 0.013959361 -0.022034258 4288950058
0.047700219 0.011632515 -0.020183656 4288949803
0.05083745 0.0069415551 -0.016391236 4288949548
0.054671735 -0.0001130309 -0.01065819 4288753199
-0.043627691 -0.032159105 0.016975133 4286921534
-0.041966114 -0.028950511 0.014258057 4287248954
-0.040166378 -0.027328366 0.012848414 4287445813
-0.038460337 -0.024913304 0.010786535 4287642164
-0.036599785 -0.024084369 0.010031246 4288165678
-0.034656562 -0.024048351 0.0099289976 4288688684
-0.032804336 -0.023219274 0.0091742892 4289212198
-0.030957628 -0.022390211 0.0084200129 4289343268
-0.029116459 -0.021561161 0.0076660938 4289670433
-0.027280822 -0.020732064 0.0069125765 4290717209
-0.025348924 -0.020695625 0.0068113939 4289342758
-0.023417119 -0.02065908 0.006710296 4288623148
-0.021378152 -0.021414975 0.0072609694 4289212199
-0.019553814 -0.020585623 0.0065083927 4290062623
-0.017622329 -0.020548724 0.006407578 4289997343
-0.015806396 -0.019719232 0.0056555863 4289539618
-0.013759706 -0.020474574 0.0062062345 4289212453
-0.011949472 -0.019644966 0.0054547074 4288886054
0.010762416 -0.0072774962 -0.0055793612 4287904304
0.012488857 -0.0064481329 -0.0063254316 4288297258
0.014371403 -0.0064103249 -0.0064223222 4288296749
0.015760459 -0.0039980095 -0.0084652733 4288362029
0.01746732 -0.0031687897 -0.0092101498 4288623403
0.019168563 -0.0023395829 -0.0099546649 4288427053
0.020691603 -0.00071913935 -0.011347127 4288558124
0.022028238 0.0016924683 -0.013387125 4288623149
0.023170367 0.0048949663 -0.016074246 4288819244
0.024290532 0.008097088 -0.018760189 4288688684
0.025755733 0.0097166579 -0.020149464 4288492333
0.027209841 0.01133615 -0.021538133 4288426798
0.029030718 0.011373503 -0.021631265 4289146409
0.03065978 0.012201799 -0.022371665 4289342503
0.032477535 0.012239231 -0.022464532 4289342759
0.034098059 0.013067519 -0.023204371 4290520093
0.035912722 0.013104992 -0.023297004 4289277224
0.037727192 0.013142524 -0.023389582 4288950058
0.039541468 0.013180098 -0.023482114 4289342503
0.04135555 0.013217745 -0.023574581 4289866019
0.043169439 0.013255415 -0.023667013 4289277224
0.045409821 0.011712248 -0.022466991 4289277223
0.048309073 0.0077981185 -0.019329252 4289080874
0.05189161 0.0015135314 -0.014255043 4288819244
-0.045562502 -0.034564119 0.016565161 4286462788
-0.043589167 -0.034528181 0.016460855 4286986558
-0.041770354 -0.032901514 0.015053378 4287445048
-0.040042464 -0.030479582 0.012995075 4287380279
-0.038248297 -0.028853059 0.011589054 4287380533
-0.036379673 -0.028021803 0.010834951 4287576628
-0.034428436 -0.027985632 0.010732286 4287904048
-0.032840729 -0.024769055 0.0080260392 4287904048
-0.031181294 -0.022347813 0.0059718429 4288427053
-0.02944199 -0.02072167 0.0045691798 4289343014
-0.027416565 -0.021480365 0.0051186732 4289604643
-0.025589295 -0.020649154 0.0043672812 4290651164
-0.023767572 -0.019817911 0.0036162823 4290520093
-0.021844193 -0.019781381 0.0035157311 4289997344
-0.019920915 -0.019744759 0.0034152572 4290782233
-0.017997749 -0.019708019 0.0033148774 4289605154
-0.016190071 -0.018876567 0.0025649653 4289801248
-0.014269866 -0.01883965 0.0024649124 4289408803
-0.012349777 -0.018802628 0.0023649461 4289670688
-0.010676932 -0.017176557 0.00096664252 4289737244
-0.0088888258 -0.016345032 0.00021808455 4289411099
0.014009252 -0.0063293371 -0.0088326465 4288559908
0.015721679 -0.0054978523 -0.0095762862 4288559144
0.017762706 -0.0062536616 -0.0090256119 4288623659
0.019299515 -0.004628621 -0.010415651 4288688939
0.020825274 -0.003003763 -0.011805017 4288557613
0.021989472 0.00020781159 -0.014486864 4288361519
0.023309693 0.0026256628 -0.016521137 4288819243
0.024613425 0.00504319 -0.018554481 4288557613
0.026084065 0.0066672806 -0.019940833 4288558124
0.027357511 0.0090844017 -0.021972539 4288819499
0.028992176 0.0099149253 -0.022711657 4288884779
0.030429661 0.011538481 -0.024096129 4288492334
0.032050349 0.012368852 -0.024834434 4288950314
0.033468425 0.013992185 -0.026217857 4290193439
0.03507515 0.014822384 -0.026955362 4290455069
0.03728354 0.013273997 -0.025757089 4289931553
0.039092317 0.013311451 -0.025849346 4289342759
0.041108772 0.012556164 -0.025296651 4289473318
0.043341033 0.011008425 -0.02409948 4289800483
0.046010531 0.0078756381 -0.021613615 4289146408
0.049565621 0.0015730131 -0.016550977 4288949803
-0.045813583 -0.033746939 0.013446739 4286593604
-0.043699659 -0.035306275 0.01464323 4287052093
-0.041806452 -0.034472778 0.013889156 4287575608
-0.039918751 -0.0336392 0.013135437 4287314488
-0.038036548 -0.032805659 0.012382129 4287445558
-0.036159862 -0.031972073 0.011629224 4287707699
-0.034288689 -0.031138474 0.010876689 4287707443
-0.03269548 -0.027913097 0.0081766117 4287773234
-0.031217683 -0.023890821 0.0048286212 4288035119
-0.029478427 -0.022260336 0.0034291851 4288885034
-0.027552187 -0.022224128 0.0033282074 4289146663
-0.025829449 -0.020593742 0.0019298685 4289474084
-0.023804408 -0.021354381 0.0024779444 4290193438
-0.021881174 -0.02131789 0.0023773746 4289931808
-0.01984816 -0.022078125 0.0029252204 4289801249
-0.018035024 -0.02124452 0.0021765451 4289408548
-0.016227435 -0.020410905 0.001428246 4289670433
-0.014425427 -0.019577267 0.00068033207 4289604899
-0.012749761 -0.017946908 -0.00071497634 4290651673
-0.010961607 -0.017113335 -0.0014620181 4290783254
-0.0090528131 -0.017076299 -0.0015612226 4289933594
0.016175888 -0.0093849525 -0.0087506734 4287970348
0.01822491 -0.010142718 -0.0082020545 4288493353
0.019769892 -0.0085132122 -0.0095892474 4288819498
0.020958863 -0.0052925386 -0.012265984 4288492334
0.022301093 -0.0028678011 -0.014296604 4288492334
0.023804761 -0.001238903 -0.015681505 4288557613
0.025297351 0.00038990751 -0.017065812 4288492334
0.026778892 0.0020185094 -0.018449461 4288492333
0.027877234 0.0052377172 -0.021121269 4289081129
0.029142447 0.0076612514 -0.023147669 4288885034
0.030391164 0.010084463 -0.025173139 4288426798
0.031817615 0.011712251 -0.026553813 4288230448
0.033429958 0.012544652 -0.027290054 4289277478
0.034837022 0.014172116 -0.028669611 4290651419
0.036637776 0.014209347 -0.0287615 4290716699
0.03864342 0.013451645 -0.028209958 4290585629
0.040862113 0.011899197 -0.027015381 4290454814
0.043723054 0.007962374 -0.023891944 4289734949
0.047037408 0.0024365336 -0.019483836 4288884014
-0.044107698 -0.032880876 0.010234786 4287182908
-0.042073958 -0.033644773 0.010779867 4287510328
-0.040114671 -0.033608854 0.010676477 4287445558
-0.038072862 -0.034372337 0.011221331 4287707188
-0.03619628 -0.033536594 0.010470029 4287707443
-0.034325216 -0.032700807 0.0097191278 4287642164
-0.032641198 -0.030266164 0.0076731737 4287707699
-0.030973602 -0.027831675 0.0056281961 4287642164
-0.029322434 -0.025397429 0.0035842038 4287838513
-0.027588762 -0.023762556 0.0021883971 4288165678
-0.025967736 -0.021328613 0.00014618039 4289015849
-0.023945615 -0.022091504 0.00069277734 4289212199
-0.022025254 -0.022055041 0.0005923789 4289604644
-0.019885331 -0.023616588 0.0017854259 4289735459
-0.018072292 -0.022780806 0.0010383721 4289670178
-0.0162648 -0.021945003 0.00029170373 4289997343
-0.014580876 -0.020310262 -0.0011008997 4289539364
-0.012787241 -0.019474512 -0.0018466879 4290913304
-0.010999177 -0.018638751 -0.0025920989 4289800993
-0.0090905093 -0.01860174 -0.0026913146 4291175699
-0.0071819797 -0.018564599 -0.0027904257 4290391573
-0.0052735843 -0.018527351 -0.0028894492 4289868314
-0.0033653229 -0.018490024 -0.0029884037 4289803798
0.02007024 -0.011612775 -0.0094160205 4287904304
0.021264769 -0.0083832927 -0.012086586 4288165423
0.022437379 -0.0051542092 -0.014755916 4288295728
0.024121635 -0.0043185651 -0.015494598 4288688683
0.025619701 -0.0026853625 -0.016875932 4288558124
0.026923396 -0.00025467388 -0.018899577 4288427053
0.028210625 0.0021757111 -0.020922277 4288623404
0.029670097 0.0038083643 -0.02230153 4288754219
0.031118505 0.0054408237 -0.023680121 4288819754
0.032167524 0.0086678993 -0.026342811 4288557869
0.03339152 0.011097314 -0.02836211 4288034609
0.034599021 0.013526345 -0.030380527 4289080873
0.036397018 0.01356349 -0.030472297 4289538853
0.038399816 0.012803564 -0.029922217 4289669668
0.041238852 0.008855341 -0.026805788 4289538343
0.044315331 0.0041107237 -0.023049179 4288753198
0.048276886 -0.0038211457 -0.016728688 4288557104
-0.040310387 -0.033569463 0.0082241464 4287510328
-0.038274232 -0.0343353 0.0087676961 4287314233
-0.036232688 -0.035100855 0.0093110297 4287380023
-0.034449723 -0.033461224 0.0079154819 4287576373
-0.03258701 -0.032623298 0.0071667233 4287576628
-0.030823253 -0.030983826 0.0057724095 4287707443
-0.029070482 -0.02934438 0.0043787309 4287904049
-0.027427565 -0.02690365 0.0023401002 4288100399
-0.025902692 -0.023661649 -0.00034309877 4288427309
-0.023982376 -0.023625318 -0.00044359267 4288820009
-0.022169217 -0.022787606 -0.0011892221 4289604643
-0.020032272 -0.024353551 7.5949356e-07 4289800994
-0.018222045 -0.023515653 -0.00074453605 4289604899
-0.016302142 -0.023478873 -0.00084467093 4289932064
-0.014736205 -0.021038709 -0.0028786869 4289866018
-0.012945376 -0.020200854 -0.0036227258 4289015849
-0.011283509 -0.018562002 -0.005010738 4289539363
-0.0093804263 -0.01852509 -0.0051096561 4290586139
-0.0074774772 -0.018488083 -0.005208496 4289670943
-0.0054430999 -0.019251753 -0.0046632905 4290652948
-0.0035376921 -0.019214476 -0.0047620926 4289737753
-0.0016324222 -0.019177081 -0.0048607988 4289411353
0.021915205 -0.013082566 -0.010629764 4287511094
0.0232739 -0.010644518 -0.012651521 4288362029
0.024616115 -0.0082066786 -0.014672412 4288230449
0.025941826 -0.0057690945 -0.016692396 4288557613
0.027067803 -0.0025320128 -0.019352769 4288558124
0.028729737 -0.0016944874 -0.020088499 4288558124
0.030008733 0.00074227527 -0.022105919 4288427053
0.03146261 0.0023792461 -0.023481594 4288623403
0.03271132 0.0048155934 -0.025497388 4288754218
0.033746757 0.0080510918 -0.02815285 4288623148
0.035159342 0.0096873622 -0.029526306 4288754219
0.036560878 0.011323435 -0.030899098 4288361263
0.038771249 0.0097620133 -0.029710634 4289015084
0.041615382 0.0058030225 -0.026602544 4289080108
0.045117691 -0.00055305287 -0.021576084 4288752943
-0.038640365 -0.032681435 0.0050308784 4287445048
-0.036524728 -0.03425321 0.006217944 4287576374
-0.034662046 -0.033413265 0.0054706871 4287576373
-0.032714233 -0.033377048 0.0053682826 4287576373
-0.030766487 -0.033340678 0.0052659982 4287772724
-0.029011033 -0.031696901 0.0038754311 4287903794
-0.027266569 -0.030053135 0.0024855114 4287904048
-0.02573619 -0.026802352 -0.00019153161 4288034863
-0.024019133 -0.025158927 -0.0015798113 4288296749
-0.022206064 -0.024319051 -0.0023238282 4289015848
-0.020398553 -0.023479084 -0.0030674809 4289408294
-0.018596586 -0.022639178 -0.003810737 4289735458
-0.016684994 -0.022602556 -0.0039104377 4290258718
-0.015245099 -0.019352814 -0.0065822471 4290520093
-0.013465248 -0.018512975 -0.0073240846 4289866274
-0.011690967 -0.017673137 -0.0080655534 4289343014
-0.0095440634 -0.019242566 -0.0068788216 4289277734
-0.0076439679 -0.019205622 -0.0069775186 4290782998
-0.0056124888 -0.019971592 -0.0064337538 4290325528
-0.0037099347 -0.019934364 -0.0065324041 4290129689
-0.0018075258 -0.019897044 -0.0066309758 4289802268
-4.4927001e-05 -0.019056754 -0.0073714079 4290261524
0.0018544719 -0.019019295 -0.0074696769 4289607704
0.025110275 -0.012107651 -0.013859751 4287443774
0.026083298 -0.0080593936 -0.017154943 4288033333
0.027028948 -0.0040115714 -0.020448718 4288230193
0.028690845 -0.0031718835 -0.021182839 4288492588
0.030347154 -0.0023322552 -0.021916633 4288623403
0.031806521 -0.00069091655 -0.023289356 4288623403
0.033254825 0.00095032342 -0.024661493 4288558123
0.034298547 0.0041947141 -0.027310977 4288688939
0.03571932 0.0058354586 -0.02868158 4288492845
0.037331268 0.006674448 -0.029412905 4288753963
0.039962143 0.0035058968 -0.026951103 4288230194
0.043029852 -0.0012651552 -0.023213459 4288033333
0.046550646 -0.0076382644 -0.018200876 4287640888
-0.034786277 -0.034162357 0.0036755088 4287052603
-0.032750733 -0.034932133 0.0042161033 4287706678
-0.030803144 -0.034895785 0.0041138087 4287837748
-0.02895169 -0.03405349 0.0033690431 4287838004
-0.027303327 -0.031599548 0.0013397848 4287772979
-0.025569886 -0.029951587 -4.6214089e-05 4287969073
-0.023847427 -0.028303664 -0.0014315881 4287969328
-0.022029005 -0.027461506 -0.0021742634 4288165679
-0.020435482 -0.025008136 -0.0042003058 4288165678
-0.018633608 -0.024166077 -0.0049419575 4289081129
-0.01683728 -0.023323985 -0.0056832163 4289538853
-0.015400026 -0.020065591 -0.0083484259 4290062368
-0.013743553 -0.018418267 -0.0097297896 4290389534
-0.011974797 -0.017576326 -0.010469405 4290455069
-0.009833578 -0.01915027 -0.0092855729 4290520859
-0.0079390705 -0.019113423 -0.0093839727 4291175444
-0.0057817698 -0.020686811 -0.008200868 4290390808
-0.0038820691 -0.020649645 -0.008299375 4290391319
-0.0019825101 -0.0206124 -0.008397812 4290129689
-0.0002226904 -0.019770041 -0.0091364495 4290261014
0.001389198 -0.018122772 -0.010514895 4290261013
0.0032801554 -0.018085379 -0.010612652 4288823833
0.026765876 -0.012766321 -0.015706014 4286921279
0.027722619 -0.0087074731 -0.018992264 4288033589
0.029023692 -0.0062573031 -0.021001196 4288688939
0.030496836 -0.0046113543 -0.022371484 4288623403
0.031958945 -0.0029656105 -0.02374112 4288492589
0.033603996 -0.0021239445 -0.024472652 4288623403
0.034850024 0.0003254097 -0.026478607 4288492588
0.036478415 0.0011668541 -0.027209202 4288558123
0.038101226 0.0020082705 -0.027939517 4288427053
0.04074268 -0.0011688508 -0.025484707 4288361008
0.044028409 -0.006756369 -0.021120491 4287837238
-0.032968335 -0.034870781 0.0017816019 4287771448
-0.031026352 -0.034834534 0.0016796063 4287510328
-0.02908444 -0.034798194 0.0015776856 4287641654
-0.027241345 -0.033953711 0.00083502335 4287576373
-0.025403772 -0.033109263 9.2775095e-05 4287772979
-0.023675911 -0.03145694 -0.0012896126 4287772979
-0.021959044 -0.029804664 -0.0026713831 4287838258
-0.020253155 -0.028152509 -0.0040524397 4287838513
-0.018670611 -0.025692727 -0.0060729929 4288100398
-0.016989443 -0.024040829 -0.0074525988 4288492588
-0.015437059 -0.021581387 -0.0094714016 4288819499
-0.013780605 -0.019929757 -0.010849566 4289670178
-0.012011942 -0.019085638 -0.011587559 4289801249
-0.010122877 -0.01904902 -0.011685765 4290193949
-0.0082339309 -0.019012308 -0.011783894 4289540128
-0.006082315 -0.020590186 -0.010603674 4290456344
-0.0040540658 -0.021360425 -0.010062939 4290391063
-0.0021573603 -0.021323241 -0.010161232 4289998618
-0.00053989887 -0.019671626 -0.011536822 4290391319
0.001208812 -0.018827178 -0.012273244 4290652948
0.0030969456 -0.018789858 -0.012370868 4290392083
0.0049849302 -0.018752445 -0.012468413 4289280284
0.029727876 -0.010963719 -0.019553244 4288032568
0.030834936 -0.0077008605 -0.022193221 4288229684
0.032111287 -0.0052445084 -0.024195995 4288426289
0.033759043 -0.0044006407 -0.024926076 4288295983
0.035401195 -0.0035568122 -0.02565581 4288296495
0.037037723 -0.0027129985 -0.026385257 4288361773
0.039072834 -0.0034811664 -0.025843365 4288295983
0.041522771 -0.005860839 -0.024031082 4288099633
0.045233913 -0.013074978 -0.018408326 4287706679
-0.029217079 -0.035538256 -0.00021030568 4287314234
-0.027278129 -0.035501845 -0.00031197956 4287575864
-0.025339257 -0.035465308 -0.00041355193 4287641399
-0.023608722 -0.033808604 -0.0017928663 4287707443
-0.021889169 -0.032151937 -0.0031715545 4287772979
-0.020180594 -0.030495392 -0.0045495289 4287772979
-0.018483028 -0.028838981 -0.0059268731 4288231214
-0.016911458 -0.026372764 -0.0079419194 4287969583
-0.015120864 -0.025526334 -0.0086795762 4288558123
-0.013576735 -0.023060432 -0.010693035 4288754219
-0.011925876 -0.021404449 -0.012067595 4289604643
-0.010160126 -0.020558132 -0.012803763 4289539620
-0.0082713179 -0.020521434 -0.012901894 4289343269
-0.006251283 -0.021294151 -0.012362379 4289539873
-0.0043600015 -0.021257194 -0.012460481 4290194458
-0.0024688542 -0.021220144 -0.012558506 4289670943
-0.00085686892 -0.019564223 -0.013930608 4290586904
0.0011707917 -0.020336363 -0.013391245 4290325018
0.0029138625 -0.019489847 -0.014125684 4290914579
0.0049466714 -0.020261683 -0.013586436 4290063643
0.0066839978 -0.019415051 -0.014320409 4290326293
0.008875072 -0.020995729 -0.013144886 4289411609
0.032454699 -0.0083358828 -0.024019549 4288098358
0.034107871 -0.0074897539 -0.024748307 4288426288
0.035755448 -0.0066436641 -0.025476722 4288295729
0.037596717 -0.0066057928 -0.025570827 4288361519
0.039639831 -0.0073759258 -0.025031 4288230194
0.042097703 -0.0097620394 -0.02322395 4288098868
-0.027610768 -0.034612861 -0.0033715968 4287902519
-0.025477525 -0.036200993 -0.0021978454 4287771959
-0.023749754 -0.034539994 -0.0035737874 4287772724
-0.022032961 -0.032879043 -0.0049491124 4287576628
-0.020327155 -0.031218227 -0.0063237324 4287642164
-0.018520106 -0.030369557 -0.0070608184 4287904048
-0.016833562 -0.028708816 -0.008434291 4287904304
-0.015158005 -0.027048258 -0.0098070949 4288035118
-0.013613861 -0.024575835 -0.011815712 4288362028
-0.011963036 -0.022915509 -0.013187047 4289016104
-0.010323219 -0.021255232 -0.014557762 4289408548
-0.0084372535 -0.021218609 -0.01465576 4289604899
-0.0065514185 -0.021181867 -0.01475366 4289605409
-0.0047997124 -0.020333393 -0.015487218 4289932574
-0.0029168576 -0.020296501 -0.01558481 4290324763
-0.0013130307 -0.018636487 -0.016953256 4288885288
0.00084845722 -0.020222437 -0.015779758 4289539619
0.0025860071 -0.01937384 -0.016512286 4290521369
0.0046132058 -0.020147987 -0.015974382 4289474594
0.006345056 -0.019299325 -0.016706482 4290456598
0.0085304528 -0.020884443 -0.015533956 4290129944
0.011038117 -0.024091661 -0.013092609 4289410333
0.013725907 -0.028109562 -0.010017877 4288298278
0.034844168 -0.012208311 -0.023311501 4287312959
0.036306068 -0.010549492 -0.024671415 4288033335
0.037956126 -0.0097010974 -0.025398361 4288098869
0.040206552 -0.01128366 -0.024228176 4288294963
0.043081693 -0.015296564 -0.021162171 4288163894
-0.02389067 -0.035266787 -0.0053513786 4287118139
-0.022069898 -0.034415923 -0.0060877474 4287445048
-0.020364132 -0.032750774 -0.0074591488 4287510839
-0.018557172 -0.03189994 -0.0081946226 4287772724
-0.01675576 -0.031049058 -0.0089297676 4287707699
-0.01495989 -0.030198203 -0.009664489 4287773489
-0.013530623 -0.026905116 -0.012303411 4287839024
-0.011754028 -0.026054408 -0.013036964 4287904303
-0.010108784 -0.024389766 -0.014404722 4288362029
-0.0084745511 -0.022725172 -0.015771862 4288950313
-0.0068513118 -0.021060737 -0.017138314 4289670179
-0.0051051266 -0.020210229 -0.017869996 4289997344
-0.0032278299 -0.020173447 -0.0179673 4290847768
-0.0013506711 -0.020136595 -0.018064544 4289408293
0.00066846609 -0.020913266 -0.017527979 4289212454
0.0024032518 -0.020062577 -0.018258769 4289343268
0.0044275671 -0.020838976 -0.017722346 4289866784
0.0063068867 -0.020801689 -0.017819412 4290586904
0.0086450577 -0.023204595 -0.016016956 4290456089
0.011310853 -0.027233914 -0.012949171 4289147174
0.014003679 -0.03126258 -0.0098827668 4287708208
0.01624006 -0.032850765 -0.0087158987 4287250229
0.018159427 -0.032812245 -0.0088147083 4286726458
0.037249312 -0.016093314 -0.022613835 4287640379
0.038713776 -0.014430024 -0.023970671 4287902263
0.040974878 -0.016016755 -0.022804292 4288033079
-0.022426885 -0.033503097 -0.0091280499 4288033589
-0.020510502 -0.033466667 -0.00922821 4287510328
-0.018706359 -0.03261368 -0.009961972 4287837748
-0.016792897 -0.032577064 -0.0100618 4287772724
-0.015232261 -0.030091485 -0.01206167 4288035119
-0.013447471 -0.029238587 -0.012794141 4287773489
-0.011791252 -0.027569432 -0.014159352 4287969839
-0.01002029 -0.026716597 -0.01489095 4287838768
-0.0085118189 -0.024231544 -0.016887823 4288492588
-0.0070197806 -0.021746757 -0.018883727 4289211944
-0.0052763894 -0.020894084 -0.019613693 4289146409
-0.0034019426 -0.020857375 -0.019710863 4289997089
-0.0016669631 -0.020004733 -0.020440215 4290520859
6.2435865e-05 -0.019152094 -0.021169199 4290520859
0.0020758361 -0.019930981 -0.020633901 4290390043
0.0042420477 -0.021525415 -0.01946694 4290586393
0.0065691993 -0.023935165 -0.017668838 4290194203
0.009065479 -0.027160149 -0.015239926 4289670688
0.01158338 -0.030384619 -0.012812069 4288231469
0.014122866 -0.033608556 -0.010385247 4287577649
0.016200662 -0.03438564 -0.0098528834 4286857274
0.017792292 -0.032716386 -0.011213662 4286464574
-0.018743336 -0.034141503 -0.01109388 4287510328
-0.016944807 -0.033286385 -0.011825616 4287445048
-0.01526935 -0.031612813 -0.013188748 4287903538
-0.013484642 -0.030757749 -0.013919605 4287576883
-0.01158252 -0.030721057 -0.014018623 4287772979
-0.0098062046 -0.029865891 -0.014748922 4287707954
-0.0082922503 -0.027374279 -0.016741214 4288100398
-0.0067947395 -0.024882838 -0.018732617 4288231214
-0.0051798262 -0.02320979 -0.02009212 4288427309
-0.0035759211 -0.021536827 -0.021451036 4288557868
-0.0017044395 -0.021500124 -0.02154801 4289474084
-0.00011710078 -0.019827334 -0.022905877 4289735714
0.0018934086 -0.020608488 -0.022372067 4289604899
0.0042041093 -0.02302523 -0.02057799 4289866529
0.006831333 -0.027077222 -0.017524552 4289669924
0.0094856098 -0.031128583 -0.01447244 4287446579
0.012011334 -0.034361616 -0.012051458 4287119413
0.014241986 -0.035958745 -0.01089085 4287118904
0.015839212 -0.034285143 -0.012248773 4286529853
-0.019004337 -0.034027644 -0.013486515 4287117629
-0.017211348 -0.033170473 -0.014216358 4287510328
-0.015306421 -0.033133969 -0.014315702 4287772469
-0.013401605 -0.033097338 -0.014414944 4287641909
-0.011619803 -0.032240063 -0.015143968 4287773234
-0.0098435692 -0.031382747 -0.015872661 4287773489
-0.0082012266 -0.029705051 -0.017230535 4288035119
-0.0065698847 -0.028027441 -0.01858782 4288035119
-0.0050833449 -0.025529647 -0.020573704 4288100399
-0.0034767315 -0.023852296 -0.021929536 4288362029
-0.0018811151 -0.022175137 -0.023284707 4288950314
-0.00029651076 -0.020498075 -0.024639219 4289277223
0.0018557906 -0.022101585 -0.023478149 4289408038
0.004313603 -0.025344931 -0.021060318 4289604389
0.0070932657 -0.030227754 -0.017386619 4288296238
0.0095997602 -0.033469956 -0.014971169 4287446324
0.011661224 -0.034251913 -0.014441337 4286595644
0.01356969 -0.034213874 -0.014539778 4286660923
-0.015460882 -0.03383214 -0.016071066 4287706423
-0.013558928 -0.03379558 -0.016170174 4287838004
-0.011657067 -0.033758916 -0.016269196 4287707699
-0.0098809078 -0.032899458 -0.016996296 4287707953
-0.0081102848 -0.032040037 -0.017722983 4288035119
-0.0063452125 -0.03118063 -0.01844931 4288165934
-0.004719466 -0.029498691 -0.019803008 4288230958
-0.003241159 -0.026994448 -0.021783557 4288427309
-0.0017792955 -0.024490425 -0.023763251 4288492844
-0.00019197911 -0.022808984 -0.025114693 4288427053
0.0021074191 -0.025239099 -0.023329867 4288296238
0.0045703575 -0.028491054 -0.020918768 4287707698
0.0073550269 -0.033386905 -0.017254999 4287053624
0.0094083026 -0.034171302 -0.016726436 4286398783
0.011466868 -0.034955535 -0.016198104 4286202689
-0.013836201 -0.033664301 -0.018548867 4286659904
-0.011939924 -0.033627771 -0.018647617 4287510583
-0.01004374 -0.033591144 -0.018746292 4287576629
-0.0082759187 -0.032729633 -0.019471239 4288035118
-0.006513644 -0.031868119 -0.020195819 4287838768
-0.0047569387 -0.031006562 -0.02092007 4288165934
-0.0031421781 -0.029320473 -0.022269882 4288099888
-0.0016775504 -0.026809892 -0.02424489 4287969073
5.4314733e-05 -0.02594858 -0.0249676 4288165168
0.0023588836 -0.028385174 -0.023187855 4287642164
0.0049742013 -0.032470152 -0.020158118 4286987833
0.0074665919 -0.035730168 -0.017754957 4286595389
0.0092169717 -0.034868121 -0.018478353 4286267969
-0.010457385 -0.032624286 -0.021742791 4287772724
-0.008441411 -0.033414714 -0.021216154 4287773234
-0.0065510124 -0.033378012 -0.021314388 4287904304
-0.0047943704 -0.032514326 -0.022037053 4287903793
-0.0033159778 -0.029997122 -0.024007985 4288100144
-0.0018540397 -0.027480079 -0.025978018 4287772724
0.00015863776 -0.02827006 -0.025450906 4287968819
0.0026101544 -0.031539757 -0.023052223 4287249208
0.0049360842 -0.033982377 -0.02127837 4286660413
0.0071282387 -0.035598025 -0.020128956 4286333248
-0.0089911856 -0.03160793 -0.024827244 4287118394
-0.006719213 -0.034058664 -0.023055911 4287445814
-0.0049653538 -0.033192933 -0.023776798 4287641908
-0.0033533499 -0.031498242 -0.02512004 4287772724
-0.0018913522 -0.028974725 -0.027085271 4287641908
0.00026289374 -0.0305958 -0.025937296 4287903284
0.0025723502 -0.033045325 -0.024167551 4286725694
0.0046036318 -0.033836942 -0.02364289 4286398273
-0.0051361956 -0.033867039 -0.025513209 4287707188
-0.0033906773 -0.032999206 -0.026231984 4287576628
-0.0017896667 -0.031300269 -0.027571419 4288034353
8.3714724e-05 -0.031263582 -0.027668532 4288034099
0.0022457689 -0.032888778 -0.02652414 4286529343
-0.0055738389 -0.03286989 -0.028485622 4286333504
-0.0035641491 -0.033666756 -0.027963351 4286660669
-0.0018269569 -0.032796808 -0.028680077 4288295219
-9.5322728e-05 -0.031926945 -0.029396422 4287314234
-0.0020030737 -0.033457797 -0.030406401 4286660159
-0.00041577965 -0.031750485 -0.031738635 4286790718
-0.0082443506 -0.0079808589 0.010127272 4283985208
-0.006582465 -0.0063852761 0.0087070595 4283332918
-0.0085355081 -0.0079542715 0.0076717674 4283265599
-0.0068790875 -0.0063544791 0.0062551177 4282351168
-0.0052337088 -0.0047547836 0.0048391283 4282807873
-0.0085733607 -0.0094857579 0.0065371976 4282743358
-0.0070462301 -0.0070981644 0.0044668023 4281961529
-0.0055356026 -0.0047107358 0.0023973011 4281829694
-0.0036373064 -0.0046735946 0.0022988687 4282091579
-0.0016017407 -0.0054196045 0.0028571072 4282481473
-0.0086112097 -0.011016981 0.0054028225 4282678843
-0.007084053 -0.0086228624 0.0033372683 4282222904
-0.0054414608 -0.0070144571 0.0019278559 4281830203
-0.003540583 -0.0069772471 0.0018293033 4281308218
-0.0017772317 -0.0061544869 0.0010758811 4281829949
0.00026071817 -0.0069025252 0.0016324553 4283199553
-0.0086490512 -0.012547952 0.0042686337 4282939963
-0.0069927126 -0.010935095 0.0028616902 4282093364
-0.0054792985 -0.0085345525 0.00080174254 4282157624
-0.0035785586 -0.0084973332 0.00070320582 4282091579
-0.0019526184 -0.0068847463 -0.00070192153 4281701173
-5.7607889e-05 -0.0068474598 -0.00080002751 4281960508
0.0016944557 -0.0060225166 -0.00155108 4282351679
0.003586404 -0.00598507 -0.0016488624 4283658044
-0.0086868852 -0.014078698 0.0031346125 4283463733
-0.0071596839 -0.011671499 0.0010787663 4282223924
-0.005385302 -0.010844368 0.00032785721 4281962804
-0.0036165342 -0.010017193 -0.00042272219 4282027318
-0.0018533394 -0.009190077 -0.0011729021 4281896248
-9.573251e-05 -0.0083629545 -0.0019227047 4281635128
0.0015135333 -0.0067460891 -0.0033236237 4282025533
0.0034026429 -0.0067086928 -0.0034212552 4282417723
0.0051434338 -0.0058816131 -0.0041699745 4282808384
-0.0088510476 -0.014816957 0.0013501267 4284379184
-0.0071974993 -0.013195448 -5.0208997e-05 4282682413
-0.0054231919 -0.012366151 -0.00079950597 4281962293
-0.0036545023 -0.011536786 -0.0015484556 4281506098
-0.0018913671 -0.010707507 -0.0022970242 4281896248
-0.00013384968 -0.009878207 -0.0030452046 4281766454
0.0013327375 -0.007465113 -0.0050927242 4281961529
0.0032189935 -0.0074277651 -0.0051902034 4281960508
0.0049570054 -0.0065985713 -0.005937167 4282220608
0.006840229 -0.0065610968 -0.006034351 4283264834
-0.0054610707 -0.013887681 -0.0019266838 4283661103
-0.0036924481 -0.013056176 -0.0026740385 4281963313
-0.0019294024 -0.012224697 -0.0034209678 4282027574
-0.0001719594 -0.011393245 -0.0041675456 4281766963
0.0014372766 -0.0097676702 -0.0055619958 4282092344
0.0031808093 -0.0089362822 -0.0063076988 4282027318
0.0047706887 -0.0073109549 -0.0077009704 4282026298
0.0065002963 -0.0064796563 -0.0084458161 4282091323
0.008377783 -0.0064422023 -0.0085426327 4282155583
0.010255113 -0.0064046644 -0.0086393785 4283072053
-0.0034616143 -0.016168151 -0.0025053392 4282811699
-0.0018303245 -0.014538025 -0.003897873 4282551089
-0.00021006167 -0.012908043 -0.0052897092 4282158899
0.0013991669 -0.011278125 -0.0066809333 4282093364
0.0031426325 -0.010444574 -0.0074250242 4282028594
0.0048804954 -0.0096110133 -0.0081687374 4281962549
0.006462045 -0.0079814028 -0.0095582781 4281896504
0.0080325454 -0.0063518919 -0.010947235 4281830458
0.0099043027 -0.0063144639 -0.011043693 4281894974
0.011934787 -0.007072879 -0.010494325 4282481729
3.1411648e-05 -0.016019557 -0.0051214471 4282941239
0.001788564 -0.015183658 -0.005864704 4282680884
0.0033949092 -0.013549411 -0.0072524482 4282354738
0.0049902052 -0.011915239 -0.0086395899 4282289203
0.0064238012 -0.0094829695 -0.010670608 4281962549
0.0079942942 -0.0078491028 -0.01205633 4281896248
0.0095537379 -0.0062153954 -0.013441361 4281503548
0.011737429 -0.0077741854 -0.012249172 4281634108
0.014254943 -0.010928805 -0.0097694276 4282025024
0.0018927604 -0.017500795 -0.0063447785 4283661614
0.003356643 -0.015061604 -0.0083726663 4282812463
0.0049519315 -0.0134231 -0.0097565912 4282551599
0.0065361783 -0.011784755 -0.011139827 4281898289
0.0081093833 -0.010146473 -0.01252245 4281897268
0.0098275989 -0.0093086986 -0.01326173 4281765689
0.012016535 -0.0108718 -0.012073014 4281763394
0.014539145 -0.014034972 -0.0096000312 4281762374
0.017411768 -0.018798031 -0.0058435062 4282479944
0.0050615072 -0.015733406 -0.01023195 4283464754
0.0066484734 -0.014090658 -0.011612097 4281898799
0.0082243979 -0.012448044 -0.012991609 4281895484
0.0099452659 -0.01160801 -0.013729462 4281372734
