# .PCD v0.7 - Point Cloud Data file format
VERSION 0.7
FIELDS x y z rgba
SIZE 4 4 4 4
TYPE F F F U
COUNT 1 1 1 1
WIDTH 965
HEIGHT 1
VIEWPOINT 0 0 0 1 0 0 0
POINTS 965
DATA ascii
0.037402615 0.018316848 0.016361311 4289670179
0.039772466 0.016891072 0.017596252 4289670178
0.041929349 0.016203137 0.018149123 4289016360
0.04431767 0.01477796 0.019382935 4289146919
0.046258584 0.014827905 0.019253861 4289146919
0.048199199 0.014877917 0.019124862 4289016104
0.049670704 0.016402496 0.017634422 4289277734
0.05255387 0.013503669 0.020228151 4289146919
0.054738946 0.012816766 0.020779375 4288885288
0.0583845 0.007707743 0.025411531 4288688939
-0.0051781088 -0.0029386841 0.035428289 4286463299
-0.0042647272 0.0023008175 0.030502748 4286921788
0.033069633 0.018147418 0.014107741 4288883248
0.035208173 0.017456682 0.014660101 4289735714
0.03713382 0.017506031 0.014531892 4289539364
0.039500713 0.016075866 0.015763827 4289212453
0.041878253 0.014645984 0.016995136 4289147174
0.044266351 0.013216464 0.018225733 4289146919
0.046436094 0.012526883 0.018776201 4288950824
0.048610993 0.011837481 0.019326359 4288950569
0.050556712 0.011887701 0.019197077 4288688939
0.05321335 0.0097197983 0.021104738 4288688938
0.055646203 0.0082916636 0.022332609 4288100143
0.059302054 0.0031676833 0.026952758 4287837494
-0.0053808764 -0.0038007572 0.033555079 4287117373
-0.0044698566 0.0014539827 0.028641079 4287510329
-0.0032808334 0.0052207392 0.025094904 4287510074
0.033444263 0.015116865 0.014319848 4288622639
0.035588063 0.014424158 0.014870211 4289212198
0.037737049 0.013731657 0.01542028 4289147174
0.039891213 0.013039282 0.015970081 4288689449
0.042050511 0.012347156 0.016519554 4288689449
0.044893391 0.0094296653 0.01910292 4288754728
0.047071144 0.0087381285 0.019651245 4288623403
0.049717195 0.006563345 0.021554694 4288623659
0.051910676 0.0058723446 0.022102073 4288296493
0.054583304 0.0036983918 0.024003796 4288296493
0.05679252 0.0030078422 0.024550237 4288165423
0.060218982 -0.0013896469 0.028481193 4287903284
-0.0074300244 -0.0054532811 0.032501265 4287117628
-0.0057361722 -0.0039122999 0.031003986 4287772214
-0.0045195222 -0.00013400428 0.027464028 4287968308
-0.00301411 0.0021522306 0.025287937 4287903029
0.034456022 0.0098447148 0.016557682 4286920514
0.036398061 0.0098945107 0.016428396 4288754474
0.038557768 0.0092001241 0.016976148 4288951078
0.040501989 0.0092500914 0.016846813 4288493098
0.04289265 0.0078118835 0.018070802 4288492844
0.04529389 0.0063740779 0.019294109 4288296749
0.047934487 0.0041925926 0.021193042 4288165933
0.050591119 0.0020116139 0.023090906 4288166189
0.052795343 0.0013186838 0.023635998 4287904304
0.055004708 0.00062598288 0.024180755 4288034609
0.057698466 -0.0015538745 0.026076272 4287903539
0.06113527 -0.0059641656 0.029996894 4287838004
-0.0062437877 -0.0032667052 0.027779829 4287641653
-0.0045692027 -0.0017217007 0.026287194 4287837493
-0.003063716 0.00057109818 0.02411598 4288426288
-0.002057001 0.0051071905 0.019908451 4288099633
-0.001083158 0.0096425842 0.015703142 4287706678
0.030106299 0.0096777026 0.014307421 4287247934
0.03267242 0.0074874107 0.016206108 4287706424
0.035042204 0.0060440786 0.01742807 4287837494
0.037207447 0.0053476263 0.017973814 4288035118
0.039595701 0.0039049517 0.019194614 4288100398
0.041553415 0.0039553139 0.019064412 4287969838
0.043734163 0.0032594074 0.019609302 4287970094
0.04614605 0.0018175468 0.020828687 4288100398
0.048797227 -0.00037019141 0.022722058 4288035119
0.051464386 -0.0025574006 0.024614386 4287969329
0.053679354 -0.0032521598 0.025157128 4287969073
0.055662595 -0.0032007955 0.025025479 4287772978
0.05836422 -0.0053870045 0.026915673 4287576373
0.061808653 -0.0098101096 0.030826036 4287641399
-0.0064460188 -0.0041082501 0.025921848 4287642419
-0.0044636875 -0.0040592924 0.02578849 4288099634
-0.002955392 -0.0017598402 0.023621991 4288491313
-0.0017849877 0.0020393748 0.020101547 4288427053
-0.00080539286 0.0065880045 0.015905671 4288427309
0.026583761 0.0065243375 0.014761858 4287249208
0.028526664 0.0065739397 0.014632363 4287707444
0.030883141 0.0051258449 0.015851848 4287772468
0.03325022 0.0036780629 0.01707074 4287772214
0.035627909 0.0022306647 0.018288925 4287968819
0.037586093 0.0022809301 0.018158615 4287772724
0.039544009 0.0023312625 0.018028371 4287904304
0.041722156 0.0016330723 0.018571787 4287969839
0.044128664 0.0001866743 0.019788254 4288035118
0.04677169 -0.0020078365 0.021677289 4287903793
0.049430721 -0.004201822 0.023565266 4287772978
0.051643081 -0.0048988461 0.024106544 4287903538
0.053860582 -0.0055957139 0.024647575 4287772724
0.055846475 -0.0055442564 0.024515774 4287903539
0.059029527 -0.0092329886 0.027745556 4287575863
-0.0046686307 -0.0048962329 0.023934167 4287773488
-0.0030051023 -0.0033425819 0.022448834 4288688174
-0.0016738847 -0.00028465874 0.019612458 4288361008
-0.00069127977 0.0042771492 0.015426122 4288885288
-0.00040575117 0.011846645 0.0085397437 4288687919
0.01512491 0.011480736 0.0081867073 4287314489
0.01742553 0.010026431 0.009406358 4287380023
0.019543558 0.0093238372 0.0099516474 4287706934
0.022450633 0.0056161024 0.013190929 4287641908
0.024788603 0.004162984 0.014408268 4287642164
0.026935786 0.0034614112 0.014951743 4287904049
0.028679922 0.0042623002 0.014148876 4287707698
0.03103888 0.0028098971 0.015365023 4287773234
0.033618011 0.00060688518 0.017253134 4287969328
0.036000915 -0.00084475987 0.018467791 4287969839
0.03817942 -0.0015451536 0.019009463 4288035118
0.039927706 -0.00074380822 0.018206581 4288035119
0.042111129 -0.0014439635 0.018748015 4287838768
0.044522844 -0.0028945673 0.019960899 4287903794
0.04762271 -0.0065965876 0.023187917 4287968563
0.050292306 -0.0087968707 0.02507038 4287575863
0.052977942 -0.010996668 0.026951835 4287575864
0.055211581 -0.011695236 0.027490143 4287641143
0.057687066 -0.013143894 0.028699022 4287575353
-0.0035282969 -0.0026616137 0.019252408 4288296239
-0.0020445362 -0.00034952722 0.017097399 4289146153
-0.00090382993 0.0034708977 0.013595283 4289343268
-0.00012251735 0.0087993536 0.0087471493 4288622893
0.0089562982 0.011302339 0.0060837567 4287052093
0.01141791 0.0090890396 0.00797428 4287183418
0.013710611 0.0076299813 0.0091911424 4287314233
0.016013935 0.0061713234 0.010407327 4287314488
0.018137448 0.0054666772 0.010950545 4287772979
0.020266183 0.0047621951 0.011493517 4287772979
0.022791877 0.0025509391 0.013380073 4287772724
0.025135063 0.0010935478 0.014593855 4287576628
0.027287513 0.00038996525 0.015135389 4287445814
0.029037058 0.001193203 0.014333807 4287904049
0.031401217 -0.00026335008 0.015546344 4287773234
0.033776 -0.0017196182 0.016758256 4287773234
0.036373585 -0.0039285813 0.018640358 4287707699
0.03855738 -0.004631022 0.019180056 4287969583
0.040746339 -0.0053332839 0.019719515 4287772724
0.04294046 -0.0060353205 0.020258632 4287576118
0.045808963 -0.0089956746 0.022807918 4287903284
0.048924677 -0.012708155 0.026025798 4287772214
-0.0058533251 -0.002772456 0.016870447 4287185714
-0.0038933381 -0.0027238708 0.016738728 4288492843
-0.0022544935 -0.0011620037 0.015261702 4288885033
-0.0011162832 0.0026692897 0.011767885 4289212964
-5.4910779e-06 0.0065000579 0.0082759466 4289278244
0.0014151484 0.0088173803 0.006130321 4288165169
0.0031619668 0.0096217263 0.0053297989 4287248188
0.0050772056 0.0096697714 0.0052015111 4287445048
0.007345818 0.0082055461 0.006416522 4287445813
0.0092660785 0.0082539078 0.0062880404 4287511349
0.011550583 0.0067902692 0.0075021256 4287445814
0.013660789 0.0060829185 0.0080445465 4287314489
0.016151555 0.0038640052 0.0099283941 4287576628
0.018468015 0.0024013761 0.011140576 4287642164
0.020602003 0.0016949214 0.011681551 4287707443
0.022937 0.00023296289 0.012892574 4287772979
0.025084101 -0.00047303364 0.013432838 4287838258
0.027236402 -0.0011787806 0.013972774 4287576373
0.029189907 -0.0011288393 0.01384262 4287576119
0.031556554 -0.0025896709 0.015051764 4287641398
0.034352638 -0.0055609141 0.017599147 4287706423
0.036958076 -0.0077762343 0.019475918 4287314234
0.039579533 -0.0099910311 0.021351635 4287445049
0.042217053 -0.012205414 0.023226362 4287379514
0.0448706 -0.014419312 0.025100071 4287444794
-0.0023039132 -0.0027286112 0.014100529 4288755238
-0.0011654794 0.0011136085 0.010614822 4288885799
0.00011137873 0.0041966289 0.0078017619 4289147429
0.0015348196 0.0065206196 0.0056607798 4288427563
0.0034556016 0.0065687317 0.0055320654 4288100654
0.0053761601 0.0066169482 0.0054034479 4287969839
0.0076499656 0.0051485188 0.0066148918 4287773744
0.0093961135 0.0059553124 0.0058162455 4287969838
0.011500917 0.0052456297 0.0063573178 4287904559
0.013610967 0.0045361035 0.0068981368 4287707698
0.016101398 0.0023106672 0.0087771602 4287577139
0.018417627 0.00084370188 0.0099861361 4287576628
0.02074448 -0.00062286854 0.011194414 4287707443
0.023081958 -0.0020891223 0.012402099 4287707443
0.025430091 -0.003554998 0.01360907 4287642164
0.027587645 -0.0042627733 0.014147047 4287510838
0.030158214 -0.0064857341 0.016021125 4287576119
0.032951452 -0.0094658062 0.01856219 4287510329
0.035556838 -0.011687685 0.020434011 4288099124
0.038390338 -0.014666582 0.022972506 4287510073
-0.0023533404 -0.00429493 0.012939576 4288690468
-0.001051642 -0.0012026709 0.010131264 4288820773
0.00022809952 0.0018891562 0.0073245075 4289409059
0.0016543418 0.0042197742 0.0051882137 4288427563
0.0035777166 0.004267972 0.0050593391 4288100398
0.0055008978 0.0043162592 0.0049305521 4287970094
0.0076005161 0.0036041103 0.0054702368 4287904558
0.009525992 0.0036526248 0.0053414237 4287839278
0.011633359 0.0029407963 0.0058807563 4287839278
0.013745926 0.0022292268 0.006419763 4287904559
0.016051233 0.00075761601 0.0076261405 4287904048
0.018176958 4.6502799e-05 0.0081644338 4287773234
0.020307891 -0.00066435151 0.0087024029 4287773489
0.022639692 -0.002135057 0.0099071804 4287838769
0.024783738 -0.0028454103 0.010444397 4287577139
0.027536333 -0.0058353785 0.012981579 4287445813
0.030921958 -0.011104318 0.017517112 4287380279
-0.0011009276 -0.0027599838 0.0089769978 4288494118
0.00034464896 -0.00042243302 0.0068442058 4289408549
0.0017737076 0.0019148141 0.0047126021 4288885033
0.0035285577 0.0027259588 0.0039164461 4288230958
0.0054516122 0.0027742758 0.0037876926 4288296748
0.0073744655 0.0028226636 0.0036590043 4288100908
0.0096557289 0.0013457835 0.0048635956 4287970093
0.011765614 0.00063189305 0.0054011066 4287904814
0.014065467 -0.00084428862 0.0066045485 4288035629
0.015813597 -3.2749027e-05 0.0058092643 4287839534
0.018126599 -0.0015084781 0.0070119966 4287774509
0.020064466 -0.0014591869 0.0068826955 4287382064
0.00012979656 -0.0012077354 0.0050291438 4289212964
0.0017245784 0.0003708899 0.0035682824 4288623403
0.0036504418 0.00041919015 0.0034392718 4288427053
0.0054023117 0.0012325495 0.0026450194 4288296748
0.0071485341 0.0020458624 0.0018512197 4288100908
0.0094268098 0.00056462176 0.0030527469 4288297768
0.011715785 -0.00091631897 0.0042536594 4287774763
0.013830699 -0.0016321503 0.0047892928 4287775529
0.015950859 -0.0023477674 0.0053246375 4287513644
-0.00058163702 0.0003137216 0.0012247227 4288167463
0.0013388619 0.00036180206 0.0010960102 4288362029
0.0032591671 0.00040997751 0.00096738338 4288428329
0.0051792786 0.00045824051 0.00083884038 4287905578
-0.012906134 -0.013164125 0.0034976657 4288363813
-0.010811456 -0.013892579 0.0040256418 4287968309
-0.0084081218 -0.016173672 0.0058707967 4289017634
-0.010562509 -0.017009784 0.0041840486 4290063644
-0.0084572956 -0.017740045 0.0047097802 4289278754
-0.0063468218 -0.018470054 0.0052352492 4289606173
0.025167279 -0.018457498 0.0037948638 4289344798
0.028328814 -0.02307163 0.0075874254 4289082659
-0.010611482 -0.018573713 0.0030248333 4289867038
-0.0085064769 -0.019306131 0.0035489798 4290456344
-0.0065504611 -0.019257637 0.0034175329 4289344033
0.020429745 -0.017008957 0.00028100982 4289019419
0.022182398 -0.01617955 -0.00050137378 4289869078
0.024522707 -0.017689077 0.00067387521 4290194969
0.027274609 -0.020757355 0.0031528622 4289932573
0.030454412 -0.02538394 0.0069345236 4288230959
-0.012906015 -0.018619396 0.00068874098 4288625444
-0.01110673 -0.017788291 -9.6367672e-05 4288754473
-0.0090100989 -0.018523086 0.00042672455 4289735969
-0.0067539811 -0.020040588 0.0016032495 4289736988
-0.0046440661 -0.020774867 0.002125591 4290064409
0.0097444803 -0.014906449 -0.0034862421 4289412119
0.012223698 -0.017204138 -0.0016599316 4289476634
0.014350779 -0.017936995 -0.0011380054 4289803289
0.016483106 -0.018669643 -0.00061636977 4289933849
0.018241592 -0.017838085 -0.0013976507 4289999384
0.0201867 -0.017788511 -0.0015273616 4290456854
0.021741621 -0.016175145 -0.0029588919 4290914068
0.023878574 -0.016907349 -0.0024373233 4290063899
0.026221119 -0.018421046 -0.001265442 4290325274
0.029386848 -0.023061106 0.0025074705 4290521624
-0.013100676 -0.019393204 -0.0011194944 4291046924
-0.011304192 -0.018559959 -0.0019027758 4290455578
-0.0090590715 -0.020082161 -0.00072887912 4290651929
-0.006803222 -0.021604009 0.00044443645 4289605664
-0.0048503503 -0.021555455 0.00031330436 4289605663
-0.003216818 -0.019936915 -0.0011211857 4288824344
0.0037182122 -0.015818559 -0.0048979213 4289543444
0.0054778159 -0.014985328 -0.0056780521 4289672729
0.0074076802 -0.014936675 -0.0058071399 4289605918
0.0093373582 -0.01488793 -0.0059361449 4290064408
0.011810817 -0.017192265 -0.004114286 4290129688
0.014116339 -0.018711768 -0.002943553 4290130198
0.016059019 -0.018662404 -0.0030732118 4289802524
0.017622553 -0.017044641 -0.0045022098 4290784018
0.01917503 -0.015427023 -0.0059304452 4290129433
0.020911321 -0.014593677 -0.0067084925 4289474594
0.022839621 -0.014544387 -0.006836975 4290063389
0.025368705 -0.016846742 -0.0050184047 4290194204
0.028319985 -0.020716263 -0.0019032676 4289670434
0.031709731 -0.026152536 0.0025073588 4288688939
-0.013149299 -0.020949831 -0.0022733081 4290522643
-0.011204265 -0.020901788 -0.0024041515 4290521369
-0.0092593729 -0.020853642 -0.0025349036 4289867038
-0.0073146373 -0.020805417 -0.002665583 4289997598
-0.005370073 -0.020757075 -0.0027961619 4290063644
-0.0035851672 -0.01992151 -0.0035767257 4290129689
-0.0014814213 -0.020660078 -0.0030570477 4290391829
0.00046263635 -0.020611437 -0.0031873602 4290326804
0.0020711944 -0.018988896 -0.004616661 4289737754
0.0034983307 -0.016579663 -0.0066945506 4290456854
0.0052551776 -0.015744332 -0.0074728811 4290653204
0.0071822107 -0.015695741 -0.0076017762 4291176463
0.0092875883 -0.016433688 -0.0070817741 4291045904
0.011579469 -0.017957959 -0.0059134224 4290718483
0.013698056 -0.018695438 -0.00539413 4289475359
0.015821889 -0.019432642 -0.004875157 4290587669
0.017382741 -0.017810553 -0.0063007819 4290979860
0.019124657 -0.016974973 -0.0070776511 4290979603
0.020666122 -0.015353263 -0.0085018231 4290456089
0.022591583 -0.015304028 -0.0086301025 4289278244
0.024717115 -0.016040798 -0.0081109526 4289409059
0.027659804 -0.019921411 -0.0050033284 4290193948
0.030629441 -0.023801278 -0.001897458 4290128159
0.03341759 -0.026894514 0.00055985898 4289670179
-0.015572332 -0.02018504 -0.005244757 4289607194
-0.013343759 -0.021716587 -0.0040763188 4290063643
-0.011401571 -0.021668622 -0.0042069741 4289997598
-0.0094595328 -0.021620553 -0.0043375399 4290128669
-0.0079796463 -0.019204095 -0.0064145727 4289866783
-0.0062028021 -0.018366667 -0.0071930587 4289997598
-0.0041126981 -0.019107843 -0.0066741537 4289671454
-0.0018551424 -0.02063806 -0.0055072093 4290391319
0.00041311234 -0.022167845 -0.0043409327 4290718484
0.0020216852 -0.020540951 -0.0057669971 4290064153
0.0032786131 -0.017336197 -0.0084877918 4290587669
0.0048596561 -0.015709775 -0.0099119218 4289278498
0.0066054016 -0.014872444 -0.010687818 4289671199
0.0090593696 -0.017190414 -0.0088744313 4290718229
0.011348285 -0.018719129 -0.0077091325 4291110673
0.013647884 -0.02024753 -0.0065444373 4289605918
0.015398294 -0.019409666 -0.0073204087 4289802268
0.017143093 -0.018571939 -0.0080959266 4289998109
0.018690221 -0.016945809 -0.0095172962 4289997853
0.020421021 -0.016108219 -0.010291794 4290586648
0.022146225 -0.01527076 -0.011065832 4290848534
0.024266161 -0.016009834 -0.010547918 4290782744
0.027202979 -0.019901544 -0.0074479729 4290717208
0.029755495 -0.022216164 -0.0056406073 4289669923
0.032324068 -0.024530355 -0.0038342271 4289931809
0.034908734 -0.026844062 -0.0020288639 4287707443
-0.017978482 -0.01940646 -0.0082073174 4288823579
-0.015763652 -0.02094277 -0.0070413202 4289998618
-0.01353807 -0.022478748 -0.0058759246 4290194204
-0.011598743 -0.022430848 -0.0060063833 4289997598
-0.0099619702 -0.020799499 -0.0074316226 4289801504
-0.008490175 -0.018376695 -0.0095032388 4290848534
-0.0067215487 -0.017537314 -0.010279569 4291044883
-0.0043210462 -0.019863831 -0.008467963 4290848533
-0.002228573 -0.020607043 -0.0079507753 4289474849
3.3982098e-05 -0.022141358 -0.0067873066 4290194713
0.0018046647 -0.021301465 -0.0075635053 4289998875
0.0033995137 -0.019670483 -0.0089853518 4290194714
0.0048103333 -0.017248515 -0.011052369 4289736478
0.0065560266 -0.016409032 -0.01182666 4288297259
0.0086528957 -0.017151549 -0.011309329 4289802014
0.010936141 -0.018684795 -0.010146839 4289605408
0.013046212 -0.019426797 -0.0096302573 4290325528
0.014975011 -0.01937782 -0.0097590145 4289409568
0.016903594 -0.019328741 -0.0098876758 4289801758
0.018831998 -0.019279607 -0.010016281 4289670689
0.020370804 -0.017649218 -0.011433843 4289932063
0.022293389 -0.017600082 -0.01156195 4289801248
0.02421575 -0.017550847 -0.011689963 4289866274
0.026746452 -0.01987268 -0.0098860236 4289473573
0.028882138 -0.02061343 -0.0093707033 4289408549
0.031439558 -0.022934429 -0.0075684302 4288295728
0.034013063 -0.025254954 -0.0057671843 4287641908
-0.024737697 -0.015530648 -0.013490269 4288692508
-0.022558101 -0.017072562 -0.012325352 4289934359
-0.020367768 -0.018614033 -0.011161095 4290129689
-0.018166669 -0.020155137 -0.0099974908 4290718738
-0.01609781 -0.020901877 -0.0094808303 4289933084
-0.013877943 -0.022442292 -0.0083183181 4289867294
-0.011944182 -0.022394557 -0.008448422 4289998110
-0.010312848 -0.020759013 -0.0098700002 4289801758
-0.0086925551 -0.019123614 -0.011290815 4291372304
-0.0069267005 -0.018282119 -0.012065332 4290194203
-0.0048478469 -0.019027939 -0.011548919 4290259739
-0.0027637258 -0.019773509 -0.011032768 4291044883
-0.0006743148 -0.020518919 -0.01051688 4290063388
0.0014203414 -0.021264022 -0.010001284 4290586904
0.0033501163 -0.021215551 -0.010130499 4289670944
0.0049339235 -0.019580372 -0.011548351 4290783254
0.0063310862 -0.017152194 -0.013609506 4290456598
0.0082467347 -0.017103793 -0.013737565 4290456599
0.010343246 -0.017848423 -0.013221776 4290914324
0.012444995 -0.018592812 -0.012706259 4290717974
0.014365524 -0.018544037 -0.012834456 4290194714
0.016475052 -0.019288059 -0.012319331 4290259739
0.018014126 -0.017653454 -0.013733705 4289670433
0.019931361 -0.017604537 -0.013861516 4289670434
0.021651074 -0.01676286 -0.014631948 4289735459
0.024165355 -0.019091669 -0.012831865 4289931809
0.026290223 -0.019834982 -0.012317454 4290324509
0.028831281 -0.022162968 -0.010519051 4288885288
0.031180218 -0.023698129 -0.0093636103 4287707444
0.03417255 -0.027609915 -0.0062834257 4286071873
-0.026306711 -0.019494165 -0.012556463 4290458638
-0.024520654 -0.018650979 -0.013331456 4289344289
-0.022740163 -0.017807767 -0.014106026 4290521369
-0.020552807 -0.01935374 -0.01294479 4290259738
-0.018494897 -0.020102989 -0.012429133 4289605663
-0.016288776 -0.021648202 -0.011269014 4289671199
-0.014363162 -0.02160077 -0.011398646 4290063389
-0.012289345 -0.022349335 -0.010883767 4289998110
-0.010663442 -0.020709563 -0.012301808 4290848023
-0.0090485737 -0.019069981 -0.013718972 4289277988
-0.0072882175 -0.018226458 -0.014491512 4289081893
-0.0050557703 -0.019770402 -0.013332704 4289867038
-0.0031365007 -0.01972248 -0.013461429 4290063389
-0.0010527372 -0.020470163 -0.01294682 4289997854
0.00086893141 -0.020422006 -0.013075576 4289997598
0.002960518 -0.021169282 -0.012561334 4289932829
0.0048845634 -0.02112087 -0.012690103 4290129179
0.0064573586 -0.019481562 -0.014103867 4289933084
0.0080191121 -0.017842447 -0.015516829 4291045139
0.0099317506 -0.017794052 -0.015644636 4290587159
0.011844218 -0.017745581 -0.015772369 4290063644
0.01394289 -0.01849217 -0.015258223 4289932319
0.01604683 -0.01923852 -0.014744349 4289605154
0.017964162 -0.019189686 -0.014872231 4289474339
0.020075865 -0.019935679 -0.014358757 4289212453
0.02199553 -0.019886611 -0.014486665 4288820009
0.024114989 -0.020632286 -0.01397362 4288754984
0.026442401 -0.022172481 -0.01282008 4289474594
0.028780445 -0.02371229 -0.01166724 4288361773
0.031337291 -0.026046384 -0.0098746596 4287248953
0.033699371 -0.027585469 -0.0087233381 4286399039
-0.032229386 -0.020368259 -0.013948735 4288690723
-0.030190021 -0.021120837 -0.013433965 4290326549
-0.02801881 -0.022671949 -0.012275245 4290390299
-0.026224539 -0.021826509 -0.013049262 4289866783
-0.024567798 -0.020182448 -0.01446668 4290455579
-0.022787381 -0.019337071 -0.015239634 4291044374
-0.020875115 -0.019290289 -0.015368606 4290259228
-0.018822841 -0.020041915 -0.014854159 4291240468
-0.016622432 -0.021591634 -0.013696903 4290193949
-0.014702395 -0.021544315 -0.013826143 4289932319
-0.012782499 -0.021496929 -0.01395532 4289997599
-0.011315763 -0.019054808 -0.016012134 4291044119
-0.0097117573 -0.017411154 -0.01742534 4290782488
-0.008118771 -0.015767682 -0.018837733 4290063133
-0.00574103 -0.018114315 -0.017039217 4290193949
-0.0036708638 -0.018864602 -0.01652538 4291044883
-0.0015954375 -0.019614697 -0.016011778 4290521369
0.00031795353 -0.019566765 -0.016139992 4290063388
0.0025712252 -0.021114135 -0.014985516 4290521114
0.0044897124 -0.021065859 -0.015113911 4290259228
0.0064080358 -0.021017529 -0.015242251 4289735969
0.0081480071 -0.020171588 -0.016011246 4289343524
0.010063261 -0.020123135 -0.016139232 4289343268
0.011978328 -0.020074602 -0.016267143 4289147429
0.0137069 -0.019228693 -0.017035186 4288362283
0.016186014 -0.021571767 -0.015242705 4288231468
0.018105984 -0.021522861 -0.015370756 4288100909
0.020414717 -0.023068132 -0.014219395 4288035373
0.022339739 -0.023018941 -0.01434767 4288100908
0.024864279 -0.025360553 -0.012557988 4287839279
0.02699969 -0.02610798 -0.012047539 4287773234
0.029140323 -0.026855147 -0.011537416 4288492589
0.03149423 -0.028398866 -0.010388841 4287968564
-0.033126805 -0.029156137 -0.0091655804 4287774763
-0.031791884 -0.02510383 -0.012511909 4288297513
-0.03048427 -0.021052096 -0.015856249 4289016613
-0.028571688 -0.021005772 -0.015985589 4290128414
-0.026788376 -0.02015844 -0.016757263 4290324763
-0.025010627 -0.019311115 -0.017528463 4289605154
-0.023238443 -0.018463831 -0.01829922 4289670434
-0.021197136 -0.019217957 -0.017785765 4289343268
-0.019290574 -0.019171208 -0.017914275 4290651673
-0.017098587 -0.020725496 -0.016759697 4289997599
-0.015186846 -0.02067839 -0.016888384 4290324763
-0.013275243 -0.020631203 -0.017016999 4289932063
-0.011816576 -0.018182807 -0.019068381 4290389788
-0.010220721 -0.016534999 -0.02047787 4290848023
-0.008635886 -0.014887382 -0.021886485 4291109909
-0.006425716 -0.016440574 -0.020732649 4290651928
-0.0043666065 -0.017193384 -0.020219667 4290390553
-0.0018086806 -0.020345969 -0.017786859 4289932573
0.00026912987 -0.021098092 -0.017274966 4290259483
0.0025221482 -0.022649843 -0.016123729 4290389788
0.0044405386 -0.022601593 -0.016252134 4289866528
0.0063587427 -0.022553265 -0.016380467 4289016103
0.0082767755 -0.022504833 -0.016508706 4288754728
0.010375462 -0.023255931 -0.015997915 4288623658
0.012295879 -0.023207288 -0.016126202 4288231469
0.014029831 -0.022359069 -0.016892988 4287970094
0.016136132 -0.023109743 -0.016382534 4287708464
0.018439405 -0.024659587 -0.015234105 4287773743
0.021142147 -0.02780761 -0.012810231 4287642928
0.023275048 -0.028557369 -0.012301374 4287773743
0.02561301 -0.030106053 -0.011155129 4287773999
0.027354024 -0.029257232 -0.011922071 4287446323
0.029294662 -0.029207436 -0.012051232 4287511093
0.031235099 -0.029157598 -0.012180343 4286006083
-0.03171774 -0.027446795 -0.013011847 4287970349
-0.0305309 -0.022580873 -0.016989514 4289016614
-0.02899763 -0.020125147 -0.019041833 4289735713
-0.02735167 -0.018472731 -0.020452186 4290586394
-0.025584877 -0.017623527 -0.021221051 4289474083
-0.023689084 -0.017577263 -0.021348998 4289081638
-0.021656148 -0.018333754 -0.020836588 4288885033
-0.019617882 -0.019090086 -0.020324444 4289408804
-0.017574314 -0.019846121 -0.019812606 4290520859
-0.015670858 -0.019799251 -0.01994076 4290128414
-0.01376754 -0.019752255 -0.020068806 4289997344
-0.012015231 -0.018902637 -0.020836122 4290520603
-0.010422096 -0.017250538 -0.022242188 4290128158
-0.0086836517 -0.016401067 -0.023008427 4289932063
-0.0066327676 -0.017156279 -0.022496602 4289997599
-0.0044148341 -0.018713612 -0.021346437 4289539618
-0.0020217448 -0.021072704 -0.019558502 4289212453
5.3144991e-05 -0.021827057 -0.019048097 4288820264
0.0023032129 -0.023383277 -0.017899854 4288296748
0.0045639724 -0.024939099 -0.016752306 4288230958
0.0066601187 -0.025692634 -0.016243111 4287838513
0.0087615326 -0.026445989 -0.015734158 4287576883
0.010687433 -0.026397306 -0.015862888 4287511603
0.012613162 -0.026348531 -0.015991531 4287707698
0.01453872 -0.026299665 -0.016120091 4287642929
0.017030798 -0.028655468 -0.014338188 4287642929
0.018964149 -0.028606281 -0.014467178 4287708208
0.021286003 -0.030159935 -0.013323175 4287708464
0.023421459 -0.030911811 -0.012816112 4287904558
0.025961675 -0.033266135 -0.011037159 4287839279
0.027505599 -0.031613708 -0.012438766 4287380278
0.029038504 -0.029961567 -0.013839567 4287248954
-0.031522844 -0.030599276 -0.012875127 4287970093
-0.030453905 -0.024914864 -0.01748302 4287773744
-0.029044185 -0.021647213 -0.020170113 4289146918
-0.027527276 -0.019185197 -0.022216424 4290716953
-0.02589504 -0.017528718 -0.023622505 4290586394
-0.024273805 -0.015872322 -0.02502778 4290259229
-0.022114735 -0.017436361 -0.023877563 4290193439
-0.020084836 -0.018195026 -0.023366511 4290520348
-0.018049635 -0.018953439 -0.022855723 4290520603
-0.016154461 -0.018906781 -0.022983326 4289931808
-0.014259443 -0.018860009 -0.023110829 4290127903
-0.012213744 -0.019617859 -0.022600524 4290127903
-0.010316268 -0.019570816 -0.022728037 4289539363
-0.0082626939 -0.020328321 -0.022218073 4289343269
-0.006521754 -0.019476462 -0.022982825 4289212454
-0.0043013617 -0.02103808 -0.021836057 4288362539
-0.0020702705 -0.022599276 -0.020689966 4287969839
0.00017155707 -0.024160156 -0.019544484 4287970094
0.0024240687 -0.025720637 -0.018399697 4287969329
0.0046872944 -0.027280744 -0.017255548 4288099889
0.0069612265 -0.028840547 -0.016112015 4287968818
0.0088899136 -0.028791897 -0.016241005 4287707699
0.010999128 -0.029547106 -0.015734177 4287511604
0.012930192 -0.029498212 -0.015863188 4287511603
0.015233316 -0.031056931 -0.014721349 4287642929
0.017169453 -0.031007754 -0.014850584 4287773744
0.019296974 -0.031762179 -0.014344737 4287839279
0.021235473 -0.031712767 -0.014474001 4287839023
0.023370773 -0.032466859 -0.013968574 4287969584
0.025311612 -0.032417264 -0.014097901 4288035118
0.027049869 -0.031564184 -0.01486144 4288033844
0.028782509 -0.030711176 -0.015624551 4287837749
-0.031207372 -0.034567911 -0.012106523 4287970093
-0.030129958 -0.028868048 -0.016703723 4287773744
-0.029090725 -0.023169039 -0.021298215 4288296493
-0.027573768 -0.020700529 -0.0233397 4289539364
-0.026204932 -0.017424945 -0.02601739 4289735713
-0.024320293 -0.017378982 -0.026144607 4290913559
-0.022435773 -0.017332902 -0.026271725 4290520858
-0.020131804 -0.019708227 -0.02448816 4290390043
-0.018239364 -0.019661753 -0.024615664 4290062369
-0.016347051 -0.01961516 -0.024743069 4290062113
-0.014454871 -0.019568464 -0.024870386 4289866019
-0.012110636 -0.021942385 -0.023089224 4289408293
-0.010057114 -0.022702126 -0.022580996 4288950568
-0.0076859817 -0.025075136 -0.020801535 4288362284
-0.0057753325 -0.025027577 -0.020929793 4288231468
-0.0037031993 -0.025786586 -0.020422537 4288231469
-0.0017901286 -0.025738792 -0.020550827 4287642928
0.00028982759 -0.026497371 -0.020043997 4287642419
0.0025448129 -0.02806215 -0.018902618 4287576628
0.0048105121 -0.0296266 -0.017761838 4287642164
0.0070869029 -0.031190677 -0.01662177 4287576628
0.0090181977 -0.031141942 -0.016750921 4287511349
0.011129953 -0.031899296 -0.016245905 4287314998
0.013063617 -0.031850353 -0.016375102 4287511349
0.015183181 -0.032607384 -0.015870441 4287445813
0.016930446 -0.03175224 -0.016633287 4287576629
0.018863618 -0.031703059 -0.016762264 4287772723
0.020602375 -0.03084803 -0.017524397 4287510838
0.022729374 -0.031604525 -0.017020045 4287118649
-0.031254541 -0.036119949 -0.013257045 4287708208
-0.030053336 -0.031214593 -0.017206611 4287839279
-0.029011063 -0.025500327 -0.021790013 4288035118
-0.027749144 -0.021406041 -0.025098786 4289081128
-0.026382897 -0.018121835 -0.027769838 4289342758
-0.02436677 -0.018885404 -0.027261255 4289735203
-0.022345319 -0.019648746 -0.026752958 4289735459
-0.020178743 -0.021221226 -0.025609661 4289473829
-0.018143937 -0.021984024 -0.025102105 4289277734
-0.016249035 -0.021937363 -0.025229679 4288820008
-0.014206327 -0.022699742 -0.024722487 4288165933
-0.011856973 -0.025080087 -0.022946544 4288165933
-0.0096448436 -0.02665085 -0.021805946 4288296748
-0.0072658733 -0.029030235 -0.020031825 4288165933
-0.0051883608 -0.02979137 -0.019526687 4288035118
-0.0032671019 -0.029743474 -0.0196556 4288100654
-0.001346007 -0.029695474 -0.019784424 4287773744
0.00074192137 -0.030456048 -0.019279763 4287577393
0.0030048192 -0.032025035 -0.018142117 4287511604
0.0051060095 -0.03278508 -0.017638197 4287511603
0.007037349 -0.032736488 -0.017767459 4287511349
0.0089685395 -0.032687794 -0.01789663 4287511349
0.011080116 -0.033447329 -0.01739322 4287511349
0.012830421 -0.032590151 -0.01815474 4287838259
0.014947094 -0.033349402 -0.017651556 4287903794
0.016502932 -0.031684112 -0.019044539 4286725693
-0.033243675 -0.03771852 -0.014275869 4286988343
-0.031422373 -0.036859803 -0.015042324 4287446323
-0.029976826 -0.033565339 -0.017712537 4288035373
-0.029183764 -0.026212081 -0.023553971 4287839279
-0.02805322 -0.02129519 -0.027488902 4288231213
-0.026560709 -0.018814199 -0.029518936 4289015848
-0.024278946 -0.021203281 -0.027743775 4289016104
-0.022117965 -0.022780349 -0.026603412 4288689194
-0.01994624 -0.024356982 -0.025463721 4288623658
-0.017906178 -0.025121897 -0.024958113 4288100653
-0.015860818 -0.0258865 -0.024452804 4287904559
-0.013662271 -0.027462177 -0.023314698 4287904303
-0.011603579 -0.028226251 -0.022810135 4287969583
-0.0093862489 -0.02980132 -0.021673109 4288165933
-0.0073142424 -0.030564852 -0.021169284 4287969328
-0.0052369386 -0.031328168 -0.020665752 4288035118
-0.002992861 -0.032902256 -0.019530291 4287969839
-0.0010664389 -0.032854162 -0.019659499 4287839279
0.0006929338 -0.031995103 -0.020420473 4287839279
0.002616331 -0.03194686 -0.020549312 4287446323
0.0047119334 -0.03270933 -0.020046642 4287445813
0.0068127811 -0.033471487 -0.019544264 4287576884
0.0087411404 -0.03342288 -0.019673258 4287641908
0.010669351 -0.03337419 -0.019802179 4287511093
0.012414202 -0.032515023 -0.020561751 4287445559
-0.031831302 -0.035966769 -0.01809087 4286922809
-0.030023772 -0.035106093 -0.018854687 4287838513
-0.028978139 -0.029361304 -0.023415746 4287839279
-0.027841888 -0.024431318 -0.027341351 4287969839
-0.026343893 -0.021943614 -0.029366933 4288166189
-0.024191227 -0.023525368 -0.028229345 4288035373
-0.021890875 -0.025920402 -0.026460204 4287970094
-0.019574314 -0.028315019 -0.024692068 4287839279
-0.017383944 -0.02989546 -0.023556806 4287970094
-0.015327893 -0.030662045 -0.02305381 4287904303
-0.013414346 -0.030614875 -0.023182604 4288035118
-0.011500932 -0.030567588 -0.023311302 4287838513
-0.009587653 -0.030520219 -0.023439925 4287904049
-0.0075185448 -0.031286016 -0.022937538 4287904049
-0.0051267967 -0.033677995 -0.02117395 4287838259
-0.0030416474 -0.03444327 -0.020672474 4287773234
-0.0011153519 -0.034395188 -0.020801682 4287642164
0.00047714263 -0.032720968 -0.022191236 4287838258
0.0025672615 -0.033485774 -0.02168991 4287445814
0.0041458905 -0.031811774 -0.023078365 4287576884
-0.032119263 -0.035876803 -0.020497901 4287053368
-0.030193985 -0.035830349 -0.020628231 4287772979
-0.029024746 -0.030886648 -0.024546459 4287577394
-0.027502108 -0.028392022 -0.026568929 4287381045
-0.026127309 -0.025081599 -0.029221211 4288689449
-0.023835339 -0.027483495 -0.027456459 4288493098
-0.021664023 -0.02906901 -0.026323266 4287969583
-0.01948195 -0.030654125 -0.025190771 4287839279
-0.017289117 -0.032238916 -0.024058878 4288100908
-0.015230559 -0.033007581 -0.023557723 4288100653
-0.013314426 -0.032960363 -0.023686703 4287970094
-0.011247963 -0.033728614 -0.023185913 4287576883
-0.0096357167 -0.032050107 -0.024573894 4287707443
-0.0075668097 -0.032818109 -0.02407313 4287707699
-0.0054925904 -0.033585873 -0.02357264 4287707188
-0.0034130812 -0.034353405 -0.023072435 4287903539
-0.0014923215 -0.034305487 -0.023201287 4288230193
9.4771385e-05 -0.032627121 -0.024587221 4287118394
-0.030610438 -0.034913294 -0.023658186 4286137409
-0.028819479 -0.034048568 -0.024417574 4286922298
-0.027548626 -0.029910691 -0.027694685 4287053369
-0.025910981 -0.028228018 -0.029081818 4287773234
-0.023747984 -0.029818207 -0.02795139 4288362029
-0.021437418 -0.032226078 -0.026192676 4288623914
-0.0193897 -0.032997396 -0.025692562 4288165678
-0.017194413 -0.034586482 -0.024564076 4287904558
-0.015278276 -0.034539387 -0.024693146 4287707699
-0.013362274 -0.034492169 -0.024822118 4287838514
-0.011446394 -0.034444876 -0.024951018 4287707444
-0.0096837506 -0.033579797 -0.025707722 4287510838
-0.0079266727 -0.032714706 -0.02646401 4286922299
-0.029117893 -0.033936806 -0.026807502 4286856509
-0.027852289 -0.029788192 -0.030076172 4287249208
-0.02582619 -0.030562563 -0.029576477 4287838258
-0.023526721 -0.032977384 -0.027821908 4287707699
-0.021347795 -0.034571383 -0.026695753 4287707443
-0.019437004 -0.034524634 -0.026824625 4288623403
-0.017668489 -0.033657666 -0.027580421 4288296494
-0.015615754 -0.034430858 -0.02708213 4287707443
-0.013705321 -0.034383792 -0.027210739 4287380278
-0.029541813 -0.032993533 -0.029817309 4286660158
-0.028155658 -0.029656935 -0.032451093 4287576373
-0.026003964 -0.031256169 -0.031326503 4287838259
-0.023975458 -0.032032542 -0.030828502 4287511093
-0.021804936 -0.033631161 -0.029704986 4287772979
-0.01990243 -0.033584647 -0.029833324 4288230703
-0.018000029 -0.033538017 -0.029961567 4288034609
-0.015952919 -0.034313522 -0.029464515 4287576373
-0.028330289 -0.030341525 -0.034194753 4287379769
-0.026181579 -0.031945243 -0.033073165 4287249209
-0.010117143 -0.0057066418 0.027545758 4280648024
-0.0084285513 -0.0041571185 0.026055284 4283133254
-0.010460675 -0.0057952404 0.025010724 4280256089
-0.0086278021 -0.0049939696 0.02420054 4281368144
-0.010657012 -0.0066295732 0.023157608 4280126549
-0.0091262311 -0.0043167658 0.020999108 4280324938
-0.0073072314 -0.0035135131 0.020191584 4282935628
-0.010853246 -0.007459214 0.021307889 4279865174
-0.0094746947 -0.004383089 0.018481068 4280779858
-0.0078134909 -0.002820937 0.017002258 4281759314
-0.0095238686 -0.005958477 0.017313343 4280256599
-0.008014895 -0.0036329869 0.015166152 4281106258
-0.00621254 -0.0028256439 0.014363099 4282740299
-0.011098601 -0.009865921 0.018289279 4279927138
-0.0092741773 -0.0090560401 0.017486226 4280385883
-0.0079118609 -0.0059626792 0.014673539 4280780369
-0.0061068237 -0.0051530879 0.013871934 4281760078
-0.0041498244 -0.0051045343 0.013740446 4283786818
-0.0096222758 -0.0091084111 0.014978532 4280126293
-0.0079610497 -0.0075331461 0.013509478 4280780623
-0.00631091 -0.0059580654 0.012041308 4280976974
-0.0043567568 -0.0059095901 0.01191001 4281499213
0.031685114 -0.015740126 0.019000333 4282871369
-0.0099700913 -0.0091517344 0.012477469 4279799893
-0.0083143264 -0.0075722709 0.011012083 4280454734
-0.0065148771 -0.0067583695 0.010214085 4280847433
-0.0048784986 -0.0051791705 0.008750163 4280912204
-0.0027726293 -0.0058960803 0.0092857685 4283328838
0.021755956 -0.0022000335 0.0049373657 4283067463
0.024087079 -0.003679391 0.0061358456 4282478668
0.027835652 -0.010508453 0.011978257 4282347599
-0.018966421 -0.004770007 0.0065131932 4283788858
-0.010466911 -0.0084183086 0.009317724 4280451164
-0.0083634183 -0.0091378195 0.0098516736 4280192084
-0.0065640137 -0.0083217323 0.0090553109 4280585549
-0.0047702417 -0.0075057074 0.008259451 4280586568
-0.0031422153 -0.0059222355 0.0067994185 4281174343
-0.0018509552 -0.002804026 0.0040113013 4281957193
0.011484034 -0.001697341 0.0024432279 4283070014
0.013411462 -0.0016485155 0.0023144763 4282415938
0.015713334 -0.0031332523 0.003511386 4282221374
0.017645769 -0.0030841455 0.0033824127 4282025023
0.019770741 -0.0038016252 0.00391596 4282154565
0.021705449 -0.0037522875 0.0037869643 4282153288
0.024234518 -0.0060025379 0.0056442972 4282153289
0.027985074 -0.012851131 0.011472018 4282152013
-0.0084125102 -0.010703067 0.0086914916 4279993183
-0.0063039362 -0.011424475 0.0092235208 4280976973
-0.0048194602 -0.0090665938 0.0071025211 4281239369
-0.0035115331 -0.005939357 0.004319692 4281501508
-0.0022255555 -0.0028125588 0.0015384126 4282742594
0.0070498139 -0.0010324214 -0.00043026544 4282350913
0.0091485009 -0.0017531663 0.000103103 4282286908
0.011434242 -0.0032428708 0.0012977701 4282091579
0.01317703 -0.0024249367 0.00050762482 4281895228
0.015288688 -0.0031451471 0.0010403562 4281764924
0.017215587 -0.0030961558 0.00091177411 4281765179
0.019334957 -0.0038159527 0.001444079 4282025789
0.021459527 -0.0045355223 0.0019761045 4282349894
0.024579912 -0.0090985103 0.0058101658 4282219079
0.028335169 -0.015966587 0.011622988 4282152268
-0.0083097667 -0.013040134 0.0081934184 4280711009
-0.0061986893 -0.013763634 0.0087236743 4280712794
-0.004554145 -0.012171119 0.0072689559 4281305414
-0.0034006163 -0.0082631409 0.0038308725 4281372734
-0.0022744834 -0.0043557175 0.00039464794 4281698113
-0.0010102838 -0.0012206845 -0.0023785587 4282416449
0.00073637068 -0.00040102191 -0.0031677503 4282157624
0.0026482865 -0.00035303831 -0.0032957997 4282288438
0.0049071833 -0.0018480439 -0.0021027792 4282353719
0.0070004463 -0.0025711861 -0.0015707258 4281962039
0.009098947 -0.0032940991 -0.0010389537 4281701429
0.011020936 -0.0032454841 -0.0011673942 4282157624
0.013127178 -0.0039680284 -0.00063601322 4282026554
0.015238672 -0.0046904087 -0.00010487996 4281896248
0.017355345 -0.0054125041 0.0004259441 4281570869
0.019284658 -0.0053633731 0.00029725768 4281895994
0.021604389 -0.0068560839 0.0014867019 4282481473
0.024726972 -0.011432117 0.0053109434 4282414409
0.028885752 -0.019861374 0.012426388 4282544204
-0.006093584 -0.016106877 0.008220803 4283723579
-0.0044463053 -0.014509922 0.0067691542 4282548283
-0.0032898411 -0.010590997 0.0033389647 4282222904
-0.0021607578 -0.0066726431 -8.9308247e-05 4282157114
-0.00089370459 -0.0035287701 -0.0028562602 4282417724
0.00085563958 -0.0027068928 -0.0036439598 4282288948
0.0029409453 -0.0034325961 -0.003113132 4282288948
0.0050315037 -0.0041580833 -0.002582591 4282288948
0.0073035285 -0.005656939 -0.001393633 4281897778
0.0092283189 -0.0056083407 -0.0015223268 4281962293
0.011152938 -0.0055596512 -0.0016509406 4281636404
0.013077326 -0.0055108704 -0.001779465 4281767219
0.015188634 -0.0062354207 -0.0012499299 4281637169
0.017305158 -0.0069597065 -0.0007207226 4281963568
0.019426897 -0.0076837651 -0.00019179471 4281701173
0.021944374 -0.0099539515 0.0016517006 4281569849
0.025071859 -0.014542858 0.0054658651 4282088773
-0.0041814968 -0.017629111 0.0069246534 4283137079
-0.0033390597 -0.012146715 0.0021858793 4282550323
-0.0022097602 -0.0082174633 -0.001234306 4282549559
-0.0009425506 -0.0050648693 -0.0039947815 4282222393
0.00097473711 -0.0050168224 -0.0041232463 4281832499
0.0030625835 -0.0057446323 -0.0035942011 4282093618
0.0055025816 -0.0080240034 -0.0017509069 4282093618
0.0074301809 -0.0079754032 -0.0018798392 4281963823
0.009357594 -0.0079267323 -0.0020087082 4281898799
0.011284798 -0.0078779608 -0.0021374803 4281766964
0.013396122 -0.0086047091 -0.0016096588 4282093109
0.015699714 -0.010106784 -0.00042579509 4281898034
0.017824218 -0.010833075 0.00010131113 4282159920
0.019761458 -0.010783717 -2.7881935e-05 4281770024
0.022284053 -0.013060232 0.0018103886 4282485554
0.025218546 -0.016886832 0.0049588941 4282350658
-0.0033882856 -0.013702197 0.001032969 4282942513
-0.0022587702 -0.009762032 -0.0023791157 4282745908
-0.00082617998 -0.0073789861 -0.0044769496 4282419763
0.0010937154 -0.0073308703 -0.0046055838 4282223413
0.0033547431 -0.0088388976 -0.0034225062 4282354484
0.0056264549 -0.010346599 -0.0022400245 4282486064
0.0079088509 -0.011853914 -0.0010582451 4282224178
0.0098443106 -0.011805025 -0.0011876393 4282487339
0.011961102 -0.012533944 -0.00066182576 4282485043
0.013898879 -0.0124848 -0.00079122558 4282550323
0.016397335 -0.014768728 0.0010435972 4283137844
0.018342845 -0.014719239 0.0009137895 4283857454
-0.003277801 -0.01603795 0.00053520873 4283595568
-0.0021453351 -0.01208685 -0.0028689913 4282940984
-0.00054482371 -0.010477622 -0.004307582 4282681393
0.0015482903 -0.011209796 -0.0037821606 4282356013
0.0036466196 -0.01194166 -0.0032570325 4282095149
0.005923517 -0.013453548 -0.0020781849 4282420529
0.0078590438 -0.013404743 -0.0022076443 4282354230
0.0099731311 -0.014135983 -0.0016833283 4282877233
0.01227393 -0.015647007 -0.00050588325 4283859493
0.014401212 -0.016377699 1.763925e-05 4284380714
-0.0020320565 -0.014415772 -0.0033619087 4284247603
-0.00026370585 -0.013584792 -0.0041444637 4283464753
0.0020024255 -0.015101482 -0.0029682666 4283399729
0.0041087493 -0.015835399 -0.002445275 4283334959
0.00018214434 -0.017485216 -0.0033362843 4284576553
0.0084863976 0.047763392 0.023253094 4278923458
0.0098302364 0.049940906 0.021009956 4278462418
-0.00087216496 0.045292467 0.023465745 4278331859
0.0006866008 0.04676459 0.021928806 4279250879
0.0024069622 0.047523953 0.021097016 4279187128
0.0041216537 0.048283204 0.020265698 4279447483
0.0090479329 0.051272996 0.017070733 4280564129
0.010923468 0.051319666 0.016944818 4280170663
0.01298783 0.050654151 0.01752229 4279710643
-0.0067761838 0.044341512 0.022014696 4279252154
-0.0055266246 0.047248319 0.019072894 4278530249
-0.0041345954 0.049439684 0.016835928 4278462419
-0.0022574663 0.049485892 0.01670954 4278462674
0.0016687661 0.048863694 0.017159775 4279055293
0.0035479218 0.048910201 0.017033432 4279251643
0.0050705969 0.050386123 0.015502352 4279054783
-0.0091888979 0.044923469 0.018906355 4278399689
-0.0077772588 0.047121711 0.016672913 4278660299
-0.0058970824 0.04716786 0.016546216 4279316924
-0.0045103878 0.049365684 0.014314532 4280366504
-0.0029731169 0.05084604 0.012785558 4279120064
-0.00093734264 0.050175048 0.013361324 4278988739
0.00093105435 0.050221249 0.013235677 4279054784
0.0027992129 0.050267518 0.013110109 4279383479
0.0043110475 0.051747605 0.011583041 4278989759
0.0061732829 0.051793903 0.011457991 4279185089
0.011947468 0.051216528 0.011783304 4278267088
0.013811432 0.051263168 0.011658361 4279514039
0.01645261 0.0484441 0.014332138 4279121083
-0.0090796724 0.042686939 0.018482521 4279188148
0.0003663674 0.050877407 0.010024268 4279318198
0.0025767758 0.049485251 0.011297952 4279383734
0.0040859133 0.050969705 0.0097743683 4278726598
0.0061260313 0.050296992 0.010348486 4278857669
0.0081713721 0.049624443 0.01092235 4278791624
0.010221884 0.04895214 0.011495883 4278858178
0.012088738 0.048998818 0.011370717 4279449268
0.013763756 0.049764246 0.010547403 4279316413
-0.0078710094 0.044101261 0.014434021 4279251644
-0.0067988709 0.047755674 0.010814279 4278528973
-0.0020498112 0.051501065 0.006947238 4278398923
-2.5488436e-05 0.050825536 0.0075206906 4279383989
0.0020040423 0.050150253 0.0080938041 4279252408
0.0036829859 0.05091764 0.007271599 4278662339
0.0057174861 0.050242655 0.007844504 4279055804
0.0077572092 0.049567871 0.0084171128 4279055804
0.0099882036 0.048172221 0.0096864365 4278858434
0.012041025 0.047497921 0.010258289 4279120828
0.013716027 0.048265576 0.0094366185 4278923969
0.016654998 0.05124224 0.0064020939 4278722264
0.018906467 0.049847536 0.0076702852 4279771844
0.022787713 0.042688169 0.014504902 4280360128
0.032375187 0.022609869 0.03372762 4281873044
-0.007282868 0.039695896 0.016103588 4279646638
-0.0070070848 0.046980679 0.0090062488 4279316159
-0.0059648678 0.050645411 0.0053967517 4278660043
-0.0042823404 0.05141478 0.0045757163 4278987974
-0.0024358183 0.05146049 0.004451571 4279316414
-0.00058950484 0.051506259 0.0043274965 4279054273
0.0012565702 0.051552109 0.0042035002 4278989759
0.0031024218 0.05159805 0.0040795859 4279383478
0.0049480498 0.051644057 0.0039557386 4279448758
0.0071599931 0.050243571 0.0052230228 4278988738
0.0091966018 0.049566597 0.0057943445 4279382458
0.011427097 0.048166737 0.0070605036 4279579064
0.013285354 0.048213363 0.0069360379 4278660044
0.014560848 0.050429106 0.0047271978 4278331094
0.016410425 0.050475657 0.004603425 4278593488
0.021322772 0.04623206 0.0085216854 4278327268
0.02503328 0.039774567 0.014643773 4280431019
-0.0064080432 0.04258021 0.010678595 4279381948
-0.0058471635 0.048434041 0.0049908999 4278857159
-0.0041619465 0.049205706 0.0041713379 4278857924
-0.0023127943 0.049251512 0.0040470399 4279316414
0.0063799545 0.051658072 0.0013449825 4279447483
0.0084054917 0.05097872 0.0019154102 4279447229
0.010624878 0.049574248 0.003179092 4278922949
0.013931006 0.05111748 0.0015454069 4279774648
0.015772343 0.051163882 0.0014222227 4280300714
0.017812967 0.050485261 0.001991909 4279776179
0.020465516 0.047631867 0.004639253 4279381439
0.023344554 0.044054158 0.0079776552 4279906739
0.027704328 0.035403185 0.016160306 4280103854
0.032549851 0.025304375 0.025722846 4282986883
-0.0051641315 0.035249688 0.015113216 4279976354
-0.0050732717 0.043305978 0.0073563606 4279054273
-0.0040417239 0.046992511 0.0037639085 4279250624
-0.0025290102 0.048494391 0.0022530667 4278725834
-0.00085515529 0.049268171 0.0014360491 4279185088
0.00046307594 0.051497631 -0.00076624006 4278331349
0.0063329786 0.050179705 0.00024924614 4278988483
0.0081724972 0.050225794 0.00012598746 4279381438
0.010011762 0.050271958 2.8070062e-06 4279054784
0.022271588 0.046187639 0.003410209 4279382714
0.025786363 0.040418319 0.0088117216 4279186109
0.030606389 0.030288314 0.018353242 4280102578
0.035076104 0.021614136 0.026509136 4280299948
-0.0044841766 0.01244898 0.03432288 4281158024
-0.0041361004 0.037426017 0.010397708 4279383989
-0.0037549213 0.044044904 0.004045248 4279513529
-0.0010740235 0.048517838 -0.00035265274 4279119809
0.00041648746 0.050023787 -0.0018586423 4280695454
0.0020735338 0.050799526 -0.0026727654 4280170154
0.0040856078 0.050115392 -0.0021047387 4279579573
0.0059198141 0.05016131 -0.0022276733 4278266068
0.0079395846 0.049477533 -0.0016600452 4279447228
0.0097760484 0.049523659 -0.0017830096 4279119298
0.0118035 0.048840187 -0.0012157429 4278988993
0.013448238 0.049616128 -0.0020287223 4278725833
0.015087292 0.050391957 -0.0028412323 4278331349
0.019763112 0.046837837 0.00036083534 4278728384
0.022223443 0.044696733 0.0023052469 4278990014
0.025114931 0.041097656 0.0056266915 4279054783
0.029294915 0.03312438 0.013079528 4279578553
0.03374742 0.024423564 0.021217145 4281478049
-0.0045335144 0.010863649 0.033147775 4281813118
-0.0031925589 0.013842875 0.030252013 4280962439
-0.0033017695 0.040356383 0.0050104335 4279382714
-0.0029611364 0.046994053 -0.0013245773 4278267343
0.0058728978 0.048687831 -0.0033197757 4278267343
0.0077067763 0.048733853 -0.0034425985 4279252154
0.0099173263 0.047316127 -0.0021879468 4278857159
0.012138486 0.045898795 -0.00093398988 4279185089
0.013982549 0.045945309 -0.0010573156 4279251134
0.016022936 0.045260206 -0.00049244612 4279251133
0.018267862 0.043843657 0.0007601399 4279843243
0.020725422 0.041695938 0.0026997905 4279645873
0.023199052 0.03954865 0.0046384651 4279385264
