# .PCD v0.7 - Point Cloud Data file format
VERSION 0.7
FIELDS x y z rgba
SIZE 4 4 4 4
TYPE F F F U
COUNT 1 1 1 1
WIDTH 786
HEIGHT 1
VIEWPOINT 0 0 0 1 0 0 0
POINTS 786
DATA ascii
0.0181903 0.00053682923 0.061778814 4282674764
0.018672269 0.0067422464 0.054827966 4280850494
0.020742744 0.0068827942 0.054401942 4280066623
0.024843112 -0.00038325042 0.061932489 4279740478
0.01487498 0.01098533 0.047495872 4280915773
0.016026229 0.014503647 0.043460727 4280980543
0.017877428 0.015317388 0.04232014 4281566533
0.021013778 0.011402026 0.046232723 4280654398
0.025491482 0.002761513 0.055186763 4280589374
0.030228572 -0.0065493882 0.064847186 4281176894
0.012343649 0.01052244 0.045239165 4282087753
0.013327543 0.01473048 0.040488668 4279026224
0.014815789 0.016902123 0.037908383 4280328764
0.016288031 0.019072741 0.035331503 4281240899
0.019217584 0.015820485 0.038518704 4280394808
0.022734487 0.010537483 0.043859042 4279612468
0.026483798 0.004580088 0.049909644 4281047354
0.029320333 0.0020120069 0.052358203 4281242428
0.031593658 0.0014765263 0.052648738 4281241664
0.033279672 0.0029719472 0.050786249 4281371458
0.035755906 0.0017601922 0.051793151 4279417138
0.040677853 -0.0075683147 0.061392777 4280001854
0.0099946745 0.0093885735 0.043708183 4281697094
0.01099287 0.013610594 0.038964562 4281308219
0.012662806 0.015108641 0.037108116 4280852023
0.013607573 0.019327216 0.032375634 4279482164
0.015426794 0.02014311 0.031244962 4279416374
0.01816063 0.017559033 0.033707835 4279612724
0.021662584 0.012257501 0.039038032 4280524858
0.024260707 0.010356814 0.040772639 4281111614
0.026490875 0.0098161176 0.041070327 4281176638
0.027947623 0.011992671 0.038501918 4280980799
0.029585673 0.013489239 0.03665255 4280459833
0.031613119 0.013627462 0.036235824 4281306433
0.035870627 0.0063005015 0.043680012 4280850239
0.041419521 -0.0050932392 0.055396631 4279805759
0.0083234012 0.013861999 0.036003552 4281241409
0.0098177493 0.016046993 0.033431768 4281307964
0.011999197 0.015500229 0.033737473 4281112379
0.013472248 0.017683953 0.031170214 4281110593
0.015472662 0.017819714 0.030758573 4281110848
0.018024549 0.015909135 0.0324976 4280915774
0.021338454 0.011271946 0.037098601 4280981054
0.023365764 0.011409797 0.036681637 4281046589
0.02520125 0.012229331 0.035549536 4281242430
0.026447846 0.015092827 0.032274596 4280330038
0.027870206 0.017273739 0.029718233 4281241153
0.029676247 0.018091526 0.028592383 4281893189
0.033299893 0.012781285 0.033884801 4281436484
0.037582047 0.005432032 0.041305825 4281241154
0.043170549 -0.0059961006 0.052986324 4281175618
0.0066767707 0.01001548 0.037360489 4281698624
0.0075065903 0.014949039 0.031918168 4280003383
0.0093364976 0.015769739 0.030788386 4279286834
0.013693482 0.014671553 0.031397656 4280915263
0.015880108 0.014123116 0.031700768 4281111360
0.018255735 0.012890838 0.032718047 4281111358
0.021014724 0.010291047 0.035162598 4281111358
0.022472296 0.012480639 0.032603733 4281111869
0.024105489 0.013985418 0.030761877 4281046588
0.025533639 0.016173188 0.028209208 4280265524
0.02714275 0.01767651 0.026372442 4279548974
0.029140519 0.017812714 0.025961818 4279873079
0.032150123 0.014533702 0.029108251 4280068409
0.036621816 0.0064764693 0.037225157 4279871804
0.042196386 -0.0049897879 0.048880458 4280132414
0.0050133318 0.0061551332 0.038711235 4281891914
0.0053688698 0.013168626 0.031123852 4281308473
0.0065212213 0.016741373 0.027129503 4281568064
0.0085105337 0.016876087 0.02671993 4281633089
0.011026144 0.014949638 0.028456302 4280395319
0.013914045 0.011650585 0.031618886 4281046589
0.016286481 0.010413624 0.032633446 4281111358
0.018486228 0.0098640025 0.032932214 4281242173
0.020133017 0.011373885 0.031090727 4281046588
0.021391511 0.014255505 0.0278264 4281177149
0.023011571 0.01576376 0.025990544 4281241918
0.024815075 0.01658557 0.024868386 4281372479
0.026613221 0.017407164 0.02374736 4281111869
0.028805044 0.016857516 0.024048226 4280850238
0.031810947 0.013567321 0.02718717 4280784704
0.036687396 0.0041133389 0.036703788 4280784194
0.043091588 -0.010129653 0.051165849 4280914755
0.0025238991 0.0057318136 0.036473699 4282085714
0.0032314919 0.011388622 0.03032974 4281241153
0.0045651384 0.014283329 0.027055984 4280265779
0.0060473233 0.016487014 0.024501508 4281113909
0.0080311671 0.016621344 0.024093052 4281178934
0.010540754 0.014687959 0.025825666 4280395828
0.013244376 0.012066618 0.028268179 4280330293
0.015608311 0.010824651 0.029281212 4281177149
0.017616473 0.010961004 0.028868033 4281177149
0.019252785 0.012474582 0.027031949 4281177404
0.020501185 0.015364256 0.023776302 4280069683
0.022110779 0.016876169 0.021945899 4278767144
0.024291582 0.016323451 0.022247205 4278832168
0.026674405 0.015083332 0.023256781 4281046588
0.029067922 0.013844073 0.024264188 4281047099
0.032280162 0.0098557919 0.02810215 4280915775
0.037980705 -0.0023775324 0.04042507 4280915519
0.044814408 -0.018039644 0.056263611 4281045059
0.0004478246 0.012378581 0.02667656 4282284869
0.0021106675 0.013897516 0.024837783 4281764159
0.0039299019 0.014723826 0.023714965 4281634364
0.0055741705 0.016241748 0.021880114 4281114163
0.0075525455 0.016375694 0.021472773 4281049649
0.010056131 0.014435288 0.023201702 4280722228
0.012753561 0.011804767 0.02563888 4281046843
0.014931254 0.011249177 0.025938818 4281112123
0.016748184 0.012075894 0.024816902 4280916538
0.018188279 0.014283884 0.022276426 4280982074
0.019423902 0.017181423 0.019029995 4279874099
0.021402579 0.017316055 0.018623097 4280460599
0.024156421 0.014689948 0.02104911 4278376484
0.026931696 0.012065396 0.023470787 4280721209
0.029927524 0.0087525621 0.026595233 4281177403
0.033959232 0.0019933656 0.033247039 4281177659
0.040089481 -0.011656851 0.04694806 4281111868
0.005610317 0.013923407 0.021400029 4283273249
0.007591255 0.014057517 0.020992154 4281897779
0.0099219941 0.012804337 0.022005262 4281047353
0.012441043 0.010858499 0.023726119 4280981819
0.014435537 0.010993809 0.023315666 4281047609
0.016247172 0.011822402 0.022196459 4281049139
0.017496761 0.014729533 0.018953683 4280268074
0.019101473 0.016249757 0.017130809 4281373753
0.021077355 0.016384196 0.016724477 4281763649
0.023827679 0.013749115 0.019144619 4281372224
0.027188277 0.0090389326 0.023678532 4280850494
0.030984288 0.0029473081 0.02961584 4280980798
0.035836674 -0.0066001937 0.039068058 4281110849
0.041989923 -0.020292573 0.05273135 4281241154
0.0078016594 0.011039123 0.021217937 4284120359
0.0097879022 0.011173673 0.020809034 4282159153
0.01177419 0.011308327 0.020400194 4281570869
0.013400447 0.012834124 0.018575909 4281505333
0.015198763 0.013663933 0.017461115 4281440563
0.016620979 0.015883755 0.014934236 4281311024
0.018403286 0.016712714 0.013822844 4280529449
0.020561777 0.01615179 0.014123766 4280591668
0.023499325 0.01281295 0.017243555 4280394808
0.027248062 0.0066983327 0.023175659 4280198969
0.03203889 -0.002884075 0.03261736 4280849474
0.037509032 -0.014543399 0.044153713 4280979779
0.043274328 -0.026890308 0.056374267 4281044293
0.011285633 0.011073709 0.017790785 4284513058
0.012547076 0.013998881 0.01455866 4282617388
0.014152203 0.015527707 0.012742097 4282356014
0.015931875 0.016358528 0.011632858 4284448544
0.018082 0.015794788 0.011933731 4283077153
0.020428069 0.014534477 0.01293751 4281438778
0.023364592 0.01118464 0.016049264 4281242685
0.027895246 0.0022638142 0.024778159 4280980544
0.033091314 -0.0087415203 0.035599694 4280980799
0.038976856 -0.021829635 0.048508853 4281044038
0.020675162 0.011519119 0.013156081 4282356268
0.02380906 0.0074596629 0.016960455 4281504824
0.028932495 -0.0035856813 0.027770465 4281569593
0.034736827 -0.016720951 0.040664904 4281438014
0.040240683 -0.028452285 0.052138321 4281370438
0.03016312 -0.010162212 0.031443201 4284185129
0.035982605 -0.023337945 0.044303209 4282941494
0.040899236 -0.033003397 0.053649895 4282876468
-0.019567393 0.0069781467 0.0034450293 4283985464
-0.018756717 0.012850493 -0.0025627539 4284706858
-0.02066315 0.010429174 -0.0026212446 4281764413
-0.019447535 0.014157791 -0.0065142075 4281771298
-0.017397754 0.013565853 -0.0062088249 4282554404
-0.022574849 0.0080036074 -0.0026816539 4281567809
-0.021618441 0.013188884 -0.0079665305 4279612978
-0.019996271 0.014760792 -0.0097548878 4280003638
-0.017954811 0.014166091 -0.0094494531 4280134709
-0.01561597 0.012128174 -0.007751774 4280985898
-0.013409596 0.010813162 -0.0067534577 4282289459
-0.011343714 0.010220416 -0.0064528212 4282747183
-0.0092723742 0.0096281096 -0.0061531868 4284447524
-0.024756603 0.0070236027 -0.0041394979 4282022218
-0.023918271 0.012949862 -0.010113692 4280981308
-0.02243378 0.015250593 -0.01259559 4281568063
-0.020684324 0.016101584 -0.013681842 4281371714
-0.018510766 0.014779761 -0.012680219 4281046334
-0.016034827 0.012010708 -0.010290679 4281308729
-0.01368583 0.0099670365 -0.0085999556 4281178679
-0.011471812 0.0086482465 -0.0076064467 4281569849
-0.0097083785 0.0095006973 -0.0086951796 4281897779
-0.008106675 0.011076204 -0.010475563 4282225198
-0.026673071 0.0045942366 -0.0042015444 4282021964
-0.026074022 0.011993691 -0.01156022 4280849729
-0.024449013 0.013574295 -0.013342819 4279807799
-0.022834554 0.01515425 -0.015123123 4280003383
-0.021090396 0.016007043 -0.016206648 4280654908
-0.018922664 0.014680449 -0.015207136 4280264759
-0.016744114 0.013354689 -0.014209766 4279222828
-0.014406487 0.011303693 -0.012521656 4281046843
-0.012203641 0.0099797249 -0.011529101 4281176639
-0.010297246 0.010107979 -0.011922242 4281176893
-0.0088596344 0.012412831 -0.014388988 4281438778
-0.0072790124 0.013991416 -0.016161701 4280138278
-0.0052240565 0.013393939 -0.015861759 4280464679
-0.0028350465 0.0113471 -0.014183786 4280467228
-0.00093089044 0.011475734 -0.014576059 4282745654
-0.028223626 0.011042774 -0.013004435 4281566279
-0.026859969 0.014086336 -0.016173488 4280785214
-0.024978638 0.014212135 -0.016562043 4280916538
-0.023371972 0.015795954 -0.018337501 4280393788
-0.0214957 0.015921619 -0.018724851 4280458813
-0.019333795 0.014590207 -0.017727396 4280524859
-0.017015666 0.012531281 -0.016040327 4280980798
-0.014829475 0.01120171 -0.015047731 4281111613
-0.012934003 0.0113291 -0.015438715 4281177404
-0.011038434 0.011456609 -0.015829636 4281112634
-0.0096111298 0.013767287 -0.018289329 4281242939
-0.0077233836 0.013894483 -0.01867847 4280591158
-0.0058355667 0.014021784 -0.019067554 4280982584
-0.0031269714 0.010513492 -0.016016802 4280203559
-0.00072518736 0.0084610283 -0.014346281 4281570614
0.0015232228 0.0071365908 -0.013365878 4282421039
0.0042988695 0.0036331415 -0.010328704 4283205929
0.008500006 -0.0056797117 -0.0018109325 4283206184
0.013480768 -0.017892718 0.0094333906 4284316453
0.018192137 -0.028647289 0.019289764 4284640304
-0.030113973 0.0086333156 -0.013058115 4281696073
-0.029124178 0.013881445 -0.01830413 4281111359
-0.027380332 0.014738221 -0.019384572 4281046333
-0.025238037 0.013400845 -0.018386655 4281110848
-0.023496591 0.014257662 -0.019466447 4281045824
-0.02148056 0.013652354 -0.019162487 4281176129
-0.019316465 0.012316726 -0.018168779 4280915519
-0.017141573 0.010981947 -0.017177282 4280981308
-0.015251707 0.011108838 -0.017567201 4280981308
-0.01351231 0.011966065 -0.018646156 4281177404
-0.011778165 0.012823045 -0.019723954 4280851259
-0.010205209 0.014409691 -0.021488614 4280590648
-0.0084842369 0.015266005 -0.022563523 4281436993
-0.0064459629 0.014663074 -0.022263486 4281502529
-0.0035824552 0.010413893 -0.018532733 4281176639
-0.0010200664 0.0076253116 -0.016180133 4281046079
0.0019024014 0.003380388 -0.012461393 4280784959
0.0053729601 -0.0030486435 -0.0066951001 4280980543
0.009939637 -0.013845965 0.0031661913 4280914499
0.014409266 -0.023909301 0.012327468 4282088518
0.018233802 -0.031054437 0.018741241 4283656004
-0.031267427 0.0018143281 -0.008955664 4282543184
-0.031123795 0.012218386 -0.019045381 4281046843
-0.029764481 0.015278988 -0.022200525 4279351603
-0.027767874 0.014669809 -0.021894418 4278505769
-0.025631405 0.013327673 -0.020898601 4280655419
-0.023621164 0.012719661 -0.020595187 4280915518
-0.021605439 0.012112141 -0.020292819 4281045823
-0.019441836 0.010772094 -0.019302322 4280915773
-0.017412506 0.010165699 -0.0190026 4280981054
-0.015673179 0.011024967 -0.020079996 4281046589
-0.014089499 0.01261647 -0.021843748 4281177404
-0.012363337 0.013475075 -0.022918267 4281112379
-0.010798167 0.015065499 -0.024677999 4279093543
-0.0089267418 0.015191566 -0.0250638 4280329528
-0.0068941303 0.014586046 -0.024764257 4280329528
-0.0042009801 0.011054888 -0.021726796 4280133943
-0.0013145581 0.0067943335 -0.01801059 4280394554
0.0024496578 -0.0011197999 -0.010882708 4280915009
0.0067881569 -0.01122278 -0.001717655 4280849475
0.011376053 -0.022051364 0.0081146024 4280978758
0.014804192 -0.027760036 0.013156554 4282348363
-0.032505371 0.0068737864 -0.016329369 4281761354
-0.031500161 0.012153246 -0.021555625 4280134198
-0.030016758 0.014486175 -0.024012949 4280850748
-0.028154656 0.01461051 -0.024397656 4280199989
-0.025755621 0.011792183 -0.022025537 4278701353
-0.023471944 0.0097109079 -0.020346403 4280916029
-0.021451175 0.0091015249 -0.020046735 4281046079
-0.019424953 0.0084926039 -0.019748122 4281046589
-0.017683029 0.0093541145 -0.020824501 4280851003
-0.016241454 0.011684999 -0.023272609 4281177404
-0.014815807 0.01401487 -0.025717316 4281112124
-0.012947381 0.014140505 -0.026102679 4281307454
-0.011234447 0.015000541 -0.027172789 4280916539
-0.0093685016 0.015126228 -0.02755747 4280916283
-0.0071806237 0.013784207 -0.026574695 4280916539
-0.0044911727 0.010241903 -0.023544705 4281112379
-0.0007772781 0.0023003146 -0.016424678 4281242684
0.0036712959 -0.0085706115 -0.0065885875 4281241919
0.0083717778 -0.020169184 0.0039125811 4281241919
0.011937793 -0.026630893 0.0096296817 4281239878
0.01484412 -0.030157931 0.01261547 4283066953
-0.034518294 0.0051998198 -0.017075434 4281696584
-0.0333701 0.0097571239 -0.021604555 4280524603
-0.031875767 0.012097195 -0.024059292 4281046079
-0.030268632 0.013698027 -0.025821952 4281306688
-0.028409332 0.013822153 -0.026206102 4281306944
-0.026281849 0.012470663 -0.025215037 4280785469
-0.023870155 0.0096445531 -0.022852039 4280590649
-0.021855056 0.0090325847 -0.022552863 4280981053
-0.019976519 0.0091584474 -0.022940647 4281111359
-0.018531986 0.011495881 -0.025384499 4280980544
-0.017103389 0.013832405 -0.027825024 4281110593
-0.015390601 0.014694341 -0.028893592 4281176385
-0.013377599 0.014082797 -0.028593555 4281176383
-0.011514563 0.014208157 -0.028977733 4281241918
-0.0094933584 0.013597384 -0.028679229 4281307199
-0.0071452297 0.011514872 -0.027017593 4281372989
-0.0041273013 0.0064899847 -0.022633132 4281178170
0.00025688484 -0.0044181347 -0.012808487 4281177149
0.0050588697 -0.016791731 -0.0016394984 4281177149
0.0092660561 -0.026217654 0.0067913868 4281371968
0.012149893 -0.029757231 0.0097734891 4281826379
0.014706932 -0.031824917 0.011392619 4283198023
-0.036648549 0.0042674839 -0.018510528 4281824084
-0.035606727 0.0095796138 -0.023721533 4281240644
-0.033986337 0.011185504 -0.025483862 4281046589
-0.032376453 0.012790747 -0.027243905 4280068664
-0.030648604 0.013655022 -0.02831465 4280524348
-0.028794788 0.013778754 -0.028697684 4280133688
-0.026539281 0.011682384 -0.027022708 4279547188
-0.024131104 0.0088473186 -0.02466557 4280655419
-0.022258177 0.0089726597 -0.0250523 4280850749
-0.020526975 0.0098376572 -0.026123293 4280850238
-0.019090079 0.012181148 -0.028560683 4280849984
-0.017816283 0.015262868 -0.03167792 4278374189
-0.015964281 0.015387241 -0.032060008 4279088443
-0.011483841 0.011943184 -0.02941614 4280069429
-0.009302374 0.010591887 -0.028438719 4280982584
-0.0067890137 0.0077648908 -0.026102522 4280982074
-0.0031114928 -0.000227198 -0.019011268 4280916540
0.0016204044 -0.012642741 -0.0078558493 4280916540
0.0062746592 -0.024314255 0.002602078 4281111613
0.0096444376 -0.030079432 0.0076163895 4281762119
0.012013428 -0.031417303 0.0085556731 4282478413
0.014393181 -0.032754369 0.0094928741 4283328328
-0.037243292 0.0056954175 -0.022395696 4281501254
-0.0358501 0.0087927133 -0.025531862 4281372223
-0.034232147 0.010402724 -0.027290378 4281438523
-0.032750368 0.012754962 -0.029732704 4280719679
-0.031156152 0.014363594 -0.031486161 4280589118
-0.02904848 0.013001919 -0.030497681 4280523073
-0.026929975 0.011641033 -0.029511321 4280458304
-0.024664335 0.0095389485 -0.027843345 4280654399
-0.022938557 0.010405615 -0.028911676 4280784959
-0.021218002 0.011272065 -0.029978829 4280523583
-0.019647039 0.012879841 -0.031727031 4280850239
-0.018086664 0.014486983 -0.033472918 4280589374
-0.016237445 0.01461117 -0.033854432 4281306433
-0.013931025 0.012512438 -0.032194324 4280394809
-0.011453424 0.0096740797 -0.0298575 4280199479
-0.0091120824 0.0075779706 -0.028204469 4281177658
-0.0061130561 0.0025211424 -0.023839179 4280720189
-0.0019350909 -0.0077150315 -0.014733387 4280785469
0.0029807277 -0.020906478 -0.0029319115 4280718913
0.0068139732 -0.028911777 0.0041093528 4281238859
0.0095085278 -0.031734772 0.006402012 4282346834
-0.037014291 0.0019225031 -0.021465231 4281435973
-0.035612509 0.0050290525 -0.02459662 4281437249
-0.034109131 0.0073891506 -0.02703857 4281241408
-0.03287258 0.011238232 -0.030845992 4281044548
-0.031149991 0.012106419 -0.031912364 4280913989
-0.029170953 0.01148513 -0.031610955 4280849219
-0.027052946 0.010119841 -0.030627793 4280718403
-0.025196448 0.010243937 -0.031011244 4280784194
-0.023478657 0.011112295 -0.032076322 4280849983
-0.022049084 0.013468169 -0.034502417 4280719423
-0.020491272 0.015079401 -0.036244631 4279481399
-0.018944018 0.016690016 -0.037984528 4281305923
-0.016809262 0.015326548 -0.037004359 4281436738
-0.014511529 0.013220683 -0.03534741 4281241408
-0.011733074 0.0088870078 -0.031658635 4280981309
-0.0090800039 0.0052984208 -0.028654221 4280656949
-0.0052786469 -0.0034868643 -0.020914447 4281047099
-0.0005986467 -0.015980072 -0.0098043038 4280915518
0.0041722953 -0.02846697 0.0012871623 4280980799
0.0071836598 -0.032784402 0.0049284063 4281109829
0.009714447 -0.034873664 0.0065379255 4282476373
-0.036786288 -0.001863189 -0.020544237 4282020943
-0.035136007 -0.00024247915 -0.022302985 4281371459
-0.033741519 0.0028723776 -0.025426228 4281045058
-0.032242924 0.0052387267 -0.027862154 4281698114
-0.030632243 0.0068571568 -0.029612521 4281175364
-0.028770812 0.0069813654 -0.029997161 4281240389
-0.027042545 0.0078523234 -0.031062895 4281175108
-0.025319502 0.0087230206 -0.032127485 4281175619
-0.023740321 0.010339819 -0.033870988 4281110338
-0.022313029 0.012702048 -0.036291696 4280980289
-0.021045662 0.015809286 -0.03938802 4279807288
-0.019359529 0.016677972 -0.040444642 4280329018
-0.017230622 0.015309747 -0.039466567 4280329784
-0.014938906 0.013196945 -0.037813298 4279938103
-0.012012329 0.0081045479 -0.033456307 4280003383
-0.0085761622 0.00077970326 -0.027078357 4280655164
-0.0042863041 -0.010265701 -0.017333077 4280850748
0.00057190657 -0.023539469 -0.005579005 4280850749
0.0045341477 -0.032339782 0.0021080822 4281045058
0.0072162002 -0.03518118 0.0043900609 4282152524
-0.036559291 -0.0056617856 -0.019632643 4281955664
-0.035020582 -0.0032864362 -0.022072162 4281174344
-0.033252805 -0.0024111271 -0.02314477 4281501254
-0.031740472 -3.7372112e-05 -0.025578633 4281370693
-0.03011623 0.001586318 -0.027328517 4281174089
-0.028502502 0.0032093674 -0.029076107 4281109319
-0.026899338 0.0048318803 -0.030821465 4280848708
-0.0251709 0.0057051182 -0.031885523 4281109573
-0.023586154 0.0073265582 -0.033626873 4281240898
-0.022153132 0.0096957535 -0.036043882 4281305924
-0.02087985 0.012812078 -0.03913486 4281306179
-0.019627832 0.015927088 -0.042221379 4281110849
-0.017800406 0.016049784 -0.042598423 4281175874
-0.015365548 0.013182282 -0.040272608 4281045569
-0.012136675 0.0065793842 -0.034575425 4280980289
-0.0079165325 -0.0045034215 -0.024840534 4280784703
-0.0032964423 -0.017074808 -0.013773995 4280849728
0.0014145896 -0.029639952 -0.0027261153 4280849728
0.0045645647 -0.034732051 0.0015736856 4281242174
0.0070805475 -0.036835559 0.0031763352 4282152268
-0.036684133 -0.0072169453 -0.020774262 4282021199
-0.03502541 -0.0055869967 -0.022528216 4281305669
-0.033254936 -0.0047093183 -0.023599796 4281305668
-0.031364694 -0.0045834631 -0.023990588 4281304903
-0.029601924 -0.0037061125 -0.025060371 4281435974
-0.02797462 -0.002077803 -0.026807483 4281173324
-0.026490845 0.0003009364 -0.029230319 4281173833
-0.0247517 0.0011770427 -0.03029497 4280979013
-0.023156054 0.0028035566 -0.032035295 4280979269
-0.021570988 0.0044295341 -0.033773385 4281045058
-0.020283766 0.0075554848 -0.03686069 4281305923
-0.019017823 0.010680124 -0.039943513 4281371204
-0.017326176 0.011553615 -0.040997922 4281501508
-0.01503313 0.0094278157 -0.039354801 4281044548
-0.011489332 0.0013066083 -0.032326631 4280848708
-0.0066306479 -0.01280576 -0.019926598 4280913988
-0.0019896924 -0.025412731 -0.0088922828 4281175874
0.0017681122 -0.033519179 -0.0019079633 4281760843
0.0042646229 -0.035630643 -0.00030631945 4282281044
0.0067772418 -0.037740916 0.0012920834 4282019158
-0.036575377 -0.010280363 -0.020556344 4282022219
-0.035030536 -0.0078915954 -0.022987308 4281305668
-0.03313525 -0.0077655241 -0.023379238 4281370184
-0.031364582 -0.006885618 -0.024449114 4281239114
-0.029599115 -0.0060058981 -0.025517866 4281239624
-0.027838826 -0.0051264465 -0.02658543 4281304649
-0.026349299 -0.0027408376 -0.029004484 4281239369
-0.024604782 -0.0018621609 -0.030068655 4281239368
-0.023003578 -0.0002309382 -0.031806856 4281239623
-0.021272168 0.00064703822 -0.032868102 4281305158
-0.019689426 0.0022772998 -0.034602359 4281436229
-0.018117279 0.0039069206 -0.036334295 4281371459
-0.016555697 0.0055360124 -0.038063999 4281305924
-0.014398787 0.0041566491 -0.037101455 4281370438
-0.01084375 -0.0039877594 -0.030093689 4281305158
-0.0059752353 -0.018140793 -0.01772688 4281435719
-0.0014836006 -0.030032665 -0.0073933899 4281500488
0.0016340911 -0.035157561 -0.00311004 4282281554
-0.036000945 -0.016378045 -0.017632475 4281563474
-0.034439698 -0.013981655 -0.020061914 4281499724
-0.032894313 -0.011586294 -0.022487964 4281500489
-0.031115599 -0.010703631 -0.023557903 4281500233
-0.029469341 -0.0090655237 -0.02530249 4281303883
-0.027573735 -0.0089391097 -0.025694244 4281369419
-0.026208423 -0.0057910085 -0.028784899 4281173323
-0.024323247 -0.0056650788 -0.029174335 4281435209
-0.022713833 -0.004028976 -0.030910958 4281369928
-0.020833738 -0.0039031208 -0.031299155 4281435719
-0.019240111 -0.0022677928 -0.03303238 4281370693
-0.0175111 -0.0013875663 -0.03409132 4281305668
-0.015787326 -0.00050757825 -0.035149083 4281501763
-0.013463598 -0.0026443526 -0.033522211 4281240644
-0.010045908 -0.010057665 -0.027206194 4281240644
-0.0056348555 -0.021989852 -0.016882509 4281109574
-0.0016161725 -0.031655401 -0.0085840225 4281890639
-0.03204561 -0.019211262 -0.018229444 4281691739
-0.030743197 -0.01529263 -0.022001304 4281301334
-0.02921313 -0.012891538 -0.024419097 4281302353
-0.02756919 -0.01124908 -0.026159883 4281107279
-0.026200667 -0.0080920979 -0.029244658 4281499979
-0.024448045 -0.0072086155 -0.030307196 4281630794
-0.022700652 -0.0063253492 -0.031368557 4281631049
-0.020818025 -0.0061993524 -0.031757291 4281500489
-0.0189353 -0.0060732439 -0.032145966 4281500488
-0.017344035 -0.0044335946 -0.033875331 4281369928
-0.015317962 -0.0050641224 -0.033592902 4281239369
-0.012984227 -0.0072067529 -0.031973019 4281369929
-0.0095577948 -0.014641181 -0.025675265 4281566279
-0.0057649165 -0.023583844 -0.018052094 4281762119
-0.0025443994 -0.02949892 -0.013112556 4282021453
-0.00025192648 -0.030877337 -0.012184203 4282280789
-0.028323375 -0.020530924 -0.020181999 4282607189
-0.02691704 -0.017362826 -0.023268105 4281432403
-0.02553191 -0.014196083 -0.026349716 4281565258
-0.024033107 -0.011790186 -0.028755922 4281434954
-0.022412583 -0.010144606 -0.030488325 4281565514
-0.02066236 -0.0092588887 -0.031548563 4281499978
-0.018917374 -0.0083733946 -0.032607622 4281434698
-0.017468832 -0.0059703588 -0.035003081 4281435209
-0.015443094 -0.0066030994 -0.034722239 4281304393
-0.01280814 -0.010269344 -0.031771779 4281304138
-0.0092246793 -0.018483609 -0.024824027 4281566024
-0.0060512312 -0.024419382 -0.019888014 4281762119
-0.0037887394 -0.025804311 -0.018956877 4281825868
-0.0013538413 -0.027946204 -0.01736236 4281755743
-0.023215301 -0.018674217 -0.02520917 4282672723
-0.021713294 -0.016261503 -0.02761098 4282087243
-0.020227194 -0.013849705 -0.030009463 4281891658
-0.018757015 -0.011438847 -0.032404572 4281761353
-0.017448165 -0.0082679167 -0.035463408 4281369164
-0.015568174 -0.008141771 -0.035851359 4281042508
-0.01278349 -0.012579635 -0.03224282 4281369164
-0.0090460293 -0.021578357 -0.024647709 4281630794
-0.0063371584 -0.025250241 -0.02172051 4281695308
-0.0043953955 -0.025119454 -0.022120815 4282084693
-0.018953949 -0.023039266 -0.02448298 4282152013
-0.017884426 -0.018329866 -0.028877098 4282153033
-0.016556315 -0.015148938 -0.031933412 4281696074
-0.014953639 -0.013495445 -0.033655189 4281238604
-0.012457989 -0.016419806 -0.031387921 4281238348
-0.0094811209 -0.02163069 -0.027133275 4281239114
-0.0069345608 -0.024551362 -0.024876311 4281695308
-0.011682291 -0.022567943 -0.028553862 4282348620
-0.009150032 -0.025498413 -0.026300613 4282022473
-0.0069078431 -0.026897892 -0.025375243 4281759313
0.03942531 -0.041399568 0.043855242 4282406504
0.039080549 -0.042432122 0.041885644 4282537319
0.039334521 -0.045614563 0.04197634 4282602599
0.039189257 -0.047364675 0.040692836 4281553274
0.041525893 -0.047939025 0.040937766 4282668134
0.035927378 -0.045646302 0.036433391 4282536809
0.038645834 -0.047669299 0.03804478 4282340714
0.032887943 -0.044628829 0.032866724 4282667878
0.035586983 -0.04665982 0.034477055 4282405738
0.029680982 -0.042864405 0.028627915 4282471784
0.032744683 -0.04635822 0.031598337 4282405738
0.035246968 -0.047668584 0.032524116 4282798439
0.046452656 -0.049123973 0.032382697 4282798183
0.029538814 -0.044582494 0.027367791 4282405994
0.032408252 -0.047357745 0.029651528 4282536808
0.043151461 -0.047366403 0.028162954 4282274413
0.026737172 -0.044246711 0.024504418 4282537319
0.029206336 -0.04556834 0.025430286 4282667879
0.026783248 -0.046691835 0.023926182 4282274668
0.028874243 -0.046549477 0.023496246 4282798439
0.023443077 -0.044126831 0.019046845 4282405994
0.026454367 -0.047668032 0.021994965 4282143598
0.020501083 -0.04301095 0.015529389 4282143599
0.023487227 -0.046564877 0.018474368 4282143599
0.026313007 -0.049378201 0.020740604 4282536809
0.017582294 -0.041875616 0.012020661 4281291643
0.020724894 -0.046183504 0.015635384 4280701319
0.023531053 -0.049007013 0.01789896 4282405483
0.017622571 -0.044300236 0.01145939 4282274668
0.020585174 -0.047877662 0.014392676 4281618044
0.014900938 -0.043884665 0.0086356755 4282210663
0.017662503 -0.046728864 0.010895094 4282275179
0.020626716 -0.050317094 0.013819827 4282667368
0.012023777 -0.042706072 0.0051488858 4282144618
0.014763042 -0.045560643 0.0074062217 4282078319
0.017702105 -0.049161568 0.010327833 4282208879
0.0088294819 -0.040006705 0.00033355132 4281621613
0.011541091 -0.042871967 0.0025899168 4281816434
0.014449649 -0.046485975 0.0055094827 4282143599
0.017563181 -0.050848171 0.0090906303 4282470764
0.0085237697 -0.040907249 -0.0015464481 4281817198
0.011404499 -0.044534162 0.0013705324 4280898433
0.014487348 -0.048911601 0.0049480516 4281422459
0.0055353604 -0.038918376 -0.0056720236 4282079084
0.0082184374 -0.041803077 -0.0034230519 4282012784
0.010922946 -0.044686228 -0.0011783671 4282143599
0.01399922 -0.049077228 0.0023906846 4282600814
0.0017543584 -0.033117279 -0.013111427 4281424753
0.005067002 -0.039043166 -0.008203716 4281816434
0.0077438653 -0.041937009 -0.0059599923 4282078319
0.010442149 -0.044829302 -0.0037205946 4282536553
-0.0019692108 -0.027268395 -0.020529453 4281031544
0.0014578104 -0.033974946 -0.014961421 4280899198
0.0047661923 -0.039918512 -0.010065963 4281946993
0.0074394979 -0.042821318 -0.0078280875 4282733159
-0.0050009713 -0.024421126 -0.02527494 4281556589
-0.0022609383 -0.028101534 -0.022362176 4280440708
0.0011616498 -0.03482794 -0.016807985 4281030014
0.0044657663 -0.040789209 -0.011924789 4282405738
0.0069662333 -0.042939276 -0.010353372 4283253359
-0.0019078925 -0.031987399 -0.021548837 4279653268
0.0015209466 -0.038732938 -0.016010694 4281290878
-0.0046263374 -0.030651383 -0.024957601 4281031034
-0.0017168038 -0.035119489 -0.021403972 4280570504
0.0013884269 -0.040351674 -0.017198324 4281290878
0.016975516 -0.051113769 -0.015258333 4282732394
-0.0071445368 -0.045847073 -0.03194217 4282732393
-0.007428512 -0.046654783 -0.033757694 4282732393
-0.0077121034 -0.047457874 -0.035569817 4282798183
-0.00017052144 0.012827069 0.023337236 4285558048
0.0014845207 0.014349882 0.021503305 4285623329
-0.0024456419 0.011761867 0.021839013 4285624349
-0.00078775734 0.013289079 0.020007754 4285951768
0.0013514422 0.012725897 0.020311853 4285886233
0.0034960769 0.012163185 0.020614905 4285427489
0.0054768212 0.012297183 0.020206997 4285035808
-0.0042473301 0.0086037517 0.022476444 4285427488
-0.0028955117 0.011534281 0.019225052 4285558559
-0.0012427457 0.013065517 0.017398136 4285558049
0.00072700903 0.013198547 0.016992321 4285689374
0.0030297935 0.011934459 0.018004308 4285624348
0.0051742122 0.011369631 0.018305821 4285362208
0.007495895 0.010106988 0.019314108 4285297184
0.0094793327 0.010241337 0.018905772 4285035298
-0.0065187961 0.007541731 0.020979764 4285164328
-0.0051584579 0.010481462 0.017733132 4285624603
-0.0038194209 0.013419859 0.014490964 4285886488
-0.0021798052 0.014954593 0.012669994 4285623838
-5.992502e-05 0.014385667 0.012974801 4285624093
0.0023979619 0.012415633 0.014693039 4285756184
0.0047030263 0.011147387 0.015701367 4285559068
0.0070188679 0.0098800063 0.016707512 4285493789
0.0091711506 0.0093137175 0.017005904 4285493789
0.010620844 0.011548206 0.014483022 4285493789
0.011874851 0.014481641 0.011258971 4285559069
0.013654545 0.015314538 0.010151289 4285623584
0.015798986 0.014748123 0.010451609 4285361698
0.018136511 0.013482817 0.011453742 4285168153
-0.008634083 0.0057808459 0.020194406 4284966449
-0.0074152984 0.0094338506 0.01624356 4285427489
-0.0056015104 0.010270268 0.01512971 4285493278
-0.0042672269 0.013217062 0.011895107 4285821464
-0.002793476 0.015459109 0.0093717538 4285886998
-0.00068194792 0.014887467 0.0096765757 4285755928
0.0019333847 0.012207255 0.012097349 4285690393
0.0045701899 0.0095285848 0.014513766 4285558814
0.0065426119 0.0096620545 0.014107598 4285559069
0.0085150935 0.0097956508 0.013701504 4285624859
0.0099571683 0.012036204 0.011185095 4285689884
0.011383235 0.014275767 0.0086720455 4285820698
0.013157636 0.015110496 0.0075671114 4285820188
0.015666127 0.013138004 0.0092705637 4285886489
0.018378228 0.010465145 0.011672018 4285558559
0.021301959 0.0070924833 0.014769835 4285165604
0.024831124 0.0016181618 0.019962696 4284903719
-0.010115668 0.010510303 0.012634257 4285427234
-0.0084625259 0.012054339 0.010816837 4285624093
-0.0063542612 0.011479966 0.011120444 4285624094
-0.0050300732 0.014434751 0.0078945346 4285624094
-0.0029242821 0.013860419 0.0081988052 4285558559
-0.00081305951 0.013286546 0.0085020326 4285493278
0.0018014237 0.01059752 0.010916369 4285558813
0.0039315522 0.010025144 0.011215858 4285559069
0.0060671046 0.0094532147 0.011514297 4285558814
0.0078601502 0.01029107 0.010406937 4285690139
0.0092946105 0.012537658 0.0078970268 4285821209
0.010892384 0.01407893 0.0060918201 4285558048
0.01302547 0.013507247 0.0063910782 4285557538
0.015717961 0.010824218 0.0087898988 4285623584
0.018619232 0.0074390173 0.011884024 4285689628
0.021737311 0.0033521056 0.015671825 4285558814
0.025851015 -0.0042493865 0.022945775 4285427743
0.031391241 -0.016769238 0.03509365 4285231138
0.037027813 -0.029282413 0.047221795 4285230884
-0.012351703 0.0094802454 0.011152528 4285361444
-0.010845467 0.011737153 0.0086320415 4285755674
-0.0092027858 0.013284832 0.0068200529 4285820954
-0.0067954212 0.011291251 0.0085335765 4285887253
-0.0048450828 0.011422709 0.0081315599 4285690139
-0.0027342439 0.010846503 0.0084331278 4285559069
-0.00078105181 0.010978356 0.0080306754 4285559324
0.0013379939 0.010402903 0.0083306991 4285493533
0.0032940283 0.010535143 0.0079278126 4285559324
0.0054212585 0.0099604279 0.0082263611 4285558813
0.007032536 0.011506811 0.0064214617 4285558813
0.008633174 0.013052538 0.0046188813 4285952789
0.010402296 0.013891146 0.0035182331 4285886998
0.012347911 0.0140232 0.0031178836 4285886999
0.015216002 0.010624707 0.0062105097 4285755673
0.018298043 0.006522201 0.0099957269 4285690138
0.022551283 -0.0018126518 0.017959317 4285493023
0.026868749 -0.010142989 0.025909735 4285427744
0.032421626 -0.022701271 0.038025357 4285427744
0.037081495 -0.031726785 0.046642102 4285164838
-0.014581598 0.008455351 0.0096731875 4284900914
-0.013363436 0.01214081 0.0057469942 4285624093
-0.011723299 0.013692521 0.0039387755 4285623838
-0.0099415518 0.014533129 0.0028363951 4285558304
-0.0075455606 0.012532264 0.0045472682 4285755419
-0.0054485053 0.011952825 0.0048499368 4285689883
-0.0030255504 0.0099539235 0.0065554418 4285558813
-0.00091225654 0.0093757957 0.0068549179 4285493533
0.0010409057 0.0095077306 0.0064525381 4285559069
0.0023211315 0.012477428 0.0032491125 4285558814
0.0042637326 0.012608863 0.0028490648 4285558558
0.0062064007 0.012740403 0.0024490841 4285558304
0.0083254091 0.012163132 0.0027478151 4285623839
0.010091893 0.013003796 0.0016493201 4285689629
0.01203471 0.013135642 0.0012495406 4285755674
0.01489909 0.0097259879 0.00433469 4285690139
0.01872519 0.002777487 0.010896547 4285493278
0.023363456 -0.0069990903 0.02023091 4285427488
0.028269004 -0.01747822 0.030245265 4285427489
0.033059832 -0.027244173 0.039548434 4285098028
-0.015575841 0.011132687 0.0042758249 4285558558
-0.014079619 0.013401911 0.0017671194 4285821208
-0.012300614 0.014244393 0.00066685677 4285689628
-0.010526832 0.015086636 -0.00043224543 4285492514
-0.0082942285 0.013791099 0.00057404116 4285689883
-0.0055786967 0.010359392 0.0036808029 4285821719
-0.0033164509 0.0090660378 0.0046811905 4285558813
-0.0012061372 0.0084855035 0.0049796216 4285559069
0.00024802238 0.010752618 0.0024801418 4285624604
0.0016862191 0.013018727 -1.5918165e-05 4285624349
0.0034499206 0.013861001 -0.0011124052 4285690139
0.005555179 0.013280556 -0.00081261247 4285755673
0.0076658428 0.01270058 -0.00051384792 4285689629
0.0099606737 0.011410207 0.00048033707 4285623838
0.011903357 0.011542052 8.0581754e-05 4285558813
0.015134964 0.0067003369 0.0045484491 4285493533
0.019338068 -0.0016904324 0.012482723 4285558814
0.024931755 -0.015047811 0.025263676 4285558813
0.029474212 -0.024138272 0.033861496 4285361444
-0.016567908 0.013836622 -0.0011020359 4285624604
-0.014940809 0.015396085 -0.0029011294 4285821209
-0.013025966 0.015524786 -0.0032960996 4285755673
-0.011110995 0.015653584 -0.0036910325 4285821718
-0.0087323748 0.013638362 -0.0019864421 4285821973
-0.0061804131 0.010909811 0.00041412562 4285690648
-0.0037668198 0.0088972002 0.0021116138 4285493278
-0.0014996231 0.0075998902 0.0031077452 4285558813
-4.7724694e-05 0.0098733827 0.00061366707 4285624603
0.0013882071 0.012145869 -0.0018769968 4285820953
0.0028081425 0.01441741 -0.004364334 4285820953
0.0052515566 0.012407303 -0.0026725493 4285821208
0.0077110603 0.010398425 -0.00098403916 4285887253
0.010008086 0.0091037899 6.435439e-06 4285624348
0.012134582 0.0085229129 0.00030045584 4285559068
0.015921967 0.0015280545 0.0068371948 4285427998
0.021069244 -0.010450818 0.018215427 4285427998
0.026307506 -0.022423364 0.029574981 4285296673
-0.017126851 0.014414337 -0.0043591773 4284903719
-0.015507549 0.015977576 -0.0061533377 4285231138
-0.013600856 0.016105693 -0.0065466566 4285493789
-0.011542372 0.015516862 -0.006241167 4285493788
-0.0091697685 0.01349473 -0.0045403335 4285559323
-0.0064669885 0.010040253 -0.0014474019 4285493534
-0.0042164251 0.0087373778 -0.00045126677 4285493534
-0.0021174327 0.0081516951 -0.00015382096 4285559069
-0.00067314506 0.01043117 -0.0026413538 4285690393
0.00092286989 0.011993721 -0.0044301264 4285689629
0.0023378655 0.014271479 -0.006911505 4285492258
0.0046021901 0.012970015 -0.0059177671 4285557793
0.0074044764 0.0095230639 -0.002844803 4285623838
0.010233566 0.0060780421 0.00022272393 4285689883
0.013089456 0.0026349574 0.0032848306 4285624604
0.017074723 -0.0050957203 0.010494361 4285493533
0.02242394 -0.017825313 0.022532953 4285427998
0.027113052 -0.02769009 0.031787686 4285099303
-0.015488632 0.013694018 -0.0066027315 4284971548
-0.01343058 0.013102859 -0.0062988969 4285166368
-0.011518538 0.013231426 -0.0066932449 4285297183
-0.0091439188 0.011202812 -0.0049977433 4285428509
-0.0069099963 0.0098943263 -0.0040015709 4285494044
-0.004984282 0.010024138 -0.0043984968 4285427998
-0.0032206662 0.01087261 -0.0054902863 4285493533
-0.0014623106 0.011720806 -0.0065809283 4285887509
-4.4301152e-05 0.014005199 -0.0090580806 4285887509
0.0016981475 0.014852561 -0.010145271 4285558304
0.0041268282 0.012828387 -0.0084603801 4285558303
0.0070982948 0.008652404 -0.0047021322 4285755674
0.010280132 0.0037612915 -0.00025882758 4285690393
0.014042191 -0.0032790303 0.0062501077 4285493534
0.018592123 -0.013184048 0.015510237 4285362463
0.023775777 -0.025234632 0.026825005 4285362209
-0.0075089 0.010478556 -0.0072435234 4284904739
-0.0059099942 0.012049645 -0.0090265237 4285362974
-0.0041597001 0.012899369 -0.010113942 4285362719
-0.0024146698 0.013748869 -0.011200177 4285427999
-0.00084228069 0.015318517 -0.012977524 4285756693
0.00088951737 0.016167339 -0.014060872 4285690649
0.0033068247 0.014135785 -0.012378559 4285624858
0.0064417422 0.0092261136 -0.0079372004 4285624858
0.010504425 0.00072075427 -5.3329393e-05 4285493534
0.015173521 -0.0099385679 0.0098857936 4285362208
0.020289719 -0.022030935 0.021186365 4285362208
0.024194358 -0.02908317 0.027649676 4285230119
-0.0049350783 0.014225449 -0.014029559 4285166114
-0.0028717145 0.013630882 -0.013729656 4285166113
-0.0013044365 0.015204508 -0.015502611 4285296418
0.00076174736 0.014610354 -0.015203118 4285361954
0.0031783804 0.012572214 -0.013525603 4285427999
0.0064870864 0.0069251508 -0.008406532 4285559069
0.010905884 -0.0030500665 0.00083431788 4285428254
0.01630234 -0.016628437 0.013499161 4285428255
0.021250829 -0.028035358 0.024081236 4285362209
0.024797775 -0.033665836 0.029151676 4285032494
0.003394641 0.0095601231 -0.013296643 4285034278
0.0070571639 0.0024473667 -0.0068167942 4285165858
0.012194753 -0.010454014 0.0051466059 4285165859
0.017428674 -0.023348749 0.017090263 4285165094
