# .PCD v0.7 - Point Cloud Data file format
VERSION 0.7
FIELDS x y z rgba
SIZE 4 4 4 4
TYPE F F F U
COUNT 1 1 1 1
WIDTH 975
HEIGHT 1
VIEWPOINT 0 0 0 1 0 0 0
POINTS 975
DATA ascii
-0.013761766 -0.036580406 0.0022953786 4286856509
-0.012189753 -0.034187764 -0.00017574988 4287510584
-0.01376 -0.038985327 0.0017765723 4287183419
-0.012184925 -0.036585987 -0.00069031864 4287052603
-0.012323536 -0.038233057 -0.0018823296 4286659903
-0.010618098 -0.036583066 -0.0036670268 4286594368
-0.010756463 -0.038225472 -0.0048556142 4286529089
-0.0093578622 -0.035057738 -0.0079781218 4286528833
-0.0081313625 -0.031134598 -0.011767036 4286659393
-0.0093474984 -0.037450299 -0.0084899543 4286528833
-0.0078160837 -0.035033986 -0.010932411 4287117883
-0.0063005313 -0.032618679 -0.01337131 4287641399
-0.0082546771 -0.035140231 -0.013446922 4286986813
-0.0064375997 -0.034240767 -0.014545086 4288164404
-0.0046257377 -0.033341527 -0.015642013 4287509053
-0.0082413591 -0.037527621 -0.013955693 4286920769
-0.0062685572 -0.037388988 -0.014387052 4288295219
-0.0042956509 -0.037250221 -0.014818336 4288165169
-0.0026393607 -0.035585649 -0.016578823 4287638849
-0.0086789504 -0.037622288 -0.016461838 4286789444
-0.0065587834 -0.038249426 -0.016227804 4288295219
-0.0047442019 -0.037345678 -0.017322093 4288099123
-0.010323778 0.0090039298 0.058379889 4280395063
-0.015804745 0.013104245 0.051433571 4281957958
-0.014887787 0.018659972 0.045116216 4280720188
-0.013020582 0.019477829 0.043943539 4281307964
-0.010147147 0.015561782 0.047903232 4281177403
-0.021522686 0.008276701 0.054488003 4282544203
-0.020137385 0.011816859 0.050370112 4281763139
-0.018778525 0.015355252 0.04625807 4280979779
-0.017173544 0.017533854 0.043618217 4280263229
-0.015862316 0.021069054 0.039516706 4280067898
-0.014011025 0.021887939 0.038349114 4281437248
-0.011732012 0.020671241 0.03937697 4281372478
-0.0084133819 0.014707565 0.04551848 4280982838
-0.0042983741 0.0053570718 0.055300854 4280918069
-0.026972272 0.013122216 0.046812467 4280913734
-0.025461145 0.015991226 0.043436445 4280915519
-0.023586795 0.016813479 0.04226511 4280461364
-0.021586791 0.016953878 0.041827701 4281111359
-0.019720018 0.017775811 0.040658101 4280914753
-0.017858371 0.018597402 0.03948972 4280980288
-0.016418196 0.021461841 0.036129519 4279417393
-0.014574833 0.022282314 0.034965262 4279678768
-0.012592524 0.02242187 0.034532018 4279353133
-0.0097293556 0.018478751 0.038474292 4280591414
-0.0066845566 0.01385767 0.043138288 4281307453
-0.0028416477 0.0058389232 0.051434524 4281176383
-0.029724814 0.014736556 0.042378716 4281566024
-0.028338522 0.018298402 0.038276758 4279939123
-0.026602902 0.019805994 0.036377564 4280916539
-0.024366036 0.018576927 0.037407696 4279547698
-0.022248887 0.018032543 0.03770433 4281110848
-0.02025944 0.018172227 0.037269253 4281241665
-0.018405706 0.01899543 0.036104206 4281045314
-0.016695708 0.020501625 0.034210917 4280980033
-0.014854938 0.021324072 0.033048831 4281111104
-0.012875393 0.021463398 0.032616165 4280980799
-0.010309301 0.018872119 0.035094135 4281111358
-0.0080202222 0.017647423 0.036113303 4281176384
-0.0055683702 0.015741259 0.037856683 4281111868
-0.0020181835 0.0090615749 0.044677906 4280655928
-0.033060789 0.0079909191 0.047186501 4281172813
-0.032331258 0.015688367 0.03868778 4280914753
-0.030821964 0.018574543 0.035325076 4281045823
-0.029211357 0.020772774 0.032698344 4281632579
-0.027241319 0.020910807 0.032267291 4281502274
-0.025015607 0.019676518 0.033296548 4281306689
-0.022648603 0.017757125 0.035052985 4280785979
-0.020664595 0.017896384 0.034619059 4281110593
-0.018951841 0.019407 0.0327284 4281045314
-0.016972773 0.019546084 0.032295682 4281045824
-0.015134588 0.020370502 0.031135768 4280849984
-0.012726612 0.01845441 0.032883558 4280980799
-0.010595247 0.017909244 0.03317583 4280916284
-0.0090546831 0.020103384 0.030565035 4280785979
-0.007378228 0.021611985 0.028682642 4280200244
-0.0046314187 0.018329643 0.031872805 4280655674
-0.00012991577 0.0075239092 0.043018058 4280655164
-0.033772148 0.0097664669 0.042319715 4281565514
-0.032820247 0.016108915 0.035303183 4280849729
-0.031318307 0.019003313 0.031948607 4280002874
-0.029715233 0.021207504 0.029328443 4280198969
-0.027753301 0.021344919 0.028899126 4280003383
-0.025536053 0.020105649 0.029926885 4278961199
-0.023177706 0.018178962 0.031680308 4280915773
-0.021068931 0.017629594 0.031975482 4281110849
-0.01936125 0.019144241 0.030089129 4281045314
-0.017249398 0.018595204 0.030383807 4280914753
-0.015272923 0.01873415 0.029951688 4280980033
-0.012865596 0.016811386 0.031694677 4281045313
-0.011173196 0.018325254 0.029811963 4280785214
-0.009640187 0.020525403 0.027207706 4280329274
-0.0081230216 0.022724483 0.024607014 4281502274
-0.0058505982 0.021489955 0.025623355 4281371714
-0.0024691299 0.015451871 0.03169227 4281176383
0.0022370145 0.0039280728 0.043523081 4281176383
-0.03322719 0.0039573833 0.045497477 4281956174
-0.032724522 0.013086155 0.035574757 4281632579
-0.031574704 0.01806321 0.030039299 4280589628
-0.03009589 0.020964786 0.02669635 4280786233
-0.028014682 0.020410996 0.026995704 4280720189
-0.025927939 0.01985763 0.027293947 4280980799
-0.023575604 0.017923944 0.029043697 4280850238
-0.021870524 0.019442625 0.02716114 4281175873
-0.020040549 0.020270605 0.026006103 4281111359
-0.017939672 0.019718613 0.02630147 4281046334
-0.015692577 0.018477432 0.027319711 4281176893
-0.013721347 0.018616058 0.026888777 4281241408
-0.012042016 0.020133357 0.025012169 4280981564
-0.010521896 0.022339139 0.022415608 4278376484
-0.0085635185 0.022477131 0.021987688 4280590648
-0.0061428845 0.020548996 0.023723129 4281046333
-0.0035493933 0.01793354 0.026175629 4281047354
-0.00045629591 0.013254657 0.030783303 4280591924
0.0028363392 0.0078903213 0.036102261 4281503804
0.0069953576 -0.00091081113 0.045005813 4281634108
-0.032228947 -0.0046529248 0.051569298 4282477139
-0.03181386 0.0051999241 0.040933773 4281825615
-0.031115584 0.012967527 0.032495894 4281502018
-0.02974464 0.016571991 0.028429907 4280655164
-0.027902097 0.017402671 0.027273484 4280916284
-0.025937483 0.017540269 0.026843574 4280851003
-0.023972653 0.017677963 0.026413683 4280850238
-0.022272661 0.019200679 0.024535436 4279612979
-0.020583116 0.020722702 0.022659585 4279547954
-0.018628374 0.020859953 0.022232089 4279092779
-0.016392425 0.019613553 0.023249459 4279874354
-0.014431998 0.01975137 0.022820849 4281177404
-0.012471385 0.019889295 0.022392269 4281307453
-0.010659114 0.020718642 0.021243062 4280851769
-0.0087008551 0.02085657 0.020815123 4280656694
-0.0064347349 0.019612711 0.021826275 4280852788
-0.0040012896 0.017678998 0.023554016 4280917558
-0.0015516952 0.015746467 0.025278326 4281373244
0.0009140484 0.013815187 0.02699919 4281830968
0.0037249699 0.010504767 0.030150943 4282353973
0.0080674142 0.00098634511 0.039746299 4282940474
-0.031461641 -0.011915199 0.056156032 4282216274
-0.030790091 -0.0034215823 0.046990372 4281890639
-0.03018225 0.0050677061 0.03783869 4281825868
-0.029394798 0.012161814 0.030150868 4281370183
-0.027914487 0.015081041 0.026820689 4281373499
-0.026074305 0.015913785 0.025666449 4281046844
-0.024239257 0.016746253 0.02451339 4280785724
-0.022806302 0.019662429 0.021193776 4280720444
-0.020989507 0.020493839 0.020044811 4281698623
-0.019040197 0.020630665 0.019618478 4280330804
-0.01666975 0.018685311 0.021354679 4281112634
-0.014712095 0.018822908 0.020926651 4281178169
-0.012754261 0.018960606 0.020498656 4281242939
-0.011092916 0.020485442 0.01863255 4280916028
-0.0088381171 0.019236308 0.019642763 4281243194
-0.0067261606 0.018681176 0.019932773 4281505844
-0.004296042 0.016740568 0.021656342 4281506608
-0.0023268014 0.016879529 0.021226197 4282489123
-0.030002236 -0.010690935 0.051566191 4282021198
-0.02913335 -0.0035693571 0.04387679 4281890893
-0.028560467 0.0049438104 0.034752488 4281630028
-0.027554765 0.01066298 0.028533086 4281043528
-0.026337869 0.014984779 0.02376736 4281306433
-0.024764344 0.017213337 0.021173321 4280198969
-0.023206614 0.019440871 0.01858281 4280459833
-0.021529883 0.020970691 0.016716249 4281307453
-0.019451231 0.02041043 0.017011467 4280917559
-0.016946644 0.017761752 0.01946326 4280658479
-0.01470615 0.016506925 0.0204731 4281113399
-0.01289124 0.017340668 0.019326456 4281177404
-0.010933362 0.017478429 0.018898495 4281112123
-0.008975327 0.017616302 0.018470574 4281244724
-0.0070171431 0.017754257 0.01804268 4282684709
-0.0047465228 0.016501985 0.019046329 4284315178
-0.030028999 -0.013094112 0.051056497 4282217548
-0.028799824 -0.0080502853 0.045549363 4282086734
-0.0278503 -0.0016093552 0.038606998 4281824849
-0.027072474 0.005527921 0.030954011 4281761354
-0.026347734 0.012661591 0.023312725 4281828673
-0.025158972 0.01699467 0.018562965 4281111614
-0.024001978 0.021325577 0.013820279 4280133689
-0.022069089 0.021461081 0.013397407 4280263994
-0.019861415 0.020199291 0.014411028 4280656693
-0.017223097 0.016842879 0.017575227 4281310768
-0.015128374 0.016281717 0.017865412 4281701683
-0.013173439 0.016419142 0.017438002 4282224688
-0.011366293 0.017254606 0.016294744 4284385049
-0.02982448 -0.016906105 0.051986322 4282607698
-0.028467685 -0.012548581 0.047209337 4282152014
-0.027021535 -0.0088951811 0.0431595 4281759823
-0.026096895 -0.0024362132 0.03623734 4281695309
-0.025599301 0.0061244443 0.027168818 4281305158
-0.025036365 0.013979256 0.018832732 4281240898
-0.024136581 0.019726269 0.012662843 4281307198
-0.022338234 0.020562802 0.011522774 4281306944
-0.019996628 0.018595502 0.013250399 4281503548
-0.017638855 0.01662945 0.014974505 4282095658
-0.015692212 0.016766168 0.014548812 4283400239
-0.02837348 -0.015655413 0.047418483 4281890129
-0.026921183 -0.011990659 0.043375455 4281759058
-0.025618903 -0.0076236576 0.038620323 4281694289
-0.024853386 -0.0004433617 0.031002782 4281696074
-0.024398789 0.0081406534 0.021963358 4281761863
-0.023744792 0.015313327 0.014370359 4281828673
-0.022204198 0.017559379 0.011798315 4282945063
-0.019994855 0.016288869 0.012804963 4284514078
-0.026700743 -0.015801124 0.044302188 4282151503
-0.025512882 -0.010714099 0.038838506 4282086990
-0.024236046 -0.0063356683 0.034098808 4281761354
-0.023763344 0.0022758469 0.025075071 4281892934
-0.022960231 0.0087659806 0.018209122 4281958724
-0.021668665 0.012430921 0.014209725 4284708644
-0.025284313 -0.014521562 0.039765276 4281759823
-0.023872606 -0.010837637 0.035747558 4281632579
-0.023258604 -0.0029070452 0.027454197 4281762884
-0.022309415 0.0028959438 0.021312691 4282154563
-0.021134906 0.0072806329 0.0166054 4283788093
-0.025425874 -0.016210005 0.038543183 4281952093
-0.024013363 -0.012515105 0.034533437 4281566278
-0.022884011 -0.0074013695 0.029105559 4281892933
-0.021660745 -0.0030002668 0.024397306 4282153288
-0.020602956 0.0021086186 0.018985275 4284049468
-0.024154037 -0.014192268 0.033319525 4281433424
-0.022639006 -0.011200614 0.030033998 4281826889
-0.021406747 -0.0067857727 0.025333572 4282022473
-0.020072781 -0.0030851439 0.021349393 4284116024
-0.021023154 -0.011298709 0.026968673 4281693778
-0.019677714 -0.0075863525 0.022990137 4284180793
0.019677266 0.0053228885 0.0040792339 4284449563
0.025481056 -0.008740671 0.017547496 4284582673
0.032170273 -0.025636457 0.033769503 4282747693
0.036816955 -0.034715332 0.042333499 4282747949
-0.021032363 -0.013678834 0.026471347 4281691993
-0.019284062 -0.012104832 0.024618298 4284312118
0.012302391 0.016254432 -0.0087471865 4284645404
0.01421804 0.016390555 -0.0091649238 4282818074
0.01670114 0.014389127 -0.0075012017 4280917814
0.021501973 0.0038404316 0.0024778415 4281047863
0.028133132 -0.013112061 0.018673252 4280980543
0.034103833 -0.027207322 0.032072593 4280066623
0.038382992 -0.034888647 0.03922544 4278763574
0.041708484 -0.039007641 0.04291115 4281696073
0.0064208359 0.014264561 -0.0086381286 4284577829
0.0085144415 0.013684809 -0.0083615165 4283140649
0.010432508 0.013820879 -0.0087799411 4282029614
0.011983406 0.015387379 -0.010585079 4281636149
0.012964852 0.019098073 -0.014466166 4280265014
0.015053365 0.018518358 -0.014188072 4280653888
0.018680174 0.012222543 -0.008378068 4279675199
0.024103587 -0.0004991591 0.0036409386 4278566458
0.035238676 -0.025921762 0.027616497 4280393279
0.039736591 -0.034339711 0.035437219 4281762374
0.043478724 -0.039898485 0.040489167 4281890129
0.0061104856 0.013400644 -0.010476017 4281962548
0.0082011111 0.012818441 -0.010200351 4281374009
0.0097548552 0.014389396 -0.01200293 4281438778
0.010931149 0.017394394 -0.015186653 4280007209
0.012086153 0.020397983 -0.01836565 4280981564
0.013974901 0.020532303 -0.018777443 4281567299
0.017012268 0.016366012 -0.015048921 4280979780
0.020858042 0.0093357936 -0.0085695283 4280849219
0.025544263 -0.00055609643 0.00065382197 4280719679
0.030305203 -0.010442555 0.0098609813 4281045824
0.036555551 -0.025335722 0.023865942 4281306690
0.041484591 -0.035209924 0.033036664 4281567554
0.045036286 -0.0400692 0.037385341 4282085969
-0.00059707835 0.015018784 -0.013834674 4282356269
0.00096194446 0.016594 -0.015635429 4281248293
0.0028555132 0.016727977 -0.01604878 4281048884
0.0050996244 0.01542186 -0.015078211 4280851768
0.0069986768 0.01555644 -0.015492596 4281177404
0.0081755258 0.018570125 -0.018669985 4281046588
0.0095143393 0.020862807 -0.02115244 4280069173
0.011209004 0.02171576 -0.022252142 4279742773
0.013464089 0.020410985 -0.021283548 4280003893
0.016303595 0.016950101 -0.018251874 4279938869
0.019557636 0.012053624 -0.013850198 4280068409
0.022652468 0.0078785568 -0.010143886 4280981309
0.026377058 0.0015506446 -0.0043843575 4281307453
0.032168772 -0.011955932 0.0082259625 4281372734
0.038471028 -0.026891246 0.022185385 4281437758
0.043434605 -0.036793523 0.031325798 4281371204
0.046583667 -0.040231481 0.034290653 4282020434
-0.0046891719 0.013905965 -0.014833029 4283925539
-0.0029577278 0.014762834 -0.015939781 4282421039
-0.0013985708 0.016342349 -0.01773743 4281180719
-1.9684434e-05 0.018643886 -0.020224148 4280853554
0.0020327866 0.018054396 -0.019943653 4280135729
0.0040906742 0.017465405 -0.019664252 4279551268
0.0061539672 0.016876906 -0.019385953 4281177148
0.0076815374 0.018454701 -0.021176251 4281046333
0.0091984831 0.020031847 -0.022964161 4281111869
0.011261966 0.019443706 -0.022685641 4281046589
0.013519201 0.018134683 -0.021720799 4281176639
0.016169243 0.015384138 -0.019384485 4281176893
0.018840671 0.012635238 -0.01705274 4281241919
0.021140687 0.011329599 -0.016096978 4281307199
0.023451407 0.010024793 -0.015143404 4281438014
0.027588271 0.002237089 -0.0080314009 4281503039
0.034032088 -0.013468876 0.0065913424 4281436738
0.040593278 -0.029166378 0.021188587 4281502274
0.045174606 -0.037656769 0.028932527 4281763139
0.04812083 -0.040385209 0.031205043 4282152014
-0.0079882592 0.0091699585 -0.012366044 4284184363
-0.0068764202 0.012932509 -0.016243769 4282615349
-0.0053065568 0.014516935 -0.018040657 4281569594
-0.0039114393 0.016825944 -0.020526193 4280787254
-0.0023653805 0.018408895 -0.022317732 4281241664
-0.00082987919 0.019991174 -0.024106836 4281502528
0.001211606 0.019398715 -0.023825577 4281241663
0.0036082305 0.017357677 -0.022167904 4281177404
0.0058433823 0.016042247 -0.021201866 4281047609
0.0075487122 0.0169001 -0.022300795 4281177148
0.0092487596 0.017757699 -0.023398491 4281177404
0.011129048 0.017891273 -0.023808541 4281241919
0.013385769 0.01657784 -0.022846855 4281111103
0.016034927 0.013818473 -0.020516889 4281176639
0.018511932 0.011783928 -0.018876158 4281176639
0.020220183 0.012642689 -0.019975215 4280980799
0.021724254 0.014224023 -0.021756576 4280719933
0.024225321 0.012191534 -0.020120833 4279417649
0.029396959 0.00076868385 -0.0096179619 4280459579
0.036101997 -0.015703671 0.0056388341 4280719933
0.042091601 -0.029278927 0.018144235 4280719169
0.046272773 -0.036350057 0.02450224 4279545913
0.04986266 -0.041252173 0.028808586 4282022729
-0.0066915154 0.0099138916 -0.015993353 4282156348
-0.0057614334 0.014413692 -0.020548435 4281372733
-0.0043712407 0.016728953 -0.023028048 4280329274
-0.0028302595 0.018315867 -0.024815172 4280198969
-0.0011305176 0.01917506 -0.025911594 4280850494
0.00073597208 0.019307084 -0.026319064 4280329528
0.0031265505 0.017259076 -0.024665032 4280004659
0.0055332072 0.01521229 -0.023014368 4281112123
0.0075959153 0.01461947 -0.02273914 4281372478
0.0096640214 0.014027134 -0.022465006 4281241918
0.011552177 0.014161266 -0.022876771 4281045823
0.013628393 0.013569713 -0.022604188 4280915518
0.015519302 0.01370427 -0.023016382 4281111103
0.017410241 0.013838932 -0.023428505 4280915518
0.019105196 0.01469896 -0.024523079 4280719678
0.02059618 0.016283698 -0.026298281 4280524093
0.022479182 0.016418152 -0.026708409 4280980033
0.026198255 0.01003097 -0.020991629 4280588353
0.031412054 -0.0014237463 -0.010523975 4279610938
0.037757911 -0.016493551 0.0033232179 4279221044
0.042943712 -0.027210832 0.013071969 4279416373
0.047780164 -0.036474504 0.021446567 4281762629
0.051599212 -0.042114675 0.026416894 4281957448
-0.0066964701 -0.0012799799 -0.0077471491 4284639794
-0.0061903372 0.0054266453 -0.014370958 4281763393
-0.0055709183 0.011400126 -0.020295771 4281174854
-0.0045026019 0.015181683 -0.024147514 4281110338
-0.0031278692 0.017502457 -0.026618734 4279611958
-0.0015999004 0.019092984 -0.028399717 4279937593
0.0002611205 0.01922461 -0.028806001 4280003384
0.0029946379 0.015711725 -0.025784409 4280785469
0.0054005943 0.013658322 -0.024138497 4281176639
0.0074629709 0.013063274 -0.023864841 4281111358
0.0091657899 0.013925441 -0.024959879 4281306434
0.011048473 0.014059156 -0.025370469 4281175874
0.012743391 0.014920987 -0.026463611 4281110338
0.014242515 0.016510367 -0.028237632 4281175618
0.016117316 0.016643889 -0.028646233 4280980289
0.01779633 0.01750493 -0.029735653 4279872058
0.019866992 0.016911268 -0.029463207 4280328253
0.021540709 0.017772168 -0.030551294 4281371204
0.024228176 0.014998607 -0.028242314 4281371204
0.027762927 0.0093200728 -0.023223549 4281109829
0.032804389 -0.0014404431 -0.013467945 4281045058
0.038137674 -0.012921408 -0.0030522048 4280849218
0.044628695 -0.028026491 0.010729223 4281306943
0.050145954 -0.039494015 0.021105126 4281567553
0.0533305 -0.042972676 0.024029989 4281760334
-0.0063645691 -0.0050726235 -0.0068373345 4284442423
-0.0053740032 -0.00054246932 -0.011386156 4281957449
-0.0050591752 0.0069139004 -0.01867548 4281697094
-0.0041430257 0.011439048 -0.023207864 4281566278
-0.0034250617 0.016693749 -0.028418902 4280784959
-0.001561597 0.016825423 -0.028825808 4281110338
0.00030195713 0.016957216 -0.029232653 4281045823
0.0030370578 0.013433509 -0.026219573 4280915518
0.0049140938 0.013566494 -0.026629185 4280916029
0.0064319298 0.015161112 -0.028404357 4281111104
0.0079391673 0.016755052 -0.030177098 4280980544
0.010175623 0.015426919 -0.029220885 4280849983
0.012422804 0.014099598 -0.028266909 4280785214
0.01391951 0.015693195 -0.030037111 4281175873
0.015212625 0.018015884 -0.032484785 4281175874
0.016685389 0.019607991 -0.034249619 4280263739
0.018742383 0.019011185 -0.033975806 4279154488
0.020804748 0.018414825 -0.033703048 4279871804
0.023483302 0.015631922 -0.031398699 4280132414
0.02618321 0.012850612 -0.029098874 4280263229
0.029740291 0.0071563125 -0.024097934 4281045569
0.034609791 -0.0029055923 -0.015051194 4281175874
0.04191117 -0.020973057 0.0014071669 4281175874
0.048478022 -0.036118545 0.015137952 4281175363
0.052740939 -0.043248996 0.021429431 4281435973
0.055056483 -0.043826178 0.021647792 4281825613
-0.0060337409 -0.0088781491 -0.0059369132 4284312118
-0.0045598671 -0.0065376163 -0.0084202643 4282808128
-0.0039057657 -0.0005267188 -0.014326556 4281826633
-0.0034576505 0.0062153712 -0.020908158 4281828674
-0.0028913058 0.012220323 -0.026795097 4280848708
-0.0015236288 0.014553815 -0.029254913 4280915519
0.00034244731 0.014685772 -0.029662315 4280785724
0.0027309209 0.012617916 -0.028022533 4280850748
0.0046051443 0.012750693 -0.028431533 4280916284
0.0059411153 0.015082397 -0.030884089 4280198969
0.0072611459 0.017413132 -0.033333123 4279547699
0.0093043223 0.016812578 -0.033058368 4279417139
0.011915192 0.014015339 -0.030746287 4278505004
0.013596904 0.014880709 -0.031833213 4281176129
0.015080549 0.016477816 -0.033597194 4281110848
0.016358115 0.018806107 -0.036036532 4281046079
0.018214013 0.018938504 -0.036440849 4280784704
0.020069931 0.019071031 -0.036845073 4281045059
0.022943038 0.015547469 -0.033869304 4281110594
0.02563671 0.012756974 -0.031574637 4280783174
0.028769245 0.0085064173 -0.027934905 4281109318
0.032990966 0.00060489029 -0.020930804 4281240388
0.040268768 -0.017518923 -0.0045081172 4281240388
0.047463104 -0.034902751 0.011212591 4281240388
0.052152164 -0.043516211 0.018835537 4281370948
0.054462031 -0.044095993 0.019053504 4281302863
-0.0060145147 -0.011222914 -0.0064154742 4283788604
-0.0040637664 -0.011085585 -0.0068418207 4282414918
-0.0029158778 -0.0072657689 -0.010686573 4282022473
-0.0022843145 -0.0012388602 -0.016574798 4281956938
-0.0020271428 0.0062573254 -0.02381869 4281303884
-0.0011488348 0.010806292 -0.028323112 4281238859
0.00021135062 0.013145924 -0.030776311 4280785723
0.0024252012 0.011806965 -0.029822059 4281048119
0.0037668645 0.014145508 -0.032271054 4280525113
0.0050925873 0.016483098 -0.034716509 4280980033
0.0065842867 0.018084712 -0.03647938 4281305923
0.0088037252 0.016746566 -0.035525955 4280785213
0.011595614 0.013205573 -0.032541178 4279808308
0.013654537 0.012604162 -0.032271326 4281046078
0.015141085 0.014205843 -0.034032676 4281046333
0.016421739 0.016540915 -0.036467798 4281111614
0.01808225 0.017407313 -0.037548207 4281176129
0.020539775 0.015338905 -0.035927474 4281306179
0.02341979 0.011804909 -0.032961369 4281305923
0.02632647 0.0082729384 -0.030000973 4281371203
0.029051233 0.0054760352 -0.027719527 4281566278
0.033276036 -0.0024492592 -0.020734072 4281435973
0.040126443 -0.019162357 -0.0056964066 4281435974
0.046882898 -0.035134077 0.008643182 4281435718
0.051564164 -0.043774262 0.016248215 4281762118
0.054312184 -0.045820862 0.017806463 4281955663
-0.0061506964 -0.012832716 -0.0075803241 4283067974
-0.0043578371 -0.011956513 -0.008689356 4282283594
-0.0024097934 -0.011819243 -0.0091150152 4282086988
-0.001440078 -0.0072510093 -0.013629764 4281891404
-0.00066797063 -0.0019465983 -0.018818367 4281825869
-0.00026989728 0.0048315376 -0.0253595 4281238348
0.00042241812 0.010130562 -0.030530564 4280915774
0.001598686 0.013213903 -0.033655792 4281111103
0.0031065047 0.014820755 -0.035419047 4279026223
0.0046037138 0.016427003 -0.037179954 4280589884
0.0062720552 0.017295435 -0.038260967 4281436228
0.0081195123 0.017426647 -0.038663872 4281241408
0.010902319 0.013874076 -0.035685278 4281111613
0.013142649 0.01253327 -0.034739502 4280916793
0.015201274 0.011929788 -0.034471124 4281111613
0.01687514 0.012799188 -0.035552911 4281176638
0.019136868 0.011460304 -0.034611579 4281176128
0.021409281 0.010122254 -0.033672445 4281175108
0.02430154 0.006578207 -0.030717161 4281305924
0.027014736 0.0037716106 -0.028439809 4281240644
0.029957648 0.00023142993 -0.025495363 4281501509
0.033982486 -0.0069820657 -0.019201338 4281631559
0.040411577 -0.022275232 -0.0055435318 4281761354
0.04673624 -0.036825597 0.0074201748 4281761354
0.051415063 -0.045492187 0.015006151 4281891403
0.054162353 -0.047545388 0.016559672 4282346834
-0.0044939294 -0.013563812 -0.0098523563 4281493603
-0.0025460273 -0.013426572 -0.010278 4281759314
-0.0010866821 -0.011067204 -0.012743355 4281825360
2.5678426e-05 -0.0072278306 -0.01656387 4281760333
0.00060682744 -0.0011692941 -0.022414817 4281826633
0.00080365688 0.0063665658 -0.029612739 4281175363
0.0012943484 0.012418956 -0.035443749 4281306433
0.0020948872 0.016988941 -0.039911315 4280980544
0.0037578866 0.017859057 -0.04098963 4279350838
0.0055971518 0.017989554 -0.041390851 4280003384
0.0076206662 0.01738102 -0.041116722 4280524858
0.010397065 0.013817057 -0.038144886 4280460599
0.012821078 0.011732683 -0.036526997 4281241408
0.015261106 0.009649612 -0.034912545 4281503294
0.017717171 0.0075677484 -0.033301465 4281502019
0.019991703 0.006225422 -0.032366183 4281371458
0.02267733 0.0034078807 -0.030089527 4281175874
0.02518142 0.001329802 -0.028488642 4281501253
0.02790704 -0.0014846474 -0.026220525 4281500998
0.030237574 -0.002822496 -0.025297076 4281565513
0.034265697 -0.010057598 -0.019020069 4281695563
0.040268913 -0.023922428 -0.006734537 4281695563
0.046589609 -0.03851679 0.0061973967 4281695563
0.050828263 -0.045736417 0.01242888 4281825614
0.053569488 -0.047796592 0.013978843 4282477139
-0.0030022934 -0.013547495 -0.012798608 4281562964
-0.0013851561 -0.011924788 -0.014579658 4281825360
0.000552129 -0.01178807 -0.015002811 4281891404
0.0014813393 -0.007196188 -0.019489 4281826633
0.0016958825 0.00036277622 -0.026674472 4281239369
0.0016838498 0.0086601898 -0.034524255 4281044804
0.0023173429 0.01398588 -0.03965947 4281109319
0.0036283433 0.016342029 -0.042087004 4281110594
0.0052861013 0.017214119 -0.043162502 4281175619
0.0073066354 0.016603142 -0.042889304 4281371714
0.010079272 0.013027973 -0.039924823 4281307709
0.012689263 0.010195822 -0.037638575 4281502018
0.015704636 0.0058837235 -0.034013022 4281371458
0.018362656 0.0030552372 -0.031737059 4281176129
0.020844676 0.00096883625 -0.030136479 4280914243
0.023142703 -0.00037612021 -0.029209444 4281502273
0.025654063 -0.0024601817 -0.02761507 4281370693
0.02818143 -0.0045430213 -0.026024051 4281631049
0.030516781 -0.0058849454 -0.025104869 4281761099
0.034337498 -0.012402177 -0.019512806 4281695819
0.040126268 -0.025569335 -0.0079253223 4281695308
0.046010979 -0.038729474 0.003641393 4281695564
0.05024223 -0.045971498 0.0098581687 4281891148
0.052756056 -0.047299951 0.01073901 4282541653
-0.0016832352 -0.012777619 -0.016412597 4281363299
0.00025124103 -0.01264111 -0.016835146 4281761353
0.0018501282 -0.011015087 -0.018608786 4281501254
0.0025859028 -0.0056671053 -0.023755088 4281565769
0.0029381141 0.001166977 -0.030242013 4281696329
0.0028907582 0.0094860643 -0.038066044 4281370438
0.0040343255 0.012593508 -0.041164413 4280913224
0.0057001337 0.01346828 -0.042240001 4280782663
0.0080959909 0.011368558 -0.040625937 4281436739
0.010694377 0.0085267052 -0.038343776 4281566789
0.013503283 0.0049433261 -0.035395257 4281565768
0.016338881 0.0013619736 -0.032452457 4281369929
0.018812165 -0.00073172897 -0.030854965 4281303883
0.021301471 -0.0028242245 -0.029260827 4281240134
0.023407131 -0.0034305379 -0.029007317 4281239879
0.025923122 -0.0055208802 -0.027418811 4281239368
0.028660249 -0.0083519667 -0.025166232 4281826634
0.031418703 -0.011181414 -0.022918213 4281760589
0.035461381 -0.018459156 -0.016676987 4281695054
0.040623106 -0.029440336 -0.0071187187 4281629518
0.045864772 -0.04041563 0.0024222694 4281759059
0.049438521 -0.045456365 0.006629575 4281561944
0.00011575222 -0.014236584 -0.017989486 4281433678
0.0018825196 -0.01335308 -0.019085925 4281370183
0.0031330809 -0.010229662 -0.022201382 4281695818
0.0040164366 -0.0056146383 -0.026657781 4281956938
0.0043409392 0.0012372732 -0.033123888 4281500743
0.0051524825 0.005847469 -0.037564423 4281436229
0.0064750239 0.0082176775 -0.039984662 4281239624
0.0088834912 0.006112285 -0.038378254 4281174598
0.011494309 0.003262572 -0.036105331 4281240389
0.014315449 -0.00033085048 -0.03316763 4281434444
0.016779996 -0.0024318397 -0.031573199 4281565513
0.01906627 -0.0037866384 -0.030650331 4281631049
0.021363214 -0.0051404908 -0.029729715 4281630795
0.023670841 -0.0064935014 -0.0288113 4281434699
0.026393738 -0.0093344897 -0.026562251 4281630794
0.029547879 -0.013662271 -0.022986028 4281565003
0.032941632 -0.018731683 -0.018751403 4281629518
0.037424177 -0.027517647 -0.011201253 4281694544
0.041757695 -0.035555191 -0.004329076 4281563474
0.045718584 -0.042101458 0.001203388 4281823574
0.001747109 -0.014946029 -0.020238403 4281564239
0.0035086721 -0.014060602 -0.021331996 4281695053
0.0047465786 -0.010929242 -0.024438098 4281825359
0.0049104802 -0.0033081248 -0.031563431 4282153288
0.0059117824 0.00056767464 -0.035326649 4281631049
0.0074288547 0.0021972805 -0.037075501 4281500999
0.0098525994 8.6396933e-05 -0.035477329 4281435208
0.012292389 -0.0020232052 -0.033882543 4281565513
0.01474819 -0.004131496 -0.032291196 4281631049
0.016837124 -0.0047438294 -0.032037564 4281761099
0.019125521 -0.0061027929 -0.031118451 4281761099
0.021621391 -0.0082078949 -0.029535512 4281695563
0.024731593 -0.012552179 -0.0259597 4281694799
0.027873781 -0.016894072 -0.022390774 4281694288
0.031457514 -0.022726431 -0.017500116 4281693779
0.035083883 -0.028555602 -0.012618652 4281627733
0.003203392 -0.014899991 -0.023152877 4281563218
0.0046118386 -0.01251097 -0.025582366 4281825360
0.0053032897 -0.0071200728 -0.030684542 4281891659
0.0063133538 -0.0032327175 -0.034441575 4281761609
0.0078386627 -0.0015982017 -0.036188927 4281761864
0.01008641 -0.0029649287 -0.035264581 4281631049
0.012530811 -0.0050807595 -0.0336757 4281630793
0.014991239 -0.0071953237 -0.032090217 4281630539
0.01727641 -0.0085590184 -0.031173764 4281695564
0.019960135 -0.011420637 -0.028929498 4281760078
0.022665197 -0.01428058 -0.026689779 4281760589
0.026188616 -0.020135 -0.021799246 4281760078
0.029956602 -0.026735038 -0.016254628 4281824594
0.033567958 -0.032582849 -0.011383082 4282281044
0.0032380223 -0.017241292 -0.023633098 4281364065
0.004649546 -0.014845498 -0.026058365 4281694035
0.0051697344 -0.0086861402 -0.031817447 4281695053
0.0065361001 -0.0062933117 -0.034232683 4281696329
0.0082473718 -0.0054065734 -0.035311669 4281826634
0.010502584 -0.0067771375 -0.03439223 4281630795
0.012768526 -0.0081468523 -0.033474971 4281565514
0.015610371 -0.011771582 -0.030566253 4281695563
0.0184789 -0.015394278 -0.027663242 4281695308
0.021567836 -0.019766524 -0.024102537 4281760334
0.024688769 -0.024136379 -0.020548722 4281759058
0.028438892 -0.030757472 -0.015014986 4281693778
0.032035265 -0.036623985 -0.010153255 4282673488
0.0057358071 -0.01327233 -0.03028658 4281628755
0.0067581162 -0.0093623176 -0.034029953 4281629773
0.0084747449 -0.0084730387 -0.035108492 4281761098
0.01110056 -0.011356756 -0.032865021 4281761865
0.014118832 -0.015747517 -0.029298987 4281892934
0.017169133 -0.020135909 -0.025739783 4281695564
0.020251423 -0.024521887 -0.022187525 4281694544
0.023559259 -0.029659204 -0.017980302 4282085713
0.0064751394 -0.018633172 -0.028103823 4281364319
0.0075115375 -0.014711231 -0.031842183 4281367378
0.0094215646 -0.01457572 -0.032258857 4281630539
0.012793265 -0.020494103 -0.027374936 4281761098
0.01602228 -0.025652736 -0.023162192 4281827399
0.019288614 -0.030808575 -0.018957527 4282023239
0.021829505 -0.032936938 -0.017404167 4281955663
0.024773125 -0.036575988 -0.01453372 4282607954
0.0089718811 -0.023119032 -0.027021488 4281691483
0.011265434 -0.024500147 -0.02612024 4282086223
0.014664777 -0.030434027 -0.021255387 4282086734
0.018106785 -0.03636466 -0.016399764 4282346578
-0.0254445 -0.018610977 0.038032852 4281621358
-0.025708757 -0.019585989 0.036099602 4281226363
-0.024294645 -0.015869148 0.032105803 4280375428
-0.025605142 -0.022708036 0.03629484 4281356924
-0.024435192 -0.017545722 0.030892298 4280636294
-0.022918925 -0.01453653 0.027619541 4280637313
-0.025624476 -0.025119178 0.035777189 4281160063
-0.024575658 -0.019221999 0.029678989 4280111248
-0.022931159 -0.016923122 0.027118213 4280177040
-0.02104187 -0.016063072 0.02597104 4280310149
-0.025888339 -0.026091024 0.033846121 4281029248
-0.024716057 -0.020897955 0.028465901 4280045968
-0.022943698 -0.01931385 0.026613951 4279783828
-0.02105169 -0.0184514 0.025467753 4279522454
-0.019297592 -0.016868353 0.023619965 4281161083
-0.025907896 -0.028505959 0.033325691 4281291133
-0.024607204 -0.024020962 0.028659008 4280045968
-0.022829287 -0.022432126 0.026809074 4279194268
-0.021191731 -0.020120554 0.024259649 4279456409
-0.019569971 -0.017810024 0.021713808 4279259293
-0.01782877 -0.016223371 0.019872122 4282537063
-0.02592776 -0.030924939 0.032802254 4281815669
-0.024623439 -0.026426643 0.028144579 4280045713
-0.022969685 -0.024107508 0.02559641 4279259549
-0.021461442 -0.021063887 0.022351537 4279521944
-0.019841917 -0.018746927 0.019811016 4279259803
-0.018238202 -0.016431019 0.017274082 4280374409
-0.024391539 -0.030292518 0.029026765 4280766599
-0.02311001 -0.025782607 0.024383947 4280177039
-0.021730714 -0.022002503 0.020446811 4280045968
-0.020245649 -0.018951669 0.017213605 4280045968
-0.018511966 -0.017356887 0.015380092 4280177294
-0.016651236 -0.016489834 0.014245823 4282471783
-0.023123592 -0.028187491 0.023869328 4281094783
-0.021740831 -0.024396226 0.019939587 4280177294
-0.020252503 -0.021336436 0.016712178 4279980433
-0.01851593 -0.019737117 0.014881272 4279914898
-0.016789839 -0.018138364 0.013052728 4280439688
-0.015214249 -0.015811123 0.010531873 4280898944
-0.021622084 -0.027526185 0.02012489 4280439178
-0.020259663 -0.023725301 0.016207777 4279324829
-0.018654697 -0.021389678 0.013685212 4279718549
-0.016928382 -0.019786566 0.011859857 4280046223
-0.015212543 -0.018184125 0.010036912 4280701829
-0.021246031 -0.032133207 0.021691725 4282798439
-0.019872181 -0.02832064 0.017780297 4280569738
-0.018659092 -0.023775905 0.013182037 4279915153
-0.017066851 -0.021434486 0.010667179 4279653268
-0.015490435 -0.01909411 0.0081559084 4279915154
-0.013787545 -0.017488062 0.0063390937 4280439178
-0.011950165 -0.016615853 0.005215073 4281030013
-0.019749038 -0.031460635 0.017956924 4282992749
-0.018797934 -0.025430053 0.011984807 4280242828
-0.01720529 -0.023082078 0.0094747394 4279653268
-0.015349522 -0.022206634 0.0083481371 4280112014
-0.013783202 -0.019860327 0.0058440361 4280177295
-0.012087919 -0.018250346 0.0040322226 4280439688
-0.017207041 -0.025467545 0.0089714732 4280635783
-0.015348583 -0.024589732 0.0078458562 4280177294
-0.013921112 -0.021498889 0.004658198 4279849618
-0.012225598 -0.019884542 0.0028495751 4280111503
-0.010687873 -0.017533407 0.00035674684 4280373644
-0.0091659799 -0.015183315 -0.0021324847 4280373899
-0.015487053 -0.026236743 0.0066538565 4280701573
-0.014058985 -0.023137137 0.0034725741 4280111503
-0.012363233 -0.021518394 0.0016671643 4279849363
-0.010678001 -0.019900359 -0.00013582967 4279390873
-0.00930278 -0.016804054 -0.0033053178 4279128733
-0.0079487637 -0.013709128 -0.0064700926 4282340713
-0.014338367 -0.024032831 0.0016025584 4280766344
-0.012645058 -0.022409983 -0.00019903108 4279914899
-0.010815375 -0.021529533 -0.0013148151 4278800803
-0.0092899948 -0.019166067 -0.0037950892 4279390874
-0.0077804774 -0.016803615 -0.0062718112 4279980433
-0.0061319321 -0.015183419 -0.0080632614 4280637569
-0.014334559 -0.026412681 0.0011020005 4281879418
-0.012926467 -0.023296863 -0.0020618364 4280372879
-0.011246115 -0.021670394 -0.0038572941 4279193758
-0.0094269067 -0.020788386 -0.0049690809 4279849364
-0.0079169795 -0.018419355 -0.0074410038 4279849109
-0.0062682033 -0.016794786 -0.0092292512 4280308109
-0.0047873482 -0.014427565 -0.011694645 4280506499
-0.012631997 -0.027164519 -0.0011979472 4280961929
-0.011236496 -0.024040759 -0.0043524373 4279849109
-0.0095637664 -0.022410393 -0.0061428417 4279849108
-0.0077497214 -0.021526471 -0.0072517861 4279980178
-0.0060953945 -0.019897111 -0.0090380404 4280045969
-0.0046087913 -0.017522976 -0.011499756 4280308620
-0.003297925 -0.014404558 -0.014635292 4280572798
-0.031639367 -0.036185294 0.0074371714 4282667369
-0.029757947 -0.035295889 0.0063140485 4282404463
-0.01122719 -0.026415251 -0.0048504975 4281420928
-0.0098495856 -0.023283899 -0.0079944599 4280504204
-0.0081898421 -0.021649919 -0.0097787399 4280111504
-0.006386295 -0.020764433 -0.010883672 4280045970
-0.004901953 -0.018383875 -0.013340057 4280111248
-0.0035931282 -0.015256897 -0.01646857 4280505479
-0.0019808933 -0.013625801 -0.018242102 4280638079
-0.0096885413 -0.026403874 -0.0078132544 4281421183
-0.0081747212 -0.024014987 -0.010271335 4280242319
-0.0065226257 -0.022377081 -0.012050597 4280307853
-0.005037874 -0.019989938 -0.014502184 4279914643
-0.003568992 -0.017603844 -0.016950166 4280176784
-0.0021160021 -0.01521872 -0.019394644 4279850129
-0.0083112232 -0.025631689 -0.011441244 4281290624
-0.006812878 -0.023237199 -0.013891028 4280700809
-0.0053303838 -0.020843677 -0.016337233 4280373133
-0.0037044659 -0.019203059 -0.018107289 4279193504
-0.0022510737 -0.016811356 -0.020546975 4279521689
-0.00048432499 -0.015923627 -0.021640254 4280309385
0.001444459 -0.01578743 -0.022061495 4280704889
-0.0079943761 -0.029511921 -0.010592805 4283188589
-0.0066413954 -0.026355863 -0.013711663 4281290368
-0.0051531605 -0.023955449 -0.016154202 4279717528
-0.0036808103 -0.021556005 -0.018593235 4279521689
-0.002386108 -0.018403694 -0.02169908 4279914898
-0.00061932951 -0.017513774 -0.022790747 4280177294
0.0014764071 -0.018131077 -0.022542739 4279850639
-0.005289156 -0.025562808 -0.017317267 4281355139
-0.0039753094 -0.022400551 -0.020420885 4280242574
-0.0025210977 -0.019995689 -0.022850962 4279980433
-0.00075428933 -0.019103624 -0.023941023 4280045713
0.0011741966 -0.018967465 -0.024362208 4279783574
0.003102757 -0.018831156 -0.024783311 4280112268
0.0048591681 -0.017939426 -0.025870802 4280966773
-0.0048008375 -0.030204371 -0.015806591 4283318384
-0.0037932247 -0.025515698 -0.020241773 4280307598
-0.0026560649 -0.021587431 -0.024002651 4279980433
-0.0012173243 -0.019177072 -0.026424343 4279653268
0.00070567429 -0.019041285 -0.026844325 4279390619
0.002967529 -0.020420738 -0.025933312 4280177294
0.0054121576 -0.022556826 -0.024359619 4280308873
-0.0024685673 -0.024699762 -0.02382282 4281355393
-0.0013518445 -0.020761892 -0.027570987 4280242574
0.00057100877 -0.020626143 -0.027990954 4279718293
0.0030015148 -0.022769883 -0.02641922 4280177038
0.005963672 -0.027191475 -0.02286098 4280439688
0.0077361912 -0.026294127 -0.023948649 4281030779
-0.0017987229 -0.030108497 -0.021657059 4282663799
-0.000831604 -0.025396243 -0.026063656 4280635273
0.0011017472 -0.025259748 -0.026485907 4280111758
0.0037112162 -0.028171457 -0.024258913 4280373898
0.0066854246 -0.03260532 -0.020713026 4280701319
1.4197081e-05 -0.031577215 -0.023245001 4282338419
0.0021295249 -0.032204062 -0.023009436 4281159808
-0.020689189 -0.03786169 -0.027431749 4282929254
-0.00019574165 0.016326018 0.021512248 4285100833
0.0017764345 0.016465388 0.021081604 4285558814
0.005084753 0.011067174 0.026371025 4285689374
0.0099629462 -0.00055608898 0.038080934 4285688863
-0.0027827211 0.016640529 0.018617347 4285362718
-0.00081877783 0.016779192 0.018188413 4285559068
0.0009811148 0.017612591 0.017045513 4285754909
0.0036098808 0.014973603 0.019470874 4285820444
0.0071075186 0.0088650808 0.025455717 4285886233
0.012374833 -0.0041802749 0.038552523 4285886233
-0.0094137117 0.017392054 0.015867986 4284969763
-0.0074609704 0.017529607 0.015441265 4285428254
-0.0053521395 0.016969889 0.015728705 4285493789
-0.003555093 0.017805032 0.01458795 4285755928
-0.0019245297 0.019336913 0.012735382 4285755164
-0.0001405701 0.020171318 0.011597618 4285557793
0.0023046918 0.018218949 0.013308305 4285558048
0.0054432414 0.013482131 0.017860401 4285689118
0.0094790906 0.0052667931 0.025957648 4285754908
0.013928354 -0.0043359995 0.035461068 4285624093
-0.01403559 0.01830364 0.012693431 4285165603
-0.012093954 0.018440187 0.012268964 4285493279
-0.010001719 0.017876901 0.01255824 4285624603
-0.0077509135 0.016614325 0.013559498 4285559069
-0.0059565902 0.017451338 0.012420878 4285559068
-0.0040090308 0.017588697 0.011995416 4285624348
-0.0023835599 0.019124549 0.010147266 4285887509
-0.00060485676 0.01996075 0.0090122689 4285886999
0.0015014857 0.019399036 0.0092988908 4285821209
0.004458826 0.015344612 0.013132539 4285821464
0.0076200701 0.01059407 0.017668322 4285624604
0.010818757 0.005846329 0.022195973 4285493789
0.014232025 0.00040324032 0.027423441 4285427743
-0.01791425 0.015722156 0.013094839 4285297439
-0.016112633 0.016561352 0.011955868 4285428254
-0.014461085 0.018102869 0.010104802 4285886488
-0.012524895 0.018239014 0.0096815117 4285820698
-0.01028806 0.016970903 0.010682501 4286018068
-0.008193329 0.016405672 0.010969643 4285755419
-0.0062486902 0.016542703 0.010544725 4285689628
-0.0044621676 0.017381422 0.0094094947 4285558558
-0.0028417856 0.018921312 0.007565666 4285624349
-0.0012319386 0.020460527 0.0057242569 4285624348
0.001032345 0.019194987 0.0067196488 4285624348
0.0036452562 0.016528599 0.0091288537 4285558558
0.0064512081 0.013163179 0.01224089 4285624349
0.0087611526 0.011901133 0.013226591 4285558814
0.011258796 0.0099397153 0.014916237 4285624350
0.014850095 0.0037789866 0.020836715 4285558303
0.020676687 -0.010777071 0.035208214 4285426723
-0.019856654 0.013272814 0.01306995 4285100068
-0.018049806 0.014114454 0.01193139 4285493533
-0.016390175 0.015660748 0.010081772 4285624603
-0.015030503 0.018615916 0.0068111327 4285623838
-0.01295504 0.018046893 0.0071006734 4285557794
-0.010724038 0.016774006 0.0080996063 4285689374
-0.0083294809 0.014797762 0.0098062083 4285820954
-0.0063849688 0.014934748 0.0093812943 4285689884
-0.004598394 0.015775651 0.0082476754 4285624349
-0.0028170086 0.016616285 0.0071152691 4285624349
-0.0012042597 0.018160105 0.005276436 4285558814
0.00089613348 0.017593548 0.0055610575 4285493278
0.0033394396 0.015621349 0.0072574653 4285624349
0.0057988502 0.013650388 0.008950429 4285624348
0.0077521577 0.013788715 0.0085241292 4285690138
0.0098822862 0.013224676 0.008802563 4285952024
0.012735453 0.0098519176 0.01189632 4285885979
0.016889915 0.0015664101 0.019909024 4285820189
0.022955928 -0.013733581 0.034937192 4285820188
-0.019855678 0.010955721 0.012616925 4285361954
-0.018463716 0.013921648 0.0093456469 4285559069
-0.017092906 0.016886227 0.0060790181 4285953044
-0.015454195 0.018435553 0.0042372551 4285689628
-0.013384365 0.017863885 0.0045264252 4285689373
-0.011159204 0.016586162 0.0055233296 4285887253
-0.0086181313 0.013896517 0.007934643 4285755673
-0.0066764057 0.01403328 0.0075103212 4285624349
-0.005050309 0.015582211 0.0056716856 4285624349
-0.0032741949 0.016424641 0.0045420453 4285624604
-0.0015033185 0.01726681 0.0034136269 4285624604
0.00075996667 0.015992388 0.0044026636 4285558814
0.00269695 0.016129337 0.0039797593 4285624348
0.0049764588 0.014856227 0.004965445 4285755929
0.0067450777 0.015698642 0.0038378276 4285689628
0.0086849965 0.015836105 0.0034145098 4285624093
0.011162642 0.013860196 0.005098762 4285624093
0.014383934 0.0090682358 0.0095873512 4285755419
0.018934533 -0.00064978004 0.01897727 4285624093
0.024683254 -0.014586002 0.032555524 4285427233
-0.019718647 0.0079247504 0.012871172 4285229099
-0.018737793 0.01302848 0.0074760858 4285493279
-0.017510727 0.016710989 0.0035073683 4285690138
-0.01602143 0.018973403 0.00096151978 4285821464
-0.013959929 0.018398978 0.0012508091 4285821208
-0.01174324 0.017116264 0.002246283 4285755928
-0.009211041 0.014417194 0.0046529751 4285624348
-0.0072774515 0.014553368 0.0042304136 4285624349
-0.0055014193 0.015397854 0.0031023286 4285624349
-0.0035702437 0.015534051 0.0026804414 4285624349
-0.001638934 0.015670381 0.0022586118 4285624349
0.000458166 0.015099153 0.002540648 4285558814
0.0022239909 0.015943341 0.0014151055 4285624349
0.0041555986 0.01608 0.00099343993 4285821719
0.0057399236 0.017630905 -0.00083231553 4285821209
0.0074900053 0.018474326 -0.001954237 4285557794
0.0097719356 0.017197318 -0.00097211264 4285558559
0.012791384 0.013095126 0.0028090309 4285689884
0.016396027 0.0068763196 0.0086825322 4285690393
0.020983934 -0.0028696507 0.018041473 4285362208
0.027353955 -0.018963739 0.033671495 4285362208
-0.019173793 0.0027495101 0.01524514 4285098028
-0.018456109 0.0092930049 0.0084421989 4285559068
-0.017644733 0.015121721 0.0023572631 4285558813
-0.016299181 0.018102102 -0.00089072064 4285624349
-0.014093801 0.016814046 0.00010390393 4285558559
-0.011877626 0.015526876 0.0010961909 4285558559
-0.0094984695 0.01352974 0.0027913768 4285624348
-0.0078773238 0.015086904 0.00096030347 4285689628
-0.0061092302 0.015933037 -0.00016447157 4285821209
-0.0043463483 0.016778886 -0.0012879781 4285821464
-0.0021001659 0.015494302 -0.00030181743 4285755419
-8.7209046e-06 0.014920481 -2.0192936e-05 4285624350
0.0015836544 0.016476154 -0.0018446501 4285558558
0.0031654648 0.018031165 -0.0036666691 4285755928
0.0047366843 0.01958555 -0.0054863486 4285821973
0.0066496655 0.019721083 -0.0059038047 4285887509
0.0085627213 0.019856721 -0.0063211937 4285821208
0.011201888 0.017157577 -0.0039435644 4285755419
0.014046643 0.013751529 -0.00087237731 4285493534
0.018226061 0.0053890646 0.0070761088 4285493534
0.023417158 -0.0065094978 0.018495671 4285362209
0.030044299 -0.023357213 0.034770384 4285362209
-0.017620862 0.0026888624 0.012224812 4285098029
-0.016930789 0.0092502087 0.0054426845 4285295399
-0.015856579 0.013667643 0.00078696385 4285427999
-0.014227636 0.015229382 -0.0010428056 4285493788
-0.012161255 0.014650971 -0.00075781159 4285559069
-0.010089412 0.014073029 -0.0004739482 4285624603
-0.0086306669 0.016346797 -0.0030030441 4285690138
-0.0070304945 0.017906979 -0.0048262533 4285755419
-0.0051209033 0.018041611 -0.005243456 4285886744
-0.0028859042 0.016751848 -0.0042581316 4285952788
-0.00080544129 0.016175047 -0.0039757509 4285624348
0.001112476 0.016310588 -0.004394535 4285558814
0.0028598458 0.017157912 -0.0055127274 4285493278
0.00442864 0.018716499 -0.0073286258 4285559069
0.0063388236 0.018851832 -0.0077454699 4285624603
0.0082490817 0.018987253 -0.0081622638 4285624604
0.010703381 0.016989999 -0.006487539 4285559069
0.012989748 0.015704758 -0.0055128466 4285428254
0.015846822 0.012288727 -0.0024524499 4285101088
-0.01781784 -0.0090988651 0.021356773 4284901424
-0.016511232 -0.0053781122 0.017395031 4285098029
-0.015936747 0.001920715 0.0099176988 4285294888
-0.015415415 0.0092158467 0.0024520941 4285493023
-0.014361396 0.013645031 -0.0021893047 4285493533
-0.012444459 0.013779752 -0.0026084352 4285559324
-0.010830976 0.015345022 -0.0044314545 4285755929
-0.0095369294 0.018339634 -0.0076547805 4285624093
-0.008106973 0.020618066 -0.010172662 4285492003
-0.0060537234 0.020036921 -0.0098861512 4285558049
-0.0036700927 0.018027328 -0.0082014743 4285624348
-0.0014354959 0.016733289 -0.0072193146 4285690138
0.00064208731 0.01615417 -0.0069378829 4285558813
0.0025546364 0.01628942 -0.0073554274 4285559324
0.0044672787 0.016424805 -0.0077729002 4285559324
0.0063799918 0.016560264 -0.0081903338 4285427998
0.0084712654 0.015982509 -0.0079115201 4285427998
0.010386795 0.016118407 -0.0083293915 4285625624
-0.015957989 -0.010611072 0.019723631 4285229354
-0.015086569 -0.0047256574 0.013664745 4285163818
-0.014544837 0.0025927871 0.0062110145 4285229354
-0.013910003 0.0091898292 -0.00052948482 4285229608
-0.012727231 0.012913249 -0.0044556577 4285493534
-0.011267781 0.015200108 -0.0069752457 4285624603
-0.0099784583 0.018203154 -0.010191065 4285887764
-0.0083964579 0.019770719 -0.012003763 4285690138
-0.0065057836 0.019903991 -0.012416854 4285821719
-0.003965918 0.017170735 -0.01003776 4285953299
-0.0017344877 0.015872069 -0.0090581924 4285690649
0.00034009665 0.015290536 -0.0087777562 4285493533
0.0024201274 0.014709495 -0.0084984209 4285428253
0.0045055822 0.014128901 -0.0082201548 4285297183
-0.015958913 -0.012983538 0.019229777 4285229099
-0.014661193 -0.0092414618 0.015286386 4285229353
-0.013820246 -0.0033406019 0.0092472844 4285229353
-0.013313957 0.0039973333 0.0018177088 4285360679
-0.012414575 0.0091722831 -0.0035021231 4285624859
-0.011552371 0.014344677 -0.0088137072 4285493278
-0.010419168 0.018075734 -0.012720733 4285558814
-0.0089990199 0.020366572 -0.01522669 4285624603
-0.0067976564 0.019061178 -0.014243998 4285755674
-0.0042613298 0.016318902 -0.011870679 4285558813
-0.001868315 0.014296904 -0.010197815 4285427998
3.8541853e-05 0.014431611 -0.01061422 4285493789
0.0019454882 0.014566451 -0.011030558 4285298459
0.0040252842 0.013983294 -0.010752741 4284973333
-0.014518403 -0.012329444 0.015496425 4285031983
-0.013241053 -0.0085777715 0.011565708 4285098283
