# .PCD v0.7 - Point Cloud Data file format
VERSION 0.7
FIELDS x y z rgba
SIZE 4 4 4 4
TYPE F F F U
COUNT 1 1 1 1
WIDTH 975
HEIGHT 1
VIEWPOINT 0 0 0 1 0 0 0
POINTS 975
DATA ascii
0.0099349152 -0.039664149 -0.0046097506 4286202433
0.01254034 -0.041750535 -0.0030336063 4286333249
0.01476267 -0.042350844 -0.0028031599 4287444028
0.0026345924 -0.037286371 -0.0085120955 4286986814
0.0050105341 -0.038637236 -0.0076041119 4286660158
0.0072057899 -0.039242052 -0.0073696719 4286267713
0.0096004531 -0.040591367 -0.00646553 4286136643
0.011809086 -0.041194975 -0.0062338132 4286136643
0.013823705 -0.041053459 -0.0066727195 4286658883
-0.0024034567 -0.035483554 -0.012176191 4287445304
0.00013107434 -0.037588723 -0.010594768 4286790974
0.0026816465 -0.039692715 -0.0090167085 4286790974
0.0044941641 -0.038805105 -0.010123369 4286659904
-0.0041703731 -0.038770273 -0.011568476 4286856764
-0.0023606382 -0.037881054 -0.012673211 4287576629
-0.00019017607 -0.038492426 -0.01243689 4286725438
0.0019856729 -0.03910324 -0.012201619 4286398274
0.0039785467 -0.038963787 -0.012636189 4286071108
-0.0062979311 -0.040560246 -0.01230465 4286464573
-0.0044855699 -0.039668798 -0.013408453 4287052859
-0.0024983175 -0.039530143 -0.013842084 4286855999
-0.0005110167 -0.039391361 -0.014275645 4286855489
-0.0048003606 -0.04056263 -0.015245104 4286659648
-0.0029959232 -0.03966935 -0.01634552 4286397763
0.030164983 0.012332849 0.045716919 4281044038
0.033979096 0.0071852803 0.051067956 4280916794
0.027386378 0.0056784824 0.050473198 4282020433
0.025822308 0.017115332 0.037705697 4281437503
0.026551891 0.02124219 0.03292045 4280394044
0.029882766 0.017401364 0.036821663 4280394553
0.036799535 0.0029452965 0.0522791 4280070704
0.023496449 0.0091369525 0.043907456 4281500999
0.023860699 0.014614083 0.037672468 4281111104
0.024610035 0.018755484 0.032892615 4280525624
0.025543883 0.022228528 0.02884209 4281502018
0.02820505 0.02037169 0.03057103 4281502529
0.03310151 0.01185777 0.039507784 4281047353
0.039414972 -0.00064497441 0.052752726 4280852279
0.01924105 0.013972804 0.035911754 4281827144
0.020851666 0.015453324 0.034025207 4281110848
0.022240536 0.017601982 0.031419188 4280916284
0.023399659 0.020418163 0.028095497 4279612979
0.024970172 0.021896131 0.02621788 4279874354
0.027406268 0.020700432 0.027223205 4279938103
0.031183442 0.015497312 0.032543488 4279482164
0.035676569 0.0082936585 0.040011488 4280654399
0.039774224 0.0024296045 0.046029992 4281110848
0.043919899 -0.0034309626 0.052038118 4281175874
0.014043428 0.015357979 0.031985119 4281500489
0.014840202 0.019528907 0.027214086 4280588609
0.01724916 0.01832642 0.028221754 4280133688
0.019876992 0.016453609 0.029947994 4280784703
0.021677377 0.017266102 0.028789671 4281111359
0.022831785 0.020090852 0.025473436 4280981564
0.024613444 0.020902205 0.024319323 4280590393
0.027046371 0.019701913 0.02532207 4280655163
0.030376175 0.0158213 0.02919448 4280915263
0.033737976 0.01194308 0.033059932 4281110849
0.036451098 0.010076895 0.034768127 4281175874
0.038491488 0.010221057 0.034324214 4281110848
0.041692983 0.0070177168 0.037458606 4280002874
0.047505077 -0.003546305 0.048452929 4280132669
0.011691364 0.014213257 0.030513501 4281697859
0.011702489 0.021094393 0.022864791 4280589374
0.013281569 0.022581324 0.020991495 4280784448
0.019527869 0.015451618 0.028041488 4279026224
0.021536341 0.015592895 0.02760406 4280981053
0.023118097 0.017080393 0.025730452 4281046333
0.025121201 0.017221477 0.025294324 4280981054
0.027342962 0.016689971 0.025575245 4280980543
0.030012758 0.014813952 0.027287828 4281176129
0.032698549 0.01293911 0.028997051 4281110849
0.034266777 0.014426127 0.027126735 4280980544
0.035594884 0.016584426 0.02454414 4280198203
0.037371006 0.017398175 0.023393264 4280262463
0.041488886 0.011496045 0.029378483 4279611449
0.048266005 -0.0017876327 0.04319527 4279025204
0.0088714436 0.0075187162 0.035251595 4282676804
0.0095397662 0.012397155 0.029764699 4281635129
0.0099736135 0.017949454 0.023566024 4280201518
0.010764359 0.022146434 0.018815586 4281176129
0.012535501 0.022961017 0.017666666 4281436228
0.015532233 0.019720204 0.020828785 4281241665
0.018971324 0.015130006 0.025420615 4280329018
0.021605816 0.013244487 0.027135769 4280915518
0.023403669 0.014061324 0.025981305 4281111870
0.025411993 0.014202796 0.025544057 4281111359
0.027420294 0.014344342 0.025106868 4281111359
0.029428558 0.014485992 0.024669761 4281176639
0.031436786 0.014627732 0.02423274 4281242430
0.0327654 0.01679264 0.021654831 4280264759
0.034077954 0.01895646 0.019080533 4280459578
0.035838127 0.0197713 0.017934753 4281632579
0.03900006 0.016543172 0.021061664 4281372224
0.043611798 0.0092754737 0.028450819 4281176383
0.049721412 -0.0020284429 0.040091805 4281176638
0.0040551051 0.015195087 0.024413021 4284508214
0.0056639463 0.016692601 0.022539379 4283202868
0.0078450162 0.016152911 0.02282534 4281962803
0.0090466812 0.019006964 0.019517804 4280916283
0.010426633 0.021181151 0.016932862 4279351349
0.012195177 0.021997768 0.015786132 4280198969
0.015188184 0.018745642 0.018940972 4279873079
0.018207904 0.015495479 0.022090064 4280394298
0.02104402 0.012924984 0.024517858 4280980799
0.022836603 0.013743669 0.023366159 4281046078
0.024192527 0.015916757 0.020786891 4280980798
0.026187357 0.016057372 0.020352645 4281046589
0.028182156 0.016198084 0.019918477 4281241918
0.030400574 0.015662126 0.020197039 4281437758
0.031945296 0.017156359 0.018338328 4281112124
0.033021279 0.020002697 0.015058996 4278832933
0.035002515 0.020142835 0.014628066 4280070449
0.037686709 0.018255021 0.016328229 4280199989
0.041808881 0.012313582 0.022283459 4280331058
0.046458405 0.0050243065 0.029646749 4280851768
0.052620657 -0.0063133314 0.041248895 4281307708
0.0089083426 0.017359063 0.01834997 4282094128
0.010288738 0.019539919 0.015769789 4281372989
0.012057353 0.020358745 0.01462465 4280980033
0.014434973 0.019136418 0.015626175 4280915518
0.017653083 0.015194416 0.019483754 4280785469
0.020272862 0.013294607 0.021192418 4281112379
0.021844717 0.014794692 0.019330682 4281177404
0.02275949 0.018332765 0.015332846 4278963238
0.024301916 0.019831005 0.013477614 4279484459
0.026937641 0.017932668 0.015183134 4278769439
0.029589353 0.016035564 0.016885245 4280851768
0.031578604 0.01617609 0.016452445 4281242939
0.032652557 0.019031141 0.013180027 4281046843
0.034862489 0.018492695 0.013459047 4281046333
0.037780147 0.015920006 0.015863279 4281242939
0.041903187 0.0099586993 0.021803828 4281242683
0.046313688 0.0033230558 0.028441614 4281633853
0.052230433 -0.0073746741 0.039309986 4281633853
0.0087700337 0.015711457 0.017182341 4284511783
0.01054937 0.016533181 0.016036367 4282618154
0.012323396 0.017354604 0.014891675 4281242684
0.014296679 0.017493218 0.014461769 4281046844
0.016684499 0.01626724 0.015457949 4280981309
0.018873058 0.015724286 0.015739424 4281112378
0.020641748 0.016545728 0.014596181 4280982839
0.021543991 0.020093985 0.01060917 4280591668
0.023509217 0.020232528 0.01018138 4280852279
0.02635685 0.017645616 0.01259399 4278833443
0.029449109 0.014379025 0.015711604 4280396339
0.031890146 0.013157524 0.01669666 4281112124
0.033427328 0.01466018 0.014846148 4281046843
0.035878923 0.013439626 0.015829047 4280785469
0.038575098 0.011539437 0.017516935 4280654398
0.042707 0.0055588931 0.023441041 4280784703
0.04712617 -0.001098223 0.030060792 4281240898
0.052808482 -0.011150874 0.040196247 4281436995
0.014158411 0.015850291 0.013297549 4282748969
0.01592451 0.016673557 0.012156336 4281701939
0.017895009 0.016812183 0.01172719 4281245234
0.019653086 0.017635081 0.010587877 4280463404
0.020975631 0.019825723 0.0080304202 4281178679
0.022717645 0.020647693 0.0068947412 4281503039
0.025556412 0.01805127 0.0093028639 4281176638
0.02908577 0.013406202 0.013830187 4280916029
0.031975172 0.010813564 0.016227441 4280981053
0.034200575 0.010271713 0.016499801 4281111104
0.037124574 0.0076817274 0.018889679 4281371458
0.040303625 0.0044106692 0.021980593 4281305158
0.043982178 -0.00022339076 0.026475882 4281303884
0.048176248 -0.0062193051 0.032372005 4281825868
0.053385388 -0.01494015 0.041073263 4281890384
0.015372561 0.016406678 0.0095742587 4283138353
0.0173376 0.016544923 0.0091463011 4281898799
0.018665941 0.018742505 0.0065923631 4280853299
0.020193141 0.020252842 0.0047500804 4279811369
0.02214478 0.020390455 0.0043252707 4280135474
0.025197579 0.0170989 0.0074352529 4280069174
0.02872283 0.012438074 0.011952164 4280654143
0.032285422 0.007779941 0.016461069 4281240644
0.035428837 0.0044951364 0.019551532 4280913734
0.038598884 0.0012123138 0.022636266 4281305159
0.041795556 -0.002068527 0.025715286 4281369929
0.044782594 -0.0046626702 0.028085144 4281433934
0.048029818 -0.0079397112 0.031153331 4281890894
0.053477962 -0.017373763 0.040536441 4282021199
0.017409056 0.014220402 0.0086949486 4283860259
0.018740509 0.016424842 0.0061451849 4281308728
0.020055927 0.018628262 0.0035989992 4280981818
0.022224829 0.018077571 0.0038801841 4280916283
0.025059178 0.015463203 0.0062763579 4280849729
0.028805707 0.010098942 0.011487054 4280979524
0.032369524 0.0054254532 0.015984399 4281370949
0.03619872 6.7196786e-05 0.021177301 4281500744
0.039609097 -0.0039132759 0.024954921 4281498704
0.042584658 -0.0065171495 0.027320759 4281759569
0.045109354 -0.0077455267 0.02827826 4281759823
0.048599575 -0.011720024 0.032038741 4281825104
0.054052953 -0.021184601 0.04139813 4281759313
0.019026581 0.01341214 0.006400628 4284581143
0.020562295 0.014931917 0.0045629609 4282553894
0.022738883 0.014379635 0.0048408285 4281439798
0.025800224 0.011066638 0.0079327691 4281241153
0.029778339 0.0049952343 0.013831826 4281501509
0.033354059 0.00030714273 0.018315287 4281566023
0.037194967 -0.0050679445 0.023492726 4281564493
0.039925817 -0.0069921836 0.02515362 4281694289
0.042905834 -0.0096045509 0.027512042 4281759569
0.045907117 -0.012215324 0.029865919 4281955919
0.049883854 -0.017580345 0.035014145 4281824849
0.055350464 -0.027074881 0.044348061 4281758803
0.023902852 0.0085905045 0.0079006851 4283403298
0.026979137 0.0052675381 0.010981308 4282092089
0.030971449 -0.00082273781 0.016862741 4281698880
0.034111716 -0.0041409656 0.019929605 4281890638
0.037733972 -0.0088410825 0.024391668 4281826379
0.040472146 -0.010771446 0.026046181 4281956939
0.043925315 -0.014775254 0.029795209 4282152779
0.04764612 -0.019468106 0.034236133 4282087244
0.052119266 -0.026231728 0.04076346 4281955918
-0.02311828 0.010057226 0.010222876 4282674253
-0.021481838 0.011590689 0.0083680861 4283660339
-0.020177472 0.014521167 0.0050887987 4284575534
0.024847753 0.0034699291 0.010240594 4284639538
0.0281558 -0.00055791438 0.014011109 4283398709
0.031718001 -0.0052779764 0.018474834 4282480453
0.034867868 -0.0086065605 0.021531539 4281890383
0.038271867 -0.012627311 0.025281416 4282086733
0.041477665 -0.015951701 0.02832613 4282218059
0.045874223 -0.022743031 0.034853816 4282413899
0.050088584 -0.028836891 0.040672846 4282478413
-0.026273262 0.013208084 0.0045019891 4281957705
-0.024805274 0.01544629 0.0019402355 4281374774
-0.02272151 0.014878534 0.0022317916 4281700663
-0.020792868 0.015012324 0.0018103719 4284645148
0.025790792 -0.0016725212 0.012564996 4284639029
0.028891632 -0.0050158054 0.015624145 4283331898
0.032019123 -0.0083571225 0.018677561 4282480454
0.035173256 -0.011696421 0.021725284 4282086733
0.039035931 -0.017122902 0.026859285 4282217294
0.043401189 -0.023938626 0.033377558 4282086733
0.047819745 -0.030750461 0.039884336 4282282828
-0.028339747 0.011464894 0.0037835892 4281696839
-0.027473096 0.016525507 -0.0016234089 4279547698
-0.0258683 0.018065445 -0.0034649372 4280460088
-0.023643102 0.016790837 -0.0024605319 4280266288
-0.021407112 0.01551713 -0.0014584493 4281704489
-0.019649558 0.016353518 -0.0025877617 4283794724
0.02918775 -0.0080928206 0.015829781 4282742849
0.031875953 -0.010046884 0.017480416 4282021964
0.034804568 -0.012698501 0.019823981 4282086224
0.039571382 -0.020937331 0.027728984 4282216784
0.044631969 -0.029869959 0.036315352 4282085204
-0.030552667 0.010428578 0.0023537856 4281044549
-0.029519435 0.014799476 -0.0023346804 4280592179
-0.028061423 0.017050121 -0.0048847254 4281176638
-0.026464391 0.018593859 -0.006721314 4281437759
-0.024405237 0.018019944 -0.0064276308 4281047864
-0.021859992 0.015329994 -0.0040088911 4281178933
-0.01978194 0.014757603 -0.0037191808 4281570869
-0.017698444 0.014185704 -0.00343059 4282551853
-0.015609507 0.013614275 -0.0031431094 4284184619
0.029045297 -0.0097756237 0.014637532 4282545734
0.031511217 -0.011035159 0.015588151 4281955919
0.034436271 -0.013695836 0.017926043 4282020434
0.039651871 -0.023363166 0.027201178 4281954389
-0.034121383 0.0064285249 0.0041927882 4282085458
-0.033335563 0.012232892 -0.0019163862 4280979523
-0.032005455 0.015199855 -0.0051759295 4280981819
-0.030397791 0.016748518 -0.0070117796 4279354154
-0.028800648 0.018296599 -0.0088452911 4279679024
-0.027059335 0.019135933 -0.0099680806 4280656439
-0.0250085 0.018559217 -0.0096742148 4280199989
-0.022472113 0.015859805 -0.0072600003 4280657459
-0.020076964 0.013869509 -0.0055569597 4281374010
-0.017996453 0.013295174 -0.0052693412 4281635383
-0.015910506 0.012721315 -0.0049828365 4281963314
0.02890286 -0.011458121 0.013445506 4282414664
0.031368263 -0.012722097 0.014393015 4281561434
-0.037577126 0.011796273 -0.0036293156 4280915009
-0.035948332 0.013350479 -0.0054667927 4280721464
-0.03447393 0.015615121 -0.0080110189 4281242939
-0.032722306 0.016457044 -0.0091346912 4281112124
-0.030826699 0.016588032 -0.0095492564 4280785979
-0.029234644 0.018140115 -0.011378402 4280199989
-0.027498629 0.018981308 -0.012498479 4280459834
-0.025296248 0.017691802 -0.011498828 4280459834
-0.022603542 0.014273375 -0.0083847409 4280851003
-0.020209078 0.012276396 -0.0066864043 4281046333
-0.018459249 0.013118975 -0.0078091891 4280851003
-0.016714651 0.013961256 -0.0089307111 4281242939
-0.014804769 0.014094085 -0.0093477722 4281635639
-0.013067998 0.01493603 -0.010467429 4282223159
-0.011336464 0.015777744 -0.011585845 4284576553
0.029197533 -0.014551997 0.013639273 4281691993
-0.040997338 0.007086888 -0.0010812469 4282477649
-0.040432718 0.014357254 -0.0085943304 4279156274
-0.038814526 0.015915006 -0.010426372 4279873333
-0.036783826 0.01533182 -0.010131812 4279223085
-0.034747627 0.014749095 -0.0098383948 4280590648
-0.032852303 0.014879942 -0.010252992 4280981819
-0.031105813 0.015723795 -0.011373876 4280785724
-0.02936453 0.016567379 -0.012493542 4280980798
-0.027628463 0.017410763 -0.013612036 4281045824
-0.025426574 0.016116805 -0.012615506 4280850238
-0.023054238 0.014111549 -0.010917262 4280915773
-0.020990465 0.013531491 -0.010629321 4280851003
-0.019416258 0.015087292 -0.012451015 4280916283
-0.017852612 0.016642436 -0.014270276 4279159078
-0.015958864 0.016774133 -0.014683824 4280396849
-0.013546024 0.014772236 -0.012994032 4280331313
-0.011644114 0.014904723 -0.013409197 4282227494
-0.0097421296 0.015037328 -0.013824306 4284448289
-0.043309834 0.0067887753 -0.0032121688 4282086988
-0.042456727 0.012650236 -0.0092977155 4280982584
-0.041239601 0.016360737 -0.013250859 4281242684
-0.039634507 0.017921962 -0.015076831 4281437249
-0.037335794 0.015904292 -0.013367921 4280850493
-0.035020921 0.013887785 -0.011662433 4280916283
-0.032836098 0.012587838 -0.010665771 4280785978
-0.031235706 0.014149159 -0.012490404 4281046845
-0.029342879 0.014280006 -0.012904318 4280915773
-0.027604077 0.015125722 -0.01402177 4280850238
-0.025556855 0.014542088 -0.01373199 4280784703
-0.023504175 0.013958924 -0.013443334 4280784703
-0.021446049 0.013376243 -0.013155784 4280784958
-0.020041738 0.015650049 -0.015674358 4280720443
-0.018485866 0.01720909 -0.017488752 4281241918
-0.016600262 0.017340206 -0.017900536 4281306688
-0.014196113 0.015331075 -0.016213695 4280787764
-0.011600401 0.012609921 -0.013831351 4281374008
-0.009517733 0.012029618 -0.013548678 4281831733
-0.0079721101 0.013588458 -0.015360374 4283271973
-0.0062536262 0.01443401 -0.01647255 4284511528
-0.045992415 0.0086571872 -0.0074624782 4281175109
-0.044870209 0.013099551 -0.012122711 4280784959
-0.043249201 0.014666058 -0.013949104 4280200753
-0.041909304 0.017668456 -0.017185364 4281176384
-0.040038671 0.017797232 -0.017594827 4281306944
-0.037745964 0.015772462 -0.015889417 4281111359
-0.035293806 0.013031214 -0.013483116 4279615019
-0.03311212 0.01172661 -0.012489012 4281046843
-0.031514179 0.013292149 -0.014309901 4281177404
-0.029624145 0.013422795 -0.014723221 4281046079
-0.027887966 0.014270552 -0.015838547 4280850238
-0.026156988 0.015118018 -0.016952604 4280784703
-0.02427192 0.015248641 -0.017364603 4280980543
-0.022548705 0.01609578 -0.018476812 4281045823
-0.020666093 0.016226463 -0.018888105 4278831403
-0.019285277 0.01850538 -0.021396691 4280915773
-0.017070536 0.017204002 -0.020409046 4281633344
-0.014672417 0.015187867 -0.018725775 4281112379
-0.011907604 0.011741944 -0.01565114 4280787508
-0.0096499622 0.010443926 -0.014672659 4281308728
-0.007381577 0.0091467798 -0.01369644 4281570358
-0.005285766 0.0085653514 -0.013418053 4282878509
-0.0022547171 0.0044108033 -0.0096656131 4284380459
-0.046376165 0.0085166171 -0.0099975532 4280978504
-0.04525831 0.012971826 -0.014647141 4281046589
-0.043774877 0.015263043 -0.017174365 4280526134
-0.042442363 0.018273689 -0.020402532 4279674178
-0.040442068 0.017681606 -0.020106295 4279999558
-0.038295824 0.016369916 -0.019107822 4279026223
-0.035566282 0.012179404 -0.015300509 4280329783
-0.033387747 0.010870114 -0.014308903 4281111613
-0.031940695 0.013159439 -0.01682771 4281176894
-0.030207235 0.014009044 -0.017940875 4281111359
-0.028632771 0.015577577 -0.019753253 4281176128
-0.026599515 0.014988497 -0.019463692 4280980033
-0.024879035 0.015837543 -0.020573774 4281045824
-0.023001973 0.015967712 -0.020983951 4280980798
-0.021124829 0.016097978 -0.021394068 4280330038
-0.019581828 0.017664917 -0.023199223 4280330804
-0.017540041 0.017076991 -0.022911116 4280918578
-0.014975492 0.014335915 -0.020534957 4280266033
-0.012214415 0.010878734 -0.017467622 4280720443
-0.0094265975 0.0074235052 -0.014406052 4281046589
-0.0067924857 0.0046876073 -0.012044837 4281242173
-0.0039538704 0.001236178 -0.0089941705 4281633343
-0.00090272352 -0.0029302537 -0.0052557569 4283791664
-0.045997415 0.0040457696 -0.0082978522 4281761609
-0.044997554 0.0092380196 -0.01364445 4281500234
-0.043770265 0.012982108 -0.017575772 4281045568
-0.04243451 0.016001798 -0.020798275 4281112124
-0.040569458 0.016130149 -0.02120655 4281110594
-0.038423706 0.014814004 -0.020211203 4280981308
-0.035981257 0.012054391 -0.017815722 4281047353
-0.034099769 0.012184195 -0.018227359 4280981819
-0.032662954 0.014479414 -0.020739101 4280981309
-0.031241987 0.016773611 -0.023247249 4279808563
-0.02952968 0.017624054 -0.02435411 4279547188
-0.027353797 0.016310617 -0.023364892 4279025204
-0.02516713 0.014998041 -0.022377951 4280915263
-0.023292892 0.015128002 -0.022787523 4280980798
-0.021747075 0.016699359 -0.024590118 4281111613
-0.019877966 0.016829178 -0.02499841 4281241918
-0.017499968 0.014798246 -0.023320472 4281307453
-0.014933635 0.012048483 -0.020951217 4281503548
-0.01199602 0.0078604221 -0.017198054 4281177149
-0.00902633 0.0036747754 -0.01345184 4281176638
-0.0062048361 0.00021100789 -0.010405582 4281372479
-0.0033566244 -0.0032507852 -0.0073650833 4281959488
-0.00029606745 -0.0074297935 -0.0036383979 4282547774
-0.04523972 -0.0026188716 -0.0045010988 4281955409
-0.044220101 0.0025901869 -0.0098408042 4281761098
-0.043105472 0.007071659 -0.014470319 4281174853
-0.041887898 0.010826193 -0.018391388 4280980034
-0.040284518 0.012404881 -0.020204199 4280784959
-0.03841145 0.012533851 -0.020614173 4280850749
-0.036395457 0.011938572 -0.020324426 4280916793
-0.03451943 0.012067959 -0.020734891 4280785978
-0.033235613 0.015093409 -0.023939203 4280786234
-0.031671491 0.016669922 -0.025743034 4280263993
-0.030271303 0.018969376 -0.028241746 4280394554
-0.027950492 0.016927332 -0.026556607 4278569519
-0.025772322 0.015609711 -0.025570998 4280524859
-0.02342198 0.013569929 -0.023892155 4280980798
-0.021711849 0.014422841 -0.02499662 4280785215
-0.019506704 0.013107419 -0.024016662 4280785213
-0.017121408 0.011070415 -0.0223452 4281242429
-0.014203776 0.0068676323 -0.018597428 4281503548
-0.011254087 0.0026672184 -0.014856621 4281569593
-0.0080949031 -0.0022527575 -0.010430658 4281500234
-0.005438555 -0.0050047636 -0.0080872141 4281629519
-0.0031263046 -0.0063120276 -0.0071301181 4281890638
-0.00024709105 -0.0097825676 -0.0041043554 4282479433
-0.044864308 -0.0071312264 -0.0028308537 4281694544
-0.043315869 -0.0048159063 -0.0053579491 4282022729
-0.042047057 -0.0010469779 -0.0092822872 4281957959
-0.040939298 0.003447324 -0.01390057 4281240644
-0.039726112 0.0072127059 -0.017812598 4281110084
-0.038399484 0.010249525 -0.021020047 4281240644
-0.036951464 0.012558475 -0.023524759 4281176128
-0.035374042 0.014140047 -0.025328403 4280785979
-0.033511329 0.014268599 -0.025735894 4280655163
-0.031949628 0.015849337 -0.027535994 4281306433
-0.030245218 0.016703598 -0.028637927 4281306179
-0.02823424 0.01610633 -0.028348356 4280980544
-0.025900673 0.014058605 -0.026670733 4281045824
-0.023712248 0.012737431 -0.025690556 4280980799
-0.021676943 0.012142196 -0.025406053 4281373243
-0.018969961 0.0086478069 -0.022351358 4281503804
-0.016236216 0.0051553547 -0.019302379 4281569084
-0.013131954 0.00021587312 -0.0148759 4281632834
-0.010339398 -0.0032721981 -0.01183963 4281307199
-0.0073428862 -0.0074824393 -0.0081186127 4281436229
-0.0048539788 -0.0095184296 -0.0064742323 4281694543
-0.0030792616 -0.0086580142 -0.0075906012 4281890894
-0.00056890771 -0.010692246 -0.0059507098 4282479689
0.0019574873 -0.012725219 -0.0043142904 4284639029
-0.044743087 -0.010201216 -0.002572991 4281629008
-0.042930756 -0.0093383268 -0.0036976747 4281761354
-0.041387055 -0.007016629 -0.0062188376 4281957703
-0.040127959 -0.0032372773 -0.010132935 4281044803
-0.03889535 0.00054035336 -0.01404116 4280849473
-0.038108405 0.006503202 -0.020034747 4281045058
-0.037079144 0.011005625 -0.024625953 4281240898
-0.035791595 0.0140488 -0.027818304 4281242683
-0.033934359 0.014176972 -0.028224602 4280003893
-0.032227363 0.015033484 -0.02932559 4280459324
-0.030678641 0.01661782 -0.031119559 4280524349
-0.028673287 0.016017906 -0.030830331 4280198459
-0.026345756 0.013963193 -0.029156275 4280198459
-0.023680009 0.010454684 -0.026100801 4281307453
-0.021151222 0.0076754689 -0.023742903 4281373499
-0.018101875 0.0027164668 -0.019315839 4281372989
-0.015353203 -0.00078592449 -0.01627822 4281502018
-0.012406085 -0.0050130785 -0.012556281 4281501253
-0.0096012689 -0.0085113198 -0.0095307473 4281371203
-0.0069467574 -0.011281222 -0.0071998863 4281501508
-0.0049896836 -0.011144735 -0.0076269833 4281956429
-0.0030325539 -0.011008114 -0.0080539938 4282086989
-0.00089033321 -0.011597171 -0.0077937627 4282740809
0.0018204041 -0.014362641 -0.0054747965 4284442168
-0.044622552 -0.013279766 -0.002321206 4281954898
-0.042804848 -0.012414336 -0.0034454837 4281759313
-0.041255388 -0.010085717 -0.0059630461 4281761354
-0.039721768 -0.0077580214 -0.0084771104 4281501763
-0.038477723 -0.0039686039 -0.012379793 4281241153
-0.037818354 0.0027438104 -0.019058652 4281240898
-0.036922354 0.007991083 -0.024337122 4280847434
-0.036063511 0.013235867 -0.029607337 4281372223
-0.034504157 0.014825106 -0.031400584 4280916538
-0.032955308 0.016413696 -0.033191402 4280589118
-0.030958388 0.015810907 -0.032902081 4280524094
-0.028800499 0.014478497 -0.031921823 4280719424
-0.026157249 0.010957308 -0.028869571 4281241918
-0.02332636 0.0067083836 -0.025132256 4281372989
-0.0204634 0.0024618134 -0.021401858 4281567809
-0.017568346 -0.001782462 -0.017678346 4281500999
-0.014978942 -0.0045660809 -0.015339984 4281499469
-0.012025073 -0.0088059902 -0.011629188 4281629263
-0.0093875118 -0.011585996 -0.0093011474 4281760588
-0.0069054253 -0.013635777 -0.0076651005 4281500744
-0.0053048842 -0.012042321 -0.0094662709 4281957194
-0.0029861815 -0.013362326 -0.0085203117 4282086989
-0.00084162131 -0.013953462 -0.0082621528 4282477648
-0.042550888 -0.016233057 -0.0025030635 4281758804
-0.041255783 -0.012429364 -0.0064090472 4281761354
-0.039719086 -0.010094874 -0.0089189652 4281697348
-0.038334917 -0.0070278198 -0.012119861 4281307199
-0.037250619 -0.0024953187 -0.016703904 4281111104
-0.036340166 0.0027683452 -0.02197428 4281109064
-0.035466861 0.0080295205 -0.0272364 4281044549
-0.034336012 0.011822581 -0.03110595 4281044039
-0.033081654 0.014881283 -0.034278009 4281111358
-0.031085063 0.014276244 -0.033990245 4281175619
-0.028772328 0.012207091 -0.032322679 4280784449
-0.025811438 0.007210806 -0.027899142 4281241153
-0.022491753 0.00075336546 -0.022105118 4281371969
-0.019450687 -0.0042371973 -0.017698895 4281567809
-0.017036248 -0.0062987953 -0.016053194 4281499978
-0.014774419 -0.0076278001 -0.015098505 4281498704
-0.011987817 -0.011149481 -0.012085213 4281628499
-0.0093484782 -0.013938189 -0.0097640203 4281760078
-0.0072177686 -0.014532842 -0.0095047681 4281500489
-0.005440332 -0.01366578 -0.010617009 4281891913
-0.0031221546 -0.01499024 -0.0096741645 4281627224
-0.040862907 -0.016985625 -0.0047756098 4281826634
-0.03958286 -0.013171874 -0.008670195 4281566789
-0.038056251 -0.010831371 -0.011173002 4281828928
-0.036823828 -0.0070206821 -0.015056998 4281502783
-0.035759728 -0.0024762675 -0.019626884 4281371203
-0.034871984 0.0028013438 -0.024880949 4281370183
-0.033727039 0.0066063479 -0.028745554 4281369164
-0.032458764 0.0096748024 -0.031914227 4281304648
-0.030449178 0.0090684518 -0.03163093 4281763904
-0.027813461 0.0055245832 -0.028593235 4281569338
-0.024835333 0.0005140081 -0.024184708 4281176383
-0.021498784 -0.0059620962 -0.01840887 4281435719
-0.018929984 -0.0087650046 -0.01607907 4281565514
-0.016671419 -0.010098755 -0.015126975 4281694288
-0.014570605 -0.01069808 -0.014863091 4281628499
-0.012122046 -0.012763709 -0.013229526 4281759058
-0.0096574128 -0.014828078 -0.011599361 4281628499
-0.0075297058 -0.015425161 -0.011341083 4281301844
-0.03917997 -0.01773373 -0.0070436178 4281626458
-0.038051303 -0.013171911 -0.011618163 4281631049
-0.036815461 -0.0093499869 -0.015494872 4281437248
-0.035606083 -0.0055297762 -0.019365698 4281437759
-0.034134548 -0.0031861439 -0.021851389 4281435719
-0.032678869 -0.00084353983 -0.024333484 4281434699
-0.031239029 0.0014981255 -0.026812077 4281303884
-0.029358108 0.0016280934 -0.027223444 4281368909
-0.026857119 -0.0011886954 -0.02488553 4281435208
-0.02401942 -0.0054769218 -0.021178791 4281239113
-0.021149609 -0.0097628608 -0.017478948 4281044038
-0.018899657 -0.011101723 -0.016528277 4281434953
-0.016638946 -0.01243975 -0.015579877 4281760843
-0.014704097 -0.012305327 -0.0160025 4281695308
-0.012256239 -0.014377624 -0.014373614 4281759569
-0.0099659637 -0.015713222 -0.013431407 4281497428
-0.037229743 -0.019957893 -0.0079273405 4281690718
-0.036390942 -0.013903528 -0.013867968 4281369674
-0.035170134 -0.010071531 -0.017733252 4281567554
-0.033831697 -0.006980896 -0.020904602 4281761353
-0.032220807 -0.0053706244 -0.022696262 4281630794
-0.030620437 -0.0037608892 -0.024485558 4281499469
-0.028574202 -0.0043691322 -0.02421351 4281369164
-0.02636769 -0.0057158396 -0.023256795 4281565004
-0.023678035 -0.0092779025 -0.020246925 4281499724
-0.021121752 -0.012099437 -0.01792738 4281630539
-0.018869646 -0.013442576 -0.016980415 4281174343
-0.016937703 -0.013308495 -0.017402502 4281630794
-0.014837552 -0.013912275 -0.0171417 4281564495
-0.01256118 -0.01525341 -0.016199727 4281365338
-0.034735616 -0.014630713 -0.016113166 4282219080
-0.033385929 -0.011530519 -0.019280547 4282022984
-0.031910788 -0.0091733709 -0.021757323 4281957194
-0.030152913 -0.0083002299 -0.022859853 4281695818
-0.028248291 -0.0081686676 -0.023276422 4281630028
-0.026034337 -0.0095192268 -0.022324609 4281630284
-0.023495011 -0.012350857 -0.02000788 4281629518
-0.021254171 -0.013699368 -0.019061727 4281760843
-0.019002587 -0.015046954 -0.018117875 4281631049
-0.017236061 -0.014172509 -0.019221766 4281042763
-0.015306842 -0.014038488 -0.019643171 4281169499
-0.032654006 -0.017585695 -0.016299006 4282348873
-0.03160182 -0.012989141 -0.020827549 4282153544
-0.030283254 -0.0098820776 -0.023981532 4281761353
-0.028227005 -0.010494046 -0.023714904 4281695819
-0.026010875 -0.011848919 -0.02276675 4281630029
-0.023312669 -0.015432402 -0.01977485 4281629774
-0.021067016 -0.016784929 -0.018833004 4281760078
-0.018973056 -0.01739382 -0.018574279 4281564749
-0.01736892 -0.015774369 -0.020357408 4280908123
-0.03085513 -0.019056201 -0.017858677 4282216783
-0.02996676 -0.013701431 -0.023056401 4281694543
-0.027902845 -0.014315091 -0.022793075 4281630028
-0.025679257 -0.015673816 -0.021849824 4281891659
-0.023131028 -0.018522441 -0.019547924 4281760333
-0.021040153 -0.019133873 -0.019290213 4281561944
-0.029205095 -0.019778192 -0.020098645 4282281044
-0.02742834 -0.018897071 -0.021200422 4281759568
-0.025040541 -0.02100727 -0.019583162 4281890638
-0.022793353 -0.02236867 -0.018648151 4281694288
0.03474056 -0.016798094 0.018111018 4281099118
0.039505258 -0.025090061 0.025977815 4280899964
0.044792734 -0.034783058 0.035214819 4280899199
0.031888954 -0.016525626 0.015274661 4280967793
0.035267998 -0.02061443 0.018981563 4280834428
0.039811738 -0.028227143 0.026136724 4280767619
0.04441411 -0.035835579 0.033279233 4280701828
0.048147589 -0.04062023 0.037649609 4282602854
0.029273108 -0.016946331 0.013135752 4281032054
0.0319665 -0.018926479 0.014765913 4280505989
0.035346933 -0.023028351 0.018462816 4280505479
0.039664764 -0.029957831 0.024910679 4280505223
0.04426492 -0.03759066 0.032035947 4280374153
0.047533542 -0.040976629 0.035018772 4282667879
0.026453435 -0.016646504 0.010310804 4281619828
0.029566487 -0.020055063 0.013318935 4280702339
0.032264512 -0.022041485 0.014943266 4280440199
0.035425499 -0.02544643 0.017941127 4280505479
0.039743975 -0.032397866 0.024372762 4280374664
0.0438869 -0.03863591 0.030105578 4280964224
0.023863833 -0.017044678 0.0081813093 4281554038
0.026526531 -0.019040443 0.0098083187 4280702083
0.029423174 -0.021747395 0.012119951 4280374409
0.032341138 -0.024452753 0.014427079 4280440199
0.035727032 -0.028580748 0.018103471 4280439944
0.039822832 -0.034842066 0.023831969 4280571014
0.043737918 -0.04038813 0.02886433 4281095038
0.02149573 -0.01814805 0.0067442395 4281226364
0.023934603 -0.01943624 0.0076811165 4280308618
0.026814384 -0.022153355 0.0099899266 4280374153
0.029715475 -0.024868831 0.012294201 4280439689
0.032858331 -0.028297208 0.015279813 4280309384
0.036474064 -0.0331522 0.019630374 4280571269
0.040352896 -0.038718618 0.024657695 4281292409
0.016713923 -0.01795195 0.0043717101 4282209898
0.019547502 -0.020681486 0.0066838786 4280898944
0.021983203 -0.021974415 0.0076181367 4280505734
0.024429567 -0.023266524 0.0085501932 4280374153
0.027316451 -0.025991946 0.010851016 4280374154
0.030224634 -0.028715707 0.013147248 4280374153
0.033814956 -0.033588082 0.017492024 4280505479
0.037665509 -0.039174236 0.022512516 4280898943
0.013762129 -0.016878828 0.00088006631 4280506243
0.016573476 -0.019618884 0.0031905286 4280636803
0.019406157 -0.022357315 0.0054964274 4280374409
0.022050757 -0.024374418 0.0071127079 4280373899
0.024711333 -0.026390225 0.0087255593 4280570504
0.028032148 -0.030562773 0.012386808 4280308874
0.031167537 -0.034013867 0.015357902 4280898689
0.034769714 -0.038900793 0.019688765 4282209899
0.0090452265 -0.016648188 -0.0014846101 4282275943
0.011032069 -0.016508728 -0.0019175485 4280243594
0.01382383 -0.019259058 0.00039059296 4279391383
0.016433051 -0.021285504 0.0020095631 4280178059
0.019264834 -0.024032816 0.0043092184 4280308618
0.022327175 -0.027500398 0.0072878338 4280308363
0.025416175 -0.030965969 0.010260751 4280570504
0.028960954 -0.035872653 0.01459269 4280832389
0.032325797 -0.0400552 0.018234788 4282078318
0.0091022924 -0.019024 -0.001969602 4280833154
0.011488395 -0.020334132 -0.001034569 4280177549
0.013885193 -0.021643437 -0.0001017414 4278867103
0.016496358 -0.023676321 0.001511924 4280046989
0.019329911 -0.026432291 0.0038047619 4280243338
0.022811919 -0.031359076 0.0081389025 4280767364
0.026331242 -0.036283076 0.012464968 4282010744
0.0042243898 -0.018044844 -0.0050113983 4281160828
0.0065885857 -0.019361176 -0.0040749945 4280832899
0.0087679718 -0.019949391 -0.0038240738 4279981454
0.011349073 -0.021991231 -0.0022088625 4279719313
0.013946198 -0.024031885 -0.00059702992 4279195289
0.016966367 -0.027524717 0.0023744814 4279915918
0.020219389 -0.031742059 0.0060212351 4281028993
0.023504408 -0.035957024 0.0096611101 4282796398
-0.00060858577 -0.01704409 -0.0080494871 4280902514
0.0019210316 -0.019096695 -0.0064282194 4280964988
0.0040866695 -0.019688293 -0.0061761327 4280570504
0.0062576793 -0.020279393 -0.0059251375 4280373898
0.008629391 -0.021599516 -0.0049934648 4279850383
0.01120978 -0.023648009 -0.0033829361 4279915918
0.014207521 -0.027153559 -0.00041468441 4279522709
0.017231941 -0.03065709 0.0025478564 4280243594
0.020489033 -0.034887411 0.0061840974 4280832388
-0.0053965934 -0.016021743 -0.011083889 4280377724
-0.00289445 -0.01808314 -0.0094616516 4280309638
-0.00037626177 -0.020143248 -0.0078428639 4280243594
0.0019708276 -0.021469876 -0.0069093257 4280308363
0.0043286085 -0.022795595 -0.0059780627 4280439178
0.0065046232 -0.023388579 -0.0057297163 4280177549
0.008881133 -0.024712726 -0.00480235 4280439433
0.011466149 -0.026767559 -0.0031976327 4280766598
0.014468141 -0.030283794 -0.00023834035 4281682304
-0.0053531937 -0.018381834 -0.011553704 4280312188
-0.0032123514 -0.018979989 -0.011299673 4279391383
-0.00069754198 -0.021046922 -0.0096849678 4280112014
0.0016463548 -0.022378206 -0.0087539665 4280243084
0.0043802224 -0.025177181 -0.0064657256 4280242828
0.006943142 -0.027240381 -0.0048612468 4280308363
0.0097170528 -0.0300363 -0.0025815591 4280439433
0.012314688 -0.032096848 -0.00098441169 4282729844
-0.0099271685 -0.018068932 -0.013896707 4280507264
-0.0076240078 -0.019407898 -0.012960426 4280309384
-0.0054889135 -0.02000875 -0.012706897 4280112268
-0.0033484064 -0.020609148 -0.012454416 4279063454
-0.0010184199 -0.021945864 -0.011523716 4279587734
0.0016958453 -0.024755165 -0.0092377514 4280373643
0.0044314787 -0.027562834 -0.0069563501 4280635784
0.0071884729 -0.03036885 -0.0046794936 4281552508
-0.012865718 -0.016124472 -0.018022481 4280244869
-0.010235276 -0.018949009 -0.015725173 4280112778
-0.0077593587 -0.021032304 -0.014111883 4280046733
-0.0059817918 -0.020156443 -0.015217729 4279980944
-0.0036657043 -0.021498688 -0.014287322 4279784338
-0.00097103789 -0.024318263 -0.012003604 4279128989
0.0021182038 -0.028614104 -0.0083700754 4280045968
0.0050501861 -0.032168783 -0.005420059 4280701063
-0.012999434 -0.017733008 -0.019162782 4280244359
-0.010196783 -0.021308519 -0.016193163 4280046988
-0.007718917 -0.023398243 -0.014585182 4279850129
-0.0059386566 -0.022520006 -0.015690006 4279981199
-0.0036204197 -0.023866527 -0.014763243 4280177038
-0.00092399493 -0.026694767 -0.012486398 4280831879
0.0025394596 -0.032485932 -0.0075116092 4282860403
-0.017336845 -0.018120766 -0.020814165 4279785103
-0.015405264 -0.017986618 -0.021236107 4279719059
-0.012962881 -0.020085715 -0.019625343 4279259803
-0.010331538 -0.022927843 -0.017341062 4279850130
-0.0078543834 -0.025024228 -0.015737765 4279915408
-0.005717624 -0.025631629 -0.015489392 4280308108
-0.0032136999 -0.027725883 -0.01389173 4281552508
-0.020854205 -0.022234388 -0.019072033 4280509304
-0.019239102 -0.020605482 -0.020851277 4279981964
-0.017469816 -0.01972425 -0.02195096 4279718548
-0.015371006 -0.020336971 -0.021696337 4280045969
-0.012926664 -0.022442549 -0.020090844 4279784083
-0.010120824 -0.026039824 -0.017138004 4279128989
-0.0074636601 -0.028888807 -0.014865696 4279718548
-0.0049631558 -0.030990094 -0.013272185 4280831878
-0.0028080419 -0.03159824 -0.01302937 4281418378
-0.020509753 -0.026092984 -0.018183202 4282209644
-0.019048303 -0.023709737 -0.020637129 4280045969
-0.017438222 -0.022076674 -0.022411983 4279391129
-0.015337061 -0.022691466 -0.022159439 4279719058
-0.012720909 -0.025552332 -0.01988484 4279784338
-0.0095657408 -0.030657724 -0.015593316 4280308365
-0.0068988129 -0.033514857 -0.013329593 4281878909
-0.018696528 -0.027574152 -0.019754529 4281290878
-0.017078228 -0.025936171 -0.021527927 4279980178
-0.014802407 -0.027303867 -0.020605296 4279718548
-0.012176473 -0.030172877 -0.018339228 4280373643
-0.0090120919 -0.035293013 -0.014060968 4280897158
-0.0061603896 -0.038908973 -0.011134134 4282597499
-0.016390949 -0.031315908 -0.019308187 4282733159
-0.014269169 -0.03193365 -0.019063424 4281684088
-0.011633474 -0.034810804 -0.016805921 4282600814
0.0064445212 -0.04150559 -0.021497758 4282797419
0.010660494 -0.044389218 -0.022205977 4281683834
-0.015843049 -0.042606883 -0.030248089 4282863463
-0.015811905 -0.044995636 -0.030735569 4282404718
-0.01419669 -0.043313697 -0.032476053 4282863974
-0.01660613 -0.043510661 -0.034506917 4282404719
-0.0004344061 0.014621168 0.022666449 4285098539
0.00062167272 0.018168095 0.018637041 4285820443
0.0025948845 0.018306125 0.018206729 4285820698
0.0047595762 0.017763022 0.018494522 4285624349
0.0073178522 0.015858278 0.02021621 4285297438
-0.002558995 0.012828238 0.021927321 4285230373
-0.0018552877 0.01775511 0.016466392 4285623838
-0.00025939569 0.019260351 0.014601881 4285623839
0.0018916018 0.018713944 0.014891019 4285689373
0.0044304542 0.016801126 0.016611954 4285820954
0.0069853775 0.014889494 0.018329503 4285427743
-0.0050386414 0.012408942 0.019752769 4284901933
-0.0035989843 0.014606491 0.01716884 4285559323
-0.0021752603 0.016802996 0.014588507 4285689883
-0.00058178604 0.018312458 0.012727743 4285558558
0.0015662201 0.017763652 0.013015861 4285623839
0.0041017346 0.015843935 0.014732724 4285624093
0.0066533163 0.013925441 0.016446149 4285690139
0.0086317584 0.014064118 0.016014898 4285494044
0.010610227 0.014202908 0.015583722 4285362718
-0.0099982135 0.01392974 0.015861304 4285295398
-0.0082059093 0.01475583 0.0147151 4285492513
-0.0057087876 0.012826316 0.016435059 4285559069
-0.0040965043 0.014341272 0.014573323 4285624604
-0.0028605461 0.017232552 0.011283783 4285887764
-0.0010892935 0.018057574 0.010142474 4285821974
0.0010530651 0.017506152 0.010430193 4285821718
0.0037734248 0.014891475 0.012856835 4285821973
0.0065151826 0.012278385 0.015278878 4285558813
0.0084935054 0.012417063 0.01484766 4285493789
0.0094774682 0.015992567 0.010858571 4285493533
0.011039387 0.01750483 0.0090083536 4285361953
0.01299908 0.017642498 0.008581413 4285495573
-0.013286818 0.016996473 0.010114873 4285623584
-0.011510555 0.017823528 0.0089737009 4285885979
-0.0092155524 0.016576611 0.0099794846 4285886488
-0.0062004253 0.012566239 0.013841717 4285690139
-0.0042332374 0.012703508 0.013412466 4285558814
-0.0029966645 0.015603632 0.010129234 4285493023
-0.0014106967 0.017121408 0.0082765631 4285558814
0.00054067373 0.017257873 0.0078509897 4285558558
0.0032548271 0.014633909 0.010272505 4285558814
0.0059903804 0.012011558 0.012689451 4285493023
0.007571198 0.01352933 0.010838242 4285559324
0.0081479009 0.018494338 0.0054393187 4285689884
0.0096940622 0.020009886 0.0035958141 4285820954
0.012045676 0.018768042 0.0045900717 4285493278
0.015028069 0.015460022 0.0077068973 4284969253
-0.015843417 0.0088557974 0.01626006 4284967214
-0.015203279 0.014545105 0.010105966 4285427488
-0.014436573 0.019537672 0.0046761185 4285624093
-0.012332644 0.018978518 0.0049685352 4285689373
-0.010048795 0.017726347 0.0059735589 4285821463
-0.0068684481 0.013008639 0.010541731 4285755928
-0.0047295652 0.012452237 0.010826746 4285624604
-0.0031327344 0.013975017 0.0089748893 4285493533
-0.0013613626 0.014804453 0.0078367703 4285493533
0.00078038126 0.01424855 0.0081213843 4285559069
0.0031180046 0.013000786 0.0091150757 4285558813
0.0054663569 0.011753842 0.010106554 4285559068
0.0066504106 0.014659643 0.0068416111 4285690138
0.007416131 0.018947635 0.0021645464 4285755674
0.0087533481 0.02115868 -0.00038193911 4285755164
0.011501472 0.018528778 0.0020260978 4285886489
0.014890494 0.013826832 0.0065496154 4285821464
0.017689342 0.011200696 0.0089467522 4285493533
-0.017452281 0.013482235 0.008666452 4285427743
-0.016169641 0.01640261 0.0053856224 4285822739
-0.014739271 0.018625509 0.0028228089 4285558559
-0.012809943 0.018759791 0.0024015717 4285492768
-0.010357644 0.016807139 0.004116673 4285558558
-0.0077122785 0.014160156 0.006539885 4285755928
-0.0052251145 0.012210086 0.0082475711 4285558813
-0.0030864738 0.011651546 0.0085310936 4285559069
-0.0011274032 0.01178842 0.0081037432 4285559324
0.00083173066 0.011925429 0.0076764654 4285624860
0.0024102889 0.013451651 0.0058320463 4285559068
0.0041711852 0.014282897 0.0046979971 4285558558
0.0057311468 0.015808031 0.0028577894 4285821719
0.0068838112 0.018720578 -0.00039377436 4285689884
0.0086181052 0.019550245 -0.0015217438 4285492258
0.011161705 0.01760507 0.00017432682 4285558559
0.014340293 0.013580821 0.0039823279 4285558558
0.017132927 0.010945424 0.0063743647 4285624604
0.019100249 0.011083938 0.005945988 4285362463
-0.018730883 0.016751602 0.0025271215 4285362208
-0.017300203 0.018981066 -3.1052157e-05 4285756438
-0.015379112 0.019114655 -0.00045057945 4285953554
-0.013286475 0.018550262 -0.00015894882 4285821974
-0.010840185 0.016590506 0.0015526488 4285822484
-0.0082010217 0.013934247 0.0039707478 4285624859
-0.005719889 0.011977173 0.0056748595 4285558814
-0.003769014 0.012113363 0.0052492097 4285558814
-0.0020028614 0.012946829 0.00411544 4285558814
-0.00024198741 0.013780013 0.0029828958 4285558558
0.0015135966 0.014612958 0.0018515885 4285558558
0.0034566745 0.01474902 0.0014279485 4285558559
0.0048133992 0.016974486 -0.0011132434 4285624348
0.0063522775 0.018502668 -0.0029455461 4285821973
0.0080812909 0.019334152 -0.0040707607 4285821973
0.010822317 0.016686134 -0.0016741361 4285821974
0.01379085 0.013344012 0.0014214851 4285756183
0.016786085 0.010003828 0.0045114104 4285624604
0.019173559 0.0087515712 0.0054883976 4285559069
0.021785848 0.0068050474 0.0071649812 4285231138
-0.019190617 0.016548 -3.3585355e-05 4285100578
-0.01759892 0.018082999 -0.0018751249 4285427999
-0.015680615 0.018216379 -0.0022940561 4285493534
-0.013590954 0.017649569 -0.0020033997 4285493535
-0.010974094 0.014982805 0.00041302107 4285493278
-0.008335799 0.012317643 0.0028248411 4285493278
-0.0062138699 0.011753395 0.0031086914 4285559069
-0.004814256 0.013987929 0.00056258589 4285624603
-0.0036151856 0.016920805 -0.0026865304 4285886999
-0.0018756203 0.017754752 -0.0038128607 4285886999
0.00042848662 0.016491339 -0.0028215181 4285821719
0.002935905 0.014529996 -0.0011276044 4285624348
0.0044830032 0.016063057 -0.0029585548 4285558558
0.0060194544 0.01759547 -0.0047871135 4285558814
0.0079464689 0.017730735 -0.0052070133 4285624604
0.010483339 0.015771881 -0.0035192091 4285624604
0.01344814 0.012418464 -0.00043084286 4285559069
0.016648257 0.0083692968 0.0033532158 4285427999
0.019457798 0.0057175756 0.0057286881 4285493278
0.022716612 0.0016727597 0.0095001291 4285559323
-0.01773148 0.016486771 -0.0030067246 4285362718
-0.01581331 0.016620114 -0.0034256503 4285362463
-0.013552882 0.015348524 -0.0024285987 4285428253
-0.011281703 0.014077738 -0.0014337823 4285428508
-0.0088233612 0.012105688 0.00026551634 4285493788
-0.0068861581 0.012240797 -0.00015723705 4285559068
-0.0056758635 0.015183158 -0.0034024343 4285624603
-0.0048556961 0.019527439 -0.0080530755 4285689629
-0.0029449947 0.019661017 -0.0084698172 4285755419
-0.00027523562 0.016989753 -0.0060709324 4285887253
0.0028007589 0.012918018 -0.002270028 4285755929
0.0043480918 0.014455497 -0.0040978119 4285558813
0.0058847889 0.015992343 -0.0059231967 4285493534
0.0082125217 0.014726624 -0.0049399659 4285493789
0.011160236 0.011360869 -0.0018560197 4285493789
0.01434041 0.0072969794 0.0019225627 4285427998
0.017761048 0.0025354996 0.0063941088 4285362209
0.020796832 -0.00082375109 0.0094591063 4285360678
0.023859287 -0.0041809976 0.012518378 4285228843
0.026515536 -0.0061375424 0.014175804 4284900914
-0.01351513 0.013043292 -0.0028566997 4284903974
-0.011762455 0.013882004 -0.0039830767 4285362974
-0.0096625686 0.013311632 -0.0036976971 4285428509
-0.0079150759 0.014150202 -0.004822785 4285624859
-0.0067175217 0.017100543 -0.0080587929 4285624348
-0.0055412427 0.020049457 -0.011290045 4285492514
-0.0034517832 0.019478813 -0.011002135 4285492514
-0.00078823045 0.01679828 -0.0086083561 4285558303
0.0022811741 0.012712844 -0.0048156958 4285690139
0.0044081137 0.012145154 -0.0045357235 4285558813
0.0063428544 0.012280844 -0.0049573891 4285493788
0.0088783391 0.010308512 -0.0032789949 4285493789
0.012241477 0.0055273473 0.0011935681 4285494044
0.015641991 0.00074888766 0.0056581143 4285559578
0.018663365 -0.0026225001 0.008718105 4285559323
0.02171142 -0.0059919059 0.011772366 4285163563
0.024145393 -0.0072540045 0.012729639 4284966448
-0.013989821 0.012854919 -0.0054022446 4285038104
-0.012415793 0.014402211 -0.0072300397 4285100578
-0.010676328 0.015242293 -0.0083518587 4285428253
-0.0091208071 0.016788512 -0.010175452 4285559579
-0.0073945262 0.017627873 -0.011294179 4285953554
-0.0060416088 0.019879095 -0.013815505 4285755929
-0.0039578006 0.019305855 -0.013527974 4285690139
-0.0013004616 0.016616046 -0.011139302 4285690393
0.0017623641 0.012516849 -0.007354863 4285756183
0.0044677891 0.0098306686 -0.0049765613 4285559069
0.0069972277 0.0078511834 -0.0033017751 4285427998
0.010142846 0.0037581623 0.00046481378 4285427489
0.013320506 -0.00033253431 0.00422455 4285361444
0.01653019 -0.0044208169 0.0079773553 4285360934
0.019355781 -0.007098034 0.010329934 4285295144
0.021991972 -0.0090694129 0.011981839 4284966448
0.024217388 -0.0096316263 0.01223938 4284900913
-0.0097887218 0.017327853 -0.013404578 4285165858
-0.0082515813 0.018877305 -0.015220862 4285493534
-0.0065411888 0.019717846 -0.016334442 4285690393
-0.0042765103 0.018433928 -0.01534755 4285625114
-0.001433529 0.015027165 -0.012265397 4285690649
0.0018199123 0.01020693 -0.0077917995 4285559068
0.0047216639 0.006804496 -0.0047223009 4285427998
0.0080445278 0.0019894093 -0.00026370771 4285493534
0.011005033 -0.0014086738 0.0027931537 4285558813
0.013992252 -0.0048048049 0.0058443304 4285294888
0.016800929 -0.0074920952 0.0081940144 4285229098
0.01921523 -0.0087646693 0.0091489982 4285163564
0.021640187 -0.010036319 0.010101711 4285097518
-0.0083830953 0.017302085 -0.016337385 4285296929
-0.0066726506 0.018144824 -0.017449366 4285362463
-0.0042221434 0.016146161 -0.015767429 4285493534
-0.0011885427 0.012018323 -0.011996068 4285493278
0.0024521463 0.0057630837 -0.0061405934 4285427999
0.0055578463 0.0016405731 -0.0023848377 4285427488
0.0088926032 -0.0031891391 0.0020598676 4285426979
0.011865394 -0.0065974295 0.0051060375 4285360679
0.014662512 -0.0092944652 0.0074517038 4285294633
0.016865946 -0.0098629892 0.0077105593 4285163054
0.019490069 -0.011848569 0.0093553234 4285097518
-0.0034234934 0.011004157 -0.013403822 4285100579
-0.00018897653 0.0061516166 -0.0089487555 4285296929
0.0036573857 -0.00083462149 -0.0024154652 4285427488
0.0063921995 -0.0035452545 -6.2886626e-05 4285228843
0.0093452036 -0.0069660395 0.0029793959 4285163054
0.011925928 -0.0089616776 0.0046285708 4285228844
0.014724832 -0.011667453 0.0069674421 4285229098
0.016930595 -0.012237981 0.0072241314 4285097519
0.00080838427 0.00025859475 -0.0059200916 4285033768
0.0042861551 -0.0053199977 -0.00079370476 4285294889
0.0070307553 -0.0080387592 0.0015503 4285163053
0.012384728 -0.012757622 0.005532423 4285097519
0.014786802 -0.014044523 0.0064802151 4285294379
0.016994899 -0.014617071 0.0067347977 4285097519
0.0049134642 -0.0098228008 0.00081570074 4285032239
0.0098542236 -0.013126373 0.0034085363 4285097518
0.012245081 -0.014418542 0.0043554213 4285163309
0.014444847 -0.014994055 0.0046101417 4285163564
0.0051574446 -0.012905434 0.001031274 4285031983
