# .PCD v0.7 - Point Cloud Data file format
VERSION 0.7
FIELDS x y z rgba
SIZE 4 4 4 4
TYPE F F F U
COUNT 1 1 1 1
WIDTH 973
HEIGHT 1
VIEWPOINT 0 0 0 1 0 0 0
POINTS 973
DATA ascii
-0.042064793 0.0086754188 0.035762571 4281760334
-0.041012265 0.015193783 0.028894683 4281175618
-0.039479092 0.0181638 0.025617635 4280525624
-0.037750319 0.019714717 0.023776291 4280785213
-0.035920963 0.020556375 0.022652162 4281241408
-0.033869311 0.019980747 0.022958165 4280460089
-0.031579405 0.017989032 0.024690771 4279483184
-0.029273234 0.015998468 0.026420066 4281046589
-0.027437694 0.01684086 0.025294947 4281111614
-0.025731653 0.01839079 0.023458755 4281177149
-0.024036102 0.019940022 0.021624869 4281111104
-0.02196189 0.019366503 0.021926468 4281175873
-0.019882172 0.018793456 0.022226973 4281241664
-0.017796926 0.018220887 0.022526396 4281176893
-0.016394824 0.021182906 0.019277817 4280787254
-0.014452338 0.021316994 0.018869052 4280461364
-0.012366608 0.02074473 0.019168576 4280786744
-0.0096923932 0.01734782 0.022297842 4281047609
-0.0069913045 0.013952851 0.025421524 4281438523
-0.0047166385 0.012677595 0.026419887 4281899308
-0.042800196 0.011322804 0.030264581 4281434698
-0.041350812 0.015014127 0.026274944 4281241663
-0.039822355 0.017992415 0.023005532 4280982074
-0.038098656 0.019547336 0.021168509 4279611958
-0.036385395 0.021101568 0.019333785 4279938104
-0.034342058 0.020523194 0.019639792 4280003128
-0.03194461 0.017813787 0.022081507 4280850238
-0.0295256 0.015105963 0.024518752 4281045824
-0.02781418 0.016660474 0.022684643 4281046844
-0.026237428 0.018924229 0.020142278 4280655929
-0.024676509 0.021187034 0.017603269 4279678003
-0.022613272 0.02061056 0.017905494 4278636839
-0.020412318 0.019325122 0.018915547 4279743793
-0.018065631 0.017331384 0.020631669 4281307709
-0.016528048 0.019592911 0.018097905 4281242939
-0.014445454 0.019018129 0.018396335 4280916028
-0.012214459 0.017735191 0.019400312 4281046589
-0.0096814893 0.015036121 0.021814266 4281177659
-0.0075717308 0.014463514 0.022107201 4281768494
-0.042633437 0.0075727776 0.03121238 4281108043
-0.041175239 0.011275485 0.027229199 4281046079
-0.039743483 0.014976449 0.023251655 4281307453
-0.038338177 0.0186757 0.019279765 4281110849
-0.036516674 0.019521035 0.018160591 4280784193
-0.034586951 0.019653264 0.017753771 4280849729
-0.032193027 0.016934887 0.020189548 4280915008
-0.030014865 0.01564309 0.021200674 4280980799
-0.028189853 0.016489036 0.020081034 4280916029
-0.026618026 0.018758982 0.017544618 4280460599
-0.025062002 0.021027897 0.01501164 4280851769
-0.02313377 0.021160569 0.014605546 4280461619
-0.020809285 0.019158654 0.016321264 4278377248
-0.018468603 0.017157882 0.018033674 4281112378
-0.016386464 0.016580775 0.018330446 4281308729
-0.01443886 0.016715162 0.017920559 4281178168
-0.01220569 0.015427984 0.018920733 4281440054
-0.010107048 0.014852263 0.019214293 4283928343
-0.042068422 0.00094605237 0.035000294 4281631048
-0.040590763 0.0046608821 0.031021262 4281436484
-0.039244674 0.0090896338 0.026336567 4280849219
-0.037930392 0.013516255 0.021658698 4281175365
-0.036316432 0.015795134 0.01911802 4281109828
-0.034491986 0.016642891 0.017999912 4280979268
-0.032556824 0.016775541 0.017591985 4280849218
-0.030502982 0.016193628 0.017892526 4281111360
-0.028564744 0.016326673 0.017484086 4280525369
-0.026873983 0.017888427 0.015661022 4280916539
-0.025446713 0.020877834 0.012426667 4281697859
-0.023523949 0.021010082 0.012021687 4281307453
-0.021205448 0.019001156 0.013733707 4280851513
-0.018601753 0.015566304 0.016852537 4280918324
-0.016382739 0.014273576 0.017852193 4281308218
-0.014432594 0.014408097 0.01744174 4281439798
-0.012767322 0.015968755 0.015624557 4283925793
-0.042103641 -0.0014021248 0.034500979 4282086734
-0.040520221 0.0016058162 0.031239698 4281371458
-0.038957901 0.0046123937 0.027982922 4280980034
-0.037309058 0.0068999976 0.025439797 4280847433
-0.035675995 0.0091866553 0.022900021 4280848453
-0.034058735 0.011472329 0.020363661 4281175619
-0.032457262 0.013756961 0.017830731 4281175363
-0.030871607 0.016040646 0.015301166 4281241919
-0.029059805 0.016889945 0.014187578 4280916284
-0.027500458 0.019172013 0.011663698 4280199989
-0.025830619 0.020736728 0.0098484084 4280525368
-0.023913294 0.020868573 0.0094445497 4280591414
-0.021469176 0.01813674 0.011856847 4280070704
-0.019003518 0.015406512 0.014264623 4280917814
-0.016790316 0.014108986 0.015262216 4281308729
-0.015264645 0.016389295 0.012745865 4281833774
-0.0420397 -0.0044747144 0.034707762 4281629009
-0.040450335 -0.0014577582 0.031451873 4281566278
-0.038672499 0.00011796504 0.029616492 4280978759
-0.036905095 0.0016930401 0.027783433 4281174599
-0.035258263 0.0039871037 0.025245698 4281174598
-0.033627242 0.0062801912 0.022711376 4281240134
-0.032127455 0.0092915148 0.019474691 4281763394
-0.030648813 0.012301438 0.016242573 4281240643
-0.029191338 0.015310049 0.013014942 4281372223
-0.027631558 0.017598614 0.010495918 4281047609
-0.026087612 0.019886184 0.0079803001 4280786489
-0.024173081 0.020017821 0.0075770188 4280719934
-0.021995418 0.018713266 0.0085785929 4280915518
-0.019538619 0.015973672 0.010981627 4281571124
-0.017333932 0.014671214 0.011977617 4283731739
-0.042075649 -0.0068332851 0.034200773 4281694034
-0.040483013 -0.0038074479 0.030950742 4281108554
-0.038597658 -0.0029493943 0.029824482 4281108808
-0.036824681 -0.001369603 0.027993487 4280978503
-0.035062142 0.00020954013 0.026164809 4281174599
-0.033422679 0.0025096759 0.023633653 4281239623
-0.031799011 0.0048088282 0.021105906 4281567044
-0.030427039 0.0085494369 0.017174387 4281043018
-0.028960943 0.011567287 0.013951555 4281045059
-0.027516007 0.014583737 0.010733293 4281110338
-0.025840342 0.016157523 0.0089233145 4281110083
-0.024175167 0.017730638 0.0071156695 4281111104
-0.022257924 0.017862506 0.0067118518 4281112379
-0.020072579 0.016554259 0.0077085048 4283729444
0.025845073 -0.0014117211 0.019182289 4284576808
0.028811172 -0.0048517808 0.022201771 4283007793
-0.041418292 -0.014268771 0.03863205 4281954389
-0.040108964 -0.0090592578 0.033267975 4281434189
-0.038523473 -0.0060251579 0.03002614 4281106769
-0.036852024 -0.0037165433 0.027493039 4280978759
-0.034976795 -0.0028568655 0.026370691 4281370948
-0.033219144 -0.0012736768 0.02454639 4281435208
-0.031471945 0.00030893087 0.02272434 4281369673
-0.029970758 0.0033377558 0.019500645 4281239368
-0.028370276 0.0056419447 0.016982922 4281109574
-0.026908726 0.0086682215 0.013767727 4281108809
-0.025342561 0.010970294 0.011257345 4281109574
-0.023920678 0.013994068 0.0080506615 4281568828
-0.022257768 0.015571438 0.0062468648 4283205929
0.022477264 0.0091645494 0.0062925462 4283140649
0.024241421 0.010019831 0.0051959902 4280526388
0.027171725 0.0065664724 0.0082148034 4280849728
0.03250375 -0.0054991618 0.01944953 4280653888
-0.038137212 -0.011288926 0.032331027 4281105494
-0.036772713 -0.0067939237 0.027692186 4281109064
-0.035001695 -0.0052055717 0.025868254 4281175618
-0.033241116 -0.0036178678 0.024046639 4281369928
-0.031491019 -0.00203076 0.022227259 4281369929
-0.02986896 0.00028130412 0.019709872 4281369673
-0.028142482 0.0018669963 0.017895622 4281174344
-0.026426472 0.0034520179 0.016083699 4281435974
-0.024972118 0.0064865798 0.012876717 4281305668
-0.023538962 0.0095197782 0.009674279 4281370948
-0.021996066 0.01182688 0.0071739387 4284051253
0.018700972 0.013915382 -0.00065512583 4283272739
0.020254068 0.015491836 -0.0024308059 4281700665
0.021411732 0.018508464 -0.0055733994 4281959234
0.024303544 0.015041552 -0.0025548097 4281437248
0.02840846 0.0072564036 0.0045592301 4280266033
0.033975001 -0.0055635348 0.016441656 4279615019
-0.034698673 -0.0097433627 0.027464053 4281432403
-0.033039264 -0.007422477 0.02494357 4281630793
-0.031280912 -0.0058304965 0.023125747 4281435719
-0.029533036 -0.0042391643 0.021310249 4281434954
-0.027915694 -0.0019208193 0.01879883 4281370184
-0.02606871 -0.0010583103 0.017686071 4281435974
-0.024603091 0.0019856542 0.014483321 4281633088
-0.023030572 0.0043012351 0.01198158 4281894209
-0.021473892 0.0066157654 0.0094832946 4284444464
0.013975725 0.014959298 -0.0037568659 4283663653
0.015713181 0.015816666 -0.004844727 4282093364
0.017445322 0.016673818 -0.005931424 4281245744
0.018982634 0.018253468 -0.0077004358 4281049394
0.020317059 0.020555105 -0.010150161 4281893953
0.022609832 0.019243605 -0.0091841854 4281763394
0.025900999 0.014321849 -0.0048110001 4281308219
0.030230679 0.0057925582 0.0029610824 4280722993
0.034421597 -0.0020102039 0.010039033 4281243448
0.039082427 -0.011252083 0.018465178 4281372988
0.043396257 -0.019045994 0.02551754 4281371458
0.047136143 -0.024671793 0.030520467 4281369928
0.050705176 -0.029573381 0.034836017 4281563984
0.054527815 -0.035193063 0.039821759 4282541654
-0.032726534 -0.011970177 0.02652918 4281825359
-0.03130094 -0.0081827044 0.022619357 4281500234
-0.029667355 -0.0058569014 0.020109436 4281238858
-0.027929723 -0.0042618364 0.01829941 4281173579
-0.026080012 -0.0033970103 0.017187709 4281566534
-0.024611123 -0.00034415722 0.013990885 4281698113
-0.023035519 0.0019781142 0.011493448 4281829439
-0.021214619 0.0028412715 0.010388056 4284378418
0.013298269 0.015565529 -0.0069726259 4282158389
0.015027765 0.016424507 -0.0080571547 4281373499
0.016191944 0.019458741 -0.011188019 4281113144
0.017334774 0.022491589 -0.014314314 4279809838
0.019224282 0.022623885 -0.014710503 4280395828
0.021503184 0.021307066 -0.013744939 4280330803
0.024779547 0.016369082 -0.0093802549 4279940398
0.028293364 0.010709561 -0.0043436 4280656439
0.031444527 0.0065012649 -0.00067412574 4281437248
0.034627758 0.0022952929 0.002988765 4281110593
0.037634984 -0.0011846274 0.0059669614 4281175619
0.040668905 -0.0046625286 0.0089396685 4281305923
0.045009859 -0.012478165 0.015968297 4280981053
0.050273821 -0.02318193 0.025690118 4280523839
0.055836644 -0.034602903 0.036071047 4280719168
-0.031206869 -0.011271358 0.022806002 4281694543
-0.029684581 -0.0082065016 0.019604305 4281041744
-0.027944051 -0.006606929 0.017796958 4281172814
-0.026091598 -0.0057397708 0.016686315 4281369928
-0.02461946 -0.0026780516 0.013495414 4281370184
-0.022913046 -0.0010805428 0.011695553 4282025279
-0.021086775 -0.00021487474 0.010590652 4284640559
0.0088114478 0.01591929 -0.0093786605 4284383773
0.010716688 0.016052134 -0.0097785797 4281765178
0.012078572 0.018368274 -0.012224449 4281437504
0.013792071 0.019228309 -0.013303969 4281436228
0.015500262 0.020088121 -0.014382334 4281306944
0.017013989 0.021674789 -0.016139766 4281176893
0.019092515 0.021079931 -0.01585561 4281242174
0.021370906 0.019758731 -0.014893258 4280916539
0.024251496 0.016258627 -0.011897158 4280916284
0.027358644 0.012034103 -0.0082285013 4281242429
0.030092834 0.0092643648 -0.0059215063 4281372734
0.032232825 0.0086743906 -0.0056497948 4281242683
0.033546716 0.010988243 -0.008084707 4281373243
0.03547613 0.011124119 -0.0084886625 4279809073
0.039324328 0.0047309101 -0.0028149867 4280394299
0.044947602 -0.0074611157 0.0082465839 4280068664
0.051098779 -0.021096781 0.020637574 4280198714
0.056024116 -0.030375756 0.028965762 4279351348
0.060123295 -0.036750831 0.034587324 4280002874
0.063590795 -0.040948763 0.038181469 4282411349
-0.026103519 -0.0080866069 0.016181894 4281040979
-0.024503231 -0.0057498217 0.013689132 4281173069
-0.022918783 -0.0034139901 0.011199735 4282024769
-0.021219984 -0.0018125772 0.009404853 4284706094
0.0083281957 0.015823193 -0.011896467 4283008814
0.0098714009 0.017415814 -0.013657108 4280527408
0.011223018 0.019737743 -0.016095856 4280916538
0.015554909 0.017812751 -0.014849586 4280980544
0.017449472 0.017945282 -0.015246931 4281176128
0.019344054 0.018077932 -0.015644187 4281241919
0.02162727 0.016752765 -0.014686216 4281046333
0.024118172 0.014699675 -0.013053324 4281176639
0.026625097 0.012647837 -0.011423759 4281306943
0.028743409 0.012053996 -0.011149216 4281438013
0.030457035 0.012917161 -0.012226455 4281242428
0.031334624 0.016692132 -0.016001599 4281372478
0.033237174 0.016826123 -0.016399929 4281764668
0.035991762 0.014049619 -0.01410348 4281437248
0.040493183 0.0054549575 -0.0064265514 4280524093
0.045495402 -0.0045895725 0.0025821608 4280002363
0.050793402 -0.015355796 0.012247279 4280848963
0.056618918 -0.027570069 0.023238631 4281174853
0.062082432 -0.038324364 0.032869324 4281369673
-0.024637029 -0.0073580742 0.012495419 4280777819
-0.022924833 -0.0057514906 0.010700896 4281827909
-0.021223128 -0.0041455775 0.0089086983 4283397433
0.0061242543 0.014871493 -0.013329392 4281897524
0.0076702982 0.01646857 -0.015087452 4281635128
0.0090276338 0.018797241 -0.017522475 4281763139
0.010549743 0.02039288 -0.019275341 4281045824
0.013161819 0.017596446 -0.016956611 4279416374
0.015795309 0.014801621 -0.014642289 4280915518
0.018072642 0.013471439 -0.013686519 4280980289
0.020169228 0.012873501 -0.013409473 4281241919
0.022271167 0.012276046 -0.013133463 4281176384
0.023984874 0.013140991 -0.014209282 4281176638
0.025892703 0.013274908 -0.014609054 4281242174
0.027800523 0.013408944 -0.015008738 4281241918
0.029298697 0.01500392 -0.016755804 4280851768
0.030578699 0.017328411 -0.019173665 4279808308
0.032262929 0.018191904 -0.020242916 4281046079
0.03479312 0.01613573 -0.018622717 4281240899
0.038201291 0.011162192 -0.014319818 4281110338
0.042083163 0.0047325045 -0.0086828005 4280522563
0.046896432 -0.0046107322 -0.00037429668 4280522563
0.054014258 -0.021239802 0.01461795 4280849218
0.060802538 -0.036402307 0.028246103 4281044804
0.0035866015 0.01539503 -0.016118772 4282159154
0.0054752827 0.015526474 -0.016515397 4281440563
0.007188797 0.016392648 -0.017590215 4280590394
0.0085411929 0.018727526 -0.020019274 4281372224
0.010238774 0.019592836 -0.021090578 4281436228
0.01266405 0.017521553 -0.01945431 4281110594
0.015105385 0.015451536 -0.017821375 4280394044
0.017939974 0.011915274 -0.014840725 4280980543
0.019653697 0.012782216 -0.0159151 4281306689
0.021556033 0.012915522 -0.016313899 4281306689
0.023065159 0.014515214 -0.018060168 4281176128
0.02476288 0.015381329 -0.019130878 4281241409
0.026657201 0.015514426 -0.019527731 4281306688
0.028346876 0.016380236 -0.020596642 4281241153
0.029823907 0.017978132 -0.022335835 4280328763
0.03150019 0.018843196 -0.023401717 4279871548
0.033809006 0.017511956 -0.022455122 4280197949
0.03720504 0.012522392 -0.018161273 4280132668
0.040856414 0.0068039298 -0.013205853 4280849984
0.045874398 -0.0033001006 -0.004246762 4281371203
0.053423706 -0.021442652 0.012046888 4281371203
0.06042853 -0.037382439 0.026309846 4281436228
0.064806782 -0.044543102 0.032543413 4281501508
0.0020686984 0.011508904 -0.014831512 4282746928
0.0034560598 0.013852373 -0.017263206 4281242684
0.0048274733 0.016194798 -0.019691424 4280981309
0.0063579604 0.017799467 -0.021439593 4280198713
0.0078778155 0.019403435 -0.023185421 4279742264
0.0095674247 0.020270362 -0.024253385 4279872058
0.011983983 0.018191986 -0.02262032 4279676729
0.014416609 0.016114816 -0.020990489 4280589373
0.017053701 0.013302997 -0.018690096 4281176128
0.018756784 0.014171347 -0.019760592 4281241408
0.020648288 0.014303908 -0.02015711 4281305923
0.021754123 0.017377853 -0.023242192 4280849984
0.023834044 0.016774736 -0.022964714 4280002874
0.0259193 0.016172126 -0.022688245 4280719679
0.028009888 0.015570007 -0.022412812 4281110083
0.02969159 0.016437501 -0.023478258 4280979268
0.03136792 0.017304748 -0.024542484 4281044548
0.033676222 0.015969142 -0.023599098 4280783684
0.036855683 0.011698291 -0.019984789 4280783428
0.041373905 0.0030269325 -0.012370968 4280979524
0.046838067 -0.0085743964 -0.0021018824 4280979268
0.054395873 -0.026770547 0.014148582 4280979268
0.060054906 -0.038357854 0.024377095 4281632578
0.064199954 -0.044807434 0.029929576 4282153033
0.0026051849 0.0070017427 -0.01327375 4282419509
0.0038341284 0.010091856 -0.016378952 4281568574
0.0046973787 0.014658965 -0.020830771 4280849474
0.0060532279 0.017006956 -0.023250714 4280980289
0.0075706504 0.018615112 -0.024992699 4280719168
0.0092576221 0.019484036 -0.026058521 4281045058
0.011670824 0.017398894 -0.024429668 4280784194
0.014100078 0.015314959 -0.022804113 4280979778
0.016733609 0.012494266 -0.020509649 4281111104
0.018243179 0.014102444 -0.022249542 4281111358
0.019742075 0.015709989 -0.023987131 4281240898
0.020837817 0.018791951 -0.027063504 4279220788
0.022906723 0.018185899 -0.026785368 4281239114
0.025182547 0.016843215 -0.025838833 4279154744
0.027877547 0.014027491 -0.023556668 4279024949
0.029766209 0.01416041 -0.023952169 4281045313
0.031864438 0.013556875 -0.023679821 4280979778
0.034392517 0.011481054 -0.022074075 4280979013
0.038011257 0.005725503 -0.017138416 4280848964
0.04276073 -0.0037069619 -0.0088812243 4280913988
0.048240416 -0.015341841 0.0013580546 4281174854
0.054920275 -0.030648723 0.014904421 4281109573
0.059907287 -0.040064014 0.023112206 4281435718
0.063593909 -0.045062751 0.027322499 4281825614
-0.012259617 -0.0083811134 0.00074160658 4284638773
0.0029735714 0.0032192245 -0.012403836 4282158134
0.0043804646 0.0055770054 -0.014829663 4281634618
0.005427368 0.0094165504 -0.018600024 4281111613
0.0064476281 0.013254359 -0.02236471 4281045058
0.00761858 0.01634945 -0.025450844 4281109828
0.0093082823 0.017220698 -0.026515536 4280913988
0.01135806 0.016610444 -0.026235571 4280848708
0.01359858 0.015260249 -0.025285482 4280980033
0.015849818 0.01391089 -0.02433751 4281110848
0.01773034 0.014042556 -0.024731817 4281046079
0.019224118 0.015654124 -0.026465051 4280589118
0.020511176 0.018004693 -0.028864849 4281566789
0.022577085 0.017396286 -0.028587721 4281632834
0.02484972 0.016049027 -0.027643841 4280656439
0.027949281 0.011746131 -0.024033077 4280851768
0.030253952 0.010401338 -0.023095671 4281242683
0.032778684 0.0083186626 -0.021494281 4281111104
0.035743557 0.0047601163 -0.018565021 4280979268
0.039594095 -0.0017499402 -0.012981175 4281240134
0.044362333 -0.011209197 -0.0047494723 4281565768
0.049199969 -0.020663507 0.0034678169 4282216784
0.05522079 -0.033801809 0.014987428 4282216528
0.059534237 -0.041032195 0.021184755 4282411603
0.0031744055 0.00016779453 -0.012216842 4283270699
0.0045870394 0.002532497 -0.014638958 4281764413
0.0059837215 0.0048961714 -0.017057592 4281436484
0.0070154369 0.0087456554 -0.020816434 4281436738
0.0083748437 0.011106983 -0.023227058 4280913988
0.0097182579 0.013467342 -0.025634285 4281240134
0.011593215 0.013598256 -0.026027696 4281306434
0.013283037 0.014471926 -0.027090568 4280981054
0.015155379 0.014602892 -0.02748326 4281045823
0.016646713 0.016218461 -0.029212711 4280654399
0.018127363 0.017833427 -0.030939892 4279872058
0.01959734 0.019447736 -0.032664694 4281371203
0.021453708 0.019578055 -0.03305367 4281567299
0.02391367 0.017484017 -0.031443998 4281241408
0.027001295 0.013167232 -0.027840624 4280851513
0.030120939 0.0088528618 -0.02424391 4281308218
0.033481829 0.0037999377 -0.019989291 4281110594
0.037303861 -0.0027317554 -0.014414476 4281240133
0.041173931 -0.0092599541 -0.0088496264 4281762374
0.045309268 -0.016525015 -0.0026318422 4282348363
0.049937755 -0.025266498 0.0048993826 4282413643
0.055075426 -0.035483345 0.013740761 4282542673
0.059612088 -0.043475389 0.020583162 4282541909
0.0028756373 -0.00065373629 -0.014051709 4283139118
0.0046239458 0.00022549927 -0.015125792 4281632579
0.0061953478 0.0018501505 -0.016869379 4281567044
0.0077561252 0.0034741834 -0.018610643 4281632324
0.0093062632 0.0050976574 -0.020349614 4280979013
0.010666121 0.007465668 -0.022755317 4280847434
0.012009997 0.0098326281 -0.025157537 4280783174
0.013337873 0.012198642 -0.027556345 4281241663
0.014462087 0.015308261 -0.030619085 4280979779
0.015755299 0.01767204 -0.033010408 4281045059
0.017225493 0.019290611 -0.034732081 4280132413
0.019076373 0.01942043 -0.035119995 4279807288
0.020927254 0.019550368 -0.035507828 4279873078
0.023381183 0.017449372 -0.033901811 4280068664
0.026665874 0.012375668 -0.029643022 4280590903
0.030607034 0.0050747469 -0.023401529 4281046843
0.034601569 -0.0022222325 -0.01717115 4281176894
0.038649492 -0.0095153451 -0.010951867 4281174598
0.042322047 -0.015319109 -0.0060672117 4281696328
0.046254329 -0.021862276 -0.00053017959 4282348364
0.050674047 -0.029886618 0.0063182376 4282541909
0.0013166592 -0.0045973882 -0.012797674 4284574003
0.0030756257 -0.0037154108 -0.013872394 4282614074
0.0043229535 -0.00058938563 -0.016954998 4281369928
0.006063357 0.00029151887 -0.018025642 4281370183
0.0077984855 0.0011721924 -0.019095084 4281369928
0.0097051114 0.0013050586 -0.019495344 4281370184
0.011252843 0.0029328167 -0.021230411 4281435719
0.012789954 0.0045598969 -0.022963114 4281370949
0.013761979 0.0084273145 -0.026692476 4281240644
0.014707331 0.012292996 -0.030416142 4281305924
0.015816145 0.015410304 -0.033468947 4280848709
0.016710792 0.019272685 -0.037181795 4281175364
0.018360697 0.020148333 -0.038232647 4280979778
0.020203423 0.020277686 -0.038618773 4280980033
0.023251122 0.015932031 -0.035027031 4280654653
0.027144872 0.0086060315 -0.028792299 4280785469
0.031710535 -0.00095254928 -0.020583106 4280784449
0.036136754 -0.009760797 -0.013049669 4281436484
0.0399925 -0.01632911 -0.007511708 4282086989
0.043467917 -0.021404073 -0.0033040047 4282346579
0.047414377 -0.027965739 0.0022151656 4282476629
0.05162837 -0.035268404 0.0083834436 4282410838
0.0010207891 -0.0054180846 -0.01463267 4283590724
0.0026111826 -0.0037837029 -0.016373817 4282088774
0.0043595582 -0.0029001534 -0.017444624 4281370184
0.00610267 -0.0020168945 -0.018514188 4281435973
0.0080144405 -0.0018837824 -0.018915618 4281369928
0.0097496584 -0.0010008141 -0.019983323 4281370183
0.011300296 0.00063139945 -0.021715665 4281501764
0.013022229 0.001513727 -0.022780448 4281501764
0.014369626 0.0038940385 -0.025173392 4281370948
0.015513733 0.0070223808 -0.028227061 4281435973
0.016826458 0.0094005764 -0.030612577 4281109828
0.017545275 0.014023535 -0.034983702 4280914754
0.01920858 0.014902301 -0.036035694 4281175364
0.021064512 0.015032604 -0.03642457 4281045313
0.024324946 0.0099267513 -0.032183971 4280719424
0.028639335 0.0010843426 -0.024647133 4280718658
0.033635747 -0.0099963844 -0.015142947 4280717639
0.037460309 -0.016586512 -0.0096134432 4281629773
0.040698931 -0.020931259 -0.0060712509 4282216274
0.044397555 -0.026767813 -0.0012185164 4282411094
0.048572183 -0.034095049 0.0049413368 4282345559
0.052361496 -0.039924972 0.0097752828 4282410839
0.0043958463 -0.0052149966 -0.017937209 4280972894
0.0064838305 -0.0058339313 -0.017673938 4281106514
0.0082297064 -0.0049481988 -0.018742338 4281238858
0.009970285 -0.00406266 -0.019809568 4281369928
0.011526484 -0.0024257153 -0.021539768 4281436738
0.013072047 -0.00078939646 -0.023267632 4281567300
0.014422514 0.0015976951 -0.02565629 4281501763
0.016131204 0.0024814457 -0.026716419 4281371204
0.017455015 0.0048668981 -0.029099304 4281240644
0.018570378 0.0080021471 -0.032140128 4281044803
0.02005462 0.0096347705 -0.033854689 4281045059
0.022121547 0.0090155974 -0.033586055 4281241409
0.025597014 0.0031453744 -0.028700307 4281370693
0.03013083 -0.0064718798 -0.020527573 4281826634
0.03473404 -0.016084112 -0.012369334 4281891914
0.038364328 -0.021943077 -0.0075157285 4282347344
0.041826166 -0.027049452 -0.0033284575 4282477139
0.045752954 -0.03365162 0.0021649487 4282541909
0.0084442496 -0.008020997 -0.018575354 4281041744
0.010013975 -0.0063788965 -0.020305168 4281043784
0.011573054 -0.0047373772 -0.022032699 4281306434
0.012939926 -0.0023428202 -0.024419891 4281306433
0.014475048 -0.00070271641 -0.026142199 4281501763
0.015999522 0.00093668699 -0.027862163 4281436484
0.017892525 0.0010692403 -0.028259074 4281567044
0.019401006 0.002707839 -0.029975526 4281306434
0.021093756 0.0035929903 -0.03103039 4281306179
0.023571573 0.0014675632 -0.029449323 4281240133
0.027066749 -0.0044185668 -0.024580998 4281240898
0.031213466 -0.012558259 -0.01774881 4281632069
0.035418898 -0.020693652 -0.010928854 4282282573
0.038849927 -0.025817484 -0.0067468062 4282542674
0.042740203 -0.032441825 -0.0012607398 4282541908
0.046251252 -0.03755971 0.0029047076 4282541654
0.011976745 -0.0085652396 -0.021206649 4280844628
0.013352014 -0.0061635524 -0.023590678 4280781389
0.014895372 -0.0045186281 -0.025311394 4281370184
0.016054608 -0.0013632327 -0.028348371 4281370693
0.01776072 -0.00047521293 -0.029404556 4281435463
0.019461501 0.00041261315 -0.030459568 4281500999
0.02154645 -0.0002098158 -0.030198088 4281370184
0.024031559 -0.002341181 -0.028623555 4281500234
0.027533107 -0.008244209 -0.023769749 4281500744
0.031482868 -0.015652895 -0.017612942 4281957193
0.035691436 -0.023811921 -0.010811798 4282216528
0.03975061 -0.031212643 -0.0046777138 4282346068
0.043652389 -0.037855662 0.00079106074 4282476118
0.013763029 -0.0099971369 -0.02277093 4280579683
0.015498497 -0.0091051534 -0.023831811 4281303374
0.016668998 -0.0059403256 -0.026864542 4281369673
0.018196598 -0.0042918324 -0.028578464 4281500233
0.019905426 -0.003401354 -0.029633489 4281565769
0.021803487 -0.0032682195 -0.030031286 4281500233
0.024293231 -0.0054057986 -0.028462654 4281500489
0.027998371 -0.012082644 -0.022967979 4281565769
0.03215668 -0.020269096 -0.016174648 4281434189
0.036373712 -0.028451353 -0.0093934797 4282085459
0.040025715 -0.034360692 -0.0045841644 4282214998
0.018027388 -0.013573997 -0.022769138 4281433679
0.019198496 -0.010400362 -0.025795296 4281630283
0.020348266 -0.007228069 -0.028816869 4281631049
0.022059809 -0.0063350797 -0.029870691 4281631049
0.024554167 -0.0084788054 -0.028308034 4281499979
0.028462522 -0.015933797 -0.022175722 4281500234
0.033031397 -0.02566117 -0.014096357 4281890894
0.037054501 -0.033107832 -0.0079878727 4282346323
0.022130623 -0.016399212 -0.023436401 4282282574
0.022897962 -0.011694774 -0.027758028 4281956428
0.025404954 -0.013844095 -0.02620298 4281434953
0.029524168 -0.02208107 -0.019437883 4281434953
0.034106471 -0.031835631 -0.011382827 4281761353
0.037528973 -0.037020735 -0.0072454335 4282152014
0.026843913 -0.0215213 -0.022162039 4282086479
0.030583583 -0.028254151 -0.016719252 4281761864
0.034775294 -0.036509678 -0.0099874819 4281892169
0.037797656 -0.04018347 -0.0071614138 4282412879
-0.031227656 -0.013633892 0.022291923 4280636803
-0.029702112 -0.01056017 0.019096138 4279328398
-0.031248756 -0.016000502 0.021774812 4280308618
-0.029719941 -0.012917906 0.018584946 4278409123
-0.027973585 -0.011309341 0.016783012 4279196309
-0.031497784 -0.016893432 0.019872287 4279915154
-0.029971056 -0.013802335 0.01668947 4278604709
-0.027988821 -0.013666652 0.016271465 4278931873
-0.026371889 -0.01131583 0.013784971 4278997918
-0.024521776 -0.010442317 0.012679799 4279260824
-0.022931166 -0.0080931336 0.010199055 4279917704
-0.031746395 -0.017781697 0.017973231 4279521944
-0.030221753 -0.014682084 0.014797458 4278801314
-0.028361291 -0.013805941 0.013691578 4278735269
-0.026505984 -0.012929991 0.01258683 4279063199
-0.024780147 -0.011314012 0.010795966 4279129499
-0.023064807 -0.0096986294 0.0090074167 4279195034
-0.021230333 -0.0088237822 0.0079072993 4280243848
-0.031654201 -0.020895004 0.018141465 4279390364
-0.030239746 -0.017043293 0.014283663 4278866084
-0.028376572 -0.016164809 0.013178846 4278866084
-0.026518546 -0.01528658 0.012075199 4278538918
-0.024665691 -0.014408551 0.010972677 4278866594
-0.023071587 -0.012046166 0.0085011069 4278931874
-0.021104924 -0.011911154 0.0080866814 4278932129
-0.01940237 -0.010292083 0.0063042399 4279850130
-0.017575525 -0.0094154328 0.0052075852 4280571269
-0.031336077 -0.025507584 0.01967614 4279717783
-0.030142091 -0.020153821 0.014452651 4278341804
-0.028392173 -0.018527746 0.012663096 4278997153
-0.026895292 -0.015412539 0.0095065441 4279062944
-0.024923757 -0.015277438 0.0090909097 4278997409
-0.02320531 -0.013653234 0.0073082838 4279062944
-0.021238774 -0.013518266 0.0068938639 4278735268
-0.019404031 -0.012639046 0.0057970993 4279063199
-0.017709106 -0.011016071 0.0040196385 4278932383
-0.016024716 -0.0093937516 0.0022445265 4280374918
-0.014210887 -0.0085155964 0.001152385 4282012528
-0.029582024 -0.026262432 0.017351961 4282011509
-0.027934305 -0.0238837 0.01487869 4279259549
-0.026786819 -0.018517748 0.0096767526 4278998174
-0.024810091 -0.018382341 0.0092599913 4278998429
-0.023212522 -0.016006708 0.006797554 4279194524
-0.021114334 -0.01661808 0.007063916 4278997919
-0.019537777 -0.014243722 0.0046061072 4279063454
-0.017842636 -0.012616418 0.0028319042 4278997919
-0.016158015 -0.010989755 0.0010600556 4279259804
-0.014204361 -0.010855258 0.0006486671 4278735523
-0.012393028 -0.0099750012 -0.00044122245 4279980433
-0.010732014 -0.0083496198 -0.0022078399 4282142579
-0.027596451 -0.02851174 0.016396362 4282078829
-0.026437171 -0.023129836 0.011203507 4279785103
-0.024573497 -0.022244632 0.010103635 4279522199
-0.023093782 -0.019113079 0.0069640912 4279456409
-0.021248452 -0.018228948 0.0058682896 4279194524
-0.019671485 -0.015848085 0.0034153517 4279194524
-0.017841861 -0.014964767 0.002322983 4278866849
-0.016154334 -0.013333596 0.00055382121 4279063964
-0.014058553 -0.013946876 0.00081935991 4278473638
-0.01224184 -0.013064131 -0.00026996899 4278997408
-0.010720216 -0.010686442 -0.0027108518 4279653268
-0.0090668723 -0.0090571716 -0.0044724783 4280898943
-0.025726683 -0.030013263 0.014756912 4282471784
-0.023844294 -0.029124677 0.013654759 4280374664
-0.022597477 -0.024481073 0.0091604497 4280046224
-0.021125004 -0.021341264 0.006029129 4279653268
-0.019805148 -0.017452143 0.0022248123 4279063454
-0.017841376 -0.017317198 0.0018111058 4278866849
-0.016014233 -0.016431771 0.00072100107 4278997919
-0.01405286 -0.016296774 0.0003079595 4278408103
-0.012375519 -0.014661759 -0.0014555892 4278801059
-0.010708734 -0.01302731 -0.0032168711 4278931874
-0.0090524964 -0.011393517 -0.0049758041 4279063198
-0.0071066357 -0.011259109 -0.0053852135 4279390873
-0.0053134188 -0.010375373 -0.0064676022 4280571014
-0.0035254434 -0.0094918683 -0.0075487797 4282144109
-0.020873681 -0.025215015 0.0068601407 4281814649
-0.019676283 -0.020561591 0.0023863371 4279914899
-0.017841227 -0.019673645 0.0012961589 4279325339
-0.015874796 -0.019538432 0.00088195875 4279128989
-0.014047459 -0.01865077 -0.00020640995 4278539174
-0.012651056 -0.01550696 -0.0033146618 4278932384
-0.010842159 -0.014620304 -0.0043990156 4279063199
-0.0090384558 -0.013733923 -0.0054821419 4278932128
-0.0073898956 -0.012096234 -0.0072360737 4278997409
-0.005599305 -0.011210524 -0.0083162589 4279587479
-0.0038139746 -0.010325 -0.0093952809 4279587733
-0.0021917932 -0.0086887628 -0.011143385 4280834940
-0.017440215 -0.024298742 0.0027994625 4280307343
-0.015736043 -0.022653423 0.0010366403 4279718293
-0.0140424 -0.02100879 -0.00072384626 4278932128
-0.012642749 -0.017856099 -0.0038261665 4278866593
-0.010975525 -0.016212985 -0.0055809347 4278539173
-0.0093188547 -0.014570542 -0.0073333634 4278866594
-0.0075230002 -0.013682418 -0.0084130941 4278997153
-0.0057323948 -0.012794562 -0.0094916476 4279062943
-0.0037919506 -0.012660317 -0.0098997531 4279128733
-0.0023246296 -0.010266311 -0.012313883 4278866848
-0.00039200112 -0.010132357 -0.012720152 4278736033
0.0010514706 -0.0077397823 -0.015129091 4279326613
0.0028105006 -0.0068534911 -0.016200533 4279851403
-0.014176525 -0.022614181 -0.0019152835 4281551489
-0.012634747 -0.020209298 -0.0043406896 4279653269
-0.011108853 -0.017805375 -0.0067626489 4279260059
-0.0094519593 -0.016158581 -0.0085118106 4278932129
-0.00765609 -0.015268318 -0.0095899133 4278997409
-0.005713217 -0.015134029 -0.0099986224 4279062944
-0.0039251447 -0.014244057 -0.011074896 4278997664
-0.0024574213 -0.011843562 -0.01348416 4278735268
-0.00068517029 -0.010954447 -0.014556917 4278800803
0.0010818243 -0.01006557 -0.015628481 4279456664
0.0028435439 -0.0091769025 -0.016698884 4279325594
0.0047682375 -0.0090431497 -0.017103216 4279852423
-0.01234436 -0.024083897 -0.0035205334 4282795888
-0.010954075 -0.020914435 -0.006607566 4279718804
-0.0092916489 -0.019262895 -0.0083546378 4279325338
-0.0074903965 -0.018370099 -0.0094322152 4278735269
-0.0055423528 -0.01823546 -0.009842027 4278801059
-0.0037488975 -0.017342977 -0.010917793 4278931874
-0.0022754371 -0.014935583 -0.013323287 4278473383
-0.00049782172 -0.014043942 -0.01439553 4278997153
0.0011118427 -0.01239536 -0.016130907 4279128734
0.002876278 -0.011504397 -0.0172002 4279128734
0.0048034899 -0.011370458 -0.017605053 4279653779
0.0065600425 -0.010479748 -0.018672543 4279589263
0.010057319 -0.008699134 -0.020803811 4280181628
-0.0071762055 -0.022240631 -0.0086152144 4280635019
-0.0053721517 -0.021345362 -0.0096916519 4279390108
-0.0038823821 -0.018930487 -0.012095723 4278669734
-0.0024085268 -0.016516581 -0.014496363 4278604708
-0.00079073012 -0.014863238 -0.016230244 4278997664
0.00097899884 -0.013969861 -0.017299075 4279063198
0.0027434677 -0.01307673 -0.018366721 4278997664
0.0045026615 -0.012183785 -0.019433193 4279194268
0.0060860515 -0.010532349 -0.021159464 4278997918
0.0080052242 -0.010398738 -0.021562455 4279260313
0.0095726997 -0.0087480992 -0.023285236 4279457939
0.012200803 -0.011647619 -0.021049488 4279590029
-0.0052026697 -0.024463639 -0.0095475502 4281681539
-0.003707163 -0.022041887 -0.011947885 4279324574
-0.0020705573 -0.020383023 -0.013682496 4279063199
-0.0002848655 -0.019486509 -0.014753141 4278997409
0.0011708736 -0.017067134 -0.017144822 4279063199
0.002445668 -0.013887383 -0.020193603 4279194269
0.0042022318 -0.012992509 -0.021257836 4279128733
0.0057831705 -0.011336908 -0.02298028 4278866593
0.0076995268 -0.01120349 -0.023382679 4278669733
0.0096159279 -0.011069976 -0.023785014 4278997408
0.0122458 -0.013978012 -0.021556251 4279260059
0.014535014 -0.015363932 -0.020646285 4280245123
-0.0017336532 -0.02426222 -0.012878101 4282925939
-9.9427998e-05 -0.022599056 -0.014608867 4279980179
0.0011998937 -0.01940909 -0.017656285 4279455898
0.0026427805 -0.016984016 -0.020040166 4279521434
0.0040697046 -0.014559895 -0.022420648 4278669989
0.0056508593 -0.012899965 -0.02413984 4278342058
0.0077398904 -0.013529547 -0.023884978 4278473128
0.0094833039 -0.012633048 -0.02494451 4279193759
0.012290455 -0.016312413 -0.02206606 4279193503
0.014943495 -0.019227371 -0.019848678 4280112269
0.017801426 -0.022902936 -0.016980693 4280374409
0.019941363 -0.023528315 -0.016736019 4279391638
0.021331264 -0.021105759 -0.019107949 4280967793
0.00024462491 -0.026486129 -0.013812367 4282728823
0.0018764772 -0.024818674 -0.015539236 4280831113
0.0031684563 -0.021620467 -0.018578354 4279128479
0.0046064593 -0.01918909 -0.020956203 4278735779
0.0061984956 -0.017524086 -0.022674389 4278866594
0.0081252195 -0.017389946 -0.023078971 4278866338
0.009876661 -0.01649072 -0.024138592 4279325339
0.012334768 -0.01865086 -0.022578869 4279521688
0.01553154 -0.023868129 -0.018406644 4279653013
0.018765718 -0.029082686 -0.01424212 4279980943
0.021479301 -0.032001801 -0.012043857 4280832644
0.02345961 -0.031863175 -0.012459108 4281226109
0.0056431442 -0.026138477 -0.017539058 4281551744
0.0069144964 -0.022932805 -0.020567041 4279390619
0.0083370022 -0.020495757 -0.022936482 4279193503
0.0099186823 -0.018826909 -0.024649002 4278800549
0.012556538 -0.021760315 -0.022441801 4278866339
0.015937671 -0.027759254 -0.017629582 4279522198
0.019544668 -0.034521647 -0.012174451 4279915919
0.022456503 -0.038214952 -0.009334201 4280767363
0.0077982768 -0.029132709 -0.017822687 4282992749
0.0090649128 -0.025918543 -0.020843014 4279980179
0.010660153 -0.024244398 -0.022555057 4278866339
0.012955222 -0.02564735 -0.02165965 4278997664
0.01616244 -0.030894198 -0.017512698 4279719058
0.019772954 -0.037675828 -0.012073194 4280178314
0.02268903 -0.041379638 -0.0092420969 4281619318
0.013885122 -0.031861022 -0.018937949 4280504969
0.016746681 -0.035579726 -0.016103882 4280767874
0.020183273 -0.041609272 -0.011329638 4282471019
-0.0017277561 -0.039271966 -0.028206382 4282469743
-0.002018407 -0.040065423 -0.030021936 4282666604
-0.0031999834 0.014931753 0.023885993 4285166369
-0.0013863742 0.015773848 0.022766421 4285493534
0.0010584593 0.013794288 0.024467552 4285820698
0.0049755424 0.0054694042 0.03250441 4285885724
-0.0057583041 0.015307546 0.020989159 4285100323
-0.004410848 0.018275075 0.017759098 4285493533
-0.0024596229 0.01841031 0.01734891 4285689629
-0.00034936517 0.017838106 0.01764203 4285558048
0.0028975755 0.012314886 0.022853071 4285755164
0.00651595 0.0053804144 0.029459456 4285886234
0.01002093 -0.00084324926 0.035353102 4285492513
-0.0084470958 0.016408481 0.017395036 4284904483
-0.0066469721 0.017253742 0.016281433 4285493789
-0.0051588714 0.019518964 0.013763435 4285952533
-0.003218472 0.019653417 0.013355501 4285755418
-0.0011191964 0.019078232 0.013649303 4285492258
0.0016312003 0.01566539 0.016746344 4285558303
0.0045725144 0.011545166 0.020538347 4285624603
0.0073792338 0.0081364214 0.02362371 4285624859
0.010212779 0.0047296584 0.026703516 4285493534
0.012728918 0.002742447 0.028380113 4285427998
0.015960306 -0.0020779595 0.032846481 4285296419
-0.010822222 0.016103126 0.015215319 4284904484
-0.0091727078 0.017662942 0.013401557 4285428254
-0.0072326735 0.017797157 0.012993537 4285559069
-0.0057521537 0.020068314 0.01048214 4285755929
-0.0036640055 0.019490108 0.010776486 4285887509
-0.0015703961 0.018912375 0.01106976 4285821719
0.0011736155 0.015488207 0.01415983 4285756183
0.0039444417 0.012065992 0.017244333 4285690393
0.0062423572 0.010779783 0.018228287 4285493278
0.0082125403 0.010916799 0.01781447 4285493788
0.010182802 0.01105392 0.017400714 4285493789
0.012327731 0.010480367 0.017683676 4285493278
0.015364446 0.0063542277 0.021446051 4285492258
0.019692935 -0.0027425662 0.030070538 4285557794
-0.013897203 0.019383803 0.0095311552 4285361953
-0.011970915 0.019516855 0.0091258585 4285689628
-0.0098967925 0.018935136 0.0094212927 4285820954
-0.0075165033 0.016924642 0.011115775 4285689628
-0.0058851913 0.018487684 0.0093093365 4285624349
-0.0037973411 0.017907254 0.0096020699 4285558558
-0.0018624179 0.018041402 0.0091953389 4285624349
0.00071681291 0.015319981 0.011580035 4285624349
0.0031537972 0.013313919 0.013262983 4285493278
0.0054405257 0.012022577 0.014245952 4285558813
0.0072308183 0.012872182 0.01313825 4285624603
0.0088440925 0.014434725 0.011336107 4285689883
0.010621175 0.015283614 0.010231338 4285755418
0.012924232 0.013993874 0.011211157 4285755164
0.016316615 0.0084292591 0.016352296 4285886234
0.02084643 -0.0014067888 0.025644636 4285952024
-0.015536867 0.015522316 0.010869281 4284903973
-0.014313631 0.019242749 0.0069614891 4285755673
-0.012392819 0.019375391 0.0065573212 4286017304
-0.010471854 0.019508146 0.0061531998 4286148884
-0.0079500675 0.016773619 0.0085430052 4285886744
-0.0060181767 0.016907327 0.0081367381 4285624349
-0.0037751198 0.015608221 0.0091251917 4285558813
-0.0018376485 0.015742525 0.0087179095 4285559068
0.00058252737 0.013728619 0.010399358 4285559069
0.0028552935 0.012431882 0.011381809 4285559068
0.0046402104 0.013283163 0.010276806 4285558814
0.0062509924 0.014849715 0.0084784552 4285755929
0.0078511424 0.016415685 0.0066823885 4285820953
0.0094406903 0.01798097 0.0048886593 4285492258
0.011550304 0.017400697 0.0051757768 4285492514
0.014204051 0.014676481 0.0075387266 4285558303
0.017790481 0.0083808154 0.013355911 4285624094
0.021425072 0.0020886213 0.019163067 4285493278
-0.01594796 0.015379734 0.0082970466 4285363229
-0.014587313 0.01839111 0.005097013 4285558303
-0.012958586 0.019962348 0.0032974482 4285557793
-0.010898463 0.019375317 0.003592426 4285755164
-0.0083828643 0.016631663 0.0059768781 4285755418
-0.0059984438 0.014608435 0.0076606236 4285624348
-0.0039085522 0.014023758 0.0079495665 4285559069
-0.0019712001 0.01415804 0.007542301 4285493533
-3.3762306e-05 0.014292412 0.0071350783 4285559324
0.001903791 0.014426909 0.0067279283 4285559324
0.0038414225 0.014561512 0.0063208342 4285558558
0.0056104474 0.015413955 0.0052209031 4285624349
0.0070314556 0.017701253 0.0027374271 4285887508
0.0084364973 0.019987494 0.00025742687 4285887254
0.010355715 0.020121239 -0.00014547631 4285756183
0.012813158 0.018104166 0.0015236698 4285953299
0.015832886 0.013937876 0.0052599143 4285690393
0.018699989 0.010490581 0.0082999207 4285427743
0.022343509 0.0041795522 0.014090337 4285165093
-0.020204023 0.014981255 0.0065411199 4285296928
-0.018281221 0.015113682 0.0061362647 4285493789
-0.016358279 0.015246212 0.0057314504 4285821973
-0.01486057 0.01754418 0.0032359511 4285756184
-0.013234273 0.019119538 0.0014402419 4285558048
-0.011324257 0.019251481 0.0010383837 4285689884
-0.0088148676 0.016498685 0.0034174882 4285821719
-0.006283991 0.013747476 0.0057921447 4285624604
-0.0040419325 0.012439579 0.0067741424 4285558814
-0.0024203584 0.014015116 0.0049798265 4285559069
-0.00064888224 0.014869571 0.0038807802 4285558814
0.00095417351 0.01644408 0.002090469 4285558558
0.0030441508 0.015857637 0.0023780428 4285624093
0.0049710497 0.015991598 0.0019732863 4285623838
0.0063844696 0.01828482 -0.00050358661 4285690138
0.0077819154 0.020577088 -0.0029770546 4285755929
0.0098695122 0.019990906 -0.0026886612 4285559069
0.012141719 0.018686004 -0.0017122291 4285558813
0.014788426 0.015944019 0.00063899159 4285427998
0.017271996 0.013922475 0.0022978485 4285296929
0.019958869 0.011183493 0.0046407934 4285367309
-0.020201802 0.01268407 0.0060709175 4285427999
-0.018549018 0.014265254 0.00427269 4285427999
-0.016906753 0.01584585 0.0024767201 4285559069
-0.015416622 0.018149748 -1.2188219e-05 4285821719
-0.013509534 0.01828137 -0.00041351933 4285821719
-0.011455365 0.017689534 -0.00012064818 4285821719
-0.0090964697 0.01565136 0.0015583895 4285690393
-0.0065691173 0.012891196 0.0039271358 4285558814
-0.004330229 0.011578716 0.0049064681 4285558813
-0.0028687418 0.013881288 0.0024240147 4285624603
-0.0014231801 0.016182818 -5.4970384e-05 4285755929
0.00016942248 0.017760932 -0.00183977 4285886999
0.0024140663 0.016449235 -0.0008612778 4285886999
0.0045011416 0.015860498 -0.00057469495 4285624349
0.0062516332 0.016716085 -0.0016673487 4285558558
0.007823173 0.018293165 -0.0034474023 4285493279
0.0097367838 0.018426508 -0.0038491338 4285427999
0.012008492 0.017117225 -0.0028759222 4285427998
0.014290933 0.015808843 -0.0019049235 4285296929
0.01658411 0.014501266 -0.00093604811 4285432079
-0.019799657 0.0082027018 0.0076837484 4285230119
-0.018408112 0.011241987 0.0044969078 4285492768
-0.017176539 0.015006229 0.0006204024 4285493023
-0.015547238 0.016590327 -0.001169418 4285493534
-0.013640285 0.016721927 -0.0015707342 4285624859
-0.01158642 0.016127869 -0.0012794714 4285559068
-0.0093776546 0.014808714 -0.00029731169 4285559069
-0.0071580671 0.013490386 0.00068270601 4285493278
-0.0049276799 0.012172945 0.0016604867 4285624604
-0.0033163317 0.013756432 -0.00012506917 4285690139
-0.0018757097 0.01606416 -0.0025980938 4285821208
-0.00045099482 0.018370852 -0.0050676428 4285689628
0.0016196445 0.017778702 -0.0047793444 4285886998
0.0040320009 0.015738495 -0.0031160079 4285690393
0.0061188415 0.015147634 -0.002830904 4285559069
0.0078641027 0.016005173 -0.0039207675 4285493788
0.0097802542 0.016138673 -0.0043230485 4285428254
0.01187529 0.015548721 -0.0040394124 4285296929
-0.019398898 0.0037041754 0.0092838239 4285164073
-0.01799608 0.0067529008 0.0061012339 4285558558
-0.01675304 0.010528758 0.0022305828 4285690394
-0.01511281 0.012117922 0.00044176634 4285624603
-0.013339229 0.012978375 -0.00065331906 4285559069
-0.011424258 0.013110608 -0.0010562632 4285559068
-0.0098076612 0.014698461 -0.0028398633 4285559324
-0.0078977868 0.014830545 -0.0032415763 4285493533
-0.0059877932 0.014962748 -0.0036432352 4285558813
-0.0040776953 0.015095063 -0.0040448289 4285821718
-0.0026473328 0.017408572 -0.0065107346 4285558049
-0.00090766698 0.018267393 -0.0075980648 4285492259
0.00099203363 0.018399313 -0.0079972241 4285558304
0.0037316047 0.014899001 -0.0049641654 4285690394
0.0059860796 0.013579495 -0.003994232 4285493533
0.0080780126 0.012986965 -0.0037118215 4285493789
0.0094714351 0.01529856 -0.0061694644 4285428509
0.011563476 0.014706276 -0.0058869012 4285693454
-0.019132607 -8.0496073e-05 0.010179037 4285230118
-0.017585441 0.0022466183 0.0076927915 4285492768
-0.016192555 0.0053034201 0.0045189839 4285558303
-0.014538743 0.0068978369 0.0027306024 4285558049
-0.013039216 0.0092219934 0.00025463011 4285492513
-0.011116363 0.0093547329 -0.00014999602 4285493023
-0.0097896867 0.012407407 -0.0033095339 4285427488
-0.0081807598 0.013999149 -0.0050881393 4285493534
-0.0067368262 0.016319886 -0.007552091 4285559324
-0.0048375465 0.016451448 -0.0079514179 4285887763
-0.003257677 0.018041506 -0.0097236708 4285821974
-0.001688417 0.019630983 -0.011493647 4285755929
0.00036556646 0.019033313 -0.011205183 4285756693
0.0029282868 0.016250148 -0.0088633243 4285690904
0.0053420216 0.014197044 -0.0072101303 4285493534
0.00742561 0.013601765 -0.0069276248 4285099814
-0.01926595 -0.0016782284 0.0089932438 4285230373
-0.017447293 -0.00081069767 0.0078917164 4285426723
-0.015772052 0.00078941137 0.0061020367 4285492514
-0.014107332 0.002388902 0.0043146666 4285492258
-0.012596704 0.0047203079 0.0018413104 4285558049
-0.010955736 0.0063183755 5.9100799e-05 4285492259
-0.0097720213 0.010112286 -0.0037822211 4285492259
-0.0084633119 0.013172425 -0.0069312458 4285493278
-0.0073301047 0.01696305 -0.010761781 4285559069
-0.0054389685 0.017094031 -0.011159411 4285558813
-0.0038668849 0.018687874 -0.012926714 4285624604
-0.0019809008 0.018818706 -0.013323098 4285624859
7.0080161e-05 0.018218637 -0.013035672 4285559069
0.0026292689 0.015426539 -0.01069971 4285493534
0.0046991035 0.014828011 -0.010416076 4285362463
-0.019266561 -0.0040110946 0.0084965266 4285164584
-0.017309837 -0.0038764849 0.0080844145 4285361444
-0.015490979 -0.0030067116 0.0069846064 4285426723
-0.013958722 -0.00066745281 0.0045115668 4285426978
-0.012298979 0.0009361282 0.0027286243 4285492769
-0.010649778 0.002539143 0.00094795041 4285426979
-0.0091598257 0.0048757717 -0.0015158886 4285492769
-0.0079885609 0.008679755 -0.0053462321 4285558303
-0.0068438873 0.012481973 -0.0091708563 4285624349
-0.0052556396 0.01408115 -0.010938345 4285492769
-0.0039967708 0.017146885 -0.014070055 4285493534
-0.0021109246 0.017277688 -0.014466418 4285493278
-6.0260296e-05 0.016675428 -0.014180588 4285428253
0.0023306422 0.014607586 -0.012532646 4285296673
0.0040573403 0.015472293 -0.013612065 4285038358
-0.01926747 -0.0063480139 0.0079967901 4284901169
-0.017308213 -0.0062132627 0.0075841192 4285164074
-0.015486643 -0.0053411573 0.006485384 4285426724
-0.013951316 -0.002995193 0.0040166508 4285426723
-0.012145475 -0.0021239445 0.0029214043 4285426723
-0.010636553 0.00022044033 0.00045841374 4285426979
-0.0091435313 0.0025637746 -0.0020011114 4285426979
-0.0075152293 0.0041698813 -0.0037739286 4285558304
-0.0060513504 0.0065114349 -0.0062271459 4285558559
-0.0046034008 0.0088520423 -0.008676975 4285558304
-0.0034897737 0.012663163 -0.012486622 4285756184
-0.0015933849 0.012794681 -0.012885217 4285624604
0.00013854355 0.013661698 -0.013964245 4285296929
0.0021996498 0.013058089 -0.013682196 4285168663
-0.015482619 -0.0076796561 0.0059831385 4285295144
-0.013944209 -0.0053269863 0.0035187211 4285361443
-0.012135662 -0.0044533983 0.0024245437 4285361444
-0.010623664 -0.0021023825 -3.4114346e-05 4285492514
-0.0088308826 -0.0012296289 -0.0011248458 4285492513
-0.0073453411 0.0011198148 -0.0035777409 4285492769
-0.0055683404 0.0019916594 -0.0046649482 4285493023
-0.0039529502 0.0036014244 -0.0064315693 4285558304
-0.0026661716 0.0066864192 -0.0095559051 4285558304
-0.0010772869 0.0082945228 -0.011316738 4285624603
0.00050100312 0.0099020451 -0.013075306 4285427488
-0.012268983 -0.0060457066 0.001242891 4285164328
-0.010756575 -0.0036881641 -0.0012108758 4285426468
-0.0089637488 -0.0028132498 -0.0022999775 4285492259
-0.0073269792 -0.0011979714 -0.0040679369 4285426724
-0.0055472627 -0.00032377988 -0.0051540602 4285426978
-0.0040851384 0.0020308048 -0.0075969412 4285492769
-0.0023212545 0.0029041171 -0.0086795744 4285426978
