# .PCD v0.7 - Point Cloud Data file format
VERSION 0.7
FIELDS x y z rgba
SIZE 4 4 4 4
TYPE F F F U
COUNT 1 1 1 1
WIDTH 971
HEIGHT 1
VIEWPOINT 0 0 0 1 0 0 0
POINTS 971
DATA ascii
-0.033174708 0.015181534 0.018176652 4281111104
-0.031129666 0.014598213 0.018499814 4280915774
-0.029308081 0.015431896 0.017390415 4280980799
-0.02772598 0.017681591 0.014851683 4281112123
-0.025920048 0.018514451 0.013745607 4281111869
-0.024241805 0.020054858 0.011926488 4281111104
-0.022198528 0.01947185 0.012250396 4280915263
-0.020149715 0.018889334 0.012573208 4281176893
-0.017703749 0.016185537 0.015032494 4281047099
-0.015236221 0.013483234 0.017487463 4281242938
-0.013290733 0.013610013 0.017092474 4283665183
0.02854953 -0.0022525191 0.027826931 4282351423
0.030187372 -0.00071219355 0.026017983 4282088008
-0.044985875 0.013551496 0.018662926 4281110593
-0.043534815 0.017234318 0.014680303 4280199224
-0.041717097 0.018069353 0.013572889 4280655419
-0.039702609 0.017481461 0.013900329 4280395319
-0.03737165 0.014760457 0.016375735 4280068663
-0.035338014 0.014173925 0.016699456 4280980543
-0.033189841 0.012877084 0.017737322 4280980544
-0.031365715 0.013712987 0.01662894 4280849984
-0.029546738 0.014548659 0.015521682 4280915263
-0.028083906 0.017515056 0.012274657 4281045569
-0.026402958 0.019059896 0.01045815 4280718404
-0.024610169 0.019894168 0.0093564307 4280784448
-0.022447497 0.018598814 0.010391769 4280915518
-0.020146258 0.016594619 0.012136445 4280785469
-0.0178288 0.014591582 0.013877903 4280785979
-0.015495144 0.012589723 0.015616097 4280916794
-0.013823897 0.014134489 0.013802052 4284321555
0.023825124 0.0058365092 0.017231971 4283073839
0.024498079 0.010907784 0.011935129 4281568828
0.026458431 0.011037625 0.01153868 4279809328
0.029762428 0.0062297806 0.016031258 4280525879
0.0344663 -0.003512077 0.025401544 4280982328
-0.04676757 0.009693794 0.020055294 4281757018
-0.045665681 0.016245134 0.013208649 4280133179
-0.044039011 0.018509995 0.010670065 4280915008
-0.042133816 0.018632781 0.010282242 4281436738
-0.03992606 0.016615026 0.01204026 4281306433
-0.037702031 0.014598355 0.013795081 4280459068
-0.035567887 0.01329609 0.01483244 4280459069
-0.033640459 0.013420664 0.014440353 4280980544
-0.03171283 0.013545357 0.0140483 4280980799
-0.030127451 0.015808202 0.0115186 4280914753
-0.028674752 0.01878269 0.0082801459 4278569519
-0.02688475 0.019618824 0.0071805166 4279351349
-0.024977766 0.019742556 0.0067929449 4278830638
-0.022446364 0.016306393 0.009957361 4278505004
-0.020143099 0.014295764 0.011696675 4281046843
-0.017823614 0.012286238 0.0134328 4280982329
-0.01562079 0.01098939 0.014456918 4281439798
-0.014084883 0.013249815 0.011937854 4284643363
0.019905195 0.011159383 0.0094627598 4283990053
0.021673622 0.011996605 0.0083693629 4281178679
0.022691045 0.015665442 0.0044854777 4280982839
0.024627171 0.015793696 0.0040939385 4281698369
0.027138606 0.013799243 0.0057929242 4281567554
0.030638361 0.0082687661 0.010970221 4280916539
0.034180954 0.0027412549 0.016138934 4280981308
0.037366763 -0.0013691336 0.019908648 4281111104
0.040382203 -0.0047703758 0.022977304 4281503039
0.043219231 -0.0074630305 0.025346521 4281503294
0.044414937 -0.0045017973 0.022162847 4281241408
0.045799699 -0.0022482872 0.019676656 4281371969
0.048660677 -0.0049389526 0.022041246 4279937849
-0.047610492 0.01382827 0.013171022 4281045313
-0.046065561 0.016816564 0.0099197226 4280263229
-0.044351235 0.01837144 0.0081022894 4279546423
-0.042549439 0.01920975 0.0070013115 4280067643
-0.040450938 0.017900564 0.0080424855 4279742008
-0.03823822 0.015876561 0.0097946944 4278699059
-0.036009282 0.013853669 0.011543649 4280654144
-0.034307249 0.01540821 0.0097290585 4280850494
-0.032393098 0.015531994 0.0093397228 4280850749
-0.030706696 0.017085664 0.0075284904 4280394299
-0.028914183 0.017924026 0.0064298855 4280785213
-0.027126819 0.018762201 0.0053323591 4281567554
-0.025100604 0.01817131 0.0056547048 4280851003
-0.022694886 0.015438341 0.0081023211 4280330038
-0.020267583 0.012706809 0.010545664 4281178934
-0.018208787 0.012118332 0.010861608 4281439798
-0.016144492 0.011530355 0.011176462 4281573164
0.018691424 0.013815418 0.0041148784 4283205929
0.020260256 0.015364155 0.0023294715 4280917814
0.021818409 0.016912244 0.00054634828 4279743793
0.023743683 0.017039761 0.00015698839 4280590648
0.026052155 0.015747786 0.0011581583 4280850493
0.028759887 0.013037346 0.0035466598 4280394809
0.031882923 0.0089095235 0.0073191868 4280395319
0.03463883 0.0062024817 0.0096981088 4281307199
0.037011527 0.0049151704 0.010686669 4281503294
0.038574964 0.0064644292 0.0089030089 4281242685
0.039504677 0.010139294 0.0050456682 4281176129
0.040828258 0.012395322 0.0025767395 4280720699
0.043839831 0.0089833066 0.0056383507 4280915518
0.048172273 0.0013239309 0.012836824 4280524859
0.053437028 -0.0091635287 0.022782814 4279937339
-0.048950858 0.0063753501 0.018135235 4282738259
-0.048001833 0.01440496 0.0098838592 4280980289
-0.046279505 0.015964597 0.0080679553 4280719933
-0.044567607 0.017523617 0.0062542884 4280980034
-0.042768434 0.018363915 0.0051554507 4280979523
-0.040773489 0.017768055 0.0054818867 4280849729
-0.038669869 0.016454875 0.0065188026 4280784704
-0.036449566 0.014424831 0.0082646059 4280915520
-0.034755334 0.015983164 0.0064548766 4280915773
-0.03296046 0.016823694 0.0053572142 4280981819
-0.031284541 0.018381033 0.00355135 4280329784
-0.029269688 0.017787024 0.0038741557 4280133943
-0.027368464 0.017910227 0.0034876363 4281176639
-0.025345236 0.017316982 0.0038088942 4280785468
-0.023191988 0.016007721 0.0048363255 4280462129
-0.021027885 0.014699332 0.0058615906 4281178679
-0.018852904 0.013391688 0.0068847546 4281701174
-0.01666709 0.012084894 0.0079057598 4284577064
0.018021908 0.014360055 0.00087375659 4281438779
0.019582938 0.015912607 -0.00090677384 4280916284
0.020947207 0.018176977 -0.0033798078 4280460599
0.022861645 0.018303778 -0.0037669698 4280329783
0.024776086 0.018430699 -0.0041540461 4280003383
0.028049195 0.013574816 0.00031064171 4280394298
0.030966233 0.010144897 0.0033827089 4280981053
0.033710569 0.0074283704 0.005757398 4281176383
0.035263561 0.0089811757 0.0039790785 4281241919
0.036396194 0.011955641 0.00082111638 4280980799
0.037092414 0.016350679 -0.0037131952 4280330038
0.039017413 0.016479068 -0.0041018305 4281306433
0.041580878 0.01447577 -0.0024224417 4281436738
0.045237903 0.0089216158 0.0026976038 4281176384
0.049810477 0.00052944571 0.010562056 4280915009
0.063395478 -0.029729277 0.039308179 4280849984
-0.049161032 0.0054998323 0.016265068 4282412113
-0.047854573 0.010670066 0.010882446 4281046079
-0.046031736 0.011513859 0.0097802533 4280980544
-0.044214018 0.012357406 0.0086791674 4281240898
-0.042499006 0.01392106 0.0068681696 4281175619
-0.040694214 0.014764011 0.0057698162 4281240644
-0.038791589 0.014886692 0.0053825555 4281110338
-0.036783159 0.014289618 0.0057047652 4281111870
-0.03509403 0.015852012 0.0038992679 4281113144
-0.033304453 0.016694307 0.0028043287 4281177913
-0.031520024 0.017536379 0.0017105164 4280916284
-0.029508144 0.01693996 0.0020322753 4280004659
-0.027728692 0.017781906 0.00093961973 4280394809
-0.025711112 0.017186046 0.0012603598 4280460599
-0.023688011 0.016590647 0.0015800549 4280916793
-0.021532394 0.015277252 0.0026038084 4281439543
-0.019495599 0.014682941 0.0029208707 4281964333
0.016145293 0.011930943 0.00080986042 4283796509
0.017534021 0.014203236 -0.0016633524 4281503804
0.018906698 0.016474627 -0.0041332757 4281177404
0.020449221 0.018030442 -0.0059067188 4281241918
0.022546727 0.01744251 -0.0056001889 4281241919
0.024649598 0.016855024 -0.0052946704 4281046333
0.02772741 0.012697786 -0.0015326561 4281046333
0.030444155 0.009970516 0.00084106065 4281176383
0.032584485 0.0093858615 0.001139259 4281176383
0.034124307 0.010942169 -0.00063314475 4281241663
0.035039503 0.014637887 -0.0044713123 4281045823
0.036342498 0.016905643 -0.0069264146 4279808563
0.038049355 0.017746456 -0.0080016488 4279938103
0.040601447 0.015735835 -0.0063248435 4280068664
0.043815535 0.011588566 -0.0025896868 4280068664
0.048805788 0.0017440245 0.0066321595 4279481399
0.055636436 -0.013793461 0.02132776 4279676729
0.063254863 -0.031459212 0.038056329 4280459069
-0.0490238 0.0017360896 0.017244782 4282281553
-0.047618851 0.0061991438 0.01258275 4281630793
-0.045785271 0.0070457682 0.011479971 4281174853
-0.043956801 0.0078921765 0.010378308 4281110339
-0.042036027 0.0080157965 0.0099871838 4281176128
-0.040315248 0.0095843002 0.0081782667 4280915519
-0.038502157 0.010429993 0.0070799412 4280849984
-0.036799654 0.011997446 0.005274917 4280849984
-0.03499952 0.012842491 0.0041793687 4281046079
-0.033315331 0.014409021 0.0023781871 4281306944
-0.031528182 0.015253417 0.0012854179 4281371714
-0.029746182 0.016097583 0.00019377936 4281371714
-0.027731739 0.015499204 0.0005134372 4281306433
-0.025833271 0.015622266 0.00012750644 4281371969
-0.023686312 0.014303833 0.0011496088 4281307708
-0.021908991 0.015148096 5.9222803e-05 4281700408
0.01601845 0.010342412 -0.00034024194 4283074604
0.017046854 0.014055587 -0.0041938955 4281374008
0.018414579 0.01633317 -0.0066578826 4280786743
0.019766241 0.018609848 -0.0091185858 4280721209
0.02242057 0.015869327 -0.0067390343 4280916539
0.024905253 0.013846822 -0.005054194 4281241919
0.027793495 0.010392904 -0.0019926596 4281306943
0.030119231 0.0090891495 -0.0010045953 4281307199
0.032057479 0.0092179924 -0.0013962295 4281241919
0.033188615 0.012209795 -0.0045409179 4281241663
0.034298301 0.015200295 -0.0076811789 4281241919
0.035593674 0.017474078 -0.010129803 4281176639
0.037502348 0.017601401 -0.010515128 4281111360
0.040048402 0.015583843 -0.0088420426 4280916284
0.043471098 0.010708153 -0.0044297217 4280915264
0.048891701 -0.00059666485 0.0061404472 4280916028
0.056382485 -0.018325865 0.022853978 4281111614
0.064230196 -0.036760218 0.04022453 4281111614
-0.047473654 0.0024361312 0.013561004 4281500234
-0.045632005 0.0032854453 0.012458191 4281239879
-0.043700881 0.0034096017 0.012064864 4281240134
-0.041769549 0.00353387 0.011671559 4281110083
-0.039937921 0.0043828115 0.010570993 4281045059
-0.038214028 0.005955942 0.0087647447 4280849219
-0.036500618 0.0075284615 0.0069607375 4280849218
-0.034797683 0.0091004446 0.005158904 4280587589
-0.033105247 0.010671817 0.0033593234 4280849474
-0.031310037 0.011518888 0.0022665216 4280980033
-0.029404007 0.011642203 0.0018788809 4281045058
-0.027616456 0.012489036 0.00078774896 4280848964
-0.025712758 0.012612402 0.00040073041 4281240388
-0.023560904 0.011289828 0.0014186027 4281240898
-0.021778189 0.012136623 0.00032873638 4282026554
0.013437167 0.010785811 -0.0031757709 4284512039
0.015536636 0.010193154 -0.0028732419 4282486573
0.01656042 0.013916977 -0.0067178113 4281504060
0.017740324 0.016920008 -0.0098664118 4279548719
0.019640952 0.017045796 -0.010250862 4279288108
0.022294443 0.014296465 -0.0078776544 4278962474
0.024778455 0.012267321 -0.0061975862 4280981309
0.027278539 0.010239311 -0.0045206319 4281241918
0.029402189 0.0096490532 -0.0042224112 4281242173
0.031332266 0.0097773597 -0.0046123876 4281176638
0.032455944 0.01277744 -0.0077490355 4281307199
0.03355819 0.01577618 -0.010881226 4281306944
0.035259813 0.016620979 -0.011952254 4281306434
0.037165672 0.016748108 -0.012337013 4281240898
0.040132992 0.013289347 -0.0092990482 4281240898
0.04377196 0.0076813921 -0.0042144265 4281306179
0.049630232 -0.0050920323 0.0076961024 4281241153
0.057788096 -0.025025539 0.026416361 4281306689
0.06498073 -0.041366488 0.041694652 4281306434
-0.048838601 -0.0051025227 0.018467605 4282739024
-0.047418483 -0.00061230361 0.013821972 4281239879
-0.045663185 0.00096677989 0.012012319 4281239623
-0.043823935 0.0018181801 0.010911663 4281240133
-0.041892707 0.0019424036 0.010518353 4281305924
-0.039961264 0.0020667315 0.010125075 4281240644
-0.038132049 0.0029177815 0.0090266811 4281175363
-0.036413074 0.004495047 0.0072247395 4281044548
-0.034596808 0.005345434 0.0061291093 4281240644
-0.032785684 0.0061956123 0.005034619 4281109574
-0.030979745 0.0070455819 0.003941196 4280979269
-0.02917894 0.007895276 0.00284894 4281044293
-0.027264848 0.0080192015 0.0024597235 4280979013
-0.025350586 0.0081432238 0.0020705368 4281043274
-0.02331233 0.0075421557 0.0023821983 4280912968
-0.021648042 0.0091166645 0.00059203058 4281895228
-0.019865118 0.0099657252 -0.00049619563 4284313394
0.012787096 0.011370189 -0.0063922158 4284187168
0.014523573 0.0122182 -0.0074695456 4282224179
0.01571472 0.015230618 -0.010613984 4281113399
0.01724983 0.01679901 -0.012376287 4281306688
0.019144971 0.016924433 -0.012759621 4281241408
0.021792263 0.014165916 -0.010391693 4280655419
0.024460973 0.011408962 -0.0080279894 4281046334
0.026764326 0.010094799 -0.0070419642 4281177149
0.028882308 0.0095019788 -0.0067442148 4281307453
0.030608157 0.010350205 -0.0078187138 4281177148
0.031522959 0.014078677 -0.011632412 4281372989
0.032819152 0.016365603 -0.014071534 4279417648
0.034719564 0.016492285 -0.014455262 4278830128
0.037457723 0.013740711 -0.012105021 4278699314
0.040641487 0.0095519051 -0.0083931424 4280458814
0.044501718 0.0032076538 -0.0026404727 4281175873
0.050584819 -0.010323726 0.0099210879 4281241153
0.058750913 -0.030318014 0.028594051 4281241153
0.065061346 -0.043833941 0.041109938 4281306433
-0.047363922 -0.0036693066 0.014076791 4281370184
-0.045603059 -0.0020854697 0.012269196 4281239623
-0.043664165 -0.0019608885 0.011874228 4281175109
-0.041821964 -0.001107052 0.010774647 4281174853
-0.039885305 -0.00098241866 0.010380282 4281305924
-0.038050704 -0.00012887269 0.009282385 4281240644
-0.036221229 0.0007244274 0.0081856018 4281370694
-0.034396902 0.001577504 0.0070899474 4281174854
-0.032467447 0.0017020777 0.0066973483 4281174088
-0.03065075 0.0025549158 0.0056033516 4281174088
-0.028839216 0.0034074634 0.0045105228 4281108809
-0.027032852 0.004259795 0.0034188256 4281108808
-0.025231645 0.0051118955 0.0023282636 4281240133
-0.023312002 0.0052363425 0.0019380338 4281109063
-0.021518521 0.0060881972 0.00084915385 4281894719
-0.019472227 0.0054856092 0.0011577383 4284181303
0.011789165 0.013416223 -0.010976697 4282681904
0.013335139 0.014989503 -0.0127381 4280850749
0.01505027 0.0158384 -0.013809401 4279874354
0.016577575 0.017410636 -0.015566803 4280655164
0.01846455 0.017535508 -0.015948493 4280850494
0.020727247 0.016214095 -0.014957714 4280263738
0.023762798 0.012001321 -0.011226316 4280003894
0.026057623 0.010682277 -0.010241857 4281046078
0.028363138 0.0093640462 -0.0092594773 4281176638
0.029885113 0.010936603 -0.011015302 4281307708
0.030993873 0.013953224 -0.014135891 4281046589
0.032081194 0.016968548 -0.017252062 4279743028
0.03418003 0.016372725 -0.016951732 4280394044
0.036911987 0.013611995 -0.014606739 4279220534
0.040301144 0.008687973 -0.010221945 4278894388
0.044800811 0.00015946478 -0.002440677 4280588354
0.051537622 -0.015577152 0.012130358 4280979524
0.059491981 -0.034911148 0.030076325 4280979524
0.064696319 -0.044863723 0.039163932 4281044548
-0.047221251 -0.0074666366 0.015030072 4281434443
-0.045543551 -0.0051462874 0.012519932 4281303883
-0.043599449 -0.0050214082 0.012123873 4281566023
-0.041848592 -0.0034336969 0.010321685 4281370694
-0.040008806 -0.0025777444 0.0092242798 4281305668
-0.038174145 -0.0017220601 0.0081279678 4281305924
-0.036344625 -0.00086659193 0.0070327865 4281305668
-0.034305386 -0.0014726594 0.0073404806 4281240644
-0.032590918 0.00011318177 0.0055461293 4281175109
-0.030548632 -0.00049247593 0.0058533615 4280979013
-0.028847165 0.0010927692 0.0040617576 4281174344
-0.026919954 0.001217477 0.0036698207 4281174854
-0.025234178 0.0028018579 0.0018816013 4281305668
-0.023188502 0.0021968484 0.0021884665 4281305924
-0.021515757 0.0037806183 0.00040307082 4282155584
-0.019467123 0.0031759962 0.00070947595 4284246073
0.009936031 0.011001363 -0.011035895 4284644894
0.011490218 0.012579404 -0.012795745 4282223158
0.012679778 0.015609108 -0.01592692 4280915009
0.014207263 0.017185651 -0.017681241 4280589373
0.015906397 0.018035792 -0.018747594 4280328764
0.017785206 0.018160135 -0.019127626 4280393533
0.020227067 0.016108327 -0.017453741 4280067898
0.023256056 0.011882029 -0.013730833 4280784704
0.02554504 0.010558181 -0.012748407 4281176384
0.028040422 0.0085103139 -0.011085121 4281241919
0.029361546 0.010811776 -0.013519628 4281242685
0.030465525 0.013836853 -0.016632726 4280134964
0.031751804 0.016136274 -0.01906006 4281306944
0.033847645 0.015538067 -0.018760748 4281436484
0.036785163 0.012044385 -0.015741274 4281110339
0.040172935 0.0071049556 -0.0113676 4281045059
0.045313649 -0.0036208853 -0.0015677894 4280849474
0.052488651 -0.02085229 0.014323917 4280849474
0.059792038 -0.03807503 0.030189857 4280914499
0.064109191 -0.04516571 0.036543768 4280979013
0.066678606 -0.046469368 0.037470624 4282542419
-0.044754773 -0.014086694 0.018384941 4281694798
-0.04287798 -0.013226427 0.017281435 4281696074
-0.041199461 -0.010899283 0.014776078 4281631304
-0.039536752 -0.0085730255 0.01227403 4281305414
-0.037889853 -0.0062477589 0.0097753042 4281240644
-0.036258787 -0.0039233491 0.007279844 4281240644
-0.034429029 -0.0030656084 0.0061862869 4281240388
-0.032714345 -0.0014754087 0.0043951264 4280914499
-0.030672349 -0.002083309 0.0047007641 4280913989
-0.028970674 -0.00049369782 0.0029123547 4281174598
-0.027043596 -0.00036902726 0.0025204262 4281174854
-0.025116354 -0.00024423003 0.0021285536 4281501509
-0.023188941 -0.00011932105 0.0017367164 4281566788
-0.021513313 0.0014689788 -4.6037138e-05 4282418234
-0.019590944 0.0015937835 -0.00043668225 4284508979
0.0098113753 0.0094363689 -0.012169031 4283009068
0.011191636 0.01174733 -0.014611419 4281959744
0.01255589 0.014057286 -0.017050453 4281631303
0.014263071 0.014910042 -0.01811688 4281631304
0.015782759 0.016490564 -0.019866277 4281566279
0.017661426 0.016614877 -0.020246297 4281435719
0.019915123 0.015284076 -0.019260157 4281111614
0.022750054 0.01177182 -0.016228709 4281175363
0.025033176 0.010443218 -0.015248407 4281176384
0.026935942 0.01056961 -0.01563294 4281045059
0.028442284 0.0121499 -0.017379083 4281110594
0.029737011 0.014456339 -0.019803312 4280002619
0.030812092 0.017488383 -0.022903968 4280132924
0.033103161 0.016160853 -0.021924794 4280393279
0.036031619 0.012655623 -0.018911641 4280132159
0.039833151 0.0062482357 -0.013191175 4279937338
0.046039689 -0.0081399456 -2.6618131e-05 4279937338
0.053437904 -0.026149102 0.016501792 4280198204
0.060091376 -0.041247331 0.030297246 4280654399
0.063522771 -0.045458503 0.033930197 4281109829
-0.036996372 -0.015203178 0.015602802 4282218568
-0.035755895 -0.0099295601 0.010313702 4282349895
-0.03423132 -0.0068634674 0.0071254121 4281237839
-0.032837711 -0.003063716 0.0032443209 4280781898
-0.030796014 -0.0036738589 0.0035483679 4280977738
-0.028979018 -0.0028144568 0.0024592606 4281174854
-0.026931621 -0.0034240037 0.0027623149 4281109574
-0.025240071 -0.0018304884 0.0009793574 4281696074
-0.023066543 -0.0031736717 0.0019764407 4281826379
-0.021511167 -0.00084676594 -0.00049812067 4282547263
-0.01945778 -0.0014554933 -0.0001959661 4284574769
0.010200564 0.0056790411 -0.011247911 4282878253
0.011763178 0.0072664022 -0.013003021 4281828419
0.013138521 0.0095836744 -0.015439399 4281435719
0.014856424 0.010439374 -0.016506413 4281304648
0.016387045 0.012024947 -0.018254725 4281564239
0.018460922 0.011419989 -0.017954912 4281369418
0.020540167 0.010815486 -0.017656112 4281305924
0.022814779 0.00948181 -0.016677381 4281305414
0.024714729 0.0096078739 -0.017061446 4281305158
0.026223965 0.011192679 -0.018805025 4281240133
0.027722491 0.012776829 -0.020546321 4281241153
0.028808873 0.015818253 -0.023642838 4281044803
0.030483974 0.016672112 -0.024700385 4280849474
0.032565802 0.016068608 -0.024401493 4280653889
0.035696615 0.011823632 -0.020718087 4280653634
0.040127955 0.0032116249 -0.012981687 4280719423
0.046978399 -0.013404347 0.0021780189 4280849728
0.054602146 -0.032195516 0.01933948 4280849728
0.060170572 -0.043700479 0.029723544 4281045059
0.063159205 -0.046469681 0.031997669 4281109829
-0.03525497 -0.015961893 0.013328691 4282542164
-0.029102586 -0.0044025257 0.0013086824 4280910163
-0.027055494 -0.0050143003 0.0016101571 4281172559
-0.025243454 -0.0041528568 0.00052381586 4281564239
-0.0231907 -0.0047640428 0.00082429592 4281890639
-0.021509305 -0.0031666085 -0.00095317978 4282807619
-0.019581847 -0.0030415282 -0.0013449015 4284377398
0.012159582 0.0035010874 -0.012089664 4281826634
0.013719782 0.005092755 -0.013840878 4281564748
0.015627552 0.0052187666 -0.014226949 4281434698
0.017171741 0.0068096444 -0.015974803 4281303373
0.019258685 0.0062033683 -0.015679263 4281173324
0.021163836 0.0063295588 -0.016064547 4281108043
0.022879172 0.0071877018 -0.017129021 4280847689
0.02458916 0.0080456138 -0.018192317 4280846923
0.026098602 0.0096347928 -0.019932698 4281044039
0.027597342 0.011223339 -0.021670779 4281043528
0.028884821 0.013542436 -0.024083771 4281500743
0.03035943 0.015129618 -0.025816798 4281435208
0.032440938 0.014523908 -0.025519472 4281435463
0.03536199 0.010996312 -0.02252109 4281436229
0.040210836 0.00089690834 -0.013453312 4281174854
0.04770143 -0.017960198 0.0036925692 4281174854
0.055114493 -0.036077775 0.020136584 4281174854
0.060249425 -0.04615768 0.029146921 4281174599
0.062795997 -0.047476135 0.030068584 4281173833
0.010292187 0.0010668114 -0.012159713 4284446758
0.012381356 0.00045800209 -0.011866623 4281760078
0.01412338 0.0013194904 -0.01293532 4281368143
0.016039036 0.001446031 -0.013322985 4281499724
0.017591465 0.003041774 -0.015069205 4281303628
0.019501816 0.0031682029 -0.015455626 4281238348
0.021412175 0.0032947361 -0.015841961 4281173069
0.023132896 0.0041554272 -0.016905895 4281108299
0.024848256 0.0050159171 -0.017968707 4281043528
0.026363267 0.0066097975 -0.019706905 4281043528
0.028065242 0.0074696168 -0.020766776 4280979013
0.029561484 0.0090625361 -0.022501048 4280978758
0.031250037 0.0099216774 -0.023558041 4280913223
0.032933205 0.01078058 -0.024613857 4280848199
0.03586125 0.0072425008 -0.021625038 4280979524
0.040504429 -0.0021545589 -0.013254502 4281044293
0.047995582 -0.021068446 0.0038489224 4281044293
0.055409394 -0.039240733 0.020252116 4281174853
0.060108855 -0.047886901 0.027895592 4281173834
0.062433165 -0.048477851 0.028142907 4281367633
0.010337517 -0.0012454391 -0.012620059 4284248369
0.01225562 -0.0011189952 -0.01300842 4281825359
0.013997674 -0.0002553165 -0.014075486 4281695819
0.015913174 -0.00012879819 -0.014463132 4281434444
0.017647266 0.00073458999 -0.015528416 4281434444
0.019376017 0.0015977547 -0.016592529 4281303883
0.021286234 0.0017242804 -0.016978841 4281108043
0.023196451 0.0018509328 -0.01736505 4281173834
0.024914531 0.0027137473 -0.018426737 4281239114
0.026627239 0.003576383 -0.019487284 4281304904
0.028532088 0.0037030354 -0.019872151 4281370184
0.030236751 0.0045653209 -0.020930855 4281239623
0.031936035 0.0054273754 -0.021988377 4281109319
0.033629939 0.0062891841 -0.023044735 4281109064
0.036359452 0.0034758151 -0.020738298 4281043018
0.041219074 -0.0066841245 -0.011718282 4281043018
0.048289046 -0.024185233 0.0039991671 4281304393
0.055271134 -0.040943213 0.019020103 4281369674
0.0595305 -0.048147239 0.025304206 4281434444
0.06184911 -0.048740707 0.025551002 4282346069
0.0084619485 -0.0036883131 -0.012694386 4284638774
0.010553107 -0.0043015033 -0.012405043 4283527228
0.012303174 -0.0034352243 -0.0134722 4282087499
0.014047913 -0.002569139 -0.014538233 4281826124
0.015965942 -0.0024424642 -0.014926401 4281434188
0.017702736 -0.0015766993 -0.015990594 4281434699
0.019434191 -0.00071118027 -0.01705364 4281174089
0.021160316 0.00015413016 -0.018115491 4281239113
0.023070388 0.00028076768 -0.01850168 4281238603
0.025172431 -0.00033072382 -0.018213822 4281303883
0.026890527 0.00053440779 -0.019273784 4281369674
0.028800584 0.00066141039 -0.019659694 4281239368
0.030510627 0.001526244 -0.020717861 4281370439
0.032417964 0.0016533285 -0.021103034 4281304903
0.033914566 0.003255263 -0.022830686 4281370439
0.036648575 0.00043345243 -0.020531666 4281500999
0.041721597 -0.010493912 -0.010864774 4281435719
0.049008548 -0.028784133 0.0054825703 4281631813
0.055132888 -0.042645365 0.017788328 4281697094
0.058952872 -0.048398472 0.022719413 4281696329
0.010597628 -0.0066241249 -0.012872898 4282676293
0.012350388 -0.005755499 -0.01393899 4281498704
0.013922092 -0.0041455477 -0.015679564 4281302608
0.015839972 -0.0040188804 -0.016067702 4281238348
0.017938983 -0.0046332851 -0.015781172 4281303884
0.019859586 -0.0045061931 -0.016169671 4281174088
0.021220863 -0.0021565333 -0.018578488 4281303883
0.023133464 -0.0020297244 -0.018965175 4281238348
0.025046058 -0.0019027889 -0.019351779 4281303883
0.027153121 -0.0025160089 -0.019066468 4281303883
0.029068377 -0.0023886636 -0.019453432 4281304394
0.030783802 -0.001521267 -0.020511042 4281174344
0.032493845 -0.00065411627 -0.021567479 4281239623
0.034198515 0.00021280348 -0.022622749 4281239879
0.036936998 -0.0026174113 -0.020331174 4281240133
0.042433597 -0.015055843 -0.0093519781 4281305414
0.049087051 -0.031183235 0.0049492577 4281305414
0.054994658 -0.044347189 0.016556788 4281631813
0.058157418 -0.047901861 0.019474234 4281761609
0.017812707 -0.0062116086 -0.016923808 4280711518
0.019733161 -0.006084539 -0.017312285 4280909398
0.021653626 -0.0059573203 -0.017700657 4281237583
0.023574095 -0.0058299974 -0.018088952 4281237584
0.026069418 -0.0079304725 -0.016464805 4281368909
0.027803622 -0.0070598796 -0.017524756 4281368653
0.02953246 -0.0061895326 -0.018583551 4281173069
0.030856645 -0.003835164 -0.020979531 4281108809
0.032569397 -0.0029656291 -0.022034883 4281108808
0.034481756 -0.0028380975 -0.022420984 4281239879
0.037432406 -0.0064183846 -0.019469243 4281239369
0.042933851 -0.018893637 -0.0085186679 4281108043
0.049378227 -0.034327589 0.005079479 4281042763
0.054640748 -0.045307659 0.014659575 4281172814
0.05758141 -0.048132561 0.016904227 4281431383
0.027856441 -0.016963631 -0.010919893 4281168224
0.030005652 -0.017578475 -0.010646304 4281498703
0.030979451 -0.013725802 -0.014382431 4281368909
0.03212595 -0.010619096 -0.017445492 4281174089
0.03385745 -0.0097461194 -0.01850299 4281239879
0.035583559 -0.0088733509 -0.019559367 4281304393
0.038341731 -0.011719771 -0.01728473 4281173324
0.04343304 -0.022744276 -0.0076947273 4281107789
0.049030203 -0.035250187 0.0032089651 4281173069
0.053856187 -0.044776879 0.011437072 4281237839
0.056787971 -0.047611184 0.013677052 4281953879
0.037911072 -0.019411661 -0.012727147 4282869329
0.04049316 -0.021518767 -0.011129676 4282019669
0.04456114 -0.028845258 -0.0048885564 4281954389
0.049533185 -0.039150558 0.003995019 4281824338
0.053503383 -0.04572349 0.0095498739 4281825359
-0.03405235 -0.013018914 0.0075864932 4281094783
-0.032756016 -0.0084572881 0.003025203 4279129244
-0.030819006 -0.00833226 0.0026310431 4279260058
-0.029111348 -0.0067292526 0.00085117016 4279326103
-0.027179316 -0.0066043288 0.0004581837 4279522709
-0.025367238 -0.0057407022 -0.00062654074 4279721099
-0.023437567 -0.0056157187 -0.0010188883 4280114819
-0.021507733 -0.0054906085 -0.0014111856 4280573563
-0.033963785 -0.016109422 0.007807822 4281094273
-0.032661222 -0.011534281 0.0032550152 4279390619
-0.030718997 -0.011408947 0.002859775 4279128478
-0.028891198 -0.010542333 0.0017732438 4279325340
-0.027068555 -0.0096759573 0.00068790745 4279063198
-0.025251098 -0.0088098124 -0.00039629545 4279325593
-0.023438819 -0.0079439059 -0.001479377 4278933404
-0.021381177 -0.0085590854 -0.0011830917 4279588498
-0.019573942 -0.0076932758 -0.0022649812 4281225853
-0.017641269 -0.0075677857 -0.0026577013 4281881204
-0.033875853 -0.019208372 0.0080229575 4280766599
-0.032567061 -0.014619745 0.0034786258 4279521434
-0.03073138 -0.013750598 0.0023920741 4279128734
-0.028900877 -0.012881674 0.0013066549 4279128988
-0.027075522 -0.012012929 0.00022231787 4278866593
-0.025135592 -0.011887416 -0.00017221831 4278997663
-0.023440376 -0.010276176 -0.001942832 4278866848
-0.021505482 -0.010150798 -0.0023361966 4279325339
-0.019570433 -0.01002527 -0.0027294876 4279653013
-0.017635226 -0.0098996237 -0.0031227404 4279653269
-0.015966162 -0.0082896352 -0.0048876996 4280111758
-0.013900235 -0.0089060068 -0.0045943945 4280505223
-0.011967309 -0.008780174 -0.0049869246 4280767364
-0.033788554 -0.022315882 0.0082319574 4280701318
-0.032582454 -0.01696784 0.003006883 4279325339
-0.030632474 -0.016842045 0.0026100371 4278997663
-0.028910846 -0.01522509 0.00083702989 4278997663
-0.026965857 -0.015099399 0.00044135377 4279063198
-0.025140323 -0.014228396 -0.00064127147 4278997663
-0.023564495 -0.011867575 -0.0030957405 4278932383
-0.021504804 -0.012487039 -0.0028031562 4278932383
-0.019694827 -0.011616714 -0.0038823709 4279522199
-0.017629482 -0.012235574 -0.0035907645 4279521944
-0.015824586 -0.011365332 -0.0046687606 4279980944
-0.014024884 -0.010495327 -0.0057456284 4279915409
-0.012092106 -0.010369517 -0.0061381399 4280439689
-0.0022748858 -0.010481603 -0.0074191815 4282471529
-0.00033880025 -0.010354839 -0.0078118159 4281750389
0.0012833104 -0.008742474 -0.0095632095 4282471783
-0.034020081 -0.023187108 0.0063703647 4280373899
-0.032598116 -0.019320004 0.0025321767 4279521943
-0.030645609 -0.019194081 0.0021347851 4279128478
-0.028921105 -0.017572589 0.0003644377 4279063198
-0.027090333 -0.016699195 -0.00071772374 4278997663
-0.02526477 -0.015826024 -0.0017987415 4278932128
-0.023566484 -0.014205851 -0.0035635494 4279063453
-0.021753952 -0.013333313 -0.0046417546 4278735778
-0.019819178 -0.01320783 -0.0050350223 4279587478
-0.017754145 -0.013828918 -0.0047449861 4279718804
-0.015816435 -0.013703033 -0.0051386859 4279915409
-0.013878591 -0.013577007 -0.0055323187 4280112014
-0.01207874 -0.012704708 -0.0066075115 4280570503
-0.0024005473 -0.012072928 -0.0085716639 4281750134
-0.00061879307 -0.011201069 -0.0096426327 4280898433
0.0010008439 -0.0095844716 -0.011390318 4279784849
0.0026098713 -0.0079684705 -0.013135714 4280702084
0.0043704659 -0.0070976317 -0.014202123 4280571269
0.0062906407 -0.0069714412 -0.014591184 4280767874
0.0082108788 -0.0068451241 -0.014980168 4281226618
0.010301381 -0.007462725 -0.01469395 4280964989
0.011878598 -0.0058481693 -0.016432486 4280573053
0.013796292 -0.005721651 -0.016820684 4280639609
-0.033827633 -0.02705539 0.0072583305 4282471784
-0.032288365 -0.023927137 0.004112524 4280111248
-0.030436561 -0.02305045 0.0030275164 4279259549
-0.028589904 -0.022173978 0.0019436525 4279194013
-0.026981607 -0.019798212 -0.00050786138 4279259804
-0.025269903 -0.01817295 -0.0022721943 4279128988
-0.023568749 -0.016548224 -0.0040343422 4279260569
-0.021628931 -0.016422562 -0.0044287387 4278932383
-0.01981622 -0.015547723 -0.0055052731 4279456665
-0.017878778 -0.015421972 -0.0058990065 4279718804
-0.015941203 -0.015296102 -0.0062926803 4279849873
-0.0140035 -0.01517012 -0.0066863094 4279915409
-0.012203634 -0.01429563 -0.0077598859 4280308618
-0.010408983 -0.013421372 -0.0088323187 4280898434
-0.0084762722 -0.013295345 -0.0092246514 4281487228
-0.0063974634 -0.013917021 -0.008938523 4281159553
-0.0043132231 -0.014538214 -0.0086533967 4281553019
-0.0026775077 -0.012916476 -0.01040124 4280570758
-0.00089839846 -0.012042634 -0.011470063 4280570758
0.00071876124 -0.010421805 -0.013213983 4280243083
0.002643995 -0.010295548 -0.01360427 4279915409
0.0044072866 -0.0094223395 -0.014669599 4280112013
0.0061652996 -0.0085493848 -0.015733784 4279980943
0.0079180077 -0.0076766014 -0.016796833 4280046224
0.0098354667 -0.0075503364 -0.017185165 4280243339
0.011752978 -0.0074239522 -0.017573407 4279915663
0.013495132 -0.0065515265 -0.018634003 4279785103
0.015231971 -0.0056793317 -0.019693431 4280899708
0.017324962 -0.0062984899 -0.019408993 4280114308
0.019423336 -0.0069171339 -0.019125521 4280312444
-0.031654738 -0.030808948 0.007733616 4282340459
-0.029784195 -0.0299289 0.0066464106 4281750899
-0.028032579 -0.028296895 0.0048769834 4280439944
-0.026407868 -0.025913559 0.0024270425 4280177549
-0.024799034 -0.023531102 -1.9631349e-05 4279784338
-0.023084313 -0.021901123 -0.0017812876 4279456663
-0.021380119 -0.020271771 -0.0035406817 4279194268
-0.019432262 -0.020145491 -0.0039366353 4279128478
-0.017614052 -0.019267999 -0.0050125853 4279456409
-0.015801042 -0.01839073 -0.0060873912 4279849618
-0.013993263 -0.017513633 -0.0071610939 4279980943
-0.012052901 -0.017387353 -0.0075551663 4279850383
-0.010252893 -0.016510576 -0.0086270664 4280177548
-0.0083149821 -0.016384214 -0.0090204645 4280242829
-0.0063769519 -0.016257718 -0.0094137881 4280832389
-0.0044388399 -0.016131118 -0.0098070595 4281028993
-0.0029540882 -0.013755307 -0.012227399 4280178059
-0.001177635 -0.012879416 -0.013294118 4279522454
0.0007500574 -0.012753099 -0.013684975 4279784338
0.0028370023 -0.013375886 -0.013401641 4279718803
0.0047675073 -0.013249137 -0.013792882 4279784338
0.006369032 -0.011624612 -0.015530119 4279456663
0.0081271157 -0.010749333 -0.016592598 4279522710
0.0098799132 -0.0098742917 -0.017653918 4279587733
0.011627387 -0.0089994147 -0.018714102 4279260059
0.013720009 -0.0096210465 -0.018431341 4279260059
0.015462205 -0.0087462962 -0.019490289 4278932128
0.017379664 -0.008619532 -0.019878238 4279325339
0.019480385 -0.0092402622 -0.019596837 4279390874
0.022330124 -0.012850098 -0.016641716 4279653269
0.026149563 -0.020194173 -0.010351172 4279785104
0.029831234 -0.026787519 -0.0047389334 4281685364
-0.022236779 -0.029537126 0.0024963999 4282994534
-0.020511016 -0.027902029 0.00073585752 4282732393
-0.018922724 -0.025513984 -0.0017014993 4282467958
-0.017220713 -0.023880191 -0.0034570312 4282009979
-0.015529282 -0.022246905 -0.0052103647 4281551743
-0.013713442 -0.021367155 -0.0062840418 4280569994
-0.011902824 -0.020487621 -0.007356564 4280439179
-0.010097444 -0.019608326 -0.0084279459 4280045968
-0.0082972981 -0.018729173 -0.0094981957 4279849873
-0.0065023899 -0.01785031 -0.010567261 4279915154
-0.0048610345 -0.016219601 -0.012309844 4280373899
-0.0029283166 -0.016093224 -0.012701923 4280046989
-0.00099551678 -0.015966728 -0.013093932 4279850129
0.0010936968 -0.016591601 -0.012812799 4279587989
0.0030293316 -0.016464673 -0.013205195 4279653268
0.0048033595 -0.015586413 -0.014269469 4279653269
0.006243404 -0.01320634 -0.016675459 4279128733
0.0081685334 -0.01307971 -0.017065441 4279849619
0.010263406 -0.0137036 -0.016785005 4279849618
0.012191311 -0.013576537 -0.017175363 4279456409
0.014119241 -0.013449349 -0.017565632 4279063453
0.015869498 -0.012571909 -0.018624524 4279128734
0.017614424 -0.011694677 -0.019682249 4279063453
0.019903228 -0.013066977 -0.018735895 4279390873
0.022759952 -0.016687281 -0.015790319 4279390874
0.026962329 -0.025551684 -0.0081841266 4279128479
0.031228889 -0.034411684 -0.00059081241 4279718804
-0.011478521 -0.025106288 -0.0058136163 4282401658
-0.0096624345 -0.024224043 -0.0068855835 4280700553
-0.0078515671 -0.02334208 -0.0079563512 4280242573
-0.0061913952 -0.021705925 -0.0096996073 4280177038
-0.0045418404 -0.02007027 -0.011440648 4280570248
-0.0027520582 -0.019189298 -0.012506859 4280243083
-0.00081406534 -0.019062467 -0.012899926 4279980943
0.0012801625 -0.019689232 -0.012621464 4279587733
0.0030621663 -0.018808402 -0.013685824 4279522198
0.0046773925 -0.017174408 -0.015419384 4279194268
0.0066103302 -0.017047405 -0.015811058 4279522199
0.0083764791 -0.016167238 -0.01687192 4279718549
0.010476373 -0.01679299 -0.016594129 4279784084
0.012065075 -0.015160203 -0.018321985 4279325338
0.014167726 -0.015785567 -0.018044522 4279259803
0.016098216 -0.015658081 -0.018435219 4279390873
0.018028736 -0.015530452 -0.018825809 4279521943
0.020142153 -0.016154677 -0.018550294 4279194268
0.022817634 -0.019033827 -0.016279208 4279259803
0.027396884 -0.029427625 -0.0073626707 4278997663
0.031860087 -0.039064862 0.00087435171 4279194268
-0.00032665953 -0.023678936 -0.01137122 4282993514
0.0016219616 -0.02355127 -0.011766336 4281945464
0.0034120008 -0.022667736 -0.012830707 4280570758
0.0048741102 -0.020273238 -0.015231514 4280243084
0.0068122372 -0.020145893 -0.015624238 4280373643
0.0087504238 -0.020018414 -0.016016873 4280045713
0.010858003 -0.020645842 -0.015742267 4279456154
0.012454931 -0.019008182 -0.017468495 4279587479
0.014041193 -0.017371103 -0.019192474 4279260313
0.016326256 -0.018752657 -0.018252073 4279784339
0.018081922 -0.017870359 -0.019308714 4279718803
0.02019769 -0.01849661 -0.019035289 4279980943
0.023060363 -0.02213838 -0.016107174 4279456663
0.027642338 -0.032562576 -0.0072139497 4279195034
0.005392462 -0.024896115 -0.013715367 4283319659
0.0075049512 -0.025525697 -0.013443585 4281355393
0.0094563514 -0.025397338 -0.01383889 4280569483
0.011576965 -0.026026115 -0.013568564 4280045968
0.013015606 -0.023626119 -0.015959304 4279849618
0.014787272 -0.022740841 -0.017017758 4279391128
0.016730815 -0.022612505 -0.017411103 4279653524
0.018494513 -0.021727443 -0.018467786 4279456665
0.020435426 -0.021599017 -0.018860402 4279325593
0.023302415 -0.025251396 -0.01594127 4279587733
0.027699225 -0.034949996 -0.0077331327 4279981199
0.016228996 -0.03116861 -0.012207097 4282798184
0.017842405 -0.029520832 -0.013930018 4282011508
0.019445151 -0.027873665 -0.015650645 4281290623
0.021401946 -0.027744181 -0.016046464 4280308364
0.024098903 -0.03064812 -0.013799231 4280242828
0.027943498 -0.038099743 -0.0075950436 4280439689
0.025078505 -0.03682702 -0.011013772 4282471528
0.027812025 -0.039737128 -0.008780323 4282340714
-0.0017436929 0.0028386116 0.035419762 4284967214
0.00026443228 0.0029700696 0.035012502 4285228844
-0.0073058903 0.0079429075 0.027900886 4285034533
-0.0060463026 0.011582166 0.023934085 4285624349
-0.0043725036 0.013114415 0.022110082 4285820953
-0.0024100281 0.013242856 0.021712054 4285886234
0.00077098608 0.0077599213 0.027004886 4285952023
0.0041499473 0.0015786439 0.032999884 4285820954
0.012846503 -0.00069583952 0.034206405 4285032748
-0.0087073222 0.012649804 0.020311452 4285296929
-0.0071828663 0.014890134 0.017780319 4285690138
-0.0056743622 0.017129563 0.015252453 4285558304
-0.0035839789 0.016552776 0.015569069 4285558304
-0.00072747841 0.012458198 0.01943345 4285624348
0.002161257 0.0083658919 0.023291323 4285624604
0.0047672503 0.0056823418 0.025725432 4285624859
0.0069142655 0.0051096752 0.026030876 4285559069
0.0085782073 0.0066462532 0.024212573 4285493534
0.0099004656 0.0095877871 0.020982407 4285296164
0.011537775 0.011122882 0.019169629 4285754654
0.014360555 0.0077404752 0.022300757 4285754398
0.018251508 0.00014653057 0.029659044 4285754143
-0.011345088 0.013736919 0.016697533 4284903718
-0.009681806 0.015277043 0.014881966 4285624603
-0.0080291033 0.016816542 0.013068664 4285952788
-0.0062403679 0.017649263 0.011966814 4285821464
-0.004158318 0.017069712 0.012283471 4285755929
-0.0016149282 0.014373071 0.014723578 4285821718
0.00094996393 0.01167798 0.017159346 4285690138
0.0033790842 0.0096898451 0.018883821 4285558813
0.0051844008 0.010524169 0.017778985 4285558813
0.0068217739 0.012063421 0.015969284 4285624604
0.0081178434 0.015011959 0.012750995 4285624094
0.0097285882 0.016549669 0.010946845 4285492513
0.012182191 0.014563687 0.012666748 4285426723
0.015172042 0.010465555 0.016494866 4285820699
0.018898308 0.0035526156 0.023129653 4285492768
0.022678178 -0.0033566877 0.029753659 4285426978
-0.011886403 0.014260836 0.013408751 4285100579
-0.010230929 0.015804768 0.011598055 4285559069
-0.0082985312 0.01593098 0.011205931 4285690393
-0.0066588596 0.017474122 0.0093985489 4285690138
-0.0044333488 0.016183734 0.01042184 4285690139
-0.0020452589 0.014186151 0.012149521 4285624348
0.00051346421 0.011481822 0.014580046 4285558814
0.0024651699 0.011609815 0.0141844 4285558814
0.0040973313 0.013152957 0.012378973 4285558814
0.005718857 0.01469554 0.010575733 4285690394
0.0073297657 0.016237497 0.0087747751 4285755673
0.0089300238 0.017778903 0.0069760038 4285558304
0.011031218 0.017199181 0.0072878012 4285492513
0.01365741 0.014500067 0.0097051607 4285558304
0.016832728 0.0096830204 0.014223342 4285690394
0.019509897 0.0069874451 0.016630586 4285427488
-0.012150191 0.013375945 0.0115451 4285297439
-0.010497168 0.014924139 0.0097381072 4285559069
-0.0085675642 0.015050143 0.0093465382 4285624349
-0.0066378415 0.015176274 0.0089550288 4285624093
-0.0045590624 0.014592029 0.0092690969 4285558558
-0.0021716133 0.012587816 0.010992005 4285558559
-7.6580793e-05 0.012004882 0.011302878 4285558813
0.0018669628 0.012132332 0.010908878 4285559069
0.0034913123 0.013679333 0.0091082854 4285558813
0.0051050335 0.015225731 0.0073099295 4285558814
0.0067081228 0.016771592 0.0055137696 4285756183
0.008468248 0.017607614 0.0044215666 4285821973
0.010393426 0.017734386 0.0040316777 4285756183
0.01283773 0.015734695 0.0057437317 4285821208
0.01547385 0.013027571 0.0081526311 4285624349
0.017953064 0.011030413 0.0098577878 4285165093
-0.014480829 0.013083398 0.0093704062 4285100324
-0.012689672 0.013922475 0.0082726786 4285493534
-0.010903731 0.014761314 0.0071760761 4285886744
-0.0088362023 0.014173962 0.0074905893 4285952534
-0.0066171214 0.012874223 0.0085085453 4285821464
-0.0043872222 0.011575356 0.0095243463 4285558558
-0.0024493635 0.01170221 0.0091313319 4285624349
-0.0005114153 0.01182916 0.0087383622 4285559324
0.0011130646 0.013380416 0.0069409171 4285559324
0.0027269162 0.014931135 0.0051456532 4285558814
0.0044922978 0.015769482 0.0040538656 4285558814
0.0062523969 0.016607575 0.002963216 4285558813
0.0081746988 0.016734049 0.0025738264 4285624349
0.010097064 0.016860619 0.0021844925 4285558559
0.012365181 0.015565209 0.0031932658 4285558814
0.014819596 0.013559721 0.0048984522 4285427998
0.016933698 0.012976833 0.0052045705 4285099304
-0.014876023 0.012926035 0.0068095801 4285362719
-0.013090193 0.01376693 0.0057145422 4285755419
-0.011309549 0.014607646 0.0046206014 4285689629
-0.0091044381 0.01330249 0.0056380378 4285755419
-0.0068885237 0.011998191 0.0066533154 4286018579
-0.0046617687 0.010694668 0.0076665236 4285624348
-0.0025754645 0.010106646 0.0079758177 4285624348
-0.00079158321 0.010948054 0.0068816477 4285559068
0.00083043799 0.012503579 0.005087913 4285559068
0.0022825524 0.014772601 0.0025963234 4285624349
0.0040426031 0.015612796 0.0015071714 4285624349
0.0057973862 0.016452722 0.00041922834 4285624349
0.008048851 0.015151575 0.0014279867 4285624093
0.0099710934 0.015278146 0.0010386864 4285493023
0.012238726 0.013978317 0.0020442875 4285559069
0.014341764 0.013392374 0.0023509087 4285297438
0.016450211 0.01280687 0.0026565725 4285234709
-0.017453305 0.014089108 0.0032368973 4285035299
-0.015540555 0.014213629 0.0028484622 4285559833
-0.013627656 0.014338292 0.0024600867 4285558558
-0.011854999 0.015180595 0.0013694167 4285558049
-0.009801466 0.014587902 0.0016834615 4285558048
-0.0074509867 0.012561217 0.0033990303 4285689629
-0.0050843358 0.010535739 0.0051113451 4285821209
-0.0031547844 0.010661997 0.0047199754 4285624349
-0.001225125 0.010788374 0.0043286653 4285558813
0.00039176643 0.012347877 0.0025392631 4285690139
0.0018389001 0.014623173 5.3516589e-05 4285690138
0.0035936572 0.015465185 -0.0010328749 4285821464
0.0055075996 0.015590958 -0.0014206814 4285887253
0.0077558905 0.014285259 -0.00041458476 4285887509
0.0096753128 0.014411613 -0.00080333371 4285624603
0.011939794 0.013107143 0.00019968022 4285493278
0.014215022 0.011803545 0.0012005614 4285165604
-0.018369928 0.016835928 -0.0021181665 4285296928
-0.016203634 0.01551915 -0.0010996833 4285559324
-0.014439099 0.016363002 -0.0021871682 4285887509
-0.012539566 0.016486861 -0.002572774 4285887254
-0.010497052 0.015891232 -0.0022581341 4285821464
-0.0080123581 0.01313781 0.00015448127 4285887509
-0.0056543909 0.01110512 0.001863692 4285690138
-0.0037329979 0.011230834 0.0014739688 4285558814
-0.0018114969 0.011356659 0.0010842988 4285558813
0.00011009723 0.011482604 0.00069470052 4285690138
0.0017138869 0.013045773 -0.001088758 4285689628
0.0033070669 0.014608316 -0.0028699404 4285558048
0.0050539039 0.015452087 -0.0039530331 4285558048
0.007296361 0.014141597 -0.002949032 4285821464
0.0095495768 0.012831926 -0.0019471319 4285690139
0.011813574 0.011523031 -0.00094728451 4285559068
0.013913315 0.010932483 -0.00064325705 4284902444
-0.020130001 0.013705865 -0.0014613708 4284903464
-0.018492371 0.015274487 -0.0032492122 4285362463
-0.016595915 0.015397906 -0.0036343699 4285493533
-0.014836691 0.016243622 -0.0047192024 4285559068
-0.013082691 0.017089061 -0.0058028577 4285624603
-0.010905765 0.015768863 -0.0047895228 4285624858
-0.0085726641 0.013727896 -0.0030802926 4285558814
-0.0062233694 0.011688046 -0.0013742233 4285558814
-0.0046116039 0.013255745 -0.0031562438 4285559069
-0.002703622 0.013380669 -0.0035431823 4285558814
-0.00079554692 0.013505712 -0.0039300555 4285690394
0.0011126176 0.013630867 -0.0043168697 4285953044
0.0025365353 0.015917875 -0.0067880535 4285623838
0.0042727031 0.016763121 -0.0078673689 4285623839
0.0066707581 0.014727302 -0.0061706444 4285624348
0.0089154728 0.013412632 -0.0051702461 4285624604
0.011170939 0.012098826 -0.0041719875 4285427743
-0.018087402 0.010814555 -0.0015832912 4285493533
-0.016314909 0.011663198 -0.0026692851 4285559068
-0.014684789 0.013235904 -0.0044521908 4285493533
-0.012925386 0.014083862 -0.0055353334 4285493279
-0.010886148 0.013483614 -0.0052233073 4285427743
-0.0086962245 0.012160011 -0.0042158547 4285493789
-0.0066433623 0.01156082 -0.0039063925 4285493788
-0.0051873028 0.013856046 -0.0063795443 4285493788
-0.0034407228 0.014703713 -0.0074596731 4285559069
-0.0015434846 0.014828034 -0.0078443578 4285559069
0.00051242113 0.014229529 -0.0075352294 4285821719
0.0020899624 0.015799835 -0.0093067801 4285821719
0.0038208216 0.016646914 -0.010383389 4285887508
0.0060462542 0.015326478 -0.0093824314 4286018579
0.0086210333 0.012562379 -0.0070004179 4285558558
0.01087334 0.011243992 -0.0060047726 4285296419
-0.017552108 0.0056104138 0.0007676594 4285427234
-0.015900545 0.0071888119 -0.0010164883 4285492514
-0.014122516 0.0080400407 -0.002101874 4285426979
-0.012629069 0.010343842 -0.0045780572 4285360679
-0.01072447 0.010468058 -0.0049646697 4285295143
-0.0088197403 0.010592416 -0.0053512077 4285294889
-0.006767191 0.0099910051 -0.0050433255 4285164074
-0.0053107515 0.01229281 -0.0075116786 4285164073
-0.0035641342 0.013142645 -0.0085902018 4285427998
-0.0018227845 0.013992302 -0.0096676098 4285427999
7.1730465e-05 0.014116548 -0.010051659 4285427743
0.0014830455 0.016415812 -0.012510489 4285427489
0.0033696778 0.016539745 -0.012892793 4285427743
0.0054228194 0.015939198 -0.012584488 4285493534
0.007819619 0.013890199 -0.010897181 4285428253
-0.017544463 0.0033009574 0.00031887367 4285163563
-0.015487507 0.0026971027 0.00062376074 4285163818
-0.013835564 0.0042799488 -0.0011570938 4285295143
-0.012333721 0.0065908432 -0.0036301129 4285360934
-0.010563418 0.007443957 -0.0047121495 4285295399
-0.0087983608 0.0082968548 -0.0057930406 4285229608
-0.0067434423 0.0076934248 -0.0054873191 4285229353
-0.0049835071 0.0085462034 -0.0065670013 4285163819
-0.0030759349 0.0086710677 -0.0069538853 4285097773
-0.0014794096 0.010251112 -0.0087229572 4285295654
0.00010650605 0.011830546 -0.010489747 4285427234
0.0018427037 0.012682267 -0.011564321 4285295653
0.0037372336 0.012806728 -0.011948218 4285361698
0.005798094 0.012204446 -0.011643072 4285362208
0.0080333017 0.010876022 -0.010650592 4285296673
-0.017405793 0.00025611371 0.00056150276 4285098285
-0.015477777 0.00038149208 0.00016986672 4285163818
-0.013686292 0.0012379512 -0.00091500767 4285294889
-0.012178726 0.0035557523 -0.0033843257 4285295144
-0.010261022 0.0036808103 -0.0037736148 4285295143
-0.0086325817 0.0052668229 -0.0055461992 4285295143
-0.0064252689 0.0039312616 -0.0045520123 4285294888
-0.0045072362 0.0040566772 -0.0049411152 4285098028
-0.0024363771 0.0034522712 -0.0046400614 4285097773
-0.00082626939 0.0050375834 -0.0064086337 4285163053
0.00061517954 0.0073518306 -0.0088638887 4285361189
0.0022013672 0.0089358017 -0.010627447 4285361188
