# .PCD v0.7 - Point Cloud Data file format
VERSION 0.7
FIELDS x y z rgba
SIZE 4 4 4 4
TYPE F F F U
COUNT 1 1 1 1
WIDTH 966
HEIGHT 1
VIEWPOINT 0 0 0 1 0 0 0
POINTS 966
DATA ascii
0.0010909215 -0.032441266 -0.0059852875 4288230958
0.0033807419 -0.033834696 -0.0050701555 4288427308
0.0051859654 -0.032937996 -0.0061401329 4288362029
0.0068181194 -0.031278543 -0.0078693861 4288362029
0.0087805651 -0.0311452 -0.008276538 4288033589
0.010916196 -0.031774335 -0.0080242362 4287968053
0.01376041 -0.035452381 -0.0051378217 4287836984
0.016452894 -0.038366303 -0.0029150676 4287640379
-0.015032485 -0.033576675 -0.0052261073 4286920513
-0.013073809 -0.033445001 -0.0056335386 4288229684
-0.010971438 -0.034079909 -0.0053770673 4288099124
-0.0091561228 -0.03318125 -0.0064481846 4288099634
-0.0071971193 -0.033049181 -0.0068553998 4288099888
-0.0050864331 -0.033683166 -0.0066003818 4288558123
-0.0031245686 -0.033550613 -0.0070079765 4289016360
-0.00084875524 -0.034949653 -0.0060933623 4288820009
0.0011186115 -0.034816496 -0.0065019298 4288558123
0.0034105889 -0.036214121 -0.0055905115 4288492844
0.0050535686 -0.03454978 -0.0073188115 4288623659
0.0068535283 -0.033651136 -0.0083859768 4288362029
0.0089887679 -0.034282528 -0.0081353541 4288034608
0.011129394 -0.034913443 -0.0078857597 4288034099
0.013802268 -0.037837543 -0.0056655984 4287772215
0.016318247 -0.03999567 -0.0041063935 4287509819
-0.015162773 -0.035181455 -0.0064000618 4287182909
-0.013204232 -0.035049796 -0.0068074595 4288295219
-0.011245601 -0.034917988 -0.0072147828 4288230449
-0.0094329305 -0.034017362 -0.0082837362 4288230958
-0.0074767433 -0.033885472 -0.0086903628 4288362029
-0.0053690597 -0.034521818 -0.0084363464 4288492844
-0.0032559447 -0.035157681 -0.008183362 4289146918
-0.0011373945 -0.035793103 -0.0079313796 4289016103
0.00082714483 -0.03566014 -0.0083393585 4288426798
0.0029538423 -0.036294676 -0.0080888998 4288034353
0.0050859489 -0.036928743 -0.0078394767 4288295983
0.0070560351 -0.036795005 -0.0082483049 4288165423
0.009366367 -0.038195357 -0.0073436853 4287838004
0.011341896 -0.038060986 -0.0077534448 4287706933
0.013668347 -0.039460011 -0.0068519246 4287837238
0.016005509 -0.040858112 -0.0059525538 4287051583
-0.01543089 -0.036014475 -0.0082355347 4288099378
-0.013334632 -0.036654279 -0.0079811644 4288230194
-0.011376143 -0.036522515 -0.0083884727 4287903540
-0.0094175488 -0.036390595 -0.0087956991 4287969074
-0.0076074265 -0.035487823 -0.0098623801 4287969073
-0.0053488351 -0.036896929 -0.0089509729 4287903283
-0.003387291 -0.036764435 -0.0093585309 4288295728
-0.001269076 -0.037402056 -0.0091081094 4288099378
0.00069530308 -0.037269123 -0.0095160659 4288229939
0.0028216653 -0.037905864 -0.0092671718 4288099124
0.0049534328 -0.038542122 -0.0090193208 4287902774
0.0070905983 -0.039177872 -0.0087724719 4288033589
0.0090632476 -0.039043836 -0.0091817435 4287641144
0.011208531 -0.039678782 -0.0089363959 4287575353
0.013359204 -0.040313281 -0.0086920243 4287509819
-0.015560918 -0.037616469 -0.0094074439 4287707188
-0.013605364 -0.037485026 -0.0098142494 4287903283
-0.011792749 -0.036580183 -0.010880014 4288099889
-0.0096939318 -0.037221737 -0.010627629 4287904304
-0.0078864545 -0.036316961 -0.01169212 4288034864
-0.005631052 -0.037730642 -0.01078332 4287575608
-0.0036723316 -0.037598357 -0.011190305 4287968053
-0.0017135292 -0.037465923 -0.011597192 4287771449
0.00040442124 -0.038105555 -0.011348302 4287902008
0.0023660399 -0.037972674 -0.011755591 4287836728
0.0046565421 -0.039383359 -0.010853546 4287705659
0.0066236295 -0.039249845 -0.011261767 4287444029
0.0087605156 -0.039887659 -0.011016401 4287378749
0.010730382 -0.03975369 -0.011424998 4287116864
0.012525216 -0.038848482 -0.01248589 4287508544
0.030013688 -0.00073282421 0.034677856 4281500998
0.044367179 -0.00046332926 0.032446742 4281958978
0.045097001 0.0038805678 0.027859196 4279810349
0.048194274 0.00051582605 0.030915938 4279611958
0.022886623 0.00071812421 0.031223033 4283335978
0.023573481 0.0057889149 0.025915585 4282027064
0.024414122 0.010152578 0.021314252 4281438779
0.025804315 0.012400843 0.018812731 4280590904
0.028357822 0.010422505 0.020497531 4280003383
0.031724315 0.0056290776 0.024965413 4279222573
0.03452253 0.0029499754 0.027337529 4280981308
0.036523789 0.0030873343 0.026923358 4281371458
0.038317759 0.0039283112 0.025814351 4281502019
0.039476536 0.0068790764 0.02262339 4281504314
0.040188648 0.011234768 0.018049296 4281439033
0.041514467 0.013479449 0.015561725 4280850494
0.044349931 0.010803558 0.017926618 4280980288
0.048971843 0.0025083497 0.025824517 4280394300
-0.043004967 0.0061504915 0.031903442 4281629263
-0.041456833 0.0091322735 0.028635122 4281368908
-0.039613388 0.0099749044 0.027514566 4280134454
-0.037126161 0.0065427199 0.030678332 4280328254
-0.028571717 0.0027969256 0.033315033 4281632579
-0.02695933 0.0050639659 0.03077025 4281305414
-0.025859483 0.010175504 0.025386661 4281435973
-0.024543144 0.013862267 0.021430876 4280327743
-0.022346742 0.012570344 0.022446632 4280065858
-0.019875094 0.0098576769 0.024877846 4279479104
-0.017247029 0.0064358339 0.028013058 4280588353
-0.015417308 0.007278733 0.026896168 4281830204
-0.013732992 0.0088315904 0.025073282 4283463734
0.019779332 0.010384806 0.018853687 4282420783
0.020989589 0.013346992 0.015657999 4281115694
0.021987431 0.01701463 0.011770179 4281373498
0.023539651 0.018560611 0.0099762818 4281502529
0.025866669 0.017280146 0.010966807 4281371969
0.02919966 0.012469091 0.015430163 4280850493
0.03216663 0.0090729073 0.018496953 4280785724
0.034342729 0.0085023344 0.018782772 4281438269
0.035902932 0.010049388 0.016987622 4281503294
0.037242629 0.012301378 0.014501962 4280526133
0.038141392 0.015963078 0.010635293 4280199733
0.040088877 0.016097158 0.010232569 4281371713
0.042689636 0.014116384 0.011903238 4281436738
0.047290485 0.0057935342 0.01978578 4281241409
-0.045385428 0.0065541193 0.028988875 4282084949
-0.044434033 0.013835654 0.021442853 4280979524
-0.042919993 0.016823865 0.018188182 4280916284
-0.041216478 0.018381115 0.016363651 4281632834
-0.038983561 0.016364641 0.018102657 4280655419
-0.036623806 0.013634898 0.020550042 4280200498
-0.034242451 0.010906748 0.022992972 4281177659
-0.032419458 0.011750519 0.021878563 4280980289
-0.030482948 0.011880144 0.021475323 4281110338
-0.028910205 0.014151037 0.01894369 4280588863
-0.027477317 0.017134547 0.01570648 4280915008
-0.025938943 0.019403379 0.013182118 4281697604
-0.023769744 0.018105272 0.014200174 4281371713
-0.021325655 0.01538194 0.016630583 4281046843
-0.018725336 0.011947334 0.019763269 4281374009
-0.016510196 0.010652557 0.020772032 4281635128
-0.014844351 0.012208574 0.018956229 4284708135
0.016951025 0.011476122 0.015294495 4284185129
0.018532846 0.01302816 0.013497512 4282551854
0.019915808 0.015288822 0.011007187 4281440564
0.021091901 0.018257514 0.007825234 4280397614
0.022633657 0.019807138 0.0060367798 4280330038
0.024949476 0.01852154 0.0070263417 4280134964
0.028071493 0.014402829 0.01078733 4279613999
0.031024046 0.010994755 0.013848892 4281242685
0.032982238 0.011129163 0.013443646 4281372988
0.034526605 0.01267954 0.011655009 4281307708
0.035850693 0.014936976 0.0091775684 4281112124
0.036946438 0.017901003 0.0060128765 4279549228
0.03931025 0.016619451 0.0069930619 4280134964
0.041902319 0.014631495 0.0086606527 4280134964
0.046052262 0.007695742 0.015147678 4280199224
0.051816247 -0.0041839704 0.026442565 4280459578
-0.046096951 0.009254314 0.023537129 4281368908
-0.045159921 0.016556673 0.016010486 4279743284
-0.043558851 0.018835377 0.013477339 4280785724
-0.041763321 0.019679096 0.012369991 4281372224
-0.039649539 0.018372077 0.013395756 4280785468
-0.037414394 0.016349308 0.015129368 4280003893
-0.035163023 0.014327668 0.016859706 4280784958
-0.033242859 0.014456056 0.016459767 4280980799
-0.031322494 0.014584556 0.016059853 4280915774
-0.029886514 0.017576888 0.012828489 4280198969
-0.028224088 0.019136366 0.011016247 4279547954
-0.026445694 0.01997973 0.0099129835 4280851769
-0.02415581 0.017961219 0.011635729 4281047099
-0.021849729 0.015943922 0.013355191 4280788273
-0.019392952 0.01321277 0.015776429 4280919088
-0.017463349 0.013342574 0.015375116 4281831224
-0.015953161 0.015616521 0.012861884 4284445484
0.017659184 0.014275007 0.0095498888 4283468833
0.018843878 0.017252922 0.0063726483 4281177404
0.020197853 0.019518252 0.0038933391 4280981053
0.022309154 0.018938411 0.0041890172 4281112379
0.024621811 0.01764822 0.0051759342 4281112379
0.027541224 0.014226839 0.0082360609 4281372733
0.030487381 0.010807388 0.011290724 4281372988
0.032644127 0.01023113 0.01157727 4281372733
0.034186073 0.011785686 0.0097924871 4281372989
0.035507888 0.014049567 0.0073203994 4281242939
0.036601581 0.017022178 0.0041627726 4281242939
0.038747489 0.016445585 0.0044518774 4281307454
0.041116104 0.015160106 0.0054278681 4281307709
0.045035969 0.0089110211 0.011213186 4281307199
0.050117709 -0.00087971985 0.020422623 4281372223
-0.046612427 0.010541663 0.019527368 4281630284
-0.045584798 0.017145693 0.01272972 4280981308
-0.043991297 0.019430354 0.01020309 4279612979
-0.042098783 0.0195565 0.0098086065 4279808054
-0.03999079 0.018244747 0.010832225 4279090483
-0.037761651 0.016214922 0.012562157 4280133689
-0.035742186 0.015623629 0.012872898 4280915008
-0.033717178 0.015032806 0.013182553 4280849983
-0.031923242 0.01587902 0.012077495 4280915773
-0.030376405 0.01816126 0.0095610274 4280981818
-0.02872175 0.019724563 0.0077536749 4280721209
-0.026824988 0.01985174 0.0073588761 4280005168
-0.02454111 0.017826252 0.0090779224 4280982328
-0.022241041 0.015801996 0.010793627 4281048118
-0.019924767 0.013778888 0.012506082 4281307964
-0.017866313 0.013191074 0.012809354 4281832243
-0.01636105 0.015471227 0.010302075 4284053294
0.017157268 0.014112115 0.007001224 4281897268
0.018712815 0.015671253 0.0052162958 4281177149
0.020067211 0.017943185 0.0027418388 4281176638
0.021985032 0.018074386 0.0023446186 4281438014
0.024098698 0.017492607 0.002638231 4281372989
0.02681322 0.014772743 0.0050013093 4281503294
0.029951483 0.01062908 0.0087392451 4281503548
0.032102559 0.010050245 0.0090253232 4281438269
0.034052443 0.010184191 0.008621878 4281242684
0.035374675 0.012454681 0.006154648 4281307709
0.03689272 0.01401218 0.0043782657 4281242173
0.038400017 0.015569054 0.00260418 4281242173
0.040548243 0.014990568 0.0028912565 4281112123
0.044021156 0.010144174 0.0072917622 4281046589
0.048644342 0.0017443523 0.015110613 4281503294
0.063097343 -0.030680217 0.04575865 4281503038
-0.046932869 0.010403 0.016950008 4281695564
-0.046008527 0.017748117 0.0094588203 4281111358
-0.044422641 0.020038828 0.0069386335 4281111614
-0.042433478 0.019443013 0.0072537968 4281175873
-0.040331282 0.018126421 0.0082753533 4281110593
-0.038108118 0.016089663 0.010001539 4280914498
-0.035981514 0.014774874 0.011018137 4280914754
-0.034074925 0.014902301 0.010620979 4281045313
-0.032286271 0.015750311 0.0095186392 4281046845
-0.03062357 0.017318428 0.0077127544 4281111870
-0.028971352 0.018885903 0.0059091756 4281242685
-0.027203515 0.019732878 0.0048113605 4281373244
-0.025054455 0.018420164 0.0058237081 4281373243
-0.022763036 0.016388707 0.0075363191 4281569339
-0.02045545 0.014358476 0.0092455791 4281373499
-0.018405333 0.013767891 0.0095489239 4281701684
-0.016768187 0.015334956 0.0077489307 4283662124
0.017210953 0.011810392 0.0065331766 4284646679
0.018769406 0.013374098 0.0047509326 4281635639
0.020126894 0.015652739 0.0022807987 4281438524
0.021468338 0.017930441 -0.00018596742 4279549228
0.023380686 0.018061385 -0.00058196578 4279158568
0.026086319 0.015332155 0.0017763684 4278506789
0.029416323 0.0104599 0.0061943699 4279549485
0.031969082 0.0084490776 0.0078549171 4281176638
0.034331515 0.0071540177 0.0088252956 4281242429
0.035659529 0.0094314069 0.0063618459 4281177148
0.03697145 0.011707842 0.0039017638 4281111614
0.038052913 0.014697246 0.00075986888 4280004659
0.039764069 0.015543923 -0.00032343809 4279417393
0.042788114 0.012108773 0.0026992718 4279221553
0.046950795 0.0051085278 0.0091344593 4279481398
0.054092731 -0.01115986 0.024438135 4279481398
0.061813086 -0.028845757 0.04108147 4279222319
-0.047155939 0.0095492899 0.015087313 4281826378
-0.046034127 0.015468247 0.0090277186 4281110848
-0.044547066 0.018489435 0.0058048489 4281046079
-0.042662777 0.01861497 0.00541203 4280783938
-0.040670998 0.018017203 0.0057250569 4280719168
-0.038453832 0.015973404 0.0074475715 4280849474
-0.036220431 0.01393079 0.0091667818 4280979780
-0.034316629 0.014057986 0.0087701762 4280914498
-0.032412641 0.014185302 0.008373606 4281046334
-0.030629084 0.015035272 0.0072739786 4281111359
-0.028973974 0.01660727 0.0054730559 4281046333
-0.027455322 0.018900856 0.0029724212 4280265269
-0.025566667 0.019027524 0.0025793267 4280005168
-0.023152627 0.016267121 0.0049896082 4280005168
-0.020851038 0.014229864 0.0066952156 4281374263
-0.018396623 0.011472367 0.0090972418 4281766453
-0.016617268 0.012322761 0.0079990262 4282421293
0.016894769 0.010940917 0.0046826918 4283012129
0.018638216 0.011790827 0.0035934029 4281832243
0.019805994 0.014793895 0.00043946411 4281438778
0.0209524 0.017795574 -0.0027099131 4279549738
0.022663789 0.018643618 -0.003792326 4279875119
0.025162399 0.016622297 -0.0021256721 4279027498
0.028681112 0.011016823 0.0029697781 4278376484
0.03142865 0.0082819685 0.0053130407 4280981053
0.033785231 0.0069821328 0.0062813405 4281306943
0.035108302 0.0092657954 0.0038238112 4281306944
0.036626808 0.010832079 0.002053909 4281111614
0.03727784 0.015262373 -0.0024482468 4281046079
0.039197877 0.015394732 -0.0028451709 4281436739
0.041776448 0.013379849 -0.0011944282 4281306178
0.045482047 0.0077880993 0.0038630217 4279677239
0.051704042 -0.0056701973 0.016407426 4279156273
0.059848003 -0.024843283 0.034377933 4279808054
-0.047282197 0.0079739392 0.013934468 4281562199
-0.046258152 0.014636539 0.007181826 4280914498
-0.044773184 0.01766628 0.0039659319 4280067643
-0.042996086 0.018517349 0.0028688842 4278437683
-0.040902853 0.017191403 0.0038856352 4278763573
-0.036683768 0.014541902 0.0059125843 4280979523
-0.034673005 0.013943471 0.0062202001 4280980034
-0.032656722 0.013345495 0.00652673 4281111358
-0.030875772 0.014197394 0.0054293098 4280916284
-0.029469319 0.017222658 0.0022303527 4280850494
-0.027832493 0.01879786 0.00043657143 4278962474
-0.025820836 0.018199988 0.0007443754 4280263229
-0.023541436 0.016154565 0.0024495786 4279221553
-0.02124586 0.014110379 0.0041514467 4280853809
-0.018934086 0.012067333 0.0058500664 4281570359
-0.017162688 0.012919307 0.0047551673 4282093874
0.016394388 0.010796539 0.0021474902 4283273503
0.017945282 0.012368403 0.00037341472 4282028849
0.019105632 0.015379697 -0.0027724085 4280267309
0.020629806 0.016949996 -0.0045408262 4281242683
0.022338588 0.017800022 -0.0056209946 4281633088
0.024833836 0.015771925 -0.0039585745 4281047099
0.027947009 0.011587255 -0.00024501141 4280786234
0.030888956 0.0081239864 0.0027777683 4280916028
0.03303371 0.0075382888 0.0030603148 4281111104
0.034557834 0.0091092214 0.0012924597 4281241153
0.035437241 0.012835167 -0.0025208606 4280329273
0.036503863 0.01584103 -0.0056465315 4279742519
0.038415749 0.01597283 -0.0060417717 4281241665
0.040766265 0.014668785 -0.0050750664 4281566533
0.044237543 0.0097765401 -0.00070856651 4281044804
0.049543742 -0.00085393339 0.0090888431 4280784194
0.057885885 -0.020805366 0.027700324 4280784194
0.065227441 -0.037160113 0.042887382 4280654144
-0.04769709 0.0085843951 0.010667252 4281562198
-0.046481773 0.013809532 0.00533929 4280849473
-0.044998869 0.016847767 0.002130405 4279937083
-0.043224387 0.017700858 0.001035477 4280654143
-0.041348122 0.017825857 0.00064433273 4280067898
-0.039252497 0.016495727 0.00165739 4278438193
-0.037258238 0.015893869 0.0019667028 4280915008
-0.035143524 0.014565252 0.0029758895 4281046079
-0.033135548 0.013964459 0.0032825219 4281111614
-0.031242296 0.014091089 0.0028882166 4280850494
-0.029717676 0.016398013 0.00039607007 4280263483
-0.027957685 0.017250858 -0.00069521833 4281110594
-0.025946341 0.016650744 -0.00038901996 4281305923
-0.023798548 0.015324935 0.00061372574 4281110848
-0.021639906 0.013999902 0.0016143294 4281177404
-0.019470446 0.012675747 0.0026127165 4281177658
-0.017568067 0.012803704 0.0022170441 4281504313
0.017066382 0.013681866 -0.0035227193 4282420018
0.018406373 0.015978999 -0.0059744837 4280590648
0.019730331 0.018275153 -0.0084228432 4279939633
0.021623554 0.018404789 -0.0088148816 4280786489
0.024110105 0.016369559 -0.0071555795 4280525624
0.027013581 0.012892619 -0.0041331383 4279808563
0.029943775 0.0094176382 -0.0011161412 4280785469
0.032077529 0.0088289753 -0.00083289994 4281176383
0.033799637 0.0096826926 -0.0019138153 4281176384
0.034671806 0.013419054 -0.00571742 4280784703
0.03551719 0.017153673 -0.0095154112 4279546934
0.037418243 0.017284743 -0.0099083921 4280002873
0.039976738 0.015255362 -0.008263302 4280394044
0.043438561 0.010347232 -0.0039063818 4280067388
0.048284821 0.0011228994 0.0045122486 4280653888
0.056381106 -0.018171303 0.022403952 4280653888
0.063932084 -0.035297073 0.038234577 4281110083
-0.048495099 0.012131102 0.004596875 4282085203
-0.047099888 0.015909232 0.00068944227 4280328763
-0.04532554 0.016764313 -0.00040387642 4280523584
-0.04355634 0.017619148 -0.0014960514 4281436484
-0.041685522 0.017743774 -0.0018860651 4281175363
-0.039814502 0.017868489 -0.0022760639 4280523584
-0.037607081 0.015804395 -0.00056629721 4280198204
-0.035612933 0.015200429 -0.00025855098 4281046333
-0.033848085 0.016055457 -0.0013494557 4280915773
-0.031968318 0.016181149 -0.0017409837 4280785214
-0.030333869 0.017764822 -0.0035278564 4279221044
-0.028459102 0.017890379 -0.0039181905 4280654144
-0.026456065 0.0172875 -0.0036119232 4281306179
-0.024316765 0.015956677 -0.0026106751 4281045569
-0.022166632 0.014626734 -0.0016116435 4280133943
-0.020141773 0.014025636 -0.0013096808 4281241918
-0.01811143 0.013424963 -0.0010087392 4283991583
0.016749658 0.012839429 -0.0053527104 4282420528
0.017708238 0.01659178 -0.0091667073 4281046334
0.019409074 0.017445482 -0.010242046 4280720953
0.021299491 0.017574951 -0.010633492 4280460599
0.023782678 0.015532948 -0.0089784181 4280590648
0.026281901 0.01349216 -0.0073265759 4280981309
0.029203027 0.010005631 -0.004315916 4281111103
0.031328421 0.0094142631 -0.0040326319 4281176383
0.03325085 0.0095464662 -0.0044302922 4280980288
0.034118451 0.013293445 -0.0082247285 4281045313
0.035172902 0.016315937 -0.011334741 4281045313
0.03707115 0.016446829 -0.011727133 4281110593
0.039407294 0.015133075 -0.010764019 4281045569
0.042640708 0.010931365 -0.0070943027 4281307709
0.047027748 0.003121987 -4.8076734e-05 4280980543
0.054651536 -0.014788732 0.016450968 4281045823
0.062408909 -0.032690115 0.032922558 4281045823
0.067744017 -0.042646147 0.041942094 4281110594
-0.049002916 0.013510048 0.00065413024 4281239114
-0.047519065 0.016565681 -0.0025419844 4280523074
-0.045651443 0.016689867 -0.0029315026 4279610938
-0.043887511 0.01754649 -0.0040209657 4280132414
-0.042128712 0.018402927 -0.0051093185 4280197438
-0.040156603 0.01779503 -0.0047987541 4279741754
-0.038067065 0.016455837 -0.0037910184 4280915774
-0.036081225 0.015849099 -0.0034832088 4280850749
-0.034324333 0.016705751 -0.0045708278 4280915773
-0.032452695 0.016830862 -0.0049606869 4280850238
-0.030826025 0.018418301 -0.0067426404 4280589628
-0.028959386 0.018543299 -0.0071312962 4279807288
-0.027348436 0.02012993 -0.0089098634 4280328763
-0.025225632 0.01879362 -0.0079084793 4280394809
-0.022958763 0.01672779 -0.0062154727 4281045824
-0.020539768 0.013932906 -0.0038324194 4281307199
-0.01851508 0.013329692 -0.0035320106 4283337763
0.016620029 0.011274911 -0.0064965277 4283401769
0.01795816 0.013585009 -0.0089380601 4281504569
0.019664392 0.014441274 -0.01001287 4281371968
0.021365268 0.015297346 -0.011086526 4281502019
0.023653042 0.013974965 -0.010117316 4281436738
0.026151583 0.01192759 -0.0084702568 4281241154
0.028666135 0.0098814666 -0.0068264711 4281306434
0.030991299 0.0085620061 -0.005864745 4281306179
0.032910913 0.0086940303 -0.0062618088 4281175108
0.034198169 0.01100155 -0.0086921155 4281240389
0.035469338 0.013308078 -0.011119015 4281240644
0.037588928 0.012714542 -0.010835779 4281305923
0.03993259 0.011396967 -0.0098774936 4281436484
0.042729832 0.0086314455 -0.0075701606 4281436229
0.046669103 0.0022464991 -0.0018920996 4281239623
0.053605024 -0.013547234 0.012544096 4281305159
0.06134693 -0.031504177 0.028977804 4281305159
0.066900775 -0.042215288 0.038650498 4281371204
-0.049030721 0.01123143 0.00022454467 4281303373
-0.047740363 0.015765771 -0.0043646498 4280717639
-0.045774497 0.01515501 -0.0040547037 4280979780
-0.044010498 0.016013809 -0.0051425518 4280914499
-0.042038888 0.015403606 -0.0048336657 4281109828
-0.040170781 0.015528075 -0.0052230963 4280848963
-0.037967317 0.013450615 -0.0035224403 4280914498
-0.036205225 0.014309667 -0.0046096044 4280849219
-0.034331217 0.014434822 -0.0050000446 4280915009
-0.032696493 0.016027041 -0.0067804856 4281112633
-0.030949876 0.016885355 -0.0078641986 4281112123
-0.029333517 0.018476576 -0.0096407095 4281110338
-0.027727649 0.02006717 -0.011414911 4281371458
-0.025610685 0.018726125 -0.010415648 4280914244
-0.023349799 0.016653277 -0.0087263016 4281045059
-0.020801246 0.013116844 -0.0056568561 4281503548
-0.01891797 0.013243437 -0.0060486076 4282878254
-0.017034538 0.013370164 -0.0064403014 4284640558
0.017050017 0.0075237975 -0.005596716 4283729954
0.01858579 0.0091122016 -0.007354436 4281373754
0.020302754 0.0099713877 -0.0084298253 4281242684
0.02201437 0.010830373 -0.0095040649 4280980543
0.024312332 0.0095043406 -0.0085402429 4280915008
0.026620969 0.0081792101 -0.0075785853 4280849984
0.028940296 0.0068548545 -0.0066190287 4280719423
0.030859802 0.0069867596 -0.0070161503 4280849729
0.032779276 0.0071187764 -0.007413188 4280915009
0.034488119 0.007978268 -0.0084863249 4280849219
0.03619159 0.008837454 -0.0095582213 4280783938
0.03832154 0.0082425103 -0.0092788059 4280849218
0.040894009 0.0061944872 -0.0076513533 4280849218
0.043039884 0.0056008548 -0.0073750596 4280980034
0.046758749 -7.7068806e-05 -0.0023858906 4281174853
0.053239871 -0.014466427 0.010668785 4281240389
0.060974352 -0.032478444 0.027063042 4281240389
0.066290624 -0.04249683 0.036040537 4281436484
-0.047666647 0.012759268 -0.004090305 4281109318
-0.04579661 0.012883537 -0.0044803908 4280979268
-0.043926351 0.013007931 -0.0048704324 4281175363
-0.041843481 0.011659302 -0.0038680653 4281175363
-0.040076375 0.012520641 -0.0049548047 4281045058
-0.038091317 0.011909328 -0.0046502403 4281045058
-0.036100723 0.011298455 -0.0043466925 4280783683
-0.034221508 0.011423923 -0.0047382466 4280980289
-0.032581225 0.013020888 -0.0065166252 4280915009
-0.030706994 0.013146222 -0.0069069872 4281045569
-0.028957494 0.014007002 -0.0079895938 4280915264
-0.027340733 0.015602663 -0.0097627928 4280980799
-0.025213569 0.014257908 -0.0087689636 4280785213
-0.023075573 0.012913994 -0.0077773086 4280915773
-0.020520024 0.009367086 -0.0047175512 4281177914
-0.018767104 0.010228619 -0.0058004758 4282878253
0.014822211 0.006553933 -0.0070283934 4284706094
0.017106246 0.0052221641 -0.0060653649 4283072563
0.019211989 0.0046221614 -0.0057834182 4281305668
0.020747982 0.0062150955 -0.0075378567 4281371714
0.022662036 0.006346181 -0.0079341941 4281240898
0.024970185 0.0050164685 -0.0069757793 4281175364
0.027089294 0.0044179037 -0.0066962801 4281240389
0.029213734 0.0038198233 -0.0064178053 4281240389
0.031138442 0.0039520934 -0.0068159979 4281044549
0.033270858 0.0033547878 -0.0065389927 4281109574
0.034987777 0.004216969 -0.0076121185 4281109574
0.036699306 0.0050789043 -0.008684041 4281305669
0.038836949 0.0044823214 -0.0084078368 4281305413
0.041416749 0.0024282709 -0.0067868177 4281240389
0.043791413 0.0011042431 -0.0058413991 4281435464
0.047295585 -0.0038619116 -0.0015390245 4281370694
0.053780891 -0.018294595 0.011481977 4281370694
0.060831264 -0.034176216 0.025822431 4281370694
0.065913014 -0.043497272 0.034107383 4281500489
-0.047397524 0.0082656667 -0.0024296269 4281174853
-0.045416236 0.007651493 -0.0021262318 4281306689
-0.043532752 0.0077767372 -0.0025190581 4280979778
-0.041543044 0.007163316 -0.002217276 4280718914
-0.039656512 0.0072889626 -0.0026105903 4280914244
-0.037769787 0.0074147061 -0.0030038729 4280849219
-0.035768814 0.0068023503 -0.0027042069 4280783174
-0.033995762 0.0076665357 -0.0037903395 4280914244
-0.032227859 0.0085304826 -0.0048753191 4280849729
-0.030343086 0.0086565018 -0.0052678939 4280849729
-0.028333426 0.0080451518 -0.0049697217 4280849984
-0.026573025 0.0089089051 -0.0060529038 4280590139
-0.024557717 0.0082981512 -0.0057557411 4280720954
-0.022536911 0.0076878518 -0.0054596514 4280982073
-0.020239815 0.0056044236 -0.0037876219 4281047864
-0.018478848 0.0064686611 -0.0048705991 4281700919
0.015426427 0.002051793 -0.0054607969 4284706348
0.017348319 0.0021830425 -0.0058590341 4282680884
0.01927023 0.0023144111 -0.006257182 4281371458
0.021000639 0.0031788871 -0.0073320772 4281370948
0.023114081 0.002577506 -0.0070532262 4281175108
0.02523287 0.0019766167 -0.0067754039 4281175364
0.027357001 0.0013762265 -0.0064985738 4281175364
0.029486474 0.00077626109 -0.0062227347 4281174854
0.031211495 0.0016409904 -0.0072961138 4281044549
0.033346269 0.0010416284 -0.0070211948 4280979269
0.035276122 0.0011745095 -0.0074202665 4280979779
0.037205935 0.0013074875 -0.0078192484 4281240133
0.038920123 0.002171956 -0.0088900235 4281240389
0.041501898 0.00011149794 -0.0072743357 4281435973
0.043657813 -0.0004857555 -0.0070033656 4281304903
0.047607724 -0.0069288164 -0.0013717925 4281500743
0.053868286 -0.020674378 0.010946459 4281566023
0.060688183 -0.035873659 0.024582058 4281566023
0.06530416 -0.043762736 0.031509105 4281565258
-0.047129743 0.0037547946 -0.00078159384 4281173578
-0.045238592 0.0038804114 -0.0011761151 4281305158
-0.043244049 0.0032650456 -0.00087705627 4281240644
-0.041243955 0.0026501045 -0.00057910243 4281110083
-0.039455406 0.0035171732 -0.0016670749 4281110083
-0.037671983 0.0043839961 -0.0027539022 4281175364
-0.035779849 0.0045101866 -0.0031482521 4281044293
-0.033887543 0.004636474 -0.0035425741 4280979013
-0.031995051 0.004762888 -0.0039368421 4280913988
-0.029980525 0.0041495562 -0.003641421 4281044549
-0.027960502 0.0035366789 -0.0033470672 4280718913
-0.026062176 0.0036638007 -0.0037423186 4280589628
-0.024163693 0.0037910417 -0.004137516 4280785979
-0.022132531 0.0031792521 -0.0038452353 4280916538
-0.020095862 0.0025678724 -0.0035539852 4281308219
-0.01805371 0.001957044 -0.0032638148 4281635639
-0.01614666 0.0020852983 -0.0036604744 4284706348
0.015112657 0.0012110546 -0.0072902725 4284575789
0.017217711 0.00060656667 -0.0070115984 4282419254
0.019328129 2.5704503e-06 -0.0067339451 4281175109
0.02125258 0.00013422966 -0.0071325363 4281240389
0.023565058 -0.0012040064 -0.0061816527 4281240389
0.025298174 -0.000336878 -0.0072553144 4281109828
0.027624007 -0.0016739592 -0.0063070161 4280979269
0.029556466 -0.0015412793 -0.0067069107 4280913988
0.031488903 -0.0014084578 -0.0071066939 4280979269
0.033421319 -0.0012755245 -0.007506384 4280979523
0.035143662 -0.00040860474 -0.0085773496 4281044804
0.037073329 -0.00027561933 -0.0089762947 4281240644
0.039002955 -0.00014252216 -0.0093751382 4281370949
0.041368637 -0.0014759973 -0.0084345071 4281501253
0.043744955 -0.0028086007 -0.0074959649 4281370438
0.047472335 -0.0085382313 -0.0025479081 4281435719
0.053729236 -0.022325464 0.0097399345 4281370438
0.060316365 -0.036838181 0.022674445 4281370438
-0.047058642 0.00071407109 -0.00053232769 4281173323
-0.045162283 0.00084000081 -0.00092796655 4281108299
-0.043162711 0.00022273511 -0.00063162716 4281305668
-0.041157581 -0.00039409846 -0.00033632945 4281240644
-0.039255291 -0.00026748329 -0.00073298486 4281240644
-0.037463829 0.00060208142 -0.0018199072 4281044803
-0.035563819 0.00072874874 -0.0022159317 4281110084
-0.033779971 0.0015979782 -0.0033010622 4281109828
-0.031763263 0.00098247826 -0.0030078352 4280979269
-0.029741026 0.00036741048 -0.0027156309 4280913733
-0.027837664 0.0004947409 -0.003112026 4280652868
-0.02593413 0.00062218308 -0.0035083764 4280718403
-0.024160154 0.0014913157 -0.0045911041 4280719679
-0.022126615 0.00087743253 -0.0043009282 4280915519
-0.0200876 0.00026407093 -0.0040118513 4281241919
-0.018043108 -0.00034880638 -0.0037238342 4281634618
-0.016273901 0.0005204156 -0.0048051816 4284706348
0.015165534 -0.0011008158 -0.0077657537 4284182834
0.017458733 -0.0024450645 -0.0068144826 4282156603
0.019385695 -0.0023133382 -0.0072136736 4281305924
0.021503828 -0.0029189214 -0.0069391346 4281436229
0.023627307 -0.0035239607 -0.0066656386 4281370694
0.025363147 -0.0026545227 -0.0077381944 4281109828
0.027292795 -0.0025221333 -0.0081375828 4280913988
0.029424276 -0.0031262562 -0.0078654652 4280979269
0.031356569 -0.0029934496 -0.0082652224 4280914243
0.033496015 -0.003596805 -0.0079945875 4281044804
0.035430927 -0.0034635663 -0.0083946986 4281174598
0.037578326 -0.004066132 -0.008125524 4281370439
0.039731022 -0.0046681911 -0.0078573478 4281304903
0.042106897 -0.0060053393 -0.0069220355 4281370183
0.044493388 -0.007341601 -0.0059888875 4281370948
0.048453055 -0.013823189 -0.00038882717 4281370948
0.054267891 -0.026181191 0.010532993 4281370183
0.060173489 -0.038532801 0.02143614 4281435464
-0.046988212 -0.0023351982 -0.00028924737 4281369419
-0.045387141 2.8125942e-05 -0.0027587139 4281370694
-0.043287687 -0.0013370365 -0.0017730803 4281110339
-0.041282862 -0.0019560978 -0.0014793822 4281175619
-0.039164349 -0.0033197924 -0.00049756933 4281110339
-0.037589185 -0.00095778704 -0.0029613343 4280914243
-0.035689294 -0.00083113462 -0.0033573438 4281109828
-0.03378924 -0.00070437789 -0.0037533161 4280979779
-0.031770162 -0.0013219789 -0.0034622015 4281109828
-0.029745564 -0.0019390509 -0.0031721857 4281044039
-0.027715482 -0.0025556311 -0.0028832322 4280913733
-0.025806755 -0.0024278611 -0.0032806834 4280848709
-0.023897871 -0.0022999793 -0.0036780876 4280848964
-0.021988831 -0.0021719635 -0.0040754345 4281109828
-0.019944787 -0.0027871728 -0.0037890533 4281240898
-0.018032789 -0.0026587471 -0.004186851 4281568319
0.014486268 -0.00045631081 -0.01093898 4283792173
0.016770951 -0.0018055364 -0.0099891862 4282221628
0.019066337 -0.0031538606 -0.0090415468 4281501763
0.021372434 -0.0045013651 -0.0080959862 4281305923
0.023495581 -0.0051086172 -0.0078240698 4281175364
0.025231451 -0.0042369962 -0.0088949939 4280978248
0.027160957 -0.0041046068 -0.009294345 4280979269
0.029493757 -0.0054497719 -0.0083540035 4280849219
0.032041572 -0.0075327531 -0.0067464737 4281175619
0.034812383 -0.010352917 -0.0044735032 4280979013
0.036975536 -0.010956712 -0.0042092646 4281305159
0.03956867 -0.013036169 -0.0026108809 4281435464
0.041962788 -0.014376529 -0.0016827136 4281238603
0.04502061 -0.017929189 0.0012428313 4281761098
0.047443997 -0.019267254 0.0021650903 4281825869
0.050993197 -0.024291269 0.0064122705 4281432914
0.055482551 -0.032261252 0.01331118 4281301079
-0.047015719 -0.0046448335 -0.00074225571 4281304903
-0.0453116 -0.0030226782 -0.0025181854 4281370948
-0.043309942 -0.0036442429 -0.0022255434 4281110339
-0.041302755 -0.0042653158 -0.0019340469 4280783938
-0.039290048 -0.0048859194 -0.0016436158 4280849218
-0.037382491 -0.0047588795 -0.002041311 4280914499
-0.035701394 -0.0031377748 -0.0038120085 4280979779
-0.033798799 -0.003010869 -0.0042085228 4281044039
-0.03177736 -0.0036304519 -0.0039195893 4281109063
-0.029871747 -0.0035031438 -0.0043165768 4281043274
-0.028089985 -0.0026294068 -0.0053977789 4280977994
-0.026060045 -0.0032481179 -0.0051103802 4281042253
-0.024283327 -0.0023745298 -0.0061903885 4281043018
-0.022511773 -0.0015011132 -0.0072692656 4280977993
-0.020476066 -0.0021191314 -0.0069827614 4281107023
-0.018160157 -0.0042273626 -0.0053343466 4281630283
0.014356431 -0.0020252839 -0.012086098 4282019669
0.040612143 -0.025889352 0.0066163046 4281758804
0.043252677 -0.027972043 0.0081999926 4282086734
0.045909204 -0.030053578 0.0097804954 4282739024
-0.046460643 -0.011460043 0.002931226 4281957448
-0.044937253 -0.0083321705 -0.0002207486 4281567043
-0.043025047 -0.008205153 -0.00061966991 4281175363
-0.041112654 -0.0080780461 -0.0010185647 4280912968
-0.038984418 -0.0094498992 -4.5339577e-05 4280914244
-0.037066303 -0.0093221813 -0.00044525368 4281110339
-0.035261177 -0.0084451959 -0.0015300508 4281108043
-0.033577017 -0.0068193823 -0.0032980694 4281041234
-0.031666368 -0.0066918507 -0.0036961948 4280975699
-0.029876724 -0.0058155656 -0.0047775162 4280910418
-0.02809225 -0.0049395114 -0.0058576735 4280778839
-0.026312962 -0.0040636957 -0.0069366684 4280844374
-0.02466803 -0.0024399683 -0.0086961044 4280583254
-0.022769943 -0.0023127273 -0.0090912012 4280582489
-0.043667823 -0.02043356 0.0082357274 4281894463
-0.041820727 -0.019552059 0.0071434788 4281893699
-0.039978743 -0.01867076 0.0060524046 4282348618
-0.038141929 -0.017789714 0.0049624648 4282479944
-0.036089636 -0.018411979 0.0052414071 4282348873
-0.034596704 -0.015276901 0.0021027271 4282084693
-0.033124946 -0.012143165 -0.0010314896 4280972384
0.0093602687 -0.0077103302 -0.0086824549 4282406248
0.010932181 -0.0060894564 -0.010425086 4281816688
0.012853272 -0.0059585199 -0.010823349 4281488504
0.014409211 -0.0043384358 -0.012562524 4279720334
0.016510289 -0.0049519613 -0.012289538 4279262099
0.018616717 -0.005564943 -0.012017614 4278868634
0.020919107 -0.0069213882 -0.011077902 4278868888
0.023038927 -0.0075332522 -0.010808523 4279261333
0.025360029 -0.0088881478 -0.0098724877 4279195544
0.02729458 -0.0087554455 -0.010272897 4278998938
0.030638155 -0.013825081 -0.0060069449 4279130263
0.035446893 -0.024093308 0.0029138504 4279785868
0.040537044 -0.035099052 0.012484728 4279851404
-0.024665006 -0.004747279 -0.0091552595 4279526024
-0.022896044 -0.0038697496 -0.0102303 4279394444
-0.020997956 -0.0037424043 -0.010625317 4279000724
-0.018825755 -0.0051145032 -0.0096636387 4279458448
-0.016503051 -0.0072352588 -0.0080264034 4280701574
-0.014591232 -0.0071066469 -0.0084240185 4281094528
-0.012679309 -0.0069779083 -0.0088215703 4280308618
-0.01061957 -0.0075980797 -0.0085429726 4281029759
-0.0085543953 -0.0082178041 -0.0082653863 4279391893
-0.0066368021 -0.0080883279 -0.0086638434 4278998683
-0.0047191046 -0.0079587176 -0.0090622297 4278933659
-0.0026429668 -0.0085772946 -0.0087866774 4279129498
-0.00056139752 -0.0091953874 -0.0085121719 4278866848
0.0015255883 -0.0098129883 -0.0082386909 4278866594
0.0034516118 -0.0096823275 -0.0086384406 4278866849
0.0055467524 -0.010299176 -0.0083664358 4278932129
0.0073038414 -0.0094206557 -0.009437724 4279062944
0.0094044358 -0.010036878 -0.0091666542 4278866338
0.011333354 -0.009905532 -0.0095666386 4278801058
0.013262309 -0.0097740665 -0.0099665374 4278867104
0.014826477 -0.0081490427 -0.011704116 4278539684
0.016935229 -0.008764185 -0.011434416 4278670499
0.018861592 -0.0086325333 -0.011833503 4278735778
0.020978399 -0.0092469007 -0.011565235 4278539429
0.023100547 -0.009860754 -0.011298031 4278669988
0.025228042 -0.010474108 -0.011031825 4278670498
0.02755931 -0.011832528 -0.010101072 4278735523
0.031309027 -0.018407971 -0.0045173503 4278932128
0.036329519 -0.02945137 0.0050432859 4279849874
-0.032790065 -0.016735174 0.00053813867 4281553784
-0.031446375 -0.012840077 -0.0032679639 4279063963
-0.029887587 -0.01045268 -0.0057083848 4278866849
-0.028097689 -0.0095719397 -0.006786413 4278735778
-0.026312992 -0.0086914599 -0.0078632953 4278735778
-0.02440466 -0.008563675 -0.0082606273 4278671009
-0.022496179 -0.008435756 -0.008657909 4278670498
-0.020453401 -0.009059839 -0.0083778715 4278473894
-0.018678807 -0.0081795529 -0.0094522918 4278736288
-0.016630433 -0.0088030249 -0.0091732489 4278801058
-0.014718756 -0.0086744428 -0.0095708529 4278603943
-0.012662143 -0.009297125 -0.0092933467 4278538663
-0.010747563 -0.0091680959 -0.0096913641 4278604453
-0.0085325316 -0.010541074 -0.0087414235 4279260569
-0.0064595751 -0.011162288 -0.008467041 4278670753
-0.0046922043 -0.010281682 -0.0095393434 4278671009
-0.0029300824 -0.0094012842 -0.010610454 4278605474
-0.0010123737 -0.0092714354 -0.011008661 4278866849
0.0012324676 -0.010641761 -0.010064505 4278866848
0.00332186 -0.011261262 -0.0097930804 4278604708
0.0054166764 -0.011880316 -0.0095226467 4278932128
0.0071737953 -0.010999598 -0.010592289 4278800803
0.009274058 -0.011618041 -0.010322802 4278669988
0.0113797 -0.012235932 -0.010054372 4278538918
0.013670281 -0.013602391 -0.0091191344 4278538918
0.015424907 -0.012721382 -0.010187846 4278801058
0.017359111 -0.012589313 -0.010588653 4278801058
0.019293338 -0.012457095 -0.010989353 4278407848
0.02122758 -0.012324773 -0.011389967 4278539174
0.023161829 -0.012192316 -0.011790499 4278408359
0.025291659 -0.012807675 -0.011526413 4278604453
0.027426828 -0.013422556 -0.011263348 4278604964
0.031375684 -0.020765357 -0.0050305654 4278735524
0.036395937 -0.031841367 0.0045055132 4278801059
-0.032456547 -0.021344386 0.0020951582 4282537574
-0.031573296 -0.014416106 -0.0044211447 4279063964
-0.02989348 -0.01277741 -0.0061782673 4278539429
-0.027977578 -0.01264938 -0.0065773744 4278736033
-0.026187502 -0.011766292 -0.0076537668 4278670498
-0.024016686 -0.013147563 -0.006698627 4278867104
-0.022097662 -0.013018958 -0.0070981123 4278670499
-0.020178512 -0.012890227 -0.0074975379 4278736034
-0.018395878 -0.012007244 -0.0085720122 4278669988
-0.016757764 -0.0103705 -0.010319887 4278669988
-0.014562257 -0.011749513 -0.0093694404 4278473383
-0.012500629 -0.012374058 -0.0090946332 4278473384
-0.010728184 -0.011491276 -0.010166615 4278604708
-0.008660987 -0.012115188 -0.0098927692 4278473894
-0.0065883584 -0.012738623 -0.0096199699 4278473894
-0.0045102909 -0.013361581 -0.0093482062 4278670498
-0.0027428009 -0.01247865 -0.010418802 4278801568
-0.00098056719 -0.011595957 -0.01148821 4278604453
0.0012664273 -0.012970492 -0.010547783 4278735523
0.0030261315 -0.01208771 -0.011616468 4278538918
0.0051179342 -0.012709118 -0.0113471 4278473384
0.0070437752 -0.012578234 -0.011746638 4278932128
0.0094917677 -0.014702089 -0.010144055 4278735523
0.01160242 -0.015321814 -0.0098782964 4278604453
0.013539083 -0.015189826 -0.01027979 4278538918
0.015293732 -0.014306657 -0.011346884 4278866593
0.017412499 -0.014925465 -0.011082534 4278473383
0.019349243 -0.014793083 -0.011483762 4278538918
0.02147606 -0.015411086 -0.011220884 4278670244
0.023800962 -0.016778976 -0.010295525 4278539174
0.025550343 -0.015895523 -0.011361044 4278670499
0.027690522 -0.016512215 -0.011100635 4278670499
0.03144199 -0.023126744 -0.0055467794 4279128988
0.036462013 -0.034235425 0.0039647724 4279128988
-0.032354623 -0.024455287 0.0022836449 4282536808
-0.031464584 -0.017507032 -0.0042193085 4279195034
-0.029899672 -0.015106201 -0.0066512041 4278801568
-0.028104372 -0.014220782 -0.0077271108 4278407848
-0.026188456 -0.014092632 -0.0081261322 4278604453
-0.024143934 -0.0147212 -0.0078499317 4278735523
-0.021962807 -0.016105987 -0.0069001839 4278538918
-0.020038471 -0.015976928 -0.007300701 4278735523
-0.018113978 -0.015847735 -0.0077011585 4278407848
-0.016606785 -0.013449989 -0.010120377 4278801058
-0.014690049 -0.013321094 -0.01051905 4278669988
-0.012628742 -0.013947837 -0.010245815 4278538918
-0.010709129 -0.013818488 -0.010644898 4278669988
-0.0089392178 -0.012933604 -0.011714637 4278866593
-0.0068695843 -0.013559431 -0.011442859 4278735523
-0.0046393648 -0.01493983 -0.010502506 4278669988
-0.002714023 -0.014809608 -0.010902412 4278538918
-0.00078859553 -0.014679253 -0.011302236 4278735523
0.000973735 -0.013794258 -0.012369942 4278669988
0.0032283105 -0.015172563 -0.011434235 4278342314
0.0051566139 -0.015041649 -0.011834387 4278669988
0.007256154 -0.01566457 -0.011568155 4278669988
0.0093610808 -0.016287006 -0.011302963 4278604453
0.011294886 -0.01615534 -0.011703953 4278407848
0.013407908 -0.016776957 -0.01144024 4278473384
0.015526313 -0.017398112 -0.011177558 4278866593
0.017650098 -0.018018804 -0.010915842 4278342314
0.019779231 -0.018638931 -0.010655168 4278473383
0.021723848 -0.018505901 -0.011057947 4278735523
0.024053562 -0.019877769 -0.010136899 4278735523
0.026198748 -0.020496428 -0.0098792687 4278932383
0.02834928 -0.021114647 -0.0096226186 4278735523
0.031909063 -0.026996121 -0.0047455551 4279129499
0.036527745 -0.036633551 0.0034210589 4279391639
-0.032368295 -0.026814751 0.001789636 4282536808
-0.031474151 -0.019846603 -0.004699484 4278997919
-0.029906183 -0.017439052 -0.0071271211 4278801313
-0.02798523 -0.017310686 -0.0075272843 4278473383
-0.025938503 -0.017941438 -0.0072532818 4278538918
-0.024014585 -0.017812654 -0.0076538995 4278669988
-0.022090517 -0.01768373 -0.0080544539 4278473384
-0.020299926 -0.016796 -0.0091274083 4278604453
-0.018378265 -0.016667023 -0.0095272958 4278604453
-0.016456485 -0.016537897 -0.0099271052 4278735523
-0.014251299 -0.017925009 -0.0089852512 4278866594
-0.012468241 -0.017037265 -0.010056317 4278866594
-0.010690395 -0.016149782 -0.011126157 4278604453
-0.0089177862 -0.015262544 -0.012194831 4278801059
-0.0068458132 -0.015890405 -0.011925191 4278735269
-0.0044584461 -0.018032297 -0.010320511 4278735524
-0.0025279149 -0.017901734 -0.010721501 4278539429
-0.00043699145 -0.018527947 -0.010455515 4278735523
0.001333382 -0.017640233 -0.01152325 4278669988
0.0032641403 -0.017509282 -0.011923999 4278408103
0.0051949583 -0.017378211 -0.012324683 4278670243
0.0074678324 -0.01875931 -0.011395894 4278539428
0.0095777661 -0.019383594 -0.011133377 4278998684
0.01151675 -0.01925157 -0.011535455 4278736544
0.013813805 -0.02063071 -0.010611355 4278671009
0.015758201 -0.020498067 -0.011014372 4278474148
0.018071331 -0.021875791 -0.010093448 4278735524
0.020208139 -0.022497602 -0.0098360227 4278735523
0.022729706 -0.024628721 -0.0082579302 4278538918
0.025074936 -0.026003905 -0.0073433267 4278736034
0.027430844 -0.027378201 -0.0064308913 4278735523
0.029599722 -0.027997307 -0.0061797099 4279587988
0.032775845 -0.032386743 -0.0026364489 4280046479
0.036593132 -0.039035715 0.0028743949 4280112779
-0.032497048 -0.028416127 0.00061785337 4282339694
-0.031484023 -0.02219025 -0.0051826541 4280111503
-0.029792883 -0.020537794 -0.0069323448 4279194268
-0.027989522 -0.019647479 -0.0080067292 4279063454
-0.025940441 -0.020280294 -0.0077348282 4278932384
-0.024013989 -0.020151354 -0.0081359744 4278932129
-0.021956645 -0.02078335 -0.0078656673 4279128224
-0.020160675 -0.019893087 -0.0089381002 4279193758
-0.018097706 -0.020524465 -0.0086687766 4279456154
-0.016029283 -0.02115535 -0.008400497 4279521179
-0.013955392 -0.021785744 -0.0081332559 4279455644
-0.01216428 -0.020895325 -0.0092043243 4279325339
-0.010378394 -0.020005144 -0.010274213 4279325594
-0.008448299 -0.019874997 -0.0106754 4279521943
-0.0063659698 -0.020504333 -0.010409553 4279718294
-0.0041234195 -0.021892622 -0.0094783241 4279455899
-0.0021850318 -0.021761537 -0.0098809497 4280044948
7.3716044e-05 -0.023148514 -0.0089528495 4280306834
0.0020176023 -0.023016803 -0.0093564289 4280895119
0.0041270293 -0.023643687 -0.0090957405 4281353353
0.0059055686 -0.022753 -0.010163353 4281093508
0.0078496411 -0.022620894 -0.010566679 4280831623
0.0099672563 -0.023246825 -0.010307391 4281551235
0.012266412 -0.024630249 -0.0093871439 4281747583
0.01475513 -0.026770666 -0.0078075575 4281747584
0.017441403 -0.029667474 -0.0055703307 4281486208
0.019780714 -0.031047769 -0.0046581081 4281028228
0.021943901 -0.031669997 -0.0044077463 4281552254
0.024112441 -0.032291688 -0.0041584275 4281881459
0.026286326 -0.032912858 -0.0039101108 4282012784
0.028855268 -0.035047002 -0.002346551 4282078063
0.031242698 -0.036423348 -0.0014438052 4282406248
-0.031142436 -0.026830457 -0.0036510276 4281225853
-0.029320501 -0.025936879 -0.0047276923 4280046223
-0.027503744 -0.025043502 -0.0058032284 4279980943
-0.025441647 -0.025677629 -0.005535678 4280177038
-0.023374088 -0.026311256 -0.0052692341 4280176783
-0.021301031 -0.026944377 -0.0050038332 4280177039
-0.019489042 -0.026050866 -0.0060779722 4280372624
-0.017546304 -0.025920503 -0.0064822594 4280895884
-0.01560346 -0.025789976 -0.0068864683 4282073984
-0.013377957 -0.027184404 -0.0059554474 4282400384
-0.026897289 -0.031227119 -0.0029456108 4282732904
-0.024819501 -0.031862341 -0.0026830151 4282798694
-0.026966684 -0.037627049 -0.017967457 4282733158
0.012299422 0.0044979304 0.031693485 4285097518
-0.0086621381 0.0057525858 0.030390576 4284901679
-0.0072771199 0.0087163076 0.027150922 4285558049
-0.0056111887 0.010264032 0.02532886 4285754398
-0.0028795302 0.0068608895 0.028451264 4285819933
-0.0002774559 0.0041666403 0.0308627 4285492258
0.0018688105 0.0035944209 0.031154998 4285295653
0.004020527 0.0030226335 0.031446286 4285296164
0.005519852 0.0052771717 0.028921261 4285361953
0.0066689625 0.0089432523 0.024993151 4285362208
0.0076215863 0.013313748 0.020367928 4285624604
0.0097495615 0.012740768 0.020664461 4285820189
0.012583565 0.0093453825 0.023766231 4285820188
0.015977886 0.0038352981 0.028965633 4285820443
0.018873528 0.00044431537 0.032054782 4285426978
-0.012202092 0.011093982 0.022546008 4285296673
-0.010832652 0.01406531 0.019316036 4285493534
-0.0093362294 0.016325533 0.016796116 4285558814
-0.0074030273 0.016456142 0.01639447 4285558303
-0.0048553795 0.013749354 0.018810544 4285755419
-0.0022862479 0.01104416 0.021222193 4285755164
0.00014546886 0.0090494826 0.022926193 4285558558
0.0022701211 0.0084737018 0.023221392 4285559324
0.003743127 0.010732949 0.020706803 4285559069
0.0052001588 0.012991264 0.018195558 4285755929
0.0063019693 0.016665161 0.014285552 4285558559
0.0084109046 0.016088717 0.014584332 4285492258
0.01070023 0.014804803 0.01558208 4285558304
0.013710909 0.010690786 0.019375313 4285559068
0.016032431 0.0094093159 0.020366501 4285493534
0.018181715 0.0088360012 0.020657271 4285297184
-0.013046347 0.013051637 0.01784775 4285297184
-0.011689678 0.016030818 0.01462699 4285821974
-0.0099101253 0.016872846 0.013522497 4285558303
-0.0081357956 0.01771462 0.012419167 4285558048
-0.0055996887 0.014998287 0.014831048 4285689628
-0.003042087 0.012283511 0.017238539 4285821464
-0.00078049675 0.010992736 0.018238228 4285624349
0.0011690632 0.011124842 0.017833479 4285558814
0.0029546171 0.011967905 0.016728211 4285558814
0.0044013672 0.014232054 0.01422402 4285821974
0.0056626946 0.017205723 0.011023766 4285821718
0.0075911768 0.017336816 0.010623704 4285689883
0.0098693147 0.016047753 0.01162047 4285624604
0.012690607 0.01262974 0.014708507 4285756184
0.014998261 0.011342935 0.015699267 4285493279
-0.014173813 0.016460486 0.011758911 4285427999
-0.012399696 0.017304264 0.010657064 4285756183
-0.010482889 0.017433606 0.010258715 4285821464
-0.0084154345 0.016849101 0.010562214 4285821463
-0.0060360804 0.01483757 0.012266998 4285821718
-0.0036405623 0.01282721 0.013968554 4285755928
-0.0015460476 0.01224485 0.014266609 4285559068
0.00039269403 0.012376212 0.013864101 4285559069
0.0020036809 0.013933748 0.0120637 4285558813
0.0036040545 0.015490711 0.010265543 4285558813
0.0051938146 0.017047033 0.0084697185 4285690393
0.0071168169 0.017177731 0.0080707809 4285690393
0.0095637217 0.015171587 0.0097622229 4285624859
0.01202672 0.013166681 0.011450359 4285559069
0.014325872 0.011874892 0.012439637 4285493533
0.016270481 0.012007512 0.012036557 4285231649
-0.014587 0.016317002 0.0092018293 4285428255
-0.012673147 0.016446032 0.0088039944 4285559069
-0.010611456 0.015858851 0.0091069089 4285558814
-0.0085443072 0.015272103 0.0094088083 4285624348
-0.0063186549 0.013969913 0.0104092 4285558558
-0.0042379126 0.013384342 0.010708398 4285624349
-0.0021517128 0.012799203 0.011006578 4285558813
-0.00038220361 0.01364544 0.009907783 4285559068
0.0015457869 0.013776153 0.009507562 4285558814
0.003141053 0.015337095 0.0077137919 4285558814
0.0048947744 0.016182534 0.006618551 4285493023
0.0069867298 0.015598364 0.0069159037 4285558559
