# .PCD v0.7 - Point Cloud Data file format
VERSION 0.7
FIELDS x y z rgba
SIZE 4 4 4 4
TYPE F F F U
COUNT 1 1 1 1
WIDTH 963
HEIGHT 1
VIEWPOINT 0 0 0 1 0 0 0
POINTS 963
DATA ascii
0.032228552 -0.0056044841 0.003567433 4290586649
0.03357663 -0.0032003792 0.0015083328 4290652184
0.035299174 -0.0023698425 0.00074779056 4291240469
0.037610702 -0.0038989866 0.0019334164 4290389789
0.040334724 -0.0070008328 0.0044153817 4290454303
0.043283917 -0.010888532 0.0075444235 4290388003
0.010180742 -0.0036791107 0.00041737035 4289277989
0.012258358 -0.0044257836 0.00095406361 4289409059
0.014341243 -0.0051722424 0.0014905185 4289736223
0.016429372 -0.0059184777 0.002026746 4290586648
0.01818081 -0.0050858213 0.001265604 4290259739
0.01992666 -0.0042532394 0.0005048262 4289866783
0.021843277 -0.0042098956 0.00039270706 4290455578
0.023759671 -0.0041664466 0.00028068107 4289801504
0.026039585 -0.0057011275 0.0014645709 4289670433
0.02833017 -0.0072355345 0.0026479345 4289670433
0.030069582 -0.0064026145 0.0018878188 4290063389
0.031423412 -0.0039919969 -0.00016679615 4290782998
0.032760702 -0.0015816018 -0.0022204053 4290128668
0.034863211 -0.0023267129 -0.0016844245 4289016104
0.037169114 -0.0038603945 -0.00050167507 4289735713
0.039686486 -0.006182367 0.0013272949 4289996834
0.042423554 -0.0092925513 0.0038020751 4289080363
0.044975847 -0.011613634 0.0056291511 4289668393
0.0096569657 -0.0028357804 -0.0026615974 4288752944
0.011888988 -0.0043765148 -0.0014786012 4289800993
0.01413171 -0.0059169484 -0.00029611541 4290194459
0.016216956 -0.0066654412 0.00023864955 4290129688
0.017965645 -0.0058306996 -0.00052073412 4290521624
0.01970873 -0.0049959859 -0.0012797164 4290979858
0.021446154 -0.0041612526 -0.002038334 4291437584
0.023177974 -0.0033266433 -0.002796547 4291502864
0.025631264 -0.005657156 -0.00096902717 4290521369
0.027731702 -0.0064047957 -0.00043477258 4289801759
0.029650159 -0.0063610906 -0.00054676272 4289998109
0.03099864 -0.0039440263 -0.002596254 4289932318
0.032715887 -0.0031093266 -0.0033533014 4291371793
0.034622893 -0.0030656587 -0.0034644576 4290847768
0.036727771 -0.0038128383 -0.0029301946 4290455578
0.039038666 -0.0053506792 -0.001750913 4290521114
0.041360222 -0.0068881623 -0.00057224417 4290193438
0.044104882 -0.010006828 0.0018956559 4289080363
0.046662122 -0.01233427 0.0037176302 4289079854
0.013756938 -0.0058632549 -0.002725082 4289670179
0.015836582 -0.0066140974 -0.0021915678 4289999384
0.017408922 -0.0049835555 -0.0035943836 4290195224
0.019490913 -0.0057341233 -0.0030609169 4290783254
0.021049321 -0.004103777 -0.0044627534 4291306514
0.02295465 -0.0040606102 -0.0045741545 4291175443
0.025041513 -0.0048108054 -0.0040407777 4290782998
0.02731809 -0.0063542351 -0.0028630691 4289997853
0.029418148 -0.0071039866 -0.0023303563 4289670689
0.030763991 -0.0046804445 -0.0043748314 4289997853
0.032671086 -0.0046368474 -0.0044860467 4289670435
0.034578003 -0.0045931945 -0.0045972061 4290978583
0.03668274 -0.0053425524 -0.0040645534 4291436819
0.038993418 -0.0068847747 -0.0028885151 4290586138
0.040907882 -0.0068407427 -0.0029999618 4289343269
0.04323446 -0.0083824322 -0.0018247985 4289407528
0.045571692 -0.0099238344 -0.0006501521 4289537578
0.048765957 -0.014635998 0.0030957507 4286463553
0.013051748 -0.0042086942 -0.0064354725 4289409059
0.015624493 -0.0073496932 -0.0039713085 4289998618
0.017023377 -0.0049190521 -0.0060144244 4290783254
0.019099757 -0.0056719184 -0.0054822462 4289736224
0.020476535 -0.0032415641 -0.0075239837 4289147174
0.02273149 -0.0047900183 -0.0063483836 4289670434
0.024633817 -0.0047468403 -0.0064595509 4290128668
0.027089082 -0.007090277 -0.0046418663 4289932063
0.029186271 -0.0078423107 -0.0041105608 4289473828
0.030909106 -0.0070031816 -0.0048648091 4289800993
0.032626323 -0.0061641764 -0.0056186523 4289866529
0.034337901 -0.0053252252 -0.00637211 4289997343
0.036637716 -0.006872064 -0.0051987618 4289605154
0.038747549 -0.0076234629 -0.0046679354 4289604899
0.040455833 -0.0067843613 -0.0054211086 4289277734
0.042982876 -0.0091256341 -0.0036071464 4289080619
0.045317195 -0.010671426 -0.0024356176 4288753199
0.014908575 -0.0056864852 -0.0076744594 4288622383
0.016638085 -0.0048456211 -0.0084279198 4290586393
0.018362001 -0.0040048435 -0.0091809491 4290848023
0.020080291 -0.0031640949 -0.009933576 4290324764
0.02215071 -0.0039191265 -0.0094025582 4290128413
0.024226367 -0.0046739466 -0.008871777 4290716953
0.026307307 -0.0054286132 -0.0083412053 4290389788
0.02839347 -0.0061830441 -0.0078109261 4290258719
0.030105434 -0.0053420514 -0.0085628945 4290062624
0.0320042 -0.0052986685 -0.0086736418 4290193439
0.034293137 -0.00685021 -0.0075029721 4289735714
0.036592737 -0.0084014181 -0.006332858 4288688938
0.038902991 -0.0099523906 -0.0051632961 4288231469
0.041020624 -0.010705654 -0.0046345182 4288034863
0.043143474 -0.011458789 -0.0041060383 4288426543
0.045480326 -0.013008954 -0.0029378794 4287445304
0.016253062 -0.0047632987 -0.010834747 4289539618
0.018144868 -0.0047206292 -0.0109455 4290455578
0.019860417 -0.0038778065 -0.011696378 4291109908
0.021927945 -0.0046350611 -0.011166795 4290848023
0.023819201 -0.0045921756 -0.011277347 4290913304
0.02607879 -0.0061490154 -0.010108408 4290258973
0.027788177 -0.0053060185 -0.01085869 4290127903
0.029871278 -0.0060626147 -0.010329791 4289538598
0.031767249 -0.0060193241 -0.010440396 4289080874
0.034443475 -0.0091746608 -0.0079946173 4288557613
0.0367456 -0.010730207 -0.0068278448 4287707698
0.03925889 -0.013084947 -0.0050229374 4287707953
0.041178569 -0.013040847 -0.0051347259 4288100144
0.043509975 -0.014595569 -0.0039695473 4287903284
0.045643345 -0.015350563 -0.0034432402 4286333249
0.015527137 -0.0030672476 -0.014512791 4287508798
0.017754585 -0.0046295142 -0.013345467 4289081638
0.019816704 -0.005389221 -0.012817226 4289735968
0.021705322 -0.0053464724 -0.01292768 4290455578
0.023956701 -0.0069079367 -0.011761563 4289604643
0.025850415 -0.0068649417 -0.011872217 4289604643
0.027743958 -0.006821855 -0.011982791 4288754474
0.029826924 -0.0075806552 -0.01145552 4287642164
0.032492109 -0.010744991 -0.0090156011 4287511604
0.034983806 -0.013106954 -0.007214366 4287315254
0.037491612 -0.01546844 -0.005414064 4287184439
0.039414093 -0.015424344 -0.0055260658 4287119159
0.041742794 -0.016983544 -0.0043640127 4287510838
0.043670312 -0.016939217 -0.0044762222 4287183164
0.017537817 -0.0053340513 -0.015101679 4288098104
0.019948967 -0.0077048964 -0.013300983 4289408549
0.022197582 -0.0092708524 -0.012137998 4289343523
0.024275497 -0.010032253 -0.011612207 4290128413
0.026542775 -0.011597646 -0.010450208 4288100399
0.028447084 -0.011554319 -0.010561414 4287511349
0.030540779 -0.012315081 -0.01003641 4287445814
0.033024214 -0.014683847 -0.0082396129 4286988089
0.035328805 -0.0162481 -0.0070795752 4287249974
0.037644088 -0.01781209 -0.0059200758 4287315253
0.039368793 -0.016964037 -0.0066678282 4287119159
0.041291006 -0.016919911 -0.0067797871 4287904049
0.043418884 -0.017679535 -0.0062564379 4287837238
0.020081148 -0.010024734 -0.01378783 4286594368
0.022510871 -0.01240163 -0.011993032 4287315253
0.024956703 -0.014778012 -0.010199141 4288624168
0.027234659 -0.016347568 -0.0090409685 4288754984
0.02933649 -0.017110404 -0.0085181212 4287315254
0.031443618 -0.017873049 -0.00799553 4287315253
0.033748157 -0.019441787 -0.0068387515 4287249974
0.035673581 -0.01939781 -0.0069510662 4287184693
0.037598826 -0.019353768 -0.0070633148 4287380789
0.03912317 -0.017697519 -0.0084433937 4287118903
0.041245677 -0.018459473 -0.007921448 4287969073
0.020037383 -0.011539941 -0.014911495 4286464319
0.022645384 -0.014732101 -0.012487963 4287314998
0.02509366 -0.017115012 -0.010699037 4287576883
0.027374089 -0.018688846 -0.0095443083 4288820008
0.029851913 -0.021070965 -0.0077570188 4287380789
0.031967014 -0.021835603 -0.007236511 4287249974
0.033895224 -0.021791644 -0.0073490455 4287380788
0.035628438 -0.020939272 -0.0080941534 4287511603
0.037158452 -0.019278627 -0.0094713904 4287707954
0.038677424 -0.017618217 -0.010847894 4288034863
0.04038839 -0.016766157 -0.011591556 4288361264
0.020520978 -0.015487911 -0.01413863 4286464318
0.022601306 -0.016255852 -0.013617959 4287118904
0.025049299 -0.018645311 -0.011833882 4287249974
0.027329504 -0.020223539 -0.010682404 4288427563
0.029807061 -0.022612179 -0.0088999458 4287576883
0.031922013 -0.023379033 -0.0083810743 4287642419
0.033465981 -0.021713864 -0.0097559979 4287838513
0.034998946 -0.020048928 -0.01113019 4287249718
0.018229224 -0.01542574 -0.016416907 4286724419
0.020652808 -0.017822454 -0.014636388 4286922044
0.022914104 -0.019405605 -0.013487147 4287249718
0.025004975 -0.020175464 -0.012968622 4287380533
0.027284965 -0.021758039 -0.011820361 4287969328
0.029389061 -0.022527408 -0.011302541 4287969584
0.031309158 -0.022483766 -0.011414702 4287315508
0.018704377 -0.019388745 -0.015654586 4286921788
0.020960189 -0.020976454 -0.014508324 4287118394
0.022869974 -0.020933365 -0.01462012 4287380278
0.024598517 -0.020075012 -0.015360424 4287576629
0.026505262 -0.02003184 -0.01547193 4287576629
0.028411843 -0.0199886 -0.015583372 4287249718
0.018487737 -0.020094413 -0.017411653 4287118649
0.02038943 -0.020051595 -0.017523039 4287053624
-0.0027947575 0.013487892 0.044127967 4281826633
-0.0016483143 0.01797054 0.039884426 4278572323
0.00017739832 0.018753331 0.039080527 4279026989
0.0025781542 0.016576849 0.041026566 4280201010
-0.0096945912 0.016964801 0.038493823 4282411603
-0.0077285692 0.017007243 0.038377311 4281501763
-0.0060311109 0.018534221 0.036888119 4281242683
-0.0044816695 0.02080328 0.03471341 4280656694
-0.0028090999 0.022329941 0.033225853 4281568574
-0.0010052323 0.023114409 0.032424927 4281242428
0.0012282953 0.021672919 0.033681624 4280006953
0.0040638447 0.017264076 0.037680138 4280656183
-0.015274696 0.013028812 0.039732311 4282021708
-0.012711316 0.021304 0.031960096 4279416118
-0.01076708 0.021345891 0.031844813 4281176639
-0.008691594 0.020643432 0.032414552 4280980543
-0.0066108108 0.019941192 0.032984056 4281241919
-0.0047984943 0.020727854 0.032184117 4278506023
-0.0031313896 0.022258818 0.030700102 4278700589
-0.0013330355 0.023045391 0.029901151 4280655674
0.00060471147 0.02308777 0.029786721 4280525369
0.0029855743 0.020897903 0.031724304 4279157549
0.0058340728 0.016476344 0.035712387 4281307454
-0.018921733 0.0091220271 0.040846922 4281695818
-0.017880619 0.015139904 0.035256032 4281371714
-0.016762841 0.020410076 0.030351777 4278830640
-0.015190676 0.022692181 0.028185133 4279480124
-0.013383236 0.023480549 0.027386762 4279812899
-0.011195503 0.022028707 0.028639283 4281177148
-0.0091283806 0.021323919 0.029207919 4281371968
-0.0071900599 0.021365933 0.029093172 4281241919
-0.0053887032 0.022154547 0.028295513 4280915518
0.00041653216 0.022281289 0.027952533 4278836760
0.0023512319 0.022323728 0.027838379 4280265269
0.0048874915 0.019381322 0.030453071 4281242683
0.0074453279 0.016439479 0.033066556 4281176894
0.010804161 0.0097676534 0.03908819 4281697603
-0.021620523 0.011987638 0.035690226 4281370438
-0.020458557 0.017273776 0.030794591 4280980033
-0.01886427 0.019562736 0.028631303 4280198459
-0.017166089 0.021102354 0.027151462 4281437503
-0.015478957 0.022641879 0.025672302 4281893443
-0.013677035 0.023432311 0.024875954 4281568319
-0.011623587 0.022724945 0.025443703 4281111868
-0.0094335414 0.021268927 0.026692942 4281176894
-0.0075007901 0.021310821 0.026578531 4281111104
-0.0057049654 0.022101589 0.025782816 4280458304
-0.0037752837 0.022143617 0.025668729 4280393024
-0.0019879788 0.022934373 0.024873722 4280458558
8.353591e-05 0.022228021 0.025440864 4280590139
0.0018650144 0.023018848 0.024646349 4281176894
0.003941603 0.022312816 0.025213346 4281177148
0.0061765462 0.020858616 0.026460558 4281372988
0.0088896379 0.017159861 0.029747911 4281829693
0.012422472 0.0097206235 0.036434192 4282089283
-0.021774881 0.011164773 0.033841301 4281566023
-0.02073025 0.017217547 0.028276101 4280848198
-0.019376583 0.021015555 0.024756264 4279024693
-0.017689325 0.02255933 0.023280337 4279678004
-0.015890058 0.02335177 0.022485681 4280656439
-0.013970613 0.02339308 0.022371832 4280200244
-0.0097384751 0.021222986 0.024184611 4281372734
-0.0079452768 0.022015747 0.023390647 4281111104
-0.0060210042 0.022057593 0.023276839 4280849983
-0.0040969029 0.022099547 0.023163121 4281045824
-0.0023151189 0.022892363 0.022370063 4280915518
-0.00024924427 0.022183739 0.022935938 4280981053
0.0016743094 0.022225991 0.022822484 4281046588
0.0037479922 0.021517746 0.023388054 4280981309
0.0080668777 0.019351371 0.025197141 4278900764
0.011109918 0.014141301 0.029832635 4280592944
0.0148357 0.0059306677 0.037179239 4281504059
-0.021592855 0.0080856904 0.034034606 4281761863
-0.020657267 0.014909621 0.027802646 4281764413
-0.019418262 0.019472156 0.023611471 4281503549
-0.017851297 0.021773711 0.021459688 4278374699
-0.012221824 0.022650994 0.020439576 4280851769
-0.010174364 0.021939222 0.021004573 4281176128
-0.0083894134 0.022734057 0.020212699 4281110848
-0.0064734556 0.022775728 0.020099383 4280719933
-0.004557658 0.022817526 0.019986175 4280719423
-0.0024999455 0.022106413 0.020550892 4280785214
-0.00072659552 0.022901393 0.019760005 4281111869
0.0011886731 0.022943486 0.019647051 4280916539
0.0031037405 0.02298566 0.019534182 4280264503
0.013179228 0.011867143 0.029233936 4279875373
0.01693666 0.0036333799 0.036560878 4282481729
0.020420589 -0.0030940985 0.042531699 4284639028
-0.021074988 0.0027308371 0.036255546 4282151249
-0.020125378 0.0095747113 0.03003737 4281760078
-0.019342467 0.017173357 0.023144525 4281762883
-0.018133372 0.021748412 0.018964991 4280652358
-0.016465381 0.023300622 0.017496783 4280588099
-0.014431447 0.022586253 0.018060792 4280392769
-0.012263827 0.02111664 0.019301537 4280980544
-0.010347679 0.021158133 0.019188076 4281305923
-0.008699365 0.022710368 0.01772137 4281175618
-0.0069255494 0.023507204 0.016931899 4281306689
-0.0048787668 0.022793651 0.017495546 4281241919
-0.002826713 0.022080287 0.018058941 4281047863
-0.00091411918 0.022122234 0.017946087 4281178934
0.0011457577 0.021409255 0.018509176 4280265014
0.0029105097 0.022206422 0.017720632 4280720699
0.0048225522 0.022248659 0.017608035 4281958724
0.006734401 0.022290975 0.017495509 4281763139
0.0092794821 0.019314256 0.020084016 4280981818
0.011846125 0.016338095 0.022671316 4281373243
0.015089579 0.010343842 0.027957067 4281764158
0.018709429 0.0028414745 0.034589835 4282352189
-0.021005604 0.00038635172 0.035755098 4281758548
-0.019938193 0.0064920187 0.030227523 4281890639
-0.019031949 0.013354734 0.024026629 4281370694
-0.018174928 0.020216495 0.017828729 4281044294
-0.01662983 0.02253082 0.015688088 4280916283
-0.014850024 0.023329601 0.01489954 4280785213
-0.012690835 0.021855436 0.016137607 4281111104
-0.0090090856 0.02269569 0.015236727 4279028518
-0.0053388849 0.023536179 0.014336816 4278699824
-0.0031532347 0.022063121 0.015573711 4281505079
-0.00095687062 0.020590439 0.016810007 4281242684
0.0009554252 0.020632498 0.016697258 4280590905
0.0025672764 0.022188943 0.015236433 4278831404
0.0043208897 0.022988159 0.014450251 4279743538
0.0062244311 0.023030322 0.014338239 4280461109
0.0084443912 0.021558661 0.015573516 4279942184
0.01083605 0.019330394 0.017481726 4280788529
0.013735056 0.014832079 0.021408916 4281373499
0.017332383 0.0073074102 0.028026801 4282287163
-0.021048259 -0.0012020469 0.034576911 4281824083
-0.01975124 0.0034008622 0.030411471 4281041234
-0.018721804 0.0095232874 0.024899226 4279930453
-0.017856203 0.016404886 0.018715434 4280260934
-0.016548526 0.020245839 0.015231001 4281177149
-0.015017163 0.022566564 0.013096076 4281046588
-0.013117496 0.022607632 0.012983541 4280915264
-0.011348963 0.023408543 0.012197501 4280459579
-0.0094523132 0.023449745 0.01208529 4279614764
-0.0036214367 0.022814497 0.012422166 4281176894
-0.0014334768 0.021337245 0.01365577 4281372734
0.0006178543 0.020619765 0.014216158 4281111358
0.0023743063 0.021421142 0.013431371 4279809074
0.010309555 0.020071901 0.014327231 4280589884
0.013036236 0.016319338 0.017573539 4281112123
0.016455524 0.0095316116 0.023504414 4281699389
0.020092718 0.0019861534 0.030103829 4282612543
-0.023621403 0.0009796517 0.030150682 4281102689
-0.021762058 0.0017838962 0.029360279 4280582744
-0.020022869 0.0033504553 0.02789731 4280125273
-0.018529326 0.0064413436 0.025089532 4279800658
-0.017297782 0.011056181 0.020937897 4279542343
-0.016344603 0.017194662 0.015443332 4281176638
-0.015184201 0.021808203 0.011296085 4281242428
-0.013543811 0.023373216 0.0098394072 4280329529
-0.011521656 0.022652246 0.010399469 4280524349
-0.0094941966 0.021931548 0.010959261 4281633344
-0.0075978525 0.021972887 0.010847176 4281633088
-0.0055625327 0.021252561 0.011406652 4281242174
-0.0036637783 0.021294151 0.011294573 4280655674
-0.0016206354 0.020574234 0.011853763 4281111613
0.00042778999 0.019854464 0.012412735 4280589373
0.0021814555 0.02065802 0.011629707 4280653634
0.0040822327 0.020700078 0.011517826 4280981053
0.0059828237 0.020742204 0.011406007 4281307708
0.0081995726 0.019261766 0.012635072 4281372989
0.010587886 0.017020421 0.014533731 4281242939
0.012992345 0.014779493 0.016431563 4279877924
0.016078308 0.0094944146 0.021008108 4280206363
0.019540258 0.0026881285 0.026921965 4281772063
-0.02029426 0.0033090282 0.02538988 4279666274
-0.018337086 0.0033508986 0.02527361 4279930199
-0.01697991 0.0072146077 0.021802377 4280387414
-0.015895519 0.01260644 0.016991124 4279864918
-0.014974847 0.018761799 0.011511558 4280781133
-0.013457172 0.021095421 0.0093873376 4280785723
-0.0077762008 0.021218937 0.0090513183 4278570283
-0.0038479045 0.02053795 0.0094974721 4280916284
-0.0018076748 0.019815788 0.01005521 4280850239
0.00038505346 0.018330056 0.011282151 4280458814
0.0024385527 0.017608386 0.011839255 4280784959
0.0043446496 0.017650574 0.01172707 4281894209
0.0062505677 0.017692845 0.011614957 4281766453
0.0086306185 0.015444698 0.013509181 4281838109
0.010865971 0.013960429 0.014733995 4281831223
0.013275579 0.011713127 0.016626619 4281963059
0.016200125 0.0071762484 0.02052328 4282614838
0.019326128 0.0018769726 0.025086172 4284313903
-0.018613849 0.0033184048 0.022773162 4279342679
-0.016902231 0.0048933197 0.021318559 4279669843
-0.015692201 0.0095340367 0.017187715 4279472729
-0.014515016 0.014174111 0.013058939 4279150408
-0.01324258 0.018047247 0.0096010966 4281308219
-0.011605076 0.019620996 0.0081512081 4280786998
-0.0099786408 0.021194685 0.0067020357 4279743794
-0.0079544634 0.020469692 0.0072588753 4279223083
-0.0059249736 0.019744877 0.0078155249 4280983094
-0.0037485063 0.018254288 0.0090400027 4281177913
-0.0017057434 0.017530009 0.0095959762 4280916793
0.00048945844 0.016039999 0.010819548 4280200243
0.0068286881 0.013103552 0.013152233 4281309749
0.0092193335 0.010849113 0.015040978 4282224178
0.011465326 0.00936074 0.016261943 4282616879
0.013722025 0.0078727268 0.017482292 4282487339
0.016155615 0.0056194942 0.019368771 4282944044
-0.020950772 0.0040220581 0.019726943 4279601758
-0.018656123 0.0017573629 0.021615293 4279995989
-0.016824678 0.0025679525 0.020831715 4279605073
-0.015121382 0.0041471552 0.019380923 4279930709
-0.013930362 0.0088006556 0.015261023 4279342679
-0.012772162 0.013453515 0.011143188 4279669844
-0.011646807 0.01810579 0.0070273932 4280981053
-0.010287337 0.021220639 0.0042475332 4280719933
-0.0081325956 0.019725017 0.0054698996 4280851259
-0.005828172 0.0174614 0.007358389 4281698624
-0.0036492348 0.01596652 0.0085794879 4281959743
-0.0016039237 0.015240083 0.0091337403 4281048884
0.00044663996 0.014513928 0.009687732 4281701173
0.0026523098 0.013019955 0.010907491 4281571123
0.0048686862 0.011526268 0.012126728 4282354484
0.0072510391 0.0092650373 0.014011047 4282944044
0.0096495301 0.0070042256 0.015894536 4283008558
0.011742756 0.0062794983 0.016446378 4283203379
0.013677798 0.0063227471 0.016332798 4283464753
0.016277224 0.0032953192 0.018879496 4284248623
-0.017106634 0.0025511403 0.018343389 4279797854
-0.015286304 0.0033638384 0.01756214 4279798363
-0.013847288 0.0064887945 0.014783804 4279471963
-0.012942087 0.012696195 0.0093441876 4279603544
-0.011688542 0.01659085 0.0059037749 4281630794
-0.010062132 0.018173262 0.0044610891 4281436738
-0.0079021789 0.016673351 0.0056799501 4280918833
-0.005592633 0.014403382 0.0075632539 4281245998
-0.0034084916 0.012904216 0.0087808454 4281505589
-0.0013579503 0.012175791 0.0093331495 4281898034
0.00069788843 0.011447581 0.0098852133 4282484534
0.0027589947 0.010719603 0.010437055 4282420529
0.0049778521 0.0092216115 0.011652906 4282355503
0.007207416 0.0077240262 0.01286818 4282877744
0.0096056089 0.0054566786 0.014746829 4283075114
0.011698633 0.0047297832 0.015297073 4283662633
0.013796911 0.0040031355 0.015847106 4283857964
0.01639872 0.00096704904 0.018387184 4284510253
-0.015451092 0.0025850832 0.01574681 4279144798
-0.014139898 0.0064916536 0.012310916 4279732829
-0.012856081 0.010397736 0.0088767214 4279080538
-0.011469018 0.013530539 0.0061081368 4280063819
-0.0075359531 0.012840591 0.0065472703 4280327999
-0.0052185431 0.010564212 0.008425287 4280917559
-0.0031680167 0.0098335035 0.0089758923 4281831479
-0.00096794218 0.0083304606 0.010189402 4281961273
0.00094889849 0.0083727092 0.010076451 4281768239
0.0030152574 0.0076426733 0.010626365 4282093364
0.0050868839 0.0069128629 0.011176053 4282485044
0.0071637705 0.0061832629 0.011725499 4283334959
0.0094037801 0.0046816077 0.012937029 4283661613
0.011815071 0.0024081822 0.014810099 4283661613
-0.014182024 0.0049532671 0.011169887 4279930199
-0.012898047 0.0088702478 0.007743788 4280126549
-0.0113803 0.011236751 0.0056439387 4280519758
-0.0094791539 0.011278149 0.0055315364 4279019593
-0.0075781457 0.01131965 0.0054192226 4280522819
-0.0053998008 0.009811569 0.00663062 4280979524
-0.0032107159 0.0083038714 0.0078414185 4281828928
-0.00086671859 0.0060217697 0.0097131794 4282155839
0.0011996329 0.0052894484 0.010261397 4282091323
0.0032712445 0.0045573674 0.010809391 4282287928
0.0050434172 0.0053745341 0.010035167 4282549303
0.0072752088 0.0038682986 0.011243838 4282876214
0.0095176995 0.0023623593 0.012452 4283986739
0.011770874 0.00085680187 0.013659566 4284576299
-0.014224153 0.0034151562 0.010029065 4279341658
-0.012940016 0.0073430464 0.006611065 4279930709
-0.011552747 0.010493265 0.0038554184 4279408979
-0.0096544549 0.010534605 0.0037431894 4280128844
-0.0076203458 0.009798985 0.0042913798 4280129863
-0.0054422431 0.0082865469 0.0054995548 4280390984
-0.0032534227 0.0067745019 0.0067071421 4281761863
-0.0010538623 0.0052627418 0.0079142079 4282089284
0.0010095611 0.0045281984 0.0084609902 4282222649
0.0030782744 0.0037938803 0.0090075424 4282744123
0.0053045303 0.0022830758 0.010213233 4283006263
0.0076965466 -4.0810555e-06 0.012077614 4283529523
-0.013109718 0.0065955017 0.0048193196 4279731299
-0.011594616 0.0089750234 0.0027293544 4279996244
-0.0098296329 0.0097956713 0.0019582585 4279735888
-0.0076625459 0.0082785841 0.0031637345 4280127823
-0.0056233183 0.0075409636 0.0037101246 4280451928
-0.0031547993 0.0044662748 0.0062314579 4280320603
-0.0010968223 0.0037292782 0.0067769028 4280909654
0.0011132061 0.0022135656 0.0079801651 4281498959
-0.011636488 0.007457057 0.0016034944 4279536479
-0.0097384639 0.007498391 0.0014912803 4279147349
-0.007704746 0.0067584347 0.0020362763 4279407959
-0.0095996037 -0.01441781 -0.038542055 4281233504
-0.029375657 -0.0022517927 0.030677699 4281025168
-0.027916919 0.0016133748 0.027199894 4280567443
-0.026272863 0.0039487965 0.025067419 4279587223
-0.024208978 0.0032256357 0.025622711 4278476699
-0.036875524 -0.0078340806 0.033333376 4282929254
-0.033466559 -0.0031487281 0.029070184 4281683833
-0.031786751 -0.00080637075 0.026940171 4279454369
-0.026739735 0.0054525118 0.02122689 4279585439
-0.037546158 -0.0040403437 0.027465776 4280635274
-0.035945129 -0.00092211273 0.024670236 4279455644
-0.034175351 0.00065735076 0.023214564 4278865574
-0.032612652 0.0037749745 0.020421535 4279058099
-0.030971076 0.006123215 0.018298779 4278990778
-0.026993696 0.0054360069 0.018736612 4278797998
-0.024946593 0.0047081932 0.019289631 4279127203
-0.037766945 -0.0040733125 0.024960749 4279718549
-0.036263838 -0.00017503276 0.021504238 4278931619
-0.032947678 0.0045348015 0.017266244 4278995624
-0.031213544 0.0061181318 0.01581613 4279652249
-0.029386964 0.0069300719 0.015033918 4279323043
-0.02745977 0.0069708545 0.014919098 4278994859
-0.025423769 0.0062406305 0.015471159 4279061669
-0.023494061 0.0062817018 0.015356365 4278601904
-0.037897743 -0.0048710257 0.023128763 4279325338
-0.03630475 -0.0017355308 0.020346675 4278603944
-0.034733642 0.0013996251 0.017565977 4278406573
-0.031455781 0.0061219893 0.013340187 4278598078
-0.025791649 0.0070174634 0.012331068 4279127458
-0.023870256 0.007058356 0.012216765 4278472618
-0.037849031 -0.0072158407 0.022629626 4280831878
-0.036345668 -0.0032957662 0.019189306 4278932129
-0.034869637 0.00062388554 0.015750721 4278931363
-0.02786025 0.0062159617 0.010642215 4278472363
-0.026050404 0.0070321951 0.0098643834 4278537643
-0.024134614 0.0070730001 0.0097504361 4278800038
-0.021990471 0.0055631585 0.010963102 4278799783
-0.039333977 -0.013496238 0.025561634 4282209135
-0.037710793 -0.01034281 0.022790607 4280897923
-0.036294214 -0.0056336727 0.018695097 4279784594
-0.03481533 -0.0017030705 0.015264447 4279325084
-0.033363778 0.0022270661 0.011835511 4278668969
-0.031637926 0.0038232449 0.010395649 4278669223
-0.029819805 0.0046415702 0.0096188253 4278603433
-0.02779524 0.0039044656 0.010166633 4278603178
-0.026091482 0.0055006221 0.0087283431 4278341549
-0.022374474 0.0063598435 0.0078389151 4278602158
-0.020344883 0.0056233332 0.0083867824 4279322789
-0.03946206 -0.014299517 0.023725227 4281946739
-0.037751943 -0.011917712 0.021622349 4280374663
-0.036242872 -0.0079757199 0.018197894 4280243849
-0.03485617 -0.0032540243 0.014113975 4279915663
-0.03350224 0.0014670622 0.010032146 4279063454
-0.031779159 0.0030675642 0.0085957078 4278799273
-0.029963862 0.0038880557 0.0078206332 4278864298
-0.027942225 0.0031486824 0.0083670458 4278734504
-0.022644006 0.0063901078 0.0053846696 4278268873
-0.020736903 0.0064309556 0.0052714087 4278599864
-0.01871036 0.0056923367 0.0058179414 4278535349
-0.039590023 -0.015098201 0.021892305 4281749114
-0.03761404 -0.015057138 0.021774016 4280308619
-0.03600714 -0.011886491 0.019017022 4280308619
-0.034517091 -0.0079338895 0.015601891 4280309129
-0.033249781 -0.0024172673 0.010869752 4279128223
-0.031719409 0.00075214822 0.0081176059 4278995878
-0.030004639 0.0023569893 0.0066849506 4278929833
-0.028089091 0.0023975391 0.0065708319 4278406063
-0.026390839 0.0040022414 0.0051393909 4278732973
-0.024703592 0.0056067966 0.0037086662 4279453348
-0.022913307 0.0064294096 0.0029370533 4278928304
-0.021011796 0.0064701568 0.0028241388 4278796214
-0.018990908 0.0057291873 0.0033694226 4279518118
-0.016842455 0.0042067915 0.0045723515 4278404533
-0.039891351 -0.014322991 0.018745992 4281815924
-0.037923709 -0.014282094 0.01862821 4280439434
-0.036140524 -0.012671961 0.017194334 4280766599
-0.034463234 -0.010277466 0.015103289 4280177803
-0.033095304 -0.0055299439 0.011040066 4279522964
-0.031659786 -0.001567346 0.0076364791 4279323553
-0.030148502 0.0016104877 0.0048920326 4279257509
-0.024855856 0.0048688836 0.0019226959 4279453604
-0.02306838 0.0056935791 0.0011529168 4279781534
-0.021169737 0.0057342425 0.0010401588 4278467773
-0.019151777 0.0049910918 0.0015839627 4279518628
-0.017250638 0.0050320569 0.0014712401 4279454623
-0.0058466271 0.0052801557 0.00079682749 4278604708
-0.0036639944 0.0037548672 0.0019951053 4279977883
-0.0017585456 0.0037968289 0.001882798 4279321514
0.00029341877 0.0030555148 0.0024254089 4279715234
0.0025000796 0.001531126 0.0036224704 4281354119
-0.040192343 -0.01353438 0.015609547 4282470509
-0.038233038 -0.013493638 0.015492276 4281487738
-0.036365934 -0.012666082 0.014718627 4280309128
-0.03450435 -0.011838471 0.013945363 4280177548
-0.032843467 -0.0094377017 0.011860293 4280112013
-0.031499952 -0.0046774764 0.0078082839 4278998684
-0.030086182 -0.00070433598 0.0044141766 4279521433
-0.028488223 0.0016954727 0.0023331344 4278799783
-0.025007997 0.0041355491 0.00014019758 4278532033
-0.019431897 0.0050437003 -0.0008528661 4279388068
-0.017536353 0.0050845537 -0.00096524972 4278472618
-0.015765768 0.0059115179 -0.0017320681 4278274483
-0.012111045 0.0067795757 -0.0026103095 4278870419
-0.010354467 0.0076065827 -0.0033760392 4279127968
-0.008467745 0.0076477882 -0.003487499 4279323553
-0.006304279 0.0061176457 -0.0022913897 4279978648
0.0017102584 0.0039279964 -0.00077804271 4280042398
0.0040658265 0.0016138367 0.0010690019 4282334848
-0.038542017 -0.012691866 0.012366221 4281553529
-0.036591109 -0.012651171 0.012249547 4280571014
-0.034735072 -0.011821553 0.011478267 4280374664
-0.032787029 -0.011780653 0.011361961 4279260058
-0.031340346 -0.0077960677 0.007973888 4278735524
-0.029920988 -0.0038119443 0.0045875292 4279194268
-0.028634664 0.00096032768 0.00054885913 4278866848
-0.026947416 0.0025779065 -0.00087225018 4278733739
-0.025271159 0.0041953027 -0.0022925963 4278403004
-0.023378152 0.0042357333 -0.0024051028 4279385264
-0.021601852 0.0050647147 -0.0031709266 4278995114
-0.019592464 0.0043169782 -0.0026298123 4278930854
-0.017821833 0.0051460471 -0.0033951406 4278865829
-0.016181543 0.0067632739 -0.0048129032 4278538153
-0.012282945 0.0060569681 -0.0043833409 4278798253
-0.010529153 0.0068860855 -0.0051472927 4279650719
-0.0086452924 0.0069272332 -0.0052585793 4279715489
-0.0066231936 0.0061806105 -0.0047176671 4279584674
-0.0043135919 0.003858503 -0.0028730747 4278799019
-0.0025630966 0.0046879686 -0.0036365166 4278799784
0.0013688877 0.0039838888 -0.0032078153 4278666418
0.0037186891 0.0016630851 -0.0013652793 4279781534
-0.036631994 -0.014209481 0.011093608 4280964478
-0.034681316 -0.014168659 0.010977046 4280439943
-0.032828182 -0.01333678 0.010207667 4279391129
-0.031281166 -0.010132195 0.0074804248 4279849363
-0.029858947 -0.0061371187 0.0041019954 4279784594
-0.028358411 -0.0029332731 0.0013777055 4279587224
-0.026879761 0.0002702307 -0.0013451898 4278997408
-0.025423001 0.0034734048 -0.0040666843 4278734504
-0.023646679 0.0043043736 -0.0048309574 4278603433
-0.021759365 0.0043448117 -0.0049430309 4278603178
-0.019752908 0.0035948865 -0.0044033965 4278734758
-0.017985079 0.0044260528 -0.0051668817 4278602159
-0.01622282 0.0052571818 -0.0059299753 4278535858
-0.014211271 0.0045077037 -0.0053903926 4279323553
-0.012454707 0.0053389333 -0.0061529824 4279062689
-0.010570843 0.005379986 -0.0062643401 4278668713
-0.0050611347 0.0062937681 -0.007248213 4280174489
-0.003180556 0.0063351598 -0.0073590707 4279651994
-0.0011536479 0.0055867694 -0.0068198373 4279453603
0.00087854266 0.0048386008 -0.0062808339 4279190698
0.0032198802 0.0025110878 -0.0044426518 4279192228
0.0054227337 0.00097375363 -0.003254931 4279912858
-0.036764845 -0.014974263 0.0092862668 4282470763
-0.034722358 -0.015726697 0.0098213209 4279718038
-0.03286932 -0.014892642 0.0090535665 4280111759
-0.03122209 -0.012472401 0.0069839349 4280308619
-0.029591285 -0.010052454 0.0049153967 4280177804
-0.028188083 -0.0060467822 0.0015462823 4279522964
-0.026812214 -0.0020415597 -0.0018211096 4279128989
-0.025574714 0.0027560592 -0.0058373241 4278668459
-0.023801204 0.003589157 -0.0065998007 4278864808
-0.021916751 0.0036295392 -0.0067117009 4278668714
-0.019913223 0.0028773788 -0.0061735082 4278471853
-0.016388748 0.0045438781 -0.0076965368 4278398923
-0.012366164 0.0030406807 -0.0066204872 4278995369
-0.010612532 0.0038741492 -0.0073811924 4278472619
-0.0085934065 0.0031229928 -0.0068434281 4278734249
-0.005103156 0.0047900882 -0.008363436 4278268873
0.0028733015 0.0025804359 -0.0068620974 4279192229
0.0050704852 0.0010385895 -0.0056772325 4278930598
0.0072783604 -0.00050286483 -0.0044929553 4280042398
-0.037081402 -0.014143581 0.006182286 4281816178
-0.035047296 -0.014898405 0.0067162663 4280503184
-0.033105176 -0.014857649 0.0066003017 4280898433
-0.03136329 -0.013226241 0.005185361 4280832899
-0.029632386 -0.011595006 0.0037711924 4280439433
-0.02801799 -0.0091687012 0.0017085457 4280046478
-0.026528273 -0.0059475759 -0.0010020775 4279588243
-0.025393367 -0.00034176558 -0.0056579122 4279194013
-0.023955602 0.0028785244 -0.0083652437 4278734249
-0.022074021 0.0029188357 -0.00847698 4278340529
-0.020311695 0.0037540924 -0.00923701 4278929834
-0.018676791 0.0053841732 -0.010644878 4278666674
-0.016928315 0.0062193535 -0.01140392 4278600375
-0.01279787 0.0039166939 -0.0096820062 4278797744
-0.01091972 0.0039576069 -0.0097930366 4278471599
-0.009041708 0.003998626 -0.0099039786 4278602668
-0.0074402317 0.0056286491 -0.011309373 4278537133
0.00019716471 0.0049995035 -0.011104025 4278340529
0.0022234097 0.0042468905 -0.010567807 4278668203
0.0045639649 0.0019064564 -0.0087392488 4278864808
0.0067634508 0.00036039762 -0.0075576897 4278930853
0.0091335773 -0.0019791815 -0.005730724 4282332554
-0.033243489 -0.01561112 0.0048017101 4281356669
-0.031404346 -0.014772882 0.0040381132 4281028739
-0.029776223 -0.012339905 0.001979393 4280636039
-0.028164528 -0.0099071721 -7.8195706e-05 4280308108
-0.026461072 -0.0082718693 -0.001487345 4279718803
-0.025212266 -0.0034479555 -0.0054847784 4279063198
-0.02388259 0.00057822745 -0.0088331001 4278668968
-0.019083094 0.0062783565 -0.013694796 4279716764
-0.017342869 0.0071155839 -0.014451768 4279520414
-0.01535368 0.0063590705 -0.013915658 4279650463
-0.013099231 0.0040092506 -0.012087597 4278338488
-0.011226665 0.0040500537 -0.01219829 4278667694
-0.009218812 0.0032943077 -0.01166309 4278668203
-0.007481914 0.0041319467 -0.012419431 4278471853
-0.0056097582 0.0041730646 -0.012529859 4278668714
-0.0038813055 0.0050107278 -0.013285546 4278668968
-0.002012156 0.0050519742 -0.013395649 4278668968
-0.00014314055 0.0050933287 -0.013505666 4278602923
0.0017257407 0.0051347502 -0.013615619 4278733738
0.0037488937 0.0043800529 -0.013080794 4278668203
0.0057773441 0.003625568 -0.012546208 4279323553
0.0078110844 0.0028712265 -0.01201184 4280699278
-0.031645317 -0.014720136 0.0015984364 4281685108
-0.029919941 -0.013080269 0.00019103102 4280963968
-0.028205525 -0.011440549 -0.0012155832 4280243083
-0.026285827 -0.011399774 -0.0013298453 4280307854
-0.024920516 -0.0073620672 -0.0046722814 4279915154
-0.023696117 -0.0025254497 -0.0086585023 4278865828
-0.022388171 0.0015112534 -0.011997363 4278865828
-0.013530254 0.0049096495 -0.015131029 4278535349
-0.011665981 0.0049502496 -0.015241248 4278537134
-0.0096664913 0.0041921362 -0.01470718 4278799273
-0.0079378374 0.0050317887 -0.015461402 4278602924
-0.0059331581 0.0042739827 -0.014927497 4278602923
-0.0040667057 0.0043150559 -0.015037525 4278668459
-0.0022003874 0.0043562483 -0.015147459 4278864808
-0.00033422559 0.0043975189 -0.01525732 4278537133
0.0096445531 0.0014123293 -0.013235014 4281352844
-0.03188606 -0.014658357 -0.00083461218 4282012784
-0.029960897 -0.014617723 -0.00094939163 4281159809
-0.028351877 -0.012172021 -0.0029971329 4280505224
-0.026435051 -0.012131303 -0.0031112218 4280111503
-0.024850715 -0.0096858311 -0.0051573496 4279585183
-0.02350986 -0.0056376709 -0.0084901676 4278865064
-0.022428811 1.2911856e-05 -0.013108719 4279062178
-0.021029081 0.0032586195 -0.015794206 4279192484
-0.019407853 0.0049014259 -0.017191581 4278339508
-0.017548811 0.0049415994 -0.017301723 4279056823
-0.015689876 0.0049818642 -0.017411787 4278731954
-0.013571352 0.0034199562 -0.016235918 4278799273
-0.0118398 0.0042616632 -0.016988907 4278537388
-0.0098432004 0.0035012569 -0.01645625 4278537899
-0.0081173442 0.0043430664 -0.017208735 4278668969
-0.0061155707 0.0035829768 -0.016676232 4278406573
-0.0043954328 0.0044248626 -0.017428227 4278602923
-0.0025346875 0.0044658948 -0.017537858 4278406573
-0.00067408383 0.0045070425 -0.017647393 4278406064
0.0011863858 0.0045482852 -0.01775685 4278339253
0.0028923675 0.0053901765 -0.0185077 4279384499
0.0044356883 0.0070325751 -0.019899435 4279057078
0.0089516863 0.0031132847 -0.016911898 4279517354
0.011808097 -0.0016469853 -0.013176332 4281286033
-0.030104414 -0.015351064 -0.0027325442 4280898689
-0.028392799 -0.013702718 -0.004132532 4280373643
-0.026692163 -0.012054448 -0.0055318242 4279586460
-0.025002502 -0.010406338 -0.006930334 4279783064
-0.023437295 -0.0079546589 -0.008970405 4280045713
-0.022237074 -0.0030924315 -0.012935681 4279062688
-0.021069616 0.0017691888 -0.016898941 4278734504
-0.019570034 0.0042198207 -0.01893485 4278669223
-0.017713852 0.0042598993 -0.019044846 4278734248
-0.015730701 0.0034967605 -0.018513286 4278734504
-0.014001817 0.0043404344 -0.019264534 4278472108
-0.01241101 0.0059873573 -0.020656556 4278472108
-0.010695964 0.0068309233 -0.021406844 4278926518
-0.0087105893 0.0060682353 -0.020875115 4279453604
-0.0065792128 0.0045026969 -0.019702915 4278603433
-0.004580494 0.0037405137 -0.019171815 4278734503
-0.0027225837 0.0037814882 -0.019281276 4278668968
-0.00071599334 0.0030196812 -0.018750489 4278273973
0.0026959926 0.0047077294 -0.020249017 4279717019
0.0043935925 0.0055517107 -0.020997681 4278799528
0.0064050481 0.0047903806 -0.020466907 4279323044
0.0085841939 0.0032267068 -0.019296993 4278864044
0.011104368 5.8274716e-05 -0.016849197 4279126694
0.013142526 -0.00070217531 -0.01631978 4282268039
-0.03035032 -0.015273781 -0.0051535983 4282143599
-0.028749421 -0.012815182 -0.0071912101 4279718039
-0.026841063 -0.012774657 -0.0073048049 4280176785
-0.025043473 -0.011928137 -0.0080591124 4280373899
-0.023364834 -0.010275763 -0.0094536953 4280112014
-0.021929432 -0.0070119775 -0.012128498 4279457429
-0.02087244 -0.0013314402 -0.016722884 4279259549
-0.019732092 0.0035427473 -0.020674758 4279192228
-0.01800305 0.0043884087 -0.021424614 4278864553
-0.016152561 0.0044284947 -0.021534177 4278733738
-0.014302172 0.004468685 -0.021643654 4278668714
-0.0050521046 0.0046710987 -0.022189811 4278930853
-0.0030564144 0.0039067287 -0.021660037 4278603178
-0.0012042075 0.0039476603 -0.021769099 4279061159
0.0023455396 0.0048347861 -0.022625251 4278400199
0.0085417256 0.001739474 -0.020399949 4278732464
0.010566272 0.00097639579 -0.019871384 4279257763
0.012596101 0.00021357927 -0.019343099 4279716254
-0.02900051 -0.012722588 -0.0096004866 4281553529
-0.02698984 -0.01349032 -0.0090744132 4280635783
-0.024973813 -0.014257789 -0.0085485484 4279980943
-0.023292474 -0.012601055 -0.0099400179 4280046734
-0.021622118 -0.010944386 -0.011330782 4279653524
-0.020556696 -0.0052484674 -0.015914364 4279326103
-0.01952948 0.00044678058 -0.020495638 4279259038
-0.018167771 0.0037180036 -0.023159359 4278733739
-0.016447075 0.0045657009 -0.023906998 4278733738
-0.014602266 0.0046057682 -0.024016149 4278602923
-0.011183232 0.0063012168 -0.025509704 4279448503
-0.0093442202 0.0063414667 -0.025618281 4278661573
-0.005236771 0.0040002111 -0.023923416 4279126438
-0.0032439977 0.0032336153 -0.023395151 4278537643
-0.0015433431 0.0040817019 -0.024140991 4278602923
0.00015171617 0.0049297716 -0.024886422 4278795449
0.0083369613 0.001059344 -0.02213891 4279061923
0.010358617 0.00029406976 -0.02161184 4279062179
0.012385562 -0.000471076 -0.021084994 4279323553
0.014929175 -0.0036561526 -0.018651418 4279780769
-0.02724633 -0.013391041 -0.011478385 4282012273
-0.025235951 -0.014160884 -0.010953786 4280766598
-0.023333509 -0.014120261 -0.011066863 4280112014
-0.021663178 -0.012459251 -0.012454397 4279980688
-0.020241302 -0.0091782995 -0.015115414 4279850128
-0.019205634 -0.003467693 -0.019685829 4279391384
-0.01820818 0.0022422448 -0.024253938 4279389089
-0.016614456 0.0039019864 -0.025636569 4278668203
-0.012798317 0.0031722803 -0.0252182 4279060904
-0.011223987 0.0048319083 -0.026599456 4278930854
-0.0095228814 0.0056818333 -0.027344041 4278994858
-0.0078273416 0.0065316819 -0.028088186 4279125673
-0.005707711 0.0049528722 -0.026924968 4278929324
-0.0035773516 0.0033744816 -0.025762327 4278733738
-0.0018822029 0.0042246096 -0.026506234 4278602924
0.00011011958 0.0034560207 -0.025979415 4278603433
0.0017995611 0.0043062139 -0.026722845 4278472618
0.003797017 0.0035379436 -0.026196178 4278473128
0.0057997853 0.0027698744 -0.025669765 4278996389
0.0079701021 0.0011928566 -0.024509031 4278865319
0.010316081 -0.0011928054 -0.022714524 4278668713
0.012678228 -0.0035780845 -0.020920871 4279717529
0.015056521 -0.0059628962 -0.019128088 4281551998
-0.025166318 -0.016492246 -0.011444493 4280832644
-0.023487758 -0.014826873 -0.012829402 4279915408
-0.021704227 -0.013973925 -0.013577869 4280112014
-0.020163585 -0.0114965 -0.015596941 4280111503
-0.019003522 -0.0065827901 -0.019520901 4279719059
-0.018124461 -4.5459718e-05 -0.024713233 4278865829
-0.01665486 0.0024307352 -0.026727792 4278997408
-0.0058919862 0.0042954702 -0.028648648 4278732463
-0.004056327 0.0043358933 -0.028756842 4278471598
-0.0022207946 0.0043764319 -0.028864942 4278864809
-8.2783401e-05 0.0027939845 -0.027705815 4278602924
0.0017579123 0.0028348193 -0.027814083 4278537388
0.0039119497 0.0012529548 -0.026655808 4278274738
0.0060767457 -0.000328633 -0.025498062 4278274483
0.0082522482 -0.0019098055 -0.024340887 4278930343
0.010768294 -0.0051131807 -0.02191877 4279389853
0.012970671 -0.0066935997 -0.020763058 4280766344
0.01586514 -0.011518143 -0.017078089 4282271609
-0.023528706 -0.016343495 -0.01395433 4281160064
-0.021861143 -0.014673929 -0.015335218 4279521434
-0.020204566 -0.01300444 -0.016715411 4279455643
-0.018801626 -0.0097064655 -0.019362267 4279456154
-0.017668683 -0.0047801798 -0.023274906 4278472109
-0.016441703 -0.0006687725 -0.026552103 4278996643
-0.015112545 0.0026280005 -0.02919437 4278800039
-0.0083301775 0.0060440581 -0.03215865 4278797744
-0.0062191896 0.0044563822 -0.031001378 4278537134
-0.0040974766 0.002869077 -0.029844712 4278733738
-0.0021135285 0.0020957999 -0.029320676 4279388069
0.00017821789 -0.00030457973 -0.027533028 4279125674
0.0021782145 -0.0010772841 -0.027009849 4278800803
0.0041834936 -0.0018498227 -0.026486874 4278931363
0.0063534752 -0.0034355903 -0.0253327 4279192994
0.0085341781 -0.0050210934 -0.024179064 4279651483
0.010890462 -0.007419609 -0.02239489 4280373133
0.01326289 -0.0098177064 -0.020611547 4280700554
-0.025689699 -0.01626694 -0.016231684 4281096569
-0.023795851 -0.016226526 -0.016344268 4281293173
-0.022133764 -0.014552705 -0.017721653 4279521434
-0.020482641 -0.012879056 -0.019098263 4280439179
-0.01896378 -0.010388971 -0.02110628 4280111503
-0.017461337 -0.0078991894 -0.023113208 4279718803
-0.016102046 -0.0045932028 -0.025750894 4279324829
-0.015023485 0.0003450904 -0.029650427 4279062178
-0.013713367 0.0036502015 -0.032285061 4278735523
-0.012155384 0.0053225141 -0.033655725 4278866084
-0.010057997 0.0037299749 -0.032501046 4279192993
-0.0080901757 0.0029539112 -0.031977944 4278996134
-0.0059740096 0.0013620341 -0.030824263 4278405554
-0.0038470775 -0.00022956822 -0.02967111 4278536113
-0.0020063519 -0.00018896069 -0.02977955 4278471089
0.0001366213 -0.001779967 -0.028627239 4279388323
0.0021364316 -0.0025548525 -0.028105669 4279784083
0.004454799 -0.0049610492 -0.02632428 4279850129
0.0064706281 -0.0057353862 -0.02580351 4279521433
0.0088159144 -0.0081408182 -0.024023578 4278996898
0.010847755 -0.0089146197 -0.023503613 4279980433
0.013052404 -0.010503795 -0.022354513 4280635019
-0.028054584 -0.014543148 -0.019765649 4282339949
-0.022521891 -0.013603876 -0.020732295 4281816434
-0.020641971 -0.013563537 -0.020843886 4280570758
-0.019004572 -0.011885702 -0.022216424 4280308364
-0.017254226 -0.011026648 -0.022957854 4280045968
-0.01576272 -0.0085304845 -0.02495921 4279784083
-0.014805153 -0.0027604615 -0.029479627 4279259294
-0.013621576 0.0013719015 -0.03273797 4278997408
-0.011926059 0.0022301693 -0.03347585 4278472363
-0.0099610128 0.0014517549 -0.032954287 4279126438
-0.0077101439 -0.00096301455 -0.03117419 4278928303
-0.005872 -0.00092267431 -0.031282634 4279191464
-0.0034512356 -0.0041548377 -0.028874829 4279454368
-0.001602456 -0.0041140569 -0.028983746 4279979158
0.00039731711 -0.0048912847 -0.028463844 4279848599
0.002248548 -0.0048502637 -0.028572764 4279979924
0.0045693293 -0.0072628949 -0.026796415 4280045713
0.0067469999 -0.0088572744 -0.025649153 4279980178
0.0089353994 -0.010451295 -0.024502505 4279520923
0.010805085 -0.01040951 -0.024612252 4279192484
0.013176948 -0.012820713 -0.022838611 4280961929
-0.022793937 -0.01346273 -0.023103956 4282471784
-0.020919599 -0.013422538 -0.023215234 4281619573
-0.019045345 -0.013382228 -0.023326423 4279980943
-0.017295063 -0.012521036 -0.024066254 4280046479
-0.015676923 -0.010839124 -0.025434237 4279849619
-0.014587037 -0.0058745099 -0.029315125 4279849364
-0.013265811 -0.0025518602 -0.031937473 4279128224
-0.011696953 -0.00087064691 -0.033302337 4279061158
-0.0095891766 -0.0024716966 -0.032154769 4279454114
-0.0073304586 -0.0048927804 -0.030380033 4279781278
-0.0053413808 -0.0056726392 -0.029861357 4278798764
-0.0033469573 -0.0064523667 -0.029342908 4278929834
-0.0014955923 -0.0064115585 -0.029452 4279651483
0.00050672889 -0.0071908664 -0.028933909 4279848344
0.0023605675 -0.007149817 -0.029043004 4279849109
0.0046837702 -0.0095689641 -0.02727161 4279980433
0.006704703 -0.010347589 -0.026754413 4280242574
0.008892864 -0.011945955 -0.02561098 4280110739
0.010927118 -0.012724134 -0.025094453 4279716508
0.013301395 -0.015141819 -0.02332582 4280174489
-0.033882752 -0.016844843 -0.02228713 4280695199
-0.021078587 -0.014095806 -0.024952542 4280702338
-0.019086096 -0.014878622 -0.024436321 4280177549
-0.017335888 -0.014015268 -0.02517454 4280112014
-0.015717767 -0.012329015 -0.026539292 4279849873
-0.01436913 -0.0089971479 -0.029156923 4280111504
-0.013042361 -0.0056656692 -0.031773195 4279390363
-0.011333369 -0.0048028035 -0.032508671 4279586203
-0.0093550906 -0.0055852942 -0.031991139 4280045204
-0.0073715039 -0.0063675828 -0.031473853 4280110228
-0.0055254437 -0.0063270838 -0.031582773 4279913624
-0.003533937 -0.0071090115 -0.031065818 4279848343
-0.001388818 -0.0087131895 -0.029923391 4278995624
0.00076703727 -0.010317022 -0.028781589 4279848088
0.0027799234 -0.011098234 -0.028265636 4279979158
0.0049545541 -0.012701476 -0.027124811 4280112269
0.006980747 -0.01348216 -0.02660954 4280504458
0.0090122521 -0.014262666 -0.026094537 4281357179
0.011213653 -0.015865086 -0.024955038 4282012528
-0.019005779 -0.01720006 -0.024920378 4282010744
-0.017252933 -0.016334452 -0.025657192 4280897923
-0.015758578 -0.013818727 -0.027644217 4279718803
-0.014409833 -0.01047821 -0.030255422 4280439433
-0.012951035 -0.0079630166 -0.032240238 4279783064
-0.011239387 -0.007097932 -0.032974266 4279914389
-0.0093959272 -0.0070577241 -0.033083208 4280242064
-0.0075525865 -0.0070174108 -0.033192061 4280438669
-0.0054237843 -0.0086264722 -0.032052115 4280635019
-0.0034297183 -0.0094105843 -0.0315369 4280569485
-0.0011339113 -0.011843626 -0.02977385 4280044693
0.0010271519 -0.013451744 -0.028635554 4279062433
0.0031989589 -0.015059479 -0.027497854 4279521434
0.0050687492 -0.015018062 -0.027607884 4281096824
0.0067793131 -0.014152152 -0.028341211 4281295723
-0.021277897 -0.016256228 -0.027792912 4282929254
-0.019288499 -0.017043496 -0.027279764 4281615494
-0.017417464 -0.017003192 -0.027390715 4281225088
-0.015925776 -0.014481049 -0.029372763 4278996898
-0.014450505 -0.011959104 -0.031353798 4279848599
-0.012859799 -0.010264563 -0.032710396 4279586714
-0.011145495 -0.0093972739 -0.033442982 4279586459
-0.009436734 -0.0085300095 -0.034175172 4279520668
-0.0075935051 -0.0084897354 -0.034284048 4280241044
-0.0056076683 -0.0092762616 -0.033770081 4280765323
-0.0033256188 -0.011716275 -0.03201111 4280568718
-0.0011755526 -0.013329049 -0.030875523 4279783063
0.00083439797 -0.014114817 -0.030362736 4280437394
0.0030032769 -0.015726987 -0.029228117 4280373899
0.016587071 -0.017914657 -0.028132692 4282732904
-0.021672923 -0.015258924 -0.030767053 4282012528
-0.018200036 -0.013520016 -0.032232344 4281948268
