# .PCD v0.7 - Point Cloud Data file format
VERSION 0.7
FIELDS x y z rgba
SIZE 4 4 4 4
TYPE F F F U
COUNT 1 1 1 1
WIDTH 971
HEIGHT 1
VIEWPOINT 0 0 0 1 0 0 0
POINTS 971
DATA ascii
0.027266927 -0.0093466155 -0.0059217983 4290194714
0.028749526 -0.0076857852 -0.0072995392 4290717974
0.030420601 -0.0068334369 -0.0080445968 4291110418
0.032288291 -0.0067893444 -0.0081575122 4291240724
0.034360737 -0.0075532896 -0.0076387576 4290913558
0.036438443 -0.0083171008 -0.0071202409 4289474084
0.038942084 -0.01069665 -0.0053394898 4289147429
0.041674934 -0.013883729 -0.0029285257 4289799719
-0.022228025 -0.007908511 -0.0072344239 4290068743
-0.020235706 -0.0086789941 -0.0067142821 4290130964
-0.01836684 -0.0086371964 -0.0068289977 4290785039
-0.01662958 -0.0077833226 -0.0075780838 4289541403
-0.014763657 -0.0077413702 -0.0076924539 4290326549
-0.012760907 -0.008511195 -0.0071726362 4289344799
-0.010752846 -0.0092807906 -0.0066530635 4290260248
-0.0084547102 -0.011673671 -0.0048661237 4289475103
-0.0067207739 -0.010819352 -0.0056146174 4289344289
-0.0045489669 -0.012399904 -0.0044623488 4290063389
-0.0029685423 -0.010733902 -0.0058437982 4290325018
-0.0015524179 -0.0082565248 -0.0078576673 4291240724
0.00031520426 -0.0082137482 -0.007971555 4291044373
0.0023413599 -0.0089822514 -0.0074525815 4290979093
0.0045342147 -0.0105619 -0.006301207 4291110418
0.006245397 -0.0097073596 -0.0070478371 4289736989
0.0079510212 -0.008852968 -0.0077940705 4289867804
0.0099901631 -0.0096208081 -0.0072756163 4289802014
0.011862308 -0.0095773991 -0.0073893885 4290717973
0.013209321 -0.007100964 -0.0093984902 4290456344
0.014895305 -0.0062466795 -0.010143269 4289866783
0.016936533 -0.0070141545 -0.0096247066 4289605154
0.019532472 -0.010213863 -0.0072124559 4289801758
0.021220654 -0.0093592592 -0.0079572462 4290586903
0.02309183 -0.009315405 -0.0080706105 4289474848
0.024580278 -0.0076503046 -0.0094455555 4289801759
0.026639678 -0.0084169945 -0.0089278258 4289344034
0.028310902 -0.0075625395 -0.0096713286 4289474594
0.030375414 -0.0083289919 -0.0091538206 4290455323
0.032040879 -0.0074745845 -0.0098969098 4289735713
0.034110479 -0.0082408004 -0.0093796216 4289932064
0.036185309 -0.0090068253 -0.0088626016 4289408038
0.03847573 -0.010582898 -0.0077161784 4289147174
0.040989809 -0.012968712 -0.0059409034 4288491823
-0.02494204 -0.016812075 -0.0024074097 4288365343
-0.023412894 -0.014326905 -0.0044242977 4288691743
-0.022146728 -0.01021333 -0.0077067832 4290521368
-0.020403888 -0.0093573797 -0.0084547605 4290718484
-0.018666584 -0.0085014598 -0.0092023276 4289279009
-0.016803399 -0.0084596844 -0.0093166139 4291111184
-0.014940321 -0.0084178271 -0.0094308332 4291634188
-0.012940492 -0.0091899009 -0.0089124627 4291045904
-0.011214525 -0.0083338097 -0.0096590165 4290521623
-0.0089248717 -0.010733371 -0.0078764614 4289932574
-0.0071991533 -0.0098770689 -0.00862284 4289736224
-0.0048879907 -0.012275994 -0.0068414132 4289801503
-0.0033130199 -0.010605728 -0.0082193408 4290847768
-0.0017490387 -0.0089356909 -0.0095965061 4289147174
-4.016608e-05 -0.0080794143 -0.01034159 4289343524
0.0018217489 -0.0080366964 -0.010455078 4289735968
0.0041675419 -0.010434306 -0.0086754486 4290194204
0.0058732703 -0.009577821 -0.0094201323 4290325783
0.0077401847 -0.0095347362 -0.0095337369 4289998619
0.00960695 -0.0094915479 -0.009647252 4289540383
0.011473559 -0.0094482899 -0.0097607058 4289998619
0.013165094 -0.0085918102 -0.010504285 4291437584
0.014851034 -0.0077353641 -0.011247454 4291372303
0.016711734 -0.0076920139 -0.011360375 4291307023
0.018938445 -0.0092745256 -0.010213846 4291110674
0.020618469 -0.0084179863 -0.010956487 4289671198
0.022481412 -0.0083743623 -0.011069378 4289213219
0.024344198 -0.0083306935 -0.011182228 4289605408
0.026400737 -0.0090996558 -0.010665964 4289670689
0.028659217 -0.010681067 -0.0095210951 4289539363
0.030330278 -0.009824438 -0.010262968 4289735713
0.0323999 -0.010592926 -0.0097473729 4289670178
0.034269989 -0.010548748 -0.0098604113 4289343779
0.036347426 -0.011316965 -0.0093451515 4288361519
0.03843011 -0.012085003 -0.0088302419 4288295474
0.041156888 -0.015289655 -0.0064318781 4288557104
-0.025954615 -0.024897221 0.0016468572 4288495903
-0.024513178 -0.021588422 -0.00099915732 4288495903
-0.023334604 -0.016646758 -0.0049076085 4288952353
-0.022311974 -0.010889264 -0.0094456654 4289540384
-0.020823784 -0.0083982805 -0.011455033 4289344033
-0.018966068 -0.0083567612 -0.011569085 4289343778
-0.016977075 -0.0091314521 -0.011051815 4290194458
-0.014982753 -0.0099059949 -0.010534776 4290128923
-0.013256744 -0.0090477979 -0.011279842 4291110418
-0.011257209 -0.0098220054 -0.010762962 4290652439
-0.0092523657 -0.010595949 -0.010246372 4289867038
-0.0073871762 -0.01055363 -0.010360412 4289605408
-0.0053744316 -0.011327194 -0.009844156 4289670688
-0.0036571845 -0.01046876 -0.010588288 4290978583
-0.0024048984 -0.0071628019 -0.013221733 4290717208
-0.00070695579 -0.0063046133 -0.013964541 4290193949
0.0013025403 -0.0070778728 -0.013447808 4290324764
0.003801167 -0.010297894 -0.011043077 4290848533
0.0056654066 -0.010254972 -0.011156594 4290063389
0.0075295046 -0.010211946 -0.011270022 4289933084
0.0092240125 -0.0093534198 -0.012012312 4289605919
0.011257239 -0.010125699 -0.0114967 4289539873
0.012596279 -0.0076364186 -0.013495697 4289605408
0.0146292 -0.0084085483 -0.012979949 4289801759
0.016306795 -0.0075500868 -0.013720967 4289344034
0.018710889 -0.0099522881 -0.011949228 4289147683
0.020573907 -0.0099087581 -0.012062198 4289343778
0.0226252 -0.010680184 -0.011547359 4289016613
0.024490625 -0.010636461 -0.011660373 4289409059
0.026743598 -0.012222458 -0.010518486 4289604899
0.02881074 -0.012993377 -0.010004433 4289081893
0.030883104 -0.013764031 -0.009490665 4288951078
0.032758698 -0.013719821 -0.0096041095 4290063389
0.034838893 -0.014490208 -0.0090907514 4289409059
0.036716878 -0.014445829 -0.0092042591 4288034609
0.038804874 -0.015215921 -0.0086912904 4287706678
0.041111007 -0.016800314 -0.0075522852 4287052348
-0.025997177 -0.026424194 0.00051405281 4288167974
-0.024320208 -0.02474433 -0.0008646166 4287970858
-0.023256402 -0.018970786 -0.0053940178 4288167464
-0.02235391 -0.012379346 -0.010551071 4289409059
-0.02111743 -0.0082446374 -0.013815515 4289801503
-0.01939388 -0.0073846495 -0.014559058 4290652184
-0.017544549 -0.0073432326 -0.014672531 4288951333
-0.015427262 -0.0089386292 -0.013526978 4288951334
-0.013435967 -0.0097152553 -0.013011327 4289278243
-0.011439342 -0.010491665 -0.012495933 4289605664
-0.0097217858 -0.0096313469 -0.013238685 4289670943
-0.00757505 -0.01122568 -0.012094637 4289605409
-0.005712837 -0.011183362 -0.012208445 4289736223
-0.0038507283 -0.011140963 -0.012322186 4289997854
-0.0026010275 -0.007826414 -0.014949037 4290716953
-0.00090586394 -0.0069660814 -0.015690109 4291240724
0.001259245 -0.0085595176 -0.014546828 4290913558
0.0034350753 -0.010152578 -0.013404178 4290848533
0.0054577217 -0.01092761 -0.012889713 4289474594
0.0071523115 -0.010066945 -0.013630493 4289735969
0.0090107322 -0.010024012 -0.013743548 4289670434
0.010868996 -0.0099809868 -0.013856521 4289474338
0.012727104 -0.0099379048 -0.013969442 4289539363
0.014585063 -0.0098947436 -0.01408229 4289604899
0.016623124 -0.010668942 -0.013568407 4288689449
0.01884938 -0.01226018 -0.012428338 4288820518
0.020900704 -0.013033889 -0.011915199 4288558889
0.022768892 -0.01299018 -0.012028439 4288559398
0.025019139 -0.01458073 -0.010889651 4287970604
0.027086265 -0.015353849 -0.010377308 4287643438
0.029355183 -0.016943773 -0.0092395879 4288100908
0.031236321 -0.016899545 -0.0093534514 4288231723
0.033521213 -0.018489018 -0.0082165673 4289802269
0.035202771 -0.017627701 -0.0089558456 4288297004
0.037086107 -0.017583236 -0.0090697035 4287838258
0.039179429 -0.018355478 -0.0085586775 4287183419
-0.026039712 -0.027950987 -0.00061861984 4287906599
-0.024127468 -0.027908722 -0.00073636975 4288232999
-0.023298677 -0.020478047 -0.0065121786 4288232489
-0.022395834 -0.01386925 -0.011656344 4289343524
-0.021159176 -0.0097237034 -0.014912738 4289866529
-0.019435689 -0.008861565 -0.015654676 4290978583
-0.017717745 -0.0079994928 -0.016396156 4290520858
-0.015737411 -0.0087786429 -0.015881529 4290390043
-0.013751734 -0.0095576467 -0.015367134 4290652184
-0.01176073 -0.010336383 -0.01485303 4290782998
-0.0099065453 -0.010294448 -0.014966497 4289670944
-0.0080524758 -0.010252418 -0.015079886 4289605409
-0.0061985329 -0.010210332 -0.01519322 4289670433
-0.0043447092 -0.010168128 -0.01530646 4289474084
-0.0027970076 -0.0084854541 -0.016673027 4289735713
-0.0011046082 -0.0076230858 -0.017412294 4289474339
0.0010575429 -0.0092209615 -0.016272085 4289343268
0.0032304153 -0.010818446 -0.015132496 4289343269
0.0052501634 -0.01159568 -0.014619518 4289146919
0.0071086138 -0.011552867 -0.014732664 4289539364
0.0091362372 -0.012329805 -0.014220005 4289147174
0.011169136 -0.013106491 -0.013707647 4289409058
0.012857847 -0.012243626 -0.014446255 4289343778
0.014895879 -0.013020039 -0.013934093 4288428329
0.017119363 -0.014615817 -0.012797182 4288166698
0.019353576 -0.01621129 -0.011660809 4288101419
0.021227285 -0.0161676 -0.011774493 4288101163
0.023289144 -0.016943159 -0.011263555 4288166444
0.025165267 -0.016899273 -0.011377282 4287643183
0.027234957 -0.017674528 -0.010866728 4287642928
0.029309906 -0.018449601 -0.010356449 4287969839
0.03139016 -0.019224506 -0.0098464582 4288493863
0.033677563 -0.020818315 -0.0087129958 4289017378
0.035566457 -0.020773832 -0.0088272747 4288231213
0.037455164 -0.020729277 -0.0089414883 4287772978
0.038923666 -0.019046942 -0.010302126 4287117884
-0.024287727 -0.028612209 -0.0024961424 4288299298
-0.023100305 -0.023631368 -0.0063760611 4288428839
-0.022314709 -0.016182037 -0.012134617 4289147684
-0.021200899 -0.011202613 -0.016009847 4289408549
-0.019862898 -0.0078696264 -0.018629869 4290455323
-0.018021986 -0.00782842 -0.018742843 4290586393
-0.016181178 -0.0077871308 -0.018855747 4290782744
-0.014203846 -0.008568448 -0.018342497 4290978583
-0.012221191 -0.0093495464 -0.017829502 4290325018
-0.010233223 -0.010130428 -0.017316757 4289866784
-0.0083847158 -0.010088538 -0.017429816 4289605154
-0.0063888058 -0.01086911 -0.016917387 4289212198
-0.0045378208 -0.01082699 -0.017030464 4289343013
-0.0025340244 -0.01160716 -0.016518427 4289343524
-0.00083622336 -0.010742517 -0.017256422 4288885798
0.0011727512 -0.011522376 -0.016744556 4288755239
0.0031870231 -0.012302008 -0.016232936 4288232234
0.0055342242 -0.014725691 -0.014472742 4288493609
0.0075645149 -0.01550481 -0.013961988 4288428330
0.0097693577 -0.017105687 -0.012827417 4288493609
0.011640996 -0.017062409 -0.012941247 4288232233
0.013861857 -0.018662823 -0.011807507 4289082913
0.015738636 -0.018619258 -0.011921525 4288166954
0.017795376 -0.019397363 -0.011412082 4287905068
0.019491762 -0.018531973 -0.01214941 4287642928
0.021368101 -0.018488226 -0.012263257 4287577649
0.023244292 -0.018444423 -0.012377052 4287707954
0.025311291 -0.019222017 -0.011868028 4287839278
0.026996188 -0.018356625 -0.012604458 4287577649
0.029264711 -0.01995532 -0.011473233 4288035883
0.031145699 -0.019911155 -0.011587132 4288559399
0.033632018 -0.022330631 -0.0098346602 4289737499
0.035316296 -0.021465011 -0.010570874 4287969583
0.037202239 -0.021420576 -0.01068496 4287510838
0.038878061 -0.020555036 -0.011420647 4287248443
-0.024800427 -0.026835173 -0.0061294534 4287185459
-0.023383163 -0.023492066 -0.0087481309 4288951333
-0.022479605 -0.016848577 -0.013866538 4289278753
-0.021368299 -0.011856159 -0.017731978 4289212199
-0.019904476 -0.0093396725 -0.019720394 4289343013
-0.018194821 -0.0084734801 -0.02045816 4289539363
-0.016356859 -0.0084322747 -0.020570906 4289931808
-0.014382441 -0.0092158392 -0.020059101 4289474084
-0.012541968 -0.0091743674 -0.020171842 4289212454
-0.010417614 -0.010782328 -0.019036263 4289539364
-0.0084272139 -0.011565262 -0.018525237 4289081638
-0.0062840506 -0.013172667 -0.017390637 4288755239
-0.0042803213 -0.013955087 -0.016880268 4288362538
-0.0022712573 -0.014737314 -0.016370172 4289344289
-0.00041247904 -0.014694864 -0.016483612 4288362538
0.0014461726 -0.014652357 -0.016597001 4288166444
0.0034657195 -0.015434101 -0.01608729 4288101419
0.0056543052 -0.017039895 -0.014955109 4287839533
0.0078536123 -0.018645359 -0.013823519 4288231725
0.010063656 -0.020250529 -0.012692474 4288035884
0.01228442 -0.021855332 -0.011562068 4288101418
0.014166698 -0.021811776 -0.01167652 4288690468
0.01622615 -0.022592096 -0.011168936 4287774508
0.018110842 -0.022548331 -0.011283422 4287839533
0.019812629 -0.021680664 -0.012019478 4287708718
0.021694325 -0.021636818 -0.012133669 4287707954
0.023387663 -0.020769231 -0.012869125 4287577139
0.025457241 -0.021548994 -0.012361918 4287577394
0.027144842 -0.020681392 -0.013096917 4287708463
0.029219531 -0.021460898 -0.012589913 4287970093
0.031299509 -0.022240207 -0.012083178 4289082914
0.03338477 -0.023019418 -0.01157671 4289671964
0.034861848 -0.021328378 -0.012931542 4288296493
0.036742307 -0.021284103 -0.013045318 4287445559
-0.025430091 -0.024213124 -0.010373771 4288297514
-0.023545559 -0.024171395 -0.01048976 4288166444
-0.02264436 -0.017510641 -0.015595138 4288100653
-0.021409914 -0.013332555 -0.018827224 4288754473
-0.020202741 -0.0091550592 -0.022057548 4289081384
-0.018236443 -0.0099412547 -0.021546993 4289015848
-0.016398601 -0.0099000642 -0.021659739 4289277478
-0.014151368 -0.01233994 -0.019903868 4289735969
-0.012305576 -0.01229837 -0.020016951 4290651929
-0.010317966 -0.013083648 -0.019507451 4289081894
-0.0083250217 -0.013868766 -0.018998174 4288297259
-0.0061793998 -0.015480399 -0.017866986 4288231723
-0.0041731223 -0.016264979 -0.017358422 4287970348
-0.0020086914 -0.017876079 -0.016228231 4288232233
1.0944903e-05 -0.018660167 -0.015720343 4289409824
0.0020358786 -0.019444061 -0.015212724 4288100653
0.0039051548 -0.019401226 -0.015326699 4288297004
0.0059379786 -0.020184753 -0.014819423 4288035374
0.0081424937 -0.021794509 -0.01369136 4288166444
0.010188632 -0.022577582 -0.013184786 4288035628
0.012068234 -0.022534175 -0.013299139 4287970604
0.014122248 -0.023316916 -0.012792932 4288428583
0.016004272 -0.023273302 -0.012907322 4288035883
0.017886169 -0.023229646 -0.01302167 4287512113
0.019585222 -0.022359919 -0.013755979 4287642673
0.021649525 -0.023142111 -0.013250168 4287904559
0.023530968 -0.023098247 -0.013364326 4288100653
0.025412276 -0.023054339 -0.013478441 4287969838
0.026906319 -0.021358868 -0.014831228 4288100398
0.028978176 -0.022140667 -0.014325712 4287381044
0.030856319 -0.022096645 -0.014439495 4289148703
-0.023827929 -0.024016656 -0.012850309 4287446323
-0.022440437 -0.020656792 -0.015454194 4287838513
-0.021200359 -0.016467839 -0.018678559 4288100908
-0.019731 -0.013938205 -0.0206577 4288558888
-0.018016033 -0.013067575 -0.021392578 4288558634
-0.016039159 -0.013855573 -0.020884264 4288100653
-0.013920505 -0.015472633 -0.019754937 4287773744
-0.011791073 -0.017089324 -0.018626248 4288297003
-0.0097927712 -0.017876545 -0.018119028 4288951333
-0.0079337396 -0.017834507 -0.018232798 4288100653
-0.0060748309 -0.017792378 -0.018346487 4288100653
-0.0040659979 -0.01857914 -0.017839672 4288035374
-0.0020518377 -0.019365637 -0.017333152 4288231724
-3.2395124e-05 -0.020151928 -0.016826889 4288035628
0.0019923821 -0.020938015 -0.016320888 4288428329
0.0041833594 -0.022552619 -0.015195375 4288035629
0.0058942065 -0.021680936 -0.015929224 4287904813
0.0079321861 -0.022466533 -0.015423818 4287839278
0.009637326 -0.021594826 -0.016157204 4287773999
0.011680454 -0.022380149 -0.015651992 4287774509
0.013728872 -0.023165219 -0.015147081 4288232744
0.01578258 -0.02395007 -0.014642423 4288559143
0.017661668 -0.023906507 -0.01475662 4287970348
0.019357994 -0.023034718 -0.015489185 4288034863
0.021048754 -0.022162987 -0.016221354 4287969839
0.022733897 -0.021291263 -0.016953168 4288296239
0.024795055 -0.022075662 -0.016448678 4286595898
-0.023989964 -0.024684835 -0.01458367 4286726713
-0.02260508 -0.021316368 -0.017180951 4287576883
-0.021116536 -0.018779902 -0.019156504 4287643184
-0.01951617 -0.017075367 -0.020510841 4288297004
-0.017533939 -0.017865526 -0.020004554 4288362539
-0.015546374 -0.01865549 -0.019498536 4288951844
-0.013553485 -0.019445214 -0.018992756 4288232233
-0.011555232 -0.02023479 -0.018487209 4288232233
-0.0095516741 -0.021024102 -0.017981954 4288232233
-0.0078318566 -0.02015074 -0.018715179 4289017378
-0.0059703439 -0.020108568 -0.018829042 4288297004
-0.0041089281 -0.020066338 -0.018942853 4288231724
-0.0020949692 -0.020855039 -0.018437957 4287970093
-7.5660646e-05 -0.021643545 -0.01793333 4288101164
0.0022651777 -0.024093691 -0.01619233 4289017123
0.0041396692 -0.024050809 -0.016306674 4287969838
0.0060140416 -0.024007834 -0.016420944 4287839278
0.0078882948 -0.023964813 -0.016535169 4288166444
0.0097624063 -0.023921674 -0.016649293 4288297514
0.01146467 -0.023047838 -0.017380873 4288297514
0.013335809 -0.023004644 -0.017494725 4288821029
0.015206791 -0.022961367 -0.017608503 4288559398
-0.022646848 -0.022805335 -0.018285539 4286399039
-0.021032803 -0.021096224 -0.019637613 4287184693
-0.019301556 -0.020221034 -0.02037037 4287970604
-0.01731408 -0.021013295 -0.019866055 4287839024
-0.015454862 -0.020971686 -0.019980157 4287839533
-0.013459422 -0.021763604 -0.019476134 4288886819
-0.01145865 -0.022555258 -0.018972404 4288428583
-0.0094525479 -0.023346692 -0.018468926 4287839789
-0.0075856 -0.023304541 -0.018583229 4288494118
-0.005571574 -0.024095606 -0.018080095 4289606429
-0.0037021264 -0.02405321 -0.018194411 4288820519
-0.001680173 -0.024843924 -0.017691633 4288101164
0.00019176304 -0.02480131 -0.017805977 4287708209
0.0020635724 -0.0247586 -0.017920246 4287773744
0.0039352402 -0.024715813 -0.018034441 4288624168
0.0054798275 -0.023007026 -0.019381264 4287773744
0.0073458329 -0.0229642 -0.01949499 4286726968
-0.022933923 -0.022622043 -0.02062455 4286137153
-0.02119993 -0.021744752 -0.021355959 4287250229
-0.019343365 -0.021703426 -0.021470061 4287773998
-0.017094426 -0.024169657 -0.019733859 4287970604
-0.015496973 -0.022456298 -0.021081477 4287708718
-0.013637979 -0.022414608 -0.021195503 4287839789
-0.011918038 -0.021537188 -0.021925719 4288952098
-0.0097785816 -0.02316666 -0.020807246 4289344798
-0.0077727661 -0.023960216 -0.020305328 4288951844
-0.0054673851 -0.026424538 -0.01857218 4288951844
-0.0035953298 -0.026382124 -0.018686688 4289212709
-0.0018759444 -0.02550425 -0.01941652 4288428074
-0.00031738728 -0.023791086 -0.020761175 4287511858
-0.023098107 -0.02326823 -0.02234138 4286725948
-0.021366909 -0.022388855 -0.023071021 4287511604
-0.019385137 -0.023185708 -0.022569677 4287969839
-0.017398026 -0.023982342 -0.022068588 4288100653
-0.01553905 -0.023940785 -0.022182709 4288297768
-0.013952557 -0.022223312 -0.023526337 4288231724
-0.012099214 -0.022181692 -0.023639973 4287119668
-0.022034768 -0.01966713 -0.027238196 4287772469
-0.020066775 -0.02046648 -0.026737636 4287707444
-0.017962743 -0.022105809 -0.025623808 4287249463
0.0098298937 0.0057523567 0.037894629 4281560159
0.011116073 0.0088332444 0.03509108 4281433678
0.012717031 0.01039583 0.033631083 4282021198
0.014306895 0.011958299 0.032171782 4280979523
0.016059503 0.012761729 0.031383969 4280458559
0.017629899 0.014323873 0.02992603 4280524094
0.019368455 0.01512718 0.029139219 4280393278
0.02091936 0.01668909 0.02768255 4281372733
0.0046266094 0.010192214 0.03161303 4280974424
0.0060734749 0.012520324 0.029485781 4281043784
0.0089176223 0.01717574 0.025234476 4279479868
0.012550861 0.018024763 0.024333777 4281306944
0.014449976 0.018068792 0.02421836 4280851258
0.016525373 0.01735195 0.024772005 4280916539
0.018247567 0.018157119 0.023987783 4279807544
0.019964091 0.018962206 0.023204014 4281371714
0.021674968 0.019767223 0.022420637 4281827653
0.023567557 0.01981152 0.022305932 4281371203
0.026030153 0.017574055 0.024195671 4280655673
0.029665627 0.010773828 0.030092167 4281241919
0.00042269379 0.010087464 0.029365385 4280846668
0.0014169663 0.014713051 0.025236215 4281635129
0.003007859 0.016283812 0.023783013 4281244469
0.0045876727 0.017854365 0.022330591 4281306943
0.0063192248 0.018661371 0.021547075 4280134964
0.0097653866 0.020275282 0.019981224 4278572068
0.011650994 0.020318935 0.019866584 4280718658
0.013883799 0.018836303 0.021087022 4280915518
0.015774429 0.018880239 0.0209722 4280720699
0.017843984 0.018161239 0.021524623 4280069173
0.019191317 0.02049437 0.0194088 4279748383
0.021075852 0.020538425 0.019294545 4281052964
0.022960193 0.020582555 0.019180356 4280200499
0.025224306 0.019101171 0.020399278 4278895409
0.027884573 0.016094638 0.022950247 4280263483
0.032325409 0.0062248148 0.031495504 4280914754
0.0010633692 0.014718482 0.022770058 4280981563
0.0021769106 0.01859065 0.019319866 4280398124
0.003903158 0.019399611 0.01853822 4280070193
0.0056237578 0.020208551 0.017757002 4281763138
0.0073387399 0.021017445 0.016976189 4281633088
0.0093844533 0.020295361 0.017528173 4281242429
0.011264503 0.020338895 0.017413881 4280654654
0.013317972 0.019617183 0.017965538 4280981564
0.015200347 0.019660963 0.017851239 4281176893
0.017261565 0.01893959 0.01840255 4280981308
0.018964432 0.019748738 0.017622868 4279483949
0.020661645 0.020557838 0.016843593 4279816213
0.024229035 0.021410918 0.015951121 4279156019
0.026682667 0.019160321 0.017831722 4281046079
0.030324712 0.012321107 0.023698775 4280915518
0.00033334643 0.0070091933 0.027082007 4279671119
0.0010190755 0.013196923 0.021641422 4281175363
0.0019755587 0.017847901 0.017534088 4281178168
0.0052541643 0.020237876 0.015309874 4279098899
0.010878235 0.020367889 0.014967803 4280656184
0.013099693 0.018876312 0.016182475 4281112124
0.014979228 0.018920029 0.016068358 4280981563
0.017037556 0.018196447 0.016618242 4280720188
0.018737659 0.019007714 0.015840355 4281177659
0.020616561 0.019051669 0.015726462 4281177659
0.022308089 0.019862911 0.014949225 4281177403
0.023993939 0.020674145 0.014172349 4281177913
0.025866754 0.020718185 0.014058996 4280786233
0.028715946 0.016927207 0.017260414 4281503039
0.032978386 0.0077681877 0.025099682 4281437758
0.00059212744 0.0039300509 0.027268533 4279799129
0.0019315109 0.016339695 0.016415363 4281698113
0.0033351108 0.018693065 0.014310207 4280981819
0.0047222078 0.021046078 0.012206147 4278960943
0.0067541599 0.02031927 0.012755694 4279352879
0.008623302 0.020362498 0.01264202 4280851514
0.010833807 0.018866273 0.013854012 4281177659
0.012708001 0.018909795 0.013740167 4281177403
0.014581986 0.018953396 0.013626393 4281046844
0.01645577 0.018997079 0.013512697 4280981563
0.01869268 0.01750177 0.014723387 4281177149
0.020387098 0.018315202 0.013947552 4281112123
0.022075869 0.019128596 0.013172059 4281307709
0.023379333 0.021480551 0.011073735 4281309494
0.025243908 0.021524424 0.010960898 4279223085
0.027498759 0.020029979 0.012170755 4278963494
0.031150103 0.013151875 0.018008148 4280655673
0.035853542 0.0024296418 0.027147627 4281827653
0.0013936386 0.0078375805 0.021371283 4279471199
0.0018874556 0.014831742 0.015296826 4281696838
0.0031312928 0.017963851 0.012534692 4281111103
0.0048408508 0.01877909 0.011759021 4280916029
0.0065447986 0.01959431 0.010983772 4280460088
0.008411102 0.019637464 0.010870268 4281177914
0.010447927 0.018908786 0.011418042 4281307453
0.012490004 0.018180313 0.011965556 4281307708
0.01400885 0.019767491 0.010530264 4281438268
0.015874371 0.019811003 0.010417084 4281308219
0.018102877 0.018311189 0.011625005 4281046588
0.020157725 0.017583361 0.012172004 4280981563
0.021843761 0.018398846 0.01139835 4280785723
0.023334377 0.019985778 0.0099650752 4280070194
0.033800341 0.0085929446 0.019404849 4280524348
0.039161488 -0.0044721598 0.030496469 4281501764
0.0021574944 0.011775156 0.015499255 4280583509
0.0030873641 0.016464865 0.011422817 4280652868
0.0043093786 0.019605285 0.0086685698 4280850493
0.0063355491 0.01887395 0.0092152702 4280654909
0.0081990212 0.018917056 0.0091019524 4281308218
0.010232948 0.018186143 0.0096482867 4279029029
0.011925384 0.01900355 0.0088755656 4278375718
0.013612181 0.019820949 0.0081032021 4280200244
0.015293337 0.020638278 0.0073313033 4281307964
0.017513476 0.019133894 0.0085365502 4281177403
0.019560017 0.018403685 0.0090824226 4281112123
0.02123785 0.01922117 0.0083109019 4280461109
0.022910021 0.020038648 0.007539738 4280850238
0.024961382 0.019308751 0.0080855461 4281307709
0.027213082 0.017805533 0.0092891231 4281307454
0.029673278 0.015529132 0.011150083 4278894389
0.032350108 0.012479777 0.013667815 4280264248
0.037284486 0.00092392042 0.023417959 4281632834
0.0024272874 0.0087100938 0.015695466 4279538009
0.0030434355 0.014966143 0.01031114 4280979523
0.0044280216 0.01733874 0.0082218479 4280590648
0.0059612691 0.018934673 0.0067918692 4280655928
0.0079870522 0.018201293 0.0073370058 4279679279
0.014891461 0.020702714 0.0049128886 4281112124
0.016924456 0.019969938 0.0054579126 4281047353
0.018778481 0.020013353 0.0053455597 4281177914
0.02081921 0.019280927 0.0058902428 4280329783
0.022675544 0.019324558 0.0057778684 4279744304
0.024724029 0.018592475 0.0063221976 4281763139
0.0269728 0.017084787 0.0075227497 4281633088
0.029034436 0.016353166 0.0080663981 4281372224
0.031502299 0.014070474 0.0099220816 4280526389
0.035205469 0.007134987 0.015712731 4280654144
0.040398777 -0.0052276189 0.026091203 4281045058
0.0028537363 0.0048577692 0.016542559 4280191318
0.0033188015 0.01191015 0.010513666 4280263739
0.0043841749 0.015846787 0.0071152006 4281177913
0.00575234 0.018225694 0.0050318083 4280786489
0.0076074153 0.018268639 0.0049190233 4281177148
0.0092917904 0.019090125 0.0041499669 4281242428
0.011143796 0.019133164 0.0040374901 4281047099
0.012819625 0.019954687 0.003269054 4278768164
0.01448983 0.020776132 0.0025010686 4281177149
0.016517207 0.02004105 0.0030448157 4281111868
0.018365718 0.020084342 0.0029328 4281111868
0.020587698 0.018571468 0.0041315844 4280720954
0.02634266 0.017924471 0.0044500362 4279154233
0.028395988 0.017190481 0.0049925656 4280334629
0.030654997 0.015678843 0.0061893803 4279094563
0.03373719 0.011056686 0.010003047 4280392768
0.03849864 0.00021409243 0.019048447 4280521033
0.0031229407 0.0017736275 0.016724553 4279866448
0.0037534684 0.0080648456 0.011365268 4279672903
0.0046649203 0.012793405 0.0073191738 4281438014
0.0055435225 0.01752132 0.0032751632 4281114929
0.0070602819 0.019125676 0.0018527387 4279288363
0.008736454 0.019949166 0.001085815 4280916284
0.010580182 0.019992022 0.00097384956 4281633088
0.012423724 0.020034945 0.00086194742 4281047354
0.014267087 0.020077961 0.00075012911 4280460598
0.016291574 0.01934067 0.0012924531 4281112378
0.018137254 0.019383898 0.0011806153 4281177914
0.020356297 0.017866602 0.0023763382 4281111868
0.022207022 0.017910117 0.002264315 4280851004
0.02405753 0.017953699 0.0021523617 4279810094
0.025907844 0.017997334 0.0020404633 4279224613
0.027955599 0.017261041 0.0025817163 4279745578
0.03020893 0.015744952 0.0037755887 4281308219
0.032879062 0.012669398 0.006274424 4281046079
0.037011288 0.0041355155 0.013340119 4280653124
0.041620024 -0.0059563499 0.021707073 4281044039
0.0032350942 -0.00053581223 0.016246347 4278883423
0.0043472946 0.0034235809 0.012861157 4280454224
0.0047831535 0.01051457 0.0068632653 4281307709
0.0056647733 0.015255591 0.0028287726 4281242684
0.006848909 0.018430168 0.00010289345 4279482928
0.010190099 0.020081347 -0.0014269669 4279750423
0.012203939 0.019341441 -0.00088575296 4278443804
0.014223017 0.018601751 -0.00034478772 4280525879
0.016247347 0.01786227 0.0001959214 4280915773
0.01827693 0.017122975 0.00073636277 4280981564
0.02031175 0.016383843 0.0012765848 4280915263
0.02216237 0.016427366 0.0011645793 4280981563
0.024204947 0.015688607 0.0017044027 4281175363
0.026252724 0.014950076 0.0022439896 4281828674
0.028503358 0.013429465 0.0034347812 4282155074
0.030764624 0.01190925 0.0046249656 4281961273
0.033239573 0.0096072126 0.0064657028 4281765943
0.036759205 0.0033956151 0.011560345 4281764413
0.041155852 -0.0059427349 0.019255709 4281566278
0.0047811493 -0.00044961087 0.013692145 4279993949
0.0052256435 0.0066611525 0.0077082962 4280327999
0.005785875 0.01298577 0.0023793478 4281503294
0.0066376552 0.017739257 -0.0016435431 4280719933
0.0081379712 0.019352024 -0.0030584256 4281046843
0.0099733323 0.019394683 -0.0031698863 4281112379
0.012160048 0.017867615 -0.001978911 4281437758
0.014714442 0.014771244 0.00051346933 4281175874
0.016565539 0.014814539 0.00040125428 4281242429
0.018600397 0.014073195 0.00093975617 4281047098
0.02045384 0.014116691 0.00082751038 4280918069
0.022685803 0.012591137 0.0020160053 4280333353
0.024352223 0.013419401 0.0012533921 4280724013
0.026986971 0.010325365 0.0037412373 4280987173
0.029248215 0.0088007152 0.0049281223 4281702703
0.031319931 0.0080606472 0.0054647732 4281178424
0.033599779 0.0065365825 0.0066506448 4281699644
0.03691861 0.0010918286 0.011082733 4282025789
0.041108713 -0.007488423 0.018109338 4281891659
0.0031456947 -0.0035920488 0.013979368 4280710499
0.005214639 -0.004335572 0.014513589 4280973404
0.0056677312 0.0027949829 0.0085437922 4281762118
0.00640136 0.0083498321 0.0038775103 4281440309
0.0074318573 0.012329372 0.000513684 4281239623
0.0086052343 0.015521185 -0.0021985318 4281174343
0.010275647 0.016351158 -0.002960186 4281633344
0.012643285 0.014032848 -0.0011232584 4281308218
0.01520545 0.010927958 0.0013621738 4281766454
0.017245777 0.010184454 0.0018987176 4280726819
0.019107476 0.010228062 0.0017859112 4281052198
0.021155551 0.0094849449 0.0023220619 4281506354
0.023208879 0.0087420102 0.0028579384 4281765688
0.025075421 0.0087859705 0.0027450155 4282028339
0.027331211 0.0072567724 0.0039289407 4281897779
0.029597685 0.0057278406 0.0051123081 4281831479
0.031674676 0.0049857646 0.0056469785 4282091323
0.034162633 0.0026709884 0.007477222 4282285379
0.037489042 -0.0027887607 0.011897489 4282350659
0.041478187 -0.010606487 0.018258264 4282347343
0.0032576025 -0.0059094969 0.013495224 4282937160
0.0051697493 -0.0058655106 0.01337876 4282938688
0.0059474036 -0.00029451214 0.0087210564 4282745399
0.0066868067 0.005275717 0.004065692 4282225709
0.007722944 0.0092662666 0.00070961611 4281048884
0.0094125345 0.010098776 -5.1644165e-05 4279944478
0.011096492 0.010931255 -0.0008124914 4281052198
0.013301775 0.0093959477 0.00037083216 4281901094
0.015696116 0.0070717614 0.0022013767 4282032674
0.017925471 0.0055372193 0.0033833901 4281769769
0.019797944 0.0055810772 0.0032699262 4280986154
0.021670222 0.0056250021 0.0031565283 4281376304
0.023731545 0.0048800558 0.0036903601 4281572144
0.025606155 0.0049241837 0.003576932 4281701939
0.027675211 0.0041796099 0.0041103638 4282028593
0.029552139 0.0042239446 0.0039969063 4282223158
0.031829067 0.0026910193 0.0051764124 4282091833
0.034522265 -0.00041882135 0.0076479381 4282481473
0.037648045 -0.005105149 0.011410459 4282611779
0.0052841455 -0.0081870435 0.012891456 4284443953
0.0060648471 -0.0026007118 0.0082448497 4283464244
0.00713671 0.0014014337 0.004894617 4282745398
0.0083486214 0.0046114549 0.0021929415 4282355504
0.010219179 0.0046548303 0.0020792689 4281183780
0.011916704 0.0054897778 0.0013192012 4281441329
0.013959765 0.0047418568 0.0018521706 4281963568
0.015829779 0.0047855098 0.0017387453 4282289459
0.018061653 0.0032465942 0.0029173829 4282289459
0.019752979 0.004081795 0.0021579126 4282224178
0.021625176 0.004125718 0.0020445203 4282224178
0.023686334 0.0033785682 0.0025767251 4282354995
0.025752753 0.0026316587 0.0031086241 4282485043
0.027824365 0.0018849727 0.0036402859 4282288948
0.029506616 0.002720274 0.0028816715 4282288948
0.031583302 0.0019738134 0.0034131047 4282354230
0.034476176 -0.0019355724 0.006523015 4282743359
0.037806936 -0.0074257236 0.010920397 4282542673
0.0060202479 -0.0041171564 0.0071200379 4283792428
0.0069276765 0.00068971328 0.0031325247 4282616368
0.0083043799 0.0031145792 0.0010826634 4282681393
0.0103449 0.0023642387 0.0016140305 4282354484
0.012217887 0.0024077836 0.0015002945 4282421038
0.014090709 0.0024513733 0.0013866038 4282616879
0.015963338 0.0024950784 0.001273015 4282485043
0.018016748 0.0017453413 0.0018038992 4282485554
0.019891731 0.0017892625 0.0016902871 4282550068
0.02158016 0.0026266146 0.00093264459 4282224179
0.023830257 0.0010840129 0.0021071166 4282226218
0.026091009 -0.00045820139 0.0032809712 4282354993
0.028167918 -0.0012069624 0.0038106735 4281963569
0.030052826 -0.0011624526 0.0036967257 4282487849
0.031937547 -0.001117887 0.0035828329 4282614329
0.03463278 -0.0042450987 0.0060412781 4282415939
0.037965722 -0.009750437 0.010427188 4282085714
0.0059756711 -0.0056333747 0.0059953942 4284119083
0.0068833679 -0.00081345253 0.0020175697 4282746929
0.0084274411 0.00082197227 0.00061613135 4282420529
0.01047051 6.9484115e-05 0.0011457764 4282290478
0.012346111 0.00011307187 0.0010318672 4282031143
0.014396995 -0.00063902698 0.0015611183 4282159154
0.016096793 0.00020048767 0.00080426969 4282356014
0.018333621 -0.0013469812 0.0019760816 4282812718
0.020213954 -0.0013029501 0.0018621353 4282879783
0.022280402 -0.0020543672 0.0023906776 4282747693
0.024163067 -0.0020101313 0.0022767 4283467048
0.026429072 -0.0035566259 0.0034470365 4283530033
0.028316788 -0.0035121422 0.0033328498 4282944808
0.030204318 -0.0034675654 0.0032187456 4283530033
0.03209167 -0.0034229457 0.0031046893 4283398709
0.034586653 -0.0057636192 0.00491504 4283332918
0.0068390667 -0.0023164032 0.00090277521 4283138355
0.0082159117 0.00012150034 -0.0011373982 4282225198
0.010426044 -0.0014313264 3.2584183e-05 4281898799
0.012646869 -0.0029837573 0.0012019547 4282746674
0.014527641 -0.0029399907 0.0010877764 4283530033
0.01640822 -0.0028961217 0.00097368937 4283529523
0.018469445 -0.003649991 0.0015008147 4283529523
0.020535909 -0.0044036685 0.0020276748 4283856944
0.02242139 -0.0043594455 0.0019134679 4283856944
0.0071236715 -0.005419882 0.0010691765 4283660338
0.0085060596 -0.0029753922 -0.00096645532 4282746674
0.010721371 -0.0045323949 0.00019994192 4282681648
0.012774795 -0.0052888896 0.00072572287 4283530034
0.014833488 -0.0060451571 0.0012512635 4283467560
0.0013809651 -0.0028863186 0.043366179 4281946484
0.0021392405 0.0032506231 0.037882142 4280572798
-0.010645792 -0.0039710235 0.042248622 4282011509
-0.008944571 -0.0023986483 0.040788084 4281093508
-0.006839484 -0.0031183297 0.041337226 4279061413
-0.0048701391 -0.0030738777 0.041216649 4279061669
-0.0030447319 -0.0022654468 0.040426873 4278930853
-0.0013714284 -0.0006932281 0.038968317 4278537388
-0.013963804 0.0020696279 0.034513276 4280569484
-0.011885848 0.0013469309 0.035062291 4279189424
-0.0078523085 0.00066843815 0.035491616 4278668204
-0.0059021637 0.00071246922 0.03537222 4278471598
-0.0039521903 0.00075662881 0.035252936 4278537133
-0.012461115 0.0028621163 0.031239035 4281028484
-0.0085878819 0.0029492825 0.031001691 4279519394
-0.006510593 0.0022247545 0.031549394 4278668204
-0.0044280142 0.0015004203 0.032096904 4278602923
-0.013168566 0.0051656403 0.026763791 4280634764
-0.010974836 0.0036677159 0.027975829 4279519393
-0.0090465955 0.0037111733 0.027857717 4279059373
-0.0072593577 0.0045252014 0.027075082 4278733483
-0.0049034581 0.0022575893 0.028950721 4278471343
-0.0025313869 -9.5199794e-06 0.030825473 4278537388
-0.00029216707 -0.0015058825 0.032035124 4279197838
-0.011289537 0.0036703534 0.025504634 4278468794
-0.0095049441 0.004486382 0.024723696 4278928813
-0.0075851642 0.0045297723 0.024606196 4278536114
-0.0052350312 0.002255559 0.026477298 4278733484
-0.0027225018 -0.00079072639 0.029010206 4278865318
-0.00048626214 -0.002291536 0.030216854 4278935443
-0.011874545 0.0052318498 0.021716597 4280964988
-0.0096869245 0.0037251785 0.022922676 4278865318
-0.0076292902 0.0029937159 0.023466755 4278668459
-0.0054229349 0.001487717 0.024671797 4278734248
-0.0030596629 -0.00079265796 0.026537366 4279718294
-0.00082912296 -0.0022978904 0.027741093 4279000724
-0.0097308531 0.0021915641 0.021785038 4279390109
-0.0076734051 0.0014579091 0.022327498 4278865574
-0.0056106821 0.00072449446 0.022869725 4278537898
-0.0035426766 -8.7060034e-06 0.023411702 4279521689
-0.0013205558 -0.0015185131 0.024612758 4278739349
-0.010188404 0.0029959269 0.018672574 4278467009
-0.0060849637 0.0015241466 0.019755064 4279384498
-0.0041713417 0.0015676245 0.019638106 4279455388
-0.0083237998 0.0015125368 0.017423397 4279646383
-0.0047995225 0.0031616036 0.015877677 4279585439
-0.0085081421 0.00076973811 0.015636252 4281424753
-0.0066028014 0.0008129254 0.015519725 4278731443
-0.0049894527 0.0024230853 0.014094083 4279125418
-0.0030898601 0.0024663676 0.013978075 4279125928
-0.0011904463 0.0025097448 0.013862152 4278672284
-0.0050333962 0.00090354495 0.012966916 4279321259
-0.0032825097 0.0017323513 0.012198117 4279846048
-0.0052231327 0.00017202832 0.011188588 4279782299
-0.0034750178 0.0010029301 0.010421563 4279126694
-0.0014300719 0.00025856309 0.01095703 4279191208
0.00077410787 -0.0012731869 0.012143158 4278537644
-0.0054127201 -0.0005549062 0.0094136586 4280568974
-0.0035189688 -0.00051175617 0.0092980089 4279716764
-0.0013230368 -0.0020481031 0.010481288 4280894863
0.00088361651 -0.0035841567 0.011664024 4280960398
0.048113346 -0.018005535 -0.011493137 4282798439
-0.022402469 0.016525848 0.019701323 4285490728
-0.020140547 0.014261873 0.021586999 4285294634
-0.017480552 0.0096926615 0.025473 4285228844
-0.014918011 0.005892789 0.028690167 4285034024
-0.03314326 0.010138161 0.023279948 4285229353
-0.031346306 0.010951074 0.022495653 4285295653
-0.029554892 0.01176393 0.021711824 4285426978
-0.027882643 0.013347846 0.02026213 4285492768
-0.026337735 0.015702685 0.018147038 4286213654
-0.024690233 0.017286273 0.01669904 4286540309
-0.022931989 0.018098911 0.01591756 4286474264
-0.020930294 0.017369816 0.016467839 4286540053
-0.018668838 0.015099471 0.018348735 4285490984
-0.015871357 0.0097467247 0.022889962 4284967213
-0.041372724 0.013091298 0.018625999 4285556519
-0.039580952 0.013905743 0.017843319 4286146334
-0.037694801 0.013946665 0.017726606 4286080544
-0.035808727 0.013987696 0.017609978 4285884449
-0.034028109 0.014802268 0.016828267 4285426979
-0.032036856 0.014070133 0.017377023 4285427744
-0.030261878 0.014884816 0.016595833 4285624094
-0.028606009 0.016472766 0.01515035 4285755419
-0.02707741 0.018833732 0.013041168 4285819934
-0.025089301 0.018101977 0.013590451 4285753633
-0.023339305 0.018916572 0.012811146 4285884448
-0.021221552 0.017412173 0.014024293 4286081564
-0.019093018 0.015908064 0.015236894 4285361189
-0.045280449 0.012275912 0.017075354 4285361443
-0.043669272 0.014644204 0.014965104 4285623838
-0.0418857 0.015460519 0.014184458 4286345999
-0.040107653 0.016276864 0.013404269 4286147608
-0.038235273 0.016317481 0.013288401 4286344724
-0.036260396 0.015582582 0.013836378 4286345489
-0.034280162 0.014847888 0.014384091 4285688608
-0.03240259 0.014888993 0.01426818 4285623584
-0.030525118 0.014930194 0.01415235 4285623584
-0.028874714 0.016522357 0.012710502 4286213909
-0.027119111 0.017339027 0.011932304 4286148119
-0.025488008 0.018931033 0.010491768 4285688099
-0.023624606 0.018972384 0.010377146 4285885469
-0.021636929 0.018238647 0.010925065 4285951259
-0.019643944 0.01750516 0.01147268 4285689374
-0.017126333 0.013671657 0.014668331 4285361188
-0.014449071 0.009063866 0.01852428 4285427233
-0.046948649 0.0083933398 0.018063374 4285163818
-0.045676619 0.013880951 0.013304979 4285427234
-0.044076316 0.016255481 0.011200294 4285886488
-0.042398088 0.017851824 0.0097593069 4285688098
-0.040536683 0.017892106 0.0096440483 4285687589
-0.03857556 0.017154587 0.010191148 4285753378
-0.036609057 0.016417267 0.010738052 4285819933
-0.034531958 0.014902467 0.011946637 4285819934
-0.032659981 0.014943434 0.01183106 4285689118
-0.030788109 0.014984539 0.011715595 4285689629
-0.029029757 0.015803335 0.010938765 4285886234
-0.027393114 0.017399715 0.0095010493 4286213653
-0.025648598 0.018218426 0.008725238 4286147864
-0.023909666 0.019037148 0.0079498626 4286082328
-0.021803316 0.01752379 0.0091572376 4286082329
-0.019686207 0.016010744 0.010364076 4285558048
-0.01768811 0.01527532 0.010909852 4285426978
-0.015154734 0.011431403 0.014096523 4285099048
-0.045628123 0.011602106 0.012854504 4285163818
-0.044208203 0.015543768 0.0094321128 4286214928
-0.04243844 0.016364167 0.0086555826 4286213144
-0.040674195 0.017184569 0.0078794872 4285884958
-0.038815744 0.017224891 0.0077644894 4286016539
-0.036957368 0.017265351 0.0076495958 4286279699
-0.034888703 0.015745999 0.0088554509 4285754654
-0.033132967 0.016566692 0.0080802348 4285623839
-0.031161495 0.015827706 0.0086254347 4285558303
-0.029298045 0.015868744 0.0085105784 4285624093
-0.027434692 0.015909879 0.0083958004 4285755419
-0.025690265 0.016730776 0.0076216212 4285820953
-0.023951404 0.017551696 0.0068478892 4285754653
-0.02209384 0.017593043 0.0067337221 4285689628
-0.020236406 0.017634498 0.0066196425 4285558559
-0.0183791 0.017676068 0.0065056607 4285558303
-0.015992213 0.014600305 0.0090264436 4285164073
-0.045490965 0.008536635 0.013060763 4285032238
-0.044339962 0.014836637 0.0076674069 4285821463
-0.042855702 0.018006312 0.0049144635 4286147864
-0.0410055 0.018046336 0.0047998857 4286147353
-0.039055694 0.017304232 0.0053444575 4286213908
-0.037202913 0.017344562 0.0052299052 4285820188
-0.035350218 0.017385019 0.0051154569 4285689629
-0.033605468 0.018207638 0.004342529 4285558559
-0.031645101 0.017466253 0.0048868153 4285558303
-0.02967938 0.016725028 0.0054308749 4285492769
-0.02782435 0.016765988 0.0053166184 4285558559
-0.025850672 0.016025243 0.0058603366 4285624093
-0.024114609 0.016848264 0.0050883885 4285689883
-0.022384115 0.017671315 0.0043168226 4285755164
-0.020659178 0.018494299 0.0035457152 4285754908
-0.018939823 0.019317275 0.0027750367 4285688863
-0.016696576 0.017014073 0.0046329852 4285492003
-0.013626602 0.010022519 0.010431322 4284966448
-0.044471599 0.014134115 0.0059061185 4285558304
-0.042895809 0.016527889 0.0038175907 4285688864
-0.041045755 0.01656791 0.0037030221 4285820188
-0.038996533 0.015039166 0.004903479 4285754654
-0.037345868 0.016648343 0.0034741915 4285623583
-0.035706177 0.01825734 0.002045701 4285624349
-0.033861894 0.018297715 0.0019318508 4285558558
-0.031907182 0.017554032 0.0024748638 4285558558
-0.029833883 0.016026432 0.003674217 4285559069
-0.027981717 0.016067332 0.0035601393 4285558813
-0.026129648 0.01610834 0.0034461473 4285624604
-0.024277709 0.016149474 0.0033322605 4285689628
-0.022674132 0.017758491 0.0019066026 4286213399
-0.021081582 0.019367373 0.00048170518 4286278424
-0.01937047 0.020192375 -0.00028689485 4286539544
-0.016871113 0.016315063 0.0028775805 4286081053
-0.013804555 0.0093038473 0.0086615598 4285491493
-0.044420347 0.011862654 0.0054609235 4285295654
-0.043030031 0.015836457 0.0020647566 4285624603
-0.041182842 0.015876418 0.0019503669 4285689884
-0.039335735 0.01591651 0.0018360806 4285689628
-0.037590977 0.016743263 0.0010662307 4285754908
-0.035956774 0.018356545 -0.00035871472 4285754398
-0.034010347 0.017610343 0.00018314505 4285688864
-0.032058559 0.016864406 0.00072471099 4285624094
-0.030101433 0.016118711 0.0012660432 4285558813
-0.028254852 0.016159484 0.0011523054 4285624604
-0.026408374 0.016200377 0.0010386636 4285624093
-0.024562016 0.016241385 0.00092511764 4285689628
-0.022963908 0.01785464 -0.00049696025 4286213654
-0.021376826 0.019467784 -0.0019183359 4286015773
-0.019412201 0.018722935 -0.0013769586 4286540054
-0.017045517 0.015620595 0.0011256249 4286474519
-0.014252301 0.010161377 0.0055879615 4285622563
-0.011558801 0.0054889116 0.0093945237 4285163564
-0.044186547 0.0080091357 0.0063221604 4285426468
-0.042976018 0.013571834 0.0016244338 4285559069
-0.041223034 0.014400696 0.00085551152 4285624093
-0.039376076 0.014440795 0.0007412429 4285688863
-0.037733633 0.016058447 -0.00068102172 4286543114
-0.036102176 0.017676013 -0.0021025683 4286147353
-0.034158684 0.016927609 -0.0015621907 4286081818
-0.032209821 0.0161794 -0.0010220115 4285886234
-0.030255612 0.015431469 -0.00048211915 4285689628
-0.028411899 0.015472172 -0.00059568556 4285689884
-0.026568286 0.015513016 -0.00070913928 4285624348
-0.024724793 0.015553949 -0.00082251383 4286017559
-0.023129433 0.017171523 -0.0022412385 4285753888
-0.021418348 0.018000761 -0.0030066143 4285622054
-0.019453909 0.01725371 -0.0024668616 4285622053
-0.01708762 0.014142694 2.9296149e-05 4285950748
-0.014699671 0.011032257 0.0025241964 4285754399
-0.012152467 0.0071344841 0.0056697149 4285492003
-0.043016113 0.012094179 0.00052812882 4285427234
-0.041359939 0.013716249 -0.00089191599 4285623838
-0.039615288 0.014547234 -0.0016586096 4285754144
-0.037978329 0.016169159 -0.0030773417 4286279698
-0.03635234 0.017790919 -0.0044952673 4286279189
-0.034306884 0.016249431 -0.0033040703 4286410768
-0.032471288 0.016289739 -0.0034172977 4285951258
-0.030522738 0.015539514 -0.0028786683 4285754398
-0.028684616 0.015580101 -0.0029918854 4285689374
-0.026728079 0.014830222 -0.0024535484 4285689629
-0.025129903 0.016452109 -0.0038692835 4286017048
-0.023418769 0.017283404 -0.00463313 4286213144
-0.021839879 0.018905072 -0.006047524 4285753124
-0.019625008 0.016575037 -0.0042073256 4285753124
-0.017658178 0.015825981 -0.003669254 4286147609
-0.015281498 0.012706595 -0.0011801342 4285754653
-0.013020746 0.010377927 0.0006575007 4285492259
-0.010182675 0.0048895273 0.0050945519 4285032239
-0.043811202 0.0010570344 0.0073646009 4285294379
-0.043056201 0.010616796 -0.00056796893 4285426979
-0.041593373 0.013829624 -0.0032871324 4285558304
-0.039854258 0.014662659 -0.0040518702 4286213909
-0.038120668 0.015495712 -0.004816161 4285622564
-0.036392599 0.016328732 -0.0055800476 4285556518
-0.03456251 0.016368804 -0.0056930189 4285687844
-0.032622233 0.015616113 -0.0051555797 4285819679
-0.030676611 0.014863638 -0.0046183965 4285820188
-0.028725632 0.014111405 -0.0040814499 4285689374
-0.026769295 0.013359347 -0.0035447194 4285689373
-0.0252923 0.015778219 -0.005606866 4285754398
-0.023831744 0.018196849 -0.0076679117 4286345489
-0.022134416 0.019030107 -0.0084292218 4286147609
-0.020054657 0.017485945 -0.0072426912 4286344468
-0.017964121 0.015942072 -0.0060567162 4286213399
-0.015862834 0.014398614 -0.0048713465 4285689118
-0.013613284 0.012063148 -0.0030378937 4285623583
-0.010786653 0.0065592211 0.0013885698 4285295143
-0.0079220831 0.0010563023 0.0058127525 4285556518
-0.042908527 0.0075487327 -0.00036445912 4285360424
-0.041729964 0.013156546 -0.0050261277 4285492259
-0.04009299 0.014786994 -0.006438442 4286148884
-0.038364932 0.015622145 -0.0072008162 4286016028
-0.036747161 0.017252414 -0.0086117685 4286015519
-0.034817901 0.016497171 -0.0080753658 4286213144
-0.032993477 0.016537225 -0.0081879124 4286016538
-0.031056222 0.015782399 -0.007651824 4285689119
-0.029113613 0.01502776 -0.0071159429 4285689883
-0.027284037 0.01506828 -0.0072285444 4285624348
-0.025575679 0.015903784 -0.007989116 4285623838
-0.02387286 0.016739236 -0.0087492205 4285623838
-0.02217561 0.017574659 -0.009508919 4285557539
-0.020096105 0.016026137 -0.0083256084 4285622819
-0.018005833 0.014477933 -0.0071428376 4285557028
-0.01577007 0.012135524 -0.005313477 4285622819
-0.013792999 0.011382565 -0.0047791074 4285688099
-0.011109818 0.006657796 -0.0010106554 4285556263
-0.041769892 0.011690503 -0.0061138025 4285426979
-0.040331468 0.01492033 -0.0088184122 4285689118
-0.038812913 0.017352318 -0.010873966 4286278934
-0.037101362 0.018189376 -0.011633635 4286213144
-0.035287902 0.018229095 -0.011745574 4286278678
-0.033254206 0.016674379 -0.01056323 4285622818
-0.031209715 0.015120069 -0.0093815029 4285623583
-0.029154427 0.013566043 -0.0082003325 4285689629
-0.027324997 0.013606571 -0.0083129164 4285689628
-0.025495663 0.013647202 -0.0084254127 4285623839
-0.023790214 0.014484903 -0.0091841221 4285558049
-0.021710847 0.01293188 -0.0080040842 4285623584
-0.019749917 0.012176076 -0.0074705728 4285885469
-0.017519798 0.0098269023 -0.0056458055 4286213143
