# .PCD v0.7 - Point Cloud Data file format
VERSION 0.7
FIELDS x y z rgba
SIZE 4 4 4 4
TYPE F F F U
COUNT 1 1 1 1
WIDTH 961
HEIGHT 1
VIEWPOINT 0 0 0 1 0 0 0
POINTS 961
DATA ascii
-0.028857294 -0.0035000751 0.027919134 4289997344
-0.026899807 -0.0034622895 0.027813757 4290586139
-0.024942432 -0.0034243641 0.027708488 4290062624
-0.022876166 -0.0041611241 0.028268078 4289408804
-0.020916291 -0.0041229231 0.028162843 4289539363
-0.019071009 -0.0033099139 0.027393231 4289866529
-0.017231304 -0.0024968339 0.026623975 4290324764
-0.015397172 -0.0016838089 0.025855135 4290782488
-0.013446003 -0.0016453005 0.025750723 4290324764
-0.011369608 -0.002381173 0.026310282 4289604898
-0.0094160102 -0.0023423797 0.026205914 4289474593
-0.0075933635 -0.0015291199 0.025438029 4289147174
-0.0061769336 0.0016071461 0.022680137 4287507779
-0.038160577 -0.0099172136 0.031274647 4286462788
-0.036725659 -0.0052155876 0.027182793 4289081384
-0.034767956 -0.0051782881 0.027077038 4289342758
-0.033000987 -0.0035863277 0.025643572 4289408549
-0.031048913 -0.003548868 0.02553832 4288885033
-0.029298488 -0.0019570244 0.024105968 4288885033
-0.027248558 -0.0026965104 0.02466465 4289146663
-0.025193281 -0.0034357794 0.025223128 4289735459
-0.02302371 -0.0049518514 0.026444601 4289670434
-0.020955034 -0.0056906254 0.02700253 4289670178
-0.019109845 -0.0048754271 0.02623455 4289474084
-0.017153084 -0.0048370436 0.026129663 4289605154
-0.015316337 -0.0040217219 0.025362274 4289605154
-0.013362586 -0.0039831428 0.025257736 4289605154
-0.01140897 -0.0039444705 0.025153279 4289735969
-0.0097115673 -0.0023524724 0.023724655 4289736224
-0.0081559643 1.6009435e-05 0.021634679 4289997599
-0.0068838149 0.00393725 0.018221973 4288099378
-0.036852948 -0.006001282 0.025361594 4287771958
-0.035083216 -0.0044050813 0.023931159 4289343014
-0.033229202 -0.0035883682 0.023163697 4290455068
-0.031282734 -0.003551024 0.023058744 4290324764
-0.029437084 -0.0027342355 0.022291908 4290717208
-0.027493529 -0.0026967144 0.022187281 4291175444
-0.025443915 -0.0034382502 0.022744464 4290979094
-0.023388956 -0.004179595 0.023301424 4289343778
-0.021440282 -0.0041415859 0.023196811 4289736224
-0.019491736 -0.0041034613 0.023092292 4289605409
-0.017426226 -0.0048442185 0.023648968 4289735713
-0.015355408 -0.0055847755 0.024205433 4289604899
-0.013401799 -0.0055462113 0.024100896 4289997854
-0.011573579 -0.0047286842 0.023335796 4289801249
-0.010006901 -0.0023536095 0.021250026 4290390044
-0.0088488273 0.0023575574 0.017184049 4290782743
-0.036800586 -0.0083458349 0.024865819 4287183418
-0.035213176 -0.0051818704 0.022116823 4288884778
-0.033361983 -0.0043630311 0.021351131 4289539108
-0.031614289 -0.0027625849 0.019925274 4290128413
-0.029676247 -0.0027252836 0.01982086 4290913559
-0.0276349 -0.003469279 0.020376781 4290128414
-0.025588203 -0.004213131 0.02093252 4289474339
-0.023645021 -0.0041753436 0.020828117 4289081638
-0.021813523 -0.0033561178 0.02006398 4289474594
-0.019873306 -0.0033181421 0.019959917 4289670688
-0.017582119 -0.0056236554 0.021834435 4289800993
-0.015514217 -0.0063664429 0.022389444 4289932064
-0.013441015 -0.007108991 0.02294427 4289801249
-0.011738077 -0.0055082757 0.021521734 4289866784
-0.010046177 -0.0039076665 0.020099876 4289604899
-0.0091491975 0.0023783911 0.01472606 4289867549
-0.036658615 -0.011478329 0.025026312 4286725438
-0.035158139 -0.0075216852 0.02162431 4288296238
-0.033494666 -0.0051330114 0.019541958 4289343014
-0.03174974 -0.0035283174 0.018119512 4289473573
-0.029814575 -0.0034910552 0.018015267 4289670178
-0.027672816 -0.0050209174 0.019228332 4289343524
-0.025626324 -0.0057669403 0.019782472 4289343524
-0.023900881 -0.0041620722 0.01836141 4289343524
-0.022297964 -0.0017738454 0.016282856 4290193949
-0.020254545 -0.0025195535 0.016837439 4289408549
-0.018088814 -0.0040483465 0.018049663 4289801248
-0.016032018 -0.0047935136 0.018603662 4289670433
-0.014092315 -0.004755212 0.018499879 4289735969
-0.01215275 -0.0047168043 0.018396182 4290521114
-0.010213327 -0.004678268 0.018292589 4290784529
-0.038311031 -0.016228907 0.026602764 4286006084
-0.036516845 -0.014619288 0.025180615 4286529598
-0.035010818 -0.010651615 0.021786338 4287184694
-0.033436999 -0.0074703963 0.01905114 4288427308
-0.03188508 -0.0042894166 0.016317183 4289735204
-0.030053362 -0.003466296 0.015555921 4289604899
-0.027917307 -0.0050006788 0.016766096 4289408803
-0.025876474 -0.0057489336 0.017318891 4289539619
-0.024156522 -0.0041398676 0.015901394 4290520858
-0.022447575 -0.002530857 0.014484529 4291109653
-0.020407077 -0.0032787472 0.01503762 4290913559
-0.018244326 -0.0048119882 0.01624682 4290520859
-0.016310096 -0.0047739157 0.016143238 4289605154
-0.014375988 -0.0047357166 0.016039759 4289474339
-0.012567084 -0.00391204 0.01528054 4289801758
-0.010508168 -0.0046589868 0.015833074 4290718993
-0.038348638 -0.01780613 0.025435312 4286005828
-0.036554504 -0.016192155 0.024016399 4286529598
-0.034863696 -0.013790012 0.021942176 4286726203
-0.033379447 -0.0098117935 0.018557282 4288493098
-0.031922523 -0.0058339708 0.015173956 4288950313
-0.030090906 -0.0050086863 0.014414306 4289277479
-0.028058346 -0.0057594259 0.014965897 4289343269
-0.0261264 -0.0057219821 0.014862005 4289474083
-0.024520628 -0.0033207536 0.012792899 4290716699
-0.022597075 -0.0032832231 0.012689644 4290586393
-0.020559501 -0.004033356 0.013241268 4290717208
-0.018516589 -0.0047832616 0.013792698 4290651673
-0.016827114 -0.0031699603 0.012380421 4289735969
-0.014781732 -0.0039195931 0.012931885 4289474339
-0.012856077 -0.0038814386 0.012828949 4289670944
-0.010802791 -0.0046306895 0.013380158 4289868313
-0.009266112 -0.0022299308 0.011315486 4288822813
-0.036592163 -0.017764769 0.022852371 4286594879
-0.034716785 -0.016936829 0.022091707 4287118649
-0.033131965 -0.013737923 0.019368807 4288035374
-0.031764496 -0.0089587886 0.015339049 4287381043
-0.029927522 -0.0081312777 0.014580759 4288492844
-0.028199278 -0.0065135397 0.013169057 4289211943
-0.026482023 -0.0048959283 0.011758081 4290389534
-0.024884418 -0.0024883244 0.0096942615 4289277734
-0.022857819 -0.0032410016 0.010244821 4288885033
-0.020825893 -0.0039934283 0.01079513 4289277989
-0.018788628 -0.0047456035 0.011345263 4289670433
-0.016985103 -0.0039179055 0.010589392 4289866783
-0.014942646 -0.0046697706 0.011139399 4289409058
-0.013019845 -0.0046316907 0.011036602 4289670689
-0.010969479 -0.0053831614 0.011586363 4288428583
-0.0093050711 -0.0037655476 0.010178992 4287775529
-0.036629811 -0.01933711 0.021688543 4286987324
-0.034662303 -0.019299598 0.021582277 4287641398
-0.033074707 -0.016091928 0.018865688 4287053369
-0.03150899 -0.012884569 0.016150359 4287315509
-0.029965162 -0.0096774986 0.013436307 4287577139
-0.028236963 -0.0080553927 0.012027847 4289211943
-0.026625607 -0.0056411484 0.0099680917 4290062368
-0.025030714 -0.0032270569 0.0079092681 4290455068
-0.023118347 -0.0031897528 0.007806608 4290062623
-0.021206096 -0.0031523295 0.0077040424 4290651929
-0.019177206 -0.0039068703 0.0082529904 4291044373
-0.017381933 -0.0030771559 0.0074991784 4289539618
-0.015470035 -0.0030393917 0.0073968894 4289539873
-0.013433356 -0.0037934445 0.007945667 4288951333
-0.011263698 -0.0053391512 0.00914515 4288297513
-0.0093440339 -0.005300913 0.009042684 4288037414
-0.036935821 -0.018524822 0.018571025 4286136899
-0.034792289 -0.020076916 0.019767476 4287379258
-0.032922652 -0.019244649 0.01901049 4287118138
-0.0312538 -0.016823104 0.016952157 4286987578
-0.029701736 -0.013607207 0.014244165 4286987833
-0.028171558 -0.010391585 0.011537388 4287969074
-0.026663277 -0.0071762623 0.0088318819 4289146664
-0.025176894 -0.0039612176 0.006127662 4290193439
-0.023267396 -0.0039239638 0.0060251579 4290585884
-0.021358013 -0.0038866047 0.0059227403 4291109653
-0.019448735 -0.0038491292 0.0058204173 4290455579
-0.017659009 -0.0030173464 0.0050685154 4289539618
-0.015630551 -0.0037738457 0.00561604 4289212453
-0.013721652 -0.0037360173 0.0055140038 4289474339
-0.011557702 -0.0052861734 0.0067105 4288820774
-0.0353828 -0.016865103 0.014708494 4287117628
-0.033339903 -0.017624691 0.015252742 4286987068
-0.031291641 -0.018384052 0.015796794 4286790974
-0.029739521 -0.015159451 0.013095256 4287118650
-0.028312318 -0.011138381 0.0097459629 4287249464
-0.02680669 -0.0079144407 0.0070471037 4288165168
-0.025214482 -0.0054873638 0.0049980977 4289211943
-0.023527529 -0.003857038 0.00359862 4289474083
-0.021623734 -0.0038197795 0.0034965083 4289604898
-0.019720051 -0.0037824279 0.0033944738 4289735969
-0.017816491 -0.0037449468 0.0032925433 4289539619
-0.015913047 -0.0037073484 0.0031907081 4289474083
-0.014009725 -0.003669668 0.003088942 4289408803
-0.011978995 -0.0044280654 0.0036349036 4288951078
-0.033567131 -0.017585181 0.012803624 4286463553
-0.031329479 -0.019944772 0.014641599 4286921788
-0.029677056 -0.017510394 0.01259398 4287052859
-0.028247006 -0.013478428 0.0092526497 4287249464
-0.026738591 -0.0102457 0.0065600462 4287249718
-0.025252074 -0.0070132483 0.0038687291 4288885033
-0.023565151 -0.0053786016 0.0024724589 4289604899
-0.02177538 -0.0045426553 0.0017235699 4289604899
-0.019874558 -0.0045053428 0.0016217009 4289539363
-0.017973855 -0.004467926 0.0015199183 4289408804
-0.016073279 -0.004430403 0.0014182223 4290913049
-0.014297571 -0.0035943147 0.00067047135 4290848023
-0.01239996 -0.0035566306 0.00056909735 4290521114
-0.010502484 -0.0035188403 0.00046781119 4289213473
-0.0083392821 -0.0050775316 0.0016581013 4289542168
-0.031659715 -0.019101765 0.011548595 4286594624
-0.029815067 -0.018263236 0.010797958 4287052859
-0.028181795 -0.015822524 0.0087562669 4287183928
-0.026564956 -0.013382027 0.0067155384 4287315254
-0.025181286 -0.0093398504 0.0033849427 4288950568
-0.023602765 -0.0068999021 0.0013464926 4289343013
-0.021813083 -0.0060617905 0.0005992158 4289604899
-0.020028934 -0.0052237185 -0.00014763908 4289866529
-0.018250354 -0.0043856278 -0.00089410041 4289800738
-0.016477339 -0.0035475548 -0.0016401949 4290651674
-0.014585186 -0.0035100766 -0.0017413495 4290455324
-0.012693156 -0.0034725042 -0.0018424261 4290455578
-0.010801252 -0.0034348387 -0.0019434255 4290325529
-0.0087766126 -0.0041974876 -0.0014002029 4289933338
-0.031892218 -0.019048765 0.0091097699 4286987069
-0.02985283 -0.019814737 0.0096495962 4286856509
-0.028013814 -0.018973961 0.0089009339 4287053114
-0.026391517 -0.016526891 0.0068647843 4288100399
-0.025002278 -0.012473745 0.0035419466 4288297004
-0.023529336 -0.0092240507 0.00086434651 4288492588
-0.021964535 -0.0067776949 -0.0011684907 4289735714
-0.020183194 -0.0059375074 -0.0019135845 4290127648
-0.018645834 -0.0034914687 -0.0039447858 4289539108
-0.016881067 -0.0026513655 -0.0046888124 4288819753
-0.014872573 -0.0034168558 -0.0041465973 4289081383
-0.012858748 -0.0041821413 -0.0036045939 4289800993
-0.011099793 -0.0033418434 -0.0043480801 4289866529
-0.0093464106 -0.0025015501 -0.0050911908 4289605919
-0.0073275343 -0.0032663988 -0.0045492067 4290065684
-0.030090753 -0.019755082 0.0072160778 4286921533
-0.028051663 -0.020523084 0.0077543454 4287510584
-0.026323818 -0.018874831 0.0063653793 4287445559
-0.024931729 -0.014810754 0.0030504575 4287053369
-0.02356698 -0.010747087 -0.00026290605 4287249718
-0.02211586 -0.0074890484 -0.00293283 4288754218
-0.020453766 -0.0058415532 -0.0043179505 4289604388
-0.018921815 -0.0033891471 -0.0063439864 4290651163
-0.01728446 -0.0017419076 -0.0077276104 4289212198
-0.015284311 -0.0025097979 -0.0071865334 4289212198
-0.013278842 -0.0032774368 -0.006645706 4289931808
-0.011268068 -0.0040448485 -0.0061050714 4290586393
-0.0095174722 -0.0032024523 -0.0068464316 4289474848
-0.0076369867 -0.0031647896 -0.0069466545 4289671964
-0.0057566315 -0.0031270459 -0.007046809 4289934613
-0.030428495 -0.018878888 0.0041481308 4286463809
-0.028192252 -0.021264432 0.0059670238 4287052603
-0.026256211 -0.021226928 0.0058628982 4286922043
-0.024753086 -0.01795939 0.003196476 4286725948
-0.023382764 -0.013884742 -0.00010912103 4287053114
-0.022039767 -0.0098105278 -0.0034131778 4287838258
-0.020607732 -0.0065440373 -0.0060755303 4289211944
-0.019078482 -0.0040851692 -0.0080965888 4290127903
-0.017322049 -0.0032408601 -0.0088370005 4290586139
-0.015322093 -0.0040109325 -0.0082975291 4290847768
-0.013316825 -0.0047807423 -0.0077582975 4290913304
-0.011566181 -0.0039362861 -0.0084981332 4290063389
-0.0098211169 -0.0030917739 -0.0092376219 4289147428
-0.0080816187 -0.0022473047 -0.0099766869 4289409569
-0.0060714185 -0.003016605 -0.0094374148 4290000658
-0.028538145 -0.020381644 0.0029045222 4286071364
-0.02650499 -0.02115405 0.003440001 4286790973
-0.024682786 -0.020306852 0.0026972485 4286725949
-0.023309615 -0.016221285 -0.00060044229 4286857019
-0.021963775 -0.012136163 -0.0038966008 4287118903
-0.020645253 -0.0080514392 -0.0071911924 4287969328
-0.018996939 -0.0063954657 -0.0085690115 4289212198
-0.017359629 -0.0047395723 -0.0099462131 4289277478
-0.015359864 -0.005511851 -0.009408365 4290258973
-0.013481975 -0.0054745828 -0.0095087038 4290128414
-0.011604212 -0.0054372209 -0.0096089644 4289735969
-0.010124516 -0.0029722229 -0.011622171 4289343523
-0.0085259043 -0.0013166098 -0.01299687 4289343523
-0.0066621155 -0.0012792246 -0.01309616 4289475103
-0.0046576709 -0.0020507248 -0.012558128 4290261268
-0.026753534 -0.021072205 0.0010236669 4286529344
-0.024828769 -0.02103482 0.00092022074 4286791228
-0.023236558 -0.018562019 -0.0010947911 4286791483
-0.021887869 -0.014465976 -0.0043830429 4287184439
-0.020450231 -0.01118198 -0.0070327925 4287381043
-0.019034468 -0.0078983437 -0.009681318 4288362029
-0.017397191 -0.0062380936 -0.011055285 4289212199
-0.015522048 -0.0062010065 -0.011155571 4289277479
-0.013519865 -0.006975288 -0.010619373 4289343524
-0.011901971 -0.0053151255 -0.011992085 4289670433
-0.010427672 -0.0028437851 -0.014000146 4289278244
-0.0089698359 -0.00037262123 -0.016007289 4290848533
-0.0069763176 -0.0011466183 -0.015470363 4290259738
-0.0049774721 -0.0019204458 -0.014933676 4289147683
-0.0026863888 -0.0043163095 -0.013126176 4288692763
-0.02508267 -0.020944249 -0.0014892011 4286856508
-0.023274358 -0.020092921 -0.0022278691 4287052859
-0.021698561 -0.017613772 -0.0042371289 4287773234
-0.020255405 -0.014321011 -0.0068807513 4288165933
-0.018834129 -0.011028549 -0.0095231058 4288165933
-0.017434735 -0.0077364347 -0.012164226 4288754474
-0.015684098 -0.0068856822 -0.012899389 4289277479
-0.013811916 -0.0068485648 -0.01299945 4289081638
-0.012069676 -0.0059977723 -0.013734013 4289801504
-0.01059806 -0.0035199327 -0.015737144 4289670944
-0.0090076402 -0.001855813 -0.017104974 4290979349
-0.0070142932 -0.0026320145 -0.016569674 4290979603
-0.0051563457 -0.0025946638 -0.016668592 4290979860
-0.0031550899 -0.0033705067 -0.016133562 4289279009
-0.0012946725 -0.0033329194 -0.016232474 4289738774
-0.025552332 -0.019212376 -0.0051603559 4288099123
-0.023533572 -0.019991338 -0.0046288343 4287968308
-0.021622892 -0.019954005 -0.004731358 4288034608
-0.020060785 -0.017468557 -0.0067349374 4287773234
-0.01887174 -0.012535377 -0.010638337 4287511859
-0.017593857 -0.0084186625 -0.013906428 4288296749
-0.015846018 -0.0075658071 -0.01463984 4288754218
-0.013976689 -0.0075287651 -0.014739763 4289474084
-0.01223724 -0.0066758692 -0.015472574 4289474083
-0.01063583 -0.005007253 -0.016837893 4289539618
-0.0090454221 -0.0033388138 -0.018202519 4290258973
-0.0071901754 -0.0033016317 -0.018301377 4289474084
-0.0053350553 -0.0032643555 -0.018400159 4290782743
-0.0034800619 -0.0032269983 -0.01849887 4289147684
-0.0016252026 -0.0031895358 -0.018597495 4290391574
-0.024124522 -0.017426018 -0.0089204116 4286594624
-0.021774072 -0.020661945 -0.0064931749 4286987324
-0.020098552 -0.01898822 -0.0078596799 4286922298
-0.018552851 -0.016496425 -0.0098575074 4287053369
-0.017388213 -0.011550629 -0.013749808 4287184949
-0.015883535 -0.009059431 -0.015745284 4288100654
-0.014268309 -0.0073864609 -0.017108237 4288688939
-0.012793794 -0.0048956536 -0.019101948 4290455324
-0.011203278 -0.0032229386 -0.020463482 4289800993
-0.0093534738 -0.0031859744 -0.020562133 4288165679
-0.0075037926 -0.0031489292 -0.020660713 4288558123
-0.0055136383 -0.003929521 -0.020128375 4288885289
-0.0036614761 -0.0038922392 -0.02022695 4290194204
-0.0018094629 -0.0038548633 -0.020325447 4289343779
-0.00025506318 -0.0021822741 -0.021684609 4289803033
-0.022151776 -0.019724481 -0.0095129488 4286659903
-0.020136312 -0.020507678 -0.0089842705 4286856509
-0.018590577 -0.018009396 -0.010977287 4286922298
-0.017182764 -0.014691072 -0.013599537 4286857529
-0.015921041 -0.010552865 -0.016850585 4287184693
-0.014432769 -0.0080553805 -0.018840278 4288296494
-0.013220228 -0.0039179549 -0.022088552 4289670179
-0.011637885 -0.0022411384 -0.023446411 4290651674
-0.0099314563 -0.0013843738 -0.024174102 4290455324
-0.0079549588 -0.0021674754 -0.023642771 4290455324
-0.0058326125 -0.0037702592 -0.022482479 4290455323
-0.0038427711 -0.0045529157 -0.021951729 4290652184
-0.0019935742 -0.0045156162 -0.022050088 4289801248
-0.00014451891 -0.0044782218 -0.022148369 4289605663
0.0017044023 -0.0044407351 -0.022246571 4289541148
0.012926966 -0.014084712 -0.015201813 4286988598
0.014639944 -0.013226775 -0.015929082 4286923064
-0.020522021 -0.019559383 -0.011995464 4286921788
-0.018628281 -0.019522211 -0.012096954 4286922044
-0.016977523 -0.017840041 -0.013455579 4287053369
-0.015586048 -0.014513298 -0.016070396 4287184439
-0.014470212 -0.0095421802 -0.019940663 4287838768
-0.013257522 -0.0053939074 -0.0231809 4289146664
-0.011807501 -0.0028905319 -0.025163542 4290193439
-0.010103866 -0.0020316411 -0.025889538 4290847768
-0.0082680248 -0.001994893 -0.025987398 4290847769
-0.0060108602 -0.0044242507 -0.024202431 4289800993
-0.0038807169 -0.0060311314 -0.023045711 4289081383
-0.0017398 -0.0076377806 -0.02188948 4289212198
0.00011458993 -0.0076002907 -0.021988051 4288362284
0.002422899 -0.010028257 -0.020205539 4287904559
0.0047473833 -0.012455729 -0.018423835 4287316019
0.0069312602 -0.014061147 -0.017269617 4287250739
0.0088068545 -0.014022904 -0.017369075 4287447089
0.0106823 -0.013984577 -0.017468464 4288690213
0.012887493 -0.015589252 -0.01631522 4287577903
0.014600433 -0.014729186 -0.017040906 4287446068
-0.020791445 -0.019422544 -0.014369578 4286725183
-0.018903285 -0.019385496 -0.01447078 4287052603
-0.016893838 -0.02017297 -0.013944863 4287183674
-0.015375465 -0.017662004 -0.015926605 4287249463
-0.014000334 -0.01432678 -0.018534094 4287511603
-0.013035707 -0.0085185785 -0.023019971 4288492844
-0.011580206 -0.0060085445 -0.024998121 4289212199
-0.010006167 -0.0043231146 -0.026349029 4289539109
-0.008030016 -0.0051106289 -0.025820944 4289539108
-0.0059081316 -0.0067221457 -0.024667101 4289081383
-0.0037754849 -0.0083333869 -0.02351371 4289081383
-0.0014862195 -0.010768401 -0.021735201 4288231214
0.00067064911 -0.012378988 -0.020582976 4287577393
0.0028382689 -0.013989249 -0.019431317 4287315508
0.0050166175 -0.015599209 -0.018280091 4287250229
0.006892249 -0.015561083 -0.01837964 4287773998
0.0089271888 -0.016346695 -0.017854152 4287708718
0.010805249 -0.016308334 -0.017953692 4288363049
0.013012946 -0.017917344 -0.016803836 4288624679
0.01456096 -0.016231405 -0.018152591 4287380533
-0.019415252 -0.01758633 -0.018089056 4287248444
-0.017174229 -0.020029709 -0.016313467 4287968564
-0.015413158 -0.019165829 -0.017039604 4288557614
-0.014037941 -0.015821926 -0.01964066 4288558123
-0.012814075 -0.011651739 -0.022865402 4288362283
-0.011485301 -0.0083085559 -0.025463825 4288885289
-0.0097736195 -0.0074452581 -0.026187027 4288950313
-0.0077922009 -0.0082348539 -0.025660848 4289277478
-0.0058054775 -0.0090242326 -0.025134875 4289539363
-0.0036703348 -0.01063981 -0.023984868 4288100653
-0.0015244335 -0.012255035 -0.022835411 4287708464
0.00078073889 -0.014696226 -0.021062495 4287643184
0.0029508471 -0.016310798 -0.019914204 4287577394
0.0051317066 -0.017925095 -0.018766364 4287904559
0.0070099458 -0.017886933 -0.018866064 4288100653
0.0088880509 -0.017848691 -0.018965695 4287708464
0.010603905 -0.016984431 -0.01968847 4287904814
0.012643844 -0.017771976 -0.019164756 4288362793
0.014521539 -0.017733514 -0.019264197 4287446579
-0.017575637 -0.019048732 -0.019299272 4286987323
-0.015450828 -0.020669498 -0.018152487 4287445049
-0.014075518 -0.01731693 -0.02074712 4287445814
-0.012980931 -0.012307128 -0.024587167 4287381043
-0.011522628 -0.009784067 -0.026555846 4287904304
-0.0096761435 -0.0097472835 -0.026654402 4287969839
-0.0075545833 -0.011367678 -0.025507046 4287773744
-0.0055625737 -0.012159176 -0.024983002 4287708464
-0.0034222305 -0.013778967 -0.023836551 4288427819
-0.0014168471 -0.014570057 -0.02331304 4288427819
0.00089074671 -0.017017679 -0.021545134 4288166698
0.0027609989 -0.01697989 -0.021644564 4287708464
0.0047850087 -0.017770296 -0.021121891 4287773999
0.0066577047 -0.017732259 -0.021221304 4287576883
0.0083709508 -0.016866 -0.021942416 4287642419
0.010078609 -0.015999757 -0.022663163 4287314744
-0.018340353 -0.015561113 -0.024141859 4286333249
-0.015984215 -0.018848741 -0.021753365 4287052603
-0.01449303 -0.016318779 -0.023719089 4287249719
-0.013018273 -0.013788983 -0.025683891 4287315764
-0.011692014 -0.010428526 -0.028269328 4287773489
-0.0097135529 -0.011222663 -0.027746318 4287315509
-0.0074546784 -0.013678216 -0.025980899 4287184693
-0.0054601356 -0.014471848 -0.02545861 4287381044
-0.0033172667 -0.016096022 -0.02431551 4287839024
-0.0014550462 -0.016058581 -0.024414653 4288035374
0.00085230172 -0.01851278 -0.022651607 4289147684
0.0027224347 -0.018475005 -0.022751043 4288428329
0.0045924336 -0.018437162 -0.022850415 4287577394
0.0064623058 -0.018399237 -0.022949722 4287772723
-0.016269371 -0.018676994 -0.024100438 4286071364
-0.014530376 -0.017806979 -0.02482052 4287248953
-0.013184894 -0.014437568 -0.027400626 4287249719
-0.011465136 -0.013567708 -0.028119585 4287511859
-0.0096161664 -0.013530914 -0.028218305 4287249718
-0.0072173849 -0.016825948 -0.025838207 4287118903
-0.0052175447 -0.017621722 -0.025317794 4287380789
-0.0030694827 -0.019250112 -0.02417825 4287577139
-0.0014931932 -0.017546987 -0.02551618 4287642163
0.00066551566 -0.019175004 -0.024377087 4287576373
0.0025328249 -0.019137317 -0.024476392 4287315253
-0.014947332 -0.016788961 -0.02777786 4287314233
-0.01322211 -0.015916992 -0.028495552 4287249464
-0.011370417 -0.015880292 -0.028594527 4287511349
-0.0095188506 -0.015843464 -0.028693398 4289408549
-0.0072550997 -0.018311976 -0.026938001 4287642163
-0.0053955913 -0.01827481 -0.027037164 4287511604
-0.0035361797 -0.018237589 -0.027136277 4287445814
-0.0019680485 -0.016530352 -0.028470604 4287641908
-0.015110943 -0.017432898 -0.029491348 4286856253
-0.013259284 -0.017396307 -0.029590404 4287118139
-0.011275791 -0.018197019 -0.029072614 4287510584
-0.0095562525 -0.017322853 -0.029788287 4287837493
-0.0075675249 -0.018123293 -0.029270653 4287249464
-0.0057135448 -0.018086301 -0.029369568 4286465084
-0.013296422 -0.018875513 -0.030685173 4286659648
-0.011444967 -0.018838853 -0.030784162 4287510073
-0.0095936209 -0.018802099 -0.030883076 4287379768
-0.012009472 -0.016950898 -0.034333069 4287836473
0.013470396 0.015137266 0.017661333 4280449379
0.015211917 0.015943637 0.016893867 4281303884
0.017624184 0.013681749 0.018792422 4281630284
0.020224392 0.010653272 0.021356525 4281171283
0.010878682 0.01664664 0.013969754 4280453204
0.01384107 0.020571118 0.010444251 4279090993
0.018637642 0.016033789 0.014233285 4279864153
0.0051466599 0.015010141 0.013146423 4280521288
0.0065780953 0.017363966 0.011054033 4280718148
0.0083092079 0.01817422 0.010290158 4280783683
0.0097130463 0.020527607 0.0081993984 4280522308
0.0112639 0.022109291 0.0067730416 4279806778
0.012969926 0.02291931 0.0060106972 4280329783
0.020670593 0.013779506 0.013669493 4280585549
0.00028160959 0.018831423 0.0075839246 4281564239
0.0020104796 0.019643588 0.0068215425 4281500999
0.0037337393 0.020455686 0.0060595707 4280914243
0.0056066886 0.020493893 0.0059602656 4280915008
0.0076374859 0.01975836 0.0065231831 4280784193
0.0091912672 0.021344325 0.0050998745 4278958904
0.010897435 0.022156449 0.004339085 4281370949
0.012431771 0.023742242 0.0029169002 4281306943
0.013955034 0.025327833 0.0014953947 4281241919
0.01649709 0.022272034 0.0040431912 4280458814
0.019409448 0.01766978 0.0079124793 4280654144
0.022708423 0.011521362 0.013102426 4280455244
0.001072593 0.022798406 0.0017439543 4279219768
0.0030845329 0.02206015 0.0023061386 4281240388
0.0052570179 0.020545973 0.003528819 4280848963
0.0069662333 0.021360165 0.0027693543 4280654144
0.0098774806 0.025316214 -0.0007293151 4279220023
0.011727795 0.025354324 -0.0008271496 4279612724
0.015942611 0.0231036 0.00095691031 4279090483
0.018323444 0.020815087 0.0028379294 4280783938
0.021428496 0.015424557 0.0073562805 4280390219
-0.0066311806 0.011778139 0.0090576466 4281436484
-0.0051549971 0.014151886 0.0069769905 4280717893
-0.0041201115 0.018860972 0.0029179344 4280980288
0.0027407706 0.022125645 -0.00011575822 4280785213
0.0049075559 0.020607049 0.0011039538 4280784194
0.0066112727 0.021423316 0.00034640683 4280456773
0.0079880506 0.023795856 -0.0017283747 4280066879
0.015388489 0.023948485 -0.0021195163 4280785978
0.017586626 0.022431111 -0.00090095622 4280785978
0.020149387 0.019358458 0.0016329291 4280981308
0.022913389 0.015508622 0.0048235268 4280653633
0.025886782 0.010881752 0.0086703906 4280521544
-0.0085626766 0.010225408 0.0080374405 4283592509
-0.0076225139 0.015729018 0.0033272058 4281372479
-0.0061653554 0.018108888 0.0012524596 4280785214
-0.0047246963 0.020488581 -0.00082137121 4281045823
-0.0033005625 0.02286805 -0.0028942325 4281697348
-0.0017459169 0.024466639 -0.0043082405 4281697859
0.00024680048 0.023723533 -0.0037483436 4280720188
0.0022447705 0.022980643 -0.0031886441 4280785724
0.004248023 0.022237932 -0.0026291744 4280784703
0.0059407949 0.02305617 -0.003384514 4280326978
0.0076279417 0.023874355 -0.0041395109 4280195399
0.0089828447 0.026253073 -0.0062082196 4280717893
0.011151403 0.024730479 -0.0049915127 4280457793
0.013330668 0.02320824 -0.0037753519 4280783938
0.015349142 0.022466378 -0.0032162904 4281047354
0.017024457 0.02328478 -0.0039703175 4280916793
0.019047983 0.02254319 -0.0034113978 4281176383
0.021436021 0.020241929 -0.001540328 4280847943
0.024387211 0.015601525 0.0022980105 4281433168
-0.0087345541 0.0094939079 0.0062594838 4281699898
-0.0077968389 0.015012663 0.0015607252 4281892678
-0.0064811409 0.018182011 -0.0011657615 4280131138
-0.0050458908 0.020568127 -0.0032344549 4279417394
-0.0036271289 0.02295397 -0.0053021545 4280003383
-0.0019309968 0.023774052 -0.0060563553 4280263484
-9.085238e-05 0.023811428 -0.0061540417 4278374189
0.0020538718 0.022283597 -0.0049396735 4280329018
0.0038991347 0.022321256 -0.0050374987 4280914753
0.0057442263 0.022358997 -0.0051352503 4280653634
0.007589139 0.022396846 -0.0052329134 4280783684
0.0091073588 0.023999615 -0.0066413293 4281044294
0.01094646 0.024037523 -0.00673855 4280588353
0.012954079 0.023293184 -0.0061805882 4280653633
0.015138358 0.02176678 -0.0049678553 4280849984
0.016985059 0.021805091 -0.0050652958 4280655163
0.020677909 0.021881914 -0.005259987 4278440490
0.023253188 0.018792288 -0.0027395466 4279025204
0.026590087 0.012575224 0.0023968967 4280978504
0.029594786 0.0079230424 0.0062228492 4280450653
-0.008506529 0.0064112898 0.0064511872 4283268149
-0.0076990984 0.012730632 0.0011081656 4281439798
-0.0065192766 0.016693821 -0.0022671297 4281174598
-0.0053668395 0.020656588 -0.0056408723 4280394554
-0.0022628754 0.023871066 -0.008455758 4279809073
0.00171078 0.022375969 -0.0073416829 4280850238
0.0035504848 0.022413513 -0.007439211 4280849984
0.0052322522 0.023235923 -0.0081907837 4280784449
0.0072293729 0.02248889 -0.0076340274 4280523328
0.0089053512 0.023311345 -0.0083851675 4280653634
0.010907561 0.022564581 -0.0078285569 4280849474
0.012746379 0.022602571 -0.0079256995 4280914753
0.014756367 0.021856187 -0.0073694121 4280915519
0.016597524 0.021894393 -0.0074665491 4280981309
0.019740731 0.024323842 -0.0096195033 4278892858
-0.0080123208 0.001745428 0.0079441778 4282941494
-0.0070577711 0.0072950814 0.003267118 4282614838
-0.0061414763 0.012844009 -0.0014078006 4281439033
-0.0054048151 0.019179543 -0.0067339833 4280848709
-0.0041355118 0.022365568 -0.009444938 4280719168
-0.0023008883 0.022402735 -0.0095424028 4280523583
-0.00031686574 0.021652928 -0.0089868875 4280915264
0.0015201718 0.02169033 -0.009084342 4280457793
0.0032020509 0.022514777 -0.0098343333 4280588354
0.0050360188 0.022552317 -0.0099314777 4281176129
0.0067094117 0.023376761 -0.010680891 4281176128
0.0085403249 0.02341439 -0.010777761 4281111104
0.010371052 0.023452124 -0.010874541 4280980289
0.012370192 0.022703258 -0.010319355 4281111104
0.014203273 0.0227412 -0.01041614 4280785468
0.016036183 0.022779224 -0.010512852 4279938868
0.017692171 0.023603825 -0.011260967 4281567043
0.019521974 0.023641935 -0.011357401 4281371459
0.021351591 0.023680104 -0.011453784 4280523328
0.023920603 0.020572996 -0.0089458842 4281240644
0.026698768 0.01668012 -0.0057881782 4280652613
0.029694252 0.012001675 -0.0019810777 4279800914
-0.0077848546 -0.0013584327 0.0081200842 4283594038
-0.0068245903 0.004206527 0.0034540629 4283007028
-0.0057640076 0.0089813937 -0.0005580188 4282094639
-0.0053014904 0.016913334 -0.007175189 4281174598
-0.0040293559 0.020108117 -0.0098798368 4280718148
-0.0024856403 0.021723935 -0.011280316 4280915008
-0.00050452352 0.020971881 -0.010726267 4280915264
0.0011774674 0.021798411 -0.011474721 4281045569
0.0028538629 0.022624923 -0.012222807 4280524094
0.008175537 0.023526417 -0.013163784 4280263994
0.010000713 0.023564054 -0.013260259 4281045313
0.011825733 0.023601716 -0.013356701 4280980289
0.013650559 0.023639483 -0.013453051 4280198714
0.015475199 0.023677347 -0.013549319 4278504493
0.017122984 0.024503941 -0.014295395 4279286833
0.018944547 0.024541879 -0.014391396 4280133179
0.02094803 0.023791319 -0.013837765 4280655928
0.023141615 0.022252379 -0.012634895 4278503729
0.025533415 0.019925302 -0.010783228 4280129098
0.028321899 0.01602182 -0.0076340945 4279800404
-0.0078237802 -0.002887262 0.0069886227 4283986739
-0.0067274496 0.0019012401 0.0029842926 4283072564
-0.0053868517 0.0051058941 0.00028230014 4282614838
-0.0046332404 0.01147663 -0.0050189281 4281702704
-0.0036353469 0.016263446 -0.0090177981 4281175363
-0.0023768768 0.019466771 -0.011715178 4280784449
-0.00084147602 0.02108684 -0.013111935 4280980289
0.00098716468 0.021124082 -0.013208938 4280915008
0.0043287575 0.022781355 -0.01470127 4278446099
0.0061514676 0.022818742 -0.014797761 4279483438
0.0096306279 0.023684828 -0.015639355 4281046844
0.01145009 0.023722401 -0.015735483 4280654144
0.01326938 0.02376006 -0.015831538 4280849729
0.015088491 0.023797775 -0.01592754 4279611449
0.01872617 0.023873469 -0.016119309 4279096349
0.023102224 0.020786611 -0.013719545 4280392768
0.025493771 0.018452985 -0.011872722 4280784448
0.02828186 0.01453861 -0.0087316399 4280520779
0.031289868 0.0098343473 -0.0049445471 4281042508
0.034134611 0.0059212986 -0.0018063448 4281429088
-0.0079957321 -0.0036219349 0.0052083912 4284183089
-0.0067661591 0.00038568862 0.0018626661 4282484789
-0.0052870065 0.0028052647 -0.00018419998 4282419254
-0.0041067228 0.006812105 -0.0035271458 4281636659
-0.0032416657 0.012405924 -0.0081652682 4281568573
-0.0022682101 0.017205456 -0.012153117 4281241153
-0.0010288432 0.020417186 -0.014842962 4280457028
0.0004927963 0.022041423 -0.016235689 4280588353
0.0020033717 0.023665546 -0.017627748 4280784194
0.0038179606 0.023702675 -0.017723873 4281175619
0.0057926476 0.022946497 -0.017172448 4280459069
0.0095921457 0.022228027 -0.016717413 4280915008
0.011243112 0.023058785 -0.017460618 4280719423
0.012888439 0.023889525 -0.01820345 4280915008
0.014875859 0.023134043 -0.017652376 4280326468
0.016691983 0.023171788 -0.017748151 4280588354
0.018687211 0.022416612 -0.017197378 4280721464
0.020869672 0.020868694 -0.016000481 4280916284
0.023432285 0.017735306 -0.013511644 4281372988
0.026016429 0.014602438 -0.011023882 4280851259
0.02862215 0.011470089 -0.0085372087 4280717638
0.031442285 0.0075455476 -0.005405853 4281106003
-0.006804876 -0.0011295984 0.00074123533 4282942769
-0.0051872507 0.00050047971 -0.00065377541 4282615858
-0.0037218109 0.0029263552 -0.0026949591 4281897524
-0.0028483197 0.0085356124 -0.0073222793 4281311279
-0.0020130649 0.014144145 -0.011947458 4281240644
-0.0012160763 0.019752054 -0.016570562 4280717894
0.00030282885 0.02138059 -0.017959917 4279089718
0.0018106997 0.02300903 -0.01934866 4280458304
0.0036224499 0.023046097 -0.019444643 4281566278
0.0054340661 0.023083245 -0.019540554 4281501508
0.0077342391 0.020733951 -0.017699124 4281371203
0.0095536709 0.020771431 -0.017795322 4280394044
0.011541285 0.020013606 -0.017245997 4280523583
0.013020955 0.021641945 -0.018632822 4280849984
0.015010945 0.020884311 -0.018083518 4280522053
0.016829692 0.0209221 -0.018179439 4280391493
0.019365154 0.017779281 -0.015695747 4280915264
0.021740243 0.015432084 -0.013857869 4280915008
0.024316102 0.012290314 -0.011376223 4280914244
0.026726149 0.0099439863 -0.009540081 4281239878
0.029342413 0.00680314 -0.0070604281 4281565769
0.031401791 0.0060474891 -0.0065143816 4281626968
-0.0067079253 -0.0034429319 0.00026550837 4284509998
-0.0052259713 -0.0010102596 -0.0017718319 4283008049
-0.0036193803 0.00062402524 -0.003162896 4281962804
-0.0025990903 0.0054504592 -0.0071339034 4281897524
-0.0016116053 0.010276373 -0.011103137 4281636148
-0.00080616027 0.015899628 -0.015715363 4281763394
0.00026498735 0.019926412 -0.019036075 4280130884
0.0016181543 0.022357034 -0.021066161 4279024693
0.0031122565 0.023989609 -0.022450829 4278634288
0.0050757229 0.02322886 -0.021902027 4280007464
0.0093496516 0.020112617 -0.019517096 4279938868
0.011334382 0.019352539 -0.018969245 4280719424
0.013324387 0.018592676 -0.018421598 4280718403
0.015667118 0.016238037 -0.016587036 4280849984
0.017673075 0.015478643 -0.016040126 4281371203
0.020221822 0.012327394 -0.013563588 4281501254
0.02224645 0.011568541 -0.01301755 4281958979
0.024830163 0.0084181651 -0.010542748 4282022474
0.027248099 0.0060654674 -0.0087118708 4282021964
0.02930209 0.0053074192 -0.0081672352 4282085969
0.030975819 0.0061436612 -0.0089079197 4281690209
-0.0052646697 -0.0025207587 -0.0028897119 4283856688
-0.0035170764 -0.0016824501 -0.0036338994 4282288694
-0.002062574 0.00075634662 -0.0056647523 4282092853
-0.00091750175 0.004795311 -0.0089814682 4282093873
-9.8176301e-05 0.010434102 -0.013583189 4281635128
0.00068289042 0.016072214 -0.018182807 4281305159
0.0017349869 0.020109581 -0.02149437 4281110849
0.0030744821 0.022546491 -0.023518784 4280852789
0.0048777163 0.022583449 -0.023614263 4279156783
0.0071691647 0.020220941 -0.021782121 4280916028
0.0093112662 0.018658599 -0.020593101 4281306944
0.011632316 0.016296875 -0.018762391 4280720954
0.013798557 0.014735188 -0.01757453 4281176384
0.016670182 0.0099753123 -0.013819396 4280850493
0.018692315 0.009214066 -0.013274961 4280849218
0.021077931 0.00685394 -0.011447392 4281958214
0.023116007 0.0060931742 -0.010903688 4282089029
0.025528423 0.0037337467 -0.009077426 4282153033
0.0277697 0.0021741213 -0.0078932261 4282152524
0.029451758 0.0030126218 -0.0086328043 4282020178
-0.0036968067 -0.0023880927 -0.0053920657 4283464754
-0.0019575879 -0.0015476728 -0.0061341175 4283007029
-0.00037039816 9.5154159e-05 -0.0075175972 4282680883
0.00060923398 0.0049470328 -0.011466959 4282222904
0.0011004806 0.012205139 -0.017338991 4281440053
0.0016971752 0.018660156 -0.022567008 4281304903
0.0030367225 0.021103589 -0.024586583 4280782664
0.0049998537 0.02033844 -0.024041025 4280981308
0.0072937757 0.017969415 -0.022213807 4281439034
0.0096038207 0.015600838 -0.020387433 4281372478
0.012098223 0.012430701 -0.017921202 4281109318
0.014614202 0.0092611089 -0.015456039 4281762118
0.017325357 0.0052902494 -0.012351617 4281826889
0.019534543 0.0037252568 -0.011169136 4281435974
0.021396324 0.0037639569 -0.011267314 4281697349
0.023257926 0.0038027391 -0.01136542 4281892169
0.025488317 0.0022384496 -0.010183935 4282088264
0.027729385 0.00067446101 -0.0090029547 4282021708
0.029221475 0.0023165876 -0.010380399 4281824594
-0.0019963309 -0.003051267 -0.007246871 4283725108
-0.00026278198 -0.0022086864 -0.0079869349 4282876724
0.0010179579 0.0010473486 -0.010646732 4282223669
0.0016695485 0.0075207725 -0.01586483 4281962548
0.0022774711 0.013993405 -0.02108054 4281308218
0.0036279485 0.016443573 -0.023095869 4281305923
0.0056018084 0.015676476 -0.022552487 4281110594
0.0082316697 0.011692714 -0.019452091 4281568064
0.010557786 0.0093178693 -0.017631387 4281761863
0.013068154 0.0061394144 -0.015172491 4281761353
0.015258439 0.0045695063 -0.013992367 4281827398
0.017459422 0.0029999353 -0.012812798 4281826378
0.019494839 0.0022345353 -0.012272275 4281631303
0.021535508 0.0014693635 -0.011732017 4281110084
0.023399748 0.0015082043 -0.011830257 4281827653
0.025632657 -6.0418621e-05 -0.01065216 4281891913
0.027689092 -0.00082505401 -0.010112579 4281891149
0.029560938 -0.00078586023 -0.010211077 4281692759
-0.002322264 -0.0029410748 -0.0096369041 4284640304
-0.00044789165 -0.0029031644 -0.0097365258 4283072819
0.00097925961 -0.0004451843 -0.011751284 4282027318
0.0017829388 0.0052390359 -0.016318237 4281831479
0.0025483966 0.010922518 -0.020883061 4281568829
0.0042187423 0.011766372 -0.021617945 4281697348
0.0065231323 0.0093843937 -0.019801049 4281827398
0.0090062991 0.0061964337 -0.017347274 4281500489
0.011345729 0.0038153529 -0.015532102 4281826889
0.013701305 0.0014347062 -0.013717785 4281826124
0.015902244 -0.00013935473 -0.012541467 4281891404
0.017766893 -0.00010077003 -0.012639927 4282087754
0.019807577 -0.00086819101 -0.012101338 4281892168
0.021674626 -0.00082940701 -0.012199814 4281435974
0.023359813 1.5433878e-05 -0.012934902 4281696329
0.025223792 5.4294243e-05 -0.013033112 4281627479
-0.00077910721 -0.0027842466 -0.01211965 4283987759
0.00079162419 -0.0011287061 -0.013492502 4282419508
0.0020479262 0.0021443162 -0.016138032 4282091323
0.0032823458 0.005416967 -0.018782347 4281438268
0.0051233768 0.0054545514 -0.018879941 4281827653
0.0072839409 0.0038750079 -0.017705012 4281826889
0.0096178129 0.0014871582 -0.015894484 4281695563
0.011637256 0.00071677845 -0.015356641 4281825613
0.013830006 -0.00086189527 -0.014183188 4281825613
0.015691996 -0.000823454 -0.014281573 4281891149
0.017727278 -0.0015932713 -0.013744393 4282022729
0.019591659 -0.0015546186 -0.013842785 4282021963
0.02163475 -0.0023241276 -0.013305908 4281499978
0.02350153 -0.0022853008 -0.013404333 4280777563
0.00075303018 -0.0026186639 -0.014595151 4282615859
0.0020094588 0.00066301413 -0.017234268 4282092343
0.0035526901 0.0023225471 -0.01860236 4281503549
0.0053990483 0.0023602508 -0.018700225 4282023493
0.0074050426 0.0015872102 -0.018163443 4281891913
0.0095788538 3.6228448e-06 -0.016992344 4281891148
0.011598133 -0.00076895021 -0.016456116 4282021964
0.013454758 -0.00073071383 -0.016554289 4282021964
0.015481889 -0.0015029879 -0.016018376 4281956428
0.017514303 -0.0022751084 -0.015482634 4281891148
0.019551985 -0.0030469904 -0.014947149 4281825104
0.021416113 -0.0030083181 -0.01504551 4280972639
0.00041674078 -0.0024820743 -0.016964896 4284183853
0.0019710064 -0.00081811845 -0.01833038 4282745399
0.0038228333 -0.00078042317 -0.018428626 4281306178
0.0058315396 -0.0015556645 -0.017893659 4281696583
0.0075260699 -0.00070480164 -0.018624917 4281891658
0.0098648146 -0.0031055603 -0.016824374 4282021963
0.011889398 -0.0038802754 -0.016290022 4282218059
0.013919249 -0.0046547642 -0.015755938 4282675529
0.015442543 -0.0029908046 -0.017119387 4282805578
0.0016295314 -0.00066840835 -0.020690037 4283725874
0.0036300495 -0.0014460841 -0.020156318 4281632069
0.0057928488 -0.0030388245 -0.01899126 4281696328
0.007966347 -0.0046311924 -0.017826729 4281826633
0.010150596 -0.0062233307 -0.016662683 4282218059
0.012180433 -0.0070000808 -0.016130276 4282479943
0.014215574 -0.0077766399 -0.015598089 4283525953
0.003591612 -0.0029247152 -0.021250578 4283198789
0.006224893 -0.006973959 -0.01819892 4283003203
0.0084063262 -0.0085705407 -0.017038055 4283787838
0.013366044 0.001766813 0.050147031 4280373133
0.015685417 0.000307885 0.051400684 4279584418
0.00776048 -0.0022171168 0.051314656 4280831114
0.0090190247 0.0015843716 0.047814045 4279586459
0.010250092 0.0053854138 0.044314969 4278469814
0.019985698 -0.0027237544 0.05135259 4281617789
0.0031283498 -0.00089190342 0.047625519 4282404719
0.0049835145 -9.7198412e-05 0.046841655 4279717528
0.0065377206 0.0022063348 0.044703592 4278734758
0.0082257837 0.0037552267 0.043243632 4278668459
0.011724383 0.0060984865 0.041002519 4279191208
0.01369895 0.0061387084 0.040897787 4278402494
0.016318403 0.0031624809 0.043499339 4278468028
0.018959433 0.00018679909 0.046099823 4279389344
-0.0020068362 0.0034795403 0.041242521 4282668134
-0.00030713528 0.0050326511 0.039784897 4280175254
0.0016657859 0.0050722621 0.039679822 4279521179
0.0037833974 0.0043553412 0.040250625 4278735015
0.0056110471 0.0051517785 0.039469924 4278603434
0.0097085908 0.0044752061 0.039935723 4278667439
0.011527464 0.0052717924 0.039155733 4279652249
0.013182193 0.0068247039 0.037701022 4279389599
0.015148252 0.00686487 0.037596822 4278864299
0.017769858 0.0038801245 0.040191829 4278996134
0.020579718 0.00013966672 0.043460447 4280176528
-0.0072126687 -0.0027788654 0.0444366 4282732394
-0.0056109577 -0.00046189502 0.042305268 4280045714
-0.004159674 0.0026138946 0.039500136 4279520159
0.0033082664 0.0050488729 0.037056614 4278800039
0.0051276758 0.0058473982 0.036277946 4278603688
0.007242009 0.0051284004 0.036847513 4278471343
0.010863483 0.0067255702 0.035291519 4278270914
0.017072752 0.0053288918 0.036326241 4279127458
0.01953809 0.0030941069 0.038241282 4278866085
0.025377356 -0.0051656403 0.045432821 4282274923
-0.010002412 0.00015200675 0.03931902 4280634764
-0.0084086731 0.0024752151 0.037192933 4279587224
-0.0067003369 0.0040369928 0.035741072 4278735014
-0.0048691779 0.0048373584 0.034963045 4278733739
-0.0031802431 0.0063989311 0.033512428 4278863024
-0.0013630688 0.0071992967 0.032735277 4278599609
0.0028334484 0.0057558529 0.033872481 4278733738
0.004792124 0.0057954192 0.033768345 4278603944
0.0067505911 0.0058350768 0.033664286 4278603433
0.0087088719 0.0058748405 0.033560317 4278537134
0.010511272 0.0066754874 0.032784462 4278665144
0.012466416 0.0067153741 0.032680798 4279255213
0.014099129 0.0082767457 0.031233789 4278864554
0.016376071 0.0067954343 0.032473732 4278800039
0.018497139 0.0060750339 0.033041719 4278603944
0.020961978 0.0038337633 0.034952063 4278866339
0.023786902 7.2034076e-05 0.038203869 4280964479
-0.010670386 0.0023852596 0.034786362 4282990454
-0.0089619085 0.0039512552 0.033337694 4279782808
-0.0072644912 0.0055171847 0.031889655 4278733994
-0.0033566952 0.0055952109 0.031681206 4280109209
-0.0014030561 0.0056343637 0.031577103 4279651994
0.00026643276 0.0072001182 0.030130915 4278339254
0.0025036708 0.0057130009 0.031369187 4278929579
0.004456751 0.0057524815 0.031265359 4278734248
0.00640966 0.0057920404 0.031161606 4278472364
0.0083623677 0.0058316998 0.031057945 4278603434
0.010314867 0.0058714673 0.030954374 4278538154
0.01226718 0.005911313 0.030850876 4278735014
0.014219262 0.005951263 0.03074747 4278668968
0.016007371 0.0067540947 0.029974205 4278537899
0.017789833 0.0075569097 0.02920131 4279060393
0.022713259 0.0030613486 0.033012684 4278995369
0.026247092 -0.0037613157 0.038933415 4281094274
-0.0090014748 0.0023822086 0.032176439 4282466429
-0.0073040873 0.0039525032 0.030731644 4279324064
0.0018848032 0.0072098561 0.02753393 4279191719
0.0041216165 0.0057184994 0.02876908 4278603179
0.0060689524 0.005757967 0.028665639 4278800039
0.0080160871 0.0057975277 0.028562283 4278734760
0.010118559 0.0050720517 0.029127777 4278734759
0.012068026 0.0051118601 0.029024443 4278603434
0.0136953 0.0066818334 0.027584262 4278407084
0.015147753 0.0090167038 0.025476381 4278472873
0.019017994 0.0090963989 0.025271729 4280309893
0.02801352 -0.004548247 0.036982305 4282012018
-0.0076056458 0.0039237384 0.028236944 4281550724
-0.0056573823 0.0039626136 0.028133001 4279324064
-0.0003811121 0.0071503147 0.025150204 4278406829
0.0015555546 0.0071893856 0.025047198 4278669223
0.0034920499 0.0072285645 0.024944283 4278538409
0.0057284534 0.0057328902 0.02617633 4278472874
0.0075172409 0.0065397918 0.025405962 4278472874
0.0094558895 0.0065792948 0.02530314 4278538409
0.011077911 0.0081534479 0.023866415 4278604964
0.012527905 0.010494726 0.021763459 4278868889
0.026375785 0.00076340884 0.029811455 4278672539
0.030134134 -0.0068642083 0.036366712 4280702338
-0.0058306605 0.0031728074 0.026311962 4281026444
-0.0044309124 0.006291369 0.023542071 4278865829
-0.0024967566 0.0063302033 0.023439061 4278735014
-0.00070456415 0.0071388911 0.022669859 4278603688
0.0012265369 0.0071778744 0.022567168 4278538409
0.0065606013 0.009604102 0.020262513 4278801059
0.0081719235 0.011182301 0.018829519 4279198349
0.024916291 0.0053455252 0.023334228 4279064983
0.028472289 -0.0015353439 0.029210269 4278802078
-0.0060038492 0.0023876345 0.024494354 4280174998
-0.0046067238 0.0055148844 0.021731088 4278800293
-0.0028144494 0.006325718 0.020963399 4278734503
-0.0011695623 0.0079084691 0.019531496 4278537899
0.00046426803 0.0094911065 0.018100264 4278865574
0.0035487786 0.013427878 0.014575559 4279916683
0.026631594 0.0046042167 0.021420449 4278608533
0.029660709 1.7697923e-05 0.025293449 4278474914
-0.0047824457 0.004743062 0.01992348 4282925684
-0.0034099221 0.0078786071 0.01716812 4278669989
-0.0020593554 0.011013862 0.014413965 4278672284
0.025511287 0.0076941196 0.016307138 4279132303
0.027976058 0.005414173 0.018188715 4278868123
0.031197928 4.1531399e-05 0.022712449 4280308873
-0.0040049404 0.0094492435 0.0133859 4279851658
0.029489346 0.0054617301 0.015626945 4278801823
0.033475704 -0.0030273562 0.022774564 4281225854
0.030762449 0.0047634672 0.01128125 4278999704
0.033625826 0.00090512261 0.014458762 4279391893
0.035315134 0.00018450711 0.012562108 4279522709
0.030877061 0.008796256 0.0030422823 4279198349
0.033728607 0.0049159005 0.0062043481 4278671773
0.03719455 -0.0013155257 0.011321264 4279981709
0.035390921 0.0042192284 0.004327219 4278540959
0.038676664 -0.0012431946 0.0087799989 4281161083
0.040550046 -0.0027384656 0.0075431 4282274413
0.042219296 -0.0034431992 0.0056595919 4282405483
0.034093797 0.0044142921 -0.0029214895 4280639353
0.036370225 0.002868766 -0.0017292236 4278864553
0.038456321 0.00211599 -0.0011827917 4279126693
0.040955104 -0.00022149086 0.00065378996 4279062178
0.044089355 -0.0049358979 0.0044248286 4282274669
0.033661917 0.0044971444 -0.0053245071 4280376958
0.035734504 0.0037418623 -0.0047790869 4279521688
0.037812307 0.0029867701 -0.0042338814 4278340529
0.039895341 0.0022318671 -0.003688893 4279192993
0.042602785 -0.00090670958 -0.0012137707 4278341294
0.045959093 -0.0064283619 0.0031902599 4281487738
0.035099119 0.0046282616 -0.0078191776 4278534839
0.037168637 0.0038707945 -0.0072751716 4278274229
0.039039783 0.0039103106 -0.0073733828 4278865318
0.041736066 0.00076281745 -0.0049041142 4279128224
0.044872001 -0.0039776526 -0.0011525244 4280766343
0.034662277 0.0047287289 -0.010208791 4278929833
0.037127912 0.002370839 -0.008385092 4278865573
0.038998976 0.0024103662 -0.0084832897 4278931109
0.041694969 -0.00074588042 -0.0060204957 4278604199
0.044203505 -0.0031027319 -0.0041988739 4279848854
0.030702531 0.0039585382 -0.011757221 4279786123
0.032563232 0.00399765 -0.011855019 4279062688
0.03462182 0.0032355078 -0.011313735 4279454878
0.037287995 6.9814734e-05 -0.0088559156 4279258273
0.039365225 -0.00069183577 -0.0083155362 4278602414
0.044162191 -0.0046178019 -0.0053199674 4282078574
0.031240046 5.6980178e-05 -0.010947235 4279916174
0.033108816 9.6214004e-05 -0.011045493 4278538664
0.035373427 -0.0014714533 -0.0098687736 4279520923
