# .PCD v0.7 - Point Cloud Data file format
VERSION 0.7
FIELDS x y z rgba
SIZE 4 4 4 4
TYPE F F F U
COUNT 1 1 1 1
WIDTH 959
HEIGHT 1
VIEWPOINT 0 0 0 1 0 0 0
POINTS 959
DATA ascii
-0.023501981 -0.0042243255 0.021408655 4290847769
-0.02166592 -0.0034086471 0.020645767 4290978583
-0.019950859 -0.001814221 0.01922146 4290585119
-0.018128678 -0.00099859107 0.018459449 4289080109
-0.016312074 -0.00018293876 0.01769782 4288360754
-0.014377475 -0.00014582183 0.017597891 4288033588
-0.027227961 -0.0074190581 0.021779682 4288948019
-0.025702436 -0.0042581307 0.01903598 4289407783
-0.023759153 -0.0042214235 0.018935174 4289669923
-0.021928646 -0.0034036143 0.018174155 4289539108
-0.020103697 -0.0025858665 0.01741353 4290193694
-0.018284328 -0.0017680945 0.016653294 4289997343
-0.016228914 -0.002511858 0.01721314 4289212199
-0.014168184 -0.003255398 0.017772801 4288884778
-0.012354676 -0.0024374044 0.017013112 4288687664
-0.01080475 -5.8117323e-05 0.014934899 4288293433
-0.02757835 -0.0066324249 0.018646721 4289015848
-0.025846668 -0.0050293142 0.017227754 4290062114
-0.02401612 -0.0042095045 0.016468288 4290455324
-0.022078563 -0.0041727787 0.016367875 4288427053
-0.020141117 -0.0041359356 0.016267553 4289539363
-0.018203806 -0.0040989863 0.016167322 4290258974
-0.016266618 -0.0040619327 0.016067177 4289735714
-0.014206085 -0.0048076538 0.016625235 4289343013
-0.012266453 -0.0047703059 0.016525146 4289605408
-0.010326967 -0.004732863 0.016425136 4289604898
-0.0087826066 -0.0023470754 0.014352182 4290454814
-0.0069859847 -0.0015268512 0.013595182 4290651419
-0.005194962 -0.000706641 0.012838616 4291174424
-0.0034095421 0.00011354499 0.012082401 4288817969
-0.029459618 -0.0090107759 0.018254809 4286593604
-0.027824067 -0.0066178399 0.016181067 4289212199
-0.026097875 -0.0050105155 0.014765657 4290651163
-0.02427287 -0.0041886326 0.014008092 4290913049
-0.02245345 -0.0033666808 0.013250873 4290651418
-0.020293798 -0.0049005002 0.014464863 4290782233
-0.018359356 -0.0048636133 0.014364772 4290847769
-0.016304329 -0.0056117182 0.014921429 4289474083
-0.01436742 -0.0055745612 0.014821377 4289670434
-0.012304492 -0.0063222894 0.015377792 4289801248
-0.010494031 -0.005499871 0.014621582 4290324254
-0.0089523718 -0.0031075571 0.012553564 4290455068
-0.0070242211 -0.0030700956 0.012454313 4289866528
-0.0050962195 -0.0030325558 0.012355133 4290390553
-0.0028888211 -0.0045644632 0.013567396 4290390043
-0.001240693 -0.0029571243 0.012157064 4288950059
-0.00047495961 0.0033580186 0.0068151383 4287641653
-0.030004442 -0.0066306251 0.013822641 4288884523
-0.028278187 -0.005019011 0.012410331 4289539109
-0.02634887 -0.0049826931 0.012310159 4289539108
-0.02452942 -0.0041587166 0.01155451 4289931809
-0.022490568 -0.0049096793 0.012110115 4290847769
-0.020446368 -0.0056604641 0.012665572 4290847769
-0.018396862 -0.0064109662 0.013220816 4289997344
-0.016583342 -0.0055866614 0.0124658 4289539619
-0.014652029 -0.0055495789 0.012366063 4289474083
-0.012468636 -0.0070868148 0.013575885 4289866784
-0.010532148 -0.0070494139 0.013476042 4290586139
-0.0091220215 -0.0038634613 0.010758406 4289081383
-0.0073310062 -0.0030390117 0.010004981 4288623403
-0.0054085776 -0.0030015688 0.0099060973 4289016359
-0.0030671284 -0.0053248899 0.011769457 4289539618
-0.0012793094 -0.0045001488 0.011016385 4290391064
-0.00036810338 0.0010456052 0.0063411258 4288428583
-0.03197588 -0.0082139224 0.012779437 4286659904
-0.030447196 -0.0050182827 0.01006117 4289211943
-0.028731894 -0.0034025609 0.0086526973 4289539108
-0.026813623 -0.003366448 0.0085531007 4289277989
-0.024895459 -0.0033302046 0.0084536076 4289212454
-0.022752542 -0.0048731416 0.009661871 4289539619
-0.020713996 -0.0056261444 0.010215982 4289604898
-0.018670131 -0.0063789594 0.010769884 4289670434
-0.016862154 -0.0055525727 0.010016778 4289474084
-0.014936425 -0.0055156113 0.0099173179 4289408549
-0.01288477 -0.0062679178 0.010471082 4289670434
-0.0109566 -0.0062306863 0.010371662 4290520348
-0.0094230548 -0.003825496 0.0083137918 4290651674
-0.0076375604 -0.002998976 0.0075622648 4289408549
-0.0057207122 -0.0029616421 0.0074636666 4289670434
-0.0032453537 -0.0060806801 0.0099748746 4290848788
-0.0014603212 -0.005253857 0.0092236027 4289737244
-0.00069668889 0.0010961043 0.0039076144 4288363814
-0.032308619 -0.0073844804 0.0096769556 4288753199
-0.030686572 -0.0049723452 0.0076184021 4289277223
-0.028976768 -0.0033523366 0.006213394 4291043863
-0.026957169 -0.0041082334 0.0067666098 4290913048
-0.025041874 -0.0040720524 0.0066672591 4290717208
-0.022901926 -0.0056194477 0.0078724893 4289670434
-0.020981405 -0.0055829352 0.0077730389 4289343269
-0.018943183 -0.0063380278 0.0083256252 4289539364
-0.017261289 -0.0047178846 0.0069226306 4290128158
-0.015220597 -0.0054727057 0.0074752532 4289539363
-0.01330059 -0.0054357238 0.0073761856 4289408293
-0.011509441 -0.004607141 0.0066258153 4289866274
-0.0095924288 -0.0045700204 0.0065270476 4290586139
-0.0078097433 -0.0037413212 0.0057772463 4290978840
-0.0058957487 -0.0037040608 0.0056787804 4290978583
-0.0037026778 -0.0052492945 0.0068821134 4290783253
-0.0017835498 -0.0052117174 0.0067835441 4289933339
-0.00073494017 -0.00042681955 0.0027818035 4288102184
-0.034079392 -0.010549113 0.0099415705 4286006084
-0.032641046 -0.0065417532 0.0065843696 4289211178
-0.030925732 -0.0049174223 0.005182202 4289735203
-0.029117264 -0.0040873634 0.0044317851 4290455834
-0.027207468 -0.0040513854 0.0043326449 4290128669
-0.025188163 -0.0048093591 0.0048843417 4290913559
-0.023163524 -0.005567119 0.005435844 4290128414
-0.021248598 -0.0055307052 0.0053366907 4289866783
-0.019216008 -0.006288135 0.0058879899 4289866529
-0.017298602 -0.0062514492 0.0057888729 4289735969
-0.015381332 -0.0062146359 0.0056898613 4289670178
-0.013590135 -0.0053839446 0.0049409755 4289343014
-0.012061853 -0.002965902 0.002892975 4289735459
-0.0098930821 -0.0045162551 0.004094041 4289212199
-0.0081159025 -0.0036855675 0.0033461486 4289931808
-0.0059338287 -0.0052354494 0.004546687 4289604899
-0.0037409812 -0.0067850691 0.0057467846 4289932063
-0.0019642636 -0.0059540556 0.0049991645 4289344289
-0.034499366 -0.0089072734 0.0062004514 4288033589
-0.032973159 -0.0056856577 0.0035015943 4289931043
-0.031266067 -0.0040571578 0.0021031301 4289015848
-0.029361758 -0.0040214201 0.0020041745 4288296749
-0.027457554 -0.0039855754 0.0019053046 4289016614
-0.025334347 -0.0055420534 0.0031048341 4289474338
-0.023312625 -0.0063020443 0.003654877 4290259229
-0.021515567 -0.0054695741 0.002906997 4289801504
-0.019488629 -0.0062292223 0.0034569504 4289866529
-0.01769726 -0.0053966115 0.0027095492 4289473828
-0.015788287 -0.0053599901 0.0026109412 4289474084
-0.014131233 -0.0037314063 0.001215836 4290520348
-0.012485214 -0.0021028602 -0.00017864478 4290389789
-0.010456186 -0.0028619338 0.00037159747 4289670178
-0.008153744 -0.0052123526 0.0022174504 4289670178
-0.0058350936 -0.0075623817 0.0040625259 4289866784
-0.0037792921 -0.0083205923 0.004611643 4289670433
-0.0021448806 -0.0066917581 0.0032181407 4288297003
-0.035110682 -0.0056504421 0.00117591 4288817968
-0.033304956 -0.0048162751 0.00042864121 4289538599
-0.031606082 -0.0031835726 -0.00096616737 4290389789
-0.029710095 -0.0031480035 -0.0010647001 4290325019
-0.027707439 -0.0039107474 -0.00051544025 4290325019
-0.025699422 -0.0046733124 3.3598277e-05 4290913814
-0.023686066 -0.0054356884 0.00058249943 4290063134
-0.02178232 -0.0053994814 0.00048392871 4289670434
-0.019878689 -0.0053631803 0.00038543507 4289800738
-0.017975189 -0.005326774 0.0002870278 4289735459
-0.016071804 -0.0052902382 0.00018872484 4289866274
-0.014294386 -0.0044554649 -0.00055622926 4291043863
-0.012651104 -0.0028226906 -0.0019473231 4291240213
-0.010756284 -0.0027859928 -0.002044942 4291240213
-0.008459568 -0.0051430753 -0.00020364765 4290062878
-0.0060099438 -0.0082975663 0.0022829885 4289801503
-0.0039570257 -0.0090580657 0.0028306742 4289212453
-0.002325356 -0.0074249441 0.0014405288 4288755238
-0.00084961206 -0.0049942629 -0.0005946483 4290326804
-0.036957569 -0.00800859 0.00079670153 4286790463
-0.035338067 -0.005570597 -0.0012426014 4288491058
-0.033636428 -0.0039336318 -0.0026344331 4289472808
-0.031844504 -0.0030974187 -0.0033792758 4290651674
-0.029954117 -0.0030619353 -0.0034775033 4290389788
-0.027957093 -0.0038270522 -0.0029295571 4290782744
-0.026064169 -0.0037912847 -0.0030277413 4290782744
-0.024059184 -0.004555963 -0.0024800687 4290128414
-0.022163749 -0.0045199366 -0.0025782262 4289800738
-0.020150814 -0.005284213 -0.0020307787 4289866274
-0.018373232 -0.004447544 -0.0027742649 4290062624
-0.016478159 -0.0044111656 -0.0028721374 4290258718
-0.01483478 -0.0027741026 -0.004260134 4289670178
-0.013073906 -0.0019374266 -0.0050025135 4289146919
-0.011056148 -0.0027010553 -0.0044549052 4290521113
-0.0086312182 -0.0058648982 -0.0019734972 4289736223
-0.0064579919 -0.0074280696 -0.00078214798 4290194458
-0.0044134408 -0.0081908945 -0.00023570866 4289670943
-0.0027899444 -0.0065536289 -0.001622171 4289344288
-0.0013223216 -0.0041165287 -0.00365213 4289737754
0.00012882054 -0.0016796673 -0.0056811813 4289476123
0.001563482 0.00075693149 -0.0077092685 4288299554
-0.03708623 -0.0087293508 -0.00097511843 4287640633
-0.035373673 -0.0070879073 -0.0023644266 4287902774
-0.033475086 -0.0070525086 -0.0024632565 4288230193
-0.031779028 -0.0054111737 -0.0038514838 4288819499
-0.029886059 -0.0053756582 -0.0039498564 4289081383
-0.027993184 -0.005340036 -0.0040481444 4289408548
-0.026100408 -0.0053042718 -0.0041463212 4289343013
-0.024319865 -0.0044656601 -0.0048886361 4289800738
-0.022544853 -0.0036270721 -0.0056305313 4289539109
-0.020540282 -0.004393721 -0.005084292 4289735459
-0.018650666 -0.0043575689 -0.0051819729 4290193184
-0.016761173 -0.0043213107 -0.0052795671 4290258719
-0.014997527 -0.003482515 -0.006020559 4289146919
-0.013239454 -0.0026437072 -0.0067611765 4289474594
-0.011224598 -0.0034096017 -0.0062150545 4289539874
-0.0090705417 -0.0049776109 -0.0050260276 4290325018
-0.0069057345 -0.0065452643 -0.0038375186 4290194458
-0.0051482022 -0.0057060597 -0.0045778053 4289475104
-0.0032541975 -0.0056689922 -0.0046750968 4289409824
-0.0017947108 -0.0032255193 -0.0066997996 4289670943
-5.6669116e-05 -0.0023864023 -0.0074388683 4290980114
0.001375325 5.6710094e-05 -0.0094620259 4290980113
0.0035555735 -0.0015101098 -0.0082738437 4290653204
0.005435206 -0.0014728392 -0.0083700381 4289017379
0.0076314509 -0.0030391179 -0.0071825804 4289541148
0.0093550906 -0.00219981 -0.0079205595 4289869589
-0.03693578 -0.011861279 -0.00081289443 4288164148
-0.035313547 -0.0094101746 -0.0028426624 4288360754
-0.03351083 -0.0085696056 -0.0035849151 4288753708
-0.031612471 -0.0085341036 -0.003683653 4288754219
-0.029921994 -0.0068884115 -0.0050682845 4288295983
-0.028029267 -0.0068527795 -0.0051665558 4288230958
-0.026136633 -0.0068170424 -0.0052647423 4288296238
-0.024356175 -0.0059762639 -0.0060054474 4288492333
-0.022810835 -0.003525842 -0.0080305822 4288818989
-0.0208119 -0.0042947689 -0.0074856589 4289341993
-0.018927868 -0.0042587267 -0.0075830529 4289538343
-0.016920995 -0.0050272634 -0.0070383633 4290650909
-0.015411515 -0.002577085 -0.009061317 4290062879
-0.013661701 -0.00173622 -0.0097999386 4290455323
-0.011655185 -0.002504522 -0.009254979 4291044629
-0.0095095336 -0.0040770015 -0.0080687832 4290717719
-0.0073531196 -0.0056491964 -0.0068830866 4289867293
-0.0057431161 -0.0040036039 -0.0082624909 4289605663
-0.0038601235 -0.0039667655 -0.0083592264 4289605664
-0.0021220073 -0.0031255642 -0.0090967547 4289802014
-0.00024200976 -0.003088586 -0.0091931904 4290914069
0.0014876425 -0.0022473652 -0.0099301478 4290129178
0.0035174862 -0.0030143391 -0.009385813 4290587669
0.0053970218 -0.0029770946 -0.0094820196 4290194968
0.0074347109 -0.0037437398 -0.0089379596 4289344544
0.0093166232 -0.0037062615 -0.0090341503 4289410589
0.011525914 -0.0052764681 -0.0078504635 4289411098
0.013246477 -0.0044349022 -0.008586565 4289935378
-0.03697142 -0.013386829 -0.0019408215 4287444538
-0.035349187 -0.010929233 -0.0039657811 4288033589
-0.033448171 -0.010893805 -0.0040647485 4288950824
-0.03154723 -0.010858269 -0.0041636322 4288361773
-0.029646385 -0.010822616 -0.0042624217 4288165679
-0.027852196 -0.009979669 -0.005002351 4288296493
-0.025954261 -0.0099438271 -0.0051008095 4288492589
-0.024280459 -0.0082937554 -0.006481098 4288164913
-0.022732392 -0.0058367252 -0.0085015902 4286202433
-0.01920484 -0.0041509839 -0.009977554 4286006339
-0.017203603 -0.0049218107 -0.0094341896 4289538344
-0.015448295 -0.004078825 -0.010171528 4290585629
-0.013698548 -0.003235817 -0.010908558 4290651419
-0.0118233 -0.0031995326 -0.011005195 4290455323
-0.0098143779 -0.0039698407 -0.010461879 4289670688
-0.0078001693 -0.004739902 -0.0099188024 4289736224
-0.0060591102 -0.0038966862 -0.010655032 4289932829
-0.0040397272 -0.0046664532 -0.010112078 4289866783
-0.0021597147 -0.004629571 -0.010208585 4290717208
-0.00027984381 -0.0045925956 -0.010305014 4289539619
0.0014497489 -0.0037492197 -0.011040371 4289212708
0.003479436 -0.0045183888 -0.010497651 4289801503
0.005358845 -0.0044811573 -0.01059386 4289671199
0.0075546503 -0.0060561621 -0.00941284 4289344033
0.0094391778 -0.0060186619 -0.0095091863 4289409824
0.011323556 -0.0059810565 -0.0096054459 4289475103
0.013041332 -0.005137396 -0.010339813 4289671454
0.014584348 -0.0034877881 -0.01171183 4289998363
0.016116321 -0.0018383013 -0.013083284 4289736478
0.017811842 -0.00099481456 -0.013816313 4289998873
0.019679084 -0.0009571733 -0.013911417 4289017888
-0.037007045 -0.014912174 -0.0030685989 4287379258
-0.035384808 -0.012448029 -0.0050887056 4287837494
-0.033582292 -0.011603129 -0.0058277361 4288492843
-0.031583149 -0.012377094 -0.0052865585 4287838769
-0.029682454 -0.012341455 -0.0053853495 4287838513
-0.027888358 -0.011496355 -0.0061236769 4287904049
-0.026099805 -0.01065122 -0.0068616131 4288099889
-0.024316803 -0.0098061217 -0.0075992113 4287968818
-0.022654027 -0.0081517408 -0.0089756539 4287968818
-0.020884838 -0.0073066438 -0.0097123431 4289015338
-0.019121207 -0.0064615607 -0.010448676 4288950058
-0.011991277 -0.0038900124 -0.01275199 4289015848
-0.0099852718 -0.0046625286 -0.012210191 4289408294
-0.0082468688 -0.0038173106 -0.012944764 4289865763
-0.0062356889 -0.0045895092 -0.01240307 4289866274
-0.0043611005 -0.0045528524 -0.012499387 4289800738
-0.002342023 -0.0053247684 -0.011957932 4290847769
-0.00075968355 -0.0036707018 -0.013329309 4290324509
0.0011117458 -0.0036338139 -0.013425247 4289212454
0.0031358302 -0.0044052955 -0.012883873 4289409059
0.0054761916 -0.0067934203 -0.011068454 4290063388
0.0075162798 -0.0075644073 -0.010527766 4290325783
0.009400703 -0.0075269211 -0.010624117 4289736733
0.010957658 -0.0058728782 -0.011993767 4289278754
0.012503572 -0.0042189211 -0.013362826 4289802014
0.014376633 -0.0041814055 -0.013458406 4289867294
0.01607772 -0.0033357497 -0.014190196 4291110674
0.017773218 -0.0024901079 -0.014921627 4291110673
0.0194631 -0.0016445285 -0.015652737 4290849044
0.021507323 -0.0024148077 -0.015111797 4289213729
0.024287529 -0.0064163413 -0.012028147 4289475358
0.027094759 -0.010417272 -0.0089458311 4289082914
-0.037042666 -0.016437305 -0.0041962164 4287445048
-0.035324845 -0.01477843 -0.0055728825 4287771959
-0.033617996 -0.013119567 -0.0069489079 4288362028
-0.031619061 -0.013895727 -0.0064093433 4288165934
-0.029614754 -0.014671696 -0.0058699176 4287838769
-0.027818039 -0.013824347 -0.0066068256 4287969584
-0.026026852 -0.012977011 -0.0073433043 4288296493
-0.02435312 -0.011318259 -0.0087171569 4287969073
-0.022461116 -0.011282304 -0.0088151414 4288099888
-0.020686571 -0.010434924 -0.0095505649 4288230703
-0.018797502 -0.010398817 -0.009648243 4288884778
-0.017031346 -0.0095514031 -0.010383015 4288361519
-0.015270751 -0.0087039769 -0.011117414 4287969074
-0.01364395 -0.0070454823 -0.012488364 4288362029
-0.011766233 -0.0070091789 -0.012585149 4286595388
-0.010156024 -0.0053507341 -0.013955119 4286202944
-0.0082840249 -0.0053143268 -0.014051451 4287118393
-0.0064121336 -0.0052778493 -0.014147723 4288753964
-0.0045403764 -0.0052412553 -0.0142439 4289342758
-0.0028133392 -0.0043937815 -0.014976052 4289865763
-0.0010918826 -0.0035463329 -0.015707856 4290716954
0.00077400357 -0.0035095774 -0.015803525 4290913304
0.0029451996 -0.0050940039 -0.014627864 4291174934
0.0051271245 -0.0066781235 -0.013452608 4291306513
0.0071616173 -0.0074514467 -0.012913284 4290129434
0.008879602 -0.0066036042 -0.013644566 4289540128
0.010591999 -0.0057557514 -0.014375546 4289867293
0.012298815 -0.0049079722 -0.01510614 4289932573
0.014169067 -0.0048705414 -0.015201598 4289409059
0.015867397 -0.0040227901 -0.015931655 4290782998
0.017734617 -0.0039852569 -0.016026836 4289736478
0.019424476 -0.0031375345 -0.016756354 4290783509
0.021648444 -0.0047200695 -0.015582767 4289998364
0.024613664 -0.009542509 -0.011873227 4289343524
0.027055256 -0.011934292 -0.010067184 4289474083
0.029512979 -0.014325672 -0.0082619069 4287118648
-0.037171077 -0.017148253 -0.0059607839 4287248188
-0.035264976 -0.017112903 -0.0060601449 4287379258
-0.033457201 -0.016263541 -0.0067962157 4288099633
-0.03145301 -0.017041788 -0.0062585436 4288492589
-0.029650848 -0.016192321 -0.0069941664 4287969584
-0.027854219 -0.015342793 -0.007729454 4287904048
-0.025953986 -0.015306935 -0.0078280522 4288297259
-0.024053857 -0.015270971 -0.0079265647 4288035374
-0.022153817 -0.015234912 -0.0080250008 4288296748
-0.020371199 -0.014385222 -0.0087591726 4288296748
-0.01859412 -0.013535557 -0.0094929971 4289016868
-0.016822599 -0.01268587 -0.010226438 4288362538
-0.015182108 -0.011022825 -0.011594994 4288362283
-0.013424434 -0.0101732 -0.01232757 4288362283
-0.0115414 -0.010136804 -0.012424637 4288427563
-0.0099257603 -0.0084739765 -0.013791643 4288231214
-0.0081847832 -0.0076243076 -0.014523159 4288623149
-0.0064493865 -0.006774711 -0.01525429 4287903283
-0.0047195405 -0.0059251166 -0.015985055 4287903283
-0.0032843128 -0.0034495788 -0.017984405 4288230193
-0.0015710667 -0.0026001418 -0.018714193 4288884778
0.00058645755 -0.0041893218 -0.017541079 4289866273
0.0026020333 -0.0049653593 -0.017002519 4290128158
0.0046229139 -0.0057411953 -0.016464161 4289474338
0.0064909682 -0.0057041626 -0.016559768 4289409058
0.0085196868 -0.0064796587 -0.016021674 4289409313
0.010226615 -0.0056298175 -0.016750747 4289736478
0.011927947 -0.004780015 -0.017479479 4290586904
0.013792664 -0.0047427053 -0.017574664 4289539874
0.015657224 -0.0047053266 -0.017669784 4288885543
0.017521627 -0.0046678772 -0.017764844 4288951078
0.019385859 -0.0046303477 -0.017859833 4289801759
0.021609642 -0.0062172813 -0.016689492 4289343779
0.02439186 -0.0102406 -0.013622115 4289408548
0.02683048 -0.012638995 -0.011820776 4288753963
0.029097252 -0.014224855 -0.010652473 4286202688
-0.035396136 -0.017819362 -0.0078212041 4287117883
-0.033492982 -0.017783919 -0.0079203025 4287903283
-0.031388078 -0.019380329 -0.0067491531 4288492333
-0.029583283 -0.018528637 -0.0074832998 4288231214
-0.027784016 -0.017676931 -0.0082170749 4288165933
-0.025881208 -0.017641053 -0.0083158268 4288035118
-0.023866687 -0.018420819 -0.0077799615 4288166444
-0.022075877 -0.017568938 -0.0085130492 4288100908
-0.020525113 -0.015085684 -0.010514289 4288493609
-0.018750846 -0.0142339 -0.011246358 4289213218
-0.016982131 -0.013382059 -0.011978094 4288362538
-0.014968134 -0.014161357 -0.011441771 4288558889
-0.013205096 -0.013309422 -0.012173064 4288427563
-0.011185888 -0.014088389 -0.01163684 4288558634
-0.0095621087 -0.012421014 -0.013001087 4288492844
-0.0078130364 -0.011569083 -0.013731388 4288688939
-0.0062085539 -0.0099019362 -0.015094461 4288492589
-0.0044733435 -0.0090500452 -0.015823951 4289343014
-0.0033215433 -0.0049376143 -0.019084433 4288622894
-0.0014611781 -0.0049010869 -0.019179909 4288688684
0.0003990382 -0.0048644785 -0.019275315 4288230704
0.0025643483 -0.0064577865 -0.018105771 4288361774
0.0041190535 -0.0047910167 -0.01946592 4288558124
0.005820781 -0.0039392672 -0.020193234 4289278244
0.0078384727 -0.0047172187 -0.019656233 4289409058
0.0098614767 -0.0054950058 -0.019119386 4289540128
0.011557318 -0.0046430957 -0.01984627 4289605408
0.013416506 -0.0046059182 -0.019941187 4290783254
0.014932245 -0.0029394822 -0.021298939 4289867294
0.016960047 -0.0037168385 -0.020762162 4289998109
0.018993132 -0.0044939946 -0.020225586 4290194203
0.021570876 -0.0077143372 -0.017796103 4290128158
0.02417022 -0.010934171 -0.015367667 4289343269
0.026420638 -0.012524819 -0.014201834 4288819243
-0.031524953 -0.020086732 -0.0085097943 4287707444
-0.029722974 -0.019232932 -0.0092421956 4288099888
-0.027926534 -0.018379074 -0.0099742617 4287446834
-0.02602658 -0.018343255 -0.010072871 4287969839
-0.024014972 -0.019125314 -0.0095384372 4287904303
-0.022226971 -0.018271279 -0.010269817 4288231723
-0.02056171 -0.016599443 -0.011633417 4288624168
-0.018787522 -0.015745495 -0.012363877 4288493353
-0.01689624 -0.0157093 -0.012461637 4288231724
-0.015005074 -0.015672989 -0.012559302 4288362539
-0.012857866 -0.017271833 -0.011392744 4288427564
-0.011092283 -0.016417639 -0.012122454 4288428074
-0.009198755 -0.016380964 -0.012220006 4288493354
-0.0075778365 -0.014709219 -0.013580828 4288623913
-0.0058289692 -0.013855042 -0.01430945 4289147939
-0.004369013 -0.011366151 -0.01630046 4289344290
-0.0027811378 -0.0096947681 -0.017659374 4288754728
-0.0010571182 -0.0088407844 -0.018386502 4288820264
0.00081114471 -0.0088040363 -0.018482335 4289473828
0.0025267005 -0.0079500563 -0.01920891 4289408293
0.0042366982 -0.007096102 -0.019935139 4288885288
0.0059410781 -0.0062421141 -0.020661045 4288558379
0.0078006312 -0.0062052058 -0.020756185 4288362028
0.0096600205 -0.0061682044 -0.020851247 4288819753
0.011519268 -0.0061311456 -0.020946257 4289081383
0.013040617 -0.0044603497 -0.022301147 4290062879
0.014550932 -0.0027896501 -0.023655457 4290586904
0.016224541 -0.0019358527 -0.024379402 4291044628
0.018423654 -0.0035321731 -0.023214322 4290782998
0.020992935 -0.0067613926 -0.020790856 4290258973
0.023766264 -0.010806696 -0.017739184 4289342503
0.026196241 -0.013218332 -0.015947161 4287576118
-0.026280809 -0.018220806 -0.012457972 4286464829
-0.02438654 -0.01818498 -0.012556203 4287446069
-0.022492364 -0.018149037 -0.012654338 4287969839
-0.020715423 -0.017293015 -0.013383443 4288362283
-0.018824171 -0.01725693 -0.013481282 4288230959
-0.01705562 -0.016400769 -0.014209805 4288297004
-0.015041992 -0.017184431 -0.013676693 4287969583
-0.013023041 -0.017967846 -0.013143823 4288230959
-0.01112951 -0.017931325 -0.013241488 4288231214
-0.0092361048 -0.017894665 -0.013339041 4288492843
-0.007479012 -0.01703826 -0.014066556 4288362539
-0.0057274848 -0.016181856 -0.014793779 4289475104
-0.0039815307 -0.01532549 -0.015520588 4288624424
-0.0023854747 -0.013649653 -0.016876666 4288689703
-0.00065337867 -0.012793373 -0.017602626 4289147939
0.000923343 -0.01111767 -0.018957604 4289409059
0.002641581 -0.010261476 -0.019682717 4288754728
0.0043542385 -0.0094053205 -0.020407487 4288820263
0.006061323 -0.0085492013 -0.02113192 4288362283
0.0079234838 -0.0085122585 -0.021227207 4288951079
0.0097854957 -0.0084752357 -0.021322424 4288623914
0.011481248 -0.007619028 -0.022046119 4288689194
0.013171427 -0.0067629172 -0.022769444 4288885289
0.014341414 -0.0034499606 -0.025377166 4288754474
0.016186528 -0.0034129573 -0.025471283 4289474084
0.01838544 -0.0050136643 -0.024309434 4289343013
0.020954423 -0.0082516307 -0.021892432 4289604388
0.02354499 -0.011489078 -0.01947654 4288557358
0.026157133 -0.01472604 -0.01706164 4286987324
-0.020751927 -0.018804258 -0.014500714 4287380278
-0.018860813 -0.018768188 -0.014598555 4287772468
-0.017092332 -0.017909883 -0.015325486 4288230703
-0.015204147 -0.017873673 -0.015423029 4287969074
-0.01318809 -0.018659376 -0.014891589 4288230448
-0.011297401 -0.018622907 -0.014989105 4288295983
-0.0094068386 -0.018586341 -0.015086544 4288165423
-0.0077886805 -0.016905963 -0.016440786 4288427564
-0.0060426593 -0.016047549 -0.017166084 4288820774
-0.0041606203 -0.016010847 -0.017262857 4288362538
-0.00213442 -0.01679574 -0.016731558 4288886309
-0.00039692968 -0.015937198 -0.017456196 4289213474
0.0011852458 -0.014257149 -0.01880824 4288428074
0.0027564019 -0.012577136 -0.020159658 4288362538
0.0046268925 -0.012540229 -0.020255521 4288231214
0.006497249 -0.012503239 -0.020351311 4288297259
0.0082068518 -0.011644837 -0.021074217 4288623913
0.0099108741 -0.010786437 -0.021796759 4288820263
0.011609331 -0.009928097 -0.022518978 4289212964
0.013302185 -0.0090697249 -0.023240877 4289147429
0.0146465 -0.0065692021 -0.025215652 4288820008
0.016322754 -0.0057110232 -0.0259366 4288558123
0.018347271 -0.0064950353 -0.025404464 4288688939
0.020736322 -0.0089207375 -0.023620166 4288557359
0.023323879 -0.012167002 -0.021210536 4287577139
-0.013480935 -0.018522153 -0.017263278 4287903284
-0.011465169 -0.01930991 -0.016733414 4287903029
-0.0098441765 -0.017625315 -0.018084645 4287968308
-0.0078259334 -0.018412838 -0.017554771 4288753709
-0.0062187687 -0.016728329 -0.018905153 4288361773
-0.0039150119 -0.019163365 -0.017122153 4288558634
-0.0018835366 -0.019950403 -0.016592719 4288886053
-0.00014068186 -0.019089565 -0.017316086 4289082659
0.00099790841 -0.014933838 -0.020543616 4288428074
0.0027187392 -0.014073287 -0.021265671 4288231724
0.0044340268 -0.013212786 -0.021987397 4288362538
0.0066172257 -0.014823025 -0.020831648 4288428074
0.0081689432 -0.013138897 -0.022178665 4288755239
0.0100362 -0.01310183 -0.022274196 4288886053
0.01157134 -0.011417883 -0.023620252 4288624424
0.013432875 -0.011380784 -0.023715382 4288297258
0.015122823 -0.010520259 -0.024435496 4288231469
0.016981341 -0.010483081 -0.024530368 4288623914
0.018662862 -0.0096226307 -0.025249906 4288557868
0.020877525 -0.011231708 -0.024095299 4288164914
0.023102917 -0.012840469 -0.022941235 4286530364
-0.010281149 -0.016651135 -0.021073023 4288687919
-0.0081351995 -0.01826722 -0.019919083 4288557359
-0.0062560067 -0.01823071 -0.020015812 4288427054
-0.0042354539 -0.019020192 -0.019487541 4288623403
-0.0022095889 -0.019809473 -0.01895947 4288885799
-0.0003253147 -0.019772612 -0.019056275 4288558888
0.0012595803 -0.018083856 -0.020402048 4288362538
0.0031381547 -0.018046916 -0.020498415 4288231723
0.0048615336 -0.017184105 -0.021218965 4288231979
0.006737113 -0.017147062 -0.021315061 4288559144
0.0084520727 -0.01628422 -0.022035103 4289344289
0.010324664 -0.016247071 -0.022130925 4288559144
0.011865266 -0.014558706 -0.023474067 4288493609
0.013563469 -0.013696003 -0.024193037 4288493609
0.0154275 -0.013658824 -0.024288271 4288231468
0.017117277 -0.012796145 -0.025006704 4288296748
0.018978305 -0.012758875 -0.025101673 4288231214
0.020839162 -0.012721549 -0.02519659 4287641399
-0.0026795119 -0.018831603 -0.021942874 4287576628
-0.00050981343 -0.020451177 -0.020793155 4287772468
0.0013715103 -0.020414319 -0.020889767 4288099888
0.0032527 -0.020377371 -0.020986304 4288362283
0.0049787387 -0.019512348 -0.021705385 4288493609
0.0066992342 -0.018647384 -0.022424148 4289017124
0.0084141344 -0.017782375 -0.023142584 4288689959
0.010286629 -0.01774529 -0.023238443 4288297258
0.011993118 -0.016880367 -0.023956314 4288493609
0.013862617 -0.016843164 -0.024051894 4288362538
0.015731983 -0.016805906 -0.024147419 4288362538
0.017427191 -0.015941001 -0.024864562 4288362283
0.019293554 -0.015903674 -0.02495984 4288099888
0.020980306 -0.015038811 -0.025676452 4287248954
0.0029104799 -0.020221418 -0.023340786 4287447089
0.0049409419 -0.021014668 -0.02281596 4288035374
0.0065037087 -0.019317426 -0.02415406 4288427818
0.0083762482 -0.019280422 -0.024249986 4288231723
0.010411754 -0.020073403 -0.023725217 4288231723
0.012286752 -0.020036213 -0.023821168 4288362538
0.014161594 -0.019998942 -0.023917045 4288297258
0.016036317 -0.019961637 -0.024012892 4288559144
0.017562933 -0.018264655 -0.025348805 4288034863
0.019078568 -0.016567888 -0.026684079 4287903793
0.020583168 -0.01487123 -0.02801878 4286987323
0.0076970756 -0.017449485 -0.027833857 4286922299
0.0098846257 -0.019077012 -0.026691206 4287838259
0.011917137 -0.019872129 -0.026167896 4287642163
0.014123432 -0.021499161 -0.025026038 4288100144
0.015998065 -0.021461904 -0.025121916 4288362028
0.017698631 -0.020592559 -0.025836192 4287969073
0.019040376 -0.018059546 -0.027786726 4287772213
0.013411604 -0.019662328 -0.028603464 4287053368
0.015446432 -0.020459499 -0.028081831 4288230703
0.017312698 -0.020422379 -0.028177258 4288033843
0.019002244 -0.019551106 -0.028889306 4287641399
0.012548208 0.0074666915 0.032681145 4280451673
0.013857089 0.010538266 0.029885437 4281239623
0.015968695 0.0098189423 0.030459691 4282283848
0.01842086 0.0075836843 0.032381006 4281697348
0.010116689 0.017302599 0.021434197 4281175618
0.011546992 0.019621786 0.019319331 4279159334
0.013290547 0.020420101 0.018549673 4279350583
0.015363656 0.019697938 0.019124357 4280589374
0.017953001 0.016695414 0.021714456 4280459578
0.021602184 0.0091326693 0.028333878 4281957958
0.0080040544 0.016490165 0.019725064 4280516953
0.0092806816 0.019578457 0.016943941 4280590394
0.010697439 0.021903917 0.014834614 4280981563
0.01242733 0.022704173 0.014067292 4281372224
0.014319114 0.022741981 0.013970695 4280720954
0.016551211 0.021255169 0.015214669 4278373169
0.019313 0.017481722 0.018468518 4280914244
0.021926045 0.014471135 0.021051085 4280913733
0.024917528 0.0099366726 0.024972256 4280914753
0.027579091 0.0069272341 0.027552474 4280719423
0.0071820989 0.018779643 0.015243972 4280453203
0.0086045638 0.021111645 0.013139191 4279221809
0.010010481 0.023443449 0.011035284 4280459323
0.011564635 0.025010336 0.0096012466 4281567043
0.013275214 0.025812533 0.008836559 4281371204
0.015490778 0.024321005 0.010078201 4280394300
0.017889962 0.022065319 0.011987794 4280131648
0.020129599 0.02057445 0.013228337 4280457793
0.022558279 0.018319484 0.015136594 4280393278
0.024640836 0.017593604 0.015707906 4280523328
0.027096272 0.015339389 0.017614886 4281436738
0.03110911 0.014652899 0.018088307 4279223339
0.033791177 0.011635496 0.020661201 4281242683
0.037468255 0.0047983183 0.026570071 4282151758
0.006673798 0.019557163 0.012114658 4280653633
0.0082473978 0.021128677 0.010682691 4280132414
0.013069175 0.025075551 0.0070578149 4278899744
0.017332226 0.022850681 0.0088675478 4280197439
0.019212276 0.022888545 0.008771765 4280457793
0.021448754 0.021393381 0.010009261 4280523583
0.023514844 0.020665012 0.01057981 4280654144
0.025402397 0.02070326 0.010483816 4280263229
0.028987631 0.02154633 0.0096260048 4278697018
0.03144756 0.019285861 0.01152813 4279218493
0.034118213 0.016259551 0.014095251 4280849984
0.03779719 0.0094028609 0.019989541 4281305413
0.005204387 0.015695319 0.013089074 4280322643
0.0061658025 0.020348098 0.0089951884 4280915264
0.0075720325 0.022692937 0.0069009177 4280915519
0.0091236755 0.02426843 0.00547342 4281176128
0.010993563 0.024305757 0.005377911 4280655674
0.012863256 0.024343178 0.0052824821 4280395319
0.014732733 0.02438068 0.0051871259 4280850749
0.016947657 0.022880565 0.0064223725 4280719679
0.018646605 0.023687132 0.0056617651 4280588863
0.020874739 0.022187408 0.0068965023 4280588863
0.022932507 0.0214567 0.0074658683 4279872569
0.024811812 0.021494802 0.0073703127 4279937594
0.026318014 0.02307016 0.0059456322 4281566278
0.028002299 0.023876805 0.0051860493 4281632069
0.030256495 0.022378001 0.0064197546 4280785724
0.032910518 0.019342683 0.0089812223 4280981309
0.036375292 0.013234382 0.014197813 4280915264
0.04108341 0.0025172131 0.023395596 4281174344
0.0043972284 0.018029481 0.0086401114 4280325193
0.0055017024 0.021923717 0.0052210875 4280981054
0.0072154328 0.022732232 0.0044609476 4280199478
0.0089235082 0.023540754 0.0037011879 4281176128
0.01095517 0.022806853 0.0042699035 4281241664
0.012824751 0.022844285 0.0041744895 4281178679
0.014694132 0.022881795 0.0040791491 4280981564
0.016563304 0.022919375 0.003983872 4280850494
0.018432252 0.022957057 0.0038886874 4281046079
0.020122804 0.023765717 0.0031301829 4280719424
0.022350475 0.022261754 0.0043617375 4280002620
0.025905989 0.023108471 0.0035085876 4279025714
0.027584784 0.023917217 0.0027509185 4279351348
0.030025169 0.021643315 0.0046443064 4279350584
0.032481626 0.019369781 0.0065369792 4280589373
0.03613767 0.012473387 0.012403363 4280980288
0.040642232 0.0024961112 0.020916453 4281370439
0.0027740747 0.014933025 0.0089455144 4280255323
0.0037442818 0.019612107 0.0048704688 4280848454
0.01058767 0.022854935 0.001837167 4280918323
0.012618974 0.02211893 0.0024043473 4281244214
0.014485516 0.022156414 0.0023091754 4281047354
0.016524583 0.021420751 0.0028760971 4280851259
0.018218018 0.022231568 0.0021190019 4280915773
0.019905798 0.023042373 0.0013622681 4280849984
0.021768801 0.023080084 0.0012674939 4280980288
0.023631588 0.023117889 0.0011728054 4280198713
0.029410437 0.022458825 0.001550151 4278373169
0.032247439 0.018633049 0.0047602765 4280718658
0.036294512 0.01017156 0.0119339 4280848709
0.041200772 -0.0013793251 0.021747218 4280652868
0.0019813552 0.017296307 0.0045171799 4280649044
0.0032453984 0.020436611 0.0017753467 4280785724
0.0066619068 0.022062156 0.00026202202 4279348543
0.010055892 0.023687582 -0.0012498309 4279808819
0.011911646 0.023724761 -0.0013445204 4280981053
0.014107078 0.022211123 -0.00011801149 4280916029
0.016140558 0.021473121 0.0004476225 4280916539
0.018003874 0.02151069 0.00035272818 4280981054
0.019688882 0.022323675 -0.0004022856 4281045824
0.02118744 0.023911808 -0.0018169207 4281046078
0.022858448 0.024724603 -0.0025710722 4281176129
0.024896316 0.023987118 -0.0020054185 4281176128
0.026939407 0.023249835 -0.0014399606 4280850238
0.029371142 0.020962652 0.00044422597 4280785468
0.032402173 0.016351014 0.0043056179 4280719934
0.03684552 0.0063157631 0.012779789 4280914244
0.041559152 -0.0044928361 0.021909466 4280718659
0.0013400242 0.018903617 0.00076505705 4280455243
0.0029003769 0.020496525 -0.00065018435 4279153724
0.0046059415 0.021311376 -0.001405091 4281305668
0.0063058883 0.022126213 -0.0021596402 4281501508
0.0078384653 0.023718841 -0.00357326 4281175874
0.0096888766 0.023755815 -0.0036677464 4280850749
0.011706263 0.023015149 -0.0031030271 4280851003
0.013558999 0.023052372 -0.0031974856 4280850748
0.015756726 0.021534495 -0.0019742651 4280916283
0.017614506 0.02157196 -0.0020688772 4281047609
0.019650139 0.020832043 -0.0015048785 4280981564
0.020967953 0.023201935 -0.0035746899 4278635564
0.022819698 0.023239523 -0.0036688128 4278374444
0.024671212 0.023277164 -0.0037628801 4280980543
0.026900358 0.021760404 -0.0025409032 4281177149
0.029140197 0.020243865 -0.0013193927 4280656183
0.03255678 0.014064836 0.0038478964 4280720443
0.03739617 0.0024471451 0.013616127 4280720443
0.042117067 -0.0083918627 0.022722874 4281174853
0.00054834783 0.021308828 -0.0036322819 4280194888
0.0022485852 0.022125695 -0.0043854201 4278501944
0.0039432049 0.022942521 -0.005138143 4279156528
0.0057911351 0.022979274 -0.0052326331 4279938103
0.0074772313 0.023796096 -0.0059847981 4279417394
0.011333853 0.023090068 -0.0055156369 4280785213
0.013350882 0.022347346 -0.0049524885 4280720189
0.015373148 0.021604788 -0.0043894909 4280720444
0.017225392 0.021642145 -0.0044838181 4280590648
0.019077443 0.02167958 -0.0045780726 4280525623
0.026672453 0.021050628 -0.0042980481 4280655419
0.029292502 0.017970935 -0.0017671449 4280720953
0.032905579 0.010995167 0.0040432587 4280785468
0.037749462 -0.00065513514 0.013787029 4280720444
-0.00015895814 0.01352816 0.00061999005 4281760843
0.00066155195 0.019041818 -0.0040730732 4281044804
0.0019041225 0.022207867 -0.006794421 4280393278
0.0035932437 0.023026742 -0.0075452654 4279481654
0.005276747 0.023845602 -0.0082957456 4279091503
0.0091198534 0.023136977 -0.00782762 4280133944
0.011295788 0.021609791 -0.0066098636 4280589374
0.013142876 0.021646887 -0.0067040427 4280459068
0.015162267 0.020902134 -0.0061425539 4280589118
0.016836479 0.021721311 -0.0068921912 4279807288
0.018683009 0.021758627 -0.0069861719 4280980034
0.020709954 0.021014269 -0.006424889 4280980033
0.022742167 0.020270031 -0.0058637932 4281110339
0.026822262 0.018782195 -0.0047423048 4280849729
0.029827774 0.014130765 -0.00090871629 4280850238
0.03403113 0.0047910055 0.006850264 4280915518
0.03849645 -0.0053287861 0.015260348 4281111104
-4.8846006e-05 0.011241649 0.00016502617 4283135804
0.00092532486 0.015986126 -0.003861832 4280197693
0.0021734387 0.019160997 -0.0065770047 4280979523
0.0038679391 0.019982181 -0.0073264912 4281566789
0.0057156533 0.020018943 -0.0074209608 4281567043
0.0074016452 0.020840108 -0.0081698988 4280849474
0.0090820193 0.021661263 -0.0089184782 4280457794
0.010923743 0.021698173 -0.0090124449 4280523839
0.012935005 0.020950992 -0.0084522208 4280393024
0.014951505 0.020204008 -0.0078921961 4280653888
0.018288799 0.021846589 -0.0093876068 4279415864
0.020129561 0.021883875 -0.0094812289 4281436484
0.022153474 0.021137334 -0.0089213653 4281501508
0.024368629 0.019607142 -0.0077084163 4281175619
0.026783206 0.017293409 -0.0058427695 4280262718
0.030362688 0.010277656 -5.9777871e-05 4280654144
0.034767605 0.00012824964 0.0083323447 4281044549
0.038849182 -0.0084523931 0.015415413 4281240133
0.041592978 -0.01154676 0.017927295 4282608209
0.00020904839 0.0081643099 0.00036061904 4283724344
0.0014901087 0.011348451 -0.0023498554 4281700409
0.002902545 0.013745553 -0.0044057425 4280982328
0.0046105832 0.014569222 -0.0051543526 4280787509
0.0061542541 0.016179375 -0.0065556467 4280919089
0.0080098435 0.016216382 -0.0066504516 4281895229
0.0093725994 0.018612888 -0.0087035792 4281697348
0.011052743 0.019436311 -0.0094504617 4281502019
0.012896895 0.019473348 -0.0095444946 4280391239
0.014740862 0.019510474 -0.0096384455 4280260424
0.016234472 0.021120142 -0.011036796 4280718658
0.019730069 0.021980692 -0.011875831 4278894898
0.026555479 0.016590808 -0.0075946096 4279808309
0.030705869 0.0071976623 0.00012823066 4280915773
0.035503648 -0.0045517366 0.0098016923 4281111104
0.039004833 -0.010798691 0.014913082 4281564238
2.323091e-05 0.00744534 -0.0014061078 4282940728
0.0016027763 0.0090603428 -0.0028062426 4281831223
0.003324531 0.0098863253 -0.0035539698 4281571123
0.0050406903 0.010712271 -0.0043013562 4280592434
0.0069099665 0.010749456 -0.0043969308 4280657969
0.0084561706 0.012364118 -0.0057950495 4281115948
0.0099912956 0.013978708 -0.0071925679 4280984878
0.011515394 0.015593077 -0.0085894456 4281309494
0.013198003 0.016418856 -0.0093348194 4280264249
0.014702678 0.018033031 -0.010730563 4281371203
0.016021244 0.020435508 -0.012776356 4280717384
0.017501079 0.022049334 -0.014170722 4280913223
0.019330792 0.022086393 -0.014263787 4281044803
0.021526724 0.020547003 -0.013056385 4280654399
0.023547411 0.019796085 -0.012499479 4280785213
0.026705138 0.014316468 -0.0080432314 4280981054
0.03124018 0.0033209985 0.00095975888 4280981053
0.035657026 -0.006884818 0.009309303 4281176638
0.038766824 -0.0115732 0.013108644 4282020688
-1.4692545e-05 0.0059398329 -0.0025190357 4282939963
0.001564838 0.0075591942 -0.0039159404 4281636148
0.0034397617 0.0075963242 -0.00401193 4281441073
0.0051585734 0.0084245047 -0.0047578327 4281505334
0.0071891099 0.0076708226 -0.0042036967 4281245234
0.0090635344 0.0077081947 -0.0042994721 4280397613
0.010773659 0.0085364776 -0.0050447294 4281244468
0.012144543 0.010946251 -0.007088488 4281113909
0.013498895 0.013355832 -0.0091313766 4281439543
0.015009016 0.014974496 -0.010524226 4281440563
0.016683049 0.015802391 -0.011267395 4281440053
0.018173791 0.017420776 -0.012659101 4281504569
0.019833878 0.018248532 -0.01340145 4281632323
0.021488331 0.019076284 -0.014143506 4281762629
0.023323007 0.0191136 -0.014236709 4281110084
0.026854694 0.012037988 -0.0084949173 4281044548
0.031965457 -0.0013587903 0.0024299601 4280979014
0.03600432 -0.010012244 0.0094618984 4281239369
9.509176e-05 0.0036412431 -0.0029829997 4282745908
0.0015269071 0.0060582599 -0.0050254795 4282158389
0.0034017116 0.0060953749 -0.0051214718 4282158388
0.0052763671 0.0061325831 -0.0052173841 4281701429
0.0073094591 0.0053767068 -0.0046649682 4281571635
0.0090251565 0.0062072305 -0.0054090051 4281766963
0.010899283 0.0062447032 -0.0055046859 4281831223
0.012439713 0.0078681028 -0.0068959519 4281571635
0.013969064 0.0094913905 -0.0082865693 4281505334
0.015315145 0.011907413 -0.010324139 4281375029
0.016994596 0.012737579 -0.01106598 4281309239
0.018668421 0.013567752 -0.011807517 4281243959
0.020516984 0.013605176 -0.011901552 4281440054
0.021999195 0.015227907 -0.013289479 4280262973
0.023841955 0.015265361 -0.01338311 4280261188
0.027569711 0.0073777894 -0.0070095249 4280196163
0.032307804 -0.004470868 0.0025942528 4280326468
0.035769545 -0.010771045 0.0076688826 4281891148
0.00035247952 0.00054303557 -0.0028028351 4283071288
0.0020905584 0.001375746 -0.0035466519 4282224178
0.003669925 0.0030038236 -0.0049370155 4281766198
0.0055498928 0.0030411361 -0.0050332006 4281769005
0.0072711483 0.0038738037 -0.0057759415 4281832244
0.008986786 0.0047065048 -0.0065183612 4281702449
0.010860808 0.0047439532 -0.0066140546 4281832499
0.012567937 0.0055766022 -0.0073558781 4281831223
0.01410003 0.007204284 -0.0087434202 4281766963
0.015793219 0.00803681 -0.0094844168 4281635128
0.017655656 0.0080743572 -0.0095792748 4281375028
0.019517913 0.0081119696 -0.0096740704 4280983859
0.02083905 0.010534237 -0.01170537 4280787253
0.022509761 0.011366636 -0.012444982 4281113144
0.02454631 0.010609503 -0.0118938 4280784703
0.028284281 0.0027003763 -0.0055368589 4280718148
0.032458767 -0.0067968774 0.0021073348 4281435974
0.035922684 -0.013114381 0.0071689114 4282411094
0.001902096 0.000664155 -0.0053077396 4284380713
0.0036317855 0.0014989702 -0.006049444 4283464499
0.0055116415 0.0015362687 -0.0061456328 4282355503
0.0075498298 0.00077619404 -0.0055967369 4282681393
0.0091096386 0.0024085045 -0.0069826758 4282028084
0.010822348 0.0032433933 -0.0077232802 4282092344
0.012696095 0.0032809088 -0.0078189056 4282354739
0.014400288 0.0041157575 -0.0085589066 4281962039
0.015926771 0.0057477495 -0.0099428864 4281636404
0.017442189 0.0073796427 -0.011326284 4281832499
0.019301631 0.0074172085 -0.011420932 4281376304
0.020800389 0.0090488745 -0.012803327 4281440309
0.022836998 0.008289489 -0.012253815 4281504314
0.025250226 0.0059364168 -0.010417225 4281897268
0.028810032 -0.0011974527 -0.0047204476 4281960254
0.032227404 -0.0075333947 0.00033053197 4282283594
0.0056291372 -0.0007680878 -0.0066143777 4283859493
0.0075114444 -0.00073066261 -0.0067106336 4283465264
0.0090712532 0.00090599526 -0.0080933515 4282811188
0.010947786 0.00094348751 -0.0081891781 4282616879
0.01299075 0.00018157996 -0.0076419543 4282289459
0.014531024 0.0018181466 -0.0090235258 4282289968
0.01623226 0.002655183 -0.0097617116 4282224688
0.017578393 0.0050907871 -0.011784703 4281897779
0.01944048 0.0051283864 -0.011879498 4281506863
0.021122143 0.0059652971 -0.012616564 4281441073
0.023164056 0.005203777 -0.012068907 4281310003
0.025768079 0.0020452291 -0.0095954472 4282225199
0.029147089 -0.0043090591 -0.0045554582 4282287928
0.032187231 -0.0090643633 -0.00080111239 4282608718
0.014830925 -0.0012852587 -0.0088499393 4283858474
0.016193591 0.001157172 -0.010869036 4283400749
0.017889194 0.0019963365 -0.011605274 4281963059
0.019579187 0.0028354386 -0.012341187 4281833774
0.02126357 0.0036745192 -0.013076749 4281507884
0.023125194 0.0037122304 -0.013171431 4281831479
0.025728904 0.00054496806 -0.010704405 4282029103
0.029107362 -0.0058267396 -0.0056772875 4282483514
0.018025152 -0.00030299183 -0.01207151 4283337763
0.019895189 -0.00026526581 -0.012166734 4283337763
0.021584973 0.00057608448 -0.012900968 4282551599
0.023634747 -0.00018961914 -0.012357006 4282223413
0.026246309 -0.0033655185 -0.0098968241 4281897523
0.029444143 -0.0089511164 -0.0055216663 4281896248
0.029592559 -0.011278392 -0.0060094278 4283722558
-0.012540996 -0.00028788112 0.051021822 4279717528
-0.0086480975 0.00053912029 0.050131842 4278993329
-0.0063816383 -0.00092243403 0.051392265 4281945973
-0.014946371 0.00032041781 0.047892019 4279718293
-0.012060888 0.007167994 0.041558586 4278531524
-0.007717967 0.0049871402 0.043395668 4278730934
-0.0052034631 0.0020166142 0.046014402 4281550469
-0.01675494 -0.0028309822 0.048168927 4282011253
-0.01569742 0.0032443302 0.042630017 4278603434
-0.014197867 0.0063005267 0.039810359 4278406318
-0.012596104 0.0086019104 0.037671015 4278929068
-0.005904533 0.0041890247 0.041438613 4279127204
-0.0035174713 0.0019644061 0.04337202 4278930854
-0.0011142194 -0.00025983434 0.045304723 4278275249
0.0011646375 -0.0017294101 0.046558384 4279521689
0.0031676888 -0.0016903467 0.046455391 4281945973
0.0050245449 -0.00089706574 0.045674536 4282271863
0.0071731955 -0.0016119257 0.046249658 4282863719
-0.017489299 0.0001022974 0.042912692 4279653013
-0.016091831 0.0039242795 0.039420836 4278405553
-0.012634397 0.0070266938 0.036506459 4279324319
-0.010668568 0.0070644161 0.036404919 4278996643
-0.008573316 0.0063455729 0.036980681 4278339253
-0.0064727813 0.0056270054 0.03755622 4278602669
-0.004366979 0.0049086427 0.038131569 4278799528
-0.0021181479 0.0034340387 0.039383486 4278668969
-0.00013957173 0.0034725321 0.039281681 4278800038
0.0016956106 0.0042675091 0.038503505 4278796978
0.0083783492 0.00060278643 0.041579649 4279125419
-0.019405335 -0.0022891993 0.042513333 4281290878
-0.018223025 0.0030620387 0.0376761 4278997154
-0.016604561 0.0053766249 0.035545435 4278538154
-0.012796782 0.0062106727 0.034666277 4278270658
-0.0069083646 0.0063240146 0.034362394 4278864808
-0.0048109367 0.0056033274 0.03493657 4278538154
-0.0025705099 0.0041241599 0.036185734 4278669479
0.0097103938 0.0020808978 0.037601821 4279388834
0.011217333 0.0043947836 0.035478055 4279326358
-0.02000919 -7.9224817e-05 0.037958972 4279717529
-0.018724449 0.0045258021 0.03380841 4278603944
-0.017116882 0.0068467604 0.031683184 4278735269
-0.01516192 0.0068840785 0.031582065 4279192994
-0.013207115 0.006921499 0.031481028 4278864299
-0.01112571 0.0061979471 0.032054212 4278798508
-0.0092979856 0.006996681 0.031279244 4278734249
-0.0073436499 0.007034407 0.031178467 4278734759
-0.0052545667 0.0063113598 0.031751517 4278538409
-0.0031602234 0.0055885492 0.032324322 4278603944
0.00061497837 0.0064256927 0.031449609 4278732973
0.0024252981 0.0072247209 0.030676004 4279652249
0.004527092 0.0065024113 0.031248763 4279389088
0.0064828545 0.0065409271 0.031148478 4279060649
0.0082843974 0.0073400764 0.03037554 4278472874
-0.02061253 0.0021528667 0.033420958 4278996899
-0.019109674 0.0052438946 0.030626886 4279584164
-0.017273232 0.0060444968 0.0298528 4278531269
-0.01544239 0.0068450803 0.029079072 4278863278
-0.013493169 0.006882404 0.028978335 4278865574
-0.011417422 0.0061566355 0.029550174 4278472874
-0.0095952116 0.0069573922 0.028777141 4278800039
-0.0075143352 0.0062319273 0.029348867 4278735015
-0.0055630505 0.0062697669 0.029248375 4278538409
-0.0033367127 0.0047816215 0.03049181 4278341804
0.0022403449 0.0064220401 0.028847197 4278728894
0.0073212013 0.010350731 0.025191786 4278932128
-0.022175156 -0.0025213277 0.035046007 4282667369
-0.020989332 0.0028757388 0.030242499 4278996388
-0.017666422 0.0067779804 0.026683284 4278597059
-0.013779022 0.0068523297 0.026482312 4278732719
-0.011835556 0.0068896962 0.026381982 4278538409
-0.0097628795 0.0061618006 0.026952447 4278735014
-0.0076849088 0.0054341191 0.027522724 4278735014
-0.0056016594 0.0047066612 0.028092818 4278472874
-0.003513135 0.0039793896 0.028662702 4278735014
-0.0018401295 0.0055477424 0.027221922 4278604199
-3.5211444e-05 0.0063509019 0.026451809 4278406318
0.0019097775 0.0063890284 0.026351945 4278794938
0.004003033 0.005662282 0.026921904 4278794683
0.0056480467 0.0072304932 0.025482865 4278537388
-0.022984624 0.0012713829 0.029185263 4279324319
-0.021591749 0.0051476983 0.025733965 4278340783
-0.019763522 0.0059524281 0.024963405 4278601904
-0.017822482 0.0059894053 0.024862949 4278866084
