# .PCD v0.7 - Point Cloud Data file format
VERSION 0.7
FIELDS x y z rgba
SIZE 4 4 4 4
TYPE F F F U
COUNT 1 1 1 1
WIDTH 961
HEIGHT 1
VIEWPOINT 0 0 0 1 0 0 0
POINTS 961
DATA ascii
0.01349172 0.021825988 0.01626977 4289212453
0.016112227 0.018225383 0.019636031 4289081128
0.019311376 0.011711363 0.025786322 4289342759
0.023684315 -0.00062914193 0.037503608 4288950313
-0.018664321 -0.0060938206 0.041658409 4287052604
-0.017051829 -0.0023923423 0.038045056 4287183418
-0.015378006 0.00057695433 0.035131179 4287314488
-0.014091846 0.0064726975 0.029428426 4287641653
-0.012943607 0.013099242 0.02303106 4288427053
-0.01174771 0.018993333 0.017333951 4289277224
-0.0099978372 0.020497452 0.015821982 4289277223
-0.0078495592 0.019075502 0.017098431 4289604644
-0.0059006475 0.019116759 0.016980816 4289277734
-0.0042752884 0.021352198 0.014773536 4290323999
-0.0024453364 0.022124778 0.013960186 4290520603
-0.00062096864 0.022897333 0.013147231 4290650908
0.0015458055 0.021476384 0.014422946 4290585629
0.0036046356 0.020786874 0.015002165 4289408038
0.0056687817 0.020097528 0.015581179 4289408038
0.0076140426 0.020139463 0.015464347 4289342759
0.0093053132 0.0216434 0.013956707 4290062369
0.011244796 0.02168541 0.01384037 4290062368
0.013184115 0.021727525 0.013724118 4290062368
0.015663654 0.018846642 0.016387705 4290127903
0.018164828 0.01596633 0.019050065 4289277223
0.021530941 0.0087027214 0.02587888 4288818733
0.025811076 -0.0029431954 0.036871217 4288753964
-0.018540384 -0.0091987038 0.041838989 4286071108
-0.017008215 -0.0047521219 0.037537105 4287117883
-0.015242929 -0.0025080144 0.035325699 4287249208
-0.013676856 0.0012036823 0.031723447 4287118649
-0.012514602 0.0078502633 0.025339831 4287445814
-0.011304732 0.01376215 0.019654874 4288623148
-0.0098399371 0.017472077 0.016059015 4288950058
-0.0078910515 0.017513242 0.015941333 4289277223
-0.0061523281 0.01902172 0.014433458 4289408549
-0.0044246316 0.020530049 0.012926381 4289604643
-0.0028184578 0.022771779 0.01072523 4290193438
-0.00088913366 0.022812955 0.010609049 4290324253
0.0012719408 0.021387476 0.011881899 4290650908
0.0034437887 0.019962385 0.013154149 4289800739
0.0052622147 0.020737354 0.01234344 4289277734
0.0073232874 0.02004594 0.012921087 4289211944
0.0091359541 0.020820994 0.012110885 4289473574
0.011331748 0.019396823 0.013381999 4289735203
0.013273664 0.019439023 0.013265617 4289539109
0.01562053 0.017282423 0.015229277 4289408293
0.017983571 0.015126284 0.017192047 4289015594
0.020784259 0.010772105 0.021232869 4288622639
0.024620004 0.0012892764 0.030121647 4288360499
-0.017050585 -0.0063797943 0.036331497 4286660158
-0.015285274 -0.0041290969 0.03412497 4287184184
-0.013627745 -0.0011425298 0.031225167 4287183928
-0.012274284 0.004051771 0.026244275 4287183928
-0.010959126 0.0092453621 0.021265838 4287315254
-0.0095827766 0.013702404 0.01698358 4288427054
-0.0079325549 0.015951261 0.014784452 4288754219
-0.0061938539 0.01746415 0.013279844 4289016104
-0.0046815723 0.020448353 0.010389332 4289670179
-0.0029703863 0.021960825 0.0088865869 4289146919
-0.0010439232 0.022001956 0.0087705851 4289277734
0.00099828094 0.02130767 0.0093475245 4289669924
0.0030458122 0.02061357 0.0099242032 4290127648
0.0048559792 0.021390587 0.0091156475 4289473828
0.0069086812 0.020696819 0.0096921697 4289212198
0.0089666843 0.020003244 0.010268513 4289211944
0.011418551 0.017104127 0.012920659 4289080873
0.013495319 0.016411204 0.013495985 4289211944
0.015847322 0.014248233 0.015454452 4288819499
0.018215507 0.012085672 0.017412063 4288884779
0.021161601 0.0069834702 0.022134285 4288426799
0.0247183 -0.0010576416 0.029619094 4287837493
0.029210053 -0.013506765 0.041246735 4287772214
-0.015504697 -0.0042732321 0.031538695 4286988088
-0.013670016 -0.0027545672 0.030031163 4287381045
-0.012034316 0.00024042465 0.027139269 4287053369
-0.010517273 0.0039732251 0.02355643 4287249464
-0.0092265233 0.0091817714 0.018590886 4287772723
-0.0078718923 0.013651546 0.014319818 4288230704
-0.0063402951 0.016644809 0.011434559 4288950058
-0.0048306473 0.019637726 0.0085507147 4290062623
-0.0032325722 0.021892391 0.0063598566 4290389788
-0.0013117082 0.021933429 0.0062442161 4290454814
0.00072484836 0.021236837 0.0068198703 4290520093
0.002885282 0.019802786 0.0080863349 4289996833
0.0048139244 0.019844327 0.0079704747 4289277734
0.0069904476 0.018410798 0.009236183 4289081383
0.0091777183 0.016977657 0.01050128 4289015849
0.01163467 0.014069911 0.013146631 4289015849
0.01384889 0.012637578 0.014410283 4289146919
0.016073853 0.01120552 0.015673388 4288885288
0.018447191 0.0090365447 0.017625842 4288361774
0.021538548 0.00318202 0.023026135 4287903284
0.025245711 -0.0056201052 0.031182311 4287641143
-0.013712291 -0.0043662842 0.02883739 4286792759
-0.011888649 -0.0028433092 0.027333822 4287315254
-0.010269333 0.00016023032 0.024449524 4287314233
-0.0088707358 0.0046439376 0.020185452 4287183418
-0.0077092387 0.010607567 0.014542602 4287445303
-0.0064866394 0.015830163 0.0095927455 4288295728
-0.0049796291 0.018831797 0.0067155771 4289538853
-0.0032739304 0.020352919 0.0052196719 4289342759
-0.0013532043 0.020393975 0.0051040538 4289538853
0.00056739151 0.020435136 0.0049885251 4289277479
0.0027248487 0.018996671 0.0062519349 4289212198
0.0048930645 0.01755856 0.0075147934 4289016360
0.0071960166 0.015380997 0.0094662234 4289474338
0.009388499 0.013943568 0.010727819 4289539873
0.011721119 0.011766911 0.012677591 4289670688
0.014069948 0.009590663 0.014626514 4289343779
0.016434975 0.0074148551 0.016574528 4289016613
0.018678583 0.0059790313 0.017833348 4288427308
0.021634482 0.00084652938 0.022532251 4287838004
0.025343515 -0.007981753 0.030668855 4287510584
0.029409282 -0.01828702 0.040177248 4287445048
-0.011837084 -0.0051929504 0.026832871 4287053878
-0.010214962 -0.0021806303 0.023954879 4287248954
-0.0087140948 0.0015738364 0.020389367 4287248954
-0.0073426925 0.0060702749 0.016136743 4287314233
-0.0063185096 0.01279315 0.0098202862 4287707189
-0.0049134567 0.016545922 0.0062608011 4288884779
-0.0033153035 0.018813737 0.0040797107 4289080873
-0.0011687614 0.017370477 0.0053403936 4289080873
0.00087286159 0.016669646 0.00591252 4289539109
0.0030382499 0.015226983 0.0071722828 4289997344
0.0053355545 0.013042685 0.0091190711 4290259484
0.0077729858 0.010116875 0.01175249 4289932573
0.0098522268 0.0094173253 0.012322709 4289998109
0.012066115 0.0079761222 0.013579864 4289736478
0.014290743 0.0065353066 0.014836427 4289409058
0.016526114 0.0050947964 0.016092468 4289278243
0.018909723 0.0029130429 0.018034581 4289146918
0.021730259 -0.0014930759 0.02203539 4288492334
0.025298201 -0.0096059497 0.029466048 4287575863
0.029362977 -0.01994182 0.038951792 4287510584
-0.010257263 -0.0037807878 0.022769697 4287118393
-0.0086569823 -0.00076003 0.01989964 4287445559
-0.0072826333 0.0037495457 0.015656624 4287248954
-0.0060458779 0.009003114 0.010728624 4287445559
-0.0047399588 0.013511486 0.0064899214 4288034353
-0.0030261278 0.015041601 0.0050000064 4288885289
-0.0009845756 0.014338516 0.0055704676 4289932318
0.001062315 0.013635606 0.0061407126 4289736734
0.0033512712 0.011444498 0.0080830827 4289802269
0.005535353 0.0099979714 0.0093385614 4289998875
0.0079778656 0.0070635527 0.0119652 4289475359
0.010062367 0.0063619502 0.01253349 4289867804
0.012281444 0.0049165636 0.013787072 4290129689
0.014511276 0.0034714751 0.015040141 4289802524
0.016617104 0.0027706474 0.015607383 4289868059
0.01900313 0.00058237277 0.017544542 4289409569
0.021685712 -0.0030929781 0.020850569 4289016359
0.02496703 -0.0097424677 0.026894003 4288230703
-0.0085999891 -0.0030979458 0.019406918 4287248698
-0.0070188195 -6.8729743e-05 0.016544588 4287183418
-0.0057736076 0.005200278 0.011627484 4287380280
-0.0043518953 0.008975286 0.0080832429 4287445558
-0.0028474368 0.012003221 0.0052258037 4288950824
-0.00068776682 0.010551531 0.0064792261 4289670433
0.0014826916 0.0091001503 0.0077321343 4289998364
0.0037822425 0.0069027245 0.0096690021 4289867548
0.0058559291 0.0061984919 0.010236163 4289867804
0.0080587082 0.004748147 0.011487376 4289933339
0.010272231 0.0032981895 0.012737986 4290195224
0.01249652 0.0018485039 0.013988059 4290129688
0.014467645 0.0018914901 0.013870038 4289540894
0.016573276 0.0011885129 0.014435701 4289802524
0.01882159 -0.00026026368 0.015684541 4289671963
0.021641143 -0.0046925619 0.019665983 4289148449
0.02477891 -0.010615773 0.025011733 4287643948
0.028105661 -0.017283771 0.031037964 4287184439
-0.0086422861 -0.0046909321 0.018227056 4287446579
-0.0071629211 -0.00090401247 0.014687281 4287380023
-0.0056063272 0.0021335501 0.011833023 4287445559
-0.0041790046 0.0059196036 0.0082965642 4287707443
-0.0024488494 0.0074588098 0.0068122298 4289147174
-0.00061693415 0.0082492046 0.0060118809 4289736224
0.0015560016 0.0067935176 0.0072613992 4290064153
0.0037396997 0.005338233 0.0085103251 4290260504
0.0059341677 0.0038832426 0.009758722 4290129688
0.0080157071 0.0031771213 0.010323886 4289999639
0.010102544 0.0024712365 0.010888815 4289933594
0.012323845 0.0010171607 0.012135852 4290065174
0.014292106 0.0010600984 0.012018014 4289803799
0.016394828 0.00035488978 0.012582239 4288300063
0.029952288 -0.018127052 0.029023282 4292942595
0.032744944 -0.021821326 0.032306887 4288687664
-0.0072050802 -0.0024857633 0.013515759 4287381043
-0.0056484006 0.00056055747 0.010667998 4287511859
-0.004220929 0.004357541 0.0071396455 4287838769
-0.0023807921 0.0051501729 0.0063404031 4289212964
-0.00043348595 0.0051918849 0.0062232502 4289474848
0.0017446354 0.0037319995 0.007469181 4290063899
0.0038153343 0.0030232444 0.0080332123 4289934104
0.0058913566 0.002314698 0.008597061 4289999639
0.0078490488 0.0023570769 0.0084796138 4290000148
0.0098065846 0.002399575 0.0083622597 4290065683
0.012022167 0.00094107352 0.0096063726 4288364578
0.026559301 -0.013054247 0.021817371 4288888349
0.029165402 -0.016010229 0.024415556 4290129434
0.031943992 -0.019715702 0.027691916 4289210923
0.034749627 -0.02342047 0.030966736 4286202178
-0.0056904852 -0.0010121446 0.0095031895 4287577393
-0.0041556433 0.0020425804 0.0066633336 4288166189
-0.0024228133 0.003590595 0.0051853396 4289409058
-0.0005883351 0.004385408 0.0043881498 4290391064
0.0017022006 0.0021680817 0.0063109249 4290129688
0.0036545694 0.0022101477 0.006193649 4290195988
0.0057276636 0.0014993995 0.0067560151 4290000148
0.0076824799 0.0015417449 0.0066387579 4288496413
0.026077799 -0.012411083 0.018587891 4288822304
0.028675348 -0.015375915 0.021180078 4290455323
0.03114365 -0.017587952 0.023093328 4290128159
0.033935219 -0.02130392 0.026360907 4290063134
0.036441267 -0.023514912 0.028272063 4287706933
-0.0044119805 0.0019897111 0.0041477196 4287839788
-0.0026846416 0.0035420433 0.0026732795 4289279264
-0.0006304495 0.0028283261 0.003234949 4289934359
0.001544416 0.0013596881 0.0044746287 4289804054
0.025887288 -0.013263597 0.016721245 4290524429
0.028333694 -0.015482754 0.018630873 4290849043
0.030494668 -0.016192522 0.019187283 4289539873
0.033121414 -0.019165233 0.021771468 4289473828
0.035613514 -0.021383077 0.023678601 4288950314
-0.0028364025 0.0027449355 0.00084490329 4289149468
-0.0010102727 0.0035439618 5.1479787e-05 4288168994
0.025842175 -0.01486825 0.015532941 4290000403
0.028140254 -0.016337264 0.016763039 4289933084
0.029996894 -0.015535997 0.015968956 4289736478
0.031847872 -0.014734713 0.015175249 4289606174
0.033849388 -0.014690002 0.0150562 4289212963
0.036645122 -0.018427445 0.018307507 4289081383
0.023367435 -0.01423998 0.012444019 4288101674
0.025651827 -0.015713699 0.013671599 4289212963
0.027059332 -0.012633823 0.010860108 4289736989
0.028294221 -0.0087955091 0.0073770955 4290064408
0.020630077 -0.012075381 0.0080201589 4288299554
0.022468053 -0.011270409 0.0072301775 4288624424
0.024300411 -0.010465506 0.0064406432 4289344288
0.025387786 -0.0058553256 0.0022941753 4291178249
0.017646827 -0.0083609968 0.0022700652 4289607449
0.019189291 -0.006027488 0.00014192238 4288691489
0.020857587 -0.0044575967 -0.0013149139 4289937164
0.013154406 -0.0069548469 -0.0013356451 4289150489
0.014568545 -0.0038491357 -0.0041284543 4289804819
0.015960734 -0.0007438045 -0.0069198776 4290524938
0.009209577 -0.0086019542 -0.0022588242 4288691743
-0.017306827 -0.0081531089 0.032538138 4282607699
-0.018876571 -0.014274416 0.035599031 4283198789
-0.01752048 -0.0082899369 0.029956855 4282215509
-0.015677605 -0.0067624692 0.028455231 4283197259
-0.019084839 -0.01441963 0.033011176 4282411603
-0.017733904 -0.008417761 0.02738231 4282019669
-0.015719803 -0.008375762 0.027260285 4282086479
-0.013796868 -0.0075888205 0.026450522 4282283338
-0.019210037 -0.015302923 0.031116769 4282476883
-0.017775953 -0.010030751 0.026187576 4282019924
-0.015850311 -0.0092416974 0.025379181 4281890639
-0.014021235 -0.0077055804 0.023884952 4282086734
-0.019417915 -0.01543217 0.028540675 4282542164
-0.017818009 -0.011643455 0.024993062 4281954389
-0.015980707 -0.010102938 0.023501549 4281759568
-0.014245376 -0.007813327 0.021326132 4281694798
-0.012245372 -0.0077713542 0.021205164 4282282829
0.018502817 -0.00035009533 0.013146225 4284051508
0.021176353 -0.0040474441 0.016436607 4284182579
0.024162538 -0.0092402501 0.021088488 4284706349
-0.019873768 -0.013297708 0.023920871 4282149973
-0.01811645 -0.01100134 0.021748804 4280975443
-0.016287377 -0.0094566168 0.020261042 4280714579
-0.014378374 -0.0086633861 0.019457005 4280389199
-0.012568552 -0.0071187932 0.01797054 4280780113
-0.010673348 -0.0063256044 0.017167531 4281564239
0.016216468 -0.00047406927 0.010732234 4283920948
0.018321544 -0.0011812933 0.011294786 4282875448
0.02085191 -0.0041392576 0.013897255 4283266619
0.023689359 -0.0085971691 0.017858237 4284508213
-0.018585365 -0.0088384468 0.017151102 4279406174
-0.016681843 -0.0080432687 0.016348936 4279733594
-0.014692983 -0.0080016349 0.016228557 4280257108
-0.012704201 -0.0079598743 0.016108286 4280453714
-0.010908138 -0.0064111073 0.014626041 4280911184
-0.0090240352 -0.0056158081 0.013825364 4281890893
0.011849754 0.0001212433 0.0077626966 4283658808
0.013941344 -0.00058866479 0.0083242767 4282810678
0.016172707 -0.0020509847 0.0095644258 4282810678
0.018277586 -0.0027603619 0.010125387 4282810678
0.020667627 -0.0049745105 0.012042955 4283203378
-0.015007257 -0.0073264539 0.013010062 4279605584
-0.012933273 -0.0080405977 0.013569914 4279997774
-0.011046447 -0.0072431453 0.012770627 4280061778
-0.0092641525 -0.0056901723 0.011292554 4280714833
-0.0075945705 -0.0033817738 0.0091360882 4282152014
0.005564075 0.00068870932 0.0049184524 4283855669
0.0076395571 -2.4028122e-05 0.0054791607 4282549048
0.0095940903 1.8458813e-05 0.0053620301 4282484533
0.011806436 -0.0014488772 0.0065998994 4282811443
0.013897821 -0.0021609347 0.0071598999 4282876468
0.016263358 -0.0043824054 0.0090739578 4282811443
0.018507928 -0.005848648 0.010310113 4283007283
0.020903103 -0.008069247 0.012222573 4284641834
-0.015230436 -0.0073958561 0.010479644 4279341658
-0.013162125 -0.0081122424 0.011038188 4279473749
-0.011377044 -0.0065549649 0.0095630996 4279800658
-0.00940511 -0.0065132901 0.009444043 4279864918
-0.0078398883 -0.0034406893 0.0066151507 4281040469
0.001156155 0.0020707808 0.0012884289 4284116278
0.0033333637 0.00059790164 0.0025248565 4282939963
0.0055213384 -0.00087457895 0.003760688 4282549559
0.0075966157 -0.0015894994 0.004319787 4282158388
0.0096772164 -0.0023042336 0.0048786961 4282224688
0.011763096 -0.0030186884 0.0054373331 4282811443
0.013985932 -0.004489962 0.0066714063 4283072563
0.016353879 -0.0067179203 0.0085804686 4282745908
0.018600903 -0.0081884414 0.0098132566 4283203633
-0.013390742 -0.0081749 0.0085131973 4279470944
-0.011611164 -0.0066133179 0.007041648 4279602014
-0.0096448325 -0.0065717436 0.0069229417 4280058973
-0.0081865862 -0.002730649 0.0034250133 4280191063
-0.0065470524 -0.00040968135 0.0012802444 4281041233
-0.0048169345 0.0011513364 -0.00018796325 4281825868
-0.0029880516 0.0019524992 -0.00098001212 4281893443
-0.00093973055 0.0012343694 -0.00042124279 4281828928
0.0011139289 0.00051647611 0.00013729557 4281895994
0.0034088343 -0.0017202888 0.0020453744 4281962039
0.0057199635 -0.0039565861 0.0039525628 4282158388
0.0078004934 -0.0046735406 0.0045097545 4282615859
0.0096340664 -0.0038716011 0.0037179291 4282747439
0.011719748 -0.004588224 0.0042749718 4282746928
0.014073908 -0.0068231113 0.0061799362 4282942513
0.016309951 -0.0082983449 0.0074100643 4283663144
0.018556722 -0.0097732153 0.0086396486 4283923498
-0.011748962 -0.0074248388 0.0052015111 4279339363
-0.009686701 -0.0081454515 0.0057573728 4279797854
-0.0082283132 -0.0042934269 0.0022675432 4279537498
-0.0066930279 -0.001203863 -0.00054647215 4279997009
-0.0049656667 0.00036143139 -0.002011219 4280324429
-0.0030298717 0.00040283054 -0.0021277312 4280653123
-0.00098175555 -0.0003174711 -0.0015705619 4280979779
0.001071699 -0.0010375436 -0.0010136273 4281960509
0.0033662803 -0.0032808259 0.0008896403 4281895994
0.0057977103 -0.0062853098 0.0034650862 4281897014
0.0077574179 -0.006242808 0.0033475719 4282681394
0.0097169727 -0.0062001869 0.0032301582 4282551599
0.011805188 -0.0069189239 0.0037854388 4282551598
0.014161751 -0.0091602951 0.0056854077 4283073074
0.016400259 -0.010639822 0.0069121569 4283532328
0.01851251 -0.011357678 0.0074662641 4284510253
-0.0099260807 -0.0081902556 0.0032464601 4279144288
-0.0083715245 -0.0050916784 0.00043767318 4279733594
-0.0069430843 -0.0012292489 -0.003042154 4280584528
-0.0050073378 -0.001187969 -0.0031587519 4280259403
-0.0029620416 -0.0019106138 -0.0026031043 4280194634
-0.00079900771 -0.003397081 -0.0013756938 4280456519
0.001259692 -0.0041192118 -0.00082068704 4281371204
0.003441561 -0.0056049936 0.00040572882 4281829184
0.0057547688 -0.0078543015 0.0023031011 4282156604
0.0078376196 -0.0085755643 0.002856914 4282681393
0.0096737444 -0.0077691451 0.0020682216 4282550068
0.011761755 -0.0084900651 0.0026218966 4282746929
-0.010263927 -0.0074595157 7.1015209e-05 4278948704
-0.0085146241 -0.0058852602 -0.0013887417 4279538773
-0.0068804771 -0.0035447087 -0.003518628 4280585039
-0.0050490238 -0.0027370472 -0.0043060444 4280389453
-0.0030039288 -0.0034618843 -0.0037520099 4279736909
-0.0009534955 -0.0041864812 -0.0031982046 4280521034
0.001217328 -0.0056770165 -0.0019744076 4280977738
0.0033989362 -0.0071671549 -0.00075120665 4281175874
0.0057118163 -0.0094229896 0.0011413395 4281568574
0.0077944659 -0.010146421 0.0016935542 4282875958
0.009630505 -0.0093378164 0.00090648979 4284185128
-0.0086576045 -0.0066742115 -0.0032117236 4278950233
-0.0069220737 -0.0050957259 -0.0046673659 4280259658
-0.0050907135 -0.0042858608 -0.0054531395 4279673668
-0.0030458234 -0.0050128791 -0.0049007107 4279606349
-0.00088332966 -0.0065080468 -0.0036797188 4280324684
0.0011749603 -0.0072345193 -0.0031279046 4280127568
0.0032385848 -0.0079607759 -0.0025763381 4280845648
0.0053075179 -0.0086867828 -0.0020249877 4281043784
-0.0071717314 -0.0051049758 -0.0071510933 4280126549
-0.0052391626 -0.0050637126 -0.0072674621 4279342678
-0.0073171929 -0.0058780853 -0.0089621972 4279535203
0.0049101189 -0.01008459 -0.022999888 4284638773
0.004745584 -0.01081896 -0.024780694 4284639284
0.014833659 -0.029263087 -0.045485895 4282477138
-0.022169124 -0.012690182 0.020802829 4281686639
-0.028226769 -0.014419465 0.01997935 4282012018
-0.026370239 -0.012866077 0.018495932 4279190188
-0.024678988 -0.0098006967 0.01565209 4278796469
-0.022849826 -0.0082476269 0.014170524 4279650974
-0.020949015 -0.0074505024 0.013369933 4278279583
-0.032410823 -0.014589596 0.017675437 4282537318
-0.030617751 -0.012273561 0.015515245 4279652759
-0.02876942 -0.010716107 0.014035478 4278929834
-0.025105603 -0.0076014288 0.011078194 4278403004
-0.021320485 -0.006003391 0.0094812289 4279651994
-0.034514591 -0.015469901 0.01593376 4281422969
-0.032914456 -0.010865457 0.011743955 4278735524
-0.031140469 -0.0085433125 0.009589836 4278276014
-0.029311288 -0.0069818143 0.0081144497 4278996134
-0.027270077 -0.0077018626 0.0086724088 4279062178
-0.025300499 -0.0076612383 0.0085527524 4279128224
-0.023330966 -0.0076204762 0.0084332004 4278472618
-0.021443989 -0.006819278 0.0076366812 4278798763
-0.019392055 -0.0075386018 0.0081943646 4278406319
-0.034555033 -0.01706763 0.014750242 4280439433
-0.033020809 -0.011687294 0.0098937675 4278801314
-0.031249544 -0.0093586566 0.0077446699 4278342568
-0.027459133 -0.0077524837 0.0061532706 4278995879
-0.025495172 -0.0077119656 0.0060339645 4279651484
-0.021649826 -0.0068680979 0.0051202402 4278930343
-0.019688737 -0.006827265 0.005001381 4278996389
-0.017727707 -0.0067862906 0.0048826337 4278934169
-0.034532174 -0.019430103 0.014241878 4280505224
-0.03306102 -0.01326946 0.0087217838 4279128479
-0.031358507 -0.01016932 0.0059029013 4278801058
-0.023651637 -0.0084778741 0.0040769726 4278338233
-0.021855436 -0.0069078319 0.002610445 4278735014
-0.01998508 -0.006102521 0.0018183291 4278669989
-0.018120233 -0.0052971989 0.0010266341 4278931618
-0.016079763 -0.0060208105 0.0015819296 4278736799
-0.034509413 -0.021796634 0.013730504 4281028483
-0.032969277 -0.016385693 0.0088963807 4280308619
-0.031398647 -0.01174244 0.0047376379 4279653013
-0.029646486 -0.0094009778 0.0025995225 4278669479
-0.027688257 -0.0093606943 0.0024804734 4278407594
-0.025730062 -0.0093202898 0.0023615211 4278341804
-0.023931133 -0.0077459589 0.00089796633 4278473129
-0.022060817 -0.006938586 0.00010738149 4278604454
-0.020196013 -0.0061311964 -0.00068276934 4278997154
-0.018336719 -0.0053238086 -0.0014725067 4279258784
-0.016482955 -0.0045163557 -0.0022618454 4279586458
-0.034549952 -0.023397822 0.012544423 4280832389
-0.032943673 -0.018740956 0.0083931573 4280112013
-0.031301498 -0.014853894 0.0049153641 4279849618
-0.029686617 -0.01096728 0.0014393181 4279258274
-0.027728546 -0.010926998 0.0013202839 4279127459
-0.02584734 -0.010117434 0.00053042173 4278931363
-0.023892077 -0.010076946 0.00041175261 4278931363
-0.022183692 -0.0077293348 -0.0017184634 4278341804
-0.018552981 -0.0053413715 -0.0039650183 4278665143
-0.014768876 -0.0044912025 -0.0048694089 4279979413
-0.034653611 -0.02422714 0.010688473 4280636039
-0.032852314 -0.021871803 0.0085568503 4280374153
-0.03113598 -0.018745203 0.0057565644 4279981198
-0.02944148 -0.015618959 0.0029577501 4279588754
-0.027694792 -0.013264351 0.00082974136 4279063454
-0.025964497 -0.010909945 -0.0012971666 4278996389
-0.024091613 -0.010098274 -0.0020847563 4278669223
-0.022306446 -0.0085154213 -0.0035408586 4278668968
-0.018681334 -0.006121017 -0.0057822056 4278339508
-0.014996067 -0.0044977739 -0.0073529296 4279322788
-0.012970008 -0.0052280091 -0.0068013817 4278604198
0.0010176525 -0.008021269 -0.0049481653 4278346394
0.0029606856 -0.0079793055 -0.0050648097 4278539938
0.0047831982 -0.0071668234 -0.0058480352 4279915664
0.0063539222 -0.0048137456 -0.0079637207 4282731629
-0.03475716 -0.025051789 0.0088359751 4280832388
-0.032826975 -0.024237374 0.0080459937 4280701575
-0.03103932 -0.021875694 0.0059201941 4280439690
-0.029339312 -0.018740579 0.0031274743 4279916429
-0.027735129 -0.014832225 -0.00033161044 4279523728
-0.026081538 -0.011697809 -0.0031213164 4278735268
-0.024290921 -0.010110601 -0.0045745987 4278669479
-0.020742552 -0.0069364402 -0.0074789245 4278865829
-0.018897194 -0.0061227288 -0.0082629807 4278997153
-0.016967004 -0.0060822554 -0.0083797537 4279127713
-0.014850736 -0.007588001 -0.0071630999 4278798764
-0.012915235 -0.0075471811 -0.00728002 4279127714
-0.01097982 -0.0075062197 -0.0073968302 4278932638
-0.0013041124 -0.0072996486 -0.0079794601 4278935698
0.00074558705 -0.0080306511 -0.0074303541 4280112013
0.004139021 -0.0048565883 -0.010322971 4279324573
-0.036853705 -0.02591222 0.0071084425 4281422969
-0.034923613 -0.025095807 0.0063200258 4281029248
-0.032933235 -0.025055246 0.0061987415 4280242828
-0.031079832 -0.023462903 0.0047444925 4279981453
-0.029237358 -0.021870617 0.0032909662 4279981454
-0.027627606 -0.017951272 -0.00016038492 4280177039
-0.026121806 -0.013256692 -0.0042759981 4279062943
-0.024490004 -0.010113864 -0.007057799 4279390363
-0.022715835 -0.0085225124 -0.0085067526 4278341039
-0.013147805 -0.0075445753 -0.0097563155 4278669223
-0.0056423582 -0.0058304202 -0.01155005 4278866338
-0.0037183575 -0.0057892334 -0.011665825 4278603943
-0.0017944723 -0.005747905 -0.011781486 4278472363
0.00047375262 -0.0080310609 -0.0099058319 4279323809
-0.035152808 -0.024352727 0.0031455532 4281554038
-0.033105079 -0.025090409 0.0036898479 4280308363
-0.03118876 -0.024271822 0.002904091 4279980688
-0.029349064 -0.022675231 0.0014539659 4280242828
-0.027668048 -0.019522928 -0.0013245381 4280438923
-0.026085474 -0.01559311 -0.0047660433 4279914644
-0.024450878 -0.012441514 -0.007541541 4279324828
-0.022920184 -0.0085125174 -0.010979706 4278997408
-0.021162471 -0.0069170222 -0.012424331 4278603178
-0.015304416 -0.0075736213 -0.012109676 4279127458
-0.013380129 -0.0075330157 -0.012225905 4278472619
-0.01165273 -0.0059375335 -0.013668234 4278734759
-0.0099363178 -0.0043421071 -0.015109841 4278931364
-0.0079193301 -0.0050786249 -0.014562348 4278734759
-0.0039785802 -0.0057738684 -0.014130468 4278734504
-0.0020602904 -0.0057326686 -0.014245795 4278601394
0.00020215288 -0.008022448 -0.012374695 4278666674
0.0022458769 -0.0087578166 -0.011828382 4279651228
-0.033342335 -0.024336256 0.00052414089 4280504969
-0.031365938 -0.024295855 0.00040379539 4279849109
-0.029460654 -0.023475192 -0.000379581 4279980688
-0.027634665 -0.021874443 -0.0018254966 4280046479
-0.025972702 -0.01871369 -0.0045962781 4279718293
-0.024411857 -0.014773304 -0.00802828 4279784849
-0.022878319 -0.010833303 -0.011458561 4279390874
-0.021287361 -0.0076736845 -0.01422471 4278669478
-0.019630821 -0.0052941423 -0.016327344 4278735014
-0.017630007 -0.0060338099 -0.015780959 4278866085
-0.015623804 -0.006773239 -0.015234806 4278669479
-0.01370785 -0.0067328028 -0.015350522 4278996388
-0.01028046 -0.0035335626 -0.018226948 4278992819
-0.0082718544 -0.0042724404 -0.017680567 4278995113
-0.0062578954 -0.005011091 -0.017134426 4278996899
-0.0043478161 -0.0049701873 -0.017249351 4278669989
-0.0023258813 -0.0057084113 -0.016703501 4278536623
-0.031474575 -0.025093291 -0.0014281012 4281815924
-0.029572124 -0.024270507 -0.0022096857 4280570248
-0.027601393 -0.024229946 -0.0023294799 4280308618
-0.025936641 -0.021060428 -0.005093962 4280374408
-0.024214525 -0.018673375 -0.0071960073 4279981198
-0.022836555 -0.013158208 -0.011940388 4279129498
-0.021242807 -0.0099897608 -0.014700269 4278735268
-0.019758305 -0.006039694 -0.018119272 4278800294
-0.017940653 -0.0052177701 -0.018895045 4278735015
-0.016035682 -0.0051776879 -0.01901019 4278472619
-0.012225952 -0.0050971676 -0.019240202 4278664379
-0.010422226 -0.0042749997 -0.020014809 4278401984
-0.0064055175 -0.0057570469 -0.018925127 4278734249
-0.0044983178 -0.0057161767 -0.019039856 4278538408
-0.0025912188 -0.0056752134 -0.01915451 4278800293
-0.029683478 -0.025061188 -0.0040363595 4281094529
-0.027715636 -0.025020698 -0.0041559841 4280308618
-0.025900688 -0.023411281 -0.0055946968 4279981708
-0.024175838 -0.021017628 -0.0076920465 4279915664
-0.02254926 -0.017839964 -0.010447506 4279455643
-0.021029152 -0.013878351 -0.013860714 4278473894
-0.019623673 -0.0091330661 -0.01793104 4278800548
-0.018070845 -0.0059565324 -0.020681802 4278800293
-0.016168751 -0.0059165061 -0.020796772 4278472108
-0.014266727 -0.0058763623 -0.020911649 4278733738
-0.012364775 -0.0058360994 -0.021026431 4279519903
-0.010664821 -0.0042279772 -0.022457279 4278732973
-0.0066594332 -0.0057145841 -0.021370199 4278929834
-0.0047578365 -0.0056738388 -0.021484595 4278865574
-0.0027444772 -0.0064166673 -0.020941433 4278538154
-0.00061120838 -0.0079427678 -0.019741267 4278669478
0.0015328601 -0.0094685182 -0.01854166 4279325083
-0.029865643 -0.025060533 -0.0065179374 4282667624
-0.027829763 -0.025806757 -0.0059790891 4281226618
-0.026017591 -0.024193076 -0.0074143503 4280112524
-0.024216359 -0.022579461 -0.0088489018 4279981198
-0.022507889 -0.020179523 -0.010940263 4279194269
-0.020815827 -0.017779784 -0.013030598 4279784083
-0.019489262 -0.012234927 -0.017749021 4279194268
-0.018020915 -0.0082632881 -0.021150773 4278867103
-0.01459345 -0.0050383545 -0.024008198 4278274229
-0.012699828 -0.0049982611 -0.024122473 4279848344
-0.010806281 -0.0049580503 -0.024236653 4279848088
-0.0089128204 -0.0049177203 -0.02435074 4278733739
-0.0069131069 -0.0056631919 -0.02380858 4278340018
-0.0050171018 -0.0056225713 -0.023922645 4279061669
-0.0028976165 -0.0071534365 -0.022724967 4278407339
-0.00088184327 -0.0078982599 -0.022183472 4278538154
0.0013737492 -0.010214181 -0.020331267 4279390873
-0.028164553 -0.024221819 -0.009768296 4282471018
-0.026134372 -0.024970252 -0.0092305802 4280308874
-0.024256874 -0.024141008 -0.010005543 4279456664
-0.022466628 -0.022523176 -0.011436053 4279718804
-0.020602839 -0.021694005 -0.012209952 4280242573
-0.019180648 -0.016922202 -0.016261932 4279587479
-0.017701268 -0.012939441 -0.019656263 4278997408
-0.016249195 -0.0089571327 -0.023048855 4279062944
-0.012936417 -0.0049353018 -0.026553638 4278468539
-0.0072728321 -0.0048146732 -0.02689489 4278930343
-0.0052761436 -0.0055622663 -0.026354074 4278538409
-0.003162358 -0.0070976615 -0.025159253 4278669479
-0.0011522472 -0.0078447405 -0.024619078 4278735014
0.00098039582 -0.0093794819 -0.023425203 4282145128
-0.026327301 -0.024951842 -0.011698153 4282339948
-0.024376366 -0.024911441 -0.011816559 4280177039
-0.022588896 -0.023289308 -0.013243664 4279980943
-0.020643499 -0.023248756 -0.013361536 4279980943
-0.0190468 -0.020045314 -0.016095649 4279784339
-0.017382072 -0.017632809 -0.018174425 4279456409
-0.016104184 -0.012058254 -0.022867091 4278867104
-0.014578512 -0.0088559091 -0.025596615 4278735268
-0.013074704 -0.0056538973 -0.028324727 4278471853
-0.0094081499 -0.0047833677 -0.029205048 4278538154
-0.007313516 -0.0063237324 -0.028012536 4278735014
-0.0053170249 -0.0070735049 -0.027473325 4278735268
-0.0032035075 -0.0086132493 -0.026281713 4278735013
-0.0013080016 -0.0085723996 -0.026395569 4278931618
0.00070452318 -0.0093214773 -0.025857063 4279325084
0.00260254 -0.009280338 -0.025970895 4282341223
-0.030481506 -0.024211502 -0.014576076 4282602088
-0.028538838 -0.024171529 -0.014694173 4282471529
-0.026596202 -0.024131428 -0.01481217 4280244104
-0.024653601 -0.024091197 -0.014930066 4280374153
-0.022792701 -0.023257801 -0.015700683 4280112269
-0.020768531 -0.024010327 -0.015165551 4279850384
-0.019000279 -0.022383954 -0.016588116 4279784594
-0.017242983 -0.020757716 -0.018009879 4279850384
-0.015866855 -0.015960496 -0.022039473 4279391638
-0.01452348 -0.011163914 -0.026066978 4278670754
-0.013114866 -0.0071605146 -0.0294406 4278603689
-0.01153212 -0.0047427006 -0.031509198 4278669478
-0.009552002 -0.0054953154 -0.030970776 4278669734
-0.007354185 -0.0078325272 -0.029129988 4278341804
-0.0053579062 -0.0085844677 -0.028592372 4278604199
0.00031182915 -0.0084622707 -0.028932925 4279192739
0.0022015274 -0.0084213112 -0.029046258 4279980943
-0.022914669 -0.024012538 -0.017499853 4281161848
-0.020893445 -0.024767267 -0.016966205 4280046989
-0.019040914 -0.023931658 -0.017734468 4280112523
-0.017283659 -0.022301078 -0.019153003 4279980688
-0.015814846 -0.018285781 -0.022522364 4280242829
-0.01446856 -0.013476012 -0.026540373 4279587734
-0.01325297 -0.007872073 -0.031206476 4278735014
-0.011572253 -0.0062425472 -0.032620043 4278538664
-0.0095923468 -0.0069973189 -0.03208321 4278735014
-0.0075009689 -0.0085464381 -0.030896951 4278341549
-0.0018477067 -0.0084249415 -0.031236771 4278270403
0.0018009022 -0.0075490437 -0.032111742 4279390873
0.003682185 -0.0075081456 -0.03222448 4279522963
-0.02311806 -0.023965335 -0.019945174 4282274668
-0.021102499 -0.02472233 -0.01941278 4280701319
-0.01916853 -0.024681902 -0.019529875 4280308363
-0.017503757 -0.022249822 -0.021594115 4280308363
-0.015855385 -0.019817986 -0.023657216 4280243339
-0.014413742 -0.015792277 -0.027016781 4279719059
-0.012999412 -0.011766952 -0.030374626 4278538408
-0.011411164 -0.009336045 -0.032433841 4278866338
-0.0096326768 -0.0084990934 -0.033195473 4278996898
-0.0076476187 -0.0092557501 -0.032660507 4278275759
-0.0057659708 -0.0092154294 -0.032773703 4278734248
-0.0041074231 -0.0075815655 -0.034182362 4278865574
-0.0021171831 -0.0083378293 -0.033647422 4279519903
-0.00035550818 -0.0075005852 -0.034407634 4278534584
0.0017596371 -0.009053003 -0.033225559 4279128224
0.0033959933 -0.0074191801 -0.03463256 4278277034
0.0055217966 -0.0089711323 -0.033450946 4280505734
-0.021395532 -0.023868987 -0.022500576 4281094019
-0.019382961 -0.024628125 -0.021969546 4280635528
-0.017544311 -0.023788322 -0.022733638 4280439434
-0.015895918 -0.021349991 -0.024791915 4280439178
-0.014168834 -0.019711034 -0.026202006 4279455898
-0.011451401 -0.010839757 -0.03354755 4278800548
-0.0097762831 -0.009201549 -0.034954246 4278866083
-0.0079001449 -0.0091614621 -0.035067193 4278471854
-0.0042595714 -0.0082820989 -0.035938982 4279061414
-0.0023864321 -0.008241713 -0.036051482 4279258528
0.003232386 -0.0081199333 -0.036388468 4279063199
0.0052301548 -0.0088777076 -0.035855301 4278670753
0.0073610246 -0.010433806 -0.034677152 4281294449
-0.019597149 -0.024565406 -0.024402522 4281947249
-0.017764041 -0.023723572 -0.025164682 4280897158
-0.015844116 -0.023683175 -0.025280733 4280176528
-0.014019305 -0.022841271 -0.026042212 4278931619
-0.012395546 -0.020396616 -0.028093994 4279063199
-0.010989171 -0.016349651 -0.031435087 4279194524
-0.009610109 -0.012303152 -0.034774452 4279193249
-0.0080464892 -0.0098594362 -0.036822356 4278734758
0.0011989363 -0.0088567566 -0.038028926 4278669989
0.0029466413 -0.0080153197 -0.038784888 4278735778
0.005063761 -0.0095761213 -0.037609261 4279260569
0.0073193684 -0.01193733 -0.035790615 4279784848
-0.017804457 -0.025257248 -0.026300633 4280635019
-0.015976952 -0.024413208 -0.02706073 4279389854
-0.01405997 -0.024372762 -0.02717652 4279521944
-0.012436189 -0.02192161 -0.029223477 4279456664
-0.010929249 -0.018667212 -0.031912919 4279392149
-0.0095473193 -0.014609791 -0.03524439 4279128733
-0.0080868267 -0.011356138 -0.037930854 4279324319
-0.006648194 -0.0081028547 -0.040615924 4278931364
-0.0010622963 -0.0079824924 -0.040951461 4278800294
0.00091896206 -0.0087452549 -0.040420666 4278735778
0.0029055662 -0.0095077278 -0.03989014 4278473638
0.0050224215 -0.011072904 -0.038717743 4278472619
0.0074053667 -0.014243501 -0.036261972 4279323553
0.0096795857 -0.016610712 -0.034449201 4280438414
0.011836916 -0.018174674 -0.033278983 4282340713
-0.019938059 -0.025219038 -0.028605873 4282404718
-0.018113317 -0.024373043 -0.029364306 4280439689
-0.016201872 -0.024332829 -0.029479846 4280571014
-0.014290489 -0.024292497 -0.029595295 4280046989
-0.012379177 -0.024252046 -0.02971065 4280046479
-0.01066868 -0.022600215 -0.031109843 4279784338
-0.0091753453 -0.019337308 -0.033791929 4279784849
-0.0080213323 -0.013658152 -0.038397562 4279194013
-0.0066884272 -0.0095906639 -0.041717827 4278998430
-0.0050490387 -0.0079398733 -0.043112382 4278669988
-0.0031926595 -0.0078998841 -0.043223903 4278866338
-0.0012196638 -0.0086650494 -0.042694338 4278408104
0.00099753216 -0.011040495 -0.04088334 4279127204
0.0032309555 -0.013415408 -0.039073259 4279061414
0.0054805987 -0.015789922 -0.037264042 4279454879
0.0076188557 -0.017358854 -0.036096063 4279323808
0.0098982044 -0.019732483 -0.034288447 4280109463
0.011927683 -0.020495756 -0.033761773 4280503438
-0.027559118 -0.027715599 -0.028632265 4282602344
-0.016426546 -0.024243591 -0.031892329 4282144619
-0.014425892 -0.025011286 -0.031366747 4279915663
-0.012712639 -0.023355175 -0.032762971 4279981199
-0.010910038 -0.022506909 -0.033518109 4280242828
-0.0091129467 -0.021658733 -0.03427282 4280046223
-0.0076386631 -0.018387416 -0.036947213 4279979924
-0.0064032003 -0.013501213 -0.040899947 4279193503
-0.0047556683 -0.011845902 -0.042291768 4278670498
0.0036780871 -0.018143311 -0.037626807 4278865063
0.0058134869 -0.019716835 -0.036461946 4279454624
0.0079596564 -0.021289974 -0.035297692 4279651483
0.010116596 -0.022862801 -0.034133952 4280306069
0.012284286 -0.024435231 -0.032970808 4280437648
0.013919972 -0.022779202 -0.034361191 4281294449
-0.014561173 -0.025725478 -0.033134792 4281881969
-0.01275314 -0.024875129 -0.033888724 4280767364
-0.010950625 -0.024024712 -0.034642257 4280439434
-0.0090506449 -0.023984263 -0.034756754 4280308363
-0.0075735562 -0.020704215 -0.037424874 4279980688
-0.0061183162 -0.017424559 -0.040091552 4279914898
-0.0044626519 -0.015764693 -0.041480679 4278865829
-0.0025902241 -0.015724368 -0.041593168 4278733994
-0.0004847087 -0.017303221 -0.040429994 4278603178
0.001631584 -0.018881703 -0.039267436 4278734503
0.0036366358 -0.019650314 -0.038742866 4279454878
0.0057717822 -0.021228187 -0.037581217 4279061414
0.0077902153 -0.021996289 -0.037057288 4279126183
0.010074373 -0.024382886 -0.035259672 4279913113
0.012108907 -0.025150424 -0.034736548 4280700298
0.014013115 -0.025108524 -0.034850288 4281684599
-0.012891106 -0.025582615 -0.035651661 4281815923
-0.011091404 -0.02473015 -0.036403384 4280505224
-0.0091942959 -0.024689782 -0.036517721 4280177548
-0.0075085498 -0.023025203 -0.037905563 4280242828
-0.005942136 -0.020548731 -0.039929353 4279718549
-0.0041699633 -0.019696366 -0.040679056 4279390618
-0.0022895113 -0.019655891 -0.040792048 4279390619
-0.00029262528 -0.020427084 -0.040268775 4279521434
0.0017095953 -0.021198062 -0.039745748 4279389853
0.0035952032 -0.021157101 -0.03985877 4279323554
0.0056053959 -0.021927692 -0.039336063 4279126949
0.0077483319 -0.023509642 -0.038178034 4278340019
0.01003217 -0.025902767 -0.036385238 4280110229
0.012332201 -0.028295361 -0.034593355 4280110993
0.014241729 -0.028253367 -0.034707427 4279194014
-0.011131909 -0.026245341 -0.037525602 4281095038
-0.0093378089 -0.025390726 -0.038275301 4279653013
-0.0076548234 -0.023721814 -0.039659791 4278932129
-0.0058744848 -0.022867236 -0.040408473 4279063198
-0.0040996745 -0.022012664 -0.041156739 4279914898
-0.0022166446 -0.021972138 -0.041269887 4279652758
-0.00045017526 -0.021117508 -0.042017475 4280176529
0.0016683228 -0.022704642 -0.04086151 4280111249
0.0036756955 -0.023477575 -0.04034033 4279849363
0.0058130436 -0.025064113 -0.039185282 4280111248
0.0077064596 -0.025022803 -0.039298639 4280177294
-0.013264012 -0.026167471 -0.039801423 4281095039
-0.011272486 -0.026943857 -0.039281603 4281226619
-0.0094811954 -0.026087109 -0.040029507 4280767874
-0.0076954328 -0.025230307 -0.040777024 4279784594
-0.0060234256 -0.023557259 -0.042157531 4279915663
-0.0041404553 -0.023516843 -0.042270757 4279849363
-0.0021438822 -0.024292517 -0.041750789 4280045968
-0.00025836378 -0.024251822 -0.041864 4280438413
0.0017461888 -0.025027119 -0.04134436 4280504204
0.0037560984 -0.025802214 -0.040824901 4280440964
0.0058959015 -0.027393034 -0.039673295 4281947759
-0.015384752 -0.02608029 -0.042071272 4280241809
-0.0098299496 -0.025141681 -0.043044675 4280767363
-0.0079469606 -0.025101515 -0.043158088 4280439688
-0.0060640462 -0.025061231 -0.043271404 4279980688
-0.0041812174 -0.025020828 -0.043384627 4279718293
-0.002071213 -0.026617073 -0.042234786 4280766344
-6.6753477e-05 -0.027394718 -0.041716807 4281160063
-0.0081982315 -0.024963828 -0.045532562 4282077808
-0.0063209049 -0.024923667 -0.04564555 4280110738
-0.0043328069 -0.025704 -0.045128398 4280766853
-0.0022257827 -0.027304696 -0.04398163 4281815414
0.01136668 -0.029478254 -0.042886034 4282733414
-0.019236028 -0.029171292 -0.04407391 4282666604
-0.0064694546 -0.025600031 -0.047384568 4282733414
-0.0022667088 -0.028810503 -0.045096844 4282537064
0.01105953 -0.029346062 -0.045260414 4281684854
-0.0046355911 -0.02705678 -0.048605964 4281161594
0.010885149 -0.030029513 -0.047002658 4280570248
-0.0068063438 -0.028431581 -0.051957712 4282142323
0.0209985 -0.010415526 0.011720717 4284902188
0.022369742 -0.0021245461 -0.0034410898 4286212889
0.023421951 0.0024979655 -0.0075757261 4285557284
0.024441302 0.0071198232 -0.011708345 4285885469
0.025887549 0.0094517507 -0.013830343 4286212889
0.028097175 0.0079680532 -0.012604417 4286147608
0.030634895 0.0049587451 -0.010040708 4286147099
0.019106165 0.0031690691 -0.010492852 4285426213
0.020875737 0.0039769653 -0.011275385 4285623839
0.022491947 0.005550269 -0.012725726 4285820443
0.023796149 0.0086541697 -0.015511515 4285754399
0.025384754 0.01022711 -0.016960103 4285819679
0.027274132 0.010269389 -0.017072428 4285885468
0.029797867 0.0072510205 -0.014514314 4286147863
0.032504544 0.0034681391 -0.011289975 4285425959
0.012648355 0.0053484328 -0.014622729 4285425193
0.014412891 0.0061581079 -0.015403558 4285491239
0.016171832 0.0069677569 -0.016183984 4285623839
0.018067405 0.0070096813 -0.016297042 4285689374
0.020107761 0.0062840302 -0.015743256 4285755164
0.021858044 0.0070938021 -0.016522929 4285952024
0.02345226 0.0086711496 -0.01796867 4286148629
0.025035448 0.010248296 -0.019413643 4285556518
0.026919253 0.010290451 -0.019525636 4285622564
0.029120021 0.0087980218 -0.0183056 4285754399
0.0314928 0.0065385588 -0.016420301 4285820188
0.03437376 0.0019778945 -0.01253894 4285558304
0.0091887973 0.0014321525 -0.013524236 4285949474
0.010310765 0.0060948264 -0.017634347 4285425958
0.011667911 0.0092167407 -0.020410787 4286016539
0.013550039 0.0092581473 -0.020523217 4286082073
0.015432023 0.0092996806 -0.020635534 4285885724
0.017598189 0.0078015104 -0.019417126 4285754653
0.0197751 0.0063036419 -0.018199231 4285689119
0.021815106 0.005575927 -0.01764695 4285689119
0.023258992 0.0079273582 -0.019754287 4286214929
0.024686381 0.010278452 -0.02186054 4286082838
0.026253045 0.011859741 -0.023301255 4286083348
0.02828417 0.01113224 -0.022748139 4286083348
0.030481808 0.0096354149 -0.021531049 4285754654
0.033018023 0.0066001397 -0.018986441 4285624094
0.035742514 0.0027960707 -0.015779193 4285492259
0.0068594888 0.0021792278 -0.016536053 4285097773
0.0082469881 0.0053103063 -0.019307997 4285492514
0.0096125603 0.0084409826 -0.022078499 4285885724
0.011090137 0.010799058 -0.024183456 4285951004
0.013097908 0.01006804 -0.023631178 4286082329
0.015250381 0.008565072 -0.022415217 4286345744
0.017413579 0.0070624873 -0.02119986 4285754398
0.019587502 0.005560251 -0.019985059 4285688863
0.021624602 0.0048302524 -0.019434176 4285689373
0.023216113 0.0064162668 -0.020873275 4285820698
0.024643563 0.0087739341 -0.022974651 4286149139
0.026210226 0.010359589 -0.024412123 4286148374
0.028082728 0.010401629 -0.024523348 4285755164
0.0301162 0.0096720904 -0.023971923 4285623583
0.032154962 0.0089427382 -0.023420688 4285754909
0.034198962 0.0082136206 -0.022869755 4285623839
0.037264198 0.0028558914 -0.018346444 4285492258
0.04071144 -0.0040437542 -0.01250142 4285491239
0.0045470372 0.0029400699 -0.019538857 4285229863
0.0060632043 0.0053051971 -0.021641515 4285427489
0.0076913461 0.0068954825 -0.023080155 4285886488
0.0094396099 0.0077111796 -0.023855347 4285754399
0.010914516 0.010075703 -0.025955243 4285490984
0.01291937 0.0093424693 -0.025404386 4285688098
0.014929518 0.0086094476 -0.024853773 4285819933
0.017087027 0.0071023479 -0.023641262 4285820189
0.019110478 0.0063698366 -0.023091286 4285689374
0.021139212 0.0056375396 -0.022541549 4285623839
0.022872791 0.006453611 -0.02331527 4285558303
0.024600744 0.0072696544 -0.024088588 4285624093
0.026167415 0.0088596791 -0.025522817 4285624348
0.028198168 0.0081278384 -0.024972893 4285690139
0.030073091 0.0081700347 -0.025084186 4285623838
0.031947829 0.0082123056 -0.025195405 4285754909
0.033489287 0.0098020956 -0.026627816 4285820699
0.035866007 0.0075234547 -0.024757065 4285753634
0.0045053586 0.001425093 -0.020660823 4285755419
0.0058959201 0.0045735836 -0.023420066 4285492768
0.007521309 0.0061682276 -0.024855331 4285820698
0.0092667751 0.0069859996 -0.025628697 4286083094
0.011006653 0.0078037791 -0.02640163 4285951513
0.012740947 0.0086215176 -0.027174169 4285951768
0.01460892 0.0086627565 -0.027285641 4286017303
0.016476728 0.0087041035 -0.027397025 4285820444
0.018489107 0.0079691745 -0.026847994 4285689374
0.020506762 0.0072344653 -0.026299208 4285624094
0.022679865 0.005723672 -0.025090629 4285624349
0.024557918 0.0057656541 -0.025202317 4285558559
0.026435792 0.0058077257 -0.025313925 4285558814
0.028313495 0.0058499034 -0.02542544 4285558559
0.030029967 0.0066682175 -0.026196271 4285624093
0.031577058 0.0082624033 -0.027625844 4286017814
0.032946587 0.010632358 -0.029713761 4286082329
0.034976445 0.0098986626 -0.029165078 4286147354
0.037527323 0.006837897 -0.026640587 4286212379
0.040798359 0.00067481585 -0.021483054 4285818404
0.0048322827 -0.0024266895 -0.019802548 4285557028
0.0061055198 0.0015096515 -0.023215676 4285688099
0.0074797124 0.0046665929 -0.025967395 4285492258
0.0090940595 0.0062654167 -0.027398642 4285754908
0.010563616 0.0086429417 -0.029488547 4286214674
0.012426142 0.0086839795 -0.029599756 4285951004
0.014288545 0.0087250918 -0.029710898 4286083093
0.016292714 0.0079876557 -0.029163036 4285689373
0.018157527 0.0080290362 -0.029274164 4285623838
0.020022176 0.0080705434 -0.029385183 4285623584
0.022186853 0.0065552592 -0.02817937 4285689629
0.024209447 0.0058186725 -0.027632352 4285624094
0.025926217 0.0066389553 -0.028401673 4285624094
0.027795643 0.0066809282 -0.028512709 4285623838
0.029503904 0.0075012036 -0.029281382 4285820443
0.031206541 0.0083214417 -0.030049661 4285754653
0.032570697 0.010697845 -0.03213238 4285622818
0.034594938 0.0099618696 -0.031585034 4285885724
0.036796302 0.0084481128 -0.030380806 4286082839
0.039706677 0.0038231667 -0.026549421 4285623584
0.043004096 -0.0023566354 -0.02140631 4285360933
0.0050360486 -0.0055101495 -0.019612137 4285491239
0.0064404272 -0.0023439322 -0.022359271 4285425704
0.0075663738 0.0023840927 -0.02642115 4285426724
0.0087904893 0.0063304938 -0.029823065 4285558559
0.010254644 0.0087144487 -0.031907789 4285624094
0.011975173 0.0095362663 -0.03267625 4285623583
0.014107563 0.008015506 -0.031472046 4285623838
0.016108818 0.0072758831 -0.030925665 4285689118
0.017826185 0.0080979466 -0.031693701 4285689119
0.019537956 0.0089199804 -0.032461338 4285754909
0.021694213 0.00740017 -0.031258248 4285820699
0.023708463 0.0066611916 -0.030712297 4285689374
0.025572501 0.0067029595 -0.030823076 4285755164
0.02727814 0.0075253174 -0.031590082 4285755163
0.029139116 0.0075672045 -0.03170054 4285886488
0.03067261 0.0091698132 -0.033122823 4286148883
0.03202869 0.011552557 -0.035200223 4285688354
0.034044608 0.01081422 -0.034653999 4285688864
0.036409363 0.0085158162 -0.032797009 4285688608
0.038964778 0.0054377858 -0.030285617 4285885979
0.041364521 0.0031403415 -0.028430579 4285492513
0.044500187 -0.0022764038 -0.023956457 4285557794
0.0077811107 -0.00068573281 -0.026221523 4285491493
0.0087490007 0.0048381016 -0.030928275 4285427234
0.0099459104 0.008794941 -0.03432044 4285493279
0.011933662 0.008052595 -0.033774979 4285624603
0.013926707 0.007310506 -0.033229802 4285624603
0.015925061 0.006568633 -0.032684866 4285689374
0.01763963 0.0073928311 -0.03345111 4285820698
0.019201361 0.0089998879 -0.034872308 4286148628
0.021051988 0.0090411603 -0.034982439 4286082584
0.023055166 0.008299768 -0.03443744 4286149138
0.024908192 0.0083413161 -0.034547545 4285754909
0.026919179 0.0076003335 -0.034002911 4285689119
0.028774582 0.0076421052 -0.034113027 4285623839
0.030466244 0.0084664524 -0.034877419 4286083858
0.031985976 0.010073237 -0.036295626 4285951258
0.034001708 0.0093327314 -0.035751 4285951513
0.0360227 0.0085924044 -0.035206564 4286214418
0.038397849 0.0062878262 -0.033355031 4286018324
0.040434793 0.0055480115 -0.032811429 4285558559
0.043556318 0.00011570379 -0.02834779 4285493023
0.0067329071 -0.0077329818 -0.02263999 4285098029
0.0081237406 -0.0045495108 -0.025373276 4285623074
0.0092309453 0.00020438619 -0.02941459 4285623583
0.01017176 0.0057429932 -0.034108315 4285427234
0.011755839 0.007354483 -0.035527918 4285559069
0.013606951 0.0073953718 -0.03563837 4285624604
0.015599664 0.0066511706 -0.035094664 4285689628
