# .PCD v0.7 - Point Cloud Data file format
VERSION 0.7
FIELDS x y z rgba
SIZE 4 4 4 4
TYPE F F F U
COUNT 1 1 1 1
WIDTH 957
HEIGHT 1
VIEWPOINT 0 0 0 1 0 0 0
POINTS 957
DATA ascii
-0.026034322 -0.0052271234 0.047000386 4286986303
-0.022311062 -0.00287442 0.044747882 4290256423
-0.020193342 -0.0035929144 0.045315303 4290714149
-0.017850004 -0.005826938 0.047236554 4286594369
-0.015829049 -0.0057870606 0.047126427 4286071108
-0.013808236 -0.0057470677 0.047016405 4285940548
-0.01190589 -0.0049492205 0.046229884 4286267458
-0.010009136 -0.0041514174 0.045443788 4286790973
-0.0081179962 -0.0033535981 0.044658102 4287836983
-0.0063589662 -0.00179826 0.043196678 4291303199
-0.0043525472 -0.0017579654 0.04308787 4290583334
-0.0022143424 -0.0024750074 0.043654948 4287313979
0.00033319741 -0.0054639736 0.046248861 4287510074
0.0024901405 -0.0061803935 0.046815112 4286332994
0.0045122057 -0.0061393501 0.046705782 4286595134
0.0063912123 -0.0053409962 0.045921318 4286529344
0.0082645863 -0.0045425934 0.045137212 4286006339
0.010132313 -0.0037442711 0.044353515 4289929769
0.01214543 -0.0037029819 0.044244982 4290910498
0.014619604 -0.0059325742 0.046160482 4289341229
0.021005385 -0.0073209582 0.047182731 4286071364
0.026061103 -0.0026546605 0.042813912 4290059563
0.028069712 -0.0026126783 0.042706214 4290452008
0.030429177 -0.0040836879 0.043945491 4291172639
0.032977529 -0.0063108904 0.045857638 4289537068
-0.028381962 -0.004600367 0.043885171 4288229173
-0.02656984 -0.0030407403 0.042423189 4288883759
-0.024870634 -0.00072105415 0.040286116 4289930788
-0.022769362 -0.0014421567 0.040852733 4289407528
-0.020662766 -0.0021630451 0.041419141 4290127139
-0.018550832 -0.0028836913 0.041985363 4290323743
-0.016433567 -0.0036041685 0.042551413 4289277224
-0.014426533 -0.0035644402 0.042442143 4289538853
-0.012301363 -0.0042844587 0.04300791 4289604388
-0.010412883 -0.0034846296 0.042223893 4289669669
-0.0086537413 -0.0019249581 0.040765613 4289735203
-0.0069056526 -0.00036544167 0.039308049 4290585373
-0.0049102753 -0.00032537617 0.039199837 4290716443
-0.002915062 -0.00028518401 0.039091736 4290454813
-0.00038150698 -0.0032831491 0.041679926 4289932063
0.0017616004 -0.0040020146 0.042245306 4289866274
0.0037699118 -0.003961232 0.042136736 4289473573
0.0056352243 -0.0031609572 0.041354656 4289997089
0.0074949116 -0.0023606382 0.040572919 4289539108
0.0093489289 -0.001560377 0.039791606 4290847769
0.011499286 -0.0022785719 0.040356986 4290782233
0.013654873 -0.0029965974 0.04092221 4290651163
0.015972093 -0.0044734669 0.042160057 4289931554
0.018140875 -0.0051909895 0.042724669 4289669923
0.020152994 -0.0051492755 0.042616524 4289539618
0.021671154 -0.0028306879 0.040491156 4289735204
0.023172751 -0.00051231682 0.03836669 4289473573
0.02516789 -0.00047068857 0.038259655 4290650909
0.027162798 -0.00042898022 0.038152695 4290258463
0.029508419 -0.0019046012 0.039389513 4290388768
0.032042891 -0.0041386248 0.041297548 4289537833
0.034774378 -0.0071308021 0.04387635 4287706169
-0.028806869 -0.0031584613 0.039994881 4288294963
-0.027203955 -6.9806352e-05 0.037188031 4289407529
-0.025317401 0.00073136203 0.036405146 4289081128
-0.023331825 0.00077018142 0.036296688 4289015593
-0.021239065 4.687719e-05 0.036862254 4289670179
-0.019140977 -0.00067622587 0.037427604 4289931553
-0.016924787 -0.0021613017 0.038666412 4290128158
-0.014813319 -0.0028838944 0.039231218 4289735714
-0.012814745 -0.0028442014 0.039122507 4289801504
-0.010937266 -0.0020423718 0.03834074 4290193693
-0.0091890581 -0.0004785601 0.03688629 4289735459
-0.0073255077 0.00032320432 0.036105439 4289081384
-0.0053384416 0.00036313012 0.035997696 4289670179
-0.0030878782 -0.0011203941 0.037235208 4290324254
-0.00082654506 -0.0026036724 0.038472235 4290128158
0.0011709034 -0.002563186 0.038364194 4289997344
0.0033082068 -0.003284229 0.038928367 4289670433
0.0050225258 -0.0017203558 0.037476376 4289997599
0.0070167035 -0.001679631 0.037368737 4290259229
0.0088624805 -0.00087728165 0.036589466 4288950568
0.010853551 -0.00083641149 0.036482155 4289408549
0.013151698 -0.0023181643 0.037717767 4290586393
0.015304171 -0.0030382704 0.038281582 4290324764
0.017461881 -0.0037581716 0.038845189 4289997599
0.019462995 -0.0037166979 0.038737632 4289997343
0.020970315 -0.0013917647 0.036617726 4289997599
0.02262833 0.00017190166 0.0351694 4290259229
0.024615191 0.00021336414 0.03506282 4289539364
0.026429132 0.0010158718 0.034285948 4289473828
0.028939061 -0.0012252536 0.036190398 4289997088
0.031286955 -0.0027050897 0.037423924 4288819753
0.034368925 -0.0072277579 0.041336738 4289014574
-0.029038664 -0.0032281615 0.037463509 4288360499
-0.027441137 -0.00013090856 0.034663498 4289734693
-0.025458336 -9.2247501e-05 0.034555107 4290193439
-0.023580175 0.00071111321 0.033774361 4289997088
-0.021385819 -0.00077899359 0.035010941 4289931553
-0.019290652 -0.0015043132 0.035574846 4290913304
-0.017077461 -0.0029937513 0.036810555 4290063134
-0.015084352 -0.0029542781 0.036702059 4289997854
-0.012855053 -0.0044432152 0.03793709 4289801503
-0.011098556 -0.0028749555 0.036485374 4289997599
-0.0093531013 -0.0013068747 0.035034359 4291044374
-0.0076186955 0.00026111305 0.033584043 4290455069
-0.0056372322 0.00030094571 0.033476613 4290062368
-0.0032605678 -0.0019510221 0.035382159 4290716698
-0.0010022148 -0.0034386981 0.036616124 4290193694
0.00099237263 -0.0033982396 0.036508255 4289866274
0.0031267479 -0.0041215234 0.03707096 4289735459
0.004695639 -0.0017895382 0.034951963 4290193439
0.0065388232 -0.00098521821 0.03417442 4290847513
0.0082282349 0.0005827453 0.032727189 4290389533
0.010359146 -0.00014017522 0.033290409 4290390043
0.012648873 -0.0016264003 0.034523204 4290390299
0.014949292 -0.0031123459 0.035755545 4290651928
0.016942367 -0.0030711163 0.035648361 4289932574
0.018935181 -0.0030297823 0.035541266 4289997853
0.020434394 -0.00069841743 0.033426628 4289866784
0.02225145 0.00010616519 0.032651089 4291109909
0.024062835 0.00091071893 0.031875908 4290455578
0.02604118 0.00095212366 0.031769872 4290390043
0.02854538 -0.0012955926 0.033669747 4290128159
0.030887626 -0.0027799346 0.03490039 4289996324
0.033782907 -0.0065528322 0.038135491 4288818223
-0.029173959 -0.0040556975 0.035610162 4288098868
-0.027579106 -0.00094973855 0.032816738 4289800229
-0.025700923 -0.00014436804 0.032037549 4290455069
-0.023828309 0.00066100713 0.031258754 4290455069
-0.021746866 -6.6872686e-05 0.031821705 4290520859
-0.019660085 -0.00079452526 0.032384455 4290520603
-0.017455321 -0.0022885315 0.033617422 4289801248
-0.015585925 -0.0014827121 0.032839179 4289539874
-0.013367794 -0.0029761754 0.03407155 4289670688
-0.011501402 -0.0021701939 0.033293627 4289343524
-0.009764161 -0.00059783924 0.031846285 4290716954
-0.0077853985 -0.00055818539 0.031738922 4290978328
-0.0058068037 -0.00051838066 0.031631671 4290716698
-0.0034331679 -0.0027769823 0.033532567 4290716698
-0.0013122484 -0.0035029068 0.034094244 4289931553
0.00053957105 -0.0026965365 0.033317618 4289669924
0.0026655793 -0.0034221536 0.033879176 4289342758
0.0045116022 -0.0026156753 0.033103034 4289669924
0.0063519925 -0.0018092142 0.032327272 4290127903
0.0080386698 -0.00023689028 0.030883403 4290978328
0.009865053 0.00056950375 0.030108558 4291175189
0.012146384 -0.00092130061 0.03133861 4290848023
0.014438383 -0.0024117101 0.032568142 4290193949
0.016741082 -0.0039018127 0.03379716 4290063389
0.018407702 -0.0023294603 0.032354772 4290128668
0.020227648 -0.0015227189 0.031580634 4289801248
0.021874763 4.9478374e-05 0.030139403 4290324509
0.023850515 9.0750866e-05 0.030033445 4291044374
0.025826037 0.00013211649 0.029927572 4290978838
0.028151952 -0.0013570013 0.031155793 4290781978
0.030488506 -0.0028457409 0.032383487 4290061858
0.033197194 -0.0058645024 0.03494411 4289995559
0.035743952 -0.0081176423 0.036837094 4286201668
-0.029212907 -0.0056476421 0.0344299 4287510584
-0.027519021 -0.0033019851 0.032312497 4289538854
-0.025739919 -0.0017254036 0.030865399 4289081128
-0.023971818 -0.00014896505 0.029419033 4289931553
-0.021786164 -0.0016478784 0.030649597 4289408549
-0.019809462 -0.0016089343 0.030541843 4290062879
-0.01760767 -0.0031073606 0.031771727 4289604643
-0.01585643 -0.0015307032 0.030326614 4289539874
-0.013643999 -0.0030286843 0.0315561 4289736224
-0.011783145 -0.0022205701 0.030780075 4289670178
-0.0098043792 -0.0021810019 0.030672641 4289932064
-0.008078225 -0.00060442369 0.029229278 4289604899
-0.0061052106 -0.00056474376 0.029122325 4289539108
-0.0038690194 -0.0020616064 0.030350922 4290193693
-0.0017564669 -0.0027899193 0.030911474 4289670178
0.00022423267 -0.0027497308 0.030804368 4289539108
0.0023446009 -0.0034776269 0.03136462 4289474084
0.0041851029 -0.0026690708 0.030590402 4289146919
0.0060199499 -0.001860478 0.029816536 4290062879
0.0077011585 -0.00028393324 0.02837625 4290324509
0.0095220506 0.0005245246 0.027603323 4289866529
0.011644207 -0.00020278897 0.028163878 4290128413
0.013927825 -0.0016977405 0.029390616 4289997598
0.016063221 -0.0024246303 0.029950647 4290259483
0.018042184 -0.0023835609 0.029844312 4290128158
0.020020984 -0.0023423908 0.02973807 4290259229
0.021832466 -0.001533485 0.028966052 4289932064
0.023808114 -0.0014922014 0.028860105 4289997344
0.025783524 -0.0014508171 0.028754255 4289735713
0.02775871 -0.0014093621 0.028648471 4289800738
0.029911652 -0.0021352479 0.029208032 4289342759
0.032611832 -0.0051628384 0.031762615 4289407529
0.035150163 -0.0074226777 0.033651203 4289603369
-0.030868746 -0.010362998 0.036031634 4286202434
-0.029251862 -0.0072392761 0.033249877 4286595134
-0.027656883 -0.0041158735 0.030469401 4289342503
-0.026083827 -0.00099280197 0.027690271 4289408549
-0.024219591 -0.00018316507 0.026915146 4289474084
-0.022253826 -0.00014455244 0.026807902 4289604899
-0.020178355 -0.0008768132 0.027368085 4289408549
-0.018210098 -0.0008379044 0.02726089 4289735714
-0.016241975 -0.00079888944 0.027153781 4289735713
-0.014037989 -0.0023013195 0.028380467 4290063134
-0.01206468 -0.0022619693 0.028273249 4289670178
-0.010091513 -0.0022225054 0.028166128 4289866528
-0.0082446635 -0.0014122892 0.027392706 4289408549
-0.0062745176 -0.0013726521 0.02728592 4289474083
-0.0043045245 -0.0013329089 0.027179224 4289016103
-0.0022003502 -0.0020635063 0.027738584 4289343269
-0.00022796541 -0.0020234818 0.027631933 4289539363
0.0020238236 -0.0035240417 0.028856704 4289604899
0.0040013269 -0.003483708 0.028749926 4289604899
0.0059786215 -0.0034432551 0.028643249 4289931808
0.0075118691 -0.0010921843 0.026540978 4289800993
0.0090285689 0.0012587132 0.02443964 4290586138
0.011142388 0.00052905828 0.024999037 4290389788
0.01326146 -0.00020045321 0.025558248 4289735969
0.015703477 -0.0024695825 0.027446514 4289801249
0.017676912 -0.0024286173 0.027340485 4289997343
0.019814432 -0.0031573949 0.027898895 4290390044
0.021790162 -0.0031161839 0.027792891 4290259229
0.023935437 -0.0038446495 0.028351067 4289866784
0.025568545 -0.0022638217 0.026917225 4290193694
0.027540907 -0.0022224188 0.026811594 4290389533
0.029513046 -0.0021809153 0.02670606 4289539108
0.032026842 -0.0044478914 0.028591039 4289146153
0.034740053 -0.0074838675 0.03113856 4286594878
-0.027794637 -0.0049251541 0.028629797 4289211688
-0.026122656 -0.0025666924 0.026523417 4289539364
-0.024362832 -0.00098163541 0.025083952 4290913304
-0.022399943 -0.00094308797 0.024976859 4291044119
-0.020546935 -0.00013127737 0.024204202 4290913304
-0.01836203 -0.0016386751 0.025428513 4289539364
-0.016396783 -0.0015997142 0.025321564 4289866528
-0.014313709 -0.0023336308 0.025879992 4289801503
-0.012466669 -0.0015214272 0.025107963 4289735713
-0.010378424 -0.0022550067 0.025666282 4289997343
-0.0085371174 -0.0014426708 0.02489475 4290586393
-0.0064437203 -0.00217593 0.025452951 4291306004
-0.0046081692 -0.0013634954 0.024681887 4290913559
-0.0025096238 -0.0020964211 0.025239982 4290259484
-0.0005428195 -0.0020565083 0.02513363 4289474339
0.0017032847 -0.0035615275 0.026355481 4289735969
0.0038176477 -0.0042937696 0.026912915 4289604898
0.0057921112 -0.0042533707 0.026806397 4289932064
0.0073226616 -0.0018957807 0.02470915 4289866529
0.0089873075 -0.00031070132 0.023276284 4291371538
0.0109476 -0.00027028751 0.023170758 4291044628
0.012907684 -0.00022976939 0.023065321 4291240723
0.015185192 -0.0017334698 0.024286052 4289670178
0.017150342 -0.0016926797 0.02418047 4290390044
0.019443743 -0.0031958008 0.025400458 4290259483
0.021413907 -0.0031546904 0.025294764 4290258973
0.023383893 -0.0031134905 0.025189154 4289932319
0.02535364 -0.0030722087 0.025083618 4291371538
0.027323179 -0.0030308599 0.024978146 4291175188
0.029292479 -0.0029893937 0.024872776 4290847769
0.031622723 -0.0044912426 0.026091164 4290389534
0.034330167 -0.0075360434 0.028632523 4288491313
0.037059143 -0.010580295 0.031172806 4286006083
-0.029714078 -0.0073193545 0.028231202 4287248698
-0.028031092 -0.0049542785 0.026128976 4289342504
-0.026466094 -0.0018138643 0.023363212 4289212199
-0.024610221 -0.0010000737 0.022591826 4289997599
-0.022759933 -0.0001862105 0.02182081 4289474083
-0.020805486 -0.0001476733 0.021714292 4290848023
-0.018738717 -0.00088434014 0.022271801 4289997599
-0.01666664 -0.0016207304 0.022829076 4289670178
-0.014707103 -0.0015817415 0.022722542 4289866784
-0.012747709 -0.0015426483 0.022616094 4289670433
-0.010911793 -0.00072841067 0.021846419 4290193694
-0.0089553967 -0.00068914518 0.02174031 4289866784
-0.0068703815 -0.0014246888 0.022297321 4290193949
-0.004911568 -0.0013851374 0.022191253 4290259484
-0.0030871481 -0.00057066977 0.021422544 4290586648
-0.00085747242 -0.0020804899 0.022641964 4290063134
0.001382947 -0.0035900143 0.023860933 4289735969
0.0034916848 -0.0043245344 0.024417063 4289866784
0.0053154379 -0.0035096486 0.023648711 4290324763
0.0069856942 -0.0019201962 0.022218704 4289539618
0.0087954774 -0.0011053858 0.021451263 4289997853
0.010906212 -0.0018394282 0.022007611 4290455834
0.012866177 -0.0017989008 0.021902191 4291109909
0.01498469 -0.0025326088 0.022458248 4289866784
0.016785547 -0.0017175917 0.021691578 4290063134
0.019073293 -0.003225232 0.022908675 4290128668
0.020870984 -0.0024100356 0.022142282 4290259228
0.023002326 -0.0031431494 0.022697968 4290651928
0.024449483 -0.00077982899 0.020610673 4289670433
0.026580378 -0.0015127119 0.021166487 4290063389
0.028538711 -0.0014714953 0.021061691 4290455834
0.031038351 -0.0037517953 0.02293775 4289277224
0.033554062 -0.0060316427 0.024812957 4288752943
-0.029944871 -0.0073459083 0.025731895 4286202434
-0.028366078 -0.0041966275 0.022971766 4288884268
-0.02670772 -0.0018253429 0.020875785 4290258718
-0.024961613 -0.00023185182 0.019443609 4289081638
-0.023012657 -0.00019354839 0.019337298 4288820009
-0.021063816 -0.00015512761 0.019231083 4289081638
-0.018890329 -0.0016714679 0.02044954 4289866784
-0.016821168 -0.002410125 0.021005407 4289866784
-0.014864501 -0.0023712013 0.020899024 4289474339
-0.013028543 -0.0015548347 0.020130854 4289539618
-0.011198159 -0.00073849782 0.019363122 4290651673
-0.0093733668 7.781852e-05 0.018595763 4289932063
-0.0072967149 -0.00066006556 0.019151611 4288885544
-0.0053462163 -0.00062069297 0.019045986 4288885289
-0.0032616854 -0.0013581952 0.019601574 4289343268
-0.0013087764 -0.0013185376 0.019495996 4290128413
0.00092320889 -0.0028325981 0.02071218 4289800993
0.0028812513 -0.0027926182 0.020606484 4289866784
0.0046940297 -0.0019757692 0.01984035 4290390299
0.0065011904 -0.0011588903 0.019074554 4290128158
0.0084532425 -0.0011187224 0.018969411 4288688939
0.010558352 -0.0018551052 0.019524485 4288819753
0.012668714 -0.0025912346 0.020079305 4289539364
0.014784314 -0.0033271634 0.020633915 4290258974
0.016582385 -0.0025100196 0.019869016 4290063134
0.018703043 -0.0032456391 0.020423507 4290128668
0.020495273 -0.0024284245 0.019659067 4290063134
0.02228184 -0.001611229 0.018895002 4290979094
0.023890465 -1.7810613e-05 0.017472206 4289212708
0.025838032 2.3100525e-05 0.017367927 4289081893
0.027963109 -0.00071199518 0.017922498 4289147429
0.030273862 -0.0022229673 0.019135529 4289211689
0.032961592 -0.0052855867 0.021665014 4289865253
-0.028602052 -0.0042055757 0.020485906 4288491313
-0.027151983 -0.00026818737 0.017072549 4290585628
-0.025208518 -0.00023012795 0.016966436 4290455324
-0.023372043 0.00058785081 0.016199429 4290585883
-0.021321926 -0.00015360676 0.01675453 4290389789
-0.01915415 -0.0016743941 0.017970076 4290651163
-0.016975593 -0.0031948402 0.019185135 4289408549
-0.01513958 -0.0023764502 0.018418539 4289277479
-0.013188653 -0.0023375247 0.018312553 4289343014
-0.011484306 -0.0007396806 0.016886499 4290389533
-0.0096650496 7.8709796e-05 0.016121067 4290586139
-0.0078513883 0.0008971449 0.015355974 4290520604
-0.0057805255 0.00015704706 0.015910653 4290782233
-0.0037043542 -0.00058279559 0.016465077 4290586394
-0.0014860854 -0.0021015331 0.017678658 4290128159
0.00046381354 -0.0020618364 0.017573318 4289997089
0.0024135411 -0.0020220112 0.017468084 4289342758
0.0042180717 -0.0012031468 0.016704017 4289539363
0.0061647519 -0.0011632079 0.016599076 4290716954
0.0081112161 -0.0011231331 0.016494256 4291043863
0.0102107 -0.0018617716 0.017047966 4291109398
0.012159526 -0.0018214602 0.016943155 4290848024
0.014425442 -0.0033384487 0.018154815 4290390044
0.016379327 -0.0032978281 0.018049883 4289670689
0.01833304 -0.0032571405 0.017945016 4289605154
0.019952975 -0.0016593169 0.01652471 4289605154
0.02190084 -0.0016185567 0.016420299 4290782743
0.023159586 0.0015358906 0.013686147 4291044629
0.025271103 0.00079821423 0.014239814 4290847768
0.027210213 0.00083904155 0.014136057 4290848024
0.029870629 -0.0022328915 0.016660431 4291044884
0.03236948 -0.004526196 0.01852688 4289016614
0.035627738 -0.009931515 0.023019454 4288425778
-0.028936453 -0.0034234179 0.017346868 4289211433
-0.027291704 -0.0010393187 0.01526135 4289539109
-0.025455222 -0.00021933019 0.014495913 4289800993
-0.023517463 -0.00018125586 0.014390206 4289931554
-0.021689367 0.00063880719 0.0136254 4289735204
-0.01964229 -0.00010470487 0.014179112 4289669924
-0.017589893 -0.00084798783 0.014732625 4289342758
-0.015414424 -0.0023727845 0.015944736 4289211943
-0.013589535 -0.0015523396 0.015180439 4289343269
-0.011770234 -0.00073182955 0.014416499 4289604644
-0.010208298 0.0016516708 0.01233634 4289735459
-0.008276999 0.0016905721 0.012231693 4290062369
-0.0062144995 0.0009481702 0.012785163 4289473319
-0.0038785636 -0.0013567526 0.014654245 4289342248
-0.0018000379 -0.0020986218 0.015207002 4289669924
0.00014427304 -0.0020590145 0.01510198 4289539108
0.0019461885 -0.00123813 0.014339598 4289474083
0.0037424788 -0.00041719154 0.013577567 4289604898
0.0056808367 -0.00037740543 0.013473088 4289539108
0.0074686334 0.00044349208 0.012711696 4290062624
0.0092507899 0.0012644008 0.011950694 4289997089
0.011339024 0.00052344985 0.012503464 4289669924
0.013591088 -0.00099814869 0.013712656 4289604899
0.015692547 -0.0017386153 0.014264869 4289605154
0.017635241 -0.0016981531 0.014160594 4289605408
0.019411027 -0.00087689981 0.013400292 4289671453
0.02135063 -0.00083632581 0.013296315 4289867294
0.022945687 0.00076552667 0.011880726 4289997343
0.024704538 0.0015866896 0.011121523 4290520858
0.026457757 0.0024078051 0.010362678 4290390043
0.029106982 -0.00067312829 0.012881218 4289212453
0.031594671 -0.0029731449 0.014743375 4289081384
0.034841537 -0.0083939238 0.019225249 4290452774
-0.029171936 -0.0034122234 0.014875939 4288426034
-0.027633946 -0.00023749471 0.012137547 4288884013
-0.029702816 -0.0010327017 0.010441864 4281747073
-0.028279658 0.002936841 0.0070542581 4279715743
-0.02646789 0.0037606824 0.0062933909 4280502419
-0.024661675 0.0045845406 0.0055329204 4280434589
-0.022970445 0.0061946101 0.0041168574 4280433823
-0.021065906 0.0062322784 0.0040131453 4280895119
-0.019046597 0.005483998 0.0045652343 4280568464
-0.016786743 0.0031638639 0.0064281989 4279847578
-0.014751326 0.0024160594 0.0069796015 4279651484
-0.012956716 0.0032404466 0.0062202523 4279782555
-0.011293452 0.0048506353 0.0048062103 4280305813
-0.0078688189 0.0072849952 0.0026349598 4279383989
-0.0057001263 0.0057520475 0.003841484 4279056313
-0.0035206974 0.0042194761 0.0050474694 4280108954
-0.0016093329 0.0042583942 0.0049442137 4279847834
0.00030188262 0.0042974409 0.004841065 4279585693
0.0022129267 0.0043365806 0.0047379965 4279389089
0.0041238293 0.0043758135 0.0046350062 4279388834
0.0058842674 0.0052005183 0.0038783308 4280566678
0.009232536 0.0076351892 0.0017125891 4279185853
0.011290312 0.0068893395 0.002263898 4280565149
0.013675652 0.0045734346 0.0041213268 4279848089
0.01574938 0.003828126 0.0046718633 4279585693
0.01766175 0.0038680537 0.0045692893 4279716509
0.019573919 0.0039080894 0.0044668065 4279847579
0.021313846 0.0047331117 0.0037117852 4279978394
0.023048133 0.0055581164 0.0029571392 4278793409
0.024776794 0.0063830502 0.0022028326 4278988228
0.026860237 0.0056384839 0.0027532456 4279579829
0.029314771 0.0033246763 0.0046075219 4280698259
0.032713629 -0.0029118983 0.0097203702 4280765069
0.03615579 -0.009147522 0.014831005 4282339438
-0.030036185 -0.00020840298 0.0073341439 4280634253
-0.028621081 0.0037718518 0.0039550578 4278930598
-0.026921526 0.0053862594 0.0025415677 4278798764
-0.025339615 0.007788932 0.0004742723 4278271168
-0.023555402 0.0086146947 -0.00028333627 4278532544
-0.019429475 0.0063247792 0.001473113 4279650974
-0.01729564 0.0047861077 0.0026777936 4278996389
-0.015391603 0.0048241373 0.0025743851 4278996389
-0.013610698 0.005650403 0.0018173787 4278799784
-0.011961091 0.0072646942 0.00040733209 4279257509
-0.0084326155 0.0089170933 -0.0011044007 4278794173
-0.0065428615 0.0089553855 -0.0012066255 4278400708
-0.0022064224 0.0058811232 0.0012001949 4278799273
-0.00016415119 0.0051321648 0.0017502662 4279192739
0.0015937984 0.005958844 0.00099515542 4278668969
0.0033461675 0.0067854729 0.00024046609 4278602668
0.0069870353 0.0076511595 -0.00061579281 4278403514
0.012990512 0.0061943308 0.00038203644 4278799019
0.015053175 0.0054465849 0.00093159731 4278865319
0.016787983 0.0062735472 0.00017829705 4278734249
0.018517174 0.0071004312 -0.00057460042 4278406063
0.020412721 0.007140208 -0.00067612389 4278995368
0.031557888 0.00025878102 0.0046697119 4279454623
0.035171464 -0.0067813578 0.010418432 4279193503
-0.030467663 0.0014200332 0.0035829134 4280437648
-0.029063344 0.0054109395 0.00021248823 4278471599
-0.027270835 0.0062387716 -0.00054408284 4278930853
-0.025590491 0.0078572631 -0.0019532081 4279062689
-0.023811817 0.0086850431 -0.0027088614 4278537388
-0.019812021 0.007178871 -0.0016091412 4278799273
-0.017804109 0.0064260866 -0.0010595364 4278603434
-0.015911106 0.0064638779 -0.001162359 4278538154
-0.01414118 0.0072921067 -0.0019171473 4278472108
-0.010618035 0.0089484863 -0.0034254775 4279126948
-0.0088648349 0.0097766723 -0.004179067 4278930853
-0.0049655177 0.0090630148 -0.0037312577 4279060138
-0.002942346 0.008311443 -0.0031818801 4278929579
-0.0010558963 0.0083499756 -0.003283699 4278537898
0.00097513944 0.0075987633 -0.0027345989 4278668459
0.0044523627 0.0092558805 -0.0042392067 4279126183
0.0063354447 0.0092947576 -0.0043405364 4279126948
0.008062765 0.010123329 -0.005092049 4279191973
0.010259449 0.0085831918 -0.0038928797 4279191208
0.012305811 0.0078328829 -0.0033441677 4278471088
0.014521211 0.0062932801 -0.0021458201 4278733994
0.016414307 0.0063328315 -0.0022473405 4278733738
0.018307231 0.0063724276 -0.0023488165 4278340274
0.021917835 0.0072411373 -0.0032007373 4279651483
0.023807473 0.0072809253 -0.0033018435 4278996643
0.025696918 0.0073208045 -0.0034028697 4279126439
0.02795177 0.0057826657 -0.0022062352 4279257253
0.030588374 0.0026667872 0.00028720871 4278996389
0.034187742 -0.0043932204 0.0060221497 4281553019
-0.03060358 0.00068723969 0.0018000174 4280634508
-0.025841147 0.0079345126 -0.0043740049 4278799018
-0.024068009 0.0087643787 -0.0051277229 4279060903
-0.020194221 0.0080462452 -0.0046814736 4278602669
-0.01831213 0.0080837179 -0.0047837785 4278537644
-0.016430162 0.0081212819 -0.0048860069 4278538154
-0.014548309 0.0081589762 -0.0049881302 4278799273
-0.0091656707 0.0098573174 -0.0065939426 4278274994
-0.0072897933 0.0098953228 -0.0066954233 4278338488
-0.0031207725 0.007595202 -0.0049495362 4278929834
-0.0012371764 0.0076336954 -0.0050511872 4278734248
0.00050160289 0.0084642712 -0.0058020027 4278734759
0.0061428472 0.0085803978 -0.0061058146 4278862513
0.0077118203 0.010202935 -0.0075042322 4278600373
0.011621594 0.009489039 -0.0070572481 4278929323
0.014153302 0.0063616522 -0.004565177 4278930343
0.016040862 0.0064010676 -0.0046664174 4278603179
0.017928228 0.0064405613 -0.0047675841 4278603434
0.023411907 0.0073508844 -0.0057181101 4278926518
0.025295824 0.0073906258 -0.005818855 4278926518
0.029619478 0.0050968025 -0.0040789824 4279061413
0.033016443 -0.0011919998 0.00099526253 4278931109
-0.030837703 0.0007542409 -0.00062961038 4280767109
-0.029643409 0.0063568912 -0.0052833785 4278735015
-0.024105534 0.007262826 -0.0062409127 4278270913
-0.020461425 0.0081321504 -0.0070947669 4278603434
-0.018584922 0.0081695076 -0.007196771 4278603434
-0.016708545 0.0082069691 -0.0072986893 4278603434
-0.014832281 0.0082445387 -0.0074005201 4278735015
-0.0055893436 0.0092283729 -0.008556379 4278404788
-0.0037166104 0.0092665236 -0.0086575337 4278537898
-0.0018440187 0.0093047637 -0.0087586101 4278472619
2.8416514e-05 0.0093431119 -0.0088595971 4278341804
0.0021953881 0.0077932291 -0.007665541 4278538154
0.0059503689 0.0078706108 -0.0078677023 4278270149
0.011420667 0.008781286 -0.0088171149 4278733994
0.013622001 0.0072326791 -0.0076244846 4278472364
0.015667662 0.0064781848 -0.0070788367 4278472619
0.017718591 0.0057238694 -0.0065334183 4278407084
0.025074981 0.006675845 -0.0075824931 4278269383
0.029022001 0.0059621055 -0.0071380422 4278734504
0.032222122 0.00044898968 -0.0027215495 4279061923
0.036223471 -0.008236154 0.0042735077 4282274414
-0.032012265 -0.0071803452 0.0035378039 4281878909
-0.030973334 3.2841228e-05 -0.0024040597 4280046223
-0.029781546 0.0056506619 -0.0070463819 4278603434
-0.028005671 0.0064847432 -0.0077972328 4278735014
-0.026235335 0.0073187705 -0.0085476665 4278930598
-0.024470553 0.0081527904 -0.009297722 4278930343
-0.022711311 0.0089868531 -0.010047362 4278800294
-0.02084301 0.0090239402 -0.010148999 4278735015
-0.01885749 0.0082641896 -0.0096030971 4278734760
-0.016866636 0.0075046923 -0.0090573765 4278668969
-0.01511601 0.0083390158 -0.0098062269 4278734760
-0.013119947 0.0075798165 -0.0092606414 4278669223
-0.011246797 0.0076175537 -0.0093621314 4278931109
-0.0093737766 0.0076553989 -0.0094635338 4278864553
-0.0076345503 0.0084899198 -0.01021145 4278733994
-0.0056281351 0.0077313762 -0.0096660936 4278800294
-0.0037555248 0.0077695008 -0.0097672595 4278472874
-0.001741223 0.0070113298 -0.0092221741 4278735014
-1.0736287e-05 0.0078460965 -0.0099693006 4278800548
0.0020087063 0.0070882142 -0.0094243586 4278735013
0.0038834289 0.0071268063 -0.0095253214 4278472619
0.0059107393 0.006369235 -0.0089806151 4278995879
0.0076324195 0.0072042216 -0.0097270459 4278995114
0.0096648335 0.0064469595 -0.0091824625 4278865319
0.011380747 0.0072820317 -0.0099284304 4278538154
0.013418265 0.0065250546 -0.0093839876 4278406829
0.015128389 0.0073601902 -0.010129509 4278537899
0.017001949 0.0073993932 -0.010229938 4278538154
0.018875338 0.007438669 -0.010330303 4278537644
0.021271981 0.0050907228 -0.0084973909 4278668969
0.022975966 0.0059260186 -0.0092422925 4278995113
0.024674341 0.0067612622 -0.0099868476 4279126439
0.02618444 0.0083920863 -0.011375035 4278800039
0.0287956 0.0052495785 -0.0088996217 4278603433
0.03180442 0.00051665306 -0.0051379916 4278472108
0.035608821 -0.0073971492 0.0011960934 4281685364
-0.032145388 -0.0079166871 0.0017520771 4282404973
-0.031108856 -0.00068398751 -0.0041751196 4279718549
-0.029919561 0.0049490649 -0.0088060256 4278735014
-0.028353829 0.0073839296 -0.010848281 4278603943
-0.026591755 0.0082199592 -0.011596655 4278735014
-0.024835236 0.0090560745 -0.012344655 4278864808
-0.02297242 0.0090929177 -0.012446096 4279389599
-0.020880595 0.0075315367 -0.011255385 4278735015
-0.018895261 0.0067696292 -0.010711074 4278472364
-0.0169046 0.0060079377 -0.010166967 4278603434
-0.015154067 0.0068444256 -0.010914205 4278603434
-0.013283644 0.0068819951 -0.011015631 4278669223
-0.011541508 0.0077185296 -0.01176225 4278603944
-0.0098049603 0.0085550603 -0.012508488 4278733738
-0.0079403669 0.0085928459 -0.012609351 4279061413
-0.0060759038 0.0086306985 -0.012710154 4279062179
-0.003933467 0.0070713572 -0.011521501 4278407084
-0.0020638555 0.0071095433 -0.011622414 4278472874
-0.00019438565 0.0071478132 -0.011723254 4278472619
0.0018221512 0.0063876975 -0.011179766 4278603688
0.0036940649 0.006426217 -0.011280591 4278669479
0.0055657998 0.0064648259 -0.011381336 4278669223
0.0074373707 0.006503528 -0.011481999 4278537899
0.0094668716 0.005744068 -0.010938921 4278930599
0.011340827 0.0057830065 -0.011039576 4278734759
0.01321464 0.0058220122 -0.011140168 4278407339
0.014755756 0.0074572954 -0.012527116 4278407084
0.016792752 0.0066983197 -0.011984196 4278668969
0.018491626 0.0075355228 -0.012727328 4278472108
0.020708121 0.0059789047 -0.011541774 4278472364
0.022403918 0.0068161804 -0.012284638 4278734504
0.024273939 0.0068556201 -0.012384648 4279061414
0.02596122 0.0076928716 -0.013126941 4278864808
0.028384045 0.0053392705 -0.011300044 4278865319
0.031198978 0.0013908185 -0.0081898412 4278734504
0.034803838 -0.0057473835 -0.0025133847 4280177039
-0.032373838 -0.0078466758 -0.00067570573 4282339949
-0.031146098 -0.0021978328 -0.0052974625 4279784339
-0.03005746 0.0042520035 -0.010562232 4278800548
-0.028598052 0.0074949339 -0.013244512 4278669223
-0.019167475 0.0068778247 -0.013107382 4278668969
-0.017182454 0.0061138533 -0.012564581 4278669223
-0.015314773 0.0061512385 -0.012665953 4278603434
-0.01344721 0.0061887447 -0.01276723 4278341549
-0.011707883 0.0070273932 -0.013512084 4278275759
-0.008245945 0.0087047461 -0.015000674 4278596549
-0.0062507838 0.0079416055 -0.014457956 4278269383
-0.0043893121 0.0079795122 -0.014558513 4278275759
-0.0023862571 0.0072166752 -0.014016042 4278669479
-0.00037790835 0.006454112 -0.013473808 4278734504
0.0016357452 0.0056917686 -0.012931778 4278800039
0.0033549145 0.0065308139 -0.013674945 4278538154
0.0089529604 0.0066465531 -0.013976056 4278268618
0.012684204 0.006724136 -0.01417643 4278538154
0.014549561 0.006763069 -0.014276491 4278472874
0.016752601 0.0052016471 -0.013093576 4278799784
0.01845143 0.0060409885 -0.013835116 4278406573
0.020319 0.0060802046 -0.013935123 4278537388
0.027787499 0.0062377844 -0.014334489 4278666418
0.030405961 0.0030780658 -0.011872369 4279062433
0.033808663 -0.0032802043 -0.006850143 4281357178
-0.032602061 -0.0077677709 -0.0030968226 4282339948
-0.031379551 -0.0021037851 -0.0077070394 4280374154
-0.030195244 0.0035595493 -0.012315024 4278865829
-0.028738491 0.0068111047 -0.014990711 4278669223
-0.02534559 0.0092951879 -0.017122822 4278859453
-0.021413516 0.0077615138 -0.016038779 4278926518
-0.019439463 0.0069950186 -0.015497093 4279061414
-0.017579976 0.0070321131 -0.015598118 4278603688
-0.015720591 0.0070693474 -0.015699029 4278734504
-0.013735998 0.0063034054 -0.015157662 4278668714
-0.012002189 0.0071441084 -0.015900612 4278733738
-0.0047058463 0.0080978647 -0.016944211 4279191209
-0.0027084127 0.0073327944 -0.016403085 4278996133
-0.00070569664 0.0065679289 -0.015862174 4278931109
0.0013023391 0.0058032293 -0.015321428 4278733994
0.0030160025 0.0066443775 -0.016062729 4278602413
0.0048766211 0.0066827461 -0.016162882 4278273718
0.012317531 0.0068370812 -0.016562752 4278404788
0.014343522 0.0060733855 -0.016022505 4278800039
0.016374744 0.0053099133 -0.015482528 4278865319
0.018239677 0.005348973 -0.015582467 4278668969
0.01975581 0.0069927201 -0.016961472 4278470833
0.02961345 0.0047829207 -0.015541849 4279323299
0.033004709 -0.001592976 -0.010531929 4280635784
-0.032734737 -0.0084860064 -0.0048691249 4282471528
-0.031416669 -0.0036128433 -0.0088258339 4281619063
-0.030332904 0.0028716428 -0.014064444 4278603688
-0.027234118 0.0077800471 -0.018118106 4278865318
-0.025382526 0.0078165531 -0.01821902 4278735014
-0.023531031 0.0078531634 -0.018319851 4278274229
-0.021679632 0.0078898817 -0.018420596 4278667184
-0.019828334 0.0079267155 -0.018521246 4278341294
-0.017857302 0.0071580373 -0.0179809 4278735015
-0.01612607 0.0080007147 -0.018722277 4278865318
-0.014149819 0.0072323717 -0.018182043 4278406063
-0.01242426 0.0080751218 -0.018922973 4278340018
-0.010573547 0.0081124976 -0.01902318 4279455388
-0.0088563859 0.0089552253 -0.019763472 4278603688
-0.0070086494 0.0089927372 -0.019863373 4279060648
-0.0051610284 0.0090303421 -0.019963196 4278732973
-0.0028887093 0.0066526234 -0.018143808 4278668203
-0.0010332093 0.0066905767 -0.018243918 4278865319
0.00096917897 0.0059236344 -0.017704526 4278930343
0.0046849027 0.0060001295 -0.017904634 4278339509
0.0063873306 0.0068433657 -0.018643528 4278931108
0.008242093 0.0068817697 -0.018743251 4279062178
0.0097753853 0.0085297916 -0.020120265 4278929834
0.011787765 0.0077635348 -0.019580979 4278471343
0.013805419 0.0069975089 -0.019041963 4278930343
0.015828341 0.0062316973 -0.01850315 4278865319
0.017685011 0.0062705688 -0.018602658 4278537388
0.021043934 0.0079573337 -0.020077053 4279192229
0.023074321 0.0071919821 -0.019538416 4278865828
0.024745204 0.0080353692 -0.020275017 4278733994
0.026965812 0.0064660497 -0.019099183 4278994603
0.029009275 0.0057011656 -0.018561102 4278864299
0.032391824 -0.00069232006 -0.013563653 4279194013
0.035624422 -0.0062807896 -0.0092054009 4282471783
-0.032867286 -0.0091996454 -0.0066380203 4282340203
-0.031649772 -0.0035053538 -0.011225373 4281815414
-0.030571181 0.002996454 -0.016450826 4278997153
-0.025637239 0.0079540182 -0.020594791 4278931363
-0.023791328 0.007990526 -0.02069531 4279061923
-0.020099796 0.0080638379 -0.020896111 4278669224
-0.018254187 0.0081006642 -0.020996373 4278669223
-0.016408682 0.0081375726 -0.021096567 4278603944
-0.0091612451 0.0090937912 -0.022134954 4279191974
-0.0071829557 0.0083237775 -0.021596178 4278274229
-0.0033520088 0.0075916387 -0.021157375 4278668714
-0.0015047789 0.007629415 -0.021257043 4278668969
0.00048928708 0.0068601072 -0.020718832 4278537899
0.0078870133 0.0070127286 -0.021116991 4278339508
0.0095754862 0.0078580175 -0.021853395 4278271169
0.011421666 0.0078963973 -0.021952543 4278273718
0.013267681 0.0079348814 -0.022051601 4278537899
0.015113562 0.0079734232 -0.022150608 4278669223
0.01713071 0.0072053764 -0.021613056 4278472619
0.022495359 0.0081283953 -0.022545917 4278927794
0.024522714 0.0073608588 -0.022008691 4278273719
0.028781004 0.0050199479 -0.020299289 4278405043
0.031779319 0.00022156071 -0.016585577 4278799783
0.035003267 -0.0053823306 -0.012238186 4282339949
-0.036621697 -0.011603344 -0.0069167861 4282602343
-0.032999724 -0.0099086892 -0.0084035834 4281880693
-0.031686757 -0.0050096135 -0.012340609 4280963458
-0.030708555 0.0023198584 -0.018191863 4278800803
-0.029365867 0.0064074993 -0.021486145 4278538664
-0.023939833 0.0073267035 -0.022426084 4278337723
-0.020371024 0.0082098637 -0.023264376 4278931109
-0.018530991 0.0082465746 -0.023364339 4278669223
-0.01669107 0.0082833804 -0.023464223 4278604199
-0.014976438 0.0091301296 -0.024201425 4278407339
-0.0038149208 0.0085438639 -0.024161072 4278669224
-0.0019759908 0.008581467 -0.024260299 4278734504
9.7602606e-06 0.0078097805 -0.02372328 4278996133
0.0018511489 0.0078476295 -0.02382249 4278341038
0.011219084 0.0072290823 -0.02368217 4278995368
0.012896322 0.008076461 -0.024416246 4278341294
0.014736645 0.0081148781 -0.02451496 4278930854
0.016576804 0.0081533734 -0.024613606 4278669224
0.018416807 0.0081919394 -0.024712188 4278733738
0.028177463 0.0059603006 -0.023302162 4278930599
0.030976795 0.0019570831 -0.0202315 4278996899
0.034189351 -0.0036622463 -0.015894867 4280963459
-0.033322379 -0.008988088 -0.011440482 4282667878
-0.032017417 -0.0040760962 -0.015367431 4281946739
-0.030946422 0.0024602646 -0.020566611 4278800804
-0.029505718 0.0057462528 -0.023215603 4278669734
-0.027980812 0.0082195699 -0.025226537 4278996899
-0.026037194 0.007443415 -0.024689926 4279061924
-0.024199728 0.0074797329 -0.024790004 4279062178
-0.022248119 0.0067039169 -0.02425362 4279258528
-0.020408116 0.0067405086 -0.024353668 4278669989
-0.018687896 0.0075893216 -0.025089724 4278604199
-0.01660604 0.0060019661 -0.023917625 4278669479
-0.015013877 0.0076629221 -0.0252891 4278538664
-0.013049189 0.0068879072 -0.024753023 4278670244
-0.011340294 0.0077369083 -0.025488157 4278865573
-0.0093703978 0.0069621932 -0.02495222 4279061413
-0.0075311884 0.0069994889 -0.025051691 4279192739
-0.0056921132 0.0070369001 -0.025151066 4279324063
-0.0039946064 0.0078860633 -0.025885291 4278996388
-0.0021585003 0.0079235993 -0.025984369 4278930853
-2.8781593e-05 0.0063381027 -0.024814198 4278472618
0.0018124878 0.0063759256 -0.024913421 4278735269
0.0036536157 0.0064138286 -0.025012571 4278997409
0.0056496263 0.0056404434 -0.024477527 4279062179
0.0076509342 0.0048672967 -0.023942672 4279258018
0.0094970614 0.0049055573 -0.024041906 4278931619
0.011179842 0.0057551078 -0.024774749 4278801059
0.012857012 0.006604638 -0.025507219 4278603943
0.014865875 0.0058319531 -0.024972541 4278734504
0.016708672 0.0058704875 -0.025071342 4278603943
0.01855129 0.005909089 -0.025170079 4278800804
0.020393766 0.0059477594 -0.025268752 4278669989
0.022056565 0.0067973472 -0.026000187 4279258018
0.024078205 0.0060253069 -0.025465917 4278995623
0.025920197 0.006064171 -0.025564414 4278930853
0.027949646 0.005292438 -0.025030453 4278800038
0.030365102 0.0028995713 -0.023232222 4278931618
0.033569045 -0.0027351817 -0.018906455 4278997918
0.037202425 -0.0099901389 -0.013318732 4282274923
-0.032152053 -0.0047587431 -0.017113153 4282078064
-0.030882377 0.00016567763 -0.021028351 4279456154
-0.029438879 0.0034603905 -0.023671053 4279127968
-0.027805217 0.0051256847 -0.025042098 4278735269
-0.025965072 0.0051619317 -0.025142413 4278473128
-0.024125014 0.0051982962 -0.025242634 4278866083
-0.022285059 0.0052347556 -0.025342779 4278735014
-0.02044519 0.0052713212 -0.025442839 4278800293
-0.018725056 0.0061223228 -0.026177261 4278734758
-0.016643435 0.0045305844 -0.025008403 4278472618
-0.014676105 0.0037533818 -0.024474211 4278603178
-0.01283123 0.0037904698 -0.024574228 4278537644
-0.011116967 0.0046417098 -0.025307994 4278799783
-0.0092750341 0.004678946 -0.025407698 4278668968
-0.0074332319 0.0047162771 -0.025507322 4278931108
-0.005591549 0.0047537256 -0.025606852 4278931108
-0.0037500039 0.0047912411 -0.025706319 4278734503
-0.001908578 0.0048288759 -0.025805693 4278668969
7.9527497e-05 0.0040528812 -0.02527204 4278734503
0.0019234046 0.0040907282 -0.025371425 4278603434
0.0040716603 0.0025014794 -0.024205398 4278538154
0.0059206784 0.0025396245 -0.024304917 4278996643
0.0076118782 0.0033913394 -0.025036735 4278800038
0.0094579011 0.0034295842 -0.025135972 4278734503
0.011303745 0.0034679342 -0.025235118 4278603434
0.01314947 0.0035063289 -0.025334224 4278865573
0.015163608 0.0027315645 -0.024801455 4278734503
0.017011747 0.0027701836 -0.024900561 4278603434
0.018685699 0.0036220243 -0.025631094 4278734503
0.020354055 0.0044738101 -0.026361279 4278800038
0.022196278 0.0045125363 -0.026459895 4278800293
0.024220489 0.0037383512 -0.025927395 4278603689
0.026065111 0.0037772404 -0.026026057 4278603689
0.027909555 0.0038162097 -0.026124645 4279127204
0.030324779 0.0014167828 -0.024331274 4279062179
0.033142172 -0.0026077293 -0.021277761 4281357434
0.036769532 -0.0098824166 -0.015704282 4281750643
-0.032188781 -0.0062536909 -0.018221488 4282209133
-0.030818421 -0.002133063 -0.021493172 4279324829
-0.02937213 0.0011703745 -0.024129584 4278538409
-0.027735777 0.0028400719 -0.025497541 4278538664
-0.025893047 0.0028763665 -0.025598001 4278342058
-0.024050415 0.0029127551 -0.025698382 4278276524
-0.0184035 0.002206157 -0.025366176 4278472874
-0.016313966 0.00061027985 -0.024201015 4278473384
-0.014463663 0.00064738374 -0.024301395 4278668204
-0.012613468 0.00068455748 -0.024401717 4278405554
-0.011024281 0.0023542754 -0.025766399 4278472109
-0.0091797523 0.0023915479 -0.025866255 4278275248
-0.0052138641 0.00083430577 -0.024802139 4278995368
-0.0035055876 0.0016879607 -0.025533697 4279257764
-0.0015148073 0.00090974104 -0.025001882 4279258274
4.0985644e-05 0.0025793612 -0.026364328 4278406574
0.0041849986 0.00020777341 -0.024669817 4278539174
0.0078881234 0.00028420426 -0.024869101 4278668203
0.01126451 0.0019921046 -0.026329074 4278276014
0.013110131 0.0020304974 -0.026428174 4278276014
0.019341864 -0.0011152104 -0.024205508 4278341548
0.020667747 0.0013695154 -0.0261942 4278603943
0.022335924 0.0022235224 -0.026922721 4278276269
0.024362713 0.001447184 -0.026392 4278472874
0.026209958 0.0014861217 -0.026490808 4278539683
0.028057039 0.001525104 -0.026589569 4278932639
0.030664973 -0.0016958062 -0.024172192 4279062688
0.033101499 -0.004101255 -0.022384766 4282537319
-0.032323238 -0.006929432 -0.019962091 4282340714
-0.030754559 -0.0044359681 -0.02196108 4279521179
-0.029202282 -0.0019427566 -0.02395905 4279127969
-0.027560532 -0.00026858132 -0.025324129 4278866083
-0.025712498 -0.00023220107 -0.02542489 4278997409
-0.023753203 -0.0010144804 -0.024893915 4279128479
-0.021902636 -0.0009778263 -0.024994649 4278669734
-0.020168938 -0.00012240093 -0.025726648 4278735013
-0.018082257 -0.0017228508 -0.024564615 4278931619
-0.016229261 -0.0016858298 -0.024665242 4279259294
-0.014251407 -0.0024672057 -0.02413488 4279062433
-0.01265125 -0.0007929923 -0.025497055 4278471854
-0.0108013 -0.00075571612 -0.025597282 4278930599
-0.0090845637 9.9972822e-05 -0.026327912 4278865064
-0.0052521378 -0.00064332411 -0.025897501 4279061669
-0.0032613873 -0.0014238777 -0.025367344 4279192993
-0.0014093146 -0.0013860837 -0.025467334 4279324319
0.00029589981 -0.00053009205 -0.026197018 4279324829
0.0021449849 -0.00049216207 -0.026296701 4278407083
0.0046025291 -0.0037259641 -0.023878502 4279128223
0.0061524883 -0.0020518694 -0.025237219 4279258784
0.0078490078 -0.0011957511 -0.025966132 4278865828
0.0093796253 0.00047816709 -0.027323717 4278865573
0.011714369 -0.001936757 -0.025536297 4279062179
0.013402306 -0.0010805558 -0.026264556 4278800039
0.015590027 -0.0026772143 -0.025106763 4278931108
0.017617285 -0.0034560333 -0.024577918 4278275503
0.019475937 -0.0034171734 -0.024677573 4279193248
0.021157838 -0.002560785 -0.025405273 4279127713
0.022834137 -0.0017044861 -0.026132656 4279324573
0.024868928 -0.0024828445 -0.025603985 4279127968
0.026354723 -0.00080925785 -0.026958643 4279455388
0.028204449 -0.00077023916 -0.02705756 4279128478
0.030624591 -0.003182603 -0.025274219 4278604709
0.033253774 -0.0064117243 -0.022864409 4282143599
-0.03245756 -0.0076006372 -0.021699332 4282274413
-0.03089159 -0.0051007387 -0.023693353 4279390108
-0.029342018 -0.0026010107 -0.025686366 4278996133
-0.02759717 -0.0017436463 -0.026417697 4278669989
-0.025640704 -0.0025282856 -0.025888279 4279063199
-0.02367888 -0.0033127428 -0.025359021 4278735524
-0.021711711 -0.0040969346 -0.024830014 4279063199
-0.019972652 -0.0032392335 -0.025560692 4278932129
-0.018000226 -0.0040231259 -0.025031824 4278996898
-0.016022462 -0.0048067886 -0.024503153 4279324829
-0.014164262 -0.0047695641 -0.024603991 4279127714
-0.012561388 -0.0030910177 -0.025963059 4278800039
-0.010839175 -0.0022330992 -0.026692487 4278602669
-0.0088563971 -0.0030163229 -0.026163762 4279192483
-0.0051518865 -0.002941207 -0.02636412 4278602923
-0.00329981 -0.0029035322 -0.0264642 4279389854
-0.0013039261 -0.0036860248 -0.025935913 4278997154
0.00040397048 -0.002827879 -0.026664106 4278800549
0.0024050325 -0.0036100978 -0.026135974 4278603944
0.0042592958 -0.0035719881 -0.02623588 4278931619
0.0061134323 -0.0035337973 -0.02633572 4278997154
0.0078099072 -0.0026755258 -0.027063031 4278996644
0.0096610561 -0.0026372587 -0.027162606 4279127968
0.011837974 -0.0042386609 -0.026007593 4279193248
0.01385995 -0.005019933 -0.025480203 4278931108
0.015887223 -0.0058010714 -0.024953006 4278406573
0.017577522 -0.0049424837 -0.025679728 4278668968
0.019436099 -0.0049036611 -0.025779406 4278931108
0.021294504 -0.0048647462 -0.025879001 4279062434
0.0229735 -0.0040062452 -0.026604932 4279062434
0.024646915 -0.0031477632 -0.027330492 4279127968
0.026314743 -0.0022893716 -0.028055731 4279520924
0.028351799 -0.0030697566 -0.027528727 4279521433
0.030774392 -0.0054886676 -0.025750341 4279652758
0.033598848 -0.0095457202 -0.022721495 4282471273
-0.032591764 -0.00826733 -0.023433227 4282012019
-0.031028494 -0.0057609621 -0.025422255 4279324829
-0.029378559 -0.0040780711 -0.026781423 4279324573
-0.027527995 -0.0040417761 -0.026882423 4278473128
-0.025460485 -0.0056517534 -0.025726141 4278735524
-0.023493417 -0.0064382441 -0.025198834 4279259804
-0.021634951 -0.0064014569 -0.025300015 4279194269
-0.019893248 -0.0055415784 -0.026029259 4279062688
-0.017918289 -0.0063275769 -0.02550213 4279324573
-0.016060114 -0.0062904847 -0.025603065 4278865574
-0.014202036 -0.0062532863 -0.025703913 4279193248
-0.012599174 -0.0045704218 -0.027059771 4278865063
-0.010877032 -0.003710364 -0.027787605 4278537135
-0.008761432 -0.0053184298 -0.026633229 4279127204
-0.0069065206 -0.0052808952 -0.026733607 4278799274
-0.0050517321 -0.0052432539 -0.026833901 4278537389
-0.0031970441 -0.0052055437 -0.026934134 4279389599
-0.0013425052 -0.0051677162 -0.02703427 4279324319
0.00065851957 -0.0059522321 -0.026507841 4279193248
0.0022169277 -0.0042695012 -0.027860725 4278406573
0.0042204112 -0.005053781 -0.027334291 4279455644
0.0059196874 -0.0041933767 -0.028060211 4279324829
0.0079283342 -0.0049773818 -0.027533932 4278931619
0.0099422783 -0.0057611819 -0.027007865 4279194015
0.012124434 -0.0073669143 -0.025856359 4279128223
0.013986051 -0.0073282626 -0.025956372 4278931619
0.016015887 -0.0081115086 -0.025430994 4278407083
0.01770889 -0.0072507528 -0.026156217 4279324829
0.019570075 -0.0072118943 -0.026256045 4279128223
0.021254599 -0.006351151 -0.026980769 4279325084
0.022754371 -0.0046687666 -0.028329855 4279324829
0.024788886 -0.0054515554 -0.02780446 4279062688
0.026644051 -0.0054125558 -0.027903769 4279652504
0.028686397 -0.0061950451 -0.027378691 4279587223
0.030924134 -0.0077989204 -0.026229648 4281881204
-0.036172576 -0.011478675 -0.023076383 4282927978
-0.034207962 -0.012268057 -0.022551054 4281157003
-0.032628272 -0.0097550359 -0.024536198 4280569993
-0.031064983 -0.0072421725 -0.026520399 4279455643
-0.029415078 -0.0055549513 -0.027876349 4279326104
-0.027564652 -0.0055186828 -0.027977359 4279521943
-0.02560585 -0.0063076694 -0.027451258 4278670498
-0.023530509 -0.0079216901 -0.026298599 4279129243
-0.021558274 -0.0087101562 -0.025773114 4279849108
-0.019697301 -0.0086732274 -0.025874363 4279586714
-0.018075116 -0.0069859647 -0.02722829 4279650973
-0.016097728 -0.0077739889 -0.026702834 4279848599
-0.014489345 -0.0060867998 -0.028055863 4279913879
-0.012509435 -0.0068745986 -0.027530415 4279651228
-0.010784641 -0.0060123736 -0.028256746 4279257763
-0.0085336156 -0.0084495544 -0.026480148 4279192228
-0.0066733845 -0.0084119216 -0.02658082 4279585438
-0.0048132651 -0.0083742188 -0.026681436 4278864043
-0.0032354668 -0.0066870525 -0.028032366 4279847834
-0.0012372136 -0.0074738804 -0.027507463 4279979413
0.00061982125 -0.0074359588 -0.027607704 4279913878
0.0024767295 -0.007397945 -0.027707865 4278995368
0.0041815341 -0.0065353941 -0.028432572 4279848599
0.006035462 -0.006497243 -0.028532425 4279783065
0.0080466643 -0.0072834017 -0.028007921 4279389598
0.010063179 -0.008069356 -0.027483633 4279586969
0.011922121 -0.0080308737 -0.027583586 4278932384
0.013946511 -0.0088165514 -0.027059564 4278735779
0.015807912 -0.008777868 -0.02715954 4279060649
0.017669171 -0.0087391166 -0.027259452 4279324064
0.019356526 -0.0078762276 -0.027982777 4279521688
0.021214761 -0.0078373989 -0.028082425 4279652758
