# .PCD v0.7 - Point Cloud Data file format
VERSION 0.7
FIELDS x y z rgba
SIZE 4 4 4 4
TYPE F F F U
COUNT 1 1 1 1
WIDTH 958
HEIGHT 1
VIEWPOINT 0 0 0 1 0 0 0
POINTS 958
DATA ascii
-0.0051486418 0.0023747701 0.0010055879 4289866529
-0.0031091832 0.0016212957 0.001543765 4289997344
-0.00092478842 7.3855743e-05 0.0027293125 4290782233
0.00098562986 0.00011499133 0.0026194309 4289735459
0.0033311322 -0.0022259788 0.0044515566 4289932063
0.0051016212 -0.0013904809 0.0036942312 4289866784
0.0070170388 -0.0013489486 0.0035842774 4290193693
0.0084725767 0.0010743598 0.0015338939 4290848279
0.01022356 0.0019097282 0.00077790744 4291371539
0.012286261 0.0011575688 0.0013153534 4291109653
0.014515646 -0.0003880728 0.0024989303 4291240723
0.016591616 -0.0011398182 0.0030357824 4290259739
0.018339179 -0.00030409824 0.0022802344 4290521369
0.020420238 -0.0010555289 0.0028169458 4290128669
0.022506565 -0.0018067262 0.0033533708 4290194204
0.024423122 -0.0017643101 0.0032439888 4290194204
0.026339516 -0.0017218259 0.0031346707 4290128414
0.028075293 -0.00088597694 0.0023801583 4290128414
0.029805452 -5.0142407e-05 0.0016259756 4289997598
0.031529963 0.00078559481 0.00087220897 4290520859
0.033248864 0.0016213059 0.00011883583 4289800484
0.035918601 -0.0015082532 0.0025891447 4289538343
0.0386099 -0.0046372712 0.0050582718 4289406763
-0.024434753 0.0020464705 -0.0003166385 4288097339
-0.022646226 0.0028829658 -0.0010745471 4288884523
-0.020975601 0.0045164051 -0.0024796745 4290520349
-0.018855676 0.0029622298 -0.0012943182 4290520349
-0.016607177 0.0006115688 0.00053773704 4290520604
-0.014462966 -0.00094185909 0.0017217887 4289670179
-0.012431234 -0.0016982243 0.0022583865 4289670178
-0.010394171 -0.0024543651 0.0027947584 4289670178
-0.0086091459 -0.0016171602 0.0020376337 4290128414
-0.0070925057 0.0008130949 -1.2005214e-05 4290586393
-0.0054582134 0.0024467101 -0.00141433 4288950569
-0.003561236 0.0024873214 -0.0015236142 4289277734
-0.0013852566 0.00093532726 -0.00034075766 4290062623
0.00065916032 0.00017997529 0.0001956597 4290390043
0.0028538927 -0.0013713664 0.0013775479 4289997599
0.0047638863 -0.0013300353 0.0012678422 4289735969
0.0066737458 -0.0012886361 0.001158199 4289735969
0.0084302574 -0.00045105442 0.0004034501 4289408803
0.010181166 0.00038647838 -0.00035092374 4290521114
0.012243703 -0.00036788732 0.00018489617 4290324763
0.014472835 -0.0019178879 0.0013652521 4290455578
0.016220532 -0.0010801428 0.00061127241 4290193949
0.018129371 -0.0010381653 0.00050213258 4290128668
0.020038053 -0.00099610677 0.00039306493 4289997343
0.022290975 -0.0025452715 0.0015723663 4290259483
0.024029799 -0.0017073178 0.00081912102 4290259483
0.025762998 -0.00086946134 6.6290377e-05 4290258973
0.027490586 -3.1630509e-05 -0.00068614737 4290063134
0.029212557 0.00080613885 -0.0014382171 4290455578
0.030928887 0.0016438682 -0.0021899007 4291240468
0.033016644 0.00089102425 -0.0016548046 4290651419
0.035300858 -0.00065685995 -0.0004769268 4290323489
0.038177609 -0.0045899153 0.0026291069 4290322723
-0.028169397 -0.00034793932 -0.00057336176 4286921024
-0.026372619 0.00049066637 -0.001330309 4289276969
-0.024367679 -0.00026913919 -0.00079429871 4289931553
-0.022686087 0.0013687247 -0.0021968691 4289539364
-0.0209032 0.0022074068 -0.0029527389 4290389788
-0.019010842 0.0022470178 -0.0030624261 4289670179
-0.016883131 0.00068879407 -0.001880725 4291109398
-0.01462416 -0.0016680509 -5.4034404e-05 4289997344
-0.012841694 -0.00082893437 -0.00080955052 4289735713
-0.010687098 -0.002386251 0.00037084846 4289932063
-0.008907605 -0.0015469766 -0.00038433215 4290128414
-0.0072650239 9.1036782e-05 -0.0017839993 4291044374
-0.0057675317 0.0025275089 -0.0038276105 4291043864
-0.0040129311 0.0033666426 -0.0045811385 4290913049
-0.0018453561 0.0018100832 -0.0034010573 4291175189
0.0003329441 0.00025392417 -0.0022215415 4290063134
0.0025219917 -0.0013019308 -0.0010425147 4289866784
0.0044264123 -0.0012607439 -0.0011519186 4289408803
0.0063306913 -0.0012194533 -0.001261233 4289212453
0.0082348287 -0.0011780695 -0.0013704683 4288885544
0.010138787 -0.0011365814 -0.0014796137 4289343524
0.012201138 -0.0018931264 -0.00094540115 4289801504
0.014107496 -0.0018513883 -0.0010545363 4289801504
0.016013682 -0.00180957 -0.0011635988 4289539619
0.017752998 -0.00096976431 -0.0019154297 4290193693
0.019656129 -0.00092783803 -0.0020241886 4289866784
0.021731228 -0.0016836431 -0.0014903641 4289866529
0.023811594 -0.0024392391 -0.00095676945 4289735714
0.02571962 -0.0023969533 -0.001065621 4289997344
0.027086571 3.8276426e-05 -0.003100558 4289997343
0.028437026 0.002473291 -0.0051345164 4290128414
0.030328207 0.0025154268 -0.0052422397 4290521114
0.032407649 0.001760208 -0.0047082985 4289604899
0.034874678 -0.0005896464 -0.00289171 4290979349
0.037357822 -0.002939044 -0.0010760401 4290194203
0.040250279 -0.0068825586 0.0020210645 4289080618
-0.027904894 -0.0042707738 0.00023625139 4286463554
-0.026204098 -0.0026284065 -0.0011643858 4289081129
-0.024514288 -0.00098607456 -0.0025643159 4289931553
-0.022944972 0.0014574695 -0.0046080267 4289800994
-0.021279842 0.0030994508 -0.0060063284 4289016104
-0.019280843 0.0023376867 -0.0054713357 4289146663
-0.017158821 0.00077493768 -0.0042925049 4289669924
-0.015146416 1.3674609e-05 -0.0037581264 4290389533
-0.013251808 5.370006e-05 -0.0038676707 4289866274
-0.011231478 -0.00070716999 -0.0033335823 4289801249
-0.0090772435 -0.0022687749 -0.0021562697 4289801249
-0.0074374154 -0.00062648579 -0.0035525565 4290128158
-0.0058085918 0.001015625 -0.0049480926 4290586394
-0.0040540546 0.0018569352 -0.0056999992 4290782488
-0.0020261854 0.0010967273 -0.0051658987 4290128414
6.981194e-06 0.00033678953 -0.0046320613 4289866783
0.0019005463 0.00037763268 -0.0047409218 4289670689
0.0039415807 -0.00038193632 -0.0042073894 4289670433
0.0059878975 -0.0011412823 -0.0036740792 4289539618
0.0078864694 -0.0011000428 -0.0037830127 4289343523
0.0099406615 -0.0018590796 -0.0032499768 4289670688
0.011841625 -0.0018175663 -0.0033588824 4290259739
0.01390364 -0.0025761998 -0.0028261964 4289866784
0.015643075 -0.0017342982 -0.0035764789 4291109653
0.017710194 -0.0024926402 -0.0030439524 4291371539
0.019443847 -0.001650684 -0.0037937691 4291109653
0.021343969 -0.0016087443 -0.003902297 4290782488
0.023069113 -0.00076677511 -0.004651553 4290193693
0.025321223 -0.002324509 -0.0034785587 4290128413
0.026682809 0.00011717156 -0.0055083828 4290193693
0.028393857 0.00095903315 -0.0062566074 4290913559
0.029913582 0.002600559 -0.0076446328 4289670433
0.031987444 0.001842971 -0.0071119666 4289212709
0.034066543 0.0010856157 -0.0065795872 4289409058
0.036344729 -0.00047105923 -0.0054077981 4289932574
0.038830131 -0.0028268956 -0.0035970057 4289407784
0.041530885 -0.0059816884 -0.0011477282 4288556849
-0.026243825 -0.00414865 -0.002291179 4288885289
-0.024767503 -0.00089487527 -0.0049739908 4289604644
-0.022984698 -5.1948242e-05 -0.0057267747 4290455324
-0.021319598 0.001594387 -0.0071218377 4289800993
-0.019320808 0.00083045382 -0.0065884427 4290193438
-0.017434288 0.00087005831 -0.006697705 4290324253
-0.015307173 -0.00069682533 -0.0055223214 4290716698
-0.013538502 0.00014637504 -0.0062738624 4289800738
-0.011523798 -0.0006168168 -0.0057410114 4289932064
-0.0095037818 -0.0013797497 -0.0052084336 4289735714
-0.0077408925 -0.00053638685 -0.0059593543 4289932064
-0.0058496222 -0.0004960075 -0.0060683899 4290194204
-0.0040951669 0.00034743082 -0.0068187099 4289867039
-0.002206888 0.00038797874 -0.0069273999 4289735969
-0.00031874329 0.00042859651 -0.0070360294 4289605154
0.0017140955 -0.00033347681 -0.0065036798 4289670433
0.0037522316 -0.0010953024 -0.0059716115 4289212453
0.0057956502 -0.0018568826 -0.0054397485 4289277988
0.0076913685 -0.0018157102 -0.0055485228 4289343523
0.0095869377 -0.001774434 -0.0056572082 4289736223
0.011323936 -0.00093060639 -0.0064058797 4289801759
0.013377599 -0.0016916036 -0.0058743372 4290521113
0.015108831 -0.00084772054 -0.006622544 4290586393
0.01716762 -0.0016084267 -0.0060911616 4290128413
0.019062385 -0.0015666992 -0.0061994521 4290586139
0.020956971 -0.0015249276 -0.0063076969 4290716954
0.022676647 -0.00068094721 -0.0070549822 4290193693
0.024745628 -0.0014410829 -0.0065239258 4290324764
0.026099145 0.0010069357 -0.008548446 4290127903
0.027619116 0.0026526656 -0.009933291 4290847513
0.029128015 0.0042982511 -0.011317428 4291109909
0.031190857 0.0035382695 -0.010785805 4290848279
0.033449978 0.0019767601 -0.0096162064 4291044373
0.035526037 0.0012172163 -0.0090852296 4290717719
0.038000315 -0.0011454406 -0.0072786878 4290324763
0.040689886 -0.004309196 -0.0048352475 4289341993
0.043401003 -0.0074724238 -0.0023930003 4287117884
-0.027781799 -0.0089314468 -0.00074014487 4286071618
-0.026387483 -0.0048628477 -0.004059453 4287314998
-0.02491381 -0.0016004401 -0.0067356559 4289081384
-0.023352597 0.00085591432 -0.0087691769 4290651163
-0.021583579 0.001700798 -0.0095194187 4290586139
-0.019475594 0.00012898259 -0.0083463676 4290782489
-0.017591931 0.00016851909 -0.0084554702 4290913049
-0.015467815 -0.0014027175 -0.0072831758 4290193439
-0.013701927 -0.00055745244 -0.0080329031 4289997344
-0.011815883 -0.00051751081 -0.0081418809 4289866528
-0.0098014995 -0.0012827436 -0.0076105972 4289932318
-0.0079129599 -0.0012425375 -0.007719561 4289801503
-0.0057567731 -0.0028125979 -0.0065486748 4289932573
-0.003999643 -0.0019669901 -0.0072975042 4289932573
-0.0021087751 -0.001926403 -0.0074063563 4289670689
-0.00064419955 0.00052926131 -0.0094333598 4290586393
0.0013830066 -0.00023506302 -0.0089023449 4291436818
0.0032680258 -0.00019432697 -0.0090106558 4290913814
0.0054533258 -0.0017631385 -0.0078409817 4290324763
0.0071905553 -0.00091729639 -0.0085882489 4289670689
0.0092335045 -0.0016809436 -0.0080578122 4289866784
0.010964975 -0.00083502242 -0.008804597 4290325018
0.013013065 -0.0015983772 -0.0082743214 4290979094
0.014738783 -0.00075240107 -0.0090206433 4289670433
0.016625434 -0.00071095163 -0.0091285445 4289212453
0.018681191 -0.0014738929 -0.0085985251 4289343013
0.020398282 -0.00062784553 -0.0093441587 4289473828
0.022109754 0.00021810457 -0.010089377 4290324764
0.023993023 0.00025979895 -0.010196848 4290128414
0.025876135 0.00030156132 -0.010304255 4290062368
0.027759053 0.00034340471 -0.010411589 4289800738
0.02945625 0.0011893623 -0.011155752 4290389533
0.031336121 0.0012312662 -0.011262818 4290586139
0.033406779 0.00046932045 -0.010733228 4290389788
0.035288997 0.00051143672 -0.010840308 4289473828
0.037367463 -0.00025017653 -0.010311047 4289604898
0.040048547 -0.0034228545 -0.0078736134 4289015084
-0.027720403 -0.011268042 -0.0012329086 4286594624
-0.026427127 -0.0063805063 -0.0051843305 4287707444
-0.025059979 -0.0023015039 -0.0084939096 4289343014
-0.023501467 0.00016130507 -0.010522436 4290127904
-0.021623198 0.00020051003 -0.01063139 4289800738
-0.01963025 -0.00056790467 -0.010100896 4289604644
-0.017749451 -0.00052843522 -0.010209838 4289866274
-0.015868768 -0.00048884936 -0.010318684 4289866274
-0.013988178 -0.00044915639 -0.010427445 4289800993
-0.012107704 -0.00040935911 -0.010536119 4289997854
-0.010227352 -0.00036943238 -0.010644689 4289539874
-0.0083471164 -0.00032941252 -0.010753181 4290194203
-0.0061993301 -0.0019039796 -0.0095851012 4289932573
-0.0041773468 -0.0026709065 -0.009055635 4290194203
-0.0024285913 -0.0018231887 -0.00980228 4289997598
-0.00068542361 -0.00097548403 -0.010548525 4290848279
0.0011968911 -0.00093492074 -0.010656766 4290913559
0.0030790716 -0.00089424057 -0.01076491 4290913559
0.0049610958 -0.00085346727 -0.010872973 4291044373
0.0068429857 -0.00081258966 -0.010980949 4290063134
0.0088803172 -0.0015785112 -0.010451864 4289932574
0.010764621 -0.0015374059 -0.010559849 4290259228
0.01232671 0.00011727959 -0.011941135 4290848023
0.014041513 0.000965124 -0.012685191 4291109909
0.016083665 0.00019966811 -0.012156114 4290913814
0.018300265 -0.0013721334 -0.010991039 4290586393
0.020183787 -0.0013306253 -0.011098665 4291044628
0.021892503 -0.00048257597 -0.011842121 4289866784
0.023418285 0.0011718068 -0.013220962 4289997599
0.025473192 0.00040705409 -0.012692301 4289997344
0.027350605 0.00044875406 -0.012799338 4289931554
0.029598795 -0.0011218926 -0.011635724 4289996833
0.031481288 -0.0010799379 -0.011742946 4289604644
0.033745438 -0.0026501296 -0.010580095 4289081128
0.035633028 -0.0026079323 -0.010687508 4288427053
0.037716769 -0.0033716327 -0.010160185 4287968819
0.040203899 -0.0057470184 -0.008364046 4287445049
-0.027659107 -0.013608672 -0.001728737 4286922044
-0.026466753 -0.0078979246 -0.0063090315 4286857019
-0.025099475 -0.0038080579 -0.0096105468 4287969585
-0.023650222 -0.0005286606 -0.012272329 4289473573
-0.021774814 -0.00048953574 -0.012381131 4289997344
-0.019899502 -0.00045028143 -0.012489829 4289866529
-0.017906848 -0.0012208424 -0.011960834 4289735714
-0.016029011 -0.0011813235 -0.012069521 4289997598
-0.014151286 -0.0011416869 -0.012178114 4290193949
-0.012399293 -0.00029221922 -0.012923772 4289735969
-0.010396175 -0.0010621217 -0.012395056 4289474593
-0.0083877333 -0.0018317411 -0.011866596 4289867039
-0.0063739792 -0.002601149 -0.011338368 4289867039
-0.0044913888 -0.0025608558 -0.011446829 4289867038
-0.0027481504 -0.001711092 -0.01219155 4290390043
-0.0011524186 -5.1993877e-05 -0.013572103 4289670433
0.00072160363 -1.1593103e-05 -0.013679855 4289343523
0.0024481267 0.00083810743 -0.014423394 4290390043
0.0044692531 6.9454312e-05 -0.013895148 4290848279
0.0064956769 -0.00069901254 -0.013367078 4290193949
0.0088384449 -0.0030853022 -0.011568503 4289932319
0.010722645 -0.0030442118 -0.01167649 4290128414
0.012284756 -0.0013852073 -0.013054568 4290390299
0.013999514 -0.00053519849 -0.013797011 4290782744
0.015875079 -0.00049406104 -0.013904329 4291044629
0.017919622 -0.0012615523 -0.013376942 4291175699
0.019797593 -0.0012201648 -0.013484251 4290782998
0.02184996 -0.0019873241 -0.012957191 4289997599
0.02373033 -0.0019457461 -0.013064535 4289997344
0.025790505 -0.0027125613 -0.012537794 4289539109
0.027855963 -0.0034792139 -0.012011322 4289473829
0.029926687 -0.0042457273 -0.011485059 4289800993
0.0321908 -0.0058202986 -0.010325533 4289211944
0.034274742 -0.0065863277 -0.0097999554 4288557868
0.036170393 -0.0065439609 -0.0099078361 4287576373
0.038065851 -0.006501562 -0.01001568 4287510584
0.040160142 -0.0072672092 -0.0094905049 4286921533
-0.026298806 -0.011039809 -0.006160018 4286333504
-0.024819437 -0.0077512241 -0.0088171856 4286595388
-0.023471158 -0.0036507696 -0.012109438 4288492589
-0.021702398 -0.0027994076 -0.012854845 4289669668
-0.019939177 -0.0019479748 -0.013599868 4289604643
-0.018064119 -0.0019086413 -0.01370849 4289474339
-0.016309246 -0.0010572039 -0.014452822 4291175444
-0.014437102 -0.0010177242 -0.01456112 4291306259
-0.012565061 -0.00097810337 -0.014669306 4291044629
-0.01069314 -0.00093838852 -0.014777413 4290979094
-0.0088213272 -0.00089856889 -0.014885434 4289736479
-0.0070833415 -4.6969391e-05 -0.015628403 4289540128
-0.00521449 -7.015653e-06 -0.015736107 4289801504
-0.0033457614 3.3043325e-05 -0.015843723 4290979094
-0.0017609224 0.0016962346 -0.017220361 4290390043
0.00010211766 0.0017363504 -0.017327517 4289147429
0.0019650087 0.0017765947 -0.017434567 4289277989
0.0042778552 -0.00061707385 -0.015639275 4290521114
0.0063013807 -0.0013877498 -0.015112709 4290521113
0.0084856823 -0.0029694876 -0.013952568 4289801248
0.010206133 -0.0021174056 -0.01469389 4290063134
0.011920989 -0.0012652534 -0.015434822 4289932319
0.013793893 -0.0012242873 -0.015542072 4289605154
0.015666641 -0.0011831932 -0.015649214 4289735969
0.017708287 -0.0019530016 -0.015123263 4289539619
0.01992701 -0.0035333987 -0.01396473 4289670434
0.022156432 -0.005113503 -0.012806767 4289408804
0.023864925 -0.0042610802 -0.013546956 4289343014
0.025747739 -0.0042193704 -0.013654382 4288689194
0.02781304 -0.0049882391 -0.013129544 4288493098
0.030068979 -0.0065674912 -0.01197282 4289016614
0.032335609 -0.0081464034 -0.010816707 4288558123
0.034612924 -0.0097250342 -0.0096610961 4287772723
0.036707416 -0.010492952 -0.0091376957 4287249209
0.038610943 -0.010450371 -0.0092459973 4287052348
0.040514305 -0.010407758 -0.0093542617 4286921024
-0.026131075 -0.014190132 -0.0060173338 4286202433
-0.024539735 -0.011707232 -0.0080333436 4286202943
-0.023401484 -0.0059669637 -0.012587723 4287053624
-0.021853864 -0.0034847008 -0.014601068 4289408293
-0.020208053 -0.0018169577 -0.015978804 4289343014
-0.018338565 -0.0017777449 -0.016087105 4289670433
-0.016709272 -0.00011014566 -0.017463734 4289801503
-0.014968205 0.00074331928 -0.01820562 4289539873
-0.013107181 0.0007826779 -0.018313188 4290325019
-0.010989845 -0.00080583198 -0.017153159 4290914069
-0.0091236047 -0.00076615671 -0.017260876 4289605154
-0.0072574839 -0.00072637573 -0.017368509 4289670433
-0.0056642294 0.00094115455 -0.018742613 4289866783
-0.0036646873 0.00016723387 -0.018216621 4289801248
-0.0022271052 0.0026483554 -0.020222723 4290979094
-0.00022782385 0.0018746816 -0.019696601 4291175188
0.001629509 0.0019147815 -0.019803353 4291306259
0.0040866062 -0.0012990986 -0.01738007 4291306259
0.0059545487 -0.0012585884 -0.017487293 4290194459
0.0081331581 -0.0028447681 -0.016330108 4290063134
0.0098481253 -0.001990628 -0.017069496 4290063134
0.011879198 -0.002763059 -0.016544789 4289997344
0.013752006 -0.0027220952 -0.016652033 4289735714
0.015957206 -0.0043073739 -0.015496061 4289146663
0.017835148 -0.0042661182 -0.015603465 4288623914
0.020056345 -0.005850845 -0.014448333 4288296748
0.022288278 -0.0074353148 -0.013293723 4288035373
0.024176598 -0.0073935818 -0.013401535 4287839279
0.026244625 -0.008164634 -0.01287852 4287577139
0.02795276 -0.0073099211 -0.013616982 4287576884
0.030211173 -0.0088934433 -0.01246369 4288230959
0.032480337 -0.01047672 -0.01131093 4288165424
0.03476014 -0.012059634 -0.01015876 4287445814
0.036857225 -0.012829689 -0.0096371397 4287249208
0.03856723 -0.011974605 -0.010375462 4286987069
0.040470518 -0.011932028 -0.010483748 4286855744
-0.026170883 -0.015715618 -0.0071480153 4286333248
-0.024473134 -0.01404283 -0.0085258223 4286137153
-0.023331907 -0.0082872985 -0.013069079 4286530109
-0.022005197 -0.0041654692 -0.016343862 4288427053
-0.020476684 -0.0016770358 -0.018351141 4289342758
-0.018730056 -0.00082152477 -0.019091912 4290390043
-0.017108943 0.00085024722 -0.020464841 4289408804
-0.015498828 0.0025219349 -0.021837093 4288885543
-0.013523385 0.0017448058 -0.021311715 4289409059
-0.011414457 0.00015179999 -0.02015448 4289409058
-0.0095565021 0.00019128993 -0.020261727 4289932063
-0.0078322627 0.0010469146 -0.021000698 4289539618
-0.0059772655 0.0010865508 -0.021107618 4289474339
-0.0039833561 0.0003103679 -0.020582967 4289735969
-0.0024093911 0.0019819727 -0.021952551 4289735969
-0.00041300803 0.0012060413 -0.021427896 4290455578
0.0014414862 0.00124605 -0.021534503 4290390554
0.0037455931 -0.0011609243 -0.019748382 4289278244
0.005607985 -0.0011205464 -0.019855298 4289670433
0.0077809244 -0.0027112029 -0.018701021 4289801249
0.0096484646 -0.0026705209 -0.018808089 4289604898
0.011837445 -0.0042606737 -0.017654618 4290193439
0.013873637 -0.005035134 -0.01713172 4288885544
0.016247563 -0.0074400278 -0.015349261 4288558633
0.018299758 -0.0082139382 -0.014827206 4288035374
0.02052892 -0.0098028993 -0.01367573 4287969839
0.022768758 -0.011391497 -0.012524845 4287969584
0.024665132 -0.011349631 -0.012633151 4287576884
0.02638156 -0.010492663 -0.013370546 4287511349
0.027909853 -0.0088207759 -0.014736565 4287576628
0.030353308 -0.011223583 -0.012957667 4288361773
0.032437004 -0.011996328 -0.012436986 4288165679
0.034907289 -0.014398409 -0.010659521 4287511093
0.03642679 -0.012726467 -0.012024852 4287445303
0.038523555 -0.013498669 -0.011504803 4286987069
-0.026521504 -0.014784439 -0.01017436 4286463809
-0.024406627 -0.016382568 -0.0090213707 4286202433
-0.023153365 -0.011430556 -0.012921864 4286529853
-0.02182107 -0.0072977794 -0.016188923 4287053368
-0.020516075 -0.0031654644 -0.019454315 4288885033
-0.019003954 -0.0006706873 -0.02145575 4289997088
-0.017508246 0.0018238416 -0.023456164 4290651418
-0.015783641 0.00268122 -0.024193853 4290913559
-0.013813838 0.0019018268 -0.023669817 4290520858
-0.011710584 0.00030428451 -0.022515461 4291175188
-0.0098582059 0.00034364127 -0.022622395 4289800994
-0.0080059469 0.0003831042 -0.022729244 4289539363
-0.006153781 0.00042266026 -0.022836018 4289931808
-0.0040238053 -0.0011738469 -0.021682933 4289932064
-0.00216645 -0.0011339742 -0.021789853 4290062623
-0.00016482174 -0.0019119927 -0.021267131 4289866529
0.001547873 -0.0010539605 -0.022003461 4289212708
0.0037045553 -0.0026495764 -0.020851605 4288885798
0.0055668354 -0.0026092129 -0.02095852 4288362538
0.0080501214 -0.005839712 -0.018549588 4288035629
0.0099229887 -0.0057989508 -0.018656984 4288035629
0.012438633 -0.0090286275 -0.016249746 4288166443
0.014322072 -0.0089874435 -0.016357608 4288820518
0.016703881 -0.011398751 -0.01458042 4287708210
0.018595196 -0.011357235 -0.014688614 4287642674
0.020657949 -0.012133044 -0.014168747 4287577139
0.022725984 -0.012908642 -0.013649111 4287380534
0.024622269 -0.012866803 -0.013757429 4287511349
0.026518397 -0.012824869 -0.013865667 4287576884
0.028231911 -0.011965767 -0.014601263 4287642164
0.030495353 -0.013557961 -0.013454709 4288230959
0.032581612 -0.014332809 -0.012935856 4288885033
0.034482524 -0.014290519 -0.013044182 4287838513
0.035996623 -0.012614315 -0.014406023 4287576118
0.037695736 -0.011755196 -0.015140546 4286660158
-0.024659038 -0.016263623 -0.011410488 4286398273
-0.022975046 -0.014582263 -0.012780988 4286529598
-0.021748874 -0.0096177049 -0.016670164 4286595389
-0.020669881 -0.0038328716 -0.021187071 4288296493
-0.019277606 -0.00051093381 -0.023813054 4289931553
-0.017667416 0.0011692857 -0.025178902 4290258974
-0.01582301 0.0012081405 -0.025285624 4290847768
-0.01385339 0.00042655412 -0.024763204 4291044374
-0.012006473 0.00046568457 -0.024869908 4289931808
-0.01002891 -0.00031550601 -0.024347775 4289735459
-0.0083129592 0.00054425187 -0.025083061 4289604644
-0.0063301697 -0.00023665745 -0.024561103 4289539109
-0.0040642247 -0.0026578931 -0.022782777 4289604644
-0.0019237176 -0.0042584897 -0.021633428 4289866273
8.3178282e-05 -0.0050385818 -0.021112636 4289147173
0.0019483268 -0.0049983775 -0.021219883 4288231723
0.0038133413 -0.0049580801 -0.021327049 4288558889
0.0056782216 -0.0049176896 -0.021434136 4288231723
0.0080086365 -0.0073369262 -0.019659135 4287904558
0.010197304 -0.0089359377 -0.018512152 4287904558
0.012718029 -0.0121742 -0.016111666 4288231723
0.014933579 -0.013772423 -0.014966148 4288624169
0.016827658 -0.01373096 -0.015074585 4287773488
0.018890396 -0.014509043 -0.014556406 4287511859
0.020615354 -0.013647817 -0.015291263 4287577138
0.022857495 -0.015245163 -0.014146973 4287642163
0.024579428 -0.014383817 -0.014881594 4287772979
0.026295789 -0.013522543 -0.015615785 4287838258
0.028006554 -0.012661367 -0.016349636 4287903794
0.030452199 -0.015077254 -0.014580546 4288230703
0.032350488 -0.015035136 -0.014688805 4288885034
0.034248613 -0.014992924 -0.014796982 4286922554
-0.025017433 -0.015312629 -0.014421612 4286594368
-0.022905864 -0.016919438 -0.013274828 4287510584
-0.021565121 -0.012764797 -0.016526256 4288295983
-0.020709179 -0.0053187618 -0.022288367 4288427053
-0.019433904 -0.0011652661 -0.025535837 4289539108
-0.017826457 0.00051920582 -0.026898324 4289604644
-0.015739817 -0.0010875617 -0.025749676 4289473828
-0.013767671 -0.0018712752 -0.025229022 4289408549
-0.011918161 -0.0018321057 -0.025335886 4289408549
-0.0099380463 -0.0026154956 -0.0248155 4289277734
-0.0079526119 -0.003398627 -0.02429539 4289277734
-0.0059618428 -0.004181535 -0.023775503 4289016359
-0.0038268939 -0.0057867132 -0.022629157 4288558634
-0.0018227771 -0.0065691327 -0.022109888 4288558889
0.00033096969 -0.0081736827 -0.020964526 4288427564
0.0023484379 -0.0089556267 -0.020445887 4288558889
0.0042214915 -0.0089151952 -0.020553548 4288100909
0.0060944185 -0.0088746483 -0.020661108 4287904303
0.0084327236 -0.011300322 -0.018891398 4287773488
0.010629289 -0.012903474 -0.017748147 4287773488
0.012836613 -0.014506354 -0.016605409 4287707953
0.014728017 -0.014465076 -0.016713787 4288035118
0.016619273 -0.014423716 -0.016822092 4288230959
0.018510371 -0.014382263 -0.016930319 4287642673
0.020401359 -0.014340754 -0.017038492 4287511604
0.022292167 -0.014299151 -0.017146586 4287707699
0.02400592 -0.013435883 -0.017879102 4287641653
0.025893725 -0.01339422 -0.017986929 4287968819
-0.023272306 -0.015959833 -0.016278887 4286790973
-0.021827973 -0.012619689 -0.018895164 4286660158
-0.020862777 -0.0059793582 -0.024016004 4286987833
-0.019590065 -0.0018150737 -0.027255271 4287838258
-0.017865587 -0.00095134461 -0.027988233 4289408549
-0.015656721 -0.0033874162 -0.026216805 4289016104
-0.01368203 -0.0041733049 -0.025697879 4288950824
-0.011702009 -0.0049589463 -0.025179237 4289278243
-0.0097166486 -0.0057443632 -0.024660818 4289212964
-0.0077259615 -0.0065295696 -0.024142634 4288362029
-0.0055938475 -0.0081392648 -0.022999432 4288100398
-0.0035897829 -0.0089239841 -0.02248187 4287969583
-0.0015803985 -0.0097085014 -0.02196455 4287969584
0.00043430924 -0.010492808 -0.021447465 4287838514
0.0027482361 -0.0129258 -0.019681402 4288885799
0.0046293363 -0.012885202 -0.019789524 4287904303
0.006510295 -0.012844522 -0.01989758 4287773488
0.0083911344 -0.012803771 -0.020005573 4287839024
0.010745309 -0.015235512 -0.018241536 4287642673
0.012794577 -0.016018543 -0.017726047 4287904303
0.014685869 -0.015977304 -0.017834444 4288100653
0.01624506 -0.014287876 -0.019189771 4288950569
0.018299341 -0.015070597 -0.018674344 4288100399
0.019844666 -0.013381332 -0.020028774 4287773234
-0.023747213 -0.014159555 -0.019898362 4286398273
-0.022090584 -0.012465665 -0.021257538 4286529599
-0.020787701 -0.0082900273 -0.024490584 4286660924
-0.019278146 -0.0057693766 -0.026472528 4287511349
-0.017665286 -0.0040761023 -0.027828947 4289343523
-0.015573703 -0.005691506 -0.026687004 4289082149
-0.013471346 -0.0073065562 -0.025545668 4288166188
-0.011486065 -0.0080942726 -0.025028951 4287970094
-0.0094954409 -0.0088818241 -0.024512433 4287904814
-0.0074995011 -0.0096691037 -0.023996178 4288297004
-0.005362194 -0.011283018 -0.022856567 4288427309
-0.0033528656 -0.012069821 -0.022340942 4287969329
-0.0013382211 -0.012856462 -0.021825511 4288100144
0.00068174303 -0.013642832 -0.021310344 4287838514
0.0028539151 -0.015255611 -0.020172451 4287903793
0.0048872232 -0.016041528 -0.019657932 4288885798
0.0067735165 -0.016000755 -0.019766308 4288100399
0.0086596757 -0.015959915 -0.019874625 4287838513
0.010387935 -0.015092595 -0.020605199 4287838513
0.012271114 -0.015051633 -0.020713206 4287904048
0.013827749 -0.01335809 -0.022065215 4287903794
0.015705228 -0.013317095 -0.022172779 4288884523
-0.02235293 -0.012302879 -0.023613345 4286464064
-0.020598512 -0.011434428 -0.024344999 4286398783
-0.019083478 -0.008907116 -0.026322473 4287053369
-0.017584842 -0.0063800397 -0.028298914 4287904303
-0.015735518 -0.0063411486 -0.028405972 4288493608
-0.013636116 -0.0079606595 -0.027267657 4288755239
-0.011270326 -0.01123819 -0.024884965 4288166698
-0.0092744529 -0.01202777 -0.02437041 4287839279
-0.0075397342 -0.011159008 -0.025100388 4287904303
-0.0054026656 -0.012777306 -0.023964014 4288623403
-0.0032548346 -0.014395296 -0.022828132 4289016104
-0.0010962561 -0.016012922 -0.021692842 4288165423
0.00064073503 -0.015143721 -0.02242266 4287838259
0.0026658326 -0.015932109 -0.021909371 4287838258
0.0045467094 -0.015891561 -0.022017516 4287772468
0.006427452 -0.015850931 -0.022125594 4288099889
0.0079980865 -0.014153038 -0.023475397 4287118393
-0.022503596 -0.01296294 -0.025340799 4286463553
-0.020637825 -0.012924028 -0.025449052 4286529343
-0.019005883 -0.011221793 -0.026800212 4287249719
-0.01738489 -0.0095197465 -0.028150633 4287577139
-0.015530255 -0.009480739 -0.028257996 4287708719
-0.013425667 -0.011104466 -0.027123272 4287970094
-0.011182532 -0.013559259 -0.025368202 4288755238
-0.0090536624 -0.015182273 -0.024234734 4288820773
-0.0073135719 -0.014311243 -0.02496342 4288231723
-0.0054431073 -0.014271425 -0.025071342 4288100144
-0.003434144 -0.015062639 -0.024558965 4288361773
-0.0014198497 -0.015853662 -0.024046768 4289015848
0.00031163543 -0.014982382 -0.024774708 4287968819
0.0020375922 -0.014111208 -0.02550225 4287380278
-0.021019395 -0.011912024 -0.028413132 4286202178
-0.019161999 -0.011873189 -0.028520826 4287380278
-0.017185144 -0.012667948 -0.028008725 4287642164
-0.015447453 -0.01179523 -0.02873598 4287904303
-0.013340373 -0.013423299 -0.027604591 4287642163
-0.011477891 -0.013383972 -0.027712293 4287642419
-0.0093546994 -0.01501145 -0.026581723 4287969583
-0.0074869804 -0.014971806 -0.026689574 4288296493
-0.0056193583 -0.014932067 -0.026797347 4287772723
-0.021286551 -0.011722869 -0.030748993 4286136644
-0.01943472 -0.011684169 -0.030856378 4287576118
-0.017344024 -0.013317116 -0.029727481 4287903794
-0.015486922 -0.013278097 -0.029835016 4288165424
-0.013629917 -0.013238996 -0.029942483 4287707443
-0.011900622 -0.012364121 -0.030667517 4287445814
-0.0099161714 -0.013160514 -0.03015719 4286987833
-0.021667436 -0.01068671 -0.033695176 4287444794
-0.01982389 -0.010648219 -0.033802107 4287772214
-0.017741587 -0.012285708 -0.03267597 4288295728
-0.015892778 -0.0122469 -0.032783054 4287314488
-0.013919178 -0.013045968 -0.03227384 4286202433
0.016684845 0.0038111266 0.046645563 4281289349
0.018689178 0.0038547162 0.046530604 4280764813
0.01062651 0.0020742808 0.045800287 4282667114
0.012176529 0.0043817582 0.043656882 4279455388
0.013555698 0.0074435985 0.040838584 4278799019
0.017366439 0.0082844095 0.039935216 4278730678
0.0015962422 0.0055959178 0.040344778 4281553529
0.003582634 0.0056384308 0.040230338 4282470763
0.0054254681 0.0064381072 0.039441075 4279848088
0.0071165785 0.0079948111 0.037977424 4279324574
0.0090942383 0.0080374768 0.037863731 4278799784
0.01092016 0.0088371029 0.037075672 4278602669
0.012894705 0.0088798841 0.036962301 4278730933
0.014869049 0.0089227585 0.036849011 4278534838
0.022112019 0.0029991614 0.041899018 4279783064
-0.0044067316 0.003878084 0.039509561 4280896649
-0.0029495955 0.0069582406 0.036699142 4279520924
0.0045222417 0.009404934 0.034223903 4279389344
0.0061969981 0.010965676 0.032764453 4278472619
0.0084557012 0.0094896881 0.033997711 4278734504
0.012388386 0.0095748371 0.033771861 4278534838
0.01435443 0.0096175624 0.033659067 4280109463
0.016479917 0.0089014983 0.034218721 4279455389
0.018610634 0.0081856204 0.034778129 4278929834
0.021241866 0.0051936219 0.037353493 4279191974
0.024398103 -7.3957257e-05 0.041943338 4279192739
-0.012634978 0.0036435714 0.037444156 4282339949
-0.010774653 0.0044471705 0.036656447 4280963204
-0.0090440959 0.0060125533 0.035196412 4278734248
-0.0073245764 0.0075778021 0.033737093 4278996389
-0.005486507 0.0083812652 0.032950919 4279061669
-0.0039187185 0.01070799 0.030820586 4278668459
-0.00041930377 0.013076157 0.028578967 4279451563
0.0039061978 0.01087539 0.03036971 4279126184
0.0060079619 0.010156122 0.030928727 4278603433
0.0079662874 0.010198397 0.030816171 4278603433
0.0099244416 0.010240762 0.030703694 4278469049
0.01203654 0.0095220329 0.031262349 4278270659
0.020537339 0.0066492027 0.033494748 4279125929
0.023011133 0.0044097146 0.035392854 4279259038
0.026012458 -0.00011183601 0.039300442 4281947249
-0.020604901 0.0018920274 0.03672849 4280568973
-0.018954221 0.0042261845 0.034597509 4278930854
-0.013626389 0.0081706578 0.030896779 4278531778
-0.0099551119 0.009781261 0.029327597 4279127203
-0.0080010295 0.0098225782 0.029214639 4278472363
-0.0060470887 0.0098639997 0.02910177 4278471343
-0.0026797354 0.013002313 0.026194211 4280109464
-0.00087491423 0.013807594 0.025411833 4279389853
0.0014861375 0.011558131 0.027310815 4279454369
0.0059649497 0.0085876649 0.029766347 4278733994
0.0077745244 0.0093934229 0.028984047 4278406828
0.0095784441 0.010199235 0.028202135 4278669224
0.017711289 0.0088427914 0.029092368 4278864299
0.019998245 0.0073593901 0.030317966 4278668969
0.022128195 0.0066393241 0.03087439 4278865574
0.024774604 0.0036304798 0.033436045 4278996898
0.027961969 -0.0016667573 0.038001638 4280767619
-0.026891615 0.0024835533 0.033886079 4282470508
-0.025019731 0.0032908712 0.033100359 4281028484
-0.023468319 0.0063980259 0.030303072 4279259039
-0.021723434 0.0079717739 0.028848127 4278734759
-0.020099979 0.010311856 0.026723631 4278471343
-0.018153556 0.010352439 0.026610687 4278405043
-0.016323112 0.01115951 0.025827833 4279124654
-0.014142461 0.0096676601 0.027054962 4278861239
-0.010245044 0.0097497506 0.026829436 4278537134
-0.0082965493 0.0097909598 0.02671681 4278669224
-0.0062186904 0.0090661896 0.027273495 4278668969
0.0033911541 0.010040489 0.026042983 4279058099
0.0056302175 0.0085509876 0.027267568 4278602923
0.0072857067 0.010124498 0.025819093 4278930598
0.0090813935 0.010932268 0.025039308 4278537899
0.011025488 0.010974466 0.024927743 4278537899
0.013282858 0.0094857635 0.026151571 4278734758
0.015391462 0.0087628374 0.02670737 4278537898
0.017505325 0.0080400771 0.027262975 4278603433
0.019294582 0.0088482341 0.026483878 4278603434
0.021245845 0.0088910749 0.026372261 4278471853
0.023367248 0.0081687728 0.026927654 4279259294
0.0265323 0.0028558457 0.031483147 4282143854
-0.033220127 0.003859546 0.030381653 4282011509
-0.025878251 0.0078648226 0.026578043 4278800038
-0.024138741 0.0094426768 0.025126617 4278800294
-0.022302601 0.010251737 0.02434475 4278603179
-0.018533919 0.011101193 0.023450892 4278929834
-0.016480111 0.010373169 0.024006929 4279324064
-0.014302433 0.0088768573 0.025231037 4279127204
-0.012235243 0.0081493566 0.025786478 4278994349
-0.010410748 0.0089588361 0.025005851 4278666673
-0.0084651187 0.0090000005 0.024893399 4278734504
-0.006519638 0.0090412823 0.024781048 4278407084
-0.0045743026 0.0090826554 0.024668779 4278472619
0.00083969533 0.011511586 0.022331551 4278274738
0.00306236 0.010017217 0.0235538 4278603434
0.0048583373 0.010827024 0.022775434 4278734504
0.0069457516 0.010101031 0.023330584 4278472363
0.008735925 0.010910916 0.022552706 4278406829
0.010674439 0.010953006 0.022441469 4278472108
0.012769453 0.010227473 0.022996396 4278865319
0.015029117 0.008734568 0.024216939 4278603179
0.017137341 0.0080095651 0.024771217 4278471853
0.025622629 0.0051115863 0.02698607 4278404534
0.029162861 -0.0017504976 0.032858919 4281618809
-0.038901165 -0.00014417432 0.031568266 4282405229
-0.03753002 0.0052952208 0.026773185 4279128224
-0.0358431 0.0076487223 0.024653986 4278800038
-0.033898927 0.0076882904 0.024540458 4278996898
-0.026429452 0.010160911 0.022084586 4278864299
-0.024598759 0.010971886 0.021304615 4278734504
-0.022558436 0.010241061 0.02185956 4278734758
-0.016752746 0.010362175 0.021522738 4278598588
-0.014817756 0.010402775 0.021410652 4278597059
-0.010824226 0.0097137531 0.021853067 4278863533
-0.0088869147 0.0097547555 0.021741107 4278472619
-0.0069497414 0.0097958734 0.021629248 4278669224
-0.0050127283 0.0098370733 0.021517459 4278735013
-0.0030758567 0.0098783905 0.021405764 4278538409
-0.0014142618 0.011460357 0.01996313 4278537898
0.00051683187 0.011501777 0.019851938 4278603689
0.002447769 0.011543314 0.019740846 4278472364
0.0043785274 0.011584918 0.019629814 4278341039
0.0063091069 0.011626662 0.019518904 4278734504
0.0083906949 0.010898496 0.020072792 4278537898
0.010169744 0.011710403 0.019297309 4278537644
0.012413017 0.010212717 0.020515498 4278472109
0.014507651 0.0094851283 0.021068856 4278603434
0.016607538 0.0087577505 0.021622058 4278470833
0.018053517 0.011109349 0.019519087 4278600118
0.019817986 0.011921401 0.018744785 4279059629
0.024713576 0.0073894104 0.02250535 4279322278
0.027888209 0.002046261 0.027037758 4279651484
0.031100705 -0.0032959078 0.031568039 4282340459
-0.039107051 -0.00017317198 0.029065717 4281946485
-0.037826844 0.0060548661 0.023615412 4278734759
-0.036236543 0.0091882488 0.020834755 4278538409
-0.03430343 0.0092276009 0.020721879 4278865064
-0.032464296 0.010040478 0.019942623 4279325083
-0.030630693 0.01085334 0.01916384 4278996899
-0.028703276 0.010892942 0.019051567 4279191973
-0.026775945 0.01093267 0.018939398 4278864298
-0.024743918 0.010199401 0.019493137 4278930343
-0.022814061 0.010239431 0.019381005 4278603944
-0.020884313 0.010279569 0.01926896 4278538154
-0.014977328 0.0096277939 0.019598454 4278793918
-0.012924179 0.0088956645 0.020151488 4279059883
-0.011237361 0.010482025 0.018710185 4278734758
-0.0093083642 0.010522853 0.018598706 4278341804
-0.0072501749 0.009791133 0.019151751 4278669223
-0.0051866919 0.0090596834 0.019704528 4278668969
-0.0033874623 0.0098734433 0.018928938 4278800039
-0.0014563277 0.0099147679 0.018817674 4278669223
0.00033440441 0.010728625 0.018042702 4278537898
0.010126911 0.010164845 0.018151931 4278668969
0.012213379 0.00943485 0.018704101 4278537898
0.014145821 0.009477024 0.018593375 4278472108
0.01768069 0.011105408 0.017047435 4279781278
0.019439653 0.011919542 0.016275082 4280043929
0.021533318 0.011190166 0.016827181 4279716254
0.023977995 0.0089176064 0.018702853 4278798764
0.026789986 0.0051022572 0.021901116 4278340529
0.029985644 -0.0002555903 0.026421055 4280963458
-0.039146833 -0.0017447378 0.027900789 4282010744
-0.037780676 0.0037250305 0.023128718 4279258529
-0.036364369 0.0084185405 0.019024067 4279193248
-0.032785513 0.010823891 0.016804311 4278927283
-0.030863613 0.010863264 0.016692277 4278861238
-0.028941799 0.010902771 0.016580343 4278270148
-0.027020074 0.010942393 0.016468506 4278666673
-0.02509845 0.010982142 0.016356774 4278734759
-0.023176916 0.011021988 0.016245116 4278931110
-0.021255497 0.011061975 0.016133569 4278538154
-0.019334186 0.011102078 0.016022123 4278669479
-0.017181691 0.0095921038 0.017237857 4278538154
-0.015255172 0.0096325381 0.01712627 4278538154
-0.013328765 0.0096731009 0.017014787 4278735013
-0.01152632 0.010488679 0.01624031 4278866084
-0.0096029155 0.010529389 0.016129155 4278866084
-0.0075503699 0.0097954152 0.016680866 4278800549
-0.0054925382 0.0090616671 0.017232351 4278603944
-0.0035641156 0.0091028316 0.017121166 4278538409
-0.0017732866 0.0099187372 0.016347785 4278472363
1.1943281e-05 0.010734615 0.015574799 4278471853
0.0096227303 0.010942419 0.015022655 4278799783
0.011544347 0.010984288 0.014912496 4278734504
0.013306566 0.011800398 0.014141372 4278536879
0.017308094 0.011110396 0.014582469 4278531269
0.025516979 0.0089583835 0.01612395 4278995879
0.028693028 0.0035849372 0.020633668 4278340274
0.032268934 -0.003334994 0.026460908 4282274158
-0.039103732 -0.0040939767 0.027399976 4280109974
-0.03773462 0.001391138 0.022639014 4279324318
-0.036403745 0.0068756109 0.017880391 4278800548
-0.034746852 0.009248239 0.015777618 4278734248
-0.031096317 0.010882241 0.014227348 4278598079
-0.02746791 0.012516265 0.012678799 4278930088
-0.025557328 0.012555764 0.012567691 4278538154
-0.02364685 0.012595418 0.012456703 4278734504
-0.021406058 0.010302984 0.014332593 4278472619
-0.019600488 0.011120395 0.013559177 4278472364
-0.017338116 0.0088286335 0.015433981 4278603434
-0.015414465 0.0088690231 0.015322571 4278669224
-0.013490923 0.008909517 0.015211248 4278407084
-0.0056662112 0.0082957214 0.015427901 4278537899
-0.0038753115 0.0091136815 0.014656045 4278669223
-0.0020899959 0.0099316472 0.013884599 4278734759
0.001749441 0.010014159 0.01366365 4278405553
0.0035233721 0.010832199 0.012893099 4279258274
0.0054399595 0.010873658 0.012783005 4279389599
0.0073563829 0.010915198 0.012672982 4279126439
0.009426333 0.010180392 0.01322279 4278537388
0.011345118 0.010222205 0.013112798 4278537643
0.013104551 0.011040431 0.01234345 4278603434
0.015020244 0.011082363 0.012233773 4278405809
0.017100349 0.010348164 0.012783285 4278599354
0.019353017 0.0088380268 0.013991536 4278728383
0.023199365 0.0089228647 0.013771803 4279191719
0.025122233 0.0089654038 0.01366205 4278995879
0.027935915 0.0051284106 0.016844105 4279126693
0.03113842 -0.0002596518 0.021341089 4280895628
0.034378774 -0.0056467373 0.025835946 4279909289
-0.039143562 -0.0056671314 0.026233871 4279848344
-0.037517563 -0.00250701 0.023470461 4280504968
-0.03617828 0.0029928805 0.018722676 4279652759
-0.034695208 0.006932158 0.015300742 4278931618
-0.033145741 0.010091108 0.012542087 4278603944
-0.031232323 0.010130328 0.012430562 4278407084
-0.029318992 0.010169667 0.01231913 4278406828
-0.027609564 0.011768586 0.010885571 4278734759
-0.025911134 0.013367445 0.0094527034 4278603433
-0.024008967 0.013406902 0.0093421796 4278668969
-0.021886759 0.01188733 0.010553082 4278603688
-0.019753747 0.010368136 0.011763398 4278538409
-0.017725486 0.009628729 0.01231285 4278538409
-0.015810154 0.0096689546 0.012201932 4278800039
-0.013894938 0.0097092995 0.01209111 4278537133
-0.0061035194 0.0090925666 0.012308104 4279191464
-0.0044554733 0.010691638 0.010879099 4278537643
-0.002681125 0.011511539 0.010109901 4278669224
0.0051012337 0.010897323 0.010329356 4278399433
0.0089227483 0.010980288 0.01011006 4278471343
0.010989629 0.010243331 0.010658495 4278799784
0.012902662 0.010285118 0.010548904 4278734759
0.015139155 0.0087700346 0.011754741 4278865319
0.017221801 0.008033731 0.012302504 4278996134
0.019811489 0.0049625812 0.014822102 4279913879
0.021742813 0.0050051408 0.014711742 4280502674
0.023501232 0.0058260011 0.013944427 4283316599
-0.039183389 -0.0072400006 0.025067981 4280701319
-0.037471835 -0.0048534102 0.022971489 4280636294
-0.036041364 -0.00012045633 0.018895179 4280636294
-0.034734622 0.005394144 0.014160722 4278800548
-0.03318508 0.008561804 0.011408533 4278931110
-0.031368222 0.0093830368 0.0106372 4278538154
-0.029457767 0.0094223199 0.010525938 4278669224
-0.02203691 0.011144116 0.0087637976 4278537898
-0.020019643 0.010402194 0.009312192 4278669479
-0.01799703 0.0096605094 0.0098603703 4278603433
-0.012515459 0.011344065 0.0082123848 4279782808
-0.010611545 0.011384382 0.0081023714 4278997154
-0.0085786693 0.010643479 0.0086503774 4278864044
-0.006540481 0.0099028042 0.0091981608 4278732718
-0.0049006157 0.011506015 0.007772903 4278471853
-0.0028599948 0.010765624 0.0083207199 4278669224
-0.00081409514 0.01002542 0.0088682864 4278668968
0.0013798177 0.0085044252 0.010072784 4278405808
0.0066680163 0.010971229 0.0077730259 4279518629
0.0087267309 0.010231824 0.0083202459 4279061924
0.011103325 0.0079311067 0.010179996 4279127204
0.013178013 0.0071922438 0.010726442 4278865828
0.015419707 0.005672995 0.011928726 4279193504
0.017507613 0.0049346294 0.012474568 4278536879
-0.039471366 -0.0064591412 0.021925252 4281357179
-0.037426211 -0.0072038923 0.022469491 4280898179
-0.035904672 -0.0032421853 0.019061398 4280767108
-0.034501348 0.0015034089 0.014996479 4278997664
-0.033037186 0.0054642102 0.011591932 4278865829
-0.031311318 0.0070719803 0.010163667 4278603688
-0.029695492 0.0094637489 0.0080781365 4278734503
-0.020172615 0.0096613793 0.0075248973 4278930599
-0.018268343 0.0097012473 0.0074145244 4278603434
-0.012679853 0.010605237 0.0064273328 4278269383
-0.010905109 0.01142907 0.0056610266 4279187894
-0.0088778771 0.010685886 0.0062077492 4278400453
-0.006845329 0.0099428622 0.0067542763 4278401219
-0.0050764531 0.010766963 0.0059885262 4278799273
-0.0030387416 0.01002428 0.0065349275 4278602924
-0.00099574775 0.0092818448 0.0070810476 4278537388
0.0011951774 0.0077564353 0.0082824863 4279061413
0.0029607341 0.0085808439 0.0075172838 4279258529
0.0048687831 0.0086221127 0.0074076746 4279978903
0.0067766532 0.0086634988 0.0072981659 4280305813
-0.039676346 -0.0064515769 0.019449804 4281422459
-0.037551466 -0.0079852715 0.020650014 4281095039
-0.035856318 -0.0055858064 0.018564295 4280833154
-0.034359254 -0.0016135722 0.015165825 4280178314
-0.033076633 0.0039310763 0.010455539 4278865573
-0.031543385 0.0071159573 0.0077173449 4278472108
-0.030032005 0.010300507 0.0049805148 4278471598
-0.028339047 0.011912203 0.0035575866 4278341294
-0.026552606 0.012737545 0.002791543 4278669479
-0.020325471 0.0089252191 0.0057409769 4278668459
-0.018539436 0.0097510079 0.0049752933 4278603433
-0.016522791 0.0090049701 0.0055206763 4278537899
-0.010945931 0.0099111991 0.004536076 4278400198
-0.0090478659 0.0099515086 0.0044264873 4278795193
-0.0070182458 0.009206309 0.0049715405 4279650973
-0.0052521639 0.010032474 0.0042076041 4278799273
-0.0030802228 0.0085020429 0.0054067811 4278864808
-0.0010374263 0.0077574374 0.0059513031 4278602923
0.0011532605 0.0062276451 0.0071495017 4278995368
0.0032093674 0.0054835631 0.0076934351 4279451819
-0.039963704 -0.0056462418 0.016325291 4282012784
-0.037761942 -0.0079731969 0.018178325 4280832643
-0.035808064 -0.0079335095 0.018064171 4280833154
-0.034126587 -0.0055277087 0.015984241 4280309385
-0.033022575 0.0016096141 0.0099744862 4279389598
-0.031678993 0.0063803727 0.0059326608 4279127204
-0.026800845 0.012805396 0.00036415039 4278997408
-0.024704099 0.011267814 0.0015634676 4279061414
-0.02070336 0.009770046 0.0026524668 4279061159
-0.01881028 0.0098097054 0.0025427635 4278603689
-0.016681269 0.0082732579 0.0037405496 4278734759
-0.014782965 0.008313247 0.0036307075 4278865574
-0.012761321 0.0075653689 0.004174355 4279127458
-0.010986742 0.0083935549 0.0034112944 4279257764
-0.008959908 0.0076460177 0.0039548129 4279454878
-0.0070593953 0.007686493 0.0038451697 4279585949
-0.0051590204 0.0077270856 0.0037356233 4279192229
-0.0032587834 0.0077677844 0.003626164 4278994093
-0.037972189 -0.0079521807 0.015713338 4281356923
-0.036023915 -0.0079126153 0.015599505 4281291644
-0.034166429 -0.0070820949 0.014832086 4280767363
-0.033062071 7.4840151e-05 0.0088368794 4279849619
-0.031910662 0.0064401589 0.0034979847 4279062688
-0.022855978 0.0097984457 0.00033568987 4278995114
-0.02085587 0.009047457 0.00087860716 4278865319
-0.018965654 0.0090870494 0.00076906499 4278865574
-0.016839616 0.007546152 0.0019638385 4278865319
-0.014823496 0.0067958711 0.0025061048 4279520924
-0.012678627 0.0052555902 0.0036999532 4280044183
-0.010649133 0.0045058085 0.0042416072 4281221519
-0.038182206 -0.0079221874 0.013255001 4282013039
-0.036327489 -0.0070896298 0.012489227 4281291133
-0.034387611 -0.0070501091 0.01237598 4280636293
-0.033008169 -0.0022526439 0.0083513632 4279784848
-0.031757608 0.0033371849 0.0036770073 4278866594
-0.030446433 0.0081335576 -0.00034347642 4278735014
-0.028863311 0.010550863 -0.0024076265 4278997408
-0.026879463 0.009797032 -0.0018656251 4279192739
-0.024890251 0.0090434263 -0.0013238512 4279717019
-0.022895698 0.0082900329 -0.00078231085 4279717018
-0.021008253 0.008329452 -0.00089177943 4279061923
-0.019120906 0.0083689773 -0.0010011614 4278667948
-0.036454942 -0.0078438725 0.010690077 4281816178
-0.03442733 -0.0085995998 0.011227452 4280373899
-0.032767691 -0.0061745462 0.0091634346 4279653268
-0.031508729 -0.00056927744 0.0044998601 4279785104
-0.030287966 0.0050352942 -0.00016134977 4279455898
-0.028699391 0.0074592968 -0.002220999 4279914644
-0.026710298 0.0067033917 -0.0016809241 4280372624
-0.036670111 -0.0077960845 0.0082453452 4278737308
-0.034557603 -0.0093514584 0.0094302809 4279653268
-0.032807395 -0.0077172546 0.0080199456 4280046734
-0.031164166 -0.005285834 0.0059617916 4280309129
-0.029932264 0.00033417158 0.0013112321 4280176784
-0.036972836 -0.0069396822 0.0051598363 4281225598
-0.034868766 -0.0084996102 0.0063420078 4280964224
-0.032847088 -0.0092597362 0.0068766251 4281095040
-0.031107895 -0.007621238 0.0054702163 4281160319
-0.035179578 -0.0076344903 0.0032636472 4281947248
-0.033166289 -0.0083969217 0.0037970934 4281028994
-0.031243518 -0.0083575062 0.0036850246 4281225344
-0.035490055 -0.0067560123 0.00019511324 4282602599
-0.033392027 -0.0083246958 0.0013712975 4281291133
-0.031379014 -0.0090891896 0.0019032313 4281225854
-0.033803649 -0.0066314694 -0.002332381 4281881204
-0.03161018 -0.0090102758 -0.0005172696 4281684088
-0.031649657 -0.010538781 -0.00165022 4282143088
-0.033432625 -0.011870426 -0.021229398 4282861423
-0.0013933629 -0.01025807 -0.034867156 4282994023
