# .PCD v0.7 - Point Cloud Data file format
VERSION 0.7
FIELDS x y z rgba
SIZE 4 4 4 4
TYPE F F F U
COUNT 1 1 1 1
WIDTH 967
HEIGHT 1
VIEWPOINT 0 0 0 1 0 0 0
POINTS 967
DATA ascii
-0.015787192 -0.021764643 0.017255004 4289670944
-0.013709914 -0.022495881 0.017759429 4289344289
-0.011627343 -0.023226865 0.018263534 4289476124
-0.0026761517 -0.019040165 0.01426368 4288037669
-0.0024710894 -0.010365993 0.0069516785 4288492844
-0.0026451349 -0.000126075 -0.0016579735 4287772468
-0.0024031624 0.0077612903 -0.0083093345 4288361519
-0.0012257099 0.010946421 -0.011052071 4289408294
0.00043296814 0.011780879 -0.011841504 4289473828
0.0020860583 0.012615239 -0.012630392 4289277734
0.003906697 0.012666309 -0.012768678 4289997344
0.0055513158 0.013500607 -0.013556793 4289539363
0.0075474754 0.012768669 -0.013045032 4290585884
0.0091863051 0.013602985 -0.013832573 4289800738
0.011371575 0.012088461 -0.012671769 4289539109
0.013194062 0.012140026 -0.012809858 4289473573
0.014826924 0.012974424 -0.013596755 4289408294
0.016646318 0.013026072 -0.01373449 4290781978
0.018465541 0.013077782 -0.013872157 4289997089
0.020284571 0.013129571 -0.014009746 4289081385
0.022704348 0.010833984 -0.012203082 4288950314
0.025140204 0.0085389297 -0.010397574 4289080618
-0.026885252 -0.027565293 0.020257449 4286399039
-0.025295924 -0.025152117 0.018150114 4289800228
-0.023598883 -0.023526069 0.016696392 4289670178
-0.021912828 -0.021900151 0.01524356 4289670433
-0.020108189 -0.021061059 0.014443517 4291109909
-0.018441379 -0.019435436 0.012992335 4291306259
-0.016380537 -0.020169448 0.013496356 4290652439
-0.014452104 -0.020116776 0.013348824 4289344288
-0.012242902 -0.021636622 0.014503336 4289737499
-0.0022109225 -0.013457973 0.0071208458 4288558123
-0.0020596758 -0.0047612898 -0.00016912865 4288099634
-0.0019684136 0.0039339047 -0.0074544754 4287641909
-0.0011124536 0.0086992476 -0.011489564 4289015849
0.00021362305 0.011107078 -0.013575384 4289342758
0.002034314 0.011158025 -0.013713762 4289015849
0.003681764 0.011994502 -0.01450053 4288688684
0.0053236261 0.012830904 -0.015286805 4288099888
0.0071383789 0.012881985 -0.015424509 4289604644
0.0089529529 0.012933148 -0.015562136 4289539108
0.011135243 0.011414183 -0.014404355 4289735203
0.012954913 0.011465652 -0.014542243 4289866019
0.014585033 0.012302173 -0.015327297 4289473318
0.016401626 0.01235372 -0.015464833 4290323744
0.018023223 0.01319016 -0.016249117 4290585884
0.019836731 0.013241785 -0.016386295 4290389533
0.0220505 0.011724202 -0.015230531 4290455069
0.024477884 0.0094224121 -0.013429238 4290651163
0.027744003 0.0039831828 -0.0090450328 4289734693
-0.025348622 -0.026706904 0.01699396 4289473573
-0.023651585 -0.025076499 0.015543493 4289801249
-0.022092313 -0.022657372 0.013443514 4289408804
-0.020419963 -0.021027364 0.011995068 4290979094
-0.018758599 -0.019397568 0.010547602 4290194204
-0.016838361 -0.019345237 0.010400609 4290979348
-0.014918219 -0.01929279 0.010253713 4289213219
-0.012577087 -0.021605738 0.012055033 4289410079
-0.0014748499 -0.0094135758 0.0013069538 4288558379
-0.0015340894 9.3661249e-05 -0.0066091046 4287772978
-0.0011641905 0.0072357487 -0.012577628 4288296238
0.00016199052 0.0096501168 -0.014658575 4288950313
0.0014717504 0.012064056 -0.016738174 4290389534
0.0031109974 0.012902508 -0.017522743 4290193183
0.0047446564 0.013740858 -0.018306771 4289866274
0.0069080144 0.012216797 -0.017150886 4290193183
0.0087197796 0.012267875 -0.017288305 4290323743
0.010899082 0.010744477 -0.016133549 4289604389
0.012715921 0.010795882 -0.016271211 4289604389
0.014343314 0.011634482 -0.017054444 4289342504
0.015965074 0.012473008 -0.017837187 4289015594
0.017775953 0.012524487 -0.017974216 4288819244
0.019784071 0.011789152 -0.017466152 4290323743
0.021797441 0.011054037 -0.01695843 4290258463
0.024018921 0.0095323902 -0.01580645 4289408294
0.026456647 0.0072244387 -0.014010756 4288949803
-0.026753694 -0.032270133 0.019234445 4287575864
-0.025401317 -0.028261431 0.015838003 4288296238
-0.023952246 -0.025044428 0.013092751 4289212199
-0.022398341 -0.022618918 0.010998059 4289735969
-0.020731431 -0.020984761 0.0095533123 4288820008
-0.018943362 -0.020141656 0.0087578734 4288950824
-0.017160844 -0.019298596 0.0079629393 4289605409
-0.015383884 -0.018455502 0.0071684932 4289867294
-0.013191573 -0.019984551 0.0083178459 4289672219
-0.010988511 -0.021513142 0.0094664227 4289019418
-0.0010499433 -0.013292961 0.002124002 4288428329
-0.0011002421 -0.0037593972 -0.0057732593 4288296493
-0.00088639557 0.0041925218 -0.012373756 4287576373
-5.710125e-05 0.0089832824 -0.016387274 4289342759
0.0012500212 0.0114037 -0.018461855 4290193184
0.0030594468 0.011454454 -0.018599289 4290585629
0.0046930686 0.012294983 -0.019381689 4290650908
0.0066778138 0.011556214 -0.018873919 4290781979
0.0084867552 0.011607205 -0.019011127 4289865763
0.010479309 0.010868793 -0.018503774 4289538854
0.012477107 0.010130672 -0.017996788 4289277224
0.014290966 0.010182051 -0.018134182 4289473319
0.016104639 0.010233523 -0.018271489 4289276968
0.017918117 0.010285085 -0.01840871 4289015594
0.019928791 0.0095476415 -0.017902466 4289015594
0.021544568 0.010388399 -0.018682962 4288950314
0.023357503 0.010440161 -0.018819978 4288688428
0.025170259 0.01049198 -0.018956939 4288753198
0.028648525 0.0042337421 -0.013953059 4288622129
-0.026569642 -0.035422187 0.019366195 4286333249
-0.025453992 -0.029815692 0.014682239 4286399293
-0.024252605 -0.025003426 0.010648724 4288950313
-0.022704065 -0.02257156 0.0085593006 4290520858
-0.021042597 -0.020933185 0.0071182325 4290455578
-0.019127969 -0.020881129 0.0069715763 4290717719
-0.017348245 -0.020035923 0.0061784424 4290848533
-0.015436567 -0.019983705 0.006032194 4290456344
-0.013525002 -0.019931383 0.005886035 4289541404
-0.011184722 -0.022257274 0.0076777702 4289411354
-0.00046623498 -0.017977448 0.0035762147 4288690213
-0.00050488859 -0.0084174313 -0.0043024914 4288492844
-0.00060889125 0.0011407845 -0.012176138 4287707444
-0.00010864437 0.0075289514 -0.01746851 4288753963
0.0010284781 0.010747893 -0.020182086 4289342503
0.0028350726 0.010798572 -0.0203193 4289735204
0.0046415105 0.010849332 -0.020456439 4290062113
0.0066260472 0.01010838 -0.019950276 4290258463
0.0084348768 0.010159383 -0.020087468 4289604389
0.010427251 0.0094187688 -0.019581741 4289342503
0.012238458 0.0094700102 -0.019718982 4289342503
0.014049493 0.0095213186 -0.019856157 4289473574
0.015668489 0.010364166 -0.020635478 4289538853
0.017476454 0.010415537 -0.020772306 4289211944
0.019481517 0.0096757282 -0.020267211 4289211944
0.021291845 0.0097273272 -0.020404099 4289604389
0.022696555 0.011361217 -0.021823714 4289800483
0.02429568 0.012203803 -0.02260123 4289996579
0.02713795 0.00830069 -0.019532399 4290257699
0.031483144 -0.0011376608 -0.011980138 4290060838
-0.024552658 -0.024953462 0.0082112877 4288949803
-0.023136042 -0.021719847 0.0054815887 4289473573
-0.021353453 -0.020872653 0.0046897344 4289932063
-0.019312426 -0.021615978 0.0051886439 4290717464
-0.017535489 -0.020768728 0.0043973811 4290782998
-0.015626661 -0.020716585 0.0042513544 4289278243
-0.013858117 -0.019869335 0.0034609016 4289278754
-0.011666518 -0.021406917 0.0046038749 4289671964
0.00025177747 -0.013887119 -0.0022016212 4288885543
-2.4586916e-06 -0.003508104 -0.010699537 4287772724
0.0001744926 0.0044863019 -0.017264724 4288230449
0.00080710649 0.010096645 -0.021898923 4289146153
0.0026108697 0.010147212 -0.022035943 4289538599
0.004414469 0.010197902 -0.022172861 4289277224
0.0062179193 0.010248659 -0.022309713 4289342503
0.0078403056 0.011093361 -0.023087904 4289408038
0.0096407011 0.011144193 -0.023224404 4289277224
0.011813618 0.009607682 -0.022078821 4289015593
0.013808183 0.0088651758 -0.021574793 4289342759
0.015808001 0.008122867 -0.021071056 4289342759
0.017424084 0.0089678597 -0.021848492 4289342759
0.019034572 0.0098127332 -0.022625403 4289211944
0.020639479 0.010657517 -0.023401843 4289408038
0.022238746 0.011502193 -0.02417781 4290323743
0.023832411 0.012346817 -0.024953282 4290127394
0.026460722 0.0092258137 -0.022531513 4290650399
0.029953673 0.0029332805 -0.017554665 4290191654
-0.024604883 -0.026489822 0.007068852 4288034099
-0.023188122 -0.023247521 0.0043456266 4289277224
-0.021276407 -0.023195673 0.0041990988 4289408549
-0.019232869 -0.023941133 0.0046962481 4289670689
-0.017587926 -0.022294251 0.0032630602 4289474338
-0.015953962 -0.020647615 0.0018308263 4289343524
-0.01419092 -0.019798335 0.0010424249 4289409058
-0.012290627 -0.019746196 0.0008972222 4289998363
-0.010244962 -0.020491015 0.0013945675 4288888604
0.00068405271 -0.017785136 -0.0013992018 4289016613
0.00060337782 -0.0081741456 -0.0092356876 4288754219
0.00062458962 0.0006387122 -0.01642637 4287707188
0.0010957941 0.0070608985 -0.02169052 4289015083
0.0025595129 0.0087041873 -0.023108754 4289407528
0.0041876137 0.0095510315 -0.0238859 4289473574
0.0056319833 0.011194 -0.025302576 4289538853
0.0072461888 0.012040643 -0.026078524 4290651164
0.0088547915 0.012887223 -0.026853977 4290651164
0.011202872 0.010550106 -0.025071383 4290323999
0.013378076 0.009009378 -0.023929169 4289146408
0.015372276 0.0082647745 -0.023426676 4289080873
0.017177336 0.0083160605 -0.023563288 4289408038
0.018785097 0.0091630127 -0.024338381 4289408038
0.020387255 0.010009872 -0.025113003 4290258464
0.02198381 0.010856656 -0.025887135 4289342503
0.023780018 0.010908002 -0.026022846 4286856764
0.025784023 0.010164099 -0.025520774 4287118138
0.028425343 0.0070348028 -0.023106392 4289472553
0.032581985 -0.0016597379 -0.016232267 4290389534
0.042386666 -0.023813402 0.0013242469 4289343014
-0.0246571 -0.028025968 0.0059265764 4286398784
-0.02311378 -0.025574768 0.0038521721 4288491823
-0.021199498 -0.025522817 0.003705472 4289604389
-0.019417159 -0.024671163 0.0029168979 4289800994
-0.017909493 -0.022220559 0.00084550399 4289866784
-0.016280957 -0.020569671 -0.00058310042 4290651929
-0.014523409 -0.019718381 -0.0013694686 4290063389
-0.012628708 -0.019666411 -0.0015142558 4289540129
-0.010588683 -0.020413537 -0.0010180864 4289541403
0.00063064694 -0.019299649 -0.0025252055 4288428838
0.0010441393 -0.012058651 -0.0084240763 4289016104
0.00090706348 -0.0024231095 -0.016236763 4287641908
0.0015540943 0.0032180678 -0.020849403 4288164914
0.0026807711 0.0064628739 -0.023542652 4289276713
0.0041362345 0.0081103388 -0.024956962 4289342759
0.0052245706 0.011354247 -0.027647162 4289669668
0.0068333074 0.012202913 -0.02842107 4290651164
0.0086199343 0.012253342 -0.028556537 4290651164
0.010964945 0.0099096466 -0.026778633 4290716444
0.013137199 0.0083644371 -0.025639407 4290258463
0.015128508 0.0076175723 -0.025138322 4289146408
0.016930759 0.0076687727 -0.025274724 4289211944
0.018732816 0.0077200551 -0.025411049 4289408038
0.019935459 0.010164494 -0.027457563 4290585118
0.021324098 0.011810878 -0.028866213 4289799973
0.023112088 0.011861974 -0.029001312 4288034098
0.025107786 0.01111568 -0.028500227 4287314488
0.027319372 0.0095721502 -0.027363557 4288033843
0.0306082 0.0040425453 -0.02304906 4288622129
0.041017927 -0.020564843 -0.0036281366 4288556338
-0.024462078 -0.031165855 0.0060663503 4285940804
-0.023165915 -0.027104128 0.0027149559 4287445303
-0.021251772 -0.027052218 0.00256824 4289408294
-0.019469503 -0.02619838 0.0017813039 4289669924
-0.018096242 -0.022939596 -0.00092532038 4290782488
-0.016607624 -0.020482855 -0.0029903592 4290652183
-0.014855586 -0.019629534 -0.0037746765 4290586904
-0.012823816 -0.020379189 -0.0032795966 4290718484
-0.01078672 -0.021128563 -0.0027848235 4289345054
-0.008596234 -0.022679036 -0.0016512956 4289150489
0.0013200864 -0.015155154 -0.0082597425 4288820773
0.0013563335 -0.0062941164 -0.015415893 4288295983
0.0018421188 0.00016317517 -0.020655239 4287576629
0.0028019026 0.0042174216 -0.023979621 4288688173
0.0040848702 0.0066698808 -0.026027856 4289538853
0.0049954578 0.010722915 -0.029348375 4289146408
0.0066014454 0.011573704 -0.030120509 4289539364
0.0085686445 0.010823676 -0.029619373 4289211944
0.010727212 0.0092737097 -0.028482452 4289408038
0.012707658 0.0085242819 -0.027982228 4290520093
0.014501832 0.0085751582 -0.028118091 4289407783
0.016295843 0.0086261202 -0.028253872 4289734949
0.018089674 0.0086771417 -0.028389594 4289473319
0.019683689 0.0095281024 -0.029160364 4289931043
0.020664901 0.012778336 -0.031835452 4290650909
0.022444651 0.012829186 -0.031969938 4290389279
0.024432048 0.012080466 -0.031469863 4289931554
0.026635259 0.01053234 -0.030335816 4289996834
0.028849103 0.0089846794 -0.029202526 4289538344
0.033881038 -0.0029549096 -0.019829262 4289210923
0.03943149 -0.01649069 -0.0091947457 4289014829
-0.023091771 -0.029437361 0.0022169731 4286725694
-0.021561999 -0.026973339 0.0001533858 4289277224
-0.019785237 -0.026117528 -0.00063146942 4289604389
-0.018551681 -0.02204632 -0.0039697131 4289539108
-0.016933996 -0.02038705 -0.0053910073 4289866529
-0.015187461 -0.019531745 -0.0061733099 4289801503
-0.013161331 -0.020283706 -0.0056794062 4290259739
-0.0109846 -0.021839013 -0.0045481557 4289605918
-0.0087971091 -0.023393873 -0.0034176898 4290065684
0.001595743 -0.018260088 -0.0081017492 4287710248
0.0016381443 -0.0093750525 -0.015240499 4288885289
0.001960136 -0.0020973831 -0.021103114 4288099634
0.0024055317 0.0043762457 -0.026326342 4288034098
0.0035080165 0.0076377857 -0.029004743 4289146664
0.0045886114 0.010898827 -0.031681396 4290324509
0.0063697472 0.010948995 -0.031816524 4289343013
0.0083340555 0.010196762 -0.031316832 4289539364
0.010303631 0.0094447192 -0.030817432 4289211944
0.012278475 0.0086929407 -0.030318426 4289669668
0.013875663 0.0095459167 -0.031087995 4289996579
0.015855603 0.0087944474 -0.030589247 4289669670
0.017643929 0.0088453125 -0.03072455 4289407783
0.019032873 0.010500325 -0.032126859 4289538598
0.020208508 0.012957009 -0.034161538 4289408038
0.021777727 0.013809549 -0.034928724 4290062113
0.023964562 0.012256628 -0.033796743 4290389534
0.02616208 0.010704057 -0.03266554 4289997089
0.028370298 0.009151781 -0.031535074 4289147174
0.032100298 0.0019889139 -0.02597937 4288950824
0.037846215 -0.012385981 -0.014738569 4288687919
0.043246947 -0.025155142 -0.0047688428 4288687919
-0.023017768 -0.031774707 0.001715933 4285940804
-0.021743003 -0.027691761 -0.0016175369 4288557103
-0.020100649 -0.026027773 -0.0030376222 4289997089
-0.018872295 -0.021945817 -0.0063674105 4289539108
-0.017397102 -0.019476473 -0.0084216632 4288688939
-0.015658777 -0.018619217 -0.0092017129 4288820008
-0.013783514 -0.018567786 -0.0093450174 4289736224
-0.011472732 -0.020933416 -0.0075801797 4290718484
-0.0092936791 -0.022492914 -0.0064522848 4289868823
0.0020865947 -0.013269572 -0.01443711 4288885289
0.0022476539 -0.0051670764 -0.020919951 4288427054
0.0023542419 0.0029339958 -0.027398579 4287968819
0.0031067431 0.0078140069 -0.031337995 4289015594
0.0043599308 0.010278741 -0.033374254 4290193438
0.0059577227 0.011133572 -0.034142498 4290586139
0.0077331588 0.011183662 -0.03427713 4290586139
0.0096944124 0.010429228 -0.033778787 4290651164
0.011849612 0.0088705253 -0.03264806 4290651164
0.01363273 0.0089210812 -0.032783095 4289538853
0.015415691 0.0089716893 -0.03291807 4289342504
0.016804889 0.010630922 -0.034317173 4289407783
0.018582098 0.010681527 -0.034451593 4289080874
0.02015692 0.011536328 -0.035217635 4288884523
0.021931089 0.011586962 -0.035351742 4288950058
0.024120398 0.010029724 -0.034223225 4288623148
0.026320405 0.0084728096 -0.033095434 4288950313
0.028531089 0.0069163237 -0.03196843 4288819499
0.032263003 -0.00026606023 -0.026427481 4288622894
0.037354603 -0.012268972 -0.017107368 4288426033
0.042527355 -0.024269544 -0.0077932961 4288556848
-0.022052672 -0.027597293 -0.0040207282 4288230194
-0.020547301 -0.025120797 -0.0060726358 4289211944
-0.019058343 -0.022644652 -0.0081232153 4290716698
-0.017448802 -0.020976994 -0.0095373793 4290521114
-0.015850242 -0.019309487 -0.010950669 4290193949
-0.013977826 -0.019258149 -0.011093769 4290979348
-0.01181525 -0.02082254 -0.0099679306 4289540384
-0.0096419342 -0.022386484 -0.0088428762 4289803288
-0.0077589937 -0.022334553 -0.0089865532 4289150488
0.0027014986 -0.017984271 -0.013010484 4288689193
0.0025349036 -0.0082453154 -0.020743072 4288361519
0.0024752766 0.00068478845 -0.027838347 4287576373
0.0028807968 0.0071920697 -0.033032577 4288753964
0.0041314065 0.0096631739 -0.035063751 4289015594
0.005546011 0.011327041 -0.036461931 4289342759
0.0074990988 0.010570066 -0.035964616 4290062369
0.0094574466 0.0098134 -0.035467662 4290062368
0.011609674 0.0082502384 -0.034339976 4289081128
0.013581291 0.0074940864 -0.03384392 4288754219
0.015364163 0.0075446684 -0.033978906 4288753963
0.016950145 0.0084017981 -0.034744285 4288950314
0.018729992 0.0084524583 -0.034878921 4288884523
0.020913966 0.0068905335 -0.033753317 4288426543
0.022903785 0.0061352458 -0.033258382 4288688429
0.024898835 0.0053801779 -0.032763783 4288622893
0.027109466 0.0038192142 -0.031640045 4288427054
0.02954375 0.0014526658 -0.029887859 4288492334
0.032857023 -0.0041370876 -0.025620578 4287903284
0.0379555 -0.016172379 -0.016325315 4287511094
0.042250566 -0.024982227 -0.009550727 4287511094
-0.022233281 -0.028304385 -0.0057832999 4286071873
-0.020862021 -0.025011018 -0.008463976 4289015593
-0.019378416 -0.022528574 -0.010509257 4289473573
-0.017500479 -0.02247731 -0.010652947 4290128413
-0.015762277 -0.021615721 -0.011429749 4290717208
-0.013887282 -0.021564318 -0.01157305 4290390554
-0.0120124 -0.021512834 -0.011716281 4289212708
-0.0099898539 -0.022271218 -0.011226826 4289671199
-0.0078114942 -0.023839273 -0.01010533 4290129944
-0.0059288181 -0.023787217 -0.010248889 4289018144
0.00052524358 -0.02767865 -0.0075213276 4288037668
0.0022568852 -0.02681631 -0.0082969349 4288494629
0.0029822364 -0.021097206 -0.012858885 4288427563
0.0031608641 -0.012950798 -0.019310707 4288230704
0.0029406175 -0.0031872392 -0.027019719 4287183929
0.003179878 0.0041468572 -0.032832175 4287968818
0.0042583719 0.0074338149 -0.035489265 4289015593
0.0054953769 0.009911174 -0.037514523 4288884779
0.0076313615 0.0083429981 -0.036388941 4289015594
0.0095922649 0.0075842049 -0.035893813 4289015594
0.011935458 0.005207872 -0.034140036 4288688683
0.013721108 0.0052584689 -0.034275282 4288885034
0.015700541 0.0045004059 -0.033781409 4288754219
0.017291933 0.0053598378 -0.034545597 4288688939
0.01947584 0.0037935246 -0.033423334 4288688683
0.02187252 0.0014190674 -0.031673338 4288426799
0.0240805 -0.00014639273 -0.030552777 4288492334
0.02609168 -0.00090319663 -0.030061036 4288230193
0.028108142 -0.0016598273 -0.029569607 4288164913
0.03034275 -0.0032243766 -0.028450947 4287576373
0.033881865 -0.0096371286 -0.023568366 4287575863
0.038337588 -0.01928059 -0.016180085 4287445048
0.042416096 -0.027306324 -0.010050666 4287314234
-0.021045022 -0.02570501 -0.010216458 4288622893
-0.019564044 -0.023216125 -0.012256674 4289473574
-0.017552137 -0.02397741 -0.011768356 4289211943
-0.015534896 -0.02473845 -0.011280371 4289670178
-0.013512336 -0.025499223 -0.010792702 4289473828
-0.011774421 -0.024635267 -0.011567707 4289277734
-0.0098943487 -0.024583517 -0.011711242 4289540384
-0.00771356 -0.026155867 -0.010593189 4289606174
-0.0055220202 -0.027727846 -0.0094758272 4289082658
-0.0036314428 -0.027675504 -0.0096199363 4288756513
-0.001423873 -0.02924677 -0.0085036689 4288756003
0.00079444796 -0.030817725 -0.0073881363 4288756514
0.0026954934 -0.030764777 -0.0075328089 4288494119
0.0034293681 -0.025030214 -0.012084117 4289016869
0.0036168098 -0.016861927 -0.018520376 4288557613
0.0032333806 -0.0062605832 -0.026839791 4287183929
0.0034786463 0.0010931678 -0.032638147 4287249464
0.0043852031 0.0052003097 -0.035917863 4288557613
0.0061659366 0.0052503962 -0.036053017 4288623404
0.0081295073 0.0044894051 -0.035559796 4289081128
0.010284089 0.0029175039 -0.034438796 4288688939
0.012260951 0.0021570493 -0.033946458 4288492588
0.014243074 0.0013968088 -0.033454474 4288427309
0.016230486 0.00063674338 -0.032962795 4288296494
0.01802659 0.00068775006 -0.033098746 4288296493
0.020021826 -7.1911141e-05 -0.0326076 4287904049
0.0224263 -0.0024526138 -0.030863097 4287838258
0.024846919 -0.0048328396 -0.02911973 4287838258
0.026868775 -0.0055915285 -0.028630435 4287641909
0.028685763 -0.0055395886 -0.028767714 4287576373
0.031141132 -0.0079186335 -0.027026832 4287445303
0.034474835 -0.013538186 -0.022783861 4287314233
0.038501151 -0.021587204 -0.016666776 4287314234
0.041918539 -0.027204217 -0.012430018 4287182908
-0.020965211 -0.028024018 -0.010704365 4287053113
-0.019481432 -0.025528563 -0.012739945 4288099888
-0.017603774 -0.025477329 -0.012883632 4288754729
-0.015447274 -0.027055096 -0.01176727 4289343779
-0.013422202 -0.027818 -0.011281436 4289801758
-0.011536721 -0.02776622 -0.011425471 4289082404
-0.009651348 -0.027714346 -0.011569427 4288951589
-0.0074654073 -0.029290935 -0.010454966 4289147939
-0.0054217726 -0.030052897 -0.0099702254 4288951588
-0.0033728369 -0.030814614 -0.0094858175 4288952099
-0.0013185889 -0.031576108 -0.0090016853 4288821028
0.00090215355 -0.033151276 -0.0078896089 4288624423
0.0029697046 -0.033912156 -0.0074063791 4288820774
0.0037094504 -0.02816231 -0.011946766 4289016614
0.00373362 -0.019158427 -0.018995056 4287576373
0.0035258606 -0.0093425103 -0.026666172 4286856509
0.0041267052 -0.0035962183 -0.031195829 4287380024
0.0052219108 -0.00029146485 -0.033841249 4288099634
0.0068358853 0.00057241879 -0.0346043 4288296238
0.0089930817 -0.0010038484 -0.03348681 4287838513
0.010975339 -0.0017664265 -0.032996584 4287642418
0.013151236 -0.0033419691 -0.031880442 4287838769
0.014764622 -0.0024777837 -0.03264321 4287969839
0.016566209 -0.0024267174 -0.032779649 4287773234
0.018367648 -0.0023755841 -0.032916024 4287773233
0.020766564 -0.0047630966 -0.03117599 4287707443
0.022979647 -0.0063372161 -0.030062392 4287707443
0.025203444 -0.0079109911 -0.02894957 4287576373
0.027230583 -0.0086717643 -0.028462272 4287707188
0.02926299 -0.0094322842 -0.027975367 4287641654
0.0315134 -0.011005098 -0.026864409 4287379769
0.034851909 -0.016639777 -0.022633124 4287379513
0.038446389 -0.023085641 -0.017780641 4287314234
-0.02088552 -0.030347209 -0.011195309 4287510838
-0.019264981 -0.028662 -0.012597504 4287838003
-0.017245349 -0.029427445 -0.012113042 4288558634
-0.015359789 -0.0293759 -0.012257261 4289016613
-0.013190087 -0.0309576 -0.011145043 4289016869
-0.011299297 -0.030905696 -0.0112895 4289147939
-0.009408623 -0.030853696 -0.011433876 4289409569
-0.0073678046 -0.031618021 -0.010950631 4289213474
-0.0054746382 -0.031565733 -0.01109503 4289082659
-0.0034259073 -0.032329641 -0.010612239 4288755749
-0.0012134537 -0.033909537 -0.009502816 4288624934
0.0010097399 -0.035488989 -0.0083941761 4288886564
0.0030798092 -0.036251999 -0.007912783 4289082659
0.0038226843 -0.030486906 -0.012442085 4289016613
0.003850311 -0.021459121 -0.019472783 4287576629
0.0036460608 -0.011617042 -0.027124774 4286660669
0.0044247732 -0.0066713039 -0.031017639 4287314744
0.0057030246 -0.0041734278 -0.033031568 4287903283
0.0075052604 -0.0041227266 -0.033168346 4288165168
0.0094901919 -0.0048875138 -0.032680031 4287838258
0.011480413 -0.0056520589 -0.032192044 4287969328
0.013664208 -0.0072317831 -0.031079715 4287773233
0.015476711 -0.0071804971 -0.031217048 4287838769
0.017289072 -0.0071291532 -0.031354323 4287773489
0.019297682 -0.007892888 -0.030867517 4287773233
0.021510698 -0.0094714426 -0.02975722 4287707954
0.023330718 -0.0094196759 -0.029894924 4287641909
0.025559716 -0.010997701 -0.028785706 4287380023
0.027592108 -0.011760488 -0.028300494 4287510838
0.029839776 -0.013337864 -0.0271926 4287379769
0.0320981 -0.014914811 -0.026085492 4287445049
0.035444103 -0.020564474 -0.021866132 4287248698
0.038609788 -0.025398435 -0.018272005 4287313723
-0.020674795 -0.033493631 -0.011062011 4287510328
-0.018781021 -0.033442087 -0.011207029 4287903283
-0.017023951 -0.032571476 -0.011978921 4288231214
-0.015133083 -0.032519795 -0.012123552 4288362029
-0.013100285 -0.03328684 -0.011641556 4288623914
-0.011062153 -0.034053635 -0.011159897 4288951589
-0.0090186931 -0.03482021 -0.010678512 4289409568
-0.0071201213 -0.0347679 -0.010823422 4289082659
-0.0052216575 -0.034715496 -0.010968251 4289278753
-0.0033233203 -0.034662969 -0.011112973 4288493863
-0.0014251024 -0.034610368 -0.011257631 4288363048
0.0011171997 -0.037830859 -0.0089018373 4288755748
0.0033535734 -0.039414257 -0.0077973492 4288754983
0.0042687729 -0.034451995 -0.011691101 4288558379
0.0039668754 -0.023763936 -0.019953651 4289212454
0.0037661567 -0.013895757 -0.027586488 4286725949
0.0045479313 -0.0089369453 -0.031469889 4286922299
0.0061837137 -0.0080682393 -0.032231446 4287838004
0.0078139231 -0.0071995445 -0.032992553 4287903794
0.0098041221 -0.0079664048 -0.03250622 4287838004
0.011799604 -0.0087329857 -0.032020267 4287838259
0.013988547 -0.01031689 -0.030911632 4287641909
0.015806399 -0.010265479 -0.031049389 4287445558
0.018011339 -0.011848839 -0.029941825 4287510838
0.02003064 -0.012614436 -0.029457444 4287445305
0.022453323 -0.015014363 -0.02772899 4287314234
0.024488576 -0.01577937 -0.027245715 4287314234
0.026529118 -0.016544182 -0.026762804 4287117373
0.028574914 -0.017308787 -0.02628025 4287182909
0.031045802 -0.019707065 -0.024555236 4287379003
0.033107556 -0.020471092 -0.024073796 4287247678
0.035820529 -0.02368525 -0.021729738 4286986049
-0.020595439 -0.035827257 -0.011560792 4287706678
-0.018832907 -0.034954436 -0.012331564 4288099633
-0.016939361 -0.034902796 -0.012476484 4287903794
-0.01518517 -0.034030013 -0.013246474 4288231214
-0.013010602 -0.035620235 -0.012141167 4288165934
-0.010969967 -0.036389187 -0.011661285 4288493098
-0.0089240074 -0.037157834 -0.011181766 4288689448
-0.0071729571 -0.036284693 -0.011951181 4289343778
-0.0052746125 -0.036232326 -0.012096028 4288885798
-0.0033764094 -0.036179826 -0.012240757 4288951334
-0.0014783144 -0.036127217 -0.012385397 4288689958
0.00090258569 -0.03853596 -0.010659553 4288886308
0.0032996535 -0.040944189 -0.0089348182 4288623914
0.0043816194 -0.036789238 -0.012195826 4288688684
0.0039141849 -0.025252681 -0.021060478 4287641653
0.0037142709 -0.015358495 -0.028673969 4286660414
0.0046709627 -0.011206768 -0.03192525 4287118139
0.0064866915 -0.011155842 -0.032063164 4287510838
0.0083022937 -0.011104858 -0.032201022 4287707189
0.01030045 -0.01187364 -0.031716969 4287576118
0.012118489 -0.011822402 -0.031854872 4287641654
0.014312632 -0.013410555 -0.030749843 4287641399
0.0167083 -0.015817925 -0.029024404 4287379513
0.019120105 -0.018224832 -0.027300108 4287379513
0.021548048 -0.020631168 -0.025576953 4287445049
0.023793124 -0.022217579 -0.024475632 4287509819
0.025645532 -0.02216493 -0.024615815 4287182398
0.027497798 -0.022112262 -0.024755968 4286593603
-0.020778272 -0.036518127 -0.013310959 4287771958
-0.018884767 -0.036466617 -0.013455974 4287968818
-0.017127819 -0.035591707 -0.014224644 4287903793
-0.015237223 -0.03554007 -0.014369281 4288165423
-0.013204847 -0.036311492 -0.013890518 4288427309
-0.011167128 -0.037082646 -0.013412072 4288558124
-0.0092714205 -0.037030566 -0.013556874 4288754474
-0.007375814 -0.036978371 -0.01370158 4288820009
-0.0056330599 -0.036103204 -0.014468684 4289343524
-0.0037404113 -0.036050893 -0.014613017 4288231724
-0.0020060614 -0.035175756 -0.015379325 4287969584
0.005317308 -0.015947636 -0.030521214 4287314234
0.0074981675 -0.017540801 -0.029418714 4287575865
0.0096897632 -0.019133642 -0.028316939 4287641399
0.011526838 -0.019081987 -0.028456377 4287641399
0.013549082 -0.019852202 -0.027975729 4287379513
0.015576646 -0.020622209 -0.027495442 4286855998
0.017800227 -0.022213819 -0.026395848 4286790464
-0.021222837 -0.035553176 -0.016302874 4287641144
-0.019337621 -0.035501905 -0.016447263 4287903284
-0.017316107 -0.03627608 -0.015969429 4287838004
-0.015567467 -0.035399079 -0.016735807 4287838004
-0.013682541 -0.035347492 -0.016879933 4288230449
-0.011797715 -0.035295822 -0.017023988 4286791738
0.0064862445 -0.023178974 -0.027272301 4286529088
0.008685872 -0.024776038 -0.026174456 4287182908
0.010896191 -0.026372673 -0.025077404 4287117883
0.012569621 -0.025496297 -0.025836883 4286398528
-0.023800269 -0.032970201 -0.020383369 4286528578
-0.021666925 -0.03457509 -0.019284947 4287444539
-0.019522808 -0.036179505 -0.018187292 4286398784
-0.0066444464 -0.021548957 0.026545232 4283657533
-0.0072837099 -0.020008221 0.022750357 4283592509
-0.0050356612 -0.021509331 0.023915177 4283984953
-0.0073379055 -0.021568434 0.021590298 4283918908
-0.0053878166 -0.021514727 0.021441443 4283722304
-0.0076841675 -0.021564743 0.019122852 4284049979
-0.0055909045 -0.022292916 0.019628018 4283723833
-0.0077381991 -0.023120066 0.017966429 4284117043
-0.0057938397 -0.023066506 0.017818017 4283331898
-0.0040010177 -0.022228984 0.017017946 4283068993
-0.0083757974 -0.021530429 0.014207916 4283920693
-0.0064424463 -0.021477152 0.01406036 4282874939
-0.0045092404 -0.021423783 0.013912885 4283003714
-0.0084295198 -0.023076527 0.013058354 4283920948
-0.0067933686 -0.021446735 0.011613329 4283006264
-0.0048657395 -0.021393508 0.011466288 4282873919
-0.0069955289 -0.022197768 0.0098200254 4283332664
-0.0052219331 -0.021354258 0.0090262899 4283137079
-0.0034539141 -0.020510795 0.0082330601 4283330624
-0.0071975403 -0.022944234 0.0080301901 4283855924
-0.0054267198 -0.022098634 0.0072382865 4283462713
-0.0035076514 -0.022045545 0.007091973 4283330369
-0.0014321953 -0.022784725 0.007590645 4283853373
-0.0054803081 -0.023633143 0.0060973652 4283919928
-0.003715124 -0.022785407 0.0053076018 4283331898
-0.001799047 -0.022732312 0.0051615834 4283657789
-0.005684834 -0.024370516 0.0043145688 4283986739
-0.0040760972 -0.022723863 0.0028847188 4283201083
-0.0018528253 -0.024264403 0.0040224884 4283265344
-0.0061909519 -0.023505189 0.0012542112 4283332663
-0.0045903437 -0.021854443 -0.00017172156 4282808638
-0.0026881322 -0.021801729 -0.00031668146 4282611269
-0.00078605115 -0.0217489 -0.00046154158 4283134529
-0.0063950047 -0.024229076 -0.00051856105 4283856434
-0.0049506091 -0.021772865 -0.00257971 4282679354
-0.0030539557 -0.021720307 -0.0027242471 4282349893
-0.00099848956 -0.022468682 -0.0022304333 4282415174
-0.0054639876 -0.020879108 -0.0056180563 4283854903
-0.0037317798 -0.020023469 -0.0063987942 4282088773
-0.0013696477 -0.022380697 -0.004632581 4281762884
0.00068547577 -0.023131123 -0.0041403407 4284181048
-0.0059768967 -0.019972049 -0.008646586 4282417214
-0.0040968172 -0.019919954 -0.0087898634 4282089794
-0.0017404631 -0.022283863 -0.0070280805 4281632578
0.00047053397 -0.023841893 -0.0059022587 4283069248
-0.0060294718 -0.021474825 -0.009763903 4283199553
-0.0041495115 -0.021422744 -0.0099071795 4282415173
-0.0017935187 -0.023793172 -0.0081502302 4281959234
0.00025576353 -0.024548143 -0.0076608183 4283003458
-0.0009361878 0.038699724 0.017159956 4280102579
0.00090930611 0.038750798 0.01701927 4278989249
0.0024157986 0.040272862 0.015506342 4279515059
0.0039111972 0.041794747 0.013994289 4278728129
0.00592006 0.041110471 0.014540425 4278530503
0.0074014515 0.042632103 0.013029614 4278791114
0.0085111558 0.045623824 0.010148983 4279381949
0.0099649131 0.047144853 0.0086404001 4279973294
0.011964753 0.046460688 0.0091874832 4278594509
-0.0068366528 0.038542636 0.015110649 4279844519
-0.0044451728 0.044547036 0.0093483711 4279051724
-0.0027907044 0.045335084 0.0085247597 4278328544
-0.00080864877 0.044647649 0.0090711275 4279118789
0.001178652 0.043960467 0.0096171824 4278793919
0.0029991642 0.044011071 0.0094785606 4278923969
0.0049942434 0.043324262 0.010024141 4279120064
0.0077385828 0.047112703 0.0063282894 4280038573
0.0093644559 0.047900565 0.0055073081 4280432549
0.011355966 0.047214009 0.0060534189 4279382714
-0.0093401708 0.039977387 0.011417264 4279185600
-0.0082887262 0.043728679 0.0078577278 4278989759
-0.0067895912 0.045258991 0.006351606 4279973803
-0.0054626018 0.047529086 0.0041628974 4279908014
-0.0034968778 0.046838962 0.0047088424 4278331859
-0.0015259013 0.046149068 0.0052544465 4279316924
0.00045033544 0.045459419 0.0057997303 4279053508
0.0024318174 0.044770017 0.0063446844 4279316414
0.0044185445 0.044080794 0.0068893423 4278988994
0.015875712 0.0421682 0.008106227 4279120318
-0.0095438883 0.039253116 0.0096441023 4278989504
-0.0071567446 0.045292147 0.0039081881 4279382714
-0.0055130646 0.04608421 0.0030886203 4279513529
-0.00010822713 0.046234071 0.0026767969 4279381949
0.0020368174 0.044800349 0.0039018567 4279120063
0.0036686733 0.045592546 0.0030835315 4278661318
0.0056495667 0.044901147 0.0036270532 4278792644
0.0070955232 0.046435051 0.0021288402 4279316923
0.0087131709 0.047227144 0.0013117446 4278987718
0.012684405 0.045845158 0.0023985475 4278924479
0.014868781 0.044413134 0.0036210611 4278858434
-0.0091363899 0.035554886 0.010598145 4279317435
-0.0024595037 0.04697226 -0.00029971369 4278266324
-0.00049726665 0.046277933 0.00024342991 4279120064
0.0014702529 0.045583822 0.00078621763 4278793408
0.0032684654 0.045633972 0.00064942124 4278859453
0.0054210126 0.044196263 0.0018708489 4279254449
0.0068642795 0.045734532 0.00037608179 4278661574
0.0086619034 0.045784913 0.0002395201 4278923714
0.010273874 0.046579108 -0.0005753889 4279187893
0.01244463 0.045142263 0.0006449155 4279317943
0.014626041 0.043705821 0.0018644226 4279383479
0.01701168 0.041526243 0.003761044 4278991034
-0.0089068785 0.041602276 0.0025737232 4279579064
-0.0080483481 0.04613214 -0.0016374879 4279251134
-0.0064183697 0.046928287 -0.00245276 4278725833
-0.0047939941 0.047724321 -0.0032674884 4279251133
-0.0026763156 0.046280958 -0.0020469122 4279316159
-0.001055032 0.047077134 -0.0028613126 4279382714
0.0010758787 0.045634329 -0.0016416006 4278465734
0.002868548 0.045684353 -0.0017779537 4278859453
0.0050153807 0.044242188 -0.00055936852 4279122358
0.0066331849 0.045038581 -0.0013732046 4278793919
0.0084279701 0.045088932 -0.0015095167 4278728128
0.010037206 0.04588525 -0.0023225725 4279251389
0.019753337 0.036394522 0.0059219822 4278791113
-0.0052272975 0.0033495855 0.03498935 4282601069
-0.0086466335 0.038655952 0.0028516727 4279121083
-0.0084145889 0.046194486 -0.0040592616 4279185598
-0.0067900717 0.046992637 -0.0048724366 4279119554
-0.0048441663 0.046293363 -0.0043313997 4279315903
-0.0030592233 0.046342917 -0.0044673616 4278528719
-0.001443401 0.047141105 -0.0052796518 4278726853
0.00033845752 0.047190771 -0.0054152282 4279384753
0.0024689063 0.045743726 -0.0041987104 4278728128
0.0044329464 0.045045353 -0.003658687 4278859964
0.0062223896 0.045095488 -0.0037946471 4278859453
0.0074639767 0.047390223 -0.0059567438 4279251389
0.0094301179 0.0466922 -0.0054167388 4279053764
-0.0080761798 0.034198947 0.0044750813 4279777964
-0.0079905912 0.042510644 -0.0030960846 4278988993
-0.0065186732 0.044062212 -0.0045836843 4279250879
-0.0047309399 0.044111773 -0.004719907 4278857159
-0.0018314943 0.047214054 -0.0076913228 4278329818
0.0018952563 0.046562627 -0.0072871251 4278726344
0.0038509443 0.0458619 -0.006748124 4278793919
0.0056321099 0.045911841 -0.0068834266 4278727874
0.0070481598 0.047462508 -0.008366215 4279054528
0.010786533 0.046812266 -0.0079622651 4280038318
0.01256419 0.046862438 -0.0080970516 4279972528
0.014728308 0.0454126 -0.0068858797 4279907503
0.016903102 0.043963119 -0.0056754025 4278660298
0.021076292 0.035015173 0.0022597292 4279448248
-0.0075670667 0.038813964 -0.0021424331 4279120573
-0.0065688528 0.042629547 -0.0056488737 4278790859
-0.0047812387 0.042679146 -0.0057850573 4279054273
-0.0018817112 0.045790181 -0.0087499311 4278331094
0.0036232844 0.0451864 -0.0084824683 4279054019
0.0054016486 0.04523626 -0.0086175604 4279120064
0.0068150014 0.0467913 -0.010096905 4279054019
0.012322515 0.046188831 -0.0098286243 4279712173
0.014097132 0.046239011 -0.0099631166 4279382713
-0.0069861971 0.034349129 -0.00052596472 4279777454
-0.0066190474 0.041197173 -0.0067138392 4279316159
-0.0049948245 0.042001992 -0.0075219981 4278266834
-0.0035422146 0.043561935 -0.0090014106 4279973039
-0.001931943 0.044366568 -0.009808355 4279840949
-0.00015584379 0.044416115 -0.0099434583 4279381949
0.001794219 0.043710835 -0.0094073126 4279251134
0.0035726503 0.043760642 -0.0095424457 4279053764
0.005171299 0.044565305 -0.010348248 4279251644
0.0069466382 0.044615202 -0.010483016 4279250623
0.0085367262 0.045419857 -0.011288065 4278790859
0.01819022 0.042653471 -0.0092821224 4278858944
0.022186972 0.034408212 -0.0020568708 4278597314
-0.0024364367 -0.008119775 0.034915742 4282796399
-0.0062481798 0.029109498 0.0017485425 4280171428
-0.0066692568 0.03976503 -0.0077786297 4279579063
-0.0023194775 0.044457749 -0.012206526 4278790858
0.003345184 0.043092191 -0.01127155 4279054273
0.0049410835 0.043899007 -0.012075541 4279185598
0.006349124 0.045462601 -0.013547904 4279382204
0.0081159994 0.045512363 -0.013681951 4278921929
0.0098826885 0.0455622 -0.013815929 4278792133
0.015573151 0.044199184 -0.012881632 4279710898
0.01813861 0.041223757 -0.01034497 4279645618
0.021128103 0.03673628 -0.0064749066 4280039339
-0.0065590702 0.037573434 -0.0081742406 4279579063
-0.0059109554 0.042940363 -0.01299182 4278266833
0.00082308799 0.044656537 -0.014866334 4278528719
0.0029411465 0.043187581 -0.013664979 4279185089
0.0047110245 0.043237269 -0.013799374 4279315904
0.0064807087 0.043287046 -0.013933687 4278529993
0.0080653206 0.044095889 -0.014734994 4278858178
0.010019496 0.043386824 -0.014202085 4278661573
0.011978902 0.042678013 -0.013669486 4278924224
0.014329605 0.040451869 -0.011804256 4279252919
0.016696393 0.038226277 -0.0099401772 4279123124
0.018880814 0.036759838 -0.00874337 4279057843
0.021478251 0.033776715 -0.006215563 4279253684
-0.0056474283 0.031568535 -0.0052362592 4280501909
-0.0057978034 0.040760063 -0.013379361 4279578553
-0.0048532635 0.044617936 -0.016848939 4279513529
-0.0030936599 0.044667006 -0.016982798 4279907503
-0.0013342202 0.04471615 -0.017116588 4279972784
0.00077290088 0.043242425 -0.015917663 4279448248
0.0028906912 0.041769117 -0.01471953 4278924224
0.0050191879 0.040296152 -0.013522104 4278398159
0.010343656 0.040446207 -0.013925991 4278329308
0.015050024 0.035981022 -0.010205725 4278924224
0.017623015 0.032988369 -0.0076826625 4280041633
0.019820757 0.031517982 -0.0064901011 4280173468
0.022431374 0.028526543 -0.0039697746 4280239514
-0.0047367066 0.02553772 -0.0023175394 4281224324
-0.0053588748 0.037047707 -0.012438916 4279515824
-0.0044058934 0.040916711 -0.015900994 4279120318
-0.0028066561 0.041729815 -0.016700545 4279578553
-0.00087077171 0.041015409 -0.016169848 4278660299
0.0010703802 0.040301234 -0.015639482 4278857159
0.00336992 0.038060144 -0.013780467 4279251389
0.0055063069 0.036583096 -0.012586925 4279775158
0.0074713603 0.035869867 -0.012058178 4280036278
0.0092569515 0.03592021 -0.012193605 4281609884
0.011417232 0.034444064 -0.011001637 4281675674
0.013588175 0.03296835 -0.0098104533 4280561578
0.01596266 0.030729866 -0.0079567479 4280169644
0.018157646 0.029255001 -0.0067672608 4281089173
0.020561591 0.027017517 -0.0049156668 4281286289
0.023584701 0.02249193 -0.0010774018 4281418633
-0.0038269125 0.019480983 0.00058198371 4281617279
-0.0020149872 0.036486246 -0.014434181 4279444678
-0.0002367422 0.036535956 -0.014569372 4280823719
0.0018888563 0.035054095 -0.013378384 4281216673
0.0040251687 0.033572607 -0.012188081 4281020578
0.0058137402 0.033622868 -0.01232386 4280561578
0.0077840611 0.032907613 -0.011797134 4280691628
0.0097596198 0.03219261 -0.011270722 4281610649
0.012115136 0.029946914 -0.0094205663 4281544859
0.013916552 0.029997891 -0.0095570553 4281413278
0.015910536 0.029283656 -0.009031863 4280890019
0.017909765 0.028569644 -0.0085070068 4280956828
0.02031067 0.02632557 -0.0066600358 4281352334
0.023933306 0.019491641 -0.00084824272 4281418888
-0.0037185326 0.017240362 0.00014985737 4281551999
-0.0039939731 0.027279636 -0.0085998317 4279710388
-0.0031815246 0.031939358 -0.012709586 4280299948
-0.001560621 0.032757498 -0.013507551 4281020578
0.00022566319 0.03280744 -0.013643347 4281544859
0.002011776 0.03285747 -0.013779057 4281741463
0.004326947 0.030603765 -0.011930976 4281873808
0.0059417337 0.031422041 -0.012728166 4281808018
0.0080964118 0.029936945 -0.011542419 4281677203
0.0098926648 0.029987616 -0.011678632 4281545625
0.012437858 0.026967859 -0.009173126 4281742993
0.014244586 0.027018992 -0.0093100099 4281742993
0.016051121 0.027070222 -0.0094468063 4281612179
0.017662019 0.027888892 -0.010243327 4281415573
0.020456173 0.02410358 -0.0070818467 4281417359
0.024482444 0.015715694 3.3947639e-05 4281616003
-0.0036103129 0.014995655 -0.00028530892 4281813884
-0.0038821623 0.025063312 -0.0090141455 4279184578
-0.003232114 0.030506594 -0.013774805 4281740443
-0.0016112402 0.031326897 -0.014571153 4281412768
0.00017493218 0.031376854 -0.014706921 4281676439
0.0021345541 0.030656679 -0.014182756 4281873808
0.0042757615 0.029166674 -0.01299937 4281808783
0.0062485933 0.028447097 -0.012476112 4282201993
0.0080449283 0.028497694 -0.012612394 4282070413
0.010025568 0.027778456 -0.012089568 4281806743
0.012198642 0.026289707 -0.010908323 4281611414
0.014192477 0.025571069 -0.010386403 4281808784
0.016191535 0.024852647 -0.009864823 4281611414
0.018195845 0.024134411 -0.0093435394 4281545625
0.020403445 0.022646984 -0.0081646582 4281414808
0.024830334 0.012696279 0.00024889002 4281350804
-0.0038221255 0.014292298 -0.002041992 4281748093
-0.0039331615 0.023615537 -0.010090535 4280103853
-0.0029519424 0.027528884 -0.013522229 4281214634
-0.0014937669 0.029124012 -0.014975903 4281347488
0.00046583265 0.028401611 -0.014453472 4281544604
0.0026042238 0.026907107 -0.013273167 4282529159
0.0045770705 0.02618522 -0.012751562 4282856578
0.006376192 0.026235828 -0.012888105 4282530689
0.0081751272 0.0262865 -0.013024583 4282662524
0.010158285 0.02556522 -0.012503595 4282989688
0.012520939 0.023300232 -0.010668618 4283121524
0.014709868 0.021807639 -0.0094917053 4282663033
0.016909458 0.020315481 -0.0083155837 4282860403
0.018924445 0.019595413 -0.0077967755 4283316853
-0.0040338226 0.013593564 -0.0037952347 4282271354
-0.0041467622 0.022942854 -0.011824138 4281150883
-0.0031679869 0.026867015 -0.015247519 4281020834
-0.0013764501 0.026917046 -0.015383759 4280824738
0.00075640529 0.025417944 -0.014206351 4281611414
0.003073439 0.023144675 -0.012373061 4283250044
-0.003547661 0.018389663 -0.010275349 4281346723
-0.002392523 0.021548087 -0.013035868 4281413278
-0.00075545162 0.022375347 -0.013828506 4281414044
0.0012173504 0.021648994 -0.013310312 4282332043
-0.0024340227 0.00011808053 0.067358121 4285230118
-0.00086741149 0.002348369 0.065116383 4285361189
0.00068267435 0.0045783054 0.062875994 4286213653
0.0026847571 0.0046331417 0.062722936 4286278169
0.0050044358 0.0032384079 0.063960269 4286278424
-0.015131641 0.0010809582 0.064300142 4285163563
-0.013660081 0.0040459465 0.061364483 4286212124
-0.01166236 0.0040999856 0.061211254 4286146588
-0.0095250458 0.0034265947 0.061753061 4286017049
-0.0073824301 0.0027534459 0.062294547 4285557794
-0.005524952 0.003535321 0.061446656 4285492769
-0.0033772364 0.0028625298 0.061987903 4285427234
-0.0016762167 0.0043716859 0.060446493 4285820444
0.00016710907 0.0051534716 0.059599899 4285688608
0.0020047873 0.0059352499 0.058753774 4285557029
0.0041544884 0.0052628685 0.059295215 4285819423
0.0067940503 0.0024099331 0.061916184 4285819679
-0.019329987 9.2282891e-05 0.062716663 4285361699
-0.01796769 0.0037963856 0.05909168 4285558813
-0.016238265 0.0053099561 0.05755081 4285622818
-0.014519881 0.0068233516 0.05601088 4285754144
-0.012538638 0.0068769548 0.055858925 4285885468
-0.010278195 0.0054712463 0.057093725 4285820188
-0.0081494153 0.0047955755 0.057634667 4285623584
-0.0060153641 0.004120158 0.058175277 4285557793
-0.0040238723 0.0041744765 0.058022868 4285558049
-0.0021831393 0.0049583111 0.057178058 4286017558
-0.00034803152 0.0057420824 0.056333743 4286017558
0.0014814287 0.0065258164 0.055489946 4286017303
0.003622748 0.0058511067 0.056030385 4286083094
0.0059307739 0.0044475142 0.057262156 4286083349
-0.019510236 -0.00078355335 0.060828023 4285361189
-0.01827912 0.0036635567 0.05651889 4285690139
-0.016555134 0.0051813927 0.054981738 4285819933
-0.014842194 0.006699061 0.053445451 4285556774
-0.012866534 0.006752545 0.053293947 4285688608
-0.010751434 0.0060742479 0.053834252 4286017303
-0.0086310171 0.0053961445 0.054374255 4285689374
-0.006650392 0.0054500978 0.054222621 4285624094
-0.0045221522 0.0047724675 0.054762151 4285558049
-0.0023886412 0.0040950794 0.055301353 4285623583
-0.00055631995 0.0048809964 0.054458905 4286017303
0.00080253184 0.0078612696 0.05154559 4286148373
0.002298072 0.010109643 0.049324252 4285886488
0.0040998682 0.010895023 0.048484366 4285492513
0.006716609 0.0080241729 0.051094159 4285295909
-0.019438531 -0.0031237043 0.060325183 4285294889
-0.018333018 0.0020710323 0.055334672 4285426978
-0.016871732 0.0050618928 0.052419335 4285951514
-0.015030142 0.0058495309 0.051577277 4286148883
-0.013194147 0.0066371355 0.050735742 4286148883
-0.011084691 0.0059565138 0.051274858 4285951513
-0.0089699551 0.0052761491 0.051813647 4285623839
-0.007139869 0.006063899 0.05097279 4285623839
-0.0053154156 0.0068516228 0.050132461 4285492768
-0.0034965724 0.0076392684 0.04929262 4285558304
-0.001836516 0.009160636 0.047764219 4285295653
-0.00065514445 0.012882704 0.04417026 4285098283
-0.018129826 -0.00099433586 0.055529237 4285229609
-0.016794212 0.002741931 0.051930934 4285624093
-0.015083954 0.0042682458 0.050401442 4285820699
-0.013248026 0.0050580595 0.04956156 4285754908
-0.011278227 0.0051115323 0.049410623 4285623583
-0.0093085989 0.0051651392 0.049259797 4285623584
-0.0076289363 0.0066911224 0.047732942 4285558303
-0.0068460889 0.012633177 0.042080067 4285427488
-0.018183902 -0.0025906414 0.05434221 4285163819
-0.017110463 0.0026338939 0.049377136 4285493024
-0.015405647 0.0041644592 0.047851339 4285558558
-0.013575234 0.0049563665 0.047013488 4285689628
-0.011332251 0.0035327766 0.048236698 4285754653
-0.0090785511 0.0021096412 0.04945913 4285820444
-0.0076830722 0.0051167551 0.046562307 4285558303
-0.017033048 0.00031235255 0.048887569 4285295908
-0.015459348 0.0025881436 0.04667921 4285558559
-0.013629001 0.0033822525 0.045843005 4285689119
-0.011525601 0.0026949588 0.046377793 4286082838
-0.0092749074 0.0012673829 0.047597207 4286016793
-0.007737238 0.0035427008 0.045391906 4286147863
-0.017086849 -0.0012702513 0.047710747 4285295654
-0.015780643 0.002498107 0.044139266 4285623839
-0.013955794 0.0032942165 0.043305159 4285754398
-0.011718839 0.0018618219 0.0445223 4285819933
-0.0091872327 -0.0010556858 0.047105502 4285753889
-0.0069233514 -0.0024871659 0.048320793 4285950749
-0.016878691 -0.004343031 0.047899369 4285228589
-0.015967935 0.0016718861 0.042288437 4285492258
-0.014282305 0.0032152329 0.040773977 4286083604
-0.012329392 0.0032683443 0.040624402 4285951259
-0.009525355 -0.0011480637 0.044565514 4285490984
-0.0061769374 0.0019387323 0.041538961 4285818914
-0.016021453 0.00010299496 0.041121833 4285426723
-0.014744889 0.0038924981 0.037569012 4286017049
-0.012661207 0.0031982306 0.038100433 4286147608
-0.0097214021 -0.001978511 0.042712376 4286213399
-0.0063100383 -0.0093952343 0.049361233 4286672654
-0.0050531439 -0.0056058187 0.04581026 4285753124
-0.015807882 -0.002964627 0.041313704 4285360424
-0.014934476 0.0030842591 0.035731841 4285557793
-0.012992736 0.0031371098 0.035583153 4285688864
-0.010200765 -0.0013057049 0.039505638 4285819933
-0.0065095723 -0.010242851 0.047495537 4285688353
-0.014851511 0.00077744387 0.035252735 4285425704
-0.012907188 0.00083038025 0.035103861 4285491493
-0.010113083 -0.0036254283 0.039016433 4285556774
-0.0067089498 -0.011085879 0.045633331 4285951004
-0.004280217 -0.013285434 0.047510859 4286344213
-0.012682948 -0.0022341367 0.035297021 4286737679
-0.010025561 -0.0059492327 0.038524196 4286999054
-0.0067639016 -0.012677807 0.044449653 4287064079
-0.0096288174 -0.021618202 0.019271368 4284966959
-0.0076959878 -0.022096552 0.0049559856 4284900913
