# .PCD v0.7 - Point Cloud Data file format
VERSION 0.7
FIELDS x y z rgba
SIZE 4 4 4 4
TYPE F F F U
COUNT 1 1 1 1
WIDTH 963
HEIGHT 1
VIEWPOINT 0 0 0 1 0 0 0
POINTS 963
DATA ascii
0.034600161 -0.0072361901 0.02238683 4289931553
0.036559425 -0.0071899462 0.02226793 4290193949
0.038716488 -0.0079163089 0.022807999 4289801759
0.040678009 -0.0078698713 0.022689063 4289996324
0.043249689 -0.010140887 0.02454577 4291565339
0.045631267 -0.011639051 0.025743239 4290387494
0.012012184 -0.0046577966 0.018580334 4289738263
0.013791963 -0.0038372353 0.017802378 4289671709
0.015902258 -0.0045677768 0.018342925 4291110674
0.017676212 -0.0037471578 0.017565468 4290979859
0.019791551 -0.0044773901 0.018105851 4290717463
0.021735884 -0.0044320663 0.017987436 4289670689
0.024037912 -0.0059371926 0.019185882 4290062878
0.026168957 -0.0066668373 0.019725546 4289997598
0.02848959 -0.0081713758 0.020922977 4290062878
0.030446686 -0.0081254039 0.020804044 4289997599
0.032593362 -0.0088543631 0.02134292 4289997343
0.034167677 -0.0072582783 0.019908832 4290062368
0.035926163 -0.0064372867 0.01913286 4290128414
0.037876941 -0.0063911341 0.019014556 4290193949
0.040028192 -0.0071196994 0.019553367 4290586138
0.042184643 -0.0078480626 0.020091925 4290455578
0.044552416 -0.0093509052 0.021286998 4290454304
0.04713966 -0.011627952 0.023138013 4289341483
0.0092219561 -0.0023719035 0.014256259 4289671709
0.011316106 -0.003105172 0.014796047 4289801759
0.013084963 -0.0022826847 0.01402037 4290325529
0.015016176 -0.0022379197 0.013902569 4290783509
0.017117932 -0.0029707318 0.014442099 4290259483
0.019398384 -0.0044809487 0.01563853 4291371793
0.021513335 -0.0052132718 0.01617739 4289998364
0.023633517 -0.0059453538 0.016716022 4290325274
0.02575893 -0.0066772578 0.017254379 4290652184
0.028073907 -0.0081863273 0.01844896 4290259483
0.030212499 -0.0089177312 0.018986657 4290325019
0.032166563 -0.0088717481 0.018867968 4290063389
0.034120411 -0.0088256868 0.018749353 4290062623
0.035878852 -0.0080024954 0.017975017 4290586138
0.037631638 -0.0071793124 0.017201044 4290259229
0.039378785 -0.0063562347 0.016427508 4289997599
0.041526921 -0.0070869699 0.01696495 4289408548
0.043474227 -0.0070406869 0.016847014 4290782489
0.04583884 -0.008547903 0.018039089 4289408039
0.048637077 -0.011608162 0.020540169 4288949039
0.051456779 -0.014667822 0.023040015 4288229429
0.006459631 -6.3217245e-05 0.0099469144 4289147939
0.0086972192 -0.0015791971 0.011142347 4289213219
0.010783039 -0.0023148498 0.011681015 4289998875
0.012543678 -0.0014903564 0.010907473 4290259739
0.014634557 -0.0022256793 0.011445992 4288885544
0.016560033 -0.002180974 0.011328591 4288820519
0.019005448 -0.0044754809 0.013177816 4290194204
0.021290898 -0.0059898552 0.014370769 4289867294
0.023765825 -0.0082834633 0.016218277 4290390809
0.025530718 -0.0074583283 0.015444877 4289867293
0.027658477 -0.0081922533 0.015981549 4290194203
0.029417537 -0.0073670959 0.015208621 4289932574
0.031739995 -0.0088801179 0.016399613 4289997854
0.033688307 -0.0088341851 0.016281337 4290324764
0.035441287 -0.008008928 0.015508961 4290651928
0.037188627 -0.0071837371 0.014736976 4291175444
0.038930312 -0.0063586179 0.013965381 4289474594
0.040869601 -0.0063125975 0.013847876 4288951079
0.042808689 -0.0062665194 0.013730429 4289474594
0.045164943 -0.007778232 0.01491975 4289997344
0.047531843 -0.0092896838 0.016108504 4288949549
0.050337635 -0.012358405 0.018602714 4289799208
0.052948073 -0.014647765 0.020442776 4287574333
0.0061006844 -3.4984201e-05 0.0075004338 4287181379
0.0083326101 -0.0015554978 0.0086930208 4288753709
0.01041279 -0.0022934349 0.009230433 4289735969
0.012333095 -0.0022490425 0.0091132075 4290979604
0.014253199 -0.002204542 0.0089960732 4290783254
0.016173132 -0.0021599522 0.0088790208 4290848788
0.018612802 -0.0044611217 0.010723747 4290913813
0.020892553 -0.0059799254 0.011913788 4291110163
0.023182996 -0.0074984245 0.013103291 4290259994
0.025121175 -0.0074530598 0.012985386 4289867549
0.027059138 -0.0074076168 0.012867557 4289802014
0.028623112 -0.0057988092 0.011443648 4289605408
0.030744843 -0.006534881 0.011979198 4289736479
0.032871835 -0.0072708065 0.012514517 4289735969
0.035004005 -0.0080064852 0.013049545 4290324763
0.036943674 -0.0079606101 0.012931902 4290913814
0.03868261 -0.0071333563 0.012162106 4290913813
0.040415891 -0.006306137 0.011392651 4291175699
0.042143539 -0.005479021 0.010623634 4290914069
0.04449144 -0.0069953343 0.011810267 4289867038
0.047061324 -0.0092923231 0.013647839 4289278244
0.049861357 -0.0123699 0.016135927 4287837748
0.012287728 -0.0037873993 0.0079751369 4289277734
0.014039911 -0.0029586619 0.0072054057 4289605408
0.015957013 -0.0029141428 0.0070885229 4290651928
0.018393643 -0.0052218875 0.0089285336 4290782998
0.020670459 -0.0067451457 0.010115573 4290063389
0.022957928 -0.0082680257 0.011301983 4290128923
0.024711877 -0.0074387854 0.010532487 4289801758
0.026644312 -0.0073934803 0.010414988 4290063644
0.028202876 -0.0057804873 0.0089946799 4290456088
0.029939897 -0.0049513606 0.0082263499 4290782743
0.031863585 -0.0049060201 0.0081095584 4290390299
0.034372009 -0.0072114524 0.0099457465 4289539618
0.03650111 -0.0079493104 0.010479394 4289539618
0.038635463 -0.0086870231 0.011012815 4289866783
0.040368721 -0.0078576151 0.010244988 4290194203
0.042096362 -0.0070283227 0.0094775874 4290259484
0.044444047 -0.0085489955 0.010661002 4289212199
0.047013663 -0.010852536 0.012493731 4287837749
0.013659008 -0.0029217303 0.0047670999 4287704639
0.015911482 -0.0044500986 0.0059522488 4289735458
0.018174626 -0.0059780795 0.0071367766 4289670434
0.020272575 -0.0067194914 0.0076702232 4290455833
0.022197142 -0.0066745179 0.0075530945 4290324764
0.024302863 -0.0074156243 0.0080862343 4290325274
0.026229754 -0.0073704338 0.0079690814 4290062878
0.027782902 -0.0057531623 0.006552299 4291567889
0.029325001 -0.0041361433 0.0051362677 4290978840
0.031240419 -0.0040909871 0.0050199884 4291109398
0.033740394 -0.0064031063 0.0068518012 4290259229
0.036058851 -0.0079291016 0.0080335513 4289735969
0.038387954 -0.0094547328 0.0092146639 4289932319
0.040118493 -0.0086232731 0.0084486455 4289800993
0.042460769 -0.010148499 0.0096291043 4289997089
0.04481367 -0.011673374 0.010808917 4288885544
0.01535476 -0.0036201756 0.0028684568 4288228663
0.017782643 -0.0059412196 0.0046993583 4289539363
0.019874983 -0.0066849506 0.0052315216 4290063389
0.021972559 -0.0074284654 0.0057634371 4290128668
0.023894094 -0.0073834704 0.0056465599 4289735969
0.025815465 -0.0073384177 0.0055297366 4290913814
0.027549922 -0.006505142 0.0047647604 4289146919
0.029089324 -0.0048838099 0.0033521401 4288950568
0.03080979 -0.0040506693 0.0025880826 4289932064
0.033109203 -0.0055815354 0.0037677074 4290128414
0.035616845 -0.0078999456 0.0055942503 4289997599
0.037940331 -0.0094301105 0.006772514 4290062879
0.040071413 -0.01017214 0.0073029124 4289866274
0.042824909 -0.013277144 0.0097742826 4288819499
0.045183033 -0.014806244 0.010950554 4286529854
0.016871765 -0.003523428 0.00032619364 4289145898
0.018950328 -0.0042696586 0.00085757999 4288228154
0.02121263 -0.0058061788 0.0020358372 4289341994
0.023485638 -0.007342441 0.0032135239 4289932064
0.025401451 -0.0072975038 0.0030970504 4291109654
0.026943788 -0.005671802 0.0016873679 4290062878
0.028285719 -0.0032560611 -0.00036799139 4289343013
0.030379459 -0.0040014507 0.00016283221 4289932064
0.032673202 -0.0055367677 0.0013395241 4290389788
0.035175152 -0.0078618918 0.003161605 4289800993
0.037492961 -0.0093965298 0.0043369178 4289800739
0.039821409 -0.010930864 0.0055116978 4287969329
0.045552142 -0.017947676 0.011085929 4286267968
0.022715129 -0.0057071587 -0.00050360686 4289080109
0.02480384 -0.0064550703 2.5739195e-05 4290127648
0.026338093 -0.0048252521 -0.0013801795 4290782233
0.027861238 -0.0031955801 -0.0027854145 4290782744
0.029757366 -0.003150885 -0.0029005269 4290978583
0.032237478 -0.0054831384 -0.0010820299 4290651674
0.034733713 -0.0078149382 0.0007355432 4289408294
0.037446186 -0.010938436 0.0031963252 4289211688
0.024022862 -0.0048046038 -0.0036793016 4288424504
0.025919281 -0.0047600688 -0.0037945569 4289342759
0.027626276 -0.0039208503 -0.0045529772 4290128159
0.029711545 -0.0046707848 -0.0040248628 4290193438
0.032191373 -0.007009591 -0.0022112066 4289604643
0.034884691 -0.010142367 0.00024426309 4289343269
0.037799619 -0.014068919 0.0033410527 4286987578
0.027580611 -0.005438366 -0.0056755561 4288883759
0.029857621 -0.0069872914 -0.0045075803 4289146919
0.032729067 -0.010925911 -0.0014163456 4288820008
0.035430171 -0.014067192 0.0010321294 4286071874
0.03000357 -0.009307906 -0.0049934112 4288099634
0.032877304 -0.013257359 -0.0019103941 4286399038
-0.010418609 0.016738294 0.038707964 4281241918
-0.008731164 0.01826915 0.037216622 4278374698
-0.006509427 0.016825767 0.038467169 4279677748
-0.0038597658 0.013152264 0.041772567 4279416119
-0.012417529 0.015127311 0.037668772 4281306179
-0.011116955 0.018900102 0.034128211 4280915518
-0.0094431452 0.020435045 0.032640971 4281175618
-0.0076441318 0.021224139 0.03183816 4280522563
-0.0051557124 0.018284908 0.034453284 4278828599
-0.002362214 0.01385512 0.038433827 4281305923
-0.015880872 0.010480439 0.039482094 4282479179
-0.015168209 0.018005552 0.032533471 4280848964
-0.013357885 0.018796777 0.031731352 4280327744
-0.011814702 0.021084068 0.029564857 4279219769
-0.0098875575 0.021127177 0.029446144 4280915008
-0.0080967769 0.021918284 0.028645467 4280980289
-0.00589481 0.020465871 0.029890858 4279872568
-0.0036820918 0.019013746 0.031135697 4279352113
-0.0013142675 0.016814282 0.033061519 4281111359
0.0016581714 0.011624666 0.037711918 4280785468
-0.018489704 0.012613555 0.035030454 4282543693
-0.017517772 0.018659974 0.02945964 4281370949
-0.015838072 0.020203477 0.027978294 4280718403
-0.013913475 0.020246347 0.027859597 4281044803
-0.011989031 0.020289304 0.027740983 4279089718
-0.0042928532 0.020462194 0.027267424 4280981053
-0.001936242 0.018255932 0.02918908 4280654653
0.00043650717 0.016050188 0.03110978 4280589884
0.0028254464 0.013844876 0.033029612 4281110848
0.0052305162 0.011640027 0.034948524 4280914754
0.0079622045 0.0079363529 0.03822504 4280653123
-0.020602502 0.011758717 0.033313587 4282348364
-0.019730724 0.018575555 0.027074624 4281241664
-0.018173382 0.020875955 0.024916751 4279675964
-0.016256955 0.020918546 0.02479849 4281175874
-0.014468592 0.021713672 0.024000984 4281175873
-0.012424547 0.02100403 0.024562225 4280849984
-0.010508567 0.021046909 0.024444213 4280655164
-0.0085927472 0.021089932 0.024326319 4279612724
-0.0068159029 0.021885237 0.023529846 4280459833
-0.0047615953 0.021176239 0.024090763 4280850494
-0.0027020127 0.020467425 0.024651475 4280590649
-0.0006371662 0.019758863 0.025211889 4280981053
0.0012832433 0.019802509 0.025094094 4280003639
0.0057441294 0.016882671 0.027569361 4278827323
-0.02259535 0.010153806 0.03227843 4282152268
-0.021581557 0.016235875 0.026730798 4281501764
-0.018583588 0.021604525 0.021746363 4278373933
-0.014511809 0.020180205 0.022866378 4281111359
-0.012467958 0.019468369 0.023426006 4281176128
-0.010685418 0.020265793 0.02263066 4281045824
-0.0087724552 0.020308753 0.022512943 4280784703
-0.0069984086 0.021106197 0.021718282 4280849984
-0.0048055425 0.019640652 0.022954637 4280849984
-0.0030345544 0.020438245 0.02216032 4280981054
-0.0011222661 0.020481607 0.022042958 4280655419
0.00049053878 0.022033343 0.020572951 4280459069
0.0025493801 0.021322703 0.021132292 4279546934
0.0049236864 0.019104211 0.023043485 4280134453
0.010683991 0.010145245 0.030917268 4281436739
0.014265895 0.0026516672 0.037553448 4281761864
0.017570071 -0.0033330414 0.042835657 4282150994
-0.025256656 0.013092382 0.02718091 4282283593
-0.023780297 0.016163429 0.024353556 4280979268
-0.022092093 0.017719986 0.022881156 4281046079
-0.020414911 0.019276368 0.021409564 4281240898
-0.018748764 0.020832622 0.019938739 4281501764
-0.016968593 0.021631902 0.01914488 4279872059
-0.014938414 0.020917444 0.019703707 4280784958
-0.013033457 0.020960024 0.019586334 4281111104
-0.010995403 0.020246001 0.02014479 4280915264
-0.0090880245 0.020288857 0.020027433 4280915008
-0.0073194914 0.021088371 0.019234736 4280915264
-0.0052737445 0.020374866 0.019792972 4280915008
-0.0036551505 0.021930961 0.018325673 4281176638
-0.0017538816 0.0219741 0.018209003 4279548464
0.00014720112 0.022017328 0.018092414 4280589884
0.0022004247 0.02130436 0.018650541 4281566789
0.004258886 0.02059163 0.019208362 4281305924
0.0063226297 0.019879134 0.019765938 4281175873
0.0088730603 0.016898593 0.02234556 4280850238
0.01160825 0.013162626 0.025597835 4281240898
0.01536601 0.0048916209 0.032891043 4281435973
0.019183435 -0.0033779684 0.040180717 4282087754
-0.026797861 0.0084639788 0.028857626 4282280279
-0.025856357 0.015340975 0.022657849 4281436739
-0.024165332 0.01690186 0.021188442 4280915519
-0.022368498 0.017703323 0.020394977 4279351094
-0.020696782 0.019263951 0.018926963 4280067898
-0.018913835 0.02006538 0.018134486 4280328508
-0.017136451 0.020866776 0.017342493 4278504493
-0.015109204 0.020150123 0.017899841 4280198713
-0.013207112 0.020192659 0.017782658 4280915263
-0.01143834 0.020994173 0.016991427 4280784703
-0.0096751712 0.021795658 0.016200611 4281045824
-0.0077789761 0.02183838 0.016084028 4281241408
-0.0057415925 0.02112251 0.016641168 4281307199
-0.0039870888 0.021924132 0.015851134 4281242174
-0.0019446015 0.021208586 0.016408114 4280981053
-0.00019589067 0.022010272 0.015618578 4278375209
0.0018516928 0.02129505 0.016175397 4278832169
0.0039045289 0.020580048 0.016731972 4278503983
0.0081864074 0.018392382 0.018516868 4280588353
0.01074715 0.015403466 0.021089461 4281372223
0.014158763 0.0086244065 0.027021492 4282285633
0.017787725 0.0010885168 0.033622589 4281764923
0.021470897 -0.0064460356 0.040220443 4284575788
-0.027275141 0.0099537466 0.025009576 4282150484
-0.025898885 0.01380392 0.021520523 4281305668
-0.024321921 0.016130658 0.019380664 4281305414
-0.022644658 0.01769569 0.017915484 4280327744
-0.021097913 0.020021999 0.015777664 4279351348
-0.015662897 0.021671018 0.014080867 4280654399
-0.013771832 0.021713311 0.013964366 4280850238
-0.011880916 0.021755708 0.013847958 4281111104
-0.010125984 0.022559205 0.013059285 4281111358
-0.0082381144 0.02260177 0.012943234 4279677748
-0.0062090866 0.021883538 0.013499271 4280655418
-0.0043188035 0.021926353 0.013383221 4281241663
-0.0022819415 0.021208471 0.013938982 4281306944
-0.00038927794 0.021251539 0.01382293 4280785213
0.0016553849 0.020534081 0.014378322 4280721719
0.0035504177 0.020577418 0.014262285 4280460598
0.0054452643 0.02062084 0.014146328 4280849728
0.008302018 0.01610166 0.018055592 4281044549
0.011028178 0.012343712 0.021292264 4281765179
0.014278747 0.0063054711 0.026538933 4283008304
-0.027209301 0.0076422431 0.024536772 4281889874
-0.025718909 0.010739699 0.021727916 4281500743
-0.024136458 0.013073117 0.019592581 4280783429
-0.022687174 0.01616984 0.016786471 4281305414
-0.021020964 0.017739164 0.015325267 4281110084
-0.019365769 0.019308293 0.013864854 4280980288
-0.017596725 0.020113913 0.01307657 4280784704
-0.015960876 0.021682857 0.011617532 4280719168
-0.014075402 0.021725034 0.011501383 4280784703
-0.012190066 0.021767328 0.011385331 4280850494
-0.010440663 0.022572907 0.010598633 4279287344
-0.0024723783 0.020454457 0.012146527 4281176894
-0.0005825609 0.020497488 0.012030676 4281111103
0.0014592037 0.019777732 0.012584664 4280523328
0.0036610663 0.018295528 0.013807956 4280327999
0.0060312152 0.016050914 0.015700089 4280784448
0.0088983625 0.011518905 0.019599017 4281241663
0.011797972 0.0069877375 0.023496034 4281053474
0.01456432 0.00321991 0.026722232 4284119848
-0.027252048 0.0060926769 0.023390179 4282216784
-0.025539178 0.0076670274 0.021929055 4281435463
-0.024065156 0.010772929 0.01912782 4280392003
-0.022379763 0.012346921 0.017668581 4280131903
-0.020944133 0.015452243 0.014869845 4280914499
-0.019408327 0.017791493 0.01274256 4281175364
-0.017889008 0.020130517 0.010616323 4280849984
-0.016131073 0.020938164 0.0098304898 4280850238
-0.01437873 0.02174578 0.0090450719 4280654398
-0.012232989 0.020257087 0.010267938 4280394043
-0.010483656 0.021064879 0.0094828848 4280980288
-0.0086014904 0.021107322 0.0093671922 4280850494
-0.006860625 0.021915117 0.0085828062 4280980034
-0.0048376061 0.021192523 0.0091360752 4279223085
-0.002809301 0.020470155 0.0096891038 4280916284
-0.00062639266 0.018982956 0.010910166 4280654398
0.0014151856 0.018261043 0.011462567 4280458559
0.0037715733 0.016009549 0.013350599 4280262209
0.006301634 0.012993598 0.015905531 4280783939
0.0093339533 0.0076837707 0.020462111 4281574949
0.012241229 0.0031397268 0.024348972 4284120613
-0.027294803 0.0045433734 0.022243785 4281694288
-0.02558196 0.0061220899 0.020785904 4281173068
-0.023880128 0.0077006612 0.019328848 4280782663
-0.022072714 0.0085111316 0.018541241 4280131649
-0.02062881 0.011625361 0.015748465 4279415354
-0.019206833 0.014739243 0.012957152 4280653888
-0.017806772 0.017852733 0.01016726 4280916029
-0.016301151 0.020198083 0.0080468617 4281111613
-0.01455161 0.021007875 0.0072632045 4281046588
-0.012674723 0.021050008 0.0071476945 4278895663
-0.010797977 0.021092242 0.0070322701 4280003894
-0.0089213885 0.02113458 0.0069169351 4280915774
-0.0070449412 0.021177011 0.0068016821 4281175618
-0.0050248355 0.020452144 0.007353568 4280263484
-0.0029994398 0.019727541 0.007905161 4280198458
-0.00096877664 0.019003162 0.0084565114 4280981053
0.0015231445 0.015977437 0.011007171 4280915519
0.0041913763 0.012185192 0.014222924 4281176128
0.0068866685 0.0083936621 0.017437091 4284381989
-0.027229216 0.0022240244 0.021765178 4281499214
-0.025513664 0.0038071424 0.020310424 4280846924
-0.023809135 0.0053901747 0.018856395 4280716363
-0.021882568 0.0054327361 0.018737318 4279934023
-0.020433113 0.0085558295 0.015950691 4280000068
-0.018761635 0.010138443 0.014499007 4279675198
-0.017475266 0.014030891 0.011048356 4279803974
-0.015961435 0.016383016 0.008932272 4281109574
-0.014594231 0.019504735 0.0061510582 4280850238
-0.012850348 0.020316666 0.0053694998 4280394299
-0.011112057 0.021128563 0.0045883576 4278634798
-0.0092410371 0.021170774 0.0044733654 4278961198
-0.0031894743 0.018989569 0.0061246599 4280653378
-0.000714086 0.01595469 0.0086697452 4280849729
0.0017828941 0.012920376 0.011213638 4280263483
0.0047654659 0.0075787082 0.015750483 4280729878
-0.027488608 0.0022181515 0.019285677 4280975443
-0.025778547 0.0038055591 0.017834464 4280585803
-0.023965746 0.0046203882 0.017049668 4280259403
-0.022158515 0.0054352228 0.016265316 4280195144
-0.020356838 0.0062500611 0.015481399 4280325703
-0.018682662 0.0078371428 0.014032748 4280260679
-0.017144132 0.010196207 0.011919955 4279802443
-0.015622083 0.012555076 0.0098082293 4280063053
-0.014246602 0.015685705 0.0070329807 4279804229
-0.012760237 0.018044 0.0049236198 4280783683
-0.011019297 0.018858155 0.0041439445 4280326979
-0.0094221979 0.020444131 0.0027005756 4279025714
-0.0074132048 0.019714611 0.0032498054 4279546933
-0.0053989217 0.018985314 0.0037987838 4280719679
-0.0029400885 0.015941208 0.0063383947 4280783174
-0.00045965612 0.012897698 0.0088767558 4281109318
0.0023461431 0.0083117057 0.012740422 4281113654
0.0050298348 0.0044980347 0.015939064 4282814759
0.0075832531 0.0014565028 0.018473187 4284055079
-0.027855996 0.0029960237 0.016148454 4279666528
-0.026043177 0.0038129129 0.015365187 4279668824
-0.024122242 0.0038552489 0.015246384 4279213904
-0.022317819 0.0046722163 0.014463833 4280129609
-0.020518962 0.0054892227 0.013681669 4280193869
-0.018847525 0.0070805568 0.012236465 4279932748
-0.017187096 0.0086717829 0.010792039 4280193869
-0.015410412 0.0094886273 0.010011489 4280063819
-0.013899345 0.011853863 0.0079054236 4280327489
-0.012404755 0.014218861 0.0058003957 4280849729
-0.01092666 0.016583616 0.0036964756 4280326469
-0.009188652 0.017400006 0.002918689 4280980033
-0.0074562468 0.018216373 0.0021413262 4280719423
-0.0052985251 0.016710995 0.003350873 4280719679
-0.0025446266 0.012110511 0.0072079166 4281109319
0.00024177134 0.0075108986 0.011062996 4282422059
0.0027570724 0.0044595767 0.013592834 4283401514
0.0052939653 0.0014088582 0.01612143 4283792938
0.0076951832 -0.00086762942 0.017987406 4284184618
-0.024278611 0.003094757 0.013446538 4279343189
-0.022593345 0.0046905801 0.012003506 4279931983
-0.020680953 0.0047329552 0.011885399 4279605073
-0.019134052 0.0071051922 0.0097817257 4279670609
-0.01723006 0.0071476083 0.0096643064 4280193613
-0.015580691 0.0087431055 0.008223841 4280324429
-0.013682425 0.0087856445 0.00810696 4280325703
-0.012182347 0.011157328 0.0060064648 4280260679
-0.010563336 0.012752438 0.0045681573 4279413314
-0.0088172331 0.013571175 0.0037914794 4280000578
-0.0069358647 0.013613755 0.0036759526 4280914243
-0.0050546564 0.013656454 0.0035605263 4280914754
-0.0022958294 0.0090430472 0.0074075223 4279093799
0.0003464818 0.0052064471 0.010592384 4282551599
0.0028641149 0.0021464843 0.013115628 4284316708
0.005094409 0.00063882954 0.014317809 4284576043
-0.02084282 0.0039813258 0.010092558 4279275614
-0.019298609 0.0063600875 0.0079938639 4279733339
-0.01752194 0.0071811602 0.0072165285 4279995989
-0.015623681 0.0072235782 0.0070995581 4279996499
-0.013855446 0.0080446769 0.0063229031 4279932748
-0.011960179 0.0080872606 0.0062062903 4279736908
-0.01033574 0.0096868947 0.0047708456 4279802698
-0.008446198 0.0097295642 0.0046547423 4279802698
-0.0066975802 0.010550663 0.0038796221 4280258384
-0.0046675541 0.0098152142 0.0044228062 4279407958
-0.0021935254 0.0067453235 0.0069420901 4280976208
0.00030210614 0.0036760457 0.0094601419 4282872389
-0.019584704 0.0064005107 0.0055508069 4279144033
-0.017440397 0.004881015 0.0067509259 4279668314
-0.015412435 0.004142629 0.007292165 4279930199
-0.013638843 0.0049660765 0.0065167588 4279539283
-0.012135938 0.0073508639 0.0044258423 4279997518
-0.010243662 0.0073934924 0.0043094968 4279802954
-0.0084895454 0.0082168356 0.0035355357 4279932748
-0.0064595453 0.0074790772 0.0040770825 4280520779
0.00025773793 0.0021458939 0.0083280858 4281037918
-0.013811801 0.0042278133 0.0047347047 4279668823
-0.011914082 0.0042704605 0.0046179467 4279803463
-0.010286935 0.0058788415 0.003188855 4280063308
-0.0085328892 0.0067043714 0.0024165246 4279998284
-0.0066437647 0.0067471527 0.0023005377 4280322389
-0.01411435 0.0042792987 0.0023011453 4279013728
-0.012354657 0.0051068962 0.0015299073 4279213393
-0.01046538 0.0051494762 0.0014137593 4279411274
-0.0087141171 0.0059770681 0.0006432496 4280128844
-0.0066872388 0.0052349232 0.0011817119 4280255833
-0.012662474 0.0051694028 -0.000895062 4278883168
-0.010373481 0.0028502885 0.00094813155 4279670864
-0.0086195804 0.0036801733 0.00017904281 4279996243
-0.029463351 0.00062953681 0.018261194 4278346649
-0.031437878 -0.00095866621 0.017236998 4281487483
-0.030033112 0.002968289 0.013802698 4279455133
-0.028331183 0.0045641083 0.012358362 4279459469
-0.033212338 -0.0041049486 0.017536335 4279913878
-0.030391514 0.0037708711 0.010683108 4278401218
-0.02646089 0.0030756984 0.011107551 4280110229
-0.035483442 -0.0033523589 0.014529221 4279193249
-0.034053691 0.00059666857 0.011109348 4278931108
-0.030749552 0.0045868065 0.0075733992 4279254194
-0.026724856 0.0031078868 0.0086566526 4279519139
-0.024704494 0.0023687929 0.009197887 4278407594
-0.022911225 0.0031920616 0.0084208846 4278672538
-0.037643239 -0.0033697197 0.012189813 4281159298
-0.036205091 0.00059026666 0.0087774154 4278865829
-0.034494821 0.0021989588 0.0073420522 4278734249
-0.03279553 0.003807595 0.0059074308 4279585694
-0.031001955 0.0046325587 0.0051316624 4279650718
-0.029105935 0.0046741161 0.0050142291 4278994348
-0.026988585 0.0031490829 0.0062123458 4278667693
-0.025087312 0.0031909905 0.0060947607 4279127714
-0.023186143 0.0032330249 0.00597728 4278733738
0.0019720942 0.0014421046 0.0064240205 4278998684
0.0038794875 0.0014858227 0.0063073034 4279781533
-0.039516915 -0.0057355678 0.011828354 4280635784
-0.038156509 -0.00097855832 0.0077657918 4278734758
-0.036537781 0.0014203489 0.0056762206 4278341804
-0.033042151 0.003860252 0.0034703668 4278798763
-0.031254124 0.0046873372 0.0026965323 4279126694
-0.025356382 0.0032410156 0.0036574998 4278799784
-0.0235769 0.0040683318 0.002884578 4278603943
-0.02180298 0.0048956983 0.0021120566 4278342058
-0.00042609125 0.002225114 0.0034494214 4279195798
0.0014731809 0.0022685342 0.0033331164 4280045458
0.0032180846 0.0030966178 0.0025634691 4280633233
0.0052712336 0.0023556761 0.0031007677 4282007684
-0.039741598 -0.0056995722 0.0093772095 4279062688
-0.038292199 -0.0017176894 0.0059801792 4278669479
-0.036676172 0.0006876979 0.0038956273 4278800549
-0.034877177 0.001516927 0.0031225998 4278341039
-0.027625892 0.0040460955 0.00068921596 4278865064
-0.025625218 0.0033000559 0.0012268363 4278603943
-0.023735229 0.003341835 0.0011100401 4278669734
-0.02196411 0.0041712765 0.00033934857 4278801059
-0.018438544 0.0058301222 -0.0012007537 4279388323
-0.01681105 0.0074469373 -0.0026236887 4279719059
-0.0028074384 0.0030218568 0.00048376876 4278933658
-0.00076759607 0.0022781249 0.0010200394 4279191464
0.0011260957 0.0023214296 0.00090408511 4278667184
0.007284984 9.2059374e-05 0.0025112438 4278663358
0.0096730888 -0.0022237068 0.0043490971 4281090959
-0.039783113 -0.0072352411 0.0082408339 4279914643
-0.03823939 -0.0040327189 0.0055057774 4279521944
-0.03642679 -0.0032011503 0.0047334223 4278931363
-0.034719352 -0.0015793983 0.0033078999 4279062943
-0.03312524 0.00083225034 0.0012297817 4278866593
-0.031442475 0.0024537053 -0.00019403198 4278342569
-0.029662874 0.0032850206 -0.000963995 4278342314
-0.027888808 0.0041163433 -0.0017335197 4278473129
-0.026007045 0.0041578431 -0.0018498792 4278603944
-0.024125375 0.0041994397 -0.0019661621 4278800549
-0.018481012 0.004324941 -0.0023144288 4278532289
-0.016853526 0.0059460998 -0.0037341393 4278272188
-0.014977876 0.0059881452 -0.0038496177 4279455389
-0.0050287917 0.003043266 -0.0018221282 4278869143
-0.00299716 0.0022970792 -0.0012870387 4279389853
-0.0011088699 0.0023401529 -0.0014027425 4279322023
0.00047655404 0.0039612763 -0.0028191151 4278994094
0.0089791343 -0.00059794448 0.00061891694 4279125674
0.011042297 -0.0013427595 0.0011526332 4279847323
-0.039641816 -0.010355595 0.0084095933 4280307088
-0.038092569 -0.0071442323 0.0056806658 4279586459
-0.036274612 -0.0063103978 0.0049095736 4278931363
-0.03446218 -0.0054765334 0.0041389358 4278800294
-0.032962173 -0.0022658678 0.0014133397 4278865829
-0.031273976 -0.00064001512 -7.5604767e-06 4279324573
-0.029704522 0.001777919 -0.00207916 4279062689
-0.02793055 0.0026114397 -0.0028470454 4278800038
-0.026162118 0.0034449287 -0.00361452 4278734504
-0.024283323 0.0034864768 -0.003730614 4278406318
-0.022404622 0.0035281312 -0.0038466218 4278930344
-0.020526033 0.003569901 -0.0039625335 4279257508
-0.018771645 0.0044035893 -0.0047288374 4279191208
-0.015279543 0.0060708504 -0.0062600789 4279847069
-0.0131451 0.0045297053 -0.0050752559 4279323044
-0.011134855 0.0037803948 -0.0045407377 4278736544
-0.0092570111 0.0038228072 -0.0046561137 4278608534
-0.0072388798 0.0030739345 -0.004121962 4278999958
-0.0052154586 0.0023252927 -0.0035880532 4279390619
-0.0033325776 0.0023681205 -0.0037035148 4279193504
-0.0014498681 0.0024110898 -0.0038188596 4278601393
0.00013009459 0.0040364359 -0.0052316734 4278798764
0.0020070672 0.0040794648 -0.0053465245 4279192993
0.0037271455 0.0049136393 -0.0061097848 4279127713
0.0060794577 0.0025838576 -0.0042794594 4278995624
0.0081235468 0.0018363856 -0.0037462977 4278929833
0.010337807 0.00029823557 -0.0025654193 4279192228
0.012395158 -0.00044874661 -0.0020329314 4280043418
0.014628105 -0.0019862344 -0.00085309637 4283316343
-0.039774787 -0.011100424 0.0066195386 4279914389
-0.038040034 -0.0094696805 0.0051986282 4279521178
-0.036219463 -0.0086335409 0.0044289664 4279455644
-0.034404401 -0.0077974563 0.0036597704 4279193248
-0.031105734 -0.0037421184 0.00017263507 4278800549
-0.029638488 -0.00052322913 -0.0025442941 4279259549
-0.027861871 0.00031248853 -0.0033107558 4279062689
-0.026317075 0.0027366485 -0.0053758053 4279127713
-0.020689584 0.0028614309 -0.0057232874 4279519903
-0.019062012 0.0044911373 -0.0071365875 4279847579
-0.017191961 0.0045329351 -0.0072518121 4278601904
-0.015192557 0.0037810169 -0.0067184558 4278601393
-0.013187841 0.0030293521 -0.0061853249 4279127204
-0.01144762 0.0038652979 -0.0069487737 4278341804
-0.0058312006 0.003992483 -0.0072936057 4278865829
-0.0038135573 0.0032416377 -0.0067608785 4278537643
-0.00021608174 0.0041205753 -0.0076376633 4278270914
0.0018092766 0.0033702012 -0.0071051903 4278794938
0.0038399324 0.0026199967 -0.0065729311 4279254194
0.005716458 0.0026631858 -0.0066876309 4278598079
0.0096338615 0.0019568596 -0.006270431 4278733994
0.012015253 -0.00037847087 -0.0044465717 4278537899
0.013731726 0.00045822561 -0.0052076038 4278799528
0.01561556 0.00050206855 -0.0053223884 4279912348
0.017674938 -0.00024679862 -0.0047914567 4282333828
-0.039816342 -0.012637483 0.0054821358 4280045969
-0.038081631 -0.011002371 0.0040644696 4279718803
-0.036357883 -0.0093673542 0.0026475145 4279390108
-0.03444618 -0.009325807 0.0025288472 4279062688
-0.031042621 -0.0060561458 -0.00030182814 4278735014
-0.029572561 -0.0028284956 -0.0030124772 4278472618
-0.027793318 -0.0019905213 -0.0037774702 4278472618
-0.026245747 0.00044017285 -0.0058378144 4279193758
-0.024483033 0.0012780428 -0.0066016652 4279127713
-0.0154939 0.0038751122 -0.0091204885 4279257254
-0.013362691 0.0023251604 -0.0079419473 4278930599
-0.011625275 0.0031632259 -0.0087036025 4278669478
-0.0098934174 0.004001284 -0.0094648264 4278735014
-0.0080268495 0.0040435344 -0.0095794406 4278537388
-0.0063034333 0.0048816223 -0.010339987 4278865828
-0.0044398531 0.0049240012 -0.010454271 4278866339
-0.0025764406 0.0049665123 -0.010568448 4278538154
-0.00056199729 0.0042136125 -0.010036996 4278601904
0.0053537339 0.0027515292 -0.0090892054 4278269893
0.0072245598 0.0027946699 -0.0092034927 4279453858
0.0092599541 0.002042735 -0.0086729648 4278603434
0.011468142 0.00049581565 -0.0074981167 4278668969
0.013176396 0.0013345089 -0.0082570259 4278733738
0.016576096 0.0030117873 -0.0097736828 4281220499
0.018980972 0.00067077763 -0.007955797 4282662778
-0.041869029 -0.013416632 0.0038167406 4283059814
-0.040040348 -0.012576255 0.0030496642 4279849363
-0.038311124 -0.0109369 0.0016355002 4279718548
-0.036399506 -0.010895474 0.0015167501 4279325594
-0.034587357 -0.010055104 0.00075096125 4279259549
-0.032882836 -0.0084159505 -0.00066134473 4278472618
-0.0311893 -0.0067768684 -0.0020729203 4278997154
-0.029721871 -0.0035405606 -0.0047769384 4278800803
-0.027835153 -0.0034990879 -0.0048937071 4278800549
-0.026287548 -0.0010618828 -0.0069492217 4278538409
-0.024524923 -0.00022179913 -0.007711424 4279390109
-0.022767823 0.00061818212 -0.0084731961 4278931873
-0.021016289 0.0014581792 -0.0092345206 4278276269
-0.017529856 0.0031381287 -0.010755902 4278406573
-0.015536301 0.0023817327 -0.010225412 4278407084
-0.013669483 0.0024236795 -0.010340272 4278669224
-0.011802785 0.0024657287 -0.010455047 4278538154
-0.010211233 0.0041039176 -0.011859311 4278993329
-0.0066323243 0.0049861539 -0.012732193 4278399943
-0.0049199909 0.0058262479 -0.013490381 4279319219
-0.0030648559 0.0058685634 -0.013604056 4279585184
-0.00090765953 0.0043155979 -0.012429783 4278669224
0.0012602881 0.0027629379 -0.011256048 4278800294
0.0034389645 0.001210656 -0.010082949 4278537899
0.0048320293 0.0036462117 -0.012127602 4278472363
0.0066945627 0.0036891699 -0.012241378 4278538154
0.0087216422 0.0029348582 -0.011711961 4278602923
0.011088826 0.00058613904 -0.0098969266 4278340784
0.012791611 0.0014268495 -0.010653911 4278667438
0.016004786 0.0039052609 -0.012809098 4278268873
0.018401206 0.0015575681 -0.010995587 4278531524
0.020813748 -0.00078973081 -0.009182971 4279712938
0.023058683 -0.0023395866 -0.0080132522 4282987139
-0.040172942 -0.013307243 0.0012697787 4281092744
-0.038352586 -0.012464765 0.00050491281 4280045204
-0.036344506 -0.013224426 0.0010318449 4279259804
-0.03452972 -0.012381824 0.00026750704 4279128734
-0.03282252 -0.010738245 -0.0011417258 4278931364
-0.031126294 -0.0090947505 -0.0025502376 4279521178
-0.029548533 -0.0066506015 -0.0046029566 4279062688
-0.027766753 -0.005808169 -0.0053649144 4278931874
-0.026103441 -0.0041650822 -0.0067710793 4278735014
-0.024219774 -0.0041234456 -0.0068874881 4278276013
-0.022572991 -0.0024804976 -0.0082924645 4278603434
-0.020937208 -0.00083763432 -0.0096967174 4278669478
-0.01943624 0.00160552 -0.01174417 4278865829
-0.017698612 0.0024476591 -0.012502892 4278472618
-0.015837252 0.00248936 -0.012617508 4278472618
-0.013976015 0.0025311783 -0.012732027 4278669224
-0.012249615 0.0033733342 -0.013489783 4278472364
-0.010391343 0.0034152828 -0.013603974 4278730679
-0.0086733587 0.0042574815 -0.014361043 4279318963
-0.0069609508 0.0050996263 -0.015117716 4279253428
-0.0032562166 0.0051840059 -0.015344815 4278668203
-0.001101993 0.0036266223 -0.01417359 4278668969
0.0010629892 0.002069531 -0.013002912 4278602923
0.0030822083 0.0013125539 -0.012474859 4278800039
0.0047883093 0.0021551531 -0.0132307 4278799784
0.0064887926 0.0029977784 -0.013986157 4278930598
0.0085129961 0.002241144 -0.013458164 4278537899
0.012407109 0.0015280526 -0.013044165 4278864299
0.01375322 0.0039695427 -0.015080819 4278929324
0.015784897 0.003213495 -0.014553051 4279715488
0.020225935 0.00010361522 -0.012217265 4279255213
0.02227883 -0.00065169204 -0.011690607 4279388834
0.024523392 -0.002205899 -0.010524014 4280960909
-0.038487867 -0.013189058 -0.0012697198 4281815669
-0.036289606 -0.015557533 0.00054393848 4279259549
-0.034472208 -0.014712663 -0.00021899538 4279259038
-0.032660309 -0.013867799 -0.00098142889 4278931108
-0.031063382 -0.011416836 -0.0030305914 4279324573
-0.029375434 -0.0097690374 -0.0044352608 4279193759
-0.02769845 -0.0081214299 -0.0058391406 4278997154
-0.025919568 -0.0072767958 -0.0065992377 4279390619
-0.02414621 -0.0064322054 -0.0073588598 4278735013
-0.022378396 -0.0055876207 -0.0081180539 4278734759
-0.0209793 -0.0023348602 -0.010804519 4278340783
-0.019478284 0.00011481903 -0.012847133 4279193504
-0.017867226 0.0017616935 -0.014246473 4278866084
-0.016008724 0.0018033497 -0.014360903 4278931874
-0.014150344 0.0018451065 -0.014475243 4278735269
-0.010846078 0.0043359883 -0.016628375 4278733484
-0.0091363192 0.0051801335 -0.017383354 4279127713
-0.0071465075 0.0044198316 -0.016855469 4278931109
-0.0052969158 0.0044619106 -0.016968885 4278929324
-0.0034474656 0.0045040697 -0.017082229 4278273464
-0.0014471635 0.0037442353 -0.016554741 4278668203
0.00071211159 0.0021827184 -0.015386978 4278799784
0.0027257055 0.0014234241 -0.014860207 4278537644
0.0044263229 0.002268061 -0.015614104 4278472109
0.0061213449 0.0031126551 -0.016367598 4278733993
0.0079753399 0.003155496 -0.016480792 4278537898
0.013363644 0.0040860549 -0.017459316 4279716254
0.015389726 0.0033276752 -0.01693284 4280109718
0.017599225 0.0017680991 -0.015767565 4279191973
0.019819446 0.00020881556 -0.014602834 4278273974
0.021683142 0.00025247969 -0.014716176 4278865318
0.023919314 -0.0013062572 -0.013552364 4278996133
0.027111322 -0.0068705222 -0.009197088 4279716763
0.030532911 -0.013234861 -0.004205863 4281220754
-0.03451401 -0.016242234 -0.0013508226 4281160064
-0.032702208 -0.015395242 -0.0021116696 4279521179
-0.031000592 -0.01374297 -0.0035140142 4279521434
-0.029202562 -0.012896024 -0.0042738183 4278801058
-0.027520165 -0.011243899 -0.0056748441 4279194269
-0.025735911 -0.010397024 -0.0064336229 4279259294
-0.023957197 -0.009550143 -0.0071919644 4279324573
-0.0223023 -0.0078982776 -0.0085910326 4279389854
-0.020779375 -0.0054417159 -0.010630252 4278405809
-0.019149169 -0.0037901597 -0.012027619 4278471853
-0.01765639 -0.0013340442 -0.014064813 4278930853
-0.016050901 0.00031719171 -0.015460484 4278932128
-0.014456399 0.0019682236 -0.01685537 4278670244
-0.012738314 0.0028145649 -0.017609447 4278406574
-0.0093188137 0.0045070946 -0.019116258 4279060649
-0.0037867501 0.0046329014 -0.019455517 4278601139
-0.0016411617 0.0030665882 -0.018290242 4278537133
0.0002078712 0.0031089429 -0.018403409 4278668203
0.0023695081 0.0015431419 -0.017238934 4278537644
0.004064627 0.0023898222 -0.017990889 4278799783
0.0059159473 0.0024324991 -0.018103994 4278603433
0.0076025873 0.0032792054 -0.018855341 4278472363
0.0094508901 0.0033219997 -0.018968124 4278930343
0.012974337 0.0042115003 -0.019831279 4278270913
0.0192324 0.0011264887 -0.017619137 4278273719
0.021271393 0.00036646426 -0.017094892 4279061668
0.024060652 -0.0036069928 -0.01402308 4278865319
0.027065858 -0.0083830897 -0.010316011 4279914389
0.030486852 -0.01476488 -0.00533769 4282530945
-0.034754127 -0.016156517 -0.0037638615 4282079083
-0.032845981 -0.016114935 -0.0038822249 4281161338
-0.031147115 -0.014458423 -0.0052812085 4279456663
-0.029351894 -0.01360931 -0.0060392581 4279194269
-0.027452148 -0.013567567 -0.0061568455 4279455643
-0.025552496 -0.013525707 -0.0062743379 4279390618
-0.023768421 -0.012676536 -0.0070313998 4279259039
-0.022108093 -0.011020249 -0.0084275361 4279192994
-0.020458762 -0.0093640592 -0.0098229591 4278602924
-0.018820412 -0.0077080363 -0.011217574 4279257763
-0.017445795 -0.0044382149 -0.013889462 4278537644
-0.015834868 -0.0027826047 -0.015282238 4278603434
-0.014498577 0.00048658997 -0.017951593 4278735523
-0.012780562 0.0013351087 -0.018704049 4278801058
-0.0076598525 0.0038803797 -0.020958792 4278269893
-0.0041257665 0.0047706291 -0.021822225 4278733738
-0.0021367148 0.0040062293 -0.021297321 4278537388
-0.0001423806 0.0032420456 -0.020772671 4278603434
0.0018572658 0.0024780799 -0.020248273 4278603433
0.0032261685 0.0049391314 -0.022272117 4278275504
0.0050637797 0.0049814768 -0.0223844 4279187384
0.0069012493 0.0050239023 -0.022496609 4279518628
0.0090728924 0.0034543965 -0.02133574 4278734504
0.0107456 0.0043030512 -0.022084475 4278472363
0.01258532 0.0043458007 -0.022196623 4278668204
0.016798384 0.0020142123 -0.020513225 4278405299
0.01900728 0.00044592097 -0.019354295 4278865574
0.021410331 -0.0019276673 -0.017560447 4278931618
0.024201907 -0.0059119537 -0.014496854 4280439688
0.027587123 -0.012312056 -0.0095293242 4282012019
-0.042428412 -0.017846333 -0.0044177296 4282733414
-0.029501092 -0.014318056 -0.0078012659 4280571524
-0.027494229 -0.015085857 -0.0072802794 4279718293
-0.02548201 -0.015853487 -0.0067595108 4278996898
-0.023579869 -0.015811456 -0.0068770708 4278930853
-0.021914124 -0.014150652 -0.0082703531 4279061669
-0.020259365 -0.012490065 -0.0096628619 4279127458
-0.018739183 -0.010020347 -0.011692179 4279586204
-0.017235428 -0.0075508868 -0.013720402 4279324063
-0.015619081 -0.0058907969 -0.015110277 4279061923
-0.014145475 -0.0034218179 -0.017136499 4278472363
-0.012688298 -0.00095313136 -0.01916158 4278930853
-0.011110384 0.00070644915 -0.020548904 4279194014
-0.0095434561 0.0023658741 -0.021935407 4278276524
-0.0064426214 0.0056842528 -0.024706256 4278406573
-0.0046125799 0.00572595 -0.024818424 4278406574
-0.0023302883 0.0033419952 -0.023022827 4278472109
-0.00049234927 0.0033840351 -0.023135358 4278537388
0.0086951703 0.0035956912 -0.023696775 4278668459
0.010702044 0.0028301291 -0.023174128 4278734504
0.012369141 0.0036809053 -0.023920849 4278603434
0.014556386 0.0021076426 -0.022763988 4278602923
0.016576365 0.0013426375 -0.022241954 4278865574
0.019324377 -0.0026537068 -0.019183902 4278866084
0.02191598 -0.0058415178 -0.01676132 4279588498
0.024901383 -0.010644274 -0.01307256 4281422714
0.027919225 -0.015446248 -0.0093856808 4282339183
-0.027646221 -0.015792292 -0.0090403538 4282077808
-0.02563693 -0.016562102 -0.0085210465 4279194015
-0.023737658 -0.016520165 -0.0086384527 4279192993
-0.021956559 -0.015666617 -0.0093920333 4278733739
-0.020422641 -0.013190211 -0.011417462 4279127713
-0.018781591 -0.011525432 -0.012805788 4279586459
-0.017151535 -0.0098608192 -0.014193378 4279258783
-0.015403513 -0.0090075145 -0.014944626 4279390109
-0.01379272 -0.0073431106 -0.016330866 4279127713
-0.012327343 -0.004867672 -0.018351652 4278472619
-0.011015519 -0.0015814733 -0.021006478 4278537899
-0.0095857233 0.00089331158 -0.023024891 4279324319
-0.0081723779 0.0033678636 -0.025042268 4278669478
-0.0064848959 0.0042203814 -0.025789291 4278865063
-0.0048029646 0.0050728433 -0.026535923 4278865318
-0.0025237203 0.0026823357 -0.024745021 4278603434
-0.00084207207 0.003534995 -0.025491485 4278537133
0.00099017471 0.0035770144 -0.025603589 4278536878
0.0026634037 0.0044296533 -0.026349405 4278597314
0.0044926554 0.0044717658 -0.026461206 4279256234
0.0083177388 0.0037458967 -0.026051292 4279125929
0.010318995 0.0029780269 -0.025529917 4278799783
0.012325563 0.0022103153 -0.025008768 4278733994
0.014337398 0.0014428571 -0.024487915 4278733994
0.016888231 -0.0017547999 -0.02206945 4278734504
0.019460626 -0.0049518775 -0.019652244 4279391383
0.022421271 -0.009768337 -0.015971715 4281226364
0.025042236 -0.012964131 -0.013557356 4282012019
0.027873524 -0.016969198 -0.01051229 4282797673
-0.024010606 -0.016410653 -0.011031266 4281617788
-0.022235036 -0.015555064 -0.011782899 4279914134
-0.020706508 -0.01307226 -0.013803158 4279455898
-0.018947449 -0.012216821 -0.014553612 4279324064
-0.017320141 -0.010547863 -0.015937837 4279652249
-0.015445985 -0.010505933 -0.016053284 4279521434
-0.013703577 -0.0096505284 -0.016802462 4279259038
-0.012235418 -0.0071685817 -0.018818561 4278996898
-0.010920763 -0.0038736351 -0.021467114 4278341548
-0.0077870451 -0.00053736195 -0.024227256 4278931364
-0.0062366873 0.0011305865 -0.025606213 4279259038
-0.0046973452 0.0027983207 -0.026984394 4279061668
-0.002867654 0.0028400831 -0.027096486 4279192739
-0.0011914894 0.0036947709 -0.027841017 4278537388
0.0024617612 0.003778575 -0.028064517 4279716764
0.0042881742 0.0038206168 -0.028176149 4279193504
0.0062787086 0.0030501299 -0.027655877 4278996133
0.0081075504 0.0030923896 -0.027767535 4278930344
0.010275617 0.0015097987 -0.026616098 4279258274
0.012282029 0.00073986873 -0.026096582 4278472619
0.014643945 -0.0016545001 -0.024315013 4278603433
0.017199852 -0.0048607523 -0.021903323 4279062943
0.020138435 -0.0096908584 -0.018231198 4279587989
0.022926196 -0.013707994 -0.015191685 4280570759
0.025368959 -0.01610022 -0.013414774 4282471274
-0.026058882 -0.017149866 -0.012667371 4281815668
-0.022749197 -0.013802906 -0.015433343 4281750133
-0.020990122 -0.012945422 -0.016182279 4280045714
-0.018989768 -0.013719343 -0.015665326 4279586968
-0.017362464 -0.012046063 -0.017046344 4279455388
-0.01574615 -0.010372976 -0.018426571 4279521433
-0.014009241 -0.0095155314 -0.019173805 4279259548
-0.012412179 -0.0078426152 -0.020552728 4278406829
-0.010826107 -0.0061698919 -0.021930858 4278538408
-0.0091113001 -0.0053126551 -0.022676518 4278670244
-0.0074020661 -0.0044553895 -0.023421794 4278342058
-0.0042960197 -0.0011107279 -0.026173471 4278668714
-0.0027595088 0.00056141242 -0.027548235 4279192739
-0.0010806844 0.0014183205 -0.028291322 4278733738
0.010232285 4.1725114e-05 -0.027702168 4278800038
0.012583189 -0.0023595737 -0.025924806 4278668968
0.014950268 -0.0047604069 -0.024148362 4278997153
0.017866813 -0.0096041709 -0.020484649 4280767619
0.020274289 -0.012003927 -0.018710567 4281357180
0.022881158 -0.015217514 -0.016308378 4281225598
0.024951801 -0.01598775 -0.015794113 4280766598
-0.028211128 -0.017066076 -0.014932383 4282209134
-0.019155402 -0.01440381 -0.01740803 4281095039
-0.017530836 -0.012726255 -0.018785663 4280045968
-0.015917245 -0.011048891 -0.020162502 4279194268
-0.013920113 -0.011824757 -0.019646741 4278997153
-0.01232034 -0.01014749 -0.021022571 4279062434
-0.010594618 -0.0092878956 -0.021767408 4278931108
-0.0091537498 -0.0067933593 -0.023772031 4278996898
-0.0071598031 -0.0075688735 -0.023255758 4278931363
-0.0057409517 -0.0050745793 -0.025258914 4278669479
-0.0038950741 -0.0050326008 -0.025372114 4278409125
-0.002500914 -0.0025387229 -0.027373569 4278538409
-0.00096996874 -0.00086229481 -0.028744716 4279519904
0.00039400905 0.0016311258 -0.030744227 4278406064
0.0076876655 0.001799006 -0.031190023 4278537643
0.01035855 -0.0022430681 -0.028159803 4278865828
0.012884155 -0.0054675546 -0.025759352 4280439434
0.015431359 -0.0086915214 -0.023360129 4281684854
0.018000148 -0.01191491 -0.020962164 4282143088
0.020410076 -0.01432115 -0.019193083 4282012274
0.022652991 -0.015910363 -0.018052414 4282143343
0.024720781 -0.016682837 -0.01753966 4282667878
0.026793808 -0.017455142 -0.017027117 4282405739
-0.030458983 -0.016152648 -0.01782188 4282733414
-0.017447047 -0.015041912 -0.019262951 4282404974
-0.015702017 -0.014180087 -0.020007569 4279063453
-0.013831098 -0.014138139 -0.020122752 4279390363
-0.012362763 -0.011636678 -0.022124382 4279063199
-0.010773983 -0.0099551855 -0.023496293 4279062944
-0.0091961771 -0.0082738958 -0.024867421 4279259039
-0.0072024167 -0.0090516042 -0.024352761 4278996898
-0.0054934099 -0.0081899753 -0.025094707 4278931619
-0.0036422089 -0.0081478981 -0.02520825 4278735013
-0.0020920932 -0.0064667882 -0.026577422 4278473384
-0.00070614368 -0.0039665224 -0.028573496 4278472364
0.00050742924 -0.00064716022 -0.031196026 4279062178
0.0020164028 0.0010332856 -0.032562468 4278932128
0.0038370639 0.0010751244 -0.032673802 4278801314
0.0056575835 0.0011170544 -0.032785054 4278669223
0.007811524 -0.00047913473 -0.031642534 4278735014
0.010484703 -0.0045319926 -0.028620567 4278865829
0.013184898 -0.0085841343 -0.025600186 4280308620
0.015737183 -0.011816696 -0.023207739 4281946739
0.01813338 -0.014229828 -0.021442775 4282143344
0.020365402 -0.015823815 -0.020304721 4281946993
0.022425018 -0.01659872 -0.019793132 4282602598
-0.034254495 -0.017734416 -0.018698893 4280766344
-0.017489307 -0.016539583 -0.020371072 4282404974
-0.015744358 -0.015675606 -0.021114085 4280964479
-0.013742175 -0.016455725 -0.020601872 4279521689
-0.012271065 -0.013947707 -0.022598855 4278996899
-0.010542739 -0.013083798 -0.02334062 4279193504
-0.0092385784 -0.0097542759 -0.025962695 4279193504
-0.0071027428 -0.011355991 -0.02482293 4279194014
-0.0055360571 -0.0096704084 -0.026190003 4278866594
-0.0038326755 -0.0088066217 -0.026929984 4278997664
-0.0019844323 -0.0087645231 -0.027043279 4278538919
-0.00059569627 -0.0062576998 -0.029034706 4278735268
0.00077658892 -0.0037510963 -0.031025084 4278341803
0.0022910237 -0.0020662742 -0.032388631 4278276268
0.0039557293 -0.0012029065 -0.0331259 4279586459
0.0057788566 -0.0011609579 -0.033237342 4278800549
0.0079353079 -0.0027614562 -0.032098208 4279849109
0.0107802 -0.0076463223 -0.028459398 4281291644
0.013657562 -0.012530396 -0.024822459 4281553783
0.016042769 -0.01495041 -0.023061741 4281488758
0.018088967 -0.015727988 -0.022551086 4281816434
0.019960135 -0.015684456 -0.022665109 4282340970
-0.019774619 -0.015605628 -0.023242407 4282666093
-0.012313504 -0.01543874 -0.023702033 4280439179
-0.010585241 -0.014572666 -0.024442188 4279652249
-0.0090020075 -0.01288254 -0.025807256 4279390619
-0.0071453638 -0.012840554 -0.025921293 4279193503
-0.0055786669 -0.011150673 -0.027285177 4279062434
-0.0038753301 -0.010284733 -0.028023556 4279062944
-0.002027221 -0.010242648 -0.028136851 4278932129
-0.00048533082 -0.008553056 -0.029499009 4278932129
0.0012013242 -0.0076872697 -0.030236125 4278997153
0.0027239323 -0.005997899 -0.031597011 4278277544
0.0043967366 -0.005132244 -0.032333139 4278473384
0.0060639903 -0.0042666579 -0.03306888 4279259294
0.0085589364 -0.007518244 -0.030686069 4280046989
0.011244863 -0.011592573 -0.027681034 4280963968
0.01378572 -0.014842929 -0.025300901 4281357178
0.01617334 -0.017269429 -0.023545183 4281423733
0.018399641 -0.018872367 -0.022413326 4281882224
-0.010354321 -0.017713923 -0.02429595 4281684599
-0.0087656341 -0.016019411 -0.025658116 4279914644
-0.0070458166 -0.015151143 -0.026396055 4280110229
-0.0056212358 -0.012630793 -0.028380249 4279192993
