# .PCD v0.7 - Point Cloud Data file format
VERSION 0.7
FIELDS x y z rgba
SIZE 4 4 4 4
TYPE F F F U
COUNT 1 1 1 1
WIDTH 687
HEIGHT 1
VIEWPOINT 0 0 0 1 0 0 0
POINTS 687
DATA ascii
0.022344865 -0.0014748478 0.034344662 4286333249
0.024331152 -0.0014397611 0.03425853 4287183164
0.026317209 -0.0014045851 0.034172475 4286071364
0.019479312 0.00074738683 0.029928192 4287118139
0.021109536 0.0023238063 0.028510153 4289145643
0.023076683 0.0023585577 0.028424852 4290191908
0.025220335 0.0016226796 0.029005619 4290061349
0.027548656 0.00011628168 0.030252073 4289667628
0.015008099 0.0014115833 0.026941957 4289079088
0.016475663 0.0037653944 0.024861962 4288949548
0.01843226 0.0037998087 0.024777008 4289015339
0.020217389 0.0046073063 0.024027504 4290454813
0.022170819 0.0046418435 0.023942817 4290651164
0.024300732 0.0039035412 0.024522576 4290454048
0.026794687 0.001619624 0.026430726 4290453538
0.029304713 -0.00066384976 0.028338222 4288491058
0.0045474693 0.0027636713 0.0235563 4286987068
0.0063502938 0.0035731015 0.022807144 4291565339
0.0083023608 0.0036069923 0.022722058 4290388003
0.010096647 0.0044163917 0.021973437 4288687918
0.0120456 0.0044504185 0.021888627 4288884523
0.014157377 0.0037092124 0.022467278 4289801504
0.015942872 0.0045187348 0.02171924 4289931809
0.017554253 0.0061034742 0.02030837 4290193694
0.019325733 0.0069129313 0.019561077 4289408548
0.021265469 0.0069472152 0.019476976 4289931808
0.023734912 0.0046563041 0.021381294 4290062113
0.026041105 0.0031407471 0.022622343 4289800229
0.0287221 7.5463206e-05 0.025188081 4288752943
-0.001070641 -0.00046326849 0.023986833 4286464063
0.00060237199 0.0011260989 0.022575891 4288491313
0.0021176711 0.0034932108 0.02050297 4289212964
0.0037658066 0.0050823647 0.019093271 4290192674
0.0057070553 0.0051159742 0.019008592 4290519838
0.0076481178 0.0051496769 0.018923989 4290781979
0.0097465292 0.0044058743 0.019501483 4290717208
0.011689931 0.0044397912 0.019416908 4289604643
0.013796113 0.0036962801 0.019994181 4289866784
0.015741803 0.0037304373 0.019909652 4289932063
0.017013602 0.0068744118 0.01717902 4290716953
0.018776864 0.0076859086 0.016433684 4290324509
0.020708337 0.0077200602 0.016349951 4289670178
0.023169383 0.0054223943 0.018249854 4289800993
0.025467202 0.0039023762 0.019488027 4290454558
0.028321788 5.102111e-05 0.022708656 4289865508
0.031018585 -0.0030226642 0.025267333 4289537834
-0.011421666 0.00091694808 0.020615656 4286790973
-0.0099920258 0.0040710545 0.017883571 4288557104
-0.0081853569 0.0048841718 0.01713698 4290781469
-0.0059771612 0.003356697 0.018374797 4288819244
-0.0038966835 0.0026097051 0.018950962 4289146153
-0.0019520968 0.0026430045 0.018865865 4289604644
-0.00015156716 0.0034564249 0.018119842 4290062368
0.0014967248 0.0050498801 0.016713221 4290586139
0.0032832772 0.0058632358 0.015967939 4289539363
0.0050642043 0.0066766194 0.015222996 4290128158
0.0069942623 0.006710134 0.015138877 4290324509
0.009081617 0.0059639537 0.015715247 4290978840
0.011334442 0.0044381856 0.016951729 4289539363
0.013760895 0.0021329434 0.018848021 4290128669
0.015706494 0.0021670987 0.018763496 4290259484
0.016978383 0.0053198184 0.016039278 4290259229
0.018570505 0.0069130543 0.014635733 4291371539
0.020499155 0.0069471612 0.014552128 4290978583
0.022957236 0.0046429276 0.016447302 4291240213
0.025072873 0.0038978769 0.017022984 4291240213
0.027557731 0.0015942589 0.018917102 4289800228
0.030058675 -0.00070901169 0.020810645 4289341994
0.032950535 -0.0045705047 0.02402173 4288687408
-0.015601043 0.00085123256 0.018318892 4287641143
-0.013905138 0.0024490468 0.01691279 4288949548
-0.012220286 0.0040467218 0.015507281 4289145898
-0.010416262 0.0048618657 0.014762328 4290781979
-0.0084849298 0.0048946184 0.014677578 4290520858
-0.006282419 0.0033627455 0.01591241 4290521113
-0.0042075738 0.0026134728 0.016487215 4290324253
-0.0022685528 0.0026466539 0.016402345 4290062624
-0.000473544 0.0034621661 0.015658172 4289866783
0.0011692941 0.0050598537 0.014255038 4290716953
0.0028010458 0.0066575077 0.012852432 4290716954
0.0044217333 0.0082550086 0.011450411 4289604899
0.0063407943 0.0082883369 0.011366772 4289670178
0.0088894367 0.0051937471 0.013918444 4290128669
0.011299498 0.0028816285 0.015810532 4290651929
0.013399929 0.0021336135 0.016384894 4290586393
0.015174352 0.0029495638 0.015642127 4290325274
0.016774833 0.0045472463 0.014241378 4289997598
0.018535286 0.0053630616 0.013499373 4290259484
0.020463839 0.0053971666 0.013415772 4290521114
0.02274517 0.0038680159 0.014648165 4290324764
0.024857968 0.0031207614 0.015222314 4289800993
0.026794069 0.0031552194 0.015138546 4289931553
0.029099263 0.0016266899 0.016370123 4289735459
0.031789824 -0.0014645059 0.018916294 4289145643
-0.022040203 0.0031178603 0.014136356 4287182398
-0.020108107 0.003149977 0.014051094 4288883249
-0.018176142 0.0031821877 0.013965909 4289146919
-0.016244318 0.0032145157 0.01388082 4289278243
-0.01431264 0.0032469509 0.013795816 4289277734
-0.012636006 0.0048489128 0.012393842 4289408548
-0.010970414 0.0064507457 0.010992472 4289670433
-0.0089171901 0.005698713 0.011566469 4289997598
-0.006723091 0.0041623185 0.012798456 4290978583
-0.0043799132 0.001841675 0.014688126 4290324509
-0.0025847927 0.0026592673 0.013945473 4289735714
-0.00050774217 0.0019080569 0.014518731 4289800993
0.0011350662 0.0035101161 0.013118811 4289866273
0.0026175678 0.0058964626 0.011061867 4290847768
0.0040835589 0.0082825869 0.0090056872 4291044118
0.0061517507 0.0075315447 0.0095796445 4290913558
0.0085399523 0.0052123987 0.011467804 4290848788
0.010944314 0.0028935666 0.013355358 4290848533
0.013039134 0.0021433174 0.013928322 4290063134
0.014808081 0.0029613134 0.013187439 4289932319
0.016571395 0.0037792851 0.012446857 4290324763
0.018500067 0.0038133082 0.012363189 4289997599
0.020428538 0.0038473899 0.012279575 4289997343
0.022533238 0.0030977195 0.012852407 4290127903
0.024284847 0.0039158049 0.012112568 4289866273
0.026030824 0.004733915 0.01137299 4289800993
0.027955756 0.0047682314 0.011289747 4289800229
0.030817054 0.00088431686 0.014486158 4288883758
0.033705316 -0.002999017 0.017681405 4289080109
-0.029596213 -0.00013346272 0.014658159 4288621619
-0.027869504 0.0014727516 0.013256562 4288818223
-0.02615381 0.003078958 0.011855506 4291434268
-0.024449136 0.0046850233 0.010455043 4290192673
-0.022414178 0.0039297282 0.011027672 4289865764
-0.02060689 0.0047487509 0.010285384 4289408549
-0.018447515 0.0032067588 0.011515217 4289343013
-0.016643234 0.0040259524 0.010773224 4289277989
-0.014719862 0.0040582526 0.010688589 4289736224
-0.01317884 0.0064513185 0.0086332811 4290586648
-0.011524171 0.0080573373 0.0072356011 4288950824
-0.009482041 0.0073029413 0.0078084874 4289016359
-0.007163465 0.0049752048 0.0096943351 4289670178
-0.0048287287 0.0026479126 0.011579524 4289932064
-0.0027598366 0.0018942156 0.01215149 4289997344
-0.00082941353 0.0019273642 0.01206708 4289997344
0.00095437467 0.0027472009 0.011326642 4289473828
0.0025833696 0.0043534874 0.0099306023 4289408549
0.0042013079 0.0059596677 0.0085351104 4290455324
0.0061174184 0.0059929532 0.0084516061 4290128158
0.0083480254 0.0044536195 0.009679378 4289866783
0.010589339 0.0029145158 0.010906715 4290128669
0.012352988 0.0037345109 0.0101676 4289605154
0.014276505 0.0037682899 0.010084043 4289801504
0.016368061 0.0030159499 0.010655654 4290324763
0.018464871 0.0022637486 0.011227147 4290062623
0.02039323 0.0022978405 0.011143546 4290520603
0.022321403 0.0023319884 0.011059997 4290062368
0.024070248 0.0031522666 0.01032185 4289997344
0.025631651 0.0047583762 0.0089294901 4291371028
0.027735606 0.0040067141 0.0095008994 4290912794
0.030032039 0.0024693436 0.010726479 4290388513
0.03271912 -0.00063933036 0.013260005 4290518819
0.035427712 -0.0037475061 0.015792616 4288033334
-0.031866562 0.00064993137 0.011635398 4288425524
-0.029936861 0.0006813989 0.011549795 4288818224
-0.028323937 0.0030812654 0.009495507 4288818733
-0.026619192 0.004691645 0.008098132 4290388768
-0.024814475 0.0055125742 0.0073573906 4290585628
-0.022787869 0.0047549563 0.0079287849 4290978584
-0.020755947 0.0039974903 0.0085000647 4290389788
-0.018599536 0.0024510943 0.0097268298 4289735968
-0.016676158 0.0024832743 0.0096421055 4289474594
-0.014877543 0.0033046645 0.0089020459 4289474594
-0.013339236 0.0057042497 0.0068516806 4290914069
-0.011687323 0.0073145754 0.0054573189 4290913813
-0.0097808987 0.007346923 0.0053736721 4290586393
-0.0076035708 0.0058014994 0.0065999725 4291044628
-0.0051390231 0.0026785838 0.0091355788 4290521113
-0.0032167062 0.0027114688 0.009051431 4290324764
-0.0011508837 0.0019557057 0.0096219797 4289473573
0.00048097968 0.0035663224 0.0082289604 4289146664
0.0025491863 0.0028107655 0.008799524 4288819498
0.0043189451 0.0036326884 0.0080614807 4289539363
0.0063922405 0.002877411 0.0086319633 4290389788
0.0083134994 0.0029108678 0.008548297 4289735969
0.010234572 0.0029444057 0.0084647005 4289539873
0.011992715 0.0037664925 0.0077274325 4289867038
0.013910696 0.0038001412 0.0076440908 4289866783
0.016164824 0.0022571813 0.0088678738 4289735969
0.018258765 0.0015027863 0.0094378423 4289866784
0.020357937 0.00074850628 0.010007672 4290324764
0.021933354 0.0023591239 0.0086177606 4290324764
0.023497663 0.0039695879 0.007228435 4290651674
0.025232695 0.0047918004 0.0064925607 4289800993
0.027146585 0.0048259036 0.0064097843 4289735969
0.029434666 0.0032840623 0.0076324749 4290651418
0.031923376 0.00095447199 0.0095073748 4290650398
0.034813479 -0.0029506346 0.012686526 4289603114
-0.0321986 0.0014782171 0.008536485 4288491824
-0.030380003 0.0023012045 0.0077964715 4289211689
-0.028672479 0.0039158757 0.0064020939 4289735713
-0.02708419 0.0063220072 0.0043537929 4289212454
-0.025401432 0.0079365037 0.0029606805 4289408548
-0.023274947 0.0063849543 0.0041854214 4289604899
-0.021137718 0.0048337565 0.0054097404 4289800993
-0.018870566 0.0024914066 0.0072877519 4289670433
-0.017074641 0.0033148713 0.0065492932 4289736224
-0.015159711 0.0033470336 0.0064650318 4289540129
-0.013499521 0.0049617584 0.0050734347 4290128924
-0.011590339 0.004994039 0.004989584 4290521369
-0.0096812993 0.0050264006 0.0049058017 4291241234
-0.0077724233 0.0050588702 0.0048221066 4291044628
-0.0054490939 0.002718207 0.006698194 4290193949
-0.0036732927 0.0035420819 0.0059611686 4290193693
-0.0017594397 0.0035749241 0.0058774678 4289735713
0.00015423447 0.0036078836 0.005793863 4289474083
0.0025150105 0.0012682592 0.0076686032 4289408804
0.0042847097 0.0020923559 0.0069321599 4289408804
0.0062033162 0.0021256655 0.0068485341 4289670689
0.0079644844 0.0029498027 0.0061126016 4290324763
0.0098800212 0.0029832353 0.0060292389 4290390554
0.011469968 0.0045980806 0.0046416125 4291241234
0.013379663 0.0046315934 0.0045586382 4290913814
0.015625462 0.0030840538 0.0057796007 4290259484
0.017881945 0.0015368285 0.007000119 4289605154
0.019975521 0.0007803035 0.0075685424 4290259229
0.021545492 0.0023951512 0.0061821179 4290193949
0.023283392 0.0032195323 0.0054476741 4291175445
0.025015652 0.004043913 0.0047134738 4290390554
0.026742294 0.0048682098 0.0039796033 4289212453
0.028650448 0.0049022757 0.0038971223 4289408548
0.030938193 0.0033560689 0.0051167007 4289734693
0.033621758 0.00022993609 0.007637531 4289537833
0.036326885 -0.0028957664 0.010157536 4289799209
-0.032130312 -0.00085565797 0.0080605708 4287576118
-0.030411832 0.00076340605 0.0066688759 4288950314
-0.028915282 0.0039700386 0.0039715967 4290455323
-0.027440645 0.0071763913 0.0012753475 4290390044
-0.025655191 0.0080013834 0.00053867343 4290586138
-0.023534402 0.0064454251 0.0017604219 4290455323
-0.021286469 0.0040960745 0.0036343753 4291044629
-0.0192605 0.003334315 0.004202764 4289670688
-0.01735102 0.0033662752 0.0041186619 4290063644
-0.015441671 0.0033983053 0.0040346188 4289605664
-0.013532475 0.0034304778 0.0039506885 4289735968
-0.011623405 0.0034627202 0.0038668166 4289474594
-0.0097145066 0.003495092 0.00378305 4290063389
-0.0078057498 0.0035275589 0.0036993604 4289997854
-0.0057589933 0.0027668653 0.0042673601 4290193949
-0.0041295588 0.0043859747 0.0028807146 4289866783
-0.0022239983 0.0044186818 0.0027973817 4289539618
-0.00017228723 0.0036583613 0.0033653774 4289604898
0.0023318008 0.00051903725 0.0058867056 4289474083
0.0042504817 0.000552251 0.0058030062 4289735713
0.0060144812 0.0013785218 0.0050684796 4289997598
0.0076156706 0.0029977504 0.0036834383 4290194458
0.0095256418 0.0030310871 0.0036003196 4290586904
0.011110164 0.0046501406 0.0022161633 4291306513
0.013014331 0.0046835351 0.0021334139 4291240979
0.01491832 0.0047170245 0.0020507432 4291241234
0.017163716 0.0031652125 0.003268518 4289997854
0.019072756 0.003198945 0.0031857416 4290063133
0.020981617 0.0032327576 0.0031030355 4290390299
0.022711322 0.004059142 0.0023705252 4290652183
0.024435394 0.0048855157 0.0016383231 4291175443
0.026153848 0.0057118521 0.00090641255 4290847768
0.028240882 0.0049533914 0.0014737835 4290455323
0.030333169 0.0041950573 0.002040951 4290848534
0.032815784 0.0018522716 0.0039065056 4290194203
0.035314493 -0.00049010618 0.0057713785 4289276458
-0.032062113 -0.0031936432 0.0075816442 4286529598
-0.03044365 -0.00077417633 0.0055414392 4288296238
-0.029157907 0.004033173 0.0015476057 4289670179
-0.027580529 0.006452221 -0.00049059297 4290848534
-0.025797896 0.0072793807 -0.00122559 4291175443
-0.02356647 0.0049231057 0.00064420834 4291175443
-0.021551453 0.0041588531 0.0012113824 4290848789
-0.019650143 0.0041905479 0.0011275457 4290129179
-0.017748971 0.0042223488 0.0010437949 4289801758
-0.015598956 0.0026628985 0.0022614063 4289736479
-0.013692603 0.0026949923 0.0021775782 4289932573
-0.011786394 0.0027272045 0.0020938457 4289540128
-0.009880349 0.0027595223 0.0020101992 4290128923
-0.0078390613 0.0019964525 0.002576763 4289998108
-0.0062067807 0.0036198557 0.0011931105 4290193949
-0.0045855492 0.0052432264 -0.00019001777 4291306259
-0.0026882663 0.0052757864 -0.0002729923 4290913814
-0.00049862266 0.003717802 0.00094346335 4290455579
0.0018507317 0.0013649254 0.0028090407 4289670434
0.0036093965 0.0021931948 0.0020762819 4289670434
0.005362466 0.0030214288 0.0013438141 4289736224
0.0071099326 0.0038496745 0.00061167032 4291110163
0.0090116411 0.0038828528 0.00052890065 4290063389
0.010750562 0.0047111749 -0.00020277985 4289474594
0.01248388 0.0055394159 -0.00093413075 4289932574
0.014547624 0.0047778334 -0.00036774034 4290259738
0.016445898 0.0048112846 -0.00045011583 4290456089
0.018517449 0.0040499517 0.00011609243 4290063133
0.02041807 0.0040835938 3.3724864e-05 4290063133
0.022318475 0.0041173049 -4.8580296e-05 4290390554
0.024400346 0.0033564013 0.00051728758 4290456089
0.026118755 0.0041848994 -0.00021303416 4291044883
0.027831517 0.0050134095 -0.00094310305 4291110419
0.029918246 0.0042527704 -0.00037723983 4289932574
0.032202706 0.0026978301 0.00083603559 4289344289
0.034888275 -0.00044576032 0.003344005 4289212199
0.037595361 -0.0035888627 0.0058511221 4288295474
-0.031694226 -0.00793056 0.0090500163 4286464063
-0.030270174 -0.003907898 0.0057141534 4287380534
-0.02918959 0.00250895 0.0004299719 4289539364
-0.027612213 0.00493452 -0.0016034364 4289867038
-0.02582968 0.0057638758 -0.002336815 4289670688
-0.023712069 0.0041990546 -0.0011213225 4289932829
-0.021816228 0.0042305603 -0.0012049904 4289736478
-0.019920506 0.004262147 -0.0012885911 4289540128
-0.01802491 0.0042938418 -0.001372107 4289736479
-0.015880577 0.0027299817 -0.00015748771 4289736479
-0.013979807 0.002761981 -0.00024107064 4289605408
-0.012209065 0.0035918462 -0.00097333657 4289736479
-0.010178693 0.0028262846 -0.00040798809 4289932573
-0.008278355 0.0028586015 -0.00049131329 4290456088
-0.0065162182 0.0036886162 -0.001222985 4290193949
-0.0047596768 0.0045186304 -0.0019543411 4290979603
-0.00286524 0.0045511234 -0.0020372043 4291371793
-0.00067853183 0.0029887953 -0.00082384783 4291240469
0.0015188977 0.0014266632 0.00038912275 4290063134
0.0032720864 0.0022570002 -0.00034180738 4290062878
0.005019635 0.0030873735 -0.0010724679 4290063389
0.0067615807 0.0039176992 -0.0018027729 4290782999
0.0084979162 0.0047480143 -0.0025327704 4290979349
0.010391191 0.0047811144 -0.0026151221 4290128668
0.012284279 0.0048143086 -0.0026973942 4289932574
0.014177173 0.0048475596 -0.0027796142 4290128668
0.016069919 0.0048809047 -0.0028617568 4290259739
0.017962456 0.0049143066 -0.0029438459 4289867038
0.020030953 0.0041508372 -0.0023791082 4289866783
0.022104703 0.0033875308 -0.0018145477 4290259484
0.024183735 0.0026243269 -0.0012501348 4289735969
0.026083678 0.0026581632 -0.0013323221 4290259228
0.028170452 0.0018953029 -0.00076816801 4289736224
0.030072764 0.0019292827 -0.00085038261 4289016359
0.032359749 0.0003699949 0.00035955757 4289082404
0.034657434 -0.0011890607 0.0015691399 4288688939
0.03755942 -0.0051375683 0.0047157472 4286723908
-0.033566289 -0.010314874 0.0086463727 4286855744
-0.031925946 -0.0078820726 0.0066147279 4287183929
-0.03050727 -0.0038485834 0.0032871189 4287118904
-0.029431917 0.0025856267 -0.0019840156 4289212454
-0.027751956 0.0042174258 -0.0033642624 4289604898
-0.026083004 0.0058490853 -0.0047439164 4289474339
-0.023857571 0.0034796176 -0.0028834702 4289735968
-0.022313263 0.0059115901 -0.0049103885 4289801503
-0.020190671 0.0043427586 -0.003698196 4290456089
-0.01830066 0.0043743565 -0.003781467 4290652183
-0.016037598 0.0020059287 -0.0019223762 4290259994
-0.014266796 0.0028378735 -0.0026531182 4290194459
-0.012371749 0.0028698836 -0.0027363712 4289998108
-0.010476835 0.002901976 -0.0028195558 4289997598
-0.008582063 0.0029341741 -0.0029026547 4290782743
-0.0069634467 0.0045661288 -0.0042793299 4289670688
-0.0052151456 0.0053981584 -0.0050087417 4289801503
-0.0031855479 0.0046308083 -0.0044446639 4290128668
-0.0010044873 0.0030639404 -0.0032342493 4290848534
0.00088950247 0.0030966075 -0.0033169598 4289474594
0.0027833432 0.0031293682 -0.0033995931 4290390554
0.0045226812 0.0039617331 -0.0041282536 4289867294
0.0064134672 0.0039946162 -0.0042106244 4290063389
0.0079845339 0.0056264545 -0.0055847084 4291110163
0.010032028 0.0048600282 -0.0050209584 4291306769
0.01208479 0.0040937434 -0.004457328 4291175443
0.014142811 0.0033276696 -0.0038939153 4291044884
0.016035452 0.0033609765 -0.0039760792 4289932574
0.017927907 0.0033943653 -0.0040581739 4289866783
0.019996263 0.0026286957 -0.0034950445 4289735969
0.022248693 0.001064078 -0.0022869969 4289735969
0.024330281 0.00029878598 -0.0017243363 4289474084
0.026417129 -0.00046636816 -0.0011618707 4288493098
0.02832225 -0.00043240655 -0.0012442571 4288297259
0.030416869 -0.0011972892 -0.00068202976 4287773743
0.032709129 -0.0027608932 0.00052451756 4287576884
0.035012066 -0.0043242192 0.0017305933 4287183929
-0.033986576 -0.0086585153 0.0049185334 4286529089
-0.03195782 -0.0094298413 0.0054798126 4286398783
-0.030539058 -0.0053854566 0.0021602011 4286333759
-0.029252928 -0.00053884811 -0.0018048206 4287511604
-0.02778358 0.0027023563 -0.0044751768 4289735459
-0.026114669 0.0043383767 -0.0058516269 4289539108
-0.024116423 0.0035671829 -0.0052886046 4289670434
-0.0223452 0.0044008759 -0.0060180859 4290259484
-0.020579539 0.0052345586 -0.006747263 4291175443
-0.018697828 0.0052660215 -0.0068301656 4291175443
-0.016567551 0.003693148 -0.0056213741 4290913814
-0.014680658 0.0037249164 -0.0057043447 4290390299
-0.012664102 0.0029546446 -0.0051416773 4289866783
-0.010774761 0.0029866537 -0.0052246097 4289997598
-0.0087503269 0.0022166683 -0.0046621016 4290717208
-0.0071344674 0.0038529192 -0.0060354671 4290848534
-0.0053889453 0.0046870937 -0.0067631467 4289736224
-0.0033622384 0.0039174897 -0.0062005608 4289736224
-0.0011841208 0.0023462055 -0.0049932241 4289998109
0.00070703775 0.0023788065 -0.005075824 4290717719
0.0024464801 0.0032132985 -0.005803002 4290129179
0.0043345988 0.0032460461 -0.0058853221 4289932829
0.0060655475 0.0040804972 -0.0066119782 4289932829
0.0077909082 0.0049149492 -0.0073383194 4289932574
0.0096730962 0.004947836 -0.0074202023 4289474594
0.011885427 0.0033777934 -0.0062139556 4289278243
0.014108472 0.0018079467 -0.005008094 4289212963
0.016171604 0.0010398449 -0.0044464562 4289343269
0.017893359 0.0018746397 -0.005172343 4289343269
0.019961603 0.0011067581 -0.0046108309 4289735968
0.022213839 -0.00046228222 -0.003406022 4288558889
0.024839722 -0.0036334388 -0.00091500848 4288231723
0.026934609 -0.0044006826 -0.00035445596 4287839279
0.029221624 -0.0059688459 0.0008489645 4288035629
0.031140067 -0.0059346142 0.00076602557 4287642673
0.03325066 -0.0067013372 0.0013260014 4287053114
0.034976415 -0.0058659785 0.00060030416 4287052859
-0.032289051 -0.0085629737 0.0024091138 4286333505
-0.03046833 -0.0077268635 0.0016786186 4286267968
-0.029074106 -0.0036718652 -0.0016318155 4286726203
-0.027707227 0.00038279872 -0.004940955 4289146153
-0.02614633 0.0028278939 -0.0069591701 4289669924
-0.024261668 0.0028590523 -0.0070424629 4289735714
-0.022609383 0.0044994014 -0.0084147966 4289866529
-0.020849265 0.0053352346 -0.0091421558 4290455323
-0.018973127 0.0053665661 -0.0092248414 4290979349
-0.016848516 0.0037892018 -0.0080189547 4291175443
-0.014967199 0.0038208631 -0.0081016896 4289997599
-0.012956262 0.0030483091 -0.0075403815 4289866783
-0.011072494 0.0030801874 -0.0076230951 4289932063
-0.0091888607 0.0031121839 -0.007705715 4289997599
-0.0074432716 0.0039484384 -0.0084318714 4290847769
-0.0055626407 0.0039805821 -0.0085142134 4291436819
-0.0035388172 0.0032087369 -0.0079531111 4290913813
-0.0013636351 0.0016330602 -0.0067489082 4291306769
0.00037590414 0.0024695722 -0.0074745347 4290456089
0.0022613481 0.0025021723 -0.0075568133 4289605664
0.0043008849 0.0017309454 -0.0069961417 4290063644
0.0063456893 0.00095988158 -0.0064355736 4289212708
0.0080764219 0.0017966349 -0.0071606012 4289409059
0.0099639371 0.0018295893 -0.007242735 4288820008
0.012016416 0.0010588802 -0.0066823387 4288885799
0.014409795 -0.0013188769 -0.0048375153 4288362538
0.01647827 -0.0020891321 -0.0042776866 4288231979
0.018378682 -0.0020556371 -0.004360151 4288166444
0.020454928 -0.0028255852 -0.0038006085 4288624423
0.022893831 -0.005202245 -0.0019575439 4287904814
0.02516748 -0.006775219 -0.00075682992 4287642673
0.02726765 -0.0075445347 -0.00019817051 4287839024
0.029373065 -0.0083137006 0.00036030303 4287577394
0.031294167 -0.0082794297 0.00027724303 4287511859
0.033215068 -0.0082451133 0.00019422774 4287314489
0.035135806 -0.0082107512 0.0001112553 4286921533
-0.032320756 -0.010103773 0.0012793074 4286398018
-0.030295208 -0.010879353 0.001837571 4286333248
-0.028685082 -0.0084272064 -0.00017816533 4286464319
-0.027523048 -0.0027477131 -0.0047664861 4287968819
-0.026177973 0.0013176282 -0.0080665555 4289473829
-0.024633531 0.0037690974 -0.010079163 4290128158
-0.022873379 0.0046069254 -0.010804984 4289800993
-0.021118775 0.0054447907 -0.011530465 4288819753
-0.019369747 0.0062826457 -0.01225564 4289604899
-0.017253533 0.0047008307 -0.011052622 4289278244
-0.015253536 0.0039257971 -0.01049252 4289736224
-0.01337792 0.0039574211 -0.010574962 4289866783
-0.011370003 0.003182698 -0.010015002 4289866784
-0.0094919428 0.0032145758 -0.010097395 4289474083
-0.0076140091 0.0032465472 -0.010179712 4289866784
-0.0054550618 0.0016660285 -0.0089781499 4290586648
-0.0034286901 0.0008920473 -0.0084187612 4291110419
-0.0012509748 -0.00068801129 -0.007217844 4290390553
0.00034247339 0.00095691485 -0.0085835773 4289605408
0.0023792684 0.00018337648 -0.0080244495 4289474594
0.004575558 -0.0013961052 -0.0068241549 4289605409
0.0066256523 -0.0021692412 -0.0062654805 4288689703
0.0085213929 -0.0021362361 -0.0063480414 4288362538
0.010416977 -0.0021031492 -0.0064305332 4288100908
0.012642533 -0.0036817873 -0.0052312696 4287970094
0.014710993 -0.0044542653 -0.0046731462 4287970094
0.016784728 -0.0052266056 -0.0041152188 4287969839
0.018690504 -0.0051930547 -0.0041979444 4288689448
0.02077204 -0.0059650862 -0.0036402307 4289016613
0.023037516 -0.0075426502 -0.0024424265 4287904303
0.025313675 -0.0091199111 -0.0012450764 4287773488
0.027232341 -0.0090858564 -0.0013281578 4287511859
0.029150836 -0.0090517439 -0.0014111866 4287577904
0.030879617 -0.0082121128 -0.0021339166 4287315763
0.032987259 -0.0089833234 -0.0015770701 4287183674
0.034905195 -0.0089490265 -0.001659933 4287117883
-0.032551844 -0.010026028 -0.0011345289 4286463299
-0.030327093 -0.012422137 0.0007063165 4286463808
-0.02871697 -0.0099634323 -0.0013046024 4286333504
-0.027554758 -0.00426867 -0.0058817193 4287053879
-0.026320189 0.00061652204 -0.0098154265 4288492844
-0.024891779 0.003883434 -0.012464595 4289539363
-0.02313716 0.0047233538 -0.013188568 4290716953
-0.021269333 0.0047544544 -0.013270955 4290716953
-0.01952311 0.0055944291 -0.013994415 4290455323
-0.017534044 0.0048169266 -0.013435509 4290848534
-0.015666585 0.0048483093 -0.013517668 4290521113
-0.01353997 0.0032624821 -0.012318185 4289801248
-0.011667319 0.0032941466 -0.012400429 4289670433
-0.0095246285 0.0017087385 -0.011201468 4289866783
-0.0077846423 0.0025492809 -0.011924235 4289735969
-0.0054880902 0.00015580235 -0.010085429 4289408804
-0.0036051124 0.00018804101 -0.010167833 4289343523
-0.0012843758 -0.0022048492 -0.0083299587 4289212708
0.00045774877 -0.0013638788 -0.0090525299 4289212708
0.0024971291 -0.0021396477 -0.0084951119 4289278244
0.0046959147 -0.0037234172 -0.0072981822 4288035373
0.0069054514 -0.005306954 -0.0061016129 4288100908
0.0088065416 -0.0052738693 -0.0061844164 4287773743
0.01070746 -0.0052407151 -0.0062671592 4288035629
0.012773223 -0.0060155401 -0.0057106079 4287708209
0.014844269 -0.00679019 -0.0051542255 4287969839
0.016920574 -0.0075647011 -0.0045980387 4287707953
0.019002154 -0.0083390139 -0.0040420024 4288035118
0.021264911 -0.0099210991 -0.0028473658 4288820519
0.023359723 -0.010695036 -0.0022917974 4287708209
0.025097162 -0.0098532811 -0.003013456 4287643439
0.026828989 -0.0090115741 -0.0037348329 4287446834
0.028741963 -0.008977592 -0.003817647 4287904813
0.030465282 -0.0081358682 -0.0045386059 4287445558
0.032375172 -0.0081018005 -0.004621183 4287118393
-0.030563716 -0.012342108 -0.0017055309 4286463809
-0.028643753 -0.012310723 -0.0017906473 4286922043
-0.027370807 -0.0074119288 -0.005716525 4287249464
-0.02635175 -0.00089115999 -0.010920919 4287184949
-0.025036562 0.0031955624 -0.014203602 4289735714
-0.023400746 0.004848734 -0.015565665 4290193694
-0.0215385 0.0048797154 -0.015647825 4291174934
-0.019797798 0.0057217828 -0.016369438 4290782998
-0.01793851 0.0057529123 -0.016451323 4290325018
-0.015952468 0.0049732612 -0.015893824 4289867039
-0.013701893 0.0025720606 -0.014058097 4290193693
-0.011699781 0.0017928779 -0.013501161 4289997599
-0.009692356 0.0010138941 -0.012944378 4289343013
-0.0079551563 0.001856498 -0.013665399 4288950823
-0.0058020502 0.00026705256 -0.01246999 4288689448
-0.0036382303 -0.0013220543 -0.01127501 4288101164
-0.0013177469 -0.0037214942 -0.0094419308 4288035884
0.00057297945 -0.0036889603 -0.0095245549 4287839533
0.0024635419 -0.003656344 -0.0096071102 4288820773
0.0048162192 -0.0060549099 -0.007775276 4287904813
0.0070282742 -0.0076428056 -0.0065820497 4287577394
0.0090915039 -0.0084200464 -0.0060271299 4287708209
0.010835513 -0.0075765364 -0.0067478698 4287708209
0.012903862 -0.008353509 -0.0061930404 4287708209
0.014809795 -0.008320136 -0.0062759053 4287708209
0.016885959 -0.0090968367 -0.0057213171 4287905069
0.018967398 -0.0098733613 -0.0051668976 4287774254
0.021229967 -0.011459845 -0.0039754808 4288821284
0.022967532 -0.010616011 -0.0046956185 4287773999
0.024699502 -0.0097721526 -0.0054154973 4288101164
0.026425868 -0.0089283884 -0.0061350563 4287577394
0.028520055 -0.0097043887 -0.0055809692 4287315508
-0.02899082 -0.01140837 -0.0048343912 4286790973
-0.027510367 -0.0081234109 -0.0074732392 4286857019
-0.026604302 -0.00077192229 -0.013303148 4286857528
-0.02518123 0.0025122557 -0.015939262 4288820009
-0.023664121 0.0049829935 -0.017936178 4289735714
-0.021688778 0.0042006499 -0.017380055 4289670178
-0.019950889 0.005044837 -0.018099951 4289670435
-0.017970335 0.0042627868 -0.017543906 4289474084
-0.015984464 0.0034809243 -0.016988022 4288950568
-0.013863713 0.0018862048 -0.015794665 4288951079
-0.011864483 0.0011047693 -0.015239219 4289605408
-0.0097249523 -0.00048941886 -0.014046604 4288624424
-0.0078501031 -0.00045754132 -0.014128815 4288166444
-0.0056944862 -0.0020512973 -0.012936714 4287970094
-0.0035281628 -0.0036447388 -0.011745059 4287904813
-0.0012052059 -0.0060506999 -0.0099169081 4287577394
0.00068812817 -0.0060181511 -0.0099996682 4287643439
0.0027326196 -0.0067981449 -0.0094457148 4288166698
0.0049364716 -0.0083906669 -0.008255424 4288427818
0.0069942623 -0.0091702705 -0.0077019334 4287708209
0.009057343 -0.0099497121 -0.0071486207 4287773744
0.010801315 -0.0091040414 -0.0078677712 4287642673
0.012869507 -0.009883238 -0.0073145665 4287512114
0.014440082 -0.0082251616 -0.0086692795 4287773744
0.016510688 -0.0090041552 -0.0081160618 4287839534
0.018586539 -0.0097830091 -0.0075630378 4288166698
0.02101928 -0.012186198 -0.0057390351 4288755494
0.022932611 -0.012152437 -0.0058220327 4288166443
0.024302103 -0.0096821785 -0.0078109838 4287119414
-0.029442605 -0.0096771428 -0.0085054738 4286267458
-0.027649805 -0.0088304095 -0.0092265932 4286267969
-0.026414823 -0.0039059704 -0.013131499 4286660668
-0.024986267 -0.00061294273 -0.015761498 4287184439
-0.023579597 0.0026798313 -0.018390451 4288558123
-0.021838956 0.0035261256 -0.019108953 4289670689
-0.01998252 0.003557093 -0.019190796 4288297258
-0.017878074 0.0019575427 -0.018000143 4288166444
-0.015762858 0.00035823695 -0.01680984 4288166444
-0.013895892 0.00038967235 -0.016891932 4288035629
-0.011764616 -0.00120913 -0.01570224 4288362284
-0.0097575188 -0.0019925269 -0.015148681 4289212198
-0.0076074377 -0.00359087 -0.013959635 4288034609
-0.0055870041 -0.0043738522 -0.013406521 4287903794
-0.0032750368 -0.0067866556 -0.011582776 4287838258
-0.0012385622 -0.0075691831 -0.011030233 4287642419
0.00095176697 -0.0091664232 -0.009842719 4287642419
0.0028502643 -0.0091337133 -0.0099256523 4287904559
0.0049026534 -0.0099157635 -0.0093735792 4288951334
0.0069602951 -0.010697579 -0.0088217054 4287969839
0.0090232193 -0.011479232 -0.0082700085 4287839279
0.010929294 -0.011446062 -0.0083530303 4287708464
0.013000064 -0.012227429 -0.0078015649 4287708209
0.014238179 -0.0089357812 -0.010421848 4287642673
0.016135618 -0.0089025591 -0.010504344 4287315764
-0.028004508 -0.0078972876 -0.012247311 4286267969
-0.026446328 -0.0054131104 -0.014236597 4286595134
-0.02490459 -0.0029290342 -0.016225103 4286922553
-0.023379292 -0.00044516637 -0.018212765 4288362539
-0.021514706 -0.00041418639 -0.018295057 4288689704
-0.019528937 -0.0012006389 -0.017742539 4288951589
-0.017413829 -0.0028044027 -0.016555581 4288232233
-0.015414681 -0.0035904166 -0.016003493 4287773488
-0.013539687 -0.003558849 -0.016085941 4288035118
-0.01153262 -0.0043446114 -0.015534041 4287903793
-0.0095202476 -0.0051301159 -0.014982325 4288165424
-0.0075025558 -0.0059154453 -0.01443078 4288492333
-0.0053392276 -0.007517796 -0.013245499 4287903538
-0.0033082068 -0.0083027575 -0.012694361 4287772723
-0.0011261031 -0.0099046007 -0.011509767 4287773233
0.0009182319 -0.010689111 -0.010959122 4287838513
0.0029678866 -0.011473509 -0.010408618 4287904048
0.0050228089 -0.012257671 -0.0098583149 4288100399
0.0069263652 -0.01222473 -0.0099413628 4288820773
0.0086703748 -0.011374831 -0.010657408 4288035374
0.010408796 -0.010524907 -0.011373197 4287773234
-0.028251275 -0.0077709369 -0.014624568 4286332738
-0.026367448 -0.0077399705 -0.014707955 4286464320
-0.024822995 -0.0052493322 -0.016691796 4286922298
-0.023179144 -0.0035786841 -0.018041402 4287903793
-0.021190729 -0.0043674032 -0.017490698 4288231469
-0.019196961 -0.0051559233 -0.016940149 4288624169
-0.017197859 -0.0059442902 -0.016389713 4288885798
-0.015193447 -0.0067324354 -0.015839487 4287904048
-0.013183713 -0.0075203693 -0.015289407 4287838513
-0.011300795 -0.0074886121 -0.015372163 4287773233
-0.0092831478 -0.0082762241 -0.014822292 4287446069
-0.007397756 -0.00824425 -0.014905026 4288362029
-0.005231902 -0.0098509816 -0.013723033 4288427308
-0.0031983182 -0.010638081 -0.013173684 4287707698
-0.0014509037 -0.0097863767 -0.013888595 4287576883
0.00043937564 -0.0097539453 -0.01397127 4287642419
0.0023295209 -0.009721444 -0.014053885 4286726458
-0.028390236 -0.0084577743 -0.016363142 4286594624
-0.02661958 -0.0076047983 -0.017078431 4286595134
-0.025080562 -0.0051077073 -0.019057225 4286987834
-0.023210689 -0.0050767921 -0.019139865 4288623403
-0.020985465 -0.0075116307 -0.017327415 4288100653
-0.018986434 -0.0083022453 -0.0167787 4287969838
-0.016858146 -0.0099145221 -0.015598737 4288231724
-0.014972378 -0.009882926 -0.01568177 4288820008
-0.012827992 -0.011494807 -0.014502347 4288623914
-0.011201203 -0.0098194759 -0.015847627 4288100143
-0.0091810077 -0.010609237 -0.015299479 4287904049
-0.0074305385 -0.0097556254 -0.016013162 4287904049
-0.0052648932 -0.011366757 -0.014834388 4288231214
-0.0035174042 -0.010512974 -0.015547852 4288165168
-0.028529085 -0.009140105 -0.018098412 4288229683
-0.026650973 -0.0091092475 -0.018181557 4287183674
-0.02511194 -0.0066056447 -0.020155571 4287380278
-0.023242194 -0.0065747434 -0.020238213 4287838513
-0.021254107 -0.0073678643 -0.019690722 4288493354
-0.019139536 -0.0089848964 -0.018513404 4288493608
-0.01713806 -0.0097775906 -0.017966354 4288166443
-0.015131254 -0.010570095 -0.017419467 4287708209
-0.013248451 -0.010538484 -0.017502321 4288493353
-0.011365771 -0.010506755 -0.017585082 4288558123
-0.0094832033 -0.010474954 -0.017667787 4287707444
-0.0074632838 -0.011266856 -0.017121196 4286660669
-0.027013011 -0.008134231 -0.021171095 4286463809
-0.025256243 -0.0072770654 -0.021882523 4287641399
-0.023273673 -0.0080725513 -0.021336459 4287772469
-0.021404151 -0.00804157 -0.02141903 4287904049
-0.019292515 -0.0096629933 -0.020244844 4287969584
-0.017170087 -0.011284209 -0.019071039 4288035374
-0.015416566 -0.010426588 -0.019781951 4287381553
-0.027374756 -0.0071459357 -0.024150897 4286463809
-0.025400426 -0.0079439459 -0.023606148 4288295729
-0.023420747 -0.0087416824 -0.023061574 4287968563
-0.021790765 -0.0070537888 -0.024397805 4286660923
0.044859298 -0.0061593312 -0.0088658202 4282340203
-0.043239199 -0.0088349897 -0.013319678 4281946483
0.031509243 -0.0081106815 -0.020724764 4282929254
-0.037575781 -0.0065596369 -0.033081498 4281944699
-0.019091338 -0.0085710082 -0.034358066 4282797928
-0.019492995 -0.0075218556 -0.037290927 4282929254
-0.019647397 -0.0081468737 -0.03898323 4282863718
