# .PCD v0.7 - Point Cloud Data file format
VERSION 0.7
FIELDS x y z rgba
SIZE 4 4 4 4
TYPE F F F U
COUNT 1 1 1 1
WIDTH 968
HEIGHT 1
VIEWPOINT 0 0 0 1 0 0 0
POINTS 968
DATA ascii
0.012976691 -0.011800271 0.0071988124 4282354739
0.015387803 -0.014061178 0.0090566967 4283139118
0.017499343 -0.014782023 0.0095874146 4283989544
-0.010670699 -0.012387754 0.0063052159 4279014749
-0.0089736469 -0.010794966 0.0048448462 4279734358
-0.0072875954 -0.0092023686 0.0033853613 4280453713
-0.0058682635 -0.0060645584 0.00059970841 4280912204
-0.0040791258 -0.0052449908 -0.00019443221 4280064584
-0.0020289794 -0.0059705209 0.00033810176 4280261188
0.00016248226 -0.0074682757 0.0015332792 4280718913
0.0022259541 -0.0081932377 0.0020650886 4281307199
0.0044361949 -0.009690335 0.0032592062 4281635129
0.0069455355 -0.012731605 0.0057773981 4281701173
0.0091826841 -0.014227776 0.0069698114 4281831223
0.011280946 -0.014951451 0.00749957 4282550834
0.013232127 -0.014902822 0.0073672403 4282552365
-0.0092657693 -0.010794481 0.0023716837 4279407958
-0.0075851865 -0.0091976225 0.00091576762 4280193869
-0.0060433857 -0.0068261083 -0.0012011286 4280325449
-0.0041265413 -0.0067792032 -0.0013317745 4279737928
-0.0020766109 -0.0075069126 -0.00080084428 4280261188
0.00011457875 -0.0090090167 0.00039112382 4280131649
0.0023165271 -0.0105108 0.0015824735 4280586568
0.0043878146 -0.011237627 0.0021122154 4281044548
0.0068967491 -0.014287601 0.00462397 4282155839
0.008986786 -0.015013733 0.0051526111 4283398454
-0.0096798837 -0.010007819 -0.00075548142 4279015004
-0.0076325126 -0.01073811 -0.00022625178 4280063308
-0.0060906634 -0.0083600543 -0.0023382846 4280325959
-0.0041739568 -0.0083131623 -0.0024689287 4279737928
-0.0022573918 -0.0082661435 -0.0025994647 4279608388
-0.00020508096 -0.0089958329 -0.0020702109 4279541834
0.0018525422 -0.0097252931 -0.0015412457 4279145054
0.0039154515 -0.010454509 -0.0010125581 4280514913
0.005983673 -0.011183487 -0.00048414804 4281626969
-0.0061379336 -0.0098937228 -0.0034752358 4279537499
-0.00435175 -0.0090676378 -0.0042643454 4278687583
0.0011835396 -0.013069657 -0.022712493 4282476118
0.0034929104 -0.015418278 -0.020911157 4284245563
0.0030053183 0.043299671 0.034061003 4278330073
0.004635781 0.04475541 0.032504499 4278592978
-0.0025301166 0.040205579 0.034735907 4279515059
-0.0012832098 0.043786969 0.031045791 4278924224
7.429719e-05 0.046660874 0.028069135 4278266833
0.0014097951 0.049534339 0.025094051 4279841458
0.0034407638 0.048873466 0.025676347 4279972528
0.0057694428 0.046799358 0.027680323 4279250113
-0.010636847 0.040604021 0.031984266 4278914789
-0.0092183836 0.043487746 0.029009648 4279574984
-0.0055388696 0.044288728 0.028038424 4279449268
-0.0036371686 0.044334654 0.027908351 4278793919
-0.00173565 0.044380654 0.027778357 4278988994
0.0029639155 0.049481947 0.022422101 4278396883
-0.012836568 0.040443506 0.029556066 4279906993
-0.010134384 0.046939779 0.022911318 4279118278
-0.0062338002 0.046319116 0.023362074 4278528719
-0.0042134114 0.045653325 0.023941625 4279382969
-0.0023229048 0.045699086 0.023812402 4279251899
-0.00057047606 0.046456236 0.022974994 4278660808
0.0071269944 0.045929234 0.023167513 4279383478
0.0097741038 0.042420704 0.02657555 4278990013
-0.01514104 0.041006383 0.026425648 4279448248
-0.013713833 0.043907691 0.023463361 4278792643
-0.012308579 0.046808552 0.020502634 4279515058
-0.010676898 0.048281331 0.018958699 4279580084
-0.0088024102 0.048326459 0.018830393 4278659533
-0.006798435 0.047658022 0.019409388 4278792133
-0.0046567544 0.046276134 0.02069515 4279317433
-0.0026394315 0.045608204 0.021273367 4279054783
-0.00089250505 0.046367425 0.020437982 4278923458
0.0011299253 0.045699809 0.021015991 4278726854
0.0027277581 0.047172461 0.019474812 4278661573
0.0048985854 0.045791749 0.020758927 4279055293
0.0066338927 0.046551045 0.019924596 4279449013
0.0088179633 0.045170877 0.021207895 4279185853
0.010858551 0.044504132 0.021784995 4278792133
-0.015650611 0.042344544 0.022467658 4278923203
-0.0071033873 0.047582928 0.016881105 4278397393
-0.0049674213 0.046196606 0.018163979 4278728128
-0.0032258257 0.046957839 0.017330553 4278728128
-0.0013520867 0.047003355 0.01720259 4279318964
0.00066198781 0.046333354 0.017779559 4279253174
0.0028245784 0.044948023 0.01906094 4278728129
0.0048519224 0.044278536 0.019637141 4279121339
0.0065871961 0.04504006 0.018804472 4278989759
0.0081654042 0.046516921 0.017268125 4278529229
0.012386523 0.044463571 0.019124102 4278462418
-0.015348516 0.038671736 0.02345724 4279056313
-0.014160961 0.043027159 0.019098744 4278725834
-0.0072785877 0.046798807 0.015063476 4279251643
-0.0054100901 0.046844032 0.014935762 4278793918
-0.0038117096 0.048325252 0.013400912 4278793919
-0.0019489825 0.048370536 0.013273731 4278859453
0.00019443035 0.046980288 0.014553115 4278990778
0.0024917312 0.044872712 0.016534835 4278859453
0.0043675676 0.044918593 0.016406965 4278990014
0.0062432215 0.044964563 0.01627918 4278661063
0.0076646879 0.047163162 0.014044032 4278792643
0.0093777105 0.047926608 0.013214633 4278266068
0.011241876 0.047972549 0.013087824 4278332114
-0.013969373 0.040075418 0.01938488 4279382969
-0.012930226 0.045163866 0.014335189 4278988228
-0.011433419 0.047370013 0.012099076 4279186109
-0.0094462112 0.046694588 0.012674324 4279316923
-0.0075831376 0.046739627 0.012546934 4279383224
-0.0058523938 0.047504935 0.011717467 4278857159
-0.002545394 0.049755502 0.0093580671 4279055294
-0.00055349618 0.049080659 0.0099333376 4279383734
0.001872953 0.046246264 0.012612604 4279316669
0.00373777 0.046291906 0.012485508 4279316413
0.0058995001 0.044898052 0.01376063 4278660553
0.0091771185 0.047148999 0.011404051 4279513528
0.010881744 0.047914486 0.010576976 4280170664
0.01337792 0.045082349 0.013251893 4279646384
0.016544357 0.039373066 0.018725865 4278662084
-0.01372252 0.012448087 0.043787222 4282007939
-0.012948737 0.032056224 0.024575066 4279319983
-0.012611922 0.041496467 0.015327327 4279120829
-0.011478644 0.045877095 0.010992259 4278726343
-0.0097449347 0.046644483 0.010164091 4278726853
-0.0078874417 0.046689417 0.010037104 4279054528
0.0013977103 0.046915431 0.0094033722 4279185343
0.003545735 0.045516845 0.01067608 4279119299
0.005556006 0.044840578 0.01124871 4278725834
0.015362024 0.042905722 0.012710538 4278399178
0.018552132 0.037179615 0.018170021 4278728894
-0.013544392 0.0094046667 0.044006314 4281810823
-0.012478132 0.015251949 0.038269475 4280960143
-0.011809479 0.034916874 0.019108646 4279649444
-0.011152297 0.042210151 0.011984115 4279055548
-0.0099168383 0.045878779 0.0083598103 4279185088
-0.0083208382 0.047372911 0.0068348423 4278398159
-0.00633974 0.046693202 0.0074074361 4279186108
-0.0047576688 0.048187185 0.0058835614 4279842479
0.0010657832 0.046873774 0.0069022235 4279186109
0.0032081082 0.045470659 0.0081721265 4279119809
0.0050643571 0.045516249 0.0080457311 4279250369
0.0066181272 0.047010142 0.0065241698 4278856648
0.0084685311 0.04705577 0.0063983109 4278725834
0.010318756 0.047101479 0.0062725302 4278397903
0.012646697 0.044975583 0.0082380436 4278923459
0.015152805 0.042126361 0.010899393 4279514293
0.017845258 0.038554002 0.014256019 4279056314
-0.013592318 0.0078071728 0.04282194 4281680518
-0.012178827 0.011490576 0.039193332 4280763794
-0.010911074 0.015900504 0.034868456 4280436118
-0.010702569 0.037803445 0.013664234 4279320494
-0.0099620968 0.044390801 0.0072566811 4279185598
-0.0048030764 0.046705831 0.0047853664 4279448503
-0.0030946173 0.04747742 0.0039625112 4279514549
0.0005912222 0.047567558 0.0037112515 4279252154
0.0027251169 0.046159927 0.0049784444 4279317943
0.0045730621 0.046205353 0.0048526488 4278988993
0.0065718889 0.045524579 0.0054229144 4278988484
0.008422181 0.045570236 0.0052970927 4279382458
0.010428794 0.044889849 0.005866969 4279381948
0.012918383 0.042031419 0.0085228998 4279316924
0.01559151 0.038447592 0.011872666 4279055293
0.018456377 0.03413856 0.015915778 4279255214
-0.013527438 0.0054806024 0.042334765 4282793593
-0.011995468 0.0084456578 0.039410941 4281026188
-0.010485448 0.011410352 0.036488652 4280632978
-0.00972341 0.018749826 0.029389434 4280370074
-0.009510994 0.029004637 0.019509077 4279978139
-0.0091221593 0.037799593 0.011026129 4279449268
-0.0081529841 0.042948019 0.0060270261 4279119808
0.00040266663 0.046817455 0.0019200165 4279449269
0.0023880489 0.046133962 0.0024894923 4279317433
0.0048235059 0.04326516 0.0051422995 4279316923
0.0068275966 0.042582329 0.0057106558 4279186109
0.0091443956 0.040442962 0.007667033 4279055293
0.011320904 0.039032388 0.0089284386 4279518119
0.013826452 0.036165629 0.011576796 4279714979
0.01635357 0.03329955 0.014223713 4280305304
0.019231535 0.02897777 0.01825621 4280502164
-0.011927877 0.0061238185 0.038927056 4281222539
-0.010178585 0.0076344684 0.037401058 4281091979
-0.0089240782 0.01207044 0.033096708 4280960144
-0.0081971101 0.019431077 0.026016261 4280698513
-0.0080303848 0.029715519 0.0161619 4280173978
-0.0075528026 0.037804615 0.0083955768 4279449268
-0.0068716556 0.044430126 0.00202154 4279448249
-0.0054322928 0.046668198 -0.00018586963 4278923969
-0.0037348494 0.04744396 -0.0010046754 4278988993
-0.001482904 0.045296002 0.00095091201 4279185854
0.00078523159 0.043148499 0.0029055141 4279711408
0.0033605099 0.039539922 0.0062453095 4279382968
0.0056664534 0.037393544 0.0081974808 4279186363
0.0079885647 0.03524768 0.010148572 4278795958
0.010173194 0.033832859 0.011406118 4279846559
0.01236853 0.032418463 0.012662977 4279781278
0.014733642 0.030273918 0.014611401 4280502673
0.017114915 0.028129857 0.016558796 4280306069
0.019841418 0.024525676 0.019888807 4280501908
-0.01022657 0.0060466453 0.036223881 4281222793
-0.0084883086 0.0075614601 0.034702022 4281091213
-0.0072554946 0.012010187 0.030409031 4280829328
-0.0068135038 0.020858925 0.021961495 4280436118
-0.0068242624 0.031906281 0.011440696 4280041889
-0.0063898414 0.040018547 0.0036952663 4279381948
-0.0050740018 0.042996656 0.00079980865 4279121848
-0.0030939579 0.042308468 0.0013661794 4279316924
-0.0006887503 0.039421175 0.0040079188 4279250623
0.0017380975 0.036534499 0.0066482481 4279316924
0.0044774041 0.032182511 0.010670176 4280305559
0.0068048276 0.030030169 0.012615975 4280371094
0.0091484189 0.027878281 0.0145608 4280502419
0.011201009 0.027192477 0.015122678 4280501908
0.013258845 0.026506856 0.015684314 4280829583
0.015321933 0.025821496 0.016245615 4280764049
0.017552018 0.024403792 0.017497022 4280764049
0.020121738 0.021521412 0.020128205 4280763284
-0.0085363127 0.0059783384 0.033528335 4281288329
-0.0070561692 0.0089688301 0.030627824 4280960654
-0.0059767589 0.014165752 0.025655359 4280960653
-0.0058385693 0.024510838 0.015848588 4280830094
-0.0055134371 0.033383183 0.0074287131 4279976098
-0.0043128207 0.037106004 0.0038478114 4280040869
-0.0024537705 0.037151415 0.0037210472 4279450288
0.00010456145 0.033520442 0.007045649 4280108189
0.0024047568 0.031360656 0.008988345 4281025423
0.0050118156 0.027731072 0.012309767 4280763793
0.0070536882 0.027042646 0.012870628 4280895374
0.0095532015 0.02414934 0.015499748 4280698258
0.011460245 0.024196532 0.015370164 4280698258
0.01352334 0.023508925 0.015929788 4280566933
0.015591703 0.022821538 0.016489137 4280566933
0.017988659 0.020664841 0.01842577 4280632469
0.0207306 0.017039269 0.021738533 4280763283
-0.0083428547 0.0029196348 0.033734735 4281747074
-0.006980598 0.006656874 0.030150607 4281288329
-0.0056457408 0.010393575 0.026568439 4280633234
-0.0051118135 0.018556219 0.018851973 4280764048
-0.004638005 0.026717544 0.011139644 4280763794
-0.0035524592 0.031189382 0.0068765711 4280107424
-0.0016771853 0.031235203 0.0067487117 4280305049
0.00075720996 0.028331202 0.0093754977 4281287054
0.0027856119 0.027640089 0.009935515 4280894863
0.0048192963 0.026949197 0.010495247 4281026443
0.0070062503 0.025521234 0.01174281 4280698769
0.0095053688 0.022619221 0.014365487 4280698769
0.011565737 0.021929286 0.014923621 4280764304
0.013631389 0.02123959 0.015481483 4280698769
0.01570227 0.020550106 0.01603904 4281025933
0.018101633 0.018386956 0.017970663 4280698258
0.021338843 0.012539901 0.023336094 4280567953
-0.006905172 0.0043408275 0.029670432 4282728568
-0.0055673979 0.0080885775 0.026096154 4280895374
-0.0047724396 0.01479549 0.019772846 4280894863
-0.0042898357 0.022981029 0.012077849 4281091213
-0.0031958334 0.027466197 0.0078239609 4280697238
-0.0015865862 0.028991748 0.0063211527 4281090704
0.00071039051 0.026818756 0.0082542971 4281418633
0.0027386025 0.026125468 0.0088127162 4281156494
0.004772082 0.02543243 0.0093708597 4281222029
0.0068108626 0.024739563 0.0099287555 4281026443
0.0093068555 0.021828763 0.012545165 4280895374
0.011517696 0.020397287 0.013787977 4281091724
0.013895355 0.018226866 0.015716072 4281223049
0.016130321 0.016796179 0.016957391 4281353608
0.018699087 0.013887562 0.019569144 4281746053
0.022275053 0.0065452233 0.026291594 4282139519
-0.0054891966 0.0057794563 0.025620893 4281026188
-0.0048198402 0.013248265 0.018625826 4280960144
-0.0039420985 0.019231673 0.013006534 4281157003
-0.0028396547 0.023730226 0.0087618008 4280434079
-0.0010852478 0.024518415 0.0079473183 4280695963
0.00094292685 0.023822881 0.0085040629 4281089938
0.0029763952 0.023127522 0.0090605617 4281352589
0.0050151348 0.02243245 0.0096167438 4281418123
0.0072070174 0.020995967 0.010857472 4281353354
0.009560205 0.018818215 0.012782216 4281222539
0.011929549 0.016640965 0.014705949 4281418889
0.014315039 0.014464274 0.016628623 4281549704
0.016716689 0.012288019 0.018550303 4282466173
-0.0048672557 0.011701331 0.017479021 4281222538
-0.0039891079 0.017702244 0.011872714 4281026189
-0.0027522109 0.021469712 0.0083219055 4280631703
-0.00099515542 0.022260211 0.0075088348 4281024404
0.00089593232 0.022306599 0.0073800292 4281221264
0.0029292032 0.021609087 0.0079349373 4281616003
0.0052578785 0.019424058 0.0098563209 4282009213
0.0074549541 0.017983306 0.011093494 4282532473
-0.0049146861 0.010154709 0.01633244 4282073984
-0.0039047636 0.015426692 0.01142182 4280960398
-0.0027990453 0.019951515 0.0071964245 4280894099
-0.00090520829 0.019997872 0.0070673581 4281615239
0.00098846853 0.020044353 0.0069383979 4281353099
0.003451094 0.017106302 0.0095374212 4281943679
0.0059353486 0.014168914 0.012134988 4282860403
-0.0042144917 0.01539284 0.008924637 4282270078
-0.0028458834 0.018433582 0.0060711429 4281876868
-0.022069335 -0.017829914 0.026979137 4282207603
-0.020488992 -0.014741652 0.024142712 4279787654
-0.026489282 -0.016471397 0.023373995 4281486973
-0.024897778 -0.01337439 0.020543117 4278599353
-0.023227222 -0.011040211 0.018387251 4279388833
-0.021365773 -0.010231044 0.017579127 4279194015
-0.03032494 -0.019682821 0.023814734 4282798183
-0.028798643 -0.015811902 0.020315897 4280503183
-0.025435427 -0.01113034 0.016012151 4278402749
-0.021827135 -0.0087434445 0.013728157 4279978904
-0.032710146 -0.018253218 0.020086762 4279390364
-0.031180907 -0.014371466 0.016595725 4278603688
-0.029401092 -0.01279119 0.015118975 4278668459
-0.027727591 -0.010444092 0.012972467 4278407084
-0.025776275 -0.010397842 0.012838356 4278276269
-0.022184439 -0.0080048274 0.01056041 4279520923
-0.020347789 -0.0071917083 0.0097572971 4278735523
-0.033105023 -0.016759157 0.016234931 4279259803
-0.031676359 -0.012097486 0.012083381 4278669479
-0.027964424 -0.010467188 0.010476986 4278406318
-0.026018716 -0.010421069 0.010343265 4278407083
-0.024173807 -0.0096058585 0.0095410664 4279520414
-0.020500589 -0.0079754218 0.0079380441 4278668968
-0.018563364 -0.0079290047 0.0078052748 4278604708
-0.032977093 -0.019876143 0.016403627 4280243593
-0.031722303 -0.013658474 0.010925991 4278866849
-0.026358847 -0.0096640028 0.007187685 4278271678
-0.022484295 -0.0095717777 0.0069216881 4278995623
-0.020653259 -0.0087544825 0.0061222427 4278865319
-0.018718913 -0.0087081175 0.0059896819 4278275248
-0.016784657 -0.0086616483 0.0058572087 4278604964
-0.032849416 -0.023001568 0.016566068 4280832644
-0.031588823 -0.016766366 0.011101048 4278933148
-0.030002143 -0.01362613 0.0083027501 4278669733
-0.028532473 -0.0097128227 0.0048403349 4278996643
-0.026502818 -0.010440411 0.0053731073 4278799528
-0.024568381 -0.01039443 0.0052402541 4279323808
-0.02253069 -0.011121584 0.0057726558 4278800294
-0.020805798 -0.0095288847 0.0043098945 4278800038
-0.018874329 -0.0094825998 0.0041775238 4279127458
-0.016942952 -0.0094361976 0.0040452499 4279586458
-0.014783211 -0.010935638 0.0052419119 4278735014
-0.034453008 -0.028509632 0.018853571 4281880439
-0.032721989 -0.026135443 0.016722318 4280898179
-0.031276301 -0.021434207 0.012598813 4280438923
-0.029955735 -0.015957875 0.0078133252 4279587479
-0.028578272 -0.011257974 0.0036947131 4278538665
-0.026744474 -0.010436563 0.0028980169 4278931619
-0.024916189 -0.0096152145 0.00210182 4278800039
-0.022886895 -0.010344723 0.0026331935 4278669223
-0.015286874 -0.0093843956 0.0014419425 4279323044
-0.013244398 -0.010112995 0.001972856 4278409888
-0.034667838 -0.028546292 0.016346097 4281355904
-0.032855384 -0.026943719 0.01488312 4280701829
-0.031233037 -0.023785336 0.012095235 4280767109
-0.029817155 -0.019071545 0.0079835653 4280504714
-0.028529041 -0.013580649 0.0032117907 4278801058
-0.026985873 -0.010423759 0.00042963773 4278538918
-0.025062643 -0.010378024 0.00029757246 4278538409
-0.023139492 -0.010332169 0.00016560219 4278537899
-0.019510716 -0.0086851344 -0.001421161 4279058608
-0.017593257 -0.0086390395 -0.0015524626 4278271934
-0.0155618 -0.0093701985 -0.0010225028 4278733484
-0.013641812 -0.0093237944 -0.0011537913 4278473128
-0.034882408 -0.028573964 0.013845291 4281618299
-0.032988653 -0.027747288 0.01304733 4280309129
-0.031189896 -0.026140532 0.011588644 4280309385
-0.029678816 -0.022193702 0.0081475955 4280177549
-0.028195035 -0.018247396 0.0047085099 4279718549
-0.026836248 -0.013521644 0.0006106738 4278800548
-0.025108552 -0.011916074 -0.00084275566 4278472364
-0.021580216 -0.0094850194 -0.0030869897 4279192739
-0.019774128 -0.0086594447 -0.0038781241 4278932129
-0.017862275 -0.0086134896 -0.0040090457 4278603434
-0.015950508 -0.008567417 -0.0041398723 4279323553
-0.012007792 -0.0092543103 -0.0037420383 4278735779
-0.00066028908 -0.0081946477 -0.0051830262 4279000468
0.0012504235 -0.0081475452 -0.005312996 4279718039
0.0028784908 -0.00654261 -0.0067582931 4279980433
-0.03509672 -0.028592553 0.011351142 4280963714
-0.03312178 -0.028546242 0.011215039 4280374664
-0.03132578 -0.026935218 0.0097597651 4280178314
-0.029540742 -0.025324244 0.0083053298 4280177549
-0.028051347 -0.02136692 0.0048739575 4280636549
-0.026686877 -0.016628023 0.00078548305 4278932129
-0.025154458 -0.013453837 -0.0019828714 4278866084
-0.023437753 -0.011844048 -0.0034322124 4278274994
-0.014085386 -0.010050265 -0.0054041697 4278931364
-0.012173966 -0.010003973 -0.0055348035 4278801058
-0.010384787 -0.0091760363 -0.0063227182 4278408614
-0.002485536 -0.010551931 -0.0055298125 4279195289
-0.00070785731 -0.0097236969 -0.0063165128 4278996899
-0.035478655 -0.027032984 0.0075468533 4282405739
-0.033514775 -0.026986925 0.0074115172 4280767109
-0.031550929 -0.026940724 0.0072762892 4280112268
-0.02958714 -0.026894415 0.0071411468 4280374408
-0.027813068 -0.02527928 0.005690828 4280767619
-0.026440196 -0.020527121 0.0016114935 4279785359
-0.024999792 -0.016559776 -0.0018082634 4279193504
-0.023586694 -0.012593004 -0.005226017 4279062688
-0.018288299 -0.0093194917 -0.0082456367 4278468793
-0.016271107 -0.010057494 -0.0077195363 4278339508
-0.014248557 -0.010795256 -0.007193719 4278931109
-0.012459356 -0.0099652503 -0.0079800971 4278603434
-0.010553636 -0.0099189561 -0.0081102364 4278734759
-0.0086480156 -0.0098725595 -0.00824029 4279062179
-0.0066150203 -0.01060959 -0.0077148313 4278996898
-0.0048371404 -0.0097793899 -0.0085000871 4278800549
-0.002798941 -0.010516049 -0.0079748025 4278603178
-0.00089108571 -0.010469135 -0.0081046624 4279651484
-0.033734038 -0.026983386 0.004934337 4282339438
-0.03177581 -0.026937313 0.0047994982 4280308618
-0.029725576 -0.027677728 0.0053209495 4280571269
-0.02785949 -0.026844824 0.004530089 4280243338
-0.026291408 -0.023652505 0.0017721429 4279325849
-0.025045821 -0.018101355 -0.0029512085 4278801313
-0.023735486 -0.013337378 -0.0070163496 4278801058
-0.022140909 -0.010932881 -0.0091132643 4278604710
-0.018445458 -0.010055304 -0.01002895 4278276779
-0.016431201 -0.010795599 -0.009504227 4278538664
-0.014644705 -0.0099635608 -0.010288934 4278603688
-0.012744475 -0.0099175144 -0.010418783 4279192994
-0.010844342 -0.0098713487 -0.010548536 4279258274
-0.0088195913 -0.010610938 -0.010024194 4279127203
-0.0067895241 -0.0113502 -0.0095001431 4278406574
0.00096899271 -0.011948462 -0.0093659069 4280045459
-0.032089688 -0.026136057 0.001674531 4280832644
-0.029955862 -0.027667625 0.0028496049 4280636039
-0.028000614 -0.027621394 0.0027151424 4279654033
-0.026337722 -0.025209052 0.00061808899 4279194779
-0.024891531 -0.021219855 -0.0027858391 4279980944
-0.023575515 -0.016442679 -0.0068416493 4278931874
-0.022186652 -0.012454594 -0.010241452 4278669478
-0.020391807 -0.011620536 -0.011025378 4278800294
-0.018602487 -0.010786545 -0.0118088 4278735268
-0.016591169 -0.011529047 -0.011285541 4278604199
-0.01492396 -0.0099067576 -0.012721308 4278276524
-0.009115696 -0.010556662 -0.012457065 4278274484
-0.0069638975 -0.012086204 -0.011282038 4278930344
-0.0051916204 -0.011251755 -0.012063723 4278340018
-0.0034249164 -0.01041735 -0.012844885 4278733739
-0.02991013 -0.030021377 0.002343867 4281815669
-0.028046962 -0.029184196 0.0015564356 4279324573
-0.026384031 -0.026765348 -0.00053578056 4279981198
-0.024837585 -0.023556018 -0.0032792035 4280112779
-0.023312997 -0.020347081 -0.0060210275 4279719823
-0.022126857 -0.014766681 -0.010717409 4279195034
-0.020545885 -0.012349282 -0.012803625 4278669478
-0.01875937 -0.011513179 -0.013585234 4278537899
-0.016864691 -0.011467522 -0.013714895 4278669223
-0.011546813 -0.0089590773 -0.0160561 4278468793
-0.0073927492 -0.011237394 -0.014361694 4279323044
-0.0053686537 -0.011981039 -0.013840389 4278603944
-0.0037374906 -0.01035459 -0.015269948 4278668969
-0.032181472 -0.029252686 -0.00063627958 4282470764
-0.030140089 -0.029999821 -0.000119064 4281225853
-0.028282458 -0.029160604 -0.00090449862 4280111248
-0.026527638 -0.02752839 -0.002340449 4280308363
-0.024683738 -0.026689226 -0.0031247362 4280112268
-0.023050852 -0.024264323 -0.0052098539 4280112779
-0.021645304 -0.02025409 -0.00859462 4279785358
-0.020375244 -0.015451646 -0.012627663 4278538919
-0.018805206 -0.013027884 -0.014708202 4278734760
-0.015248947 -0.011351302 -0.016266791 4278668713
-0.013717275 -0.0089281462 -0.018344393 4279128480
-0.011836641 -0.0088824406 -0.018472802 4279389854
-0.0097070634 -0.010421306 -0.017302865 4279126948
-0.0075667053 -0.011959827 -0.01613353 4278799274
-0.0056755021 -0.011913532 -0.016262414 4278931109
-0.0040497966 -0.010282833 -0.017688416 4278537898
-0.0020288676 -0.011028498 -0.017168339 4278668969
0.0002736263 -0.013357988 -0.015352101 4280045969
-0.028423173 -0.029923305 -0.0027091615 4281881969
-0.026476633 -0.029877152 -0.0028429329 4280767620
-0.024830025 -0.027445501 -0.0049242135 4280439690
-0.022994462 -0.026604244 -0.0057062255 4280505224
-0.021480624 -0.023378033 -0.0084342724 4280570759
-0.020204876 -0.018562425 -0.012458012 4279784338
-0.018851034 -0.014542327 -0.015830973 4278867104
-0.017183792 -0.012907065 -0.017257165 4278341804
-0.006111972 -0.011042666 -0.019325005 4278996643
-0.0043618083 -0.010202169 -0.020100206 4278407084
-0.002346538 -0.010950167 -0.019581378 4278800549
-4.9822032e-05 -0.013286306 -0.017769586 4280374663
-0.026911605 -0.028243259 -0.0065873433 4281619828
-0.025175955 -0.026602659 -0.0080153979 4280439689
-0.023246031 -0.026556637 -0.0081478301 4280439943
-0.021526854 -0.024916152 -0.0095746228 4280570249
-0.020034757 -0.021681651 -0.012294624 4279719313
-0.018786069 -0.01685353 -0.016306719 4279456409
-0.017229632 -0.014416915 -0.01837652 4278736544
-0.015689593 -0.011980616 -0.020445064 4278341039
-0.012293797 -0.0094990842 -0.022640297 4278600118
-0.010297328 -0.010250155 -0.02212213 4278928049
-0.0082955137 -0.011001043 -0.021604214 4278996644
-0.0066778585 -0.0093619656 -0.023023285 4278931363
-0.0048061013 -0.0093160216 -0.023150751 4278604199
-0.0029344633 -0.0092699844 -0.023278138 4278473384
-0.00037299469 -0.013205648 -0.020180494 4279653779
-0.025321838 -0.0273454 -0.0098048411 4280767619
-0.023292236 -0.028098868 -0.0092912428 4280702339
-0.021573085 -0.026454043 -0.010714805 4280112779
-0.01986488 -0.024809398 -0.01213748 4279980944
-0.018610511 -0.019968102 -0.016140262 4279653268
-0.017275456 -0.01592654 -0.019495705 4279390873
-0.015851524 -0.012684668 -0.022204261 4278538919
-0.014330585 -0.01024217 -0.024266619 4278604453
-0.012582861 -0.0093978066 -0.025038734 4278735268
-0.01059204 -0.010151219 -0.02452182 4278538409
-0.0085958913 -0.010904379 -0.024005178 4278603944
-0.0069836713 -0.0092611071 -0.025420588 4278669479
-0.0052499734 -0.0084166713 -0.026191438 4278800039
-0.0033866391 -0.0083708353 -0.026318256 4279390108
-0.0011096522 -0.010720475 -0.024514882 4278669479
-0.025467571 -0.028083568 -0.01159082 4282077809
-0.023543403 -0.028037691 -0.011722862 4280047243
-0.021619305 -0.027991671 -0.011854792 4280112779
-0.019911118 -0.026342673 -0.013274226 4279981198
-0.018435214 -0.023091059 -0.015980098 4279849874
-0.017094526 -0.019038558 -0.019327816 4279456409
-0.015781134 -0.014986576 -0.02267356 4278736034
-0.014376231 -0.011736303 -0.025374297 4278735015
-0.012628581 -0.010889813 -0.026144823 4278734759
-0.010762226 -0.010844352 -0.026272181 4278603434
-0.0087689981 -0.011599765 -0.025756966 4278341804
-0.0058258511 -0.0067031346 -0.029864425 4278467263
-0.0038383901 -0.007458359 -0.029348567 4278270913
-0.00143205 -0.010615464 -0.026907664 4279390108
0.00071478263 -0.012170627 -0.025751341 4280309384
-0.023691874 -0.028771332 -0.013505235 4280506754
-0.021770645 -0.028725401 -0.013636984 4280243848
-0.019957349 -0.02787572 -0.014410805 4280046734
-0.018370748 -0.025418956 -0.016468221 4280046479
-0.016913857 -0.022158977 -0.019166226 4279653779
-0.01559484 -0.018096007 -0.022504283 4278931618
-0.014303114 -0.01403359 -0.025840394 4279128479
-0.012795761 -0.01157832 -0.027892003 4278734248
-0.010932263 -0.011532923 -0.028019164 4278472364
-0.009195786 -0.010684252 -0.028787173 4278603434
-0.0060041361 -0.0073810127 -0.031602815 4278467774
0.00038696826 -0.012061196 -0.028140366 4279128733
0.0022523925 -0.012015003 -0.0282671 4278670754
-0.022132006 -0.027842803 -0.016697332 4281291134
-0.02043476 -0.026185397 -0.018109569 4280047243
-0.018637951 -0.025333835 -0.018880567 4280178314
-0.017073147 -0.022870958 -0.020931551 4279915409
-0.015408788 -0.021213971 -0.022341257 4279784594
-0.014111441 -0.017140556 -0.025669672 4279128989
-0.012841392 -0.013067681 -0.028996132 4278800548
-0.011226278 -0.011411501 -0.030402258 4278473129
-0.0077698678 -0.0097102169 -0.031933773 4279258274
-0.0061822645 -0.0080543812 -0.033337783 4278735013
-0.0042006522 -0.0088140797 -0.032824751 4278407338
0.000199873 -0.012747828 -0.029884432 4278866593
-0.022282943 -0.028563034 -0.018469518 4282274413
-0.020480704 -0.02770929 -0.01923936 4280177804
-0.018683985 -0.02685559 -0.02000876 4280112779
-0.017005958 -0.025194008 -0.021416303 4280112013
-0.01533889 -0.023532631 -0.022822978 4280046734
-0.013920028 -0.02025597 -0.025505288 4279915154
-0.012765676 -0.01536448 -0.029462088 4278408613
-0.011271898 -0.012896331 -0.031503018 4278736289
-0.0062280335 -0.0095305443 -0.03443208 4278407083
-0.0042466186 -0.010292448 -0.033920668 4278538918
-0.00026781857 -0.011815566 -0.032898646 4278866338
0.0015864745 -0.011769675 -0.033024643 4279063453
0.0034406446 -0.011723666 -0.033150543 4279195798
-0.020634297 -0.028422851 -0.021006351 4281880948
-0.01873 -0.028377093 -0.021136768 4281030270
-0.01693888 -0.027521225 -0.02190407 4280570249
-0.015384939 -0.025045466 -0.023944532 4280308363
-0.013847407 -0.022569988 -0.025983788 4280045968
-0.012568817 -0.018475201 -0.029294681 4279390873
-0.011193525 -0.015190677 -0.031967379 4279456409
-0.009713389 -0.012716311 -0.034002431 4278472873
-0.00059477612 -0.011679376 -0.035267912 4278735778
0.001539994 -0.013252203 -0.034123614 4278997919
0.0035397746 -0.014015396 -0.033614751 4278997919
0.0058417805 -0.016396664 -0.031836994 4279390874
-0.018886317 -0.029086182 -0.022900198 4281618808
-0.016984958 -0.029040372 -0.02303032 4280439179
-0.015430972 -0.026558096 -0.025065938 4280504714
-0.014011864 -0.023264064 -0.027735345 4280177295
-0.012493398 -0.020782433 -0.029768378 4279980178
-0.010991342 -0.01830112 -0.031800151 4279456409
-0.009632349 -0.015008227 -0.034465216 4278802078
-0.0081658401 -0.012527501 -0.03649443 4279128733
-0.006583672 -0.010858849 -0.037888363 4278931619
-0.0047428943 -0.010813603 -0.038013671 4279062689
-0.0027647167 -0.011579838 -0.037505206 4278997408
-0.00078120828 -0.012345831 -0.03699702 4278670243
0.0014935359 -0.014734517 -0.035222426 4278407849
0.0037844665 -0.017122701 -0.03344886 4278539174
0.0062399618 -0.020321634 -0.031043392 4279455644
0.0082637519 -0.021086261 -0.030537596 4281552509
-0.017256983 -0.028930573 -0.025423963 4280832898
-0.015476987 -0.028070522 -0.026187193 4280374154
-0.013820928 -0.026396243 -0.027583392 4280046989
-0.012296963 -0.023908004 -0.029611908 4279849619
-0.010789417 -0.021420011 -0.031639263 4279653268
-0.0095514171 -0.017304284 -0.034931071 4279194268
-0.0082114153 -0.014003073 -0.037588306 4278802078
-0.0066292509 -0.012330057 -0.038978986 4278802079
-0.0047886074 -0.01228485 -0.039104313 4279259549
-0.0025357343 -0.014680746 -0.037333272 4278669478
-0.00054697692 -0.015448854 -0.036827039 4278603688
0.0017328523 -0.017843895 -0.03505769 4278800548
0.004028894 -0.020238478 -0.033289324 4280045203
0.0064894371 -0.023446025 -0.030890627 4280110993
0.0085184649 -0.02421266 -0.03038685 4280372624
0.010245301 -0.023352407 -0.031145338 4281947758
-0.017528716 -0.028811928 -0.027810976 4282340459
-0.015638612 -0.028766304 -0.027940266 4280767874
-0.013985287 -0.027087746 -0.029333044 4280112524
-0.012463983 -0.024593065 -0.031356536 4279850129
-0.010835309 -0.022914892 -0.032747474 4279849619
-0.0094706193 -0.019604493 -0.035400003 4280111249
-0.0079985373 -0.017110687 -0.037419897 4279653013
-0.006278988 -0.016249238 -0.038176939 4278342058
-0.0041609928 -0.017835842 -0.037041448 4278799784
-0.0021696165 -0.018606115 -0.036537126 4279127713
-0.00017290562 -0.019376159 -0.036033094 4279521688
0.0019719414 -0.020961802 -0.034899205 4279521179
0.0042730793 -0.023362737 -0.033136077 4279914134
0.0065904036 -0.025763219 -0.03137394 4279979924
0.0084709898 -0.025716403 -0.03150152 4280110739
0.010351457 -0.025669506 -0.03162903 4281029248
-0.015800092 -0.029457502 -0.029690012 4281684853
-0.013912931 -0.029411826 -0.02981901 4280309129
-0.012267858 -0.02772907 -0.031207878 4280046479
-0.010757457 -0.025228012 -0.03322576 4280112268
-0.0093899108 -0.021908926 -0.035871997 4279981198
-0.007785894 -0.020226788 -0.037257858 4279653013
-0.0061928518 -0.018544864 -0.038642853 4279128479
-0.0042070001 -0.01931756 -0.038139854 4278931619
-0.0019411854 -0.021726266 -0.036379386 4279390363
6.0755759e-05 -0.022498352 -0.035877328 4279521689
0.0023535155 -0.024906131 -0.03411857 4279521434
0.0045170262 -0.026495567 -0.032989115 4279718293
0.006839443 -0.028902389 -0.031232204 4280308109
0.008574456 -0.028037714 -0.03198811 4280373133
0.010764748 -0.029626189 -0.030860251 4280700298
0.012340449 -0.02794373 -0.032243423 4281290879
-0.014313541 -0.028457159 -0.032822274 4281292154
-0.012676634 -0.026770247 -0.034207422 4280112524
-0.011050683 -0.025083516 -0.035591681 4280178313
-0.0095620751 -0.022576358 -0.03760314 4280308620
-0.0079607703 -0.020889999 -0.03898555 4279653013
-0.0062386319 -0.02002422 -0.039739523 4278997154
-0.0039839298 -0.022439769 -0.037983261 4278866084
-0.0018502623 -0.024034601 -0.036855243 4278866339
0.00015420467 -0.02480882 -0.036354985 4279194269
0.0023066774 -0.026402934 -0.035228129 4279260059
0.0044699199 -0.027996754 -0.034101911 4279063963
0.0067920052 -0.030410113 -0.03234984 4280307853
0.0086777881 -0.030363189 -0.032477789 4280569993
0.010717005 -0.03113612 -0.031979501 4281224579
0.012448974 -0.030269124 -0.032733489 4282077043
-0.014831893 -0.026666367 -0.036442753 4282339439
-0.012964129 -0.026621075 -0.036570363 4280439688
-0.011220034 -0.025752928 -0.037324466 4280178314
-0.0094814673 -0.024884786 -0.038078099 4280177548
-0.0078774504 -0.023194 -0.039457522 4279718548
-0.0060209148 -0.023148548 -0.039584041 4279652504
-0.0038955659 -0.024748055 -0.038458783 4279390618
-0.0017594472 -0.026347125 -0.037334204 4279194013
0.00010764599 -0.026301119 -0.037461221 4278735014
0.0024024807 -0.028721945 -0.035712272 4278997153
0.0044228397 -0.029497772 -0.035214588 4279456153
0.0068926588 -0.032739893 -0.032842416 4280962948
0.0084794983 -0.031048691 -0.034220044 4281618808
-0.013130534 -0.027288051 -0.038301587 4281881204
-0.011265706 -0.027242744 -0.038428929 4281226109
-0.0095272064 -0.026372451 -0.039180957 4280373898
-0.0079231858 -0.024677351 -0.040557168 4280111758
-0.0060667917 -0.024631914 -0.040683687 4280111504
-0.0039416999 -0.026235767 -0.03956164 4279849618
-0.0018058494 -0.027839219 -0.038440295 4279587479
6.1120838e-05 -0.027793229 -0.038567316 4280110738
0.0020705238 -0.028571604 -0.038070578 4280570249
0.0042305253 -0.030174203 -0.036950611 4281685873
-0.01317605 -0.028777687 -0.039405927 4282602088
-0.011434805 -0.027905287 -0.040156625 4281487993
-0.0094467625 -0.028686997 -0.039660525 4280177294
-0.0078400187 -0.026987514 -0.041033715 4280046224
-0.005849421 -0.027768986 -0.040537585 4280177038
-0.0039878115 -0.027723346 -0.040664401 4279915408
-0.0019892566 -0.028504385 -0.040168706 4280374409
-0.0001251325 -0.028458484 -0.040295549 4282602854
-0.0097447336 -0.02851807 -0.042007938 4280636293
-0.0080145933 -0.027643569 -0.04275611 4280700044
-0.0061584488 -0.027598197 -0.042882655 4282602344
0.022379249 -0.013796282 0.016146306 4285031983
0.019937314 -0.017042037 0.011443641 4285492258
0.015028067 -0.014082097 0.0065733772 4285556774
0.022068098 -0.0014907401 -0.0046570059 4285557284
0.023286209 0.0016437843 -0.0074277259 4285754399
0.024308287 0.0055493303 -0.01085726 4286148119
0.02601026 0.0063684881 -0.011644176 4286212633
0.028604329 0.0033307038 -0.0091307843 4286212634
0.015986465 -0.0016119629 -0.0067207972 4286475793
0.017558813 -1.6292557e-05 -0.0081681758 4285426213
0.019120097 0.0015792586 -0.0096147647 4285623583
0.020838924 0.002400741 -0.010401406 4285689373
0.022209488 0.0047696903 -0.012505424 4285754654
0.023737594 0.0063646697 -0.013949569 4286017304
0.025608122 0.0064121783 -0.014075766 4286082074
0.027837418 0.0049126111 -0.01288513 4286213399
0.030623995 0.001092948 -0.0097206226 4286016029
0.012620427 0.0038062111 -0.013643563 4285359659
0.014494658 0.0038532298 -0.013770443 4285426723
0.016368724 0.0039003622 -0.013897224 4285558303
0.018242605 0.0039475989 -0.014023912 4285623838
0.01994779 0.0047709085 -0.014808018 4286149138
0.021304861 0.0071460642 -0.016906248 4285885724
0.022993349 0.0079691857 -0.017689127 4285622308
0.0250296 0.0072405897 -0.017157601 4285753888
0.027429894 0.0049607679 -0.015312932 4285885213
0.029664174 0.0034570694 -0.0141258 4285688863
0.03246367 -0.00037303567 -0.010970176 4285557283
0.0062482245 -0.0041119009 -0.0089890882 4286277658
0.0076964796 -0.0017286725 -0.011089266 4285229098
0.0088239759 0.0022114348 -0.014502191 4285622564
0.010078989 0.0053724088 -0.017256344 4285951259
0.011784792 0.0061975867 -0.018039187 4285951258
0.013805613 0.0054658242 -0.017508682 4285820189
0.01599472 0.0039560571 -0.01632224 4285689373
0.018028773 0.0032248851 -0.015792513 4285689119
0.019731186 0.00405032 -0.016574796 4285820698
0.021256812 0.0056538172 -0.018012317 4286082839
0.022945255 0.0064791441 -0.018793548 4286082584
0.024981327 0.0057483576 -0.018263636 4286017049
0.02702263 0.0050178282 -0.017734058 4285952023
0.029069185 0.0042875186 -0.017204769 4285886489
0.031120978 0.0035574585 -0.016675748 4285492513
0.034302935 -0.0018387176 -0.01221947 4285558303
0.0048807822 0.0013982449 -0.016016029 4285492769
0.0063046329 0.003787348 -0.018109653 4285558303
0.0078640729 0.0053954236 -0.019546764 4285820443
0.0094124824 0.0070032701 -0.020983016 4285819933
0.011264868 0.0070496798 -0.021108463 4286017303
0.013277337 0.0063155964 -0.020579036 4286149138
0.015458025 0.0048012473 -0.019395277 4285754909
0.017649412 0.003287226 -0.018212121 4285623583
0.019514732 0.0033343267 -0.018338172 4285623584
0.021037638 0.0049421825 -0.019772286 4285886233
0.022723332 0.0057695545 -0.020551685 4286148118
0.024756499 0.0050365701 -0.02002323 4285951258
0.026615642 0.0050838999 -0.020148577 4286148883
0.028656609 0.0043512248 -0.019620493 4285689629
0.030887492 0.0028388742 -0.018439578 4285492768
0.032941625 0.0021067746 -0.017912274 4285558303
0.035951667 -0.002524212 -0.014121307 4285425704
0.0028178692 0.000636613 -0.017653896 4285296163
0.0041008256 0.0038154237 -0.020397265 4285493024
0.0058097206 0.004644677 -0.021177268 4285886744
0.0075130127 0.0054739229 -0.021956794 4285820189
0.0090559795 0.0070860349 -0.023389481 4285556773
0.010902822 0.0071322881 -0.023514559 4285622819
0.012909643 0.0063959025 -0.022986362 4285754653
0.015084632 0.0048770197 -0.021805406 4285754908
0.017435931 0.002575893 -0.019972282 4285623839
0.019130081 0.0034055263 -0.020750804 4285624349
0.020989671 0.0034525767 -0.020876395 4285624348
0.022675321 0.0042821504 -0.021654155 4285689628
0.024708308 0.003546983 -0.021127308 4285689884
0.026388153 0.0043765865 -0.021904539 4285689883
0.028608121 0.0028594658 -0.020726157 4285689884
0.030469507 0.0029070266 -0.020851526 4285689119
0.032330699 0.0029546525 -0.020976827 4285623839
0.034381747 0.0022203811 -0.020450875 4285557538
0.037594728 -0.0032052584 -0.016019268 4285425449
0.0030584633 -0.0024299342 -0.017457401 4285360933
0.0040540211 0.0023282599 -0.021499658 4285427489
0.005464416 0.0047301352 -0.023582691 4285689374
0.0071622133 0.0055613965 -0.024360243 4286083349
0.0086997673 0.0071776994 -0.025789268 4285951768
0.010541037 0.0072238185 -0.025913971 4285951514
0.01254224 0.006485112 -0.025387011 4286017558
0.014874339 0.00417687 -0.023557523 4285952023
0.017222583 0.0018692017 -0.021729076 4285623839
0.018913969 0.0027008895 -0.022505758 4285558814
0.020599775 0.0035325401 -0.02328198 4285558814
0.022453621 0.0035795607 -0.023407102 4285493023
0.024483696 0.0028421395 -0.022881681 4285558814
0.026339918 0.0028893892 -0.023006834 4285624094
0.028195962 0.002936732 -0.023131901 4285689628
0.030051805 0.0029841401 -0.023256904 4285754909
0.031720176 0.0038158856 -0.024031553 4286082839
0.033382952 0.0046475381 -0.024805788 4286147864
0.03581091 0.0023427494 -0.022982083 4286081053
0.0035861991 -0.0070799887 -0.01596499 4285294888
0.0043000728 -0.00073359534 -0.02130007 4285295909
0.0054176897 0.0032497533 -0.024680045 4285361444
0.0068117082 0.0056578107 -0.026756991 4285689883
0.0084984303 0.0064910613 -0.027532103 4286083603
0.010336854 0.0065371171 -0.027656607 4286083094
0.012335137 0.0057961792 -0.027131058 4286084114
0.014501445 0.004268419 -0.025956035 4285623839
0.016678467 0.0027409848 -0.024781615 4285623583
0.018361643 0.0035746954 -0.025556155 4285558559
0.020039238 0.004408326 -0.026330197 4285558558
0.021884829 0.0044551156 -0.026454773 4285558814
0.024082921 0.0029285736 -0.025281511 4285558558
0.025754534 0.0037623681 -0.026054991 4285623838
0.027784087 0.0030228887 -0.025530983 4285820699
0.029449895 0.0038566925 -0.026303954 4285754398
0.031297304 0.0039039776 -0.026428318 4285885724
0.032954611 0.0047376715 -0.027200561 4286082074
0.034991555 0.0039987564 -0.026676847 4286081818
0.037619807 0.00090138987 -0.02421066 4285884958
0.041457966 -0.0069121812 -0.017861443 4285425449
0.0038261302 -0.010167861 -0.015784232 4285164074
0.0048385561 -0.0053831004 -0.019808255 4285294888
0.0056691319 0.00019043684 -0.024479032 4285295398
0.006765075 0.0041841604 -0.027849343 4285427234
0.008297205 0.0058090687 -0.029271573 4285624093
0.010290034 0.0050656646 -0.028747309 4285689373
0.012128174 0.005111821 -0.028871715 4285755419
0.013966173 0.0051580518 -0.02899605 4285689628
0.015804 0.0052043945 -0.029120293 4285623839
0.017641656 0.0052508116 -0.02924446 4285689373
0.019649975 0.0045083128 -0.028720941 4285623838
0.02149003 0.0045549758 -0.028845135 4285623839
0.023329906 0.0046017207 -0.028969251 4285623583
0.025169596 0.0046485662 -0.029093277 4285623839
0.027009122 0.0046954602 -0.029217254 4285886234
0.028848454 0.0047424547 -0.029341139 4285951769
0.030500479 0.0055781193 -0.030111458 4285491493
0.032526582 0.0048366711 -0.029588692 4285557029
0.034557939 0.0040954277 -0.029066224 4285622818
0.03698507 0.0017776005 -0.027252078 4285557539
0.039824329 -0.0021163728 -0.024147404 4285492514
0.0040657781 -0.013264147 -0.015609782 4285032494
0.0052302182 -0.009258043 -0.018976796 4285229099
0.0062183067 -0.0044607837 -0.022989344 4285359913
0.0070218965 0.0011274442 -0.027646936 4285295654
0.0084050447 0.0035483949 -0.029713351 4285558813
0.010086052 0.0043860115 -0.030484799 4285558813
0.011921354 0.0044320896 -0.030609019 4285558303
0.013593912 0.0052696355 -0.031379715 4285689374
0.015260868 0.0061071478 -0.032149948 4285820699
0.017090261 0.0061533637 -0.032273553 4286215184
0.019090235 0.0054084845 -0.031751081 4286149139
0.02092202 0.0054549351 -0.03187472 4285754908
0.022753634 0.005501464 -0.03199828 4285623584
0.024763986 0.0047570989 -0.031476326 4285623583
0.026597969 0.0048038624 -0.03159992 4285689118
0.028063089 0.006432388 -0.033013593 4286017304
0.029704221 0.0072699338 -0.033781577 4286017304
0.031909049 0.0057353415 -0.032614961 4286017304
0.033932097 0.0049917065 -0.032093555 4286083348
0.036350794 0.0026671197 -0.030283708 4286214928
0.038587674 0.0011335462 -0.029119097 4285558048
0.041838415 -0.0043518152 -0.024735115 4285492513
0.0054752603 -0.012351778 -0.018800914 4285098028
0.0066180117 -0.0083352532 -0.022158302 4285294378
0.0072784536 -0.0019377805 -0.027450763 4285492003
0.0083583668 0.0020773876 -0.030803733 4285427488
0.0098822266 0.0037108865 -0.032218859 4285559069
0.011714689 0.0037568714 -0.0323429 4285624604
0.013384484 0.0045965277 -0.033111785 4285689629
0.015048675 0.0054361336 -0.033880226 4285886234
0.016875237 0.0054822825 -0.034003634 4285951768
0.018872321 0.0047351494 -0.033482593 4286017559
0.020701274 0.0047815107 -0.033606052 4286083348
0.022530064 0.0048279651 -0.033729427 4285689374
0.024537511 0.0040813703 -0.033208877 4285623584
0.026187129 0.0049211271 -0.033975948 4285623584
0.02764684 0.0065539032 -0.035386063 4286017814
0.029282518 0.0073934868 -0.036152061 4286017048
0.031481698 0.0058543272 -0.034988277 4286016794
0.033499144 0.0051083751 -0.034468114 4286017048
0.035912104 0.0027771052 -0.032662742 4285689629
0.038143307 0.0012390632 -0.031500969 4285492513
0.041187443 -0.0034690648 -0.027770339 4285492513
0.0055738986 -0.014657904 -0.019275717 4285031983
0.0070173033 -0.012222576 -0.021336714 4285492004
0.0078379214 -0.0066035353 -0.025972776 4285688863
0.0087746084 -0.0017812159 -0.029962318 4285690139
0.0098355711 0.0022444483 -0.033305842 4285427489
0.011508182 0.0030862391 -0.034073383 4285624349
0.013337664 0.0031322669 -0.034197137 4285821208
0.015001811 0.0039740447 -0.034963958 4285688864
0.016660362 0.0048157983 -0.035730384 4285557284
0.018654555 0.004066376 -0.035210721 4285557284
0.020480677 0.0041126721 -0.035333984 4285885978
0.022482686 0.0033636671 -0.03481476 4285689374
0.024132438 0.0042055286 -0.03558027 4285623584
0.025776573 0.0050473735 -0.036345385 4285624349
0.027415104 0.005889114 -0.037110023 4285624094
0.029048033 0.0067307614 -0.037874244 4285623584
0.031244256 0.0051872283 -0.036713533 4285689374
0.033451177 0.0036439933 -0.035553455 4285623584
0.035668753 0.002101155 -0.034394078 4285558049
0.038094811 -0.00023621507 -0.032594375 4285426978
0.040937938 -0.0041626524 -0.029514188 4285558048
0.0071186088 -0.014526202 -0.02180996 4285491239
0.0082453266 -0.010488233 -0.025150008 4285492003
0.0090362355 -0.0048546009 -0.029772652 4285623839
0.0097889379 0.00077821501 -0.034392677 4285360679
0.011142135 0.0032181945 -0.036442421 4285426979
0.012803681 0.004061982 -0.037207525 4286017814
0.014294513 0.0057035685 -0.038613699 4285885979
0.016109973 0.0057493933 -0.038736392 4285688608
0.017925285 0.0057953373 -0.038858987 4285688609
0.020086952 0.0042460859 -0.03769955 4285754908
0.022083357 0.0034947284 -0.037181586 4285820953
0.023727641 0.0043386072 -0.037945129 4285624093
0.025366321 0.005182419 -0.038708232 4285624603
0.027367651 0.0044314712 -0.038190395 4285624604
0.029374249 0.0036807191 -0.03767287 4285493279
0.031575665 0.0021329056 -0.03651572 4285492769
0.033980057 -0.00021170639 -0.03471953 4285558303
0.036205553 -0.001758704 -0.033563931 4285623839
0.038441733 -0.0033053383 -0.032408979 4285294379
0.0050407052 -0.01527988 -0.023440611 4285228844
0.007071048 -0.016033499 -0.022927266 4285294378
0.0085008964 -0.013585433 -0.024977541 4285557794
0.0096059442 -0.0095370561 -0.028307972 4285558049
0.010369875 -0.0038887467 -0.032917444 4285623583
0.011414826 0.00015834905 -0.03624364 4285492514
0.012757093 0.0026046466 -0.038287744 4285492513
0.014082924 0.0050505884 -0.040330611 4286083858
0.015727781 0.0058963634 -0.041092869 4285951513
0.017367065 0.0067420192 -0.041854657 4286017049
0.019347161 0.0059880018 -0.041337267 4286149393
0.021508433 0.0044343956 -0.040180959 4285755419
0.023501784 0.0036808886 -0.039664336 4285558813
0.025500394 0.0029275957 -0.039148007 4285559069
0.027504288 0.002174506 -0.038631983 4285493023
0.029886976 -0.00017733686 -0.036839299 4285558813
0.032285795 -0.002528714 -0.035047665 4285557538
0.034700744 -0.0048795417 -0.03325709 4285425959
0.037131809 -0.0072299279 -0.031467505 4285359659
0.039578959 -0.0095798299 -0.029678944 4285294124
0.042242572 -0.01272837 -0.027253887 4285097519
0.0065775216 -0.015132763 -0.025962632 4284900914
0.0083020329 -0.01428342 -0.026729111 4285294633
0.0097127929 -0.011829217 -0.02877317 4285295143
0.010793447 -0.007770488 -0.032093801 4285491238
0.011687241 -0.0029099435 -0.036051191 4285557283
0.012548283 0.0019497927 -0.040006287 4285361189
0.01370649 0.0052044354 -0.042682469 4285558559
0.015345901 0.0060521588 -0.043442726 4285624094
0.017150126 0.0060977899 -0.043564595 4285689629
0.019300431 0.0045395233 -0.042410888 4285558303
0.021637306 0.002179645 -0.040620223 4285492769
0.023811758 0.00062216073 -0.039468013 4285559069
0.026359454 -0.0025385916 -0.037042029 4285492514
0.028376751 -0.0032935608 -0.036528487 4285359914
0.030959412 -0.006453203 -0.034104772 4285294123
0.033184804 -0.0080091115 -0.032955714 4285294123
0.0081033483 -0.014976907 -0.028477274 4285163818
0.010127589 -0.015734825 -0.0279666 4285294889
0.011530131 -0.013274235 -0.030005198 4285491239
0.012437798 -0.0084003229 -0.033953846 4285425703
0.012988374 -0.0019183215 -0.039173931 4285755163
0.013825096 0.0029539857 -0.043117646 4285493024
0.015467167 0.0038039628 -0.043876462 4285558559
0.017444335 0.0030454062 -0.043362193 4285492769
0.019772895 0.0006787125 -0.041575886 4285558558
0.022117592 -0.0016874988 -0.039790615 4285557793
0.024656929 -0.0048572589 -0.037370607 4285492003
0.027399033 -0.0088303257 -0.034316394 4285425959
0.029432453 -0.0095870197 -0.033805601 4285294379
0.03165777 -0.011147331 -0.032659888 4285294124
0.03370443 -0.011903591 -0.03214984 4285228588
0.036140479 -0.014266946 -0.030370407 4285228844
0.0077535734 -0.014858951 -0.030858058 4285032493
0.010080099 -0.017232843 -0.029077005 4285229354
0.011796087 -0.016379233 -0.029839501 4285425958
0.013028301 -0.01310557 -0.032507923 4285491239
0.013590164 -0.006605899 -0.037715834 4285623073
0.01443807 -0.0017202999 -0.041650631 4285624094
0.016090967 -0.00086789951 -0.042408571 4285228844
