# .PCD v0.7 - Point Cloud Data file format
VERSION 0.7
FIELDS x y z rgba
SIZE 4 4 4 4
TYPE F F F U
COUNT 1 1 1 1
WIDTH 957
HEIGHT 1
VIEWPOINT 0 0 0 1 0 0 0
POINTS 957
DATA ascii
-0.0024804771 0.0020993939 0.032468252 4290782489
-0.00010239333 -0.00015704893 0.03437845 4290716954
0.0020163059 -0.00088327657 0.034946624 4290193948
0.0039997846 -0.00084446464 0.034844145 4290259484
0.0061262995 -0.0015703281 0.035412073 4289670688
0.0081121176 -0.0015312703 0.03530962 4290063389
0.010246433 -0.0022567553 0.03587731 4290128924
0.012234598 -0.0022174534 0.035774879 4290063643
0.01406844 -0.0014134711 0.03500279 4290325273
0.015739813 0.00015496649 0.033561416 4289932573
0.017240502 0.0024877647 0.031451147 4291044373
0.019373797 0.0017627496 0.032019258 4290716953
0.021512315 0.0010379367 0.032587167 4290848023
0.024159253 -0.001979562 0.035162129 4291895054
-0.0085630007 0.0011713365 0.03093778 4288622129
-0.0065924414 0.0012093494 0.030835561 4289735458
-0.004751578 0.0020147022 0.03006402 4290717463
-0.0026518032 0.0012857104 0.030631401 4290782999
-0.00041174889 -0.00021016225 0.031867743 4290390554
0.0015636086 -0.00017162226 0.031765595 4290259484
0.0035387799 -0.00013295561 0.031663556 4290325274
0.0055137724 -9.4195828e-05 0.031561598 4289736479
0.0074885637 -5.5331737e-05 0.031459726 4289801758
0.0097604245 -0.0015500952 0.032694861 4289540128
0.012042955 -0.0030445014 0.033929478 4289736479
0.014028072 -0.0030051456 0.03382729 4289997598
0.015385866 0.00010108389 0.031053089 4290782743
0.016881168 0.0024403036 0.028948009 4289670433
0.018846616 0.0024795793 0.028847061 4289474594
0.021141745 0.00098592136 0.030081399 4289866529
0.023615234 -0.0012739655 0.031982735 4289473573
0.026275188 -0.0042997641 0.034550615 4289473064
0.029129848 -0.008091514 0.037784696 4286398528
-0.0067579448 0.00040042773 0.029001847 4288687664
-0.0047903992 0.00043849461 0.028899867 4289408804
-0.002955243 0.0012460817 0.028130287 4290390553
-0.00085581839 0.00051497668 0.028696202 4289997598
0.0011112243 0.00055339187 0.028594512 4290193949
0.0030780882 0.00059189089 0.028492898 4289866783
0.0050447732 0.00063050352 0.02839138 4290782743
0.0070112869 0.00066921301 0.028289942 4290586649
0.0092747137 -0.00083002169 0.029522248 4289866783
0.011700146 -0.0030979626 0.031420805 4289605154
0.013679691 -0.0030587036 0.03131891 4289997598
0.015032127 5.6178309e-05 0.028551467 4290848023
0.016522035 0.002401893 0.026451478 4290782744
0.01848191 0.002441057 0.026350819 4290586139
0.020771392 0.00094287843 0.027582256 4290586139
0.022903912 0.00021370593 0.028147338 4290782233
0.025382333 -0.0020524636 0.030043617 4289735203
0.028222971 -0.0058553373 0.033270318 4289539364
-0.0049586818 -0.0003657937 0.027069695 4289539363
-0.0029941574 -0.00032764859 0.026967973 4289670689
-0.0011646897 0.0004820684 0.026200417 4290194203
0.00079676509 0.00052037556 0.026099019 4290193949
0.0027580559 0.00055877399 0.0259977 4290455578
0.0045761019 0.0013686018 0.025230983 4291240978
0.0066800863 0.00063591171 0.025795348 4291240979
0.0087893307 -9.6578151e-05 0.026359512 4290913558
0.011206292 -0.0023712153 0.028253665 4289539619
0.013331503 -0.0031032003 0.028817151 4289735969
0.014678597 2.0295382e-05 0.026056439 4289997599
0.016481906 0.00083041657 0.025290912 4290716954
0.018279552 0.0016405461 0.024525767 4291043863
0.020566061 0.00013800152 0.025754098 4290847769
0.022528142 0.00017743371 0.025653489 4290913559
0.024660297 -0.00055388734 0.026217079 4289800738
0.027143657 -0.0028264038 0.028108336 4289604388
0.029467404 -0.0043278765 0.02933507 4289538344
0.032158703 -0.0073702317 0.031888623 4286594624
-0.0034293979 0.00042002182 0.023812521 4288688429
-0.0014733598 0.00045811292 0.023711324 4289997599
0.0004825145 0.00049632322 0.023610219 4290455324
0.0022979379 0.0013082242 0.02284514 4289604899
0.0042507574 0.0013465816 0.02274435 4290390044
0.0062033832 0.0013850452 0.02264365 4290716953
0.0084527358 -0.00012322702 0.023870269 4291044629
0.010712788 -0.0016311239 0.02509639 4289735969
0.012829639 -0.0023654788 0.025658743 4290128669
0.014638513 -0.0015530959 0.024894452 4289801248
0.016760446 -0.0022871583 0.025456687 4289866784
0.018563464 -0.001474686 0.02469285 4290324764
0.02036085 -0.0006622849 0.023929404 4290390043
0.022152603 0.00015007891 0.023166301 4289932063
0.024108909 0.00018949248 0.023066062 4289932063
0.026237957 -0.00054392032 0.023628235 4289604644
0.028372221 -0.0012771599 0.024190191 4290389024
0.031046867 -0.0043285862 0.026738204 4289603624
-0.0017817989 0.00044320337 0.021228835 4289800994
0.00016847998 0.00048131682 0.02112803 4290716954
0.00183817 0.0020709867 0.019702485 4290455323
0.0037826747 0.0021091988 0.019602137 4288820009
0.0058726743 0.001371868 0.020163992 4289277734
0.0081163421 -0.00014081877 0.021387648 4289736224
0.010219596 -0.00087771285 0.021949023 4290259483
0.012635775 -0.0031652912 0.023833577 4289670689
0.014598437 -0.0031262222 0.023732662 4289212453
0.016720183 -0.0038624569 0.024293303 4289016103
0.018523142 -0.003047803 0.023531081 4288950824
0.020320475 -0.0022332114 0.022769261 4289343269
0.022112161 -0.0014186464 0.022007793 4290128414
0.023557864 0.00094622374 0.019924907 4289604644
0.02567859 0.00021046121 0.020485889 4290455069
0.027628921 0.00024991203 0.020386074 4290912793
0.030114032 -0.0020354972 0.022267748 4290257188
0.032796271 -0.0050954041 0.024808982 4290388003
-0.0020900518 0.00043724757 0.018753035 4287704128
-0.00014533103 0.00047523808 0.018652508 4289080108
0.0017992109 0.00051335525 0.018552089 4290586393
0.003457807 0.0021073371 0.017130392 4290782743
0.0055421963 0.0013676658 0.017690962 4291306258
0.0077801645 -0.00014946796 0.018911701 4290913558
0.010179915 -0.0024440521 0.020792229 4290324763
0.01228825 -0.0031828848 0.02135176 4290324763
0.014245339 -0.0031439238 0.021251135 4289735969
0.016202234 -0.0031048451 0.021150608 4289539618
0.017996974 -0.002288227 0.020390458 4289605154
0.019950755 -0.00224905 0.020290215 4289474339
0.021736942 -0.0014323546 0.019530613 4290128414
0.023177274 0.00093891565 0.017452892 4290324764
0.025292374 0.0002008602 0.018012552 4290586139
0.027061634 0.0010174168 0.017254042 4290586138
0.029538304 -0.0012746481 0.019131273 4290389789
0.031669103 -0.0020121736 0.019690359 4290258719
0.034356259 -0.0050806324 0.02222494 4289801504
-0.00045894086 0.00047823042 0.016183615 4287443009
0.0016201586 -0.00026391447 0.016742701 4289408804
0.003418833 0.00055434182 0.015983429 4290128924
0.0055030286 -0.00018749945 0.016542405 4289997853
0.0075924993 -0.00092908088 0.017101146 4290128414
0.0096872151 -0.0016704407 0.017659709 4290259229
0.011479765 -0.00085198041 0.016901068 4289670689
0.013266668 -3.3486634e-05 0.016142828 4289408803
0.01504793 0.00078500435 0.015384884 4289408803
0.01714737 4.4064596e-05 0.015943516 4289408803
0.019252032 -0.00069661532 0.016501922 4289997598
0.021194622 -0.00065757241 0.016402313 4290128414
0.022796899 0.000940606 0.014987451 4290979094
0.024560861 0.001759165 0.014230778 4289997344
0.026494667 0.0017983047 0.014131823 4288819753
0.028962925 -0.0005005179 0.01600468 4289081383
0.031085394 -0.0012403354 0.016562546 4289278244
0.033764072 -0.0043176748 0.019091113 4289603878
0.036277898 -0.0066153379 0.020961817 4288949038
0.0013011172 -0.00025424827 0.014279106 4287966778
0.0030943006 0.00056600664 0.013521752 4289342503
0.0051728711 -0.00017805304 0.014079382 4290062368
0.0071084723 -0.00013979245 0.013979659 4290324254
0.0091948509 -0.0008835122 0.014537024 4290128669
0.010671817 0.0015010014 0.012466684 4290193949
0.012445047 0.002321424 0.0117107 4291044373
0.014371775 0.0023598876 0.011611716 4291044373
0.016783819 5.2868389e-05 0.013482225 4290390043
0.018882871 -0.00069010444 0.014039307 4289866783
0.020819902 -0.00065115839 0.013939996 4290390299
0.022756733 -0.00061212294 0.013840766 4290521114
0.024520651 0.00020861812 0.013085707 4291175444
0.026103489 0.0018108878 0.011675231 4290979348
0.028387882 0.00028696284 0.012887874 4291044374
0.030321166 0.00032626092 0.012789072 4290716953
0.032988638 -0.0027600317 0.015311752 4290193694
0.035304993 -0.0042830529 0.016522951 4289473573
0.038199157 -0.0081497775 0.019698918 4290061603
0.0026272386 0.0013711322 0.010410863 4289342249
0.0048429146 -0.00015967712 0.011623031 4289931553
0.0069211423 -0.00090583973 0.012179127 4289801504
0.0087028295 -8.3293766e-05 0.01142423 4289932063
0.010171659 0.0023076404 0.0093591055 4290521368
0.012093008 0.0023459159 0.0092603359 4291241234
0.014173217 0.0016001947 0.0098166279 4291044884
0.016582273 -0.00071342941 0.011682449 4291175699
0.018678442 -0.001458656 0.012238052 4289801504
0.02077987 -0.0022036689 0.012793465 4289866783
0.022716589 -0.0021646335 0.012694241 4289866783
0.024307795 -0.0005579032 0.011286512 4290193949
0.026063301 0.00026491657 0.010533549 4290913813
0.02799128 0.00030402467 0.010434959 4290848534
0.030280665 -0.0012240671 0.011644187 4290651928
0.032397203 -0.0019682883 0.012199186 4290520859
0.034518972 -0.0027123694 0.012754017 4289801504
0.036834918 -0.0042396975 0.013962054 4289539619
0.039544925 -0.0073336177 0.016476274 4289080618
0.0045131892 -0.00013228972 0.0091732591 4288228663
0.0064376667 -9.4247982e-05 0.0090741096 4289343269
0.0082111284 0.00073029846 0.0083212368 4290521624
0.0099789649 0.001554843 0.0075687347 4289671199
0.011897475 0.0015930561 0.0074701086 4289343779
0.013974808 0.00084509328 0.00802493 4289343779
0.016380847 -0.0014751256 0.0098860692 4290259738
0.018638574 -0.0030087316 0.011093311 4290390808
0.020739824 -0.0037559285 0.011647118 4289998108
0.022676431 -0.0037168949 0.011547901 4290325274
0.024267651 -0.0021058153 0.010143391 4289671199
0.02602312 -0.0012808051 0.009392051 4289867293
0.027772933 -0.00045577437 0.0086410269 4289736479
0.029878654 -0.001202533 0.0091949366 4289998364
0.031806111 -0.0011632778 0.0090964902 4289932573
0.033360966 0.00044751167 0.0076940972 4289997343
0.035471499 -0.0002988521 0.0082479082 4290127903
0.037970535 -0.0026163016 0.010104945 4290062623
0.040680006 -0.0057188678 0.0126128 4287052348
0.0061025992 -5.8065169e-05 0.0066312756 4289539364
0.0080213398 -2.0039268e-05 0.006532494 4289670434
0.0097864047 0.00080662407 0.0057817437 4291109909
0.011545829 0.0016333079 0.0050313072 4290521369
0.013776504 9.4568357e-05 0.0062366128 4290259483
0.016017862 -0.0014438042 0.0074414089 4291045394
0.018434316 -0.003770249 0.0092972498 4291110674
0.020365581 -0.0037314286 0.0091982279 4289932829
0.022126824 -0.0029042927 0.0084480802 4290194459
0.023709871 -0.0012889607 0.0070471838 4290259738
0.025632404 -0.0012500547 0.0069488036 4290128924
0.027732722 -0.0019991244 0.0075012874 4289867038
0.029838279 -0.0027480549 0.0080536017 4290194459
0.031582229 -0.0019208263 0.0073045921 4290586648
0.032948248 0.00048210565 0.0052552242 4290913559
0.034675479 0.0013091005 0.0045072213 4290978840
0.036971807 -0.00022727996 0.0057098567 4290716443
0.039667383 -0.0033388687 0.0082119526 4290257954
0.042384475 -0.0064499378 0.01071301 4288622128
0.0056197569 0.00077796355 0.0035443043 4288818223
0.0076809302 2.5044195e-05 0.0040965285 4289866784
0.0094404817 0.00085377973 0.0033476765 4290782744
0.011506759 0.00010114163 0.0038997706 4291240724
0.013419412 0.0001393361 0.003801517 4291175443
0.015816726 -0.0021941396 0.0056534195 4291306768
0.017737187 -0.0021556164 0.0055548921 4290587158
0.019824505 -0.0029074652 0.0061061783 4289867549
0.021577537 -0.0020783176 0.0053580627 4290063644
0.023497447 -0.0020395531 0.0052597504 4290063388
0.02576755 -0.0035812673 0.0064601721 4290128668
0.027692512 -0.0035422347 0.0063617248 4290390554
0.029617257 -0.003503134 0.0062633418 4289801504
0.031175107 -0.0018837145 0.004867211 4290521113
0.032721847 -0.00026443042 0.0034717175 4289932063
0.034635141 -0.00022532791 0.0033740939 4289931808
0.036548242 -0.00018617883 0.0032765169 4289800993
0.03884957 -0.0017267466 0.0044757193 4290847258
0.041358553 -0.0040569124 0.0063226866 4289669669
0.04408329 -0.0071764952 0.0088169361 4287052604
0.0092481896 0.00011690892 0.0015690674 4289408038
0.011311583 -0.00063795783 0.0021197021 4290128159
0.013380237 -0.0013926392 0.0026701267 4290128158
0.015615717 -0.0029399064 0.0038688013 4290129179
0.017369069 -0.0021087527 0.0031221502 4290129178
0.018949814 -0.0004849676 0.0017276637 4289998364
0.020858899 -0.00044648908 0.0016298562 4289867549
0.022767812 -0.00040794071 0.0015321115 4289801758
0.025377154 -0.0035392391 0.0040253242 4289474593
0.02729658 -0.0035003265 0.0039271535 4290194204
0.029215805 -0.003461347 0.0038290464 4290193949
0.030768208 -0.0018376745 0.0024364253 4290455578
0.032309532 -0.00021410175 0.0010443898 4290913558
0.034217305 -0.00017513055 0.00094703352 4289866784
0.036124885 -0.00013610255 0.00084973243 4289408549
0.038226426 -0.00088908151 0.0013992421 4289408549
0.040530115 -0.0024339561 0.0025951758 4290258974
0.043044053 -0.0047704792 0.004437034 4289342248
0.045978755 -0.0086905072 0.0075708637 4287968309
0.0089027137 0.00017970521 -0.00085337774 4288687154
0.011116527 -0.0013724826 0.00034301355 4289734948
0.013023518 -0.0013344232 0.00024503376 4289866784
0.015091829 -0.0020911945 0.00079393527 4290325018
0.016836964 -0.0012580389 4.9307942e-05 4290259993
0.018743426 -0.0012197141 -4.8440415e-05 4290259738
0.020480052 -0.00038656499 -0.00079250813 4291241233
0.022555783 -0.0011428576 -0.00024374574 4291372048
0.024987005 -0.0034882817 0.0015970708 4290717464
0.026900895 -0.0034494912 0.0014991767 4289866783
0.028453507 -0.001821504 0.00010966184 4290324763
0.029995061 -0.00019369647 -0.0012791819 4290259484
0.031525545 0.0014339741 -0.0026674671 4291306514
0.033611059 0.00067830831 -0.0021188124 4291044629
0.035510391 0.00071716681 -0.0022156928 4290782999
0.037797756 -0.00083241425 -0.0010222376 4290782999
0.039898984 -0.0015875529 -0.00047430675 4290389789
0.042204984 -0.0031366888 0.00071832049 4289342504
0.045128465 -0.0070678033 0.0038446125 4290193694
0.047873914 -0.010204309 0.0063249674 4289145133
0.012508295 -0.00047007017 -0.0028188282 4289473573
0.014729723 -0.0020263647 -0.0016259064 4289866784
0.016469382 -0.0011911504 -0.0023686462 4290193949
0.018036529 0.00044106878 -0.00375599 4290259484
0.020101421 -0.00031768996 -0.003208335 4291306258
0.021999262 -0.00027939584 -0.0033055353 4291175443
0.024246998 -0.0018347153 -0.0021136312 4291437329
0.025972158 -0.00099938363 -0.0028553251 4290651928
0.02769167 -0.00016404316 -0.0035967133 4289932319
0.029222399 0.0014678733 -0.0049817981 4289866783
0.030927949 0.0023030406 -0.0057223164 4290324763
0.033005171 0.0015450371 -0.0051749181 4290913814
0.035087608 0.0007872209 -0.0046277265 4291175699
0.037563413 -0.0015633618 -0.0027936797 4290194203
0.039661773 -0.0023206957 -0.002247184 4289604643
0.041964866 -0.0038742302 -0.0010576947 4289277989
0.044480853 -0.0062237969 0.00077444548 4288492333
0.0094792098 0.0035673715 -0.0083512124 4287638083
0.011834778 0.0012068702 -0.0065166261 4289081129
0.014045097 -0.00035399105 -0.0053263502 4289539363
0.015937924 -0.00031604897 -0.0054234792 4290521369
0.017663755 0.00052113924 -0.006163843 4289800993
0.019553512 0.00055917166 -0.0062607019 4289801503
0.021615349 -0.00020174868 -0.0057144458 4289801503
0.023507461 -0.00016350765 -0.0058113057 4290390554
0.025577128 -0.00092412345 -0.0052653411 4289867038
0.027291179 -8.67825e-05 -0.0060048122 4289997854
0.028999619 0.00075052027 -0.0067439415 4289866783
0.030888274 0.00078900065 -0.0068403967 4289997598
0.03277678 0.00082752574 -0.0069368081 4290324764
0.03504765 -0.00073118415 -0.0057490193 4289997343
0.037523203 -0.0030883006 -0.0039197914 4289866784
0.039621443 -0.003847864 -0.0033749389 4289016104
0.042323232 -0.0070028407 -0.00090536778 4287904303
0.044642232 -0.0085603362 0.00028013601 4286857019
0.013683602 -0.00026689563 -0.0077298237 4287246659
0.015406832 0.00057232007 -0.0084685152 4289801504
0.017124444 0.0014114967 -0.0092068641 4291044373
0.019005939 0.0014493596 -0.0093033025 4290128413
0.021231674 -0.00011517294 -0.0081168367 4289866529
0.023118265 -7.7027828e-05 -0.0082134027 4290193948
0.025182337 -0.0008400185 -0.0076687513 4290913559
0.027251653 -0.0016027726 -0.0071243467 4289866784
0.029326208 -0.0023653382 -0.0065801493 4289997599
0.03122022 -0.0023267525 -0.0066768797 4290193694
0.032925554 -0.0014872048 -0.0074141417 4289866274
0.035198957 -0.0030502784 -0.0062297508 4288754474
0.037676983 -0.0054138922 -0.0044054957 4288885798
0.040171146 -0.007777127 -0.0025820271 4287903794
0.042681366 -0.010139912 -0.00075936434 4286921788
0.044803537 -0.010901069 -0.0002172729 4286856253
0.012999788 0.0014363267 -0.011407413 4288096828
0.01504007 0.00067030825 -0.010863503 4288884778
0.017085649 -9.5495954e-05 -0.010319786 4289866784
0.01862818 0.0015492886 -0.011696126 4290979860
0.020676121 0.00078369118 -0.011152411 4291175699
0.022729315 1.8271618e-05 -0.010608913 4290979349
0.02532056 -0.0031569218 -0.0081469957 4290194204
0.027392432 -0.0039217998 -0.0076043317 4289605409
0.029652625 -0.0054897652 -0.0064226124 4289605154
0.031551979 -0.0054511093 -0.006519645 4288819753
0.033451177 -0.0054123844 -0.0066166157 4288165934
0.035541363 -0.0061766175 -0.0060746865 4287642673
0.038218468 -0.0093496591 -0.0036168557 4288165678
0.040523894 -0.010916317 -0.0024372358 4289408039
0.042839997 -0.01248268 -0.0012581022 4286790718
0.044560686 -0.011640372 -0.001994337 4286594114
0.01671356 9.0822577e-06 -0.012709543 4288099124
0.018589407 4.6811998e-05 -0.012805708 4289344289
0.020637199 -0.00072100386 -0.012263624 4289802523
0.022690244 -0.0014886074 -0.011721732 4289801759
0.025281191 -0.0046725264 -0.0092662536 4289408548
0.027352899 -0.0054396107 -0.0087252129 4288754473
0.029795833 -0.007817327 -0.0069090761 4287381299
0.031697825 -0.007778625 -0.0070062485 4286923064
0.033788063 -0.0085451324 -0.0064660069 4286923064
0.036265798 -0.010921928 -0.0046514892 4286922809
0.038759612 -0.013298297 -0.0028377953 4287249463
0.040876471 -0.014064064 -0.0022987647 4288753198
0.042600028 -0.013219584 -0.0030335817 4286725184
0.018550672 -0.0014554728 -0.013915148 4289147428
0.020426281 -0.0014177132 -0.014011272 4289605918
0.022825964 -0.0038029915 -0.012197946 4289212709
0.025241822 -0.0061879503 -0.010385379 4288231469
0.027493596 -0.0077648563 -0.0092097959 4287446579
0.029756077 -0.0093414905 -0.0080346446 4286988343
0.031843618 -0.01011031 -0.0074959341 4287053879
0.034313127 -0.012493897 -0.0056859008 4286988088
0.036607668 -0.014069659 -0.0045122989 4287053369
0.039106697 -0.016452514 -0.0027036751 4287118648
0.040835865 -0.015605791 -0.0034372776 4288295474
0.042360201 -0.013951958 -0.0048057167 4287182908
0.018511966 -0.0029576016 -0.015024475 4287968309
0.020903423 -0.0053496845 -0.013215641 4288754983
0.02313631 -0.0069315331 -0.012042393 4289540638
0.025379904 -0.0085130502 -0.010869681 4287512114
0.027634211 -0.010094308 -0.0096974103 4287119414
0.029899217 -0.011675246 -0.0085256873 4287053624
0.032174893 -0.01325589 -0.0073544523 4287053113
0.034461282 -0.014836285 -0.0061836662 4287118394
0.03656736 -0.015606805 -0.0056474404 4287053368
0.038484976 -0.015567673 -0.005745329 4287053113
0.040402427 -0.015528461 -0.0058431467 4288491823
0.021380261 -0.0092946226 -0.012429514 4286791229
0.02362109 -0.010880644 -0.011259953 4287511348
0.025695287 -0.011654393 -0.010723935 4287249718
0.027774729 -0.012427919 -0.010188174 4286857274
0.030042253 -0.014013185 -0.00901982 4287053368
0.032320462 -0.015598217 -0.0078519247 4286987579
0.034421161 -0.016371105 -0.0073170969 4287314744
0.03614521 -0.015520364 -0.0080473125 4287249463
0.037863649 -0.014669638 -0.0087772422 4286464573
0.021513052 -0.011623792 -0.012916477 4286725184
0.023756415 -0.01321419 -0.011750249 4286922044
0.026010476 -0.014804233 -0.01058454 4288296494
0.027915187 -0.014765735 -0.010682044 4287380533
0.029819749 -0.014727155 -0.010779478 4287249719
0.032095045 -0.016316574 -0.0096147135 4287707189
0.033628374 -0.014649836 -0.010974194 4287314488
0.019241527 -0.011545676 -0.015200171 4286202179
0.021645769 -0.013957168 -0.013406551 4286791484
0.023717113 -0.014735447 -0.012873696 4287118394
0.025970988 -0.016329901 -0.011711241 4287249209
0.027875595 -0.016291417 -0.011808748 4288230449
0.029597394 -0.015436618 -0.012535811 4287380023
0.021434911 -0.014657434 -0.015156834 4287053624
0.023503371 -0.015437932 -0.014625507 4287118649
0.025399938 -0.015399744 -0.014722702 4287380278
0.027296335 -0.015361452 -0.014819808 4286922553
-0.017900005 0.0010877969 0.036477242 4282732904
-0.016257409 0.0034149615 0.03435342 4281289348
-0.014167227 0.0026894426 0.034924008 4281484423
-0.022008184 0.00019065756 0.034838967 4282928998
-0.020675041 0.0048207482 0.030702591 4280765579
-0.015133217 0.0072285281 0.0283805 4281221774
-0.024639416 0.0031745648 0.029746324 4282207094
-0.022990983 0.0055146087 0.027631653 4279324318
-0.013335053 0.0064677028 0.026452491 4280371859
-0.010897808 0.0034355922 0.029030506 4280565658
-0.03056727 0.0014925795 0.028893441 4282602343
-0.028990734 0.0046092672 0.026112514 4279062433
-0.027237121 0.0061857132 0.024671623 4278800294
-0.025392279 0.0069921417 0.023900619 4278733738
-0.021719314 0.0086051105 0.022359721 4279127204
-0.020112008 0.010951168 0.020252218 4279389598
-0.018181775 0.010987838 0.020151673 4278470833
-0.016135801 0.01025492 0.020719783 4279191464
-0.013965931 0.0087526562 0.021956036 4279322534
-0.011663985 0.0064811176 0.023860091 4280829074
-0.0332978 0.0060629901 0.022489853 4280633743
-0.03163803 0.0084158117 0.020383963 4279125674
-0.029801287 0.0092240898 0.019614784 4278931109
-0.027671732 0.0077158464 0.020849355 4278734759
-0.025735728 0.0077521624 0.020748163 4278733993
-0.020369809 0.010949641 0.017776361 4279059629
-0.018445175 0.010986212 0.017676111 4278274229
-0.014359225 0.0095161414 0.018809441 4278798253
-0.012187008 0.0080096303 0.02004247 4279258274
-0.0096320882 0.0041884072 0.023274485 4281025678
-0.038661107 -0.00024623796 0.025649996 4282470254
-0.037045963 0.0028881254 0.022879597 4279585949
-0.035541207 0.00679678 0.019443745 4278470579
-0.032144014 0.0107407 0.015908806 4278662339
-0.028105937 0.0092637176 0.017040186 4278799528
-0.026078861 0.0085255345 0.017605573 4278472363
-0.024151295 0.0085618226 0.017504921 4278472363
-0.018708371 0.010993612 0.015207219 4278400199
-0.014752187 0.010292939 0.015672758 4278471853
-0.012830816 0.010329801 0.015572942 4278406063
-0.010537788 0.0080451807 0.01746783 4278733738
-0.0081019029 0.0049871244 0.020026732 4281155728
-0.040896088 0.00048184022 0.022599027 4280700809
-0.039444078 0.0051785195 0.018504076 4278865319
-0.037853427 0.0083211875 0.015741441 4278602669
-0.036107797 0.0099101393 0.014310266 4278995879
-0.03428198 0.010722282 0.013544749 4279257509
-0.032273907 0.0099812159 0.014109257 4279517864
-0.028241679 0.0084997108 0.015237751 4278668203
-0.026319608 0.008535794 0.015137312 4278734249
-0.024397645 0.0085719852 0.015036958 4278669224
-0.022690844 0.01016106 0.01360844 4278668714
-0.020774551 0.010197363 0.013508548 4278995624
-0.018858392 0.010233798 0.013408759 4279257509
-0.016710922 0.0087178824 0.014636462 4278864808
-0.014789559 0.0087546473 0.014536575 4278735014
-0.012989484 0.0095676342 0.013773385 4278865063
-0.011071112 0.0096045518 0.013673807 4279257508
-0.008773081 0.0073136101 0.015563685 4280109463
-0.0064588487 0.0050230334 0.017452838 4281876614
-0.041172497 0.0012591723 0.019454954 4280045714
-0.039728519 0.0059687803 0.015370104 4278996643
-0.036320213 0.0099342419 0.011850376 4278338488
-0.034499951 0.010748467 0.011086768 4279847579
-0.03249754 0.010005134 0.011649974 4279716509
-0.030586336 0.010040763 0.011549917 4278338998
-0.026764199 0.010112363 0.011350074 4278734249
-0.024748541 0.0093697635 0.011912947 4278602923
-0.022835009 0.0094059119 0.011813121 4278603179
-0.020921592 0.0094421776 0.01171339 4278668458
-0.019008294 0.0094785625 0.011613754 4278799528
-0.016979463 0.0087366858 0.012176289 4278733994
-0.015182067 0.009551662 0.01141475 4278799783
-0.0093171783 0.0088839764 0.011778441 4278270403
-0.0071434155 0.0073647825 0.013001979 4279255214
-0.041288279 0.00048736017 0.017645419 4280504458
-0.039846886 0.0052100141 0.013570399 4278996898
-0.038267054 0.0083699347 0.010821248 4278996644
-0.028711364 0.0085474504 0.010320522 4278471598
-0.026800498 0.008583338 0.010220678 4278603434
-0.024889726 0.0086193057 0.010120901 4278537644
-0.02297907 0.0086554056 0.010021228 4278537644
-0.020958375 0.0079109641 0.010582405 4278537644
-0.019158095 0.0087279668 0.0098221749 4278668459
-0.017132189 0.0079838457 0.010383244 4278733738
-0.01545592 0.0095814904 0.0089631621 4278340018
-0.011765175 0.010435245 0.0081050787 4279254193
-0.0075690076 0.0081679979 0.0098869326 4278533309
-0.0051290207 0.0050841067 0.012426436 4280437394
-0.002802074 0.0027809246 0.014305419 4283316089
-0.041083522 -0.0034135217 0.018482156 4280569993
-0.039633811 0.0013224082 0.014416338 4279062688
-0.038045749 0.0044911578 0.011673252 4278997408
-0.036479574 0.0076596616 0.0089313649 4278537643
-0.034753263 0.0092614675 0.0075109769 4278534073
-0.032850448 0.0092968279 0.0074112779 4279058098
-0.030851252 0.008549138 0.0079715457 4279451819
-0.029045083 0.0093678972 0.0072121508 4279061924
-0.027040619 0.0086205611 0.007772333 4278407083
-0.025135454 0.0086564319 0.0076728547 4278734759
-0.023123026 0.0079095336 0.0082327612 4278734759
-0.021215349 0.0079456894 0.0081333257 4278800039
-0.019307796 0.0079819718 0.0080339946 4278668714
-0.017515887 0.0088011315 0.007275912 4278799273
-0.013827831 0.0096568493 0.0064193849 4279190954
-0.012049951 0.010476059 0.0056622699 4280305814
-0.010151211 0.01051274 0.0055638161 4279388834
-0.0081234425 0.0097670434 0.0061235977 4278994603
-0.0060903654 0.009021516 0.0066832248 4278797998
-0.0035135448 0.0051466525 0.0098740859 4279323043
-0.042601876 -0.0097198309 0.021390038 4282863719
-0.040959127 -0.0065415734 0.018650301 4280898179
-0.039421033 -0.0025780331 0.015252869 4280242573
-0.03782475 0.00059962738 0.012515765 4279259294
-0.036338583 0.0045624366 0.0091212261 4278800548
-0.034788799 0.0077394852 0.0063867448 4278472619
-0.03297982 0.0085601872 0.0056286771 4278603944
-0.03107997 0.0085956184 0.0055292239 4278603688
-0.029180214 0.008631167 0.0054298649 4278669224
-0.027280543 0.0086668218 0.0053305905 4278603434
-0.025485564 0.0094877435 0.0045736106 4278992819
-0.023481511 0.0087384963 0.0051323315 4279647913
-0.021362063 0.0072043827 0.0063484199 4278930344
-0.019570146 0.0080256583 0.0055918302 4278537644
-0.017899279 0.0096318098 0.0041784029 4278602669
-0.014348745 0.011274223 0.0026673994 4278268874
-0.012458172 0.011310627 0.0025692827 4278532034
-0.0065236203 0.0098512517 0.0035883135 4279125929
-0.004359059 0.0083190789 0.0048027784 4278930343
-0.0020464659 0.0060026487 0.0066729039 4279519904
-0.042792294 -0.0097138407 0.018915286 4282470508
-0.040994942 -0.008102526 0.01749724 4281028484
-0.039291281 -0.0057035713 0.015422595 4280308108
-0.037689507 -0.0025170948 0.012691652 4279259294
-0.036197789 0.0014567263 0.0093048969 4278603434
-0.034733411 0.0054301731 0.0059196753 4278276014
-0.033109091 0.0078281937 0.0038495099 4278668968
-0.031404845 0.0094385454 0.002436911 4278406828
-0.029513411 0.0094739245 0.0023379766 4278406318
-0.025730822 0.0095450738 0.0021404151 4278268618
-0.023732413 0.0087934872 0.0026978508 4278268109
-0.019945007 0.0088654244 0.0025005566 4278930344
-0.018397782 0.011262932 0.00043511181 4278602923
-0.016630717 0.012086096 -0.00031836028 4278602669
-0.012495246 0.0097976411 0.0014518083 4278531269
-0.0087147839 0.0098707872 0.0012558673 4278601139
-0.0069565438 0.010694324 0.00050325389 4278602413
-0.0048003867 0.009157584 0.0017149698 4278668714
-0.0029079318 0.0091945725 0.0016171613 4278930343
-0.00031589717 0.0052984376 0.0047912691 4280371349
-0.042982515 -0.0096988259 0.016447127 4281815668
-0.041190669 -0.008083296 0.015032641 4280569993
-0.0393271 -0.0072577312 0.014274561 4279849363
-0.037639871 -0.0048523941 0.012205651 4278931619
-0.0360572 -0.0016574096 0.0094822701 4280045968
-0.034678131 0.0031167874 0.0054495214 4279193758
-0.033144668 0.0063110879 0.0027288876 4278997154
-0.031536784 0.0087154666 0.00066451868 4278735014
-0.027759749 0.0087862415 0.00046704756 4278668458
-0.025975864 0.009611317 -0.00028612139 4278669224
-0.020319544 0.0097185643 -0.00058091385 4278995368
-0.018549711 0.010543839 -0.0013330075 4278668714
-0.016785447 0.01136911 -0.0020847346 4278603433
-0.014785089 0.010616013 -0.0015286206 4278407339
-0.010768421 0.0091104684 -0.00041696569 4278471853
-0.0088811144 0.0091470433 -0.00051474152 4278733994
-0.0069939531 0.0091837374 -0.00061241956 4278472108
-0.0052413866 0.010009439 -0.0013630543 4278799273
-0.0033572465 0.010046271 -0.0014604306 4279322534
-0.00091365725 0.0069278916 0.0010533107 4280633233
0.0015515387 0.0038100481 0.0035660162 4281484424
-0.043249708 -0.0088826865 0.013331243 4282798438
-0.041386195 -0.0080550425 0.012574633 4280242063
-0.039528184 -0.0072273966 0.011818462 4279324829
-0.03767569 -0.0063997265 0.011062671 4279194015
-0.035916805 -0.0047800061 0.0096533922 4280111248
-0.03453213 7.3583797e-06 0.0056300201 4280242573
-0.033086702 0.0040023709 0.0022620142 4278801059
-0.031572349 0.0072051408 -0.00045108492 4278800039
-0.026011828 0.0081031891 -0.0014000718 4279062179
-0.024340741 0.0097220773 -0.0028040847 4279258528
-0.020581152 0.0097934799 -0.0029999362 4278340273
-0.01893219 0.011412327 -0.00440259 4278602923
-0.016822014 0.0098653184 -0.0031954343 4278996389
-0.014942627 0.0099014202 -0.0032930369 4278996644
-0.012939863 0.0091462927 -0.0027385848 4279193248
-0.01105801 0.0091826646 -0.0028361501 4278734249
-0.0091762915 0.0092191314 -0.0029336363 4278733738
-0.0072947033 0.0092557026 -0.0030310368 4278602668
-0.0015109926 0.0085750343 -0.002671585 4278597314
0.00080041587 0.0062391916 -0.00081575243 4279910053
0.0032732785 0.0031128814 0.0016901807 4281877123
-0.041581508 -0.0080178473 0.010123303 4281619064
-0.039729062 -0.0071881432 0.0093690231 4279718294
-0.03779681 -0.0071526123 0.0092675015 4279914898
-0.035952672 -0.006322742 0.0085138204 4280045968
-0.034386329 -0.0031105676 0.0058043171 4280111503
-0.032841865 0.00010137726 0.0030960178 4279325084
-0.031415489 0.0041070292 -0.00026285253 4278866849
-0.029620711 0.004936466 -0.0010135899 4278407848
-0.022606868 0.0090479767 -0.004663724 4278270658
-0.020617433 0.0082899211 -0.004110483 4278602924
-0.018968504 0.00991314 -0.005509899 4278537899
-0.016976587 0.0091554141 -0.0049566519 4278733993
-0.015100058 0.0091914413 -0.0050541195 4278537644
-0.013100203 0.0084340582 -0.0045010699 4278603179
-0.011347391 0.0092638368 -0.005248778 4278537644
-0.0094712488 0.0093001937 -0.0053459769 4278471853
-0.0075952373 0.0093366662 -0.0054430799 4278536114
0.0026540011 0.0047619743 -0.0020318178 4280240534
0.0049892887 0.0024203211 -0.00018194132 4281549193
-0.041696809 -0.0087681869 0.0083296327 4282274669
-0.039929729 -0.0071398662 0.0069261761 4280178314
-0.037917834 -0.0079008117 0.0074757189 4280569483
-0.035988536 -0.0078652129 0.0073744422 4280242574
-0.03424073 -0.0062369062 0.0059723249 4280045968
-0.032690763 -0.0030161673 0.0032701709 4279980688
-0.031258829 0.0010004826 -8.0925645e-05 4279391384
-0.029755358 0.0042206096 -0.002780457 4278931364
-0.028172143 0.0066443095 -0.0048288181 4279323299
-0.026501048 0.0082718367 -0.006226514 4278536113
-0.02473389 0.009103219 -0.0069739083 4278536114
-0.022862501 0.0091387248 -0.0070714224 4279191974
-0.020878714 0.0083784377 -0.0065195342 4278668714
-0.019235265 0.010005836 -0.0079154177 4278800039
-0.017248984 0.0092458325 -0.0073634852 4278734504
-0.015378043 0.0092817629 -0.0074606556 4278603433
-0.013383824 0.008522111 -0.0069089867 4278538154
-0.011636537 0.0093539273 -0.007654747 4278538154
-0.0058909655 0.0086675221 -0.0072970185 4278994858
-0.0042921156 0.010294919 -0.0086899539 4279455388
-0.0022851005 0.009536176 -0.0081384592 4279258274
-0.00027279556 0.0087776342 -0.0075871665 4279060904
0.0020351708 0.0064287456 -0.0057407618 4278864044
0.00435929 0.0040803319 -0.0038951496 4279585184
0.0068501979 0.00093713589 -0.0014029094 4280892569
-0.039965227 -0.0086799106 0.0057885712 4281881713
-0.037953533 -0.0094430633 0.0063364925 4280831878
-0.036024392 -0.0094074551 0.0062352335 4280897158
-0.034276638 -0.007774814 0.0048363283 4280569228
-0.032539848 -0.0061422326 0.0034381051 4280177038
-0.031102367 -0.0021145972 9.4773248e-05 4280112014
-0.02979105 0.0027110251 -0.0038955035 4279914643
-0.028410945 0.0067378329 -0.0072356509 4279062179
-0.026745331 0.0083695399 -0.0086298138 4278734249
-0.024876714 0.0084048761 -0.0087272692 4278667948
-0.02300819 0.008440285 -0.008824667 4278733483
-0.02125223 0.0092738802 -0.009569684 4278471598
-0.015535187 0.0085830959 -0.0092133097 4278857924
-0.013667226 0.0086190691 -0.0093102511 4278798764
-0.011799384 0.0086551486 -0.0094071068 4278865318
-0.0098028965 0.0078935856 -0.0088570025 4278603434
-0.0046032853 0.010395714 -0.011086616 4278859453
-0.0026018843 0.0096346335 -0.010536406 4278925243
0.00170701 0.0065182941 -0.0081446236 4278535858
0.0037297532 0.0057579102 -0.0075953091 4278930344
0.0060588717 0.0034031523 -0.0057547251 4279389598
0.0082508698 0.0018460052 -0.0045604864 4281089939
-0.038244694 -0.008582809 0.0032548483 4281946994
-0.036323883 -0.0085473703 0.0031540145 4280635274
-0.034493748 -0.0077111572 0.0024060283 4280503694
-0.032575805 -0.0076755178 0.0023055335 4280373644
-0.031042159 -0.0044375397 -0.00038278033 4280373899
-0.029727958 0.00040118862 -0.0043635457 4280242064
-0.028345022 0.0044389358 -0.0076957829 4279257763
-0.026780955 0.0068754526 -0.009733391 4278865063
-0.025019426 0.0077110874 -0.010477268 4278667948
-0.023153771 0.0077464702 -0.010574494 4278996134
-0.021513015 0.0093824593 -0.011963918 4278537134
-0.01208815 0.0087609841 -0.011801518 4279191973
-0.010097276 0.0079970853 -0.0112527 4278603434
-0.0081010908 0.0072334548 -0.010704104 4278668969
-0.004777316 0.0097056543 -0.012831784 4278268618
-0.00091738999 0.0089789303 -0.012379159 4278273208
0.0012340471 0.0074163424 -0.011186266 4278799529
0.0032484308 0.0066536563 -0.010638177 4278471853
0.0054185912 0.0050916728 -0.0094461506 4278799783
0.0072930306 0.0051288977 -0.0095425947 4279389598
-0.036535241 -0.0084767854 0.00072838762 4281160318
-0.034710653 -0.0076385131 -1.7707003e-05 4280767109
-0.032798309 -0.0076029594 -0.00011789519 4280504203
-0.031174045 -0.0051591694 -0.0021541025 4280373389
-0.029566228 -0.0027154759 -0.0041893683 4280307599
-0.028177731 0.0013332469 -0.0075138509 4278735524
-0.026608214 0.0037764367 -0.009546956 4279193249
-0.024948224 0.0054168589 -0.010934294 4279061159
-0.02329924 0.0070572691 -0.012320989 4279126949
-0.020034239 0.010337704 -0.01509241 4278601393
-0.018064853 0.0095707653 -0.014544415 4279190954
-0.015969634 0.0080018463 -0.013352562 4278734248
-0.012376674 0.0088757025 -0.0141893 4278799274
-0.010520115 0.0089116571 -0.014285502 4278734504
-0.008532282 0.0081456667 -0.013738103 4278603434
-0.0068073943 0.0089838905 -0.014477637 4278602923
-0.0049512386 0.0090201488 -0.014573587 4278734504
-0.003095217 0.0090565002 -0.014669459 4278406573
-0.0010970458 0.0082911206 -0.014122291 4278734249
0.00076140463 0.0083277309 -0.014218133 4278668714
0.0027674586 0.0075626811 -0.01367124 4278799273
0.0043274313 0.0092028724 -0.015052134 4278535859
0.0063358918 0.0084380703 -0.014505221 4279911839
0.0085055232 0.0068718465 -0.013316221 4280960908
0.011320323 0.0020998921 -0.0095592458 4282986628
-0.035017844 -0.0067519573 -0.003078823 4281357434
-0.032927364 -0.0083264913 -0.0018908135 4280308364
-0.03101797 -0.0082908943 -0.0019907739 4279652758
-0.029207341 -0.0074503389 -0.002734256 4279062688
-0.027807839 -0.0033905227 -0.0060512554 4279390619
-0.026227415 -0.00094060041 -0.0080800978 4279260823
-0.024877124 0.0031185085 -0.011394366 4278996898
-0.023335014 0.0055679381 -0.013421038 4278996644
-0.020185094 0.0096616084 -0.016828772 4278667693
-0.018218629 0.0088924868 -0.016282277 4280175254
-0.016487759 0.0097324597 -0.017020913 4279389598
-0.014516082 0.0089636697 -0.016474517 4279191974
-0.012790877 0.0098037338 -0.017212711 4278732973
-0.010814004 0.0090352511 -0.016666433 4278668714
-0.0089631341 0.0090711759 -0.016762279 4278602923
-0.0071124136 0.00910722 -0.016858028 4278602923
-0.0052618235 0.0091433553 -0.016953699 4278668458
-0.0034113675 0.0091795968 -0.017049285 4278733994
-0.0015610531 0.0092159202 -0.017144801 4278602413
0.00043407828 0.0084483558 -0.016598973 4278274994
0.002286844 0.0084849251 -0.016694468 4278339509
0.0078441873 0.0085951788 -0.016980486 4279187383
0.010647662 0.0038099447 -0.013232591 4280959889
-0.033056315 -0.0090454221 -0.0036603324 4279653013
-0.030957997 -0.010624059 -0.0024758787 4279063198
-0.029243357 -0.0089742579 -0.0038598904 4279521944
-0.027641047 -0.0065175202 -0.0058851358 4279718549
-0.026055168 -0.0040609748 -0.0079094367 4279719059
-0.024592511 -0.00079779141 -0.010574322 4278604453
-0.02337078 0.0040788334 -0.014520919 4279390108
-0.018607654 0.0098320516 -0.019298742 4278532289
-0.016885027 0.010674012 -0.020035362 4278270659
-0.013078898 0.0099384515 -0.019585723 4278602923
-0.011236206 0.0099741025 -0.01968123 4278602923
-0.0093936436 0.010009882 -0.019776635 4278602923
-0.0075512119 0.010045766 -0.019871954 4278603179
-0.0055721737 0.0092754429 -0.01932718 4278603179
-0.0035878271 0.0085053043 -0.018782619 4278733739
-0.0017403439 0.0085415663 -0.018877992 4278733483
-3.7908554e-05 0.0093840705 -0.019612873 4278405298
0.0056481287 0.0086875549 -0.019258691 4278401728
0.0099754706 0.0055375667 -0.016892962 4279781533
0.012316443 0.003157177 -0.015072059 4280306069
-0.0333714 -0.0081411451 -0.0067078825 4282209134
-0.031281497 -0.0097243255 -0.0055261608 4281094018
-0.029476512 -0.0088794855 -0.006266172 4280176785
-0.027474452 -0.0096530253 -0.0057252273 4279783828
-0.025883116 -0.0071898559 -0.0077449856 4279980434
-0.024308212 -0.0047268905 -0.0097638089 4279718293
-0.02329706 0.0017808881 -0.014980789 4279259039
-0.02188082 0.0050521456 -0.017636701 4279128733
-0.01495776 0.0084291557 -0.020578625 4278668204
-0.013240878 0.0092733977 -0.021313176 4278603434
-0.011401046 0.0093089985 -0.021408534 4278537643
-0.0098238215 0.010961927 -0.022781216 4278603433
-0.0078557096 0.010189096 -0.022237573 4278734759
-0.0060189702 0.01022493 -0.022332553 4278669224
-0.0036247447 0.007027165 -0.019874306 4278603433
-0.0019195154 0.0078717796 -0.020607812 4278471853
-0.00021985918 0.0087163663 -0.02134097 4278272188
0.0014742166 0.0095609529 -0.022073757 4279715488
0.0034632608 0.0087891249 -0.021530759 4279520668
0.0054576248 0.0080174869 -0.020987971 4279061414
0.0093037486 0.0072828075 -0.020540323 4279257764
0.011633575 0.0048956452 -0.018723696 4279061923
0.014143445 0.0017009731 -0.016270813 4278470068
-0.044796627 -0.0098677333 -0.007230117 4282602343
-0.031700492 -0.0079998607 -0.0092056179 4281291643
-0.02970944 -0.0087758573 -0.0086658383 4280438413
-0.027713031 -0.0095516285 -0.0081262458 4279979923
-0.025919188 -0.0087046353 -0.0088638514 4279980434
-0.024344273 -0.0062351534 -0.010877852 4279849363
-0.023114022 -0.0013323361 -0.01480555 4280045203
-0.021804404 0.0027588457 -0.018093385 4278865829
-0.020522099 0.0068496345 -0.021379707 4278800038
-0.018796805 0.0076958826 -0.022113331 4278800804
-0.017077066 0.0085421866 -0.022846619 4278668968
-0.01523985 0.0085775247 -0.022941995 4278537643
-0.013402753 0.008612969 -0.023037286 4278800039
-0.01169423 0.0094593046 -0.023769734 4278471853
-0.0060555376 0.008755709 -0.023417663 4278865318
-0.0039403439 0.0071703838 -0.022239201 4278734503
-0.0020985529 0.007206521 -0.022334291 4278537899
0.0029753074 0.0097466363 -0.02452747 4278272698
0.005114302 0.0081622442 -0.02334989 4278928814
0.010790072 0.0074618841 -0.022997877 4279192994
0.013449848 0.0034481054 -0.019915326 4279062179
-0.030040633 -0.0078497017 -0.011696129 4281553784
-0.028153777 -0.0078143198 -0.011794758 4281029504
-0.026267007 -0.0077788308 -0.011893302 4280308363
-0.024380319 -0.007743224 -0.011991754 4279849874
-0.022931177 -0.0044540567 -0.014636586 4279850128
-0.021503899 -0.0011652485 -0.017280165 4279128479
-0.020328112 0.003749839 -0.021195251 4278406828
-0.018832512 0.0062247599 -0.023199905 4278866338
-0.0172331 0.0078863529 -0.024567641 4278668714
-0.015275765 0.0071085421 -0.024026973 4278799784
-0.013438795 0.0071439603 -0.024122275 4278537644
-0.010027457 0.008840966 -0.025583586 4278332624
-0.0080624297 0.0080636991 -0.025043026 4278332624
-0.0042557195 0.0073225545 -0.024597557 4278864044
-0.0024194792 0.0073585575 -0.024692377 4278931109
-0.00072810799 0.0082073258 -0.025421889 4278668713
0.0047712103 0.0083159646 -0.025705265 4278531524
0.0084367245 0.0083888089 -0.025893826 4278800038
0.010591358 0.0068006432 -0.024720078 4278865319
0.013084263 0.0035882201 -0.022279285 4279454879
0.015931763 -0.0012482433 -0.018572148 4281681539
-0.028391805 -0.0076908115 -0.014179372 4280701828
-0.026510622 -0.0076554329 -0.014277629 4280178059
-0.024522938 -0.0084355017 -0.013740639 4279587733
-0.022748522 -0.0075843213 -0.01447386 4279194015
-0.021315739 -0.004286672 -0.017111333 4278996389
-0.020134326 0.00064152293 -0.021017017 4279454879
-0.018985678 0.0055692382 -0.024920961 4278865828
-0.017509207 0.0080503868 -0.026919736 4278603179
-0.015680414 0.0080855554 -0.027014684 4278472364
-0.013726089 0.0073055839 -0.026475416 4278406063
-0.0118948 0.0073409872 -0.026570354 4278667948
-0.010063622 0.0073764836 -0.026665214 4278863534
-0.0080987662 0.0065970207 -0.026126267 4278731699
-0.0045708343 0.0074835466 -0.026949326 4278994859
-0.0027401596 0.0075194286 -0.027043866 4278668714
-0.00090960413 0.0075553944 -0.027138339 4278537899
0.00077342242 0.0084062414 -0.02786576 4278735014
0.0026009679 0.0084423339 -0.027959941 4279061413
0.0047340691 0.0068491539 -0.026788553 4279323553
0.0067223459 0.0060708793 -0.026250277 4279388833
0.0087159202 0.0052927835 -0.025712144 4278996389
0.010714784 0.0045148749 -0.025174296 4278276014
0.013373807 0.00047928188 -0.022107845 4278801059
0.016226307 -0.0043701022 -0.018410677 4280045969
-0.028528523 -0.0083762659 -0.015923599 4282406249
-0.026546393 -0.0091587435 -0.015388025 4280113288
-0.024452373 -0.010758766 -0.014219116 4279980178
-0.022784565 -0.0090876846 -0.015584278 4279783573
-0.021239735 -0.0065989769 -0.017582057 4279718294
-0.019940719 -0.0024752896 -0.020845132 4279848598
-0.018669028 0.0016479911 -0.024106698 4280176274
-0.01730451 0.0049533434 -0.026733954 4278734249
-0.015593264 0.0058060158 -0.027461892 4278734249
-0.010230795 0.0067294491 -0.028378986 4279192993
-0.0082688332 0.0059477566 -0.027841499 4278931109
-0.0065744892 0.0068006003 -0.028568191 4279126439
-0.0047465302 0.0068363035 -0.028662687 4278601393
-0.0030605868 0.0076892292 -0.029388839 4278865318
-0.0012355968 0.0077250591 -0.029483043 4278864809
0.00058926642 0.0077609969 -0.02957716 4278930344
0.0025640726 0.006980055 -0.029039891 4278668714
0.0050025359 0.0037487345 -0.026609413 4278865828
0.0071515962 0.0021515694 -0.025442028 4278602414
0.0093113706 0.00055472367 -0.02427512 4279914643
0.011481911 -0.0010418985 -0.023108684 4280373644
0.013826832 -0.0034548487 -0.021312144 4280635784
0.016687036 -0.0083171548 -0.017625049 4280963203
-0.026789676 -0.0090218643 -0.017762469 4281752173
-0.024701327 -0.010626419 -0.016596464 4280440964
-0.022929799 -0.0097709643 -0.017326331 4279652758
-0.021275744 -0.0080956202 -0.018687503 4279849363
-0.019747309 -0.0056006573 -0.020679494 4279521689
-0.018470041 -0.0014663795 -0.023933364 4279914388
-0.016979896 0.0010280423 -0.025923222 4279062434
-0.015629008 0.0043419478 -0.028543241 4279453858
-0.01404893 0.0060163932 -0.029900186 4279126948
-0.0050612167 0.0070129363 -0.031002982 4278536369
-0.0032389313 0.0070486115 -0.031097122 4278602668
-0.0014167577 0.0070843687 -0.031191194 4278798763
0.00055255741 0.0063010799 -0.030655375 4278864298
0.0026772097 0.0046988642 -0.029490041 4278668203
0.0074250847 -0.00096159056 -0.025272727 4279323298
0.009906441 -0.0042006294 -0.022850797 4280110483
0.012087628 -0.0058014002 -0.021688135 4280701319
0.014443152 -0.0082206465 -0.019897031 4280832388
0.016814828 -0.010639537 -0.018106658 4281290114
-0.025056496 -0.0096630333 -0.019597612 4281488758
-0.023184076 -0.0096276291 -0.019695271 4280242574
-0.021535479 -0.0079481145 -0.021052919 4279849363
-0.019783273 -0.0070906514 -0.02178002 4280045968
-0.018153924 -0.0054112356 -0.023136545 4280111248
-0.016655605 -0.0029100943 -0.025122043 4280111503
-0.015419215 0.001234428 -0.028365551 4279259294
-0.014084671 0.0045567695 -0.030978248 4278734758
-0.005097501 0.0055554006 -0.032079462 4279062434
-0.0032753274 0.0055910619 -0.032173604 4279127204
-0.0011642277 0.0039839949 -0.031010965 4279127459
0.00081036985 0.0031986311 -0.03047703 4278735779
0.0030902028 0.00077084638 -0.028687168 4279194523
0.005386211 -0.0016564382 -0.026898075 4279718038
0.0076983944 -0.0040834034 -0.025109742 4279585949
0.010026753 -0.0065099522 -0.023322172 4279914389
0.012210444 -0.0081150169 -0.022162925 4280635529
0.014568418 -0.010540796 -0.020376746 4281290624
0.016776294 -0.012145219 -0.019218627 4282926703
-0.036417626 -0.010544735 -0.020744585 4282929254
-0.034640379 -0.0096855266 -0.021472052 4280045204
-0.0234381 -0.0094754603 -0.022057611 4281619319
-0.021794993 -0.0077916714 -0.023411807 4279850384
-0.019819215 -0.0085804528 -0.022880405 4280439179
-0.018189892 -0.0068967012 -0.024233717 4280373389
-0.016571552 -0.0052131061 -0.025586344 4280176783
-0.015332315 -0.0010576807 -0.028821973 4279390109
-0.013994955 0.0022733938 -0.031428386 4279258528
-0.012807611 0.0064280173 -0.034661181 4279062178
-0.010993242 0.0064631263 -0.034755219 4278538153
-0.0091789886 0.0064983247 -0.034849178 4278603178
-0.0070922375 0.0048862062 -0.033688739 4278865319
-0.0051337481 0.0040980317 -0.033155818 4278734504
-0.0028864518 0.0016628383 -0.031369284 4278865829
-0.00091189146 0.0008751601 -0.030837063 4279390874
0.0012151748 -0.0007358538 -0.029678402 4279784849
0.003203094 -0.0015231073 -0.029146748 4279981454
0.0055015311 -0.0039568888 -0.027362626 4280242319
0.007660836 -0.0055670282 -0.026205448 4280373389
0.0099889338 -0.0080001466 -0.024422724 4279848598
0.012333184 -0.010432792 -0.022640791 4280240788
0.014366619 -0.011218718 -0.022111164 4281617023
0.016571574 -0.012827613 -0.020956088 4282926193
-0.021718957 -0.010105507 -0.023883592 4281159554
-0.01985513 -0.010070099 -0.023980677 4280504204
-0.018108632 -0.0092082433 -0.024704225 4280307343
-0.016487595 -0.0075202882 -0.026053803 4280045459
-0.015000187 -0.0050062328 -0.028029021 4279389853
-0.013779953 -0.00084023923 -0.031255569 4278734504
-0.012587026 0.003325358 -0.034480602 4279193503
-0.010898143 0.0041865166 -0.035200782 4278800039
-0.0090812817 0.0042217383 -0.035294898 4278537643
-0.0068557821 0.0017794175 -0.033512268 4278535858
-0.0047530606 0.00016330369 -0.032355774 4278536878
-0.0024978742 -0.0022783042 -0.030574512 4279783574
-0.0003709048 -0.0038937409 -0.029419191 4279718548
0.0016196892 -0.004683211 -0.028889354 4280243339
0.0037654415 -0.006298163 -0.027734842 4280177803
0.0056168064 -0.00626163 -0.027830273 4280373899
0.0076233149 -0.0070505328 -0.027301069 4280504714
0.0094771162 -0.0070137894 -0.027396504 4280307089
0.011812977 -0.0094532277 -0.02561897 4279848854
0.014001548 -0.011066843 -0.024466377 4282077043
-0.021754719 -0.011594983 -0.024983749 4281293938
-0.019891027 -0.011559575 -0.025080826 4280965498
-0.018261753 -0.0098671876 -0.026427742 4279456408
-0.016523585 -0.0090033105 -0.027149167 4279194523
-0.014913548 -0.0073110559 -0.028494909 4279586969
-0.013439808 -0.0047907238 -0.030464504 4279128223
-0.012238573 -0.00061414018 -0.033681955 4279259038
-0.010541603 0.00024936348 -0.034401007 4279324063
-0.0087167062 0.00028472673 -0.034495551 4279520924
