# .PCD v0.7 - Point Cloud Data file format
VERSION 0.7
FIELDS x y z rgba
SIZE 4 4 4 4
TYPE F F F U
COUNT 1 1 1 1
WIDTH 960
HEIGHT 1
VIEWPOINT 0 0 0 1 0 0 0
POINTS 960
DATA ascii
-0.016951565 -0.002332978 0.01067383 4289343013
-0.01489396 -0.0030753026 0.011208083 4289669923
-0.012966644 -0.003031468 0.011088684 4289735459
-0.010901149 -0.003773422 0.011622664 4289408549
-0.0091124102 -0.0029435083 0.010850137 4290782234
-0.0071855187 -0.0028993599 0.010731006 4290454304
-0.0054052547 -0.002069491 0.0099591874 4290127649
-0.003481403 -0.0020251898 0.0098404083 4289277989
-0.0014057979 -0.0027663251 0.010374126 4288690214
0.00021120161 -0.0011508809 0.0089508248 4287775784
-0.02980525 -0.0089058541 0.014290056 4288622638
-0.028432172 -0.004919746 0.010903137 4289473573
-0.026620582 -0.0040882407 0.010130065 4289473829
-0.02469537 -0.0040451437 0.010010284 4289277478
-0.022526458 -0.0055787577 0.011195939 4289277734
-0.020596024 -0.0055353246 0.011075996 4290651674
-0.01879308 -0.0047034621 0.010303798 4289343013
-0.016995694 -0.0038716812 0.009532053 4289604643
-0.014938306 -0.0046161609 0.010064716 4289473828
-0.013011117 -0.0045723412 0.0099453172 4289735459
-0.011084065 -0.0045284163 0.0098260082 4289931554
-0.0094390735 -0.0029084878 0.0084038358 4290847769
-0.0075177699 -0.0028644688 0.0082850493 4290062879
-0.0055966005 -0.0028203567 0.008166343 4290521114
-0.003526479 -0.0035639014 0.0086986981 4289867293
-0.0014510676 -0.0043072142 0.0092308093 4289475614
0.00016593188 -0.0026874067 0.0078107556 4289215004
-0.030181579 -0.0080849119 0.011183495 4288294963
-0.02881651 -0.0040881522 0.0078052096 4289800228
-0.026896782 -0.0040453253 0.0076856604 4290323998
-0.025096279 -0.0032117441 0.0069150086 4288885289
-0.022935808 -0.0047498392 0.0080979196 4289278244
-0.020889126 -0.0054970672 0.0086293826 4289932318
-0.018837124 -0.0062440876 0.009160582 4290520858
-0.016909808 -0.0062004924 0.0090410057 4289997598
-0.014982626 -0.0061567919 0.0089215171 4289604898
-0.013191026 -0.0053227283 0.008151927 4289866784
-0.011405021 -0.0044886852 0.0073827617 4290716954
-0.0099063888 -0.0020743636 0.0053142626 4289539364
-0.0081369951 -0.0012404779 0.0045462912 4289081383
-0.0060805082 -0.0019866154 0.0050777923 4289539873
-0.0037206039 -0.0043124342 0.0069078105 4289540128
-0.0016481131 -0.005057984 0.0074384855 4289671964
-3.3840537e-05 -0.0034338934 0.0060218349 4289280539
-0.030446645 -0.008043604 0.008736941 4289014574
-0.028973252 -0.0048290631 0.006017046 4289473573
-0.027172737 -0.003993378 0.0052478854 4290455068
-0.025496822 -0.0023649707 0.0038295845 4290716954
-0.023344789 -0.0039076069 0.0050097806 4290978840
-0.021057464 -0.0062425965 0.0068386951 4291306259
-0.018881164 -0.0077844495 0.0080175605 4290390043
-0.017083935 -0.0069483193 0.0072490638 4289670434
-0.015424956 -0.0053197173 0.0058322456 4289604898
-0.013506215 -0.0052760737 0.0057133799 4289735713
-0.011725716 -0.0044399826 0.0049461741 4290455068
-0.010232467 -0.0020192703 0.0028828569 4290716953
-0.0083250403 -0.0019755643 0.00276493 4290586138
-0.0061251894 -0.0035161357 0.003942892 4290717208
-0.0039146021 -0.0050563486 0.0051203482 4291240978
-0.0018450245 -0.0058041606 0.0056495704 4289671964
-0.00023346394 -0.0041757738 0.0042363312 4289476379
-0.030711453 -0.0079934197 0.0062970482 4288688938
-0.029129863 -0.0055653439 0.0042322422 4289670688
-0.027448427 -0.0039325655 0.00281676 4289800738
-0.025777981 -0.0022999309 0.0014020363 4289932063
-0.023631658 -0.0038470393 0.0025793547 4289997598
-0.021598995 -0.0045989491 0.00310844 4289605154
-0.019433841 -0.0061454582 0.0042847921 4289604898
-0.017517701 -0.006102121 0.0041659051 4289801249
-0.015734307 -0.0052639497 0.0033999458 4289866529
-0.013550479 -0.006809697 0.0045753918 4290062623
-0.011770051 -0.0059714322 0.0038098102 4289669923
-0.010135986 -0.0043386519 0.0023979908 4290455069
-0.0085129365 -0.0027060919 0.00098695187 4290847768
-0.0064622834 -0.0034567034 0.0015155841 4290913814
-0.0041084737 -0.0057957168 0.0033362587 4290128924
-0.0018901378 -0.0073399781 0.0045100166 4289409568
-0.00043296069 -0.0049130488 0.00245417 4289344799
-0.030754488 -0.0095289061 0.0051575759 4288623149
-0.029172856 -0.0070943017 0.0030976259 4289538599
-0.027491439 -0.0054572057 0.0016853581 4289408294
-0.02593996 -0.0030230191 -0.00037252274 4289343268
-0.024039943 -0.0029803887 -0.0004906652 4289474083
-0.022015642 -0.0037347209 3.7351158e-05 4289408804
-0.019986033 -0.0044887494 0.0005650986 4289604898
-0.017951094 -0.0052425489 0.0010925983 4289735714
-0.015910834 -0.0059961402 0.0016198321 4289931808
-0.01386527 -0.0067494758 0.0021468368 4289997089
-0.012090363 -0.0059091509 0.001383224 4289997089
-0.010180317 -0.0058655222 0.001265035 4289735459
-0.0087007061 -0.003432014 -0.00078760914 4289866783
-0.0066529736 -0.0041848868 -0.00026043062 4289735968
-0.0044510588 -0.0057339747 0.00091102975 4289605408
-0.0022384301 -0.007282766 0.0020819386 4289670944
-0.00047799945 -0.0064421217 0.0013196305 4289540639
-0.031018913 -0.0094651673 0.0027277418 4287771959
-0.029329259 -0.00782362 0.0013180631 4289538853
-0.027766746 -0.0053828396 -0.00073570735 4289473829
-0.025982924 -0.0045409165 -0.0014989091 4291109653
-0.024204653 -0.0036990372 -0.0022616307 4291044629
-0.022307605 -0.003656351 -0.0023794966 4290586394
-0.020283628 -0.0044126976 -0.0018530292 4289604898
-0.01812458 -0.0059679323 -0.00068268925 4289866529
-0.016219724 -0.0059247352 -0.00080079027 4289735714
-0.013909388 -0.0082782786 0.0010124259 4289735714
-0.012134548 -0.0074358019 0.0002504196 4289931808
-0.010224644 -0.0073921531 0.00013225712 4289473829
-0.0088883452 -0.004153342 -0.0025588362 4290717208
-0.0068435073 -0.0049084993 -0.0020330539 4290063134
-0.0047933906 -0.005663367 -0.0015075475 4289539619
-0.0025864542 -0.0072165933 -0.00033956487 4289867038
-0.00067727268 -0.007172469 -0.0004573171 4289539873
0.001074791 -0.0063297888 -0.0012173747 4290587669
0.0026615709 -0.0046887575 -0.0026192479 4290588178
0.0042372942 -0.0030478509 -0.0040204166 4290457619
0.005636856 -0.00060883351 -0.0060627209 4289541148
0.0075234696 -0.00056473911 -0.0061787162 4289606429
0.0092393756 0.00027754344 -0.0069362181 4289671963
0.011469491 -0.0012744451 -0.0057690674 4290066959
0.013358325 -0.0012300424 -0.0058850069 4289217044
-0.031172447 -0.010194114 0.00094815367 4287379514
-0.02959891 -0.0077467067 -0.0011015539 4289408293
-0.027925715 -0.0061010565 -0.0025068801 4289408293
-0.026263505 -0.0044555645 -0.003911383 4291109909
-0.024490748 -0.0036116485 -0.0046721539 4290979094
-0.02247503 -0.0043704771 -0.0041468823 4291109653
-0.020327009 -0.0059303539 -0.002979202 4290717209
-0.018297911 -0.0066887094 -0.0024545598 4289866784
-0.016528346 -0.0058443472 -0.0032148208 4290062623
-0.01449405 -0.0066023432 -0.0026903208 4289670178
-0.012730174 -0.0057579204 -0.0034500884 4289735713
-0.0106907 -0.0065155691 -0.002925738 4290847513
-0.0089325309 -0.0056710504 -0.0036849841 4291174934
-0.0070339218 -0.0056274589 -0.003802299 4291437074
-0.0051354542 -0.005583798 -0.0039195511 4290782999
-0.0029341951 -0.0071415436 -0.0027544093 4289605409
-0.0008764118 -0.0078982227 -0.0022308566 4289997854
0.00087288022 -0.00705346 -0.0029891457 4290063389
0.0026165694 -0.0062087183 -0.0037470092 4290194714
0.0043546408 -0.0053639393 -0.0045044767 4290064153
0.0059220716 -0.0037188539 -0.0059018061 4290194714
0.0076462477 -0.0028742822 -0.0066582575 4290718483
0.0091943145 -0.001229411 -0.0080542928 4290391574
0.011597395 -0.0035859849 -0.0062505743 4289279008
0.01384069 -0.0051418822 -0.0050874469 4290326294
0.015916057 -0.0058973921 -0.0045643351 4289999128
0.017271191 -0.003452383 -0.0065986756 4289999383
0.018978015 -0.00260772 -0.0073536905 4289803289
0.020866044 -0.0025630351 -0.0074693561 4289737244
0.022753872 -0.0025182692 -0.0075849467 4289213473
0.024449281 -0.0016735941 -0.0083391266 4289279519
0.026723921 -0.0032282611 -0.0071774814 4288428329
0.029009238 -0.0047825603 -0.0060164798 4289345564
0.031906351 -0.0087353513 -0.0029416638 4289344798
-0.031547017 -0.0093108322 -0.002112072 4288360754
-0.030094918 -0.0060532764 -0.0047983462 4289539108
-0.028548665 -0.0035997927 -0.0068414537 4289539364
-0.026662584 -0.003557587 -0.0069588115 4289539364
-0.024898075 -0.0027116928 -0.0077174595 4289866784
-0.022642326 -0.0050800089 -0.0059108585 4290848023
-0.020624209 -0.0058408421 -0.005387269 4289997599
-0.018730395 -0.0057980199 -0.0055047781 4289670689
-0.017101422 -0.0041483222 -0.0069036037 4289735969
-0.015078206 -0.0049087629 -0.0063800486 4289997598
-0.013049681 -0.0056689116 -0.0058567706 4290520859
-0.011015847 -0.006428855 -0.005333757 4289932063
-0.0092631839 -0.0055823228 -0.0060909968 4290193948
-0.0073701441 -0.005538872 -0.0062079765 4289867039
-0.0053285509 -0.0062983176 -0.0056852046 4290914069
-0.0032816902 -0.0070575336 -0.0051626787 4290259483
-0.0013836324 -0.0070136543 -0.0052797352 4290194458
0.0003574416 -0.0061669229 -0.0060359114 4290194458
0.0022524744 -0.0061229398 -0.0061526522 4290194458
0.0039850697 -0.0052761948 -0.0069081504 4289736224
0.0057120696 -0.0044294838 -0.0076632309 4290652183
0.0074334666 -0.0035827812 -0.0084179528 4291110163
0.0091492683 -0.0027361484 -0.0091722086 4290979348
0.011378922 -0.0042968523 -0.0080115069 4290848788
0.013443395 -0.0050548501 -0.0074894633 4289736223
0.015334554 -0.0050103255 -0.0076054963 4289540384
0.016862936 -0.0033612391 -0.0089968424 4289670943
0.018748313 -0.0033166809 -0.0091123944 4289605664
0.020633534 -0.0032720901 -0.0092279091 4290194458
0.022708006 -0.0040294835 -0.0087061301 4291372303
0.024403393 -0.003182658 -0.0094587067 4291175953
0.026482925 -0.0039397655 -0.0089371139 4290521113
0.028765321 -0.0054984917 -0.0077791754 4289278499
0.03165932 -0.0094622755 -0.0047122957 4289015338
-0.031921212 -0.0084142471 -0.0051624998 4287510328
-0.030477177 -0.0051481687 -0.0078417938 4289538599
-0.028823078 -0.0034943083 -0.0092394296 4290193694
-0.026942577 -0.0034522433 -0.0093564522 4289081383
-0.025183596 -0.0026043123 -0.010113149 4289146919
-0.022933628 -0.0049792184 -0.0083110705 4289800994
-0.021047998 -0.0049367109 -0.0084281685 4290586393
-0.019162491 -0.004894075 -0.0085451612 4290063134
-0.017409384 -0.0040458003 -0.0093011381 4289932319
-0.015526831 -0.0040030349 -0.0094178012 4289866783
-0.01350667 -0.0047655478 -0.0088956226 4290586394
-0.01176209 -0.0039171772 -0.0096508553 4289408549
-0.0098799206 -0.0038740849 -0.0097672446 4289016359
-0.0079978853 -0.0038309116 -0.009883564 4289081894
-0.005818747 -0.0053979326 -0.0087236557 4290063134
-0.003780216 -0.0061595826 -0.0082022082 4290717719
-0.0018904507 -0.0061159129 -0.008318767 4290194459
-8.1211329e-07 -0.0060721622 -0.0084352568 4289801758
0.0020481423 -0.0068332232 -0.0079142675 4289736479
0.0036157519 -0.005179489 -0.009305249 4290717719
0.0053372756 -0.0043307533 -0.01005839 4289474338
0.0072208494 -0.0042867586 -0.010174219 4289212708
0.0091042444 -0.0042426838 -0.010289975 4290194204
0.011333652 -0.0058077793 -0.009132525 4289867294
0.013397977 -0.0065679443 -0.0086120814 4290259738
0.015289024 -0.0065234466 -0.0087281261 4289605918
0.016998686 -0.0056744679 -0.0094801504 4289802269
0.018518791 -0.0040211799 -0.010867716 4289998109
0.020587832 -0.0047809109 -0.010347323 4290521624
0.02228339 -0.0039320374 -0.011098314 4290259993
0.024357542 -0.0046915179 -0.010578137 4289409313
0.0262421 -0.0046467371 -0.01069346 4290717719
0.028521568 -0.0062099355 -0.0095385443 4290259483
0.031612687 -0.010988596 -0.005844661 4288557614
0.034330264 -0.014158675 -0.003422176 4286595134
-0.032295018 -0.007504418 -0.0082031013 4286987324
-0.030632686 -0.0058461423 -0.0095980987 4289603878
-0.02909724 -0.0033798767 -0.01163084 4290455068
-0.027222324 -0.0033379411 -0.011747518 4290390043
-0.025468864 -0.0024879612 -0.012502255 4291175188
-0.023224656 -0.0048695747 -0.010704639 4291371539
-0.021344606 -0.0048271967 -0.010821394 4290651673
-0.019594189 -0.0039769458 -0.011575689 4289670178
-0.01771709 -0.003934402 -0.011692086 4289670433
-0.015840113 -0.003891754 -0.011808396 4289932319
-0.013825573 -0.0046566082 -0.011287516 4290520859
-0.012226906 -0.0029986138 -0.012677776 4290979094
-0.010496132 -0.0021482604 -0.013430445 4290586393
-0.0084792748 -0.0029127309 -0.012909463 4290782744
-0.0064570904 -0.0036770431 -0.012388708 4290913813
-0.0044296309 -0.0044410769 -0.011868237 4290456344
-0.0023968667 -0.0052048797 -0.011348013 4290259993
-0.00051551312 -0.0051613143 -0.011463986 4290456344
0.0015251189 -0.0059247622 -0.010944117 4289866783
0.0032467321 -0.0050739544 -0.011695725 4291109909
0.0047979131 -0.0034162374 -0.01308237 4290782744
0.0066732168 -0.0033724522 -0.013197702 4290128669
0.0087186545 -0.004135428 -0.012677861 4289867039
0.011115387 -0.0065116948 -0.010888375 4291044883
0.01282537 -0.0056607369 -0.011638952 4290194203
0.014529727 -0.0048098126 -0.012389111 4289932829
0.016228482 -0.0039589582 -0.013138881 4289867293
0.018105507 -0.0039146347 -0.013253949 4290455833
0.019982398 -0.0038702544 -0.013368962 4290652183
0.022048391 -0.0046321778 -0.012849961 4289016614
0.023927644 -0.0045876047 -0.012965018 4288820263
0.025806695 -0.0045429515 -0.01308 4289605408
0.028080501 -0.0061106198 -0.011928041 4289343013
0.031165719 -0.010902544 -0.00824349 4289407528
0.033877529 -0.014081473 -0.0058271363 4286136898
-0.032558054 -0.007391714 -0.0105966 4289014573
-0.031014312 -0.004918878 -0.012625106 4289472809
-0.029255297 -0.0040668333 -0.013378743 4289343013
-0.027264673 -0.0048351418 -0.012858547 4289801503
-0.025390007 -0.0047931271 -0.012975147 4290128669
-0.023391418 -0.0055610891 -0.012455249 4290063134
-0.021514226 -0.0055187708 -0.012571822 4289343014
-0.019766603 -0.0046663675 -0.013324367 4289866274
-0.017760184 -0.0054338425 -0.012804723 4289670434
-0.016153112 -0.0037715351 -0.014192436 4290324509
-0.014281824 -0.0037289346 -0.014308333 4289670434
-0.012691315 -0.0020668302 -0.015694816 4290586393
-0.010682672 -0.0028337687 -0.015175022 4291044884
-0.0089602433 -0.0019813785 -0.015925515 4291044884
-0.0069464296 -0.002747993 -0.015405891 4290586648
-0.0050785094 -0.0027049603 -0.0155212 4289932828
-0.0030567944 -0.003471219 -0.015001932 4290063643
-0.0010298043 -0.0042372476 -0.014482908 4289932829
0.001002498 -0.0050031049 -0.013964102 4290325274
0.002715908 -0.0041502817 -0.014713637 4290651928
0.004423745 -0.0032975515 -0.015462726 4290586648
0.0064610168 -0.0040629813 -0.014944067 4291306259
0.0085035861 -0.0048282659 -0.014425645 4291372049
0.010724358 -0.0064022094 -0.013274173 4291372049
0.01242885 -0.0055492022 -0.014022794 4289670943
0.014127746 -0.0046962528 -0.014771014 4289802013
0.016183242 -0.0054608593 -0.01425318 4290259993
0.018060178 -0.0054165488 -0.014368251 4289867293
0.019750439 -0.0045635896 -0.015115784 4291110674
0.021435067 -0.0037106518 -0.015862964 4290652183
0.023306064 -0.0036662752 -0.015977515 4290914069
0.025371596 -0.0044303117 -0.015459975 4290847768
0.027639754 -0.0060024746 -0.014310915 4290325018
0.030318834 -0.009190972 -0.011899103 4289211944
0.033425093 -0.013995332 -0.0082255416 4287575864
-0.032710481 -0.0080826525 -0.012347911 4289145133
-0.031056363 -0.0064158454 -0.013735984 4289211178
-0.029181637 -0.0063740569 -0.013852757 4289473573
-0.027188499 -0.007144548 -0.013334312 4289277989
-0.025432479 -0.0062901275 -0.014086017 4289670433
-0.02368198 -0.0054357499 -0.014837247 4289539363
-0.021810371 -0.0053935964 -0.014953502 4289473829
-0.020068258 -0.0045391917 -0.015704049 4289604388
-0.018199589 -0.0044968724 -0.015819948 4289669923
-0.016465861 -0.0036424398 -0.016569814 4289473573
-0.014600132 -0.0035999911 -0.016685385 4289408549
-0.012734536 -0.0035574129 -0.016800851 4289343268
-0.010726076 -0.0043265559 -0.016282685 4289212709
-0.0088580102 -0.0042837113 -0.016398145 4289081893
-0.0071384907 -0.0034291344 -0.017146781 4288951078
-0.0051222816 -0.0041977791 -0.016628856 4289540129
-0.0032546222 -0.0041546682 -0.016744087 4289802014
-0.001073949 -0.0057344381 -0.015593789 4289605664
0.00063958764 -0.0048796041 -0.016341761 4289474339
0.0023475215 -0.0040248148 -0.017089326 4289735968
0.0042145997 -0.0039813211 -0.017204227 4289670433
0.0062489882 -0.0047490364 -0.016687043 4289736224
0.0084588304 -0.0063277283 -0.015538167 4289867039
0.010333598 -0.0062838346 -0.015653377 4289343779
0.011857018 -0.0046177078 -0.017031649 4289540128
0.013726056 -0.0045737913 -0.017146388 4289605664
0.015594922 -0.0045297937 -0.017261054 4289670943
0.017831132 -0.0061074789 -0.016113512 4289867294
0.019518621 -0.0052523892 -0.016859315 4290325529
0.021389708 -0.0052081067 -0.016973944 4290848533
0.023068748 -0.0043531219 -0.017719084 4291044883
0.025131375 -0.0051193722 -0.017203037 4290258973
0.027199306 -0.0058854874 -0.016687233 4290258719
0.029672556 -0.0082722995 -0.01491163 4289342249
0.032567434 -0.012279538 -0.011877164 4289341739
-0.032531939 -0.011213177 -0.012193917 4286790718
-0.030985393 -0.0087273214 -0.01421288 4288688429
-0.029223815 -0.0078708474 -0.014963495 4288493609
-0.027349323 -0.0078289444 -0.015080164 4288558888
-0.02535376 -0.0086014532 -0.014563412 4288689703
-0.02360063 -0.0077448334 -0.015313253 4288558889
-0.021726437 -0.00770259 -0.015429644 4288689449
-0.019981671 -0.0068459888 -0.016178768 4288689449
-0.01784632 -0.0084320996 -0.015029539 4288623914
-0.016239271 -0.006761149 -0.016410816 4288624424
-0.014505729 -0.0059044724 -0.017158996 4289213219
-0.01263753 -0.005861864 -0.017274644 4288951588
-0.010483615 -0.0074470965 -0.016126301 4289016868
-0.0086102411 -0.0074041528 -0.016242107 4289736478
-0.0067370012 -0.007361128 -0.016357843 4289605663
-0.0048638806 -0.0073179863 -0.016473481 4289147684
-0.002990894 -0.0072747753 -0.016589059 4289082148
-0.001118049 -0.0072314842 -0.016704565 4288951333
0.0005954206 -0.0063744867 -0.017450923 4288885798
0.0021413639 -0.0047040023 -0.018827654 4289474849
0.0040056184 -0.0046606269 -0.018942419 4289147684
0.0062045082 -0.0062439856 -0.017796228 4289016613
0.0082439855 -0.0070136501 -0.017280895 4288885544
0.0099431351 -0.0061565582 -0.018026054 4289016359
0.011636689 -0.0052995235 -0.018770814 4289409058
0.013502903 -0.0052556889 -0.018885393 4289016614
0.015549928 -0.0060248617 -0.018370289 4289082148
0.017418541 -0.0059808218 -0.018484905 4289474338
0.019286998 -0.0059367018 -0.018599447 4289474338
0.021155275 -0.0058925259 -0.018713936 4289408803
0.023215227 -0.0066611278 -0.018199425 4289409059
0.025085889 -0.0066167582 -0.018313957 4289343014
0.027153678 -0.007385076 -0.017799782 4289539109
0.029426686 -0.0089658052 -0.016657483 4289472808
0.031913079 -0.011358858 -0.014887485 4286463809
-0.032463834 -0.013535319 -0.012678598 4287183163
-0.030688647 -0.012676527 -0.013428489 4288165169
-0.029034644 -0.011000982 -0.014809975 4289016359
-0.027154855 -0.010958979 -0.014926989 4288428073
-0.02527516 -0.010916871 -0.015043915 4288558634
-0.023395557 -0.010874646 -0.015160748 4288623913
-0.021516051 -0.010832326 -0.015277502 4288623658
-0.019765925 -0.0099734263 -0.016025335 4288492844
-0.017757375 -0.010747337 -0.015510725 4289016614
-0.016012903 -0.0098883752 -0.016258067 4288820518
-0.014136564 -0.0098456927 -0.016374301 4289147939
-0.01226034 -0.0098029161 -0.016490456 4289147428
-0.010241378 -0.010576179 -0.015976183 4289017123
-0.0082171187 -0.011349211 -0.015462157 4288885798
-0.0063358247 -0.011306018 -0.015578403 4289605408
-0.0044546723 -0.011262732 -0.015694568 4288558889
-0.0025736615 -0.011219352 -0.015810654 4288558889
-0.00084922463 -0.010360033 -0.016556147 4288558889
0.00086963922 -0.0095007708 -0.017301247 4289016869
0.0025829002 -0.0086414833 -0.018045956 4289605408
0.0044552013 -0.0085979514 -0.018161241 4289082404
0.0064946935 -0.0093699349 -0.017647561 4288820518
0.008369416 -0.0093261739 -0.017762866 4288820518
0.010071218 -0.0084668268 -0.018506628 4288755239
0.011942938 -0.0084229615 -0.01862162 4288886053
0.013636298 -0.0075636948 -0.019364703 4289278243
0.015504979 -0.0075197495 -0.01947939 4289081893
0.01737351 -0.0074757477 -0.019594029 4289016868
0.019428201 -0.0082467906 -0.019080922 4289932319
0.021488182 -0.0090177003 -0.018568058 4289277989
0.023361646 -0.0089733675 -0.018682841 4288950823
0.025234945 -0.0089289658 -0.018797554 4289016359
0.026910894 -0.0080695869 -0.019539256 4288884778
0.029180989 -0.0096548013 -0.018399987 4288622639
0.031259127 -0.010424911 -0.017888039 4286136899
-0.032505997 -0.015042547 -0.013797105 4287968308
-0.030730892 -0.014181605 -0.014545389 4288230448
-0.028961312 -0.013320658 -0.015293234 4288886053
-0.02707893 -0.013278626 -0.01541043 4288755239
-0.025075618 -0.014055265 -0.014897435 4288493353
-0.023314469 -0.013194185 -0.015644517 4288558889
-0.021432385 -0.013151799 -0.015761424 4288689194
-0.01967961 -0.012290703 -0.01650783 4288493353
-0.017404694 -0.014703872 -0.014736202 4288493353
-0.015652135 -0.013842564 -0.015482435 4288428074
-0.013767768 -0.013799713 -0.015599177 4288820774
-0.011883508 -0.013756769 -0.015715841 4289475103
-0.0099993795 -0.013713707 -0.015832409 4288755238
-0.0081153661 -0.013670565 -0.015948907 4288951589
-0.0059350207 -0.015263767 -0.014808505 4289475103
-0.0041967854 -0.014402127 -0.015553435 4288689959
-0.0024641156 -0.013540591 -0.016297929 4288493353
-0.00073701888 -0.012679064 -0.017041992 4288362539
0.0013027191 -0.013453458 -0.016530199 4288624423
0.0031859279 -0.01340977 -0.016646229 4289540129
0.0050689951 -0.013366013 -0.016762193 4288624169
0.0067846477 -0.01250439 -0.017505281 4288820774
0.0086647123 -0.01246053 -0.017620932 4288755239
0.010199249 -0.010781329 -0.018990275 4288493353
0.012073562 -0.010737432 -0.019105446 4288820518
0.013947748 -0.010693455 -0.01922055 4288689449
0.015821755 -0.010649422 -0.019335594 4288820263
0.017512053 -0.009787865 -0.020076804 4289409058
0.019569322 -0.010561126 -0.019565478 4289147429
0.02144286 -0.010516876 -0.019680325 4288624424
0.023507953 -0.011289747 -0.019169398 4288623913
0.02538389 -0.011245314 -0.019284301 4288362283
0.027259685 -0.011200826 -0.019399147 4288230448
0.028935455 -0.010339296 -0.020139158 4287706934
-0.032438032 -0.017370861 -0.014286294 4287641399
-0.030660298 -0.01650764 -0.015033164 4288099888
-0.028888077 -0.015644509 -0.015779592 4288493353
-0.026766591 -0.017244542 -0.014639632 4289213218
-0.024997279 -0.016381174 -0.015385727 4288886053
-0.023233492 -0.015517874 -0.016131364 4288362538
-0.021601651 -0.013833742 -0.017504711 4288297259
-0.019593384 -0.014612142 -0.016993418 4288493353
-0.017579794 -0.0153903 -0.016482366 4288428074
-0.015560862 -0.01616825 -0.015971581 4288755239
-0.013811197 -0.015304744 -0.016715948 4288559144
-0.011927068 -0.015261838 -0.016832631 4289213474
-0.010043062 -0.015218791 -0.016949199 4289147938
-0.0081591755 -0.015175663 -0.017065696 4288559144
-0.0061272457 -0.015952826 -0.016555352 4289671454
-0.0042409003 -0.015909445 -0.016671855 4288886309
-0.0023546666 -0.015865991 -0.016788296 4288559144
-0.00046858937 -0.015822435 -0.016904648 4288493609
0.0014173537 -0.015778786 -0.017020922 4289082403
0.0034649372 -0.016555155 -0.016511146 4289409569
0.0053533316 -0.016511286 -0.01662745 4288755239
0.0070743784 -0.015647376 -0.017369334 4288493353
0.0087898746 -0.014783544 -0.018110763 4288493353
0.010672398 -0.01473956 -0.018226517 4288428074
0.012554765 -0.014695495 -0.018342201 4288689704
0.014258929 -0.013831698 -0.019082762 4288362539
0.015957527 -0.012967959 -0.019822929 4289212963
0.018017501 -0.013743339 -0.01931347 4289801759
0.019896545 -0.013699081 -0.019428745 4288754984
0.021775447 -0.013654742 -0.019543946 4288624169
0.023462556 -0.012791004 -0.020283207 4288428074
0.025338411 -0.012746598 -0.020398121 4288231724
0.027214117 -0.012702134 -0.020512979 4288034609
0.028889902 -0.011838477 -0.02125141 4288426289
-0.03426341 -0.019745216 -0.014660482 4286398528
-0.032370187 -0.019703278 -0.014778604 4287772214
-0.030589797 -0.018837921 -0.015524019 4287903793
-0.028814942 -0.017972512 -0.016269032 4288297004
-0.026809204 -0.018753633 -0.01575949 4288689703
-0.024919037 -0.018711317 -0.015877089 4288820774
-0.023276247 -0.017022675 -0.017248018 4288362538
-0.021391708 -0.016980262 -0.0173651 4288297259
-0.019507281 -0.01693777 -0.017482113 4288493609
-0.017491147 -0.017718062 -0.016972851 4288689703
-0.015873235 -0.016029606 -0.01834188 4288493609
-0.01399184 -0.015986865 -0.018458471 4288559144
-0.01211055 -0.015944019 -0.018574975 4288689959
-0.010086719 -0.016723732 -0.018065887 4289017124
-0.0083483532 -0.015858022 -0.018807724 4288559144
-0.0063193142 -0.016637435 -0.018298823 4289540639
-0.0045866296 -0.015771665 -0.019040171 4288558634
-0.0025524125 -0.016550777 -0.018531453 4288297004
-0.00066914409 -0.016507316 -0.018647656 4288427819
0.0013729483 -0.01728606 -0.018139288 4288362283
0.0035820529 -0.018886838 -0.017006796 4289082403
0.0054730475 -0.018842939 -0.017123282 4288624424
0.007196784 -0.017976869 -0.017863695 4288624424
0.0089149326 -0.017110782 -0.018603731 4288493609
0.010800071 -0.017066756 -0.018719658 4288493098
0.012685075 -0.017022684 -0.018835541 4288297259
0.014747925 -0.017800394 -0.01832797 4288362538
0.016454607 -0.016934261 -0.019067064 4289213218
0.018339157 -0.016889973 -0.019182753 4288886053
0.019851275 -0.015202298 -0.020544019 4288559144
0.021918945 -0.015979586 -0.020036586 4288297258
0.023608759 -0.015113639 -0.020774417 4288493608
0.025487252 -0.015069213 -0.020889524 4288166444
0.02736561 -0.015024741 -0.021004584 4287838259
0.02924379 -0.014980215 -0.021119595 4288033844
-0.032742351 -0.018737568 -0.017777743 4287445049
-0.030970201 -0.017870231 -0.018521033 4288034099
-0.029088162 -0.017828325 -0.018638294 4287707189
-0.027206201 -0.017786337 -0.018755492 4287772723
-0.025203481 -0.01856954 -0.018247336 4288885034
-0.023318972 -0.018527273 -0.018364523 4288427308
-0.021434575 -0.018484887 -0.018481612 4288034864
-0.019550275 -0.018442385 -0.018598609 4288099888
-0.017666075 -0.01839981 -0.018715546 4288099888
-0.016050875 -0.016707096 -0.020081192 4287904048
-0.014309499 -0.015839472 -0.020821843 4288296493
-0.012293886 -0.016621664 -0.020313952 4288361773
-0.01013035 -0.018228468 -0.019182421 4288689193
-0.0082466975 -0.018185403 -0.019298952 4288297004
-0.0065112188 -0.017317532 -0.020038951 4289146919
-0.0046305433 -0.017274328 -0.020155139 4288427054
-0.0025965124 -0.018055631 -0.019648042 4288296494
-0.00055716932 -0.018836716 -0.019141197 4288100653
0.0013285652 -0.018793156 -0.019257519 4288558634
0.0035374239 -0.020398291 -0.018128254 4288820774
0.0054283217 -0.020354431 -0.018244758 4288558889
0.0073190853 -0.020310489 -0.018361192 4288492843
0.0088701323 -0.018617982 -0.019722007 4288493098
0.010755174 -0.018574005 -0.019837964 4288362283
0.012640081 -0.018529948 -0.019953851 4288427819
0.014702767 -0.019309886 -0.019447923 4288362283
0.016590089 -0.019265622 -0.019563846 4289344289
0.01866062 -0.020045182 -0.019058328 4288493609
0.020178206 -0.018353017 -0.020416759 4288428329
0.021873578 -0.017484874 -0.021153394 4288231979
0.023563385 -0.01661681 -0.021889649 4288232234
0.025441796 -0.016572421 -0.022004779 4288231723
0.027320072 -0.016527975 -0.022119854 4287641653
0.02939786 -0.017306987 -0.021614499 4287379769
-0.016497146 -0.015725672 -0.023062792 4286268479
-0.014626879 -0.015683213 -0.023178712 4286660668
-0.012616891 -0.016467735 -0.022672113 4287118648
-0.01031648 -0.018906089 -0.020921163 4287772723
-0.00829041 -0.019690046 -0.02041541 4288100399
-0.0065549985 -0.018820012 -0.021153796 4289539619
-0.0049758181 -0.017123209 -0.022513561 4288492079
-0.0031008124 -0.017080087 -0.022629362 4288230958
-0.0010697991 -0.017863559 -0.022123639 4288100399
0.0012842193 -0.020300094 -0.020375639 4288623914
0.0034928471 -0.021909636 -0.019249633 4288493354
0.0052193627 -0.021039285 -0.01998708 4287773999
0.0069402829 -0.020168932 -0.020724159 4288100399
0.0084859505 -0.018472318 -0.02208142 4288492589
0.010365464 -0.01842848 -0.022197045 4288361773
0.012419991 -0.019210849 -0.021692354 4288231214
0.014301926 -0.019166805 -0.021808017 4289016613
0.016183734 -0.019122716 -0.021923639 4288362029
0.018065386 -0.01907856 -0.022039194 4288296238
0.019946918 -0.01903432 -0.022154678 4288100399
0.021639548 -0.018164095 -0.022889547 4288427564
0.023326613 -0.01729396 -0.023624044 4288558124
0.025008097 -0.016423883 -0.024358146 4288296239
0.026880883 -0.016379625 -0.024472926 4287640888
0.024574704 -0.016266515 -0.026705038 4286006338
0.010212429 0.0039159302 0.03941302 4282869328
0.011861235 0.0054714195 0.03794251 4282804049
0.0047781169 0.009049641 0.032420956 4281297763
0.005770117 0.013637023 0.02826263 4281043018
0.0073837489 0.015195988 0.026797481 4281174854
0.010746822 0.017556557 0.024541907 4280199988
0.013188861 0.015331239 0.026440248 4278959924
0.015647046 0.013106408 0.02833768 4281110849
0.018121302 0.010882076 0.030234139 4281893698
0.020071782 0.010927901 0.030114397 4281891913
0.022022061 0.010973785 0.029994715 4280848964
0.024157479 0.010263292 0.030546591 4280850238
0.025921874 0.011065818 0.029755604 4281568064
0.027680591 0.01186824 0.028965052 4278832423
0.029820733 0.011158142 0.029516783 4279025715
0.0044374838 0.018155439 0.021738134 4281045313
0.0058657825 0.020477401 0.019606438 4281111104
0.0072775781 0.022799028 0.01747587 4279351093
0.0091798306 0.022843378 0.017358828 4280329273
0.01333265 0.021414587 0.01846594 4281045313
0.015416905 0.020700509 0.019019119 4280652869
0.017506361 0.019986639 0.019572034 4280522308
0.019235827 0.020790337 0.018784747 4280654398
0.021144964 0.020835368 0.018667672 4280850238
0.022865824 0.021639017 0.017881021 4278767653
0.024962544 0.020925673 0.018433757 4278570794
0.026870988 0.020970916 0.018316895 4279023928
0.029760212 0.01722444 0.021545894 4278375464
0.0039097518 0.01890217 0.018588278 4280914243
0.0051664636 0.021991802 0.015792429 4280198714
0.0065674409 0.024319729 0.013667402 4281567043
0.0084587112 0.024363836 0.01355105 4281436483
0.01034978 0.024408033 0.013434782 4280851003
0.01258941 0.022930203 0.014656304 4280198968
0.014662601 0.02221371 0.015208551 4280850238
0.016381368 0.023019275 0.014423492 4280850494
0.018277027 0.023063941 0.014307213 4280980799
0.020172454 0.023108667 0.01419099 4280265014
0.021691695 0.02467492 0.012738786 4281436993
0.023771942 0.023959002 0.013290905 4281632578
0.025663979 0.024003899 0.013175086 4280655164
0.028340332 0.021006672 0.015729472 4280328508
0.032430209 0.012686703 0.022954181 4281111103
0.0029016957 0.01274555 0.02157988 4280386903
0.0035431162 0.018898634 0.016116433 4280848198
0.0047945306 0.021996876 0.013327411 4278372404
0.006356284 0.023567861 0.011875297 4278373424
0.0142629 0.02221824 0.01274532 4280653888
0.015976176 0.023025868 0.011962228 4280719679
0.017866291 0.023070415 0.011846298 4280850238
0.01994139 0.02235206 0.012397011 4278374954
0.021270029 0.024685575 0.010281774 4279287853
0.023154028 0.024730226 0.010166398 4280133179
0.025037818 0.024774915 0.010051071 4280003383
0.027509592 0.022531522 0.011933611 4279091503
0.031388998 0.014949972 0.018475462 4280329529
0.036330044 0.0035568271 0.028341997 4280588098
0.0023824424 0.013499485 0.018434793 4280190044
0.003176719 0.018904151 0.01365123 4280915264
0.0044228286 0.022010999 0.010869031 4280654654
0.0061452538 0.022820586 0.01008668 4279807034
0.0076932311 0.024395654 0.008638774 4278633779
0.0097447261 0.023674151 0.0091890004 4279937339
0.011627205 0.023718277 0.009073358 4280719168
0.013686463 0.022997139 0.0096232463 4280654398
0.015571229 0.023041481 0.0095075835 4280849984
0.017638221 0.022320686 0.010057117 4280719423
0.019340165 0.023130415 0.0092764888 4280916284
0.020848595 0.024705173 0.0078314682 4278505259
0.022536494 0.02551472 0.0070518078 4279616294
0.027071364 0.022544274 0.0094794622 4279937849
0.030348413 0.017235313 0.014013116 4281045058
0.034670472 0.0081034433 0.021864347 4281110339
0.0029711649 0.0181507 0.011857586 4280719678
0.0042146891 0.02126619 0.0090820212 4280458813
0.0059343502 0.022077909 0.0083014704 4280261188
0.0076483563 0.022889579 0.007521335 4280718659
0.009356752 0.023701215 0.006741615 4280718404
0.01123368 0.023745226 0.0066263229 4280587333
0.013110414 0.023789303 0.0065110959 4280980289
0.014986917 0.023833474 0.0063959546 4281045313
0.017045572 0.023110325 0.0069443975 4281046079
0.018739328 0.023922039 0.0061658882 4280523839
0.02061522 0.023966445 0.0060509723 4281111104
0.022300348 0.024778171 0.0052730804 4280980798
0.024366319 0.02405546 0.0058213463 4280915518
0.026437469 0.023333007 0.0063693188 4280719423
0.029507138 0.018775659 0.010229615 4280719678
0.034421556 0.007316567 0.02004917 4280719678
0.0026051924 0.018171938 0.0094041247 4280457794
0.0036801919 0.022066051 0.0059723202 4280197438
0.0086262003 0.02527695 0.0029757232 4278894643
0.010666259 0.024550935 0.0035234983 4280980288
0.01271157 0.023825144 0.0040710238 4280980288
0.014582545 0.023869196 0.0039562327 4280849984
0.016635589 0.023143744 0.0045034015 4280915518
0.018138871 0.024727045 0.003065146 4280915264
0.020381942 0.023232361 0.0042738519 4281177914
0.02225478 0.023276789 0.0041591921 4280655418
0.02432058 0.022551911 0.004705858 4280329783
0.025999822 0.023365831 0.0039300635 4281111104
0.028864987 0.019564478 0.0071201129 4280915264
0.033971474 0.0073033646 0.017576713 4280849984
0.038960636 -0.0041865138 0.027367454 4280849984
0.0023999363 0.017429927 0.0076188939 4280915773
0.0034723952 0.021334892 0.0041953647 4280524349
0.012136221 0.024641788 0.00097703608 4281111613
0.014178425 0.023913832 0.001523199 4280850494
0.016225874 0.023186075 0.0020690938 4280850749
0.018278532 0.022458559 0.0026147556 4280982584
0.020148791 0.022502834 0.0025001862 4280786999
0.025562443 0.023407573 0.0014974955 4278373678
0.028223209 0.020366577 0.0040205405 4281372734
0.033119164 0.0088417586 0.013792627 4281306689
0.038300343 -0.0034523299 0.02421879 4281241408
0.0020344034 0.017466919 0.0051771253 4281176638
0.003264755 0.020608289 0.0024218652 4280198968
0.0048048273 0.022200568 0.00098739029 4281046334
0.0065023825 0.02301841 0.00021314295 4280981053
0.0081942901 0.023836276 -0.0005607144 4279417904
0.010054573 0.023879929 -0.0006749616 4280329783
0.011737958 0.024697712 -0.0014481324 4280851004
0.013774551 0.023967465 -0.00090323249 4280915773
0.015816398 0.023237376 -0.00035855686 4280720189
0.018048339 0.021733658 0.00084430282 4280460599
0.020103358 0.021004098 0.0013882574 4280720699
0.021782994 0.021822212 0.00061562774 4280459834
0.023649991 0.021866588 0.00050138985 4280328508
0.027780294 0.020408465 0.0015884452 4280133179
0.032267384 0.010397797 0.010021641 4280784958
0.037436537 -0.0019314066 0.020422611 4281109573
0.0019897893 0.01595965 0.004058782 4281241154
0.0030572265 0.019886294 0.00065178517 4279221809
0.0047603622 0.020706369 -0.00012123748 4280199478
0.0066263601 0.020749969 -0.00023597176 4281241663
0.0081497356 0.022346454 -0.0016660761 4281371714
0.010009915 0.022390103 -0.0017803196 4280069173
0.011339948 0.024762562 -0.0038666031 4280590394
0.013370939 0.024030009 -0.0033229771 4280589118
0.01540719 0.023297666 -0.0027796146 4280719679
0.017818272 0.021013377 -0.00092272251 4280328764
0.019682877 0.021057559 -0.0010369157 4279938869
0.02154728 0.021101812 -0.00115104 4281306433
0.023218535 0.021921983 -0.0019214784 4281371458
0.024884135 0.022742121 -0.0026915683 4281240898
0.026940875 0.022010697 -0.002149062 4280590903
0.031416133 0.011971509 0.006263759 4280786233
0.036573276 -0.00039278902 0.01663956 4280981564
0.0014643818 0.016789054 0.00097027863 4281305668
0.0025238618 0.020726388 -0.0024281328 4280524604
0.0060764998 0.021591896 -0.0033132273 4280073254
0.011295378 0.023279494 -0.0049669384 4280654654
0.013146907 0.023323139 -0.0050804992 4280458304
0.015362255 0.021810262 -0.0038831483 4280523839
0.01740358 0.02107594 -0.0033416541 4280523583
0.019450128 0.020341789 -0.0028003703 4278503729
0.020931363 0.021942208 -0.0042242231 4279613488
0.022594437 0.022764375 -0.0049925311 4279808309
0.024447456 0.022808505 -0.005105847 4279417394
0.026696943 0.021296905 -0.0039102379 4279223085
0.03076645 0.012784967 0.0031732628 4280785978
0.035710521 0.0011634519 0.012869585 4281046079
0.0014199466 0.015288822 -0.00014284276 4280781898
0.0024796426 0.01923704 -0.0035331715 4280522053
0.003843233 0.021622995 -0.0056120576 4280914753
0.0058637485 0.020885503 -0.0050712852 4280785213
0.0077184662 0.020928955 -0.0051852409 4280525624
0.0095729753 0.020972496 -0.0052991165 4280915774
0.011250809 0.021796687 -0.0060670767 4280915264
0.013281457 0.021059794 -0.00552666 4280719424
0.015317351 0.0203231 -0.0049865041 4280654143
0.017173819 0.020367017 -0.0051002521 4280261954
0.018842705 0.021191334 -0.005867416 4280785214
0.02050595 0.022015607 -0.0066341697 4278634798
0.022356384 0.022059614 -0.0067473757 4278769694
0.024402134 0.021323537 -0.0062075406 4279291933
0.02645313 0.020587659 -0.0056679687 4279936829
0.02991619 0.014391791 -0.00056004524 4280718659
0.034644619 0.0035173073 0.0084602358 4280718403
0.039448902 -0.0073553007 0.017475929 4280583509
0.00091791153 0.0066962373 0.0047430247 4282740043
0.0015356615 0.013005601 -0.00060223555 4281437249
0.0025982782 0.016964786 -0.003984632 4281373499
0.0041302443 0.018574333 -0.0054056877 4281438268
0.0058194399 0.019400729 -0.0061729075 4281568573
0.007674031 0.019444181 -0.0062868586 4281828928
0.0097021759 0.018704897 -0.0057480186 4281567808
0.011735573 0.017965792 -0.0052094571 4281698113
0.013595045 0.01800962 -0.0053235125 4281567554
0.01545433 0.018053522 -0.0054374915 4281436484
0.01712881 0.018880075 -0.0062034344 4281436229
0.018984996 0.018924048 -0.00631712 4281372478
0.020650916 0.019750563 -0.0070824139 4281828163
0.022889502 0.018229863 -0.0058927182 4281174853
0.024943247 0.017491776 -0.0053549353 4280717639
0.026804075 0.017536156 -0.0054686842 4280456264
0.029669203 0.01366964 -0.0023271297 4280651338
0.03398665 0.0043288842 0.0053689182 4280651338
0.03878174 -0.0065744049 0.014362502 4281108298
0.0019713864 0.0091476627 0.00023912359 4281897268
0.0032051504 0.012332652 -0.0024839421 4280984623
0.0047480091 0.013946783 -0.0039023734 4281117479
0.0064480379 0.014775604 -0.0046686409 4280986918
0.0083134174 0.014819302 -0.004783255 4281313318
0.010178596 0.014863078 -0.0048977956 4281375284
0.012043588 0.01490696 -0.005012244 4281307454
0.014087498 0.014166022 -0.0044758799 4281374774
0.015773006 0.014994947 -0.0052409265 4281311279
0.017268337 0.016608594 -0.0066560423 4280854574
0.019127145 0.016652644 -0.0067698769 4280855084
0.02117572 0.015912104 -0.0062335115 4280855084
0.023422219 0.014387228 -0.0050475467 4281049394
0.02567938 0.012862686 -0.0038621761 4280655929
0.027352832 0.013691774 -0.0046261502 4280719678
0.030024864 0.010598911 -0.0021426005 4280523073
0.033939749 0.0028007887 0.0042352527 4280196163
0.038527578 -0.0073487549 0.012557136 4281109063
0.0020867065 0.006851919 -0.00022963528 4282419508
0.0033233538 0.010045635 -0.0029463561 4282028083
0.0051998347 0.010089422 -0.0030617809 4281766963
0.0070761442 0.010133287 -0.0031771322 4281441838
0.0087813735 0.010964526 -0.0039420864 4281636148
0.010654598 0.011008507 -0.0040571094 4281895484
0.012703978 0.010265401 -0.0035227172 4281765434
0.014579557 0.010309611 -0.0036377537 4281634619
0.016273163 0.011140941 -0.0044017248 4281831223
0.018145651 0.011185229 -0.0045164609 4281570103
0.019830748 0.012016464 -0.0052797557 4281571123
0.021890029 0.011274032 -0.0047457153 4281506098
0.023954563 0.010531757 -0.0042118989 4281309239
0.026219636 0.0090030618 -0.0030302433 4280916538
0.027901225 0.0098345112 -0.0037931018 4281176128
0.030781828 0.0059465952 -0.00066869752 4281435718
0.034299858 -0.00030009542 0.0043970607 4281761608
0.038273528 -0.0081185084 0.010755176 4282411603
0.0020419732 0.005341731 -0.0013501428 4282225709
0.0032787472 0.0085441545 -0.0040603937 4281962804
0.0051551238 0.0085879266 -0.0041758199 4281831223
0.0071994141 0.0078422874 -0.0036429861 4281636404
0.0090781525 0.007886311 -0.0037584105 4281635383
0.01095669 0.0079304278 -0.003873752 4281829694
0.012658834 0.0087638851 -0.0046367371 4281764668
0.014713265 0.0080188531 -0.0041042515 4281765688
0.016591266 0.0080632083 -0.0042193709 4281701429
0.018469088 0.0081076194 -0.0043344349 4281831223
0.020346709 0.0081521124 -0.0044494253 4281571123
0.022224136 0.0081966836 -0.0045643398 4281700663
0.024293937 0.0074523911 -0.0040325145 4281570358
0.026368961 0.0067083277 -0.003500931 4281830713
0.028053239 0.0075419974 -0.0042623505 4281568573
0.031136848 0.0028545372 -0.00049999426 4281763394
0.034863107 -0.0041980939 0.0051985439 4282023494
0.0019972473 0.0038317833 -0.0024704733 4282618154
0.0033967569 0.0062511079 -0.0045273555 4282682668
0.0051104203 0.00708667 -0.0052896813 4281897014
0.006818451 0.0079222489 -0.0060516284 4281897014
0.0086916387 0.0079661217 -0.0061667291 4281831989
0.010738142 0.007218495 -0.005635472 4281897014
0.012789883 0.0064711329 -0.0051045064 4282157623
0.014667958 0.0065154079 -0.0052196942 4281896248
0.016727492 0.0057683792 -0.0046890974 4281766964
0.018792257 0.0050215889 -0.0041587334 4281830713
0.02067522 0.0050661918 -0.0042740609 4281895994
0.022557989 0.0051108766 -0.004389313 4281439289
0.024440587 0.0051556267 -0.0045045018 4281635383
0.026322953 0.0052004568 -0.0046196133 4281764668
0.028205141 0.0052453559 -0.0047346614 4281698879
0.03149163 -0.00024606474 -0.00033755531 4281959234
0.035019279 -0.0065272753 0.0047016772 4282022728
0.0021123588 0.0015279623 -0.0029451498 4283139628
0.0035146475 0.0039539207 -0.0049973894 4282616879
0.0052309781 0.0047917161 -0.005758265 4281768239
0.0071096644 0.0048356317 -0.0058737667 4282487339
0.0089881793 0.0048796274 -0.0059891948 4282551598
0.010866515 0.0049237274 -0.0061045317 4282681393
0.012920812 0.0041742325 -0.005575357 4282616368
0.01480151 0.0042185504 -0.005690719 4282485553
0.016863585 0.0034694206 -0.0051618842 4282224178
0.018746637 0.0035139527 -0.0052772709 4282224178
0.020816498 0.0027651563 -0.004748805 4282224178
0.022701889 0.0028098933 -0.0048642242 4281636148
0.02458708 0.0028547104 -0.0049795681 4281636148
0.026472084 0.0028995965 -0.0050948467 4281570104
0.028554782 0.0021513533 -0.0045669042 4281699644
0.031846151 -0.003355124 -0.00018146588 4281960254
0.034972027 -0.0080676209 0.0035589212 4281693779
0.0041198283 -0.00073587708 -0.0035394114 4283465519
0.0055165961 0.0016965531 -0.0055863969 4282485809
0.0072327182 0.0025366042 -0.0063455771 4282550834
0.0092844591 0.0017847121 -0.0058179842 4282748459
0.01116813 0.0018289238 -0.0059336592 4283008558
0.013403751 0.00028151087 -0.004763538 4282746929
0.015113711 0.0011218153 -0.005522118 4282615349
0.016999565 0.0011663111 -0.0056377528 4282420529
0.018701032 0.0020065345 -0.0063956492 4282485554
0.020770721 0.001255556 -0.0058687925 4282354995
0.022656024 0.00130028 -0.0059842151 4281897778
0.024541132 0.0013450962 -0.0060995533 4281572908
0.026621133 0.00059452653 -0.0055731321 4281571123
0.028904177 -0.00095109362 -0.0044054897 4281568573
0.031999901 -0.0056774206 -0.0006730184 4281698114
0.034924805 -0.0096077267 0.002416342 4282738513
0.029055588 -0.0032645799 -0.0048902994 4284314414
0.032153577 -0.0080039632 -0.0011676492 4283459399
-0.026466802 -0.0037433496 0.047847167 4281290623
-0.024801336 -0.0014310936 0.045689534 4281355904
-0.023034967 0.00012508407 0.044210337 4279976609
-0.018921174 -0.00054145232 0.044638813 4279910819
-0.016797625 -0.0012522638 0.04519131 4282339184
-0.014797054 -0.0012072548 0.045067012 4282405228
-0.01279664 -0.0011621639 0.044942781 4279848343
-0.010796376 -0.0011169463 0.044818662 4282667369
-0.0049385056 -0.00022538006 0.043771125 4281157513
-0.0029416531 -0.00017980486 0.043647543 4282535789
-0.027182929 -0.00080261938 0.042597894 4279128224
-0.025648367 0.002273852 0.039770406 4278996388
-0.021924794 0.0038781352 0.038172558 4278598078
-0.019703068 0.0024065804 0.039400235 4278598333
-0.017721567 0.0024510343 0.039277025 4279847324
-0.01586844 0.0032534003 0.038478915 4278734759
-0.01415186 0.0048134103 0.037006497 4278866085
-0.012178991 0.0048580207 0.036884084 4278997154
-0.009933494 0.0033876188 0.038110673 4278800803
-0.006119512 0.0042350553 0.037191514 4278400964
-0.0021698549 0.004325375 0.036947191 4280241043
0.00040477514 0.0013416056 0.039519623 4280504204
0.0025427788 0.00063009001 0.040070467 4280568718
0.00406418 0.0029472876 0.037927955 4280635273
-0.029111296 -0.0032017995 0.042213425 4282274413
-0.027786516 0.0014042705 0.038042687 4278996644
-0.026036426 0.0029687006 0.036570914 4278995368
-0.024180111 0.0037728176 0.035773933 4279126948
-0.022329375 0.0045769364 0.034977391 4278996898
-0.020238806 0.0038609393 0.035528637 4278273974
-0.018268347 0.0039051883 0.035406142 4279060903
-0.016554363 0.0054694209 0.033937 4278668969
-0.014851429 0.0070334952 0.032468688 4278538154
-0.012892324 0.0070778299 0.03234715 4278472364
-0.010660708 0.0056027491 0.033571355 4278799019
-0.0067323968 0.0056921672 0.033328045 4278797743
-0.0029520169 0.0065414961 0.032412946 4279388578
-0.00054134429 0.0043081567 0.034307793 4279062178
0.0015801191 0.0035940856 0.034858033 4278603434
0.002929844 0.0066768397 0.03204973 4278538154
-0.02937381 -0.0032732077 0.039682776 4282470508
-0.027942516 0.00058330409 0.036194876 4278603434
-0.022613678 0.0045268927 0.032464363 4278339508
-0.018689279 0.0046148989 0.032220311 4278405043
-0.016727295 0.0046590641 0.032098427 4278602923
-0.015027091 0.0062274467 0.030633532 4278669223
-0.013070848 0.0062717199 0.030512176 4278668969
-0.009019848 0.0055987183 0.030940793 4278863789
-0.0072030649 0.0064051636 0.030148655 4279126948
-0.0051030368 0.0056881197 0.030698381 4279388578
-0.00088716298 0.0042547081 0.031797078 4278406318
0.0010760501 0.0042998921 0.031675853 4278733994
0.0025730804 0.0066296626 0.029544622 4278344864
-0.029527124 -0.0041003823 0.037830129 4282536043
-0.028433457 0.0020610215 0.032337129 4279062434
-0.026697055 0.0036338791 0.03087271 4278340273
-0.018859219 0.0038092192 0.03038498 4278668714
-0.016772069 0.003089061 0.030933399 4278472619
-0.014941126 0.0038975719 0.030141689 4278472364
-0.013115779 0.0047060866 0.029350415 4278472619
-0.0030434728 0.0034013633 0.030082952 4278339253
-0.00093308836 0.0026826095 0.030630585 4278603688
0.0010299981 0.0027278028 0.030509375 4278930853
-0.029789217 -0.0041559786 0.035311293 4282732649
-0.028700668 0.0020227404 0.029831581 4278931364
-0.026969746 0.0035998952 0.028370719 4278473129
-0.025015697 0.0036434531 0.028249007 4278669224
-0.023181565 0.0044537652 0.027458385 4279323298
-0.021230493 0.0044975001 0.027337037 4278930599
-0.019154299 0.003774792 0.027884424 4278407084
-0.017072793 0.0030522775 0.028431609 4278603434
-0.01498599 0.0023300555 0.028978519 4278472364
-0.013294145 0.003907131 0.027520683 4278669223
-0.011477202 0.0047177672 0.026731655 4278800039
-0.0098047368 0.0062946063 0.025275245 4278995879
-0.0078601316 0.0063389707 0.025154877 4279124654
-0.0056270733 0.0048512351 0.026369546 4278732718
-0.0033832937 0.0033637974 0.027583662 4278996643
-0.0012785569 0.0026427507 0.028130032 4278604199
0.00052648783 0.0034537464 0.027342211 4278735269
-0.030159913 -0.0034334483 0.032131039 4280635783
-0.029079203 0.0027625374 0.026664797 4278931363
-0.027356483 0.0043438375 0.025207743 4278603944
-0.025293749 0.0036183111 0.025754094 4278472618
-0.023465145 0.0044306833 0.024965439 4278406318
-0.021519672 0.0044743028 0.024844445 4278668969
-0.019574311 0.0045180116 0.024723534 4278669223
-0.017373282 0.0030245371 0.025936455 4278276014
-0.015422761 0.0030685943 0.025815394 4278668969
-0.013605744 0.003881311 0.025027908 4278538154
-0.011794321 0.0046939943 0.02424084 4278407339
-0.0098497085 0.0047382731 0.024120413 4278735013
-0.0079052448 0.0047826357 0.024000052 4278865573
-0.0059609488 0.004827125 0.0238798 4278865828
-0.0037228763 0.0033352636 0.025091 4278866339
-0.0016237721 0.0026119091 0.025636103 4278473384
