# .PCD v0.7 - Point Cloud Data file format
VERSION 0.7
FIELDS x y z rgba
SIZE 4 4 4 4
TYPE F F F U
COUNT 1 1 1 1
WIDTH 958
HEIGHT 1
VIEWPOINT 0 0 0 1 0 0 0
POINTS 958
DATA ascii
0.026042707 0.00019282382 0.03072303 4290127904
0.028383009 -0.0012997407 0.031926747 4289735459
0.030163668 -0.00048389845 0.031145314 4289604389
0.032131478 -0.0004373882 0.031025652 4289800484
0.03409905 -0.00039082393 0.03090605 4290454048
0.036462903 -0.0018825149 0.032108568 4289341483
0.039038323 -0.0041430062 0.033971414 4288686899
0.007976532 -0.00025080144 0.029311256 4288621619
0.0099384189 -0.00020541996 0.02919122 4289931808
0.011734553 0.00061216671 0.028409876 4290585628
0.013356782 0.0022017444 0.026967699 4291043864
0.015480891 0.0014752429 0.027509486 4290847514
0.017610244 0.00074894447 0.028051015 4290716443
0.02009768 -0.0015208898 0.029913805 4290193438
0.021884643 -0.00070304889 0.029133366 4289997343
0.024029665 -0.0014287224 0.029674133 4289801249
0.02562613 0.00016088039 0.028233917 4290520859
0.027586162 0.00020703487 0.028114604 4290848023
0.029355913 0.0010248162 0.027335472 4289277734
0.031312749 0.0010710731 0.027216481 4289212453
0.033464819 0.00034597702 0.027757121 4289408293
0.035820283 -0.0011502756 0.028956978 4289211433
0.038588181 -0.0041887881 0.03147471 4288883503
0.0076102242 -0.00027275458 0.026825713 4288687409
0.009566538 -0.00022749044 0.026706027 4289997599
0.011357173 0.000592147 0.025926638 4289866529
0.013142161 0.0014117993 0.025147628 4290062368
0.015092447 0.0014572274 0.025028534 4290324254
0.017216183 0.00072858762 0.025568835 4290258974
0.019697882 -0.0015478795 0.027427062 4290324509
0.021658421 -0.0015019393 0.027307546 4290259229
0.023800582 -0.0022298736 0.027846931 4290258973
0.025763422 -0.0021837284 0.027727386 4290258973
0.027351558 -0.0005898755 0.026290989 4290978839
0.0289286 0.0010037208 0.024855349 4291109398
0.030879907 0.0010498622 0.024736706 4291044119
0.03302639 0.00032247417 0.025276078 4290716698
0.035376191 -0.0011782264 0.026472995 4290782488
0.037937462 -0.003452118 0.028326975 4290453028
0.0074041262 -0.0010623308 0.025005324 4288752944
0.0090321898 0.00053598545 0.02356912 4290194203
0.010814607 0.001357629 0.022791868 4289539618
0.012591407 0.0021792259 0.022015024 4289539364
0.014875129 0.0006717816 0.023212096 4289473573
0.016995966 -5.9045851e-05 0.023750924 4289997344
0.019122042 -0.00078970287 0.024289539 4290193694
0.021253332 -0.0015201103 0.024827858 4289997344
0.023389876 -0.0022503124 0.025365921 4290128158
0.02553162 -0.00298031 0.025903722 4289997343
0.026929908 -0.00060625095 0.023813935 4290259229
0.028691426 0.00021575764 0.02303852 4290716954
0.030447312 0.0010376591 0.022263542 4291044373
0.032783538 -0.00046785269 0.02345801 4290258973
0.035130396 -0.0019729566 0.024651881 4289735204
0.037688673 -0.0042534382 0.026501194 4289603114
0.0071981698 -0.0018472541 0.023188313 4289538088
0.0088235214 -0.00024468731 0.021755556 4289801504
0.010603167 0.00057907403 0.020980095 4291175189
0.012377165 0.0014028121 0.020205066 4290913559
0.014657937 -0.0001090588 0.021399079 4291044118
0.01660236 -6.3668005e-05 0.021280417 4289474084
0.018899046 -0.0015749801 0.0224736 4290258973
0.020848498 -0.0015292838 0.022354772 4289931808
0.022979423 -0.002261837 0.022891596 4290193694
0.024931192 -0.0022159377 0.022772739 4290128158
0.026508518 -0.00061361678 0.02134349 4289997344
0.028264575 0.00021038111 0.020570058 4289604899
0.030207545 0.00025633816 0.020451931 4289343268
0.032540806 -0.0012535304 0.021643322 4290128159
0.034686759 -0.0019852342 0.022179602 4290062113
0.037239298 -0.0042723278 0.024024367 4289930023
0.0069923252 -0.0026275832 0.021374784 4289145643
0.0086149797 -0.0010207426 0.019945418 4289670179
0.010391831 -0.00019484013 0.019171773 4289539618
0.012163073 0.00063103903 0.018398477 4290586394
0.014440879 -0.00088529103 0.019589478 4291305749
0.016382463 -0.00083994865 0.019471003 4290259229
0.01850003 -0.0015751263 0.02000685 4290193948
0.020443939 -0.0015295679 0.019888353 4290193694
0.022569239 -0.0022643544 0.020423882 4290258973
0.02433113 -0.0014381902 0.019651603 4289997343
0.025900349 0.00016822852 0.018226117 4290716953
0.027648218 0.00099426974 0.017454773 4290978838
0.029775418 0.00025979802 0.017990461 4290586393
0.032103017 -0.0012545427 0.019178966 4289800993
0.034441285 -0.0027685631 0.020366874 4289867548
0.036990829 -0.0050623063 0.022206999 4289865508
0.0042132288 -0.00031545851 0.017068405 4287377728
0.0064670518 -0.0018370748 0.018257357 4290651928
0.0082440302 -0.0010090647 0.017485192 4290586139
0.010180637 -0.0009641489 0.017366791 4288820009
0.011781156 0.00064674858 0.015942182 4289081639
0.013882615 -9.1140158e-05 0.016477272 4289408804
0.015815929 -4.5995228e-05 0.016359301 4290651673
0.018101268 -0.0015663207 0.017546739 4290062879
0.020397261 -0.0030862433 0.018733567 4290193694
0.022159331 -0.0022579818 0.017962838 4290193694
0.023915745 -0.0014297795 0.017192503 4289866529
0.025666527 -0.00060157105 0.016422542 4290847514
0.027411647 0.00022654142 0.015653027 4291044374
0.02972839 -0.0012925332 0.016838936 4291044374
0.031860627 -0.0020289342 0.017372722 4290847513
0.03439381 -0.0043296195 0.019208891 4289146919
0.036742501 -0.0058476925 0.020393038 4289342249
0.0040107518 -0.0010778541 0.01526796 4287509054
0.0062615946 -0.002603835 0.016453821 4290063643
0.0078733712 -0.00098851882 0.015031618 4291109909
0.0096392483 -0.0001585288 0.014261873 4290979094
0.011567377 -0.00011369307 0.014144076 4290390043
0.013665937 -0.00085383188 0.014677719 4291044373
0.015596427 -0.00080876797 0.014559907 4290847768
0.017702766 -0.0015485184 0.01509323 4289997343
0.019814335 -0.0022880756 0.015626287 4290128158
0.021749675 -0.0022426252 0.015508383 4289997343
0.023316413 -0.00062763505 0.014089466 4290782233
0.025059015 0.00020250399 0.013321659 4289408294
0.026985578 0.00024800096 0.013204475 4289408293
0.029489003 -0.0020600609 0.015037489 4289931553
0.031618394 -0.0027987561 0.015569865 4290258718
0.033950761 -0.0043216166 0.016751654 4289276714
0.036494307 -0.0066285441 0.018582443 4288033334
0.0036514625 -0.0010480331 0.01282032 4287966778
0.0058966279 -0.0025785435 0.01400333 4290063134
0.0075029507 -0.00095895398 0.012584661 4290258973
0.0094284266 -0.00091426913 0.012466959 4290717719
0.011353739 -0.00086950418 0.01234933 4290390043
0.013449416 -0.0016119285 0.012881574 4290651673
0.015550315 -0.0023540864 0.013413531 4290324508
0.017304532 -0.0015218267 0.012646389 4289735714
0.019410491 -0.0022636894 0.01317817 4289997344
0.021158874 -0.0014313972 0.012411511 4290455324
0.022717498 0.00018779933 0.010996289 4291109398
0.024638735 0.00023308862 0.010879369 4290847514
0.026559792 0.00027842261 0.010762497 4289931553
0.029057488 -0.002036334 0.012591052 4289735459
0.031376258 -0.0035639368 0.013770379 4290193184
0.033903427 -0.0058778399 0.01559726 4289668393
0.036246248 -0.0074047404 0.016775224 4287182908
0.0034493133 -0.0017990386 0.011028324 4288294199
0.0053723082 -0.0017546099 0.010910627 4290259228
0.0072951168 -0.001710088 0.010793014 4290259229
0.0092177689 -0.001665487 0.010675472 4289736224
0.011475764 -0.0031997724 0.011854666 4289670688
0.013573959 -0.003944247 0.012385112 4289866528
0.015331015 -0.0031098365 0.011619348 4289670178
0.017082468 -0.0022754469 0.010853934 4289539620
0.019006908 -0.002230342 0.010736627 4289146663
0.020749815 -0.0013959864 0.0099719316 4289343013
0.022671171 -0.0013507912 0.0098549342 4290128159
0.02421876 0.00027251616 0.0084437095 4290913304
0.026323773 -0.00047120731 0.0089741806 4291044118
0.028626233 -0.0020036469 0.010151188 4290978583
0.030939355 -0.0035357792 0.011327661 4290258209
0.033460818 -0.0058563659 0.013150016 4289210669
0.035797983 -0.0073877471 0.014325088 4286856254
0.0030905008 -0.0017535668 0.008592369 4289539108
0.0050079301 -0.0017092666 0.0084750131 4289866528
0.0067629367 -0.00087310467 0.0077107139 4290389788
0.0088422745 -0.0016203877 0.008240548 4290651673
0.01092688 -0.0023674648 0.0087701222 4290063389
0.013016745 -0.003114325 0.009299445 4289735714
0.014938734 -0.0030694623 0.0091821486 4289605409
0.016860545 -0.0030245078 0.0090649361 4289343269
0.018782176 -0.0029794606 0.0089478055 4289212199
0.020522341 -0.0021430347 0.008184867 4289670179
0.022440851 -0.0020978982 0.0080680484 4289800993
0.02417247 -0.0012614941 0.0073057623 4290062623
0.02646675 -0.0027985512 0.0084799742 4289735714
0.02857957 -0.003544216 0.009008388 4290193438
0.030697614 -0.0042897011 0.0095366007 4290258718
0.03301847 -0.0058258935 0.010709371 4289799718
0.035550304 -0.0081527084 0.012526277 4286267714
0.0028886944 -0.0024932171 0.006808796 4289735459
0.0044843405 -0.00086094718 0.0054003997 4290128413
0.0065555125 -0.0016106833 0.0059290482 4290913559
0.0084670484 -0.0015663374 0.0058121877 4290979094
0.010378413 -0.0015219115 0.0056954008 4291240723
0.012289591 -0.0014773933 0.0055786958 4290128414
0.014546737 -0.0030201986 0.0067516174 4289736224
0.016638793 -0.0037690215 0.007279308 4289539620
0.018736079 -0.0045176162 0.0078067579 4289343269
0.020294972 -0.0028855135 0.0064011933 4289604643
0.022026755 -0.002047013 0.0056404541 4290062623
0.023939565 -0.0020019473 0.00552403 4289997344
0.026230909 -0.00354343 0.0066951797 4289408548
0.0285329 -0.0050845705 0.0078657484 4289670178
0.030650787 -0.0058322474 0.0083923414 4290192673
0.032773919 -0.0065797064 0.0089186104 4289668903
0.035502978 -0.0097061582 0.011373944 4286136899
0.0023736432 -0.0016357535 0.0037403195 4290062623
0.0041205585 -0.00079555158 0.0029796613 4289539619
0.0058618784 4.4604763e-05 0.0022194088 4288950824
0.0077624023 8.8698231e-05 0.0021032225 4289604898
0.0096627846 0.00013287179 0.001987108 4291044373
0.011733256 -0.00061879307 0.0025143772 4289801248
0.014154993 -0.0029619732 0.0043276595 4290259483
0.016241439 -0.003713137 0.0048541226 4289866528
0.018333137 -0.0044640484 0.0053802873 4290128158
0.019886613 -0.0028277063 0.0039782277 4289997344
0.021429062 -0.0011915565 0.0025769628 4290651418
0.023333609 -0.0011466984 0.0024610313 4290978583
0.025427282 -0.0018972466 0.0029873122 4290978838
0.027910233 -0.0042384588 0.0047973352 4290716954
0.030019805 -0.0049884962 0.0053227488 4289996579
0.032726981 -0.0081242276 0.0077728913 4289538088
0.035255514 -0.010464169 0.0095802881 4286005828
0.0020156354 -0.0015635183 0.001324218 4289932829
0.0035977066 7.7137724e-05 -7.6873112e-05 4290979094
0.0054928511 0.00012098625 -0.00019281858 4289670433
0.0072230697 0.00096317288 -0.00095069048 4289866783
0.0094501525 -0.00058917701 0.00021740899 4290063134
0.011517748 -0.0013431609 0.00074325106 4290717719
0.013590604 -0.0020968677 0.0012688122 4290259483
0.015493073 -0.0020523989 0.0011527536 4290258973
0.017573714 -0.0028057406 0.0016779766 4290128158
0.019297466 -0.0019632 0.0009208757 4290389788
0.021015577 -0.0011207042 0.00016418222 4290520603
0.022728078 -0.00027820468 -0.00059214362 4289997599
0.024813443 -0.0010311734 -6.6937995e-05 4290717209
0.027095996 -0.0025814949 0.0010983214 4290847513
0.029389217 -0.0041314876 0.0022629909 4289605409
0.032285281 -0.0080736186 0.005347182 4289211433
0.035008214 -0.01121762 0.0077899364 4286267458
-0.00039131939 -0.00072530098 -0.0016102594 4289408804
0.0016578808 -0.0014822986 -0.0010852917 4289540128
0.0035530701 -0.0014385562 -0.0012013206 4290782744
0.0052861124 -0.00059421919 -0.0019578137 4291109909
0.0068488345 0.0010504946 -0.0033543683 4290848023
0.0089028403 0.00029394403 -0.0028293701 4291109909
0.010962091 -0.00046235416 -0.0023046699 4290455833
0.013199471 -0.0020186501 -0.0011403152 4290324764
0.014920816 -0.00117415 -0.0018957701 4290193694
0.017171465 -0.0027300385 -0.00073207624 4290128158
0.018889703 -0.0018854002 -0.0014872599 4290913304
0.020602368 -0.0010408657 -0.0022420078 4290455324
0.022122979 0.00060349796 -0.0036354475 4289212453
0.024010852 0.00064802077 -0.0037503215 4289866784
0.026090436 -0.00010714866 -0.0032263752 4290063134
0.028759062 -0.003261283 -0.00078690529 4289474594
0.03164658 -0.007214509 0.0022897003 4290193694
0.034360997 -0.010367404 0.0047265026 4287183419
-0.00058940053 -0.0014357241 -0.0033723731 4289669923
0.001456894 -0.0021949816 -0.0028488603 4289604899
0.0031900406 -0.0013485979 -0.0036038384 4289473828
0.0050795227 -0.00130489 -0.0037194453 4290325019
0.0068041906 -0.00045846682 -0.0044738045 4289735969
0.0088580027 -0.0012172218 -0.0039504324 4290128158
0.010747008 -0.0011732373 -0.0040657953 4289735714
0.012808651 -0.0019315779 -0.0035428028 4290324764
0.014524512 -0.0010850625 -0.0042963289 4290193694
0.016769476 -0.0026453747 -0.0031355559 4290193694
0.017939396 0.00060787797 -0.0058022011 4290913303
0.019822113 0.00065212604 -0.0059168749 4291044373
0.021331891 0.0023005558 -0.0073064379 4290782743
0.023776114 -6.1214902e-05 -0.0055087535 4290455578
0.026044659 -0.001620641 -0.0043490948 4290651164
0.028518401 -0.0039815949 -0.0025530411 4289930788
0.031008251 -0.0063420818 -0.00075797713 4289537578
-0.00078734756 -0.0021415758 -0.0051311716 4289800229
0.0012560487 -0.0029031173 -0.0046090572 4289735458
0.0028272718 -0.0012497138 -0.005999811 4289604898
0.0047112033 -0.0012061335 -0.0061150771 4289735969
0.0064303949 -0.00035773311 -0.00686746 4289604898
0.0083112866 -0.00031404849 -0.0069824113 4289932064
0.010362044 -0.001074899 -0.0064604329 4289932064
0.012418069 -0.0018355688 -0.0059387344 4290259228
0.01430393 -0.0017915173 -0.0060538007 4290062879
0.016189598 -0.0017473875 -0.0061687934 4289997343
0.017532438 0.00070993137 -0.0081922757 4289997599
0.019593224 -5.029235e-05 -0.0076706177 4290193949
0.021286629 0.00079818163 -0.0084209247 4290979094
0.023541532 -0.00076594111 -0.0072637657 4290521113
0.025615394 -0.0015256414 -0.0067427428 4290651163
0.028083421 -0.0038933018 -0.004951233 4289865253
0.030567579 -0.0062605073 -0.0031606476 4290518819
-0.001138784 -0.0020357482 -0.0075227898 4289734693
0.00074262172 -0.001992424 -0.0076380484 4290062623
0.0021466315 0.0004721703 -0.0096609853 4290651673
0.0040195584 0.00051547308 -0.0097755957 4290913558
0.0062213987 -0.0010550385 -0.0086189574 4290782744
0.0082667023 -0.0018182984 -0.0080983452 4289932318
0.010147326 -0.0017745718 -0.0082132434 4290063134
0.0120278 -0.0017307289 -0.008328042 4289997599
0.014083505 -0.0024935096 -0.007807889 4290258718
0.01578825 -0.0016428502 -0.0085574593 4289866529
0.017125756 0.00082088541 -0.010575822 4290389789
0.018997394 0.0008648308 -0.010689852 4289735713
0.021055162 0.00010238122 -0.01016954 4289735713
0.023496084 -0.0022725398 -0.0083813807 4289604898
0.025569789 -0.0030344315 -0.0078619774 4289866019
0.027648732 -0.0037961658 -0.0073427921 4289473064
0.03052143 -0.0077823661 -0.0042895642 4289472299
-0.0011827722 -0.0035397229 -0.0086385654 4289931554
0.00038591027 -0.0018778462 -0.010022742 4289931553
0.0017845407 0.00059313979 -0.012040501 4290782488
0.0036519393 0.0006363038 -0.012154779 4290848023
0.0055191889 0.00067953672 -0.012268997 4291306003
0.007887803 -0.0017042784 -0.010481713 4289801249
0.010102659 -0.0032786443 -0.0093290387 4290193948
0.01198303 -0.0032348395 -0.0094438586 4290324763
0.013863236 -0.0031909542 -0.009558606 4290258973
0.015387192 -0.0015294114 -0.010939523 4290062879
0.016900115 0.00013197307 -0.012319767 4290455068
0.018768966 0.00017584953 -0.01243363 4290455323
0.020823836 -0.0005888259 -0.011914821 4289997343
0.022883974 -0.0013533672 -0.011396251 4289539618
0.024949357 -0.002117632 -0.01087796 4289669668
0.027408674 -0.004498519 -0.0090956856 4289603879
0.030475311 -0.0093040578 -0.0054183574 4289341738
-0.0015337765 -0.0034204349 -0.011020201 4290193439
0.00018570572 -0.0025657751 -0.011768023 4289539108
0.0017406642 -0.00089980755 -0.01314808 4288623658
0.0037696138 -0.0016680239 -0.012629873 4289539619
0.0054750741 -0.00081342738 -0.01337657 4290782743
0.007676281 -0.0023925737 -0.012226381 4289866784
0.0097183734 -0.0031602406 -0.011708722 4289932064
0.012110822 -0.0055498257 -0.009927677 4290128158
0.013818383 -0.0046948753 -0.010674275 4290324508
0.015342385 -0.0030290382 -0.012052 4290520859
0.016674638 -0.00055242702 -0.014060369 4290390044
0.018357269 0.00030217133 -0.014805274 4290978838
0.020406559 -0.00046483148 -0.01428776 4291109909
0.022649936 -0.002042322 -0.013139646 4290651929
0.024712481 -0.0028089168 -0.012622792 4289473574
0.027168803 -0.0051964074 -0.010845196 4289670179
0.030232228 -0.010015082 -0.0071773911 4289800993
-0.0042070374 -0.00089388713 -0.015175307 4288752944
-0.0020379648 -0.0024785572 -0.01402671 4289866274
-0.00017050654 -0.0024356185 -0.014141163 4290847513
0.0016967952 -0.0023925998 -0.014255543 4289473573
0.0034023598 -0.0015359689 -0.015000734 4289015849
0.0052666739 -0.0014928337 -0.015114794 4289866784
0.0074649155 -0.0030763815 -0.013967649 4290651929
0.0096738935 -0.0046596215 -0.012821043 4290128414
0.011721104 -0.0054292511 -0.012305319 4289997343
0.01359839 -0.0053854864 -0.012419928 4290390044
0.015119679 -0.0037153303 -0.0137943 4290455324
0.016629964 -0.0020453911 -0.015167898 4290128159
0.018129222 -0.00037564524 -0.016540775 4289866529
0.019989572 -0.00033195876 -0.016654113 4290128414
0.022227302 -0.0019139545 -0.015508911 4291109143
0.024475753 -0.0034956574 -0.014364326 4289474084
0.027123287 -0.0067025661 -0.011962477 4289473063
-0.004702419 6.5750442e-05 -0.018169291 4289014574
-0.0025417507 -0.0015234696 -0.017023424 4289538853
-0.00068256259 -0.0014807275 -0.017137373 4290978328
0.0011764839 -0.0014379052 -0.017251251 4290847513
0.0030353889 -0.001394989 -0.01736505 4290520348
0.0048941597 -0.0013520168 -0.017478796 4290848023
0.0067527667 -0.0013089282 -0.017592443 4290782489
0.0089506358 -0.0028968244 -0.016448429 4290324764
0.011159226 -0.0044843298 -0.01530504 4290455578
0.013203405 -0.0052561262 -0.014790693 4290390044
0.014719307 -0.0035818131 -0.016161477 4290847769
0.016224191 -0.0019077063 -0.01753155 4289735714
0.017718054 -0.0002337331 -0.018900931 4289343269
0.01975888 -0.0010053124 -0.018386157 4289735459
0.021804988 -0.0017767577 -0.017871626 4290258719
0.024047785 -0.0033629411 -0.016729936 4289211433
0.026689552 -0.0065786992 -0.014334219 4289734184
-0.0048961639 -0.00059763901 -0.019896744 4288295219
-0.0028917864 -0.0013732538 -0.019382117 4289146154
-0.001194194 -0.00051267631 -0.020123744 4289211944
0.00097411126 -0.0021058987 -0.018981453 4289800738
0.002668716 -0.0012452276 -0.019722778 4290520603
0.004686147 -0.0020201877 -0.019208686 4290324509
0.006208092 -0.00034173112 -0.020576861 4289735713
0.008567214 -0.0027517984 -0.018808445 4289997599
0.010425434 -0.0027085859 -0.018921969 4290194203
0.012633651 -0.0043004397 -0.017781714 4290194204
0.01414144 -0.0026219673 -0.019148838 4290586394
0.015999205 -0.0025785491 -0.019262174 4291174933
0.017490402 -0.00090035144 -0.020628128 4290324509
0.019528367 -0.0016742144 -0.02011483 4289866274
0.021382935 -0.0016306471 -0.020227807 4290258719
0.023811452 -0.0040385528 -0.018463146 4290192674
0.026256099 -0.0064459546 -0.01669945 4290060583
-0.0047886744 -0.0028970619 -0.020367388 4288556848
-0.0029350072 -0.0028546019 -0.020481115 4289865763
-0.001081489 -0.0028120377 -0.020594753 4289343014
0.00093059987 -0.0035894653 -0.020082081 4289211944
0.0026251525 -0.0027266424 -0.0208218 4289408038
0.0044782683 -0.002683823 -0.020935217 4289669668
0.0059975311 -0.0010011075 -0.022300083 4289670179
0.0080145225 -0.0017781444 -0.021787429 4289735714
0.010036781 -0.0025549293 -0.021275075 4289670688
0.012064323 -0.0033315085 -0.020762982 4290128669
0.013741709 -0.0024686125 -0.021501301 4289801248
0.015413538 -0.0016057733 -0.022239227 4290455324
0.017079756 -0.00074291974 -0.022976777 4290913304
0.018926278 -0.00069966353 -0.023089351 4290585628
0.020772636 -0.00065632816 -0.023201851 4290585884
0.023192741 -0.003070984 -0.021441558 4289865508
0.02601698 -0.0071237041 -0.018434033 4289864488
-0.0046812743 -0.0052006957 -0.020841159 4288623658
-0.0028250068 -0.0051581934 -0.020955058 4289278244
-0.00096888095 -0.0051155863 -0.021068869 4288558634
0.0012044013 -0.0067174928 -0.019933356 4288427563
0.0027429909 -0.0050301421 -0.021296289 4288427564
0.0045987219 -0.0049873046 -0.021409897 4288623913
0.0061207339 -0.0033002375 -0.022771666 4288950823
0.0081402585 -0.0040793754 -0.02226085 4289866529
0.0098206177 -0.0032143965 -0.022997854 4289670433
0.011845298 -0.0039932597 -0.022487234 4289081639
0.013519958 -0.0031282683 -0.02322378 4289343269
0.015549757 -0.0039068456 -0.02271335 4289473574
0.017035589 -0.0022201142 -0.024072608 4289473573
0.018882029 -0.0021768841 -0.024185197 4289473573
0.020351276 -0.00049046054 -0.025543312 4289538853
0.022956915 -0.003733288 -0.023164904 4289799973
0.025778025 -0.0077969781 -0.020165298 4289539109
-0.004573971 -0.0075085033 -0.02131803 4288951078
-0.0025619566 -0.0082905702 -0.020808728 4289081894
-0.00054464489 -0.0090723606 -0.020299712 4288754728
0.0013194084 -0.0090295412 -0.020413985 4288623914
0.0030220225 -0.0081622219 -0.021150991 4288558634
0.0047190711 -0.0072949361 -0.021887658 4288558378
0.0065772757 -0.0072519872 -0.022001376 4288885544
0.0084353387 -0.0072089452 -0.022115016 4289539873
0.010121122 -0.0063417144 -0.022850767 4288950823
0.01197619 -0.0062985923 -0.022964111 4288754728
0.013831131 -0.0062554125 -0.023077402 4289147174
0.015505604 -0.0053882129 -0.02381229 4289146919
0.016991481 -0.003697176 -0.025168348 4288950569
0.018837824 -0.0036539598 -0.025280939 4289277479
0.020495571 -0.0027869777 -0.026014676 4289081128
0.02291242 -0.0052148062 -0.02426393 4289080618
0.025733136 -0.0092893969 -0.021272404 4288819243
-0.0046171173 -0.0089937225 -0.022419915 4288820518
-0.0022991225 -0.011431442 -0.020668777 4289081894
-0.0002765432 -0.012215322 -0.020161727 4288689704
0.0015928224 -0.012172392 -0.020276336 4288689449
0.0033008382 -0.011302833 -0.021012098 4288493099
0.005167231 -0.011259786 -0.021126386 4288820009
0.0068668127 -0.010390258 -0.02186151 4289343268
0.0087302253 -0.01034713 -0.021975504 4289343779
0.010421403 -0.009477634 -0.022709992 4289081893
0.012456626 -0.010260654 -0.022203295 4288493098
0.013964541 -0.0085649239 -0.023557587 4289016614
0.015641734 -0.0076955524 -0.02429107 4288689448
0.017130367 -0.0060001886 -0.025644051 4288362283
0.018979363 -0.0059569529 -0.025756834 4288492843
0.0206398 -0.0050877044 -0.02648917 4288361263
0.022676885 -0.0058703371 -0.025982259 4288295219
0.025300689 -0.0091301119 -0.023617888 4286725184
-0.0063713789 -0.011350301 -0.022787059 4287576119
-0.0042093173 -0.012965749 -0.021660818 4289082403
-0.0020364895 -0.014580879 -0.020535184 4288624424
-0.00016439706 -0.014537988 -0.020650035 4288297259
0.0015491396 -0.013666256 -0.021384614 4288624424
0.0034182742 -0.013623271 -0.021499163 4288558633
0.0054511577 -0.014408838 -0.020994175 4288820263
0.0073227435 -0.014365647 -0.021108763 4289670944
0.0090248957 -0.013493831 -0.021842385 4288754984
0.01072146 -0.012622082 -0.022575621 4288493098
0.012587219 -0.012578797 -0.022689682 4288689449
0.014275372 -0.011707068 -0.023422271 4288558633
0.015777767 -0.010007114 -0.024772989 4288624169
0.017269187 -0.0083073899 -0.026122939 4288427818
0.019120805 -0.0082641467 -0.026235925 4288361774
0.020972274 -0.0082208468 -0.026348855 4288295983
0.022823602 -0.0081774676 -0.026461715 4288099123
-0.006414406 -0.012837361 -0.023890324 4288230448
-0.0045530275 -0.012794944 -0.024004687 4289213218
-0.002385892 -0.014414568 -0.022881949 4288754728
-0.00051931292 -0.01437185 -0.022996498 4288689703
0.0015055016 -0.015159978 -0.022492785 4288689704
0.0033745244 -0.015117031 -0.022607354 4288362538
0.0055710673 -0.016735682 -0.021486126 4288755239
0.0072787404 -0.015861658 -0.022218613 4289082404
0.0091500953 -0.0158184 -0.022333132 4288427563
0.010849357 -0.014944455 -0.023064943 4288624169
0.013067111 -0.01656232 -0.021944793 4288493354
0.014408581 -0.014027214 -0.023910353 4288493354
0.015913762 -0.012322946 -0.025258003 4288558633
0.017407909 -0.010618811 -0.026604963 4288297004
0.019447707 -0.011405848 -0.026101613 4288493354
0.021116272 -0.010532221 -0.026831253 4288230193
0.022970237 -0.010488821 -0.026944306 4287968309
-0.0028878897 -0.013406152 -0.025839116 4286530619
-0.0011851639 -0.012530485 -0.026569916 4288558123
0.00098694861 -0.014154237 -0.025450569 4288296494
0.0031697899 -0.01577761 -0.024331855 4288361773
0.0051996335 -0.016567666 -0.023829972 4288885544
0.0070683137 -0.016524594 -0.023944421 4288231214
0.0089368522 -0.016481454 -0.024058806 4288165423
0.010805272 -0.016438246 -0.024173131 4288296493
0.012673564 -0.016394965 -0.024287397 4288689449
0.014187053 -0.014686244 -0.025632383 4288297003
0.015869595 -0.013810363 -0.026361445 4288428073
0.017546557 -0.012934467 -0.027090132 4288100908
0.01958894 -0.013723724 -0.026588559 4288231723
0.021636598 -0.014512762 -0.026087316 4287968818
0.023307726 -0.013636844 -0.026815454 4288687664
0.0028042644 -0.01559853 -0.026667856 4287185204
0.004992187 -0.017226066 -0.025552638 4286268479
0.0065252483 -0.015512897 -0.026895847 4287903283
0.0082164183 -0.014634911 -0.027624093 4288950314
0.010073885 -0.01459199 -0.027737776 4288296238
0.012280338 -0.016218878 -0.026623452 4288426798
0.013965711 -0.015340835 -0.027351126 4288492844
0.015825503 -0.015297672 -0.027464811 4288362283
0.017502457 -0.01441966 -0.02819192 4288428074
0.019730091 -0.016045785 -0.02707869 4288427563
0.021404073 -0.015167788 -0.027805503 4288360753
0.023263335 -0.015124362 -0.027918952 4289080109
0.017275773 -0.01506787 -0.029905492 4286791738
0.019315138 -0.015861586 -0.029407084 4287576373
0.020983681 -0.014981575 -0.030131971 4287771703
0.022455893 -0.013264935 -0.031467825 4286855488
-0.019846607 0.0017478429 0.046718713 4280569994
-0.018096134 0.0033079702 0.045244493 4281356159
-0.016231552 0.0041101351 0.044446301 4280108699
-0.014116827 0.0033968668 0.044998672 4281552253
-0.011735614 0.0011684764 0.046900634 4281355649
-0.022471257 0.0039074179 0.042286705 4278800039
-0.020848483 0.0062316954 0.040142193 4278799783
-0.017152049 0.0078396015 0.03855104 4278270658
-0.012694798 0.004888406 0.041001234 4279452584
-0.010450047 0.0034133065 0.042225514 4279258273
-0.0081945583 0.0019386001 0.043449167 4279062943
-0.0057896301 -0.00029543974 0.045345061 4280374409
-0.0039342493 0.00050939061 0.044549581 4278801824
-0.0020845085 0.0013142694 0.043754499 4282536553
-9.3497336e-05 0.0013596024 0.043632139 4282732903
0.0023461357 -0.0008732155 0.045526225 4282668134
-0.022983003 0.0053710695 0.038420115 4279193248
-0.021251526 0.0069394112 0.036953498 4278471343
-0.019286484 0.006983161 0.036831997 4279192739
-0.017696634 0.0093134493 0.034694619 4279388323
-0.013653126 0.0086391326 0.035124764 4279519139
-0.011161324 0.0056353481 0.03768998 4278800293
-0.0091915578 0.0056797704 0.03756861 4278735013
-0.0069446787 0.0042006494 0.038789656 4278735013
-0.0052525327 0.0057689613 0.037326176 4278931618
0.0030802116 0.0036640167 0.038853332 4280372113
0.0056768507 0.0006634742 0.041412745 4281946484
-0.024655558 0.0014570598 0.039385412 4282274159
-0.023377489 0.0060879532 0.035237569 4278472874
-0.019819722 0.0084684528 0.032983199 4278862004
-0.017990813 0.0092764031 0.032192111 4278470323
-0.015784442 0.0077915229 0.033412118 4278274229
-0.011472587 0.0055870507 0.035180446 4278669223
-0.0095084198 0.0056313779 0.035059441 4278799783
-0.0076829828 0.0064398199 0.034268994 4278472619
-0.0060044602 0.0080121923 0.0328096 4278406063
-0.0023871362 0.0096289236 0.031231143 4278601394
0.0047008172 0.0036536008 0.036220603 4279389854
0.0073023364 0.00064456277 0.038773317 4279718039
-0.02492772 0.0014076158 0.036872026 4282339948
-0.023654886 0.0060514975 0.032734264 4278669733
-0.018409643 0.010014819 0.029027574 4278336703
-0.01413339 0.0078028236 0.030793089 4278471853
-0.011916671 0.0063140336 0.032009378 4278603688
-0.0099608116 0.0063582044 0.031888913 4278800038
-0.0081436373 0.0071686972 0.031100562 4278865574
-0.0045260936 0.0087895487 0.029525228 4278471343
-0.0027257428 0.0095999297 0.028738189 4279651993
-0.00063221157 0.0088784117 0.029286083 4279323299
0.0014666021 0.0081571098 0.029833723 4278732973
0.0040352494 0.0051385267 0.032381911 4278602668
0.0066254809 0.0021205395 0.03492884 4282403699
-0.025313593 0.0021361727 0.03369749 4279194269
-0.024048708 0.0067929421 0.029569943 4278538665
-0.02221971 0.0076050311 0.028781928 4278800549
-0.020640522 0.0099546723 0.02665971 4278733738
-0.018703286 0.0099979527 0.026540043 4278602669
-0.01663864 0.0092727337 0.02708745 4278735014
-0.014308102 0.0070105772 0.028968252 4278538663
-0.012360401 0.0070544425 0.028848201 4278538664
-0.010277119 0.0063299723 0.029394701 4278668968
-0.0086039193 0.0079108775 0.027942073 4278603943
-0.0029174984 0.0088117402 0.026917705 4278270659
0.0033701807 0.0066411719 0.028556362 4279258783
0.005949147 0.0036142217 0.031097505 4282795634
-0.02569909 0.0028780308 0.030532904 4279455388
-0.024208967 0.0060056224 0.027747639 4278603689
-0.022382777 0.0068198536 0.026961438 4278800039
-0.02068422 0.0084050409 0.025509935 4279061413
-0.018996682 0.009990057 0.024059244 4278996898
-0.017065182 0.010033337 0.023940025 4278473384
-0.014873378 0.0085352547 0.025151275 4278407594
-0.012803767 0.0078082029 0.025696928 4278603689
-0.010728847 0.0070813335 0.026242375 4278472874
-0.0089254379 0.0078958925 0.025458127 4278603943
-0.0071276203 0.0087103955 0.024674354 4278406318
-0.0051915795 0.0087544508 0.024555357 4278471343
0.00076754391 0.0081169847 0.024862744 4278930599
0.0030150712 0.0066210907 0.026071329 4279324318
0.005588226 0.0035853125 0.028606363 4282926193
-0.026311859 0.0051798634 0.026049029 4278996644
-0.024718724 0.0075426493 0.023935499 4278995878
-0.020971905 0.00840188 0.023032214 4278268874
-0.017363928 0.010034358 0.021466207 4278866083
-0.015047673 0.0077588223 0.023338174 4278538663
-0.013113875 0.0078024119 0.023219006 4278669223
-0.01104461 0.0070732981 0.02376315 4278538665
-0.0092467144 0.0078898706 0.02298091 4278538409
-0.007595472 0.0094791539 0.021536166 4278735013
-0.0056677312 0.0095230229 0.021417681 4278735013
-0.0034471527 0.0080218557 0.022624454 4278735014
-0.0015143007 0.0080660619 0.022505816 4278669734
0.00057032704 0.0073379353 0.023049494 4278865573
0.002814889 0.0058376491 0.024255045 4279324319
-0.02681027 0.0067283157 0.022244502 4278800038
-0.025111523 0.008322008 0.020799313 4278668714
-0.021381281 0.0091830473 0.019898674 4278732719
-0.017662428 0.010044318 0.018999096 4278733993
-0.015482049 0.0085372794 0.020204578 4278603688
-0.013556555 0.0085806623 0.020085907 4278734760
-0.011766754 0.0093991328 0.019305715 4278603434
-0.0098442808 0.0094426796 0.019187402 4278603434
-0.0020068064 0.0088432599 0.019375842 4278996643
6.9454312e-05 0.0081127733 0.019918416 4278996389
0.0024602041 0.0058333948 0.021781683 4279389089
-0.028341211 0.0020303 0.023864292 4279783573
-0.027194504 0.007516833 0.019114463 4278603433
-0.02358612 0.0091572944 0.01755444 4279258274
-0.021790285 0.0099775642 0.01677504 4279324064
-0.019875415 0.010020379 0.016656779 4278799273
-0.018088005 0.010840643 0.015878107 4278274484
-0.015916053 0.0093290415 0.017080929 4278799783
-0.01399887 0.0093722381 0.01696277 4278865319
-0.012081828 0.0094155632 0.016844718 4278406318
-0.010303147 0.010236124 0.016066877 4278668203
-0.006618917 0.011100139 0.015172059 4278597313
2.4430454e-05 0.0065705758 0.018774277 4279061925
0.0022603273 0.0050613694 0.019973867 4279782300
-0.028717179 0.0028170645 0.020732298 4279325338
-0.027351096 0.0067589935 0.017313808 4278538919
-0.01838595 0.010870747 0.013425944 4278405809
-0.016219713 0.0093547013 0.014625831 4278865063
-0.014308117 0.0093977936 0.014508032 4278734504
-0.012396656 0.0094409902 0.014390322 4278340783
-0.0089967698 0.011865335 0.012181032 4279585948
-0.0069503561 0.011129523 0.012721987 4278996134
-0.0046060234 0.0088357627 0.014578115 4278667183
-0.0023945421 0.0073214732 0.015775835 4278864298
-0.00032410771 0.0065865237 0.016315544 4279061923
0.0022150353 0.0035150535 0.018826682 4280895373
-0.029092785 0.0036172029 0.01761023 4279325084
-0.027621146 0.0067878254 0.014858438 4278538663
-0.025938813 0.0083941724 0.013424028 4278341804
-0.024029445 0.0084366556 0.013305952 4278535349
-0.022363693 0.010042874 0.011872746 4278667184
-0.02033554 0.0093036946 0.012412624 4278733738
-0.018429264 0.0093464497 0.012294992 4278603688
-0.016393203 0.0086076763 0.012834551 4278603689
-0.014617108 0.009432273 0.01205999 4278734760
-0.012711234 0.0094753522 0.011942632 4278537899
-0.0071380064 0.01038656 0.010934836 4279060649
-0.0049429685 0.0088674743 0.012130205 4278601649
-0.00036901236 0.0050491812 0.015175008 4279389853
0.0021697432 0.0019690096 0.017679702 4281026189
-0.029357228 0.00364637 0.01515474 4279128478
-0.028117966 0.008393934 0.011096766 4278473638
-0.026330329 0.0092203356 0.010322572 4278669733
-0.024548236 0.01004667 0.0095488355 4278735014
-0.02252835 0.0093050245 0.010087526 4278866338
-0.020503115 0.0085635781 0.010626017 4278538663
-0.018472582 0.0078224018 0.011164225 4278538664
-0.016566571 0.0078652594 0.011046688 4278865828
-0.014793269 0.008691974 0.010273924 4278604198
-0.012890264 0.0087349936 0.010156745 4278407850
-0.010849372 0.0079945028 0.010694649 4278341039
-0.007182084 0.0088646859 0.0098057445 4278270913
-0.0029306933 0.0066015478 0.011535152 4278535859
-0.00086878985 0.0058620516 0.012072151 4279259295
0.0018157586 0.0019897362 0.015224879 4281681283
-0.029842883 0.0052573839 0.01139577 4278931873
-0.028387405 0.0084450785 0.0086579518 4278669479
-0.026837647 0.010846106 0.0065762834 4278664634
-0.025066528 0.011674378 0.0058048493 4279517354
-0.023057736 0.010930313 0.0063426089 4279454114
-0.020919263 0.0094003305 0.0075343763 4278538664
-0.018770039 0.0078707431 0.0087255165 4278538664
-0.016999409 0.0086994804 0.007954468 4278538664
-0.015101835 0.0087422561 0.007837534 4278604198
-0.013069171 0.0079992991 0.0083742458 4278604454
-0.011307117 0.0088281576 0.0076039601 4278538664
-0.0094099604 0.0088712703 0.0074873106 4278735013
-0.0073695704 0.0081288088 0.0080237845 4279127204
-0.0054699928 0.0081721656 0.0079071252 4279192739
-0.0035705864 0.0082156621 0.0077905832 4278538154
-0.0013681948 0.0066882055 0.0089792199 4279127458
0.0013077632 0.0028048158 0.012124381 4280694178
-0.031470791 0.0013235714 0.012342901 4280439179
-0.030217387 0.0060975049 0.0083033703 4278800294
-0.027112231 0.010912569 0.0041493461 4278401729
-0.025346648 0.011742901 0.0033798791 4278270149
-0.021086466 0.008673789 0.0057578445 4278603688
-0.019067232 0.0079280175 0.0062935152 4278604198
-0.017302118 0.0087587815 0.0055244067 4278735269
-0.015277687 0.0080133565 0.0060599283 4278407593
-0.011626571 0.0088871103 0.0051749516 4278669734
-0.0097349957 0.0089300852 0.005058636 4278341804
-0.0078435764 0.0089731868 0.004942426 4279323044
-0.0056601763 0.0074407794 0.0061287922 4278866085
-0.0039123893 0.008271914 0.0053613172 4278866083
-0.0018672049 0.0075276978 0.0058961106 4278930853
0.00080013275 0.0036332477 0.0090337181 4282658953
-0.033010043 -0.0034140996 0.013933756 4282667623
-0.031836972 0.002164118 0.009250164 4279259293
-0.028925531 0.0085741933 0.0038003004 4279126949
-0.027270529 0.010197343 0.0023805392 4278734759
-0.021501988 0.0095328223 0.0026827329 4278734249
-0.019618057 0.0095750745 0.0025664796 4278735014
-0.017734248 0.0096174441 0.0024503223 4278734759
-0.015718184 0.0088696331 0.002984724 4278275759
-0.013831917 0.0089122821 0.0028685811 4278865063
-0.0099192336 0.0082078148 0.0032865447 4278399944
-0.0059962347 0.0075039435 0.0037042182 4279976609
-0.0045513958 0.0099169798 0.0016397117 4278735014
-0.0020629615 0.0068007633 0.0041215271 4278996899
-0.032202777 0.0030179806 0.006167307 4279587223
-0.030744188 0.0062317234 0.0034486279 4278404788
-0.027544692 0.010279598 -3.475463e-05 4278275504
-0.025668729 0.010321338 -0.00015076529 4278603434
-0.019914623 0.0096545927 0.00015097897 4278734504
-0.018166006 0.0104894 -0.00061390083 4278603434
-0.016025975 0.008946728 0.00056830177 4278602924
-0.014145285 0.0089892596 0.00045250857 4278602413
-0.012402494 0.0098242126 -0.00031173369 4278272189
-0.010384303 0.0090746153 0.00022117316 4279123634
-0.0045952573 0.008411333 0.00052268273 4279062179
-0.0021072179 0.0052864049 0.0029980445 4278472363
-0.032568213 0.0038850876 0.0030943509 4279194014
-0.031228181 0.0079024471 -0.00026596128 4278603943
-0.027818594 0.010370731 -0.0024433881 4278270913
-0.021959603 0.0089062843 -0.0014946071 4278734504
-0.020210937 0.0097430907 -0.0022579292 4278537899
-0.018338289 0.0097852051 -0.002373402 4278603690
-0.016333517 0.0090328194 -0.0018415201 4278275759
-0.012583423 0.0091176964 -0.0020723585 4279584929
-0.010568134 0.0083658285 -0.0015408407 4279061923
-0.0086907037 0.00840858 -0.0016562139 4278471599
-0.0066675618 0.0076571256 -0.0011250778 4278733229
-0.0047877058 0.0077001564 -0.0012404347 4279061923
-0.0020001531 0.002978066 0.0025207973 4278930088
-0.034292608 0.00073699839 0.0033847271 4282798184
-0.03314868 0.0063602366 -0.0012630763 4278800803
-0.031711686 0.0095908903 -0.0039674779 4278407593
-0.029843982 0.0096322186 -0.0040831463 4278669478
-0.027976371 0.009673629 -0.0041987472 4279061668
-0.025990278 0.0089180917 -0.0036677457 4278930343
-0.023998842 0.008162763 -0.0031370097 4278800039
-0.022126097 0.008204639 -0.0032526664 4278603434
-0.020253479 0.0082466565 -0.0033682087 4278668968
-0.018639926 0.0098825023 -0.0047752713 4278603690
-0.016640786 0.0091277771 -0.0042446903 4278668459
-0.0049800128 0.0069935601 -0.0030001537 4279389599
-0.0023469254 0.0030547315 0.00010711246 4279125164
-0.034859125 0.0032191928 -0.00096854975 4280111503
-0.033728536 0.008857362 -0.0056041963 4278603943
-0.0321947 0.011296943 -0.007655926 4278669734
-0.03011186 0.0097391997 -0.0064805318 4278995878
-0.028134029 0.0089811347 -0.0059506893 4279061924
-0.026032325 0.0074240472 -0.0047762855 4278866084
-0.024162348 0.0074657574 -0.0048918487 4278472874
-0.022168495 0.0067084339 -0.0043627857 4278407084
-0.020549394 0.0083486177 -0.0057670572 4278537644
-0.018682472 0.0083905999 -0.0058821789 4278472618
-0.016947806 0.0092316717 -0.0066412296 4278538665
-0.014814127 0.0076759662 -0.0054683038 4278669223
-0.0073378384 0.0078460127 -0.0059278901 4278537133
-0.0051721931 0.0062915701 -0.0047565303 4279323298
-0.0025422722 0.0023417957 -0.001657161 4280041124
-0.035110459 0.0033180891 -0.0033731754 4279980179
-0.033985041 0.0089713819 -0.0079972344 4278603688
-0.028407298 0.009094771 -0.0083426991 4278269128
-0.024446908 0.0075747482 -0.0072863568 4278734760
-0.022706524 0.0084178261 -0.0080444366 4278603689
-0.020971697 0.0092608482 -0.0088020479 4278538153
-0.018983718 0.0085014179 -0.0082740914 4278603690
-0.016990412 0.0077421814 -0.0077463351 4278538664
-0.01512659 0.0077843033 -0.0078611104 4278669734
-0.013262887 0.0078265294 -0.0079757981 4278734758
-0.011399314 0.0078688711 -0.008090389 4278735014
-0.0095358752 0.0079112947 -0.0082049081 4278735013
-0.0075269006 0.0071529951 -0.0076777581 4278669223
-0.0052158237 0.004793332 -0.0058680661 4279192739
-0.0027374551 0.0016333945 -0.0034179981 4280564128
-0.035466339 0.0042298744 -0.0064137061 4279520924
-0.034133773 0.0082904231 -0.0097412923 4278669224
-0.030646846 0.0099799726 -0.011255336 4279122359
-0.028564624 0.0084135961 -0.010086244 4278596803
-0.024731215 0.0076927096 -0.0096742827 4278603434
-0.023120195 0.0093412995 -0.011071665 4278668968
-0.021267042 0.0093828402 -0.011186037 4278603689
-0.019284695 0.0086211134 -0.010659346 4278669223
-0.017297041 0.0078596305 -0.010132892 4278734504
-0.013993021 0.010353362 -0.012283104 4278925498
-0.012002997 0.009592168 -0.011756547 4278929323
-0.010007679 0.0088312868 -0.011230245 4278735015
-0.0077158101 0.006464513 -0.0094242617 4278735014
-0.0054077804 0.0040982692 -0.0076192301 4278865574
-0.0029325113 0.00092955213 -0.0051754531 4281089173
-0.035717104 0.0043487735 -0.0088034896 4279193758
-0.032649133 0.0092669073 -0.012877969 4279389343
-0.030801054 0.0093077812 -0.012992439 4278669478
-0.028953072 0.0093487706 -0.013106814 4278472618
-0.026868489 0.0077782106 -0.01194102 4278405553
-0.025257397 0.0094310585 -0.013335315 4278668714
-0.023533486 0.010278063 -0.014089108 4278538665
-0.021688625 0.010319406 -0.014202975 4278734759
-0.019585423 0.00874977 -0.013038025 4278407084
-0.01747144 0.0071804207 -0.011873636 4278996133
-0.014172953 0.0096805394 -0.014018661 4278268874
-0.010193419 0.0081539545 -0.012968702 4278340274
-0.0079045929 0.0057806382 -0.011167426 4278866085
-0.0054513216 0.0026026266 -0.0087288413 4279193249
-0.0029764175 -0.00057480391 -0.0062915189 4282332553
-0.036072303 0.0052848924 -0.011825965 4278800804
-0.032910459 0.0094074812 -0.015250795 4278272954
-0.031067971 0.0094482377 -0.015364913 4278341294
-0.029225573 0.0094890874 -0.015478956 4278602923
-0.025541056 0.0095711295 -0.015706763 4278668459
-0.023575217 0.0088044573 -0.01518246 4278603944
-0.021856941 0.0096536037 -0.015934216 4278538154
-0.019756708 0.0080795195 -0.014772346 4278407084
-0.017777603 0.0073134825 -0.01424861 4278537134
-0.014764719 0.011434929 -0.017662613 4278339509
-0.010664556 0.0090960786 -0.015977619 4278404788
-0.0080932416 0.0051012719 -0.012907167 4278930854
-0.0057912618 0.0027217725 -0.011111449 4279127714
-0.0031712428 -0.0012717312 -0.0080438452 4283117443
-0.037561882 0.0005201092 -0.010259106 4279653269
-0.036427129 0.0062342919 -0.014838586 4278997408
-0.029497821 0.0096383635 -0.017844522 4278469304
-0.025582574 0.0080999192 -0.016798349 4278931363
-0.023740597 0.0081410948 -0.016912116 4278735015
-0.021898724 0.0081823785 -0.017025795 4278669478
-0.016508322 0.0091166086 -0.018002123 4279127968
-0.014944166 0.010777721 -0.019386586 4278800548
-0.013111025 0.010819348 -0.019499324 4279061413
-0.010849889 0.0084322058 -0.017706091 4278929834
-0.0084271356 0.005235971 -0.015278675 4279061414
-0.0058346316 0.0012308797 -0.012217537 4279258018
-0.037806612 0.00065503735 -0.012637509 4280635529
-0.036677014 0.0063842498 -0.017205324 4278735269
-0.034941927 0.0072373096 -0.017955488 4278736288
-0.033322364 0.0089029223 -0.019340945 4279325084
-0.031375598 0.0081310235 -0.018819038 4279324573
-0.029538918 0.0081717316 -0.018932737 4279062178
-0.027584158 0.0074001905 -0.018411115 4278866338
-0.025744949 0.0074411761 -0.018524805 4278538919
-0.024029441 0.0082945358 -0.019273285 4278407594
-0.022193141 0.0083356649 -0.01938664 4278473129
-0.020227905 0.0075647961 -0.018865338 4278931364
-0.0087607913 0.0053796405 -0.017643601 4279519648
-0.0061741471 0.0013635121 -0.014590217 4278929578
-0.037949305 -1.6042963e-05 -0.014374687 4279718294
-0.036717661 0.0049135005 -0.018296637 4278670243
-0.034875438 0.0049540009 -0.018410925 4278539174
-0.033143222 0.0058092736 -0.019159216 4278604199
-0.031303879 0.0058499165 -0.019273173 4278735269
-0.029464617 0.0058906768 -0.019387035 4278866084
-0.027625442 0.0059315562 -0.019500803 4279128478
-0.025786366 0.0059725288 -0.019614493 4279194014
-0.02407093 0.006828038 -0.020361368 4278670243
-0.02236104 0.0076834913 -0.021107772 4278604709
-0.020656679 0.0085388999 -0.021853779 4278604709
-0.011220112 0.0071180668 -0.02115302 4278340784
-0.0089488439 0.0047182115 -0.019370042 4278930854
-0.0063653663 0.00069115963 -0.016324541 4279322534
-0.037990157 -0.0014996249 -0.015475536 4279391129
-0.036549419 0.0018090298 -0.018122181 4278932894
-0.034701891 0.0018496281 -0.018236812 4279063199
-0.032854445 0.0018903203 -0.018351367 4278342569
-0.031119674 0.0027479418 -0.01909811 4278931363
-0.029390428 0.0036055436 -0.019844435 4278340528
-0.020569377 0.0062605087 -0.022307187 4278277289
-0.018736281 0.0063017756 -0.02242019 4278474404
-0.016768925 0.0055268249 -0.021902168 4279129244
-0.014933333 0.0055683469 -0.022015177 4279194778
-0.01323764 0.0064261351 -0.02275873 4278800803
-0.01126248 0.0056516584 -0.022240967 4278735014
-0.0091367662 0.0040613152 -0.021093117 4279258784
-0.037929323 -0.0038022059 -0.015944872 4279521434
-0.036381397 -0.0013040062 -0.017954009 4279391384
-0.034635667 -0.00044417288 -0.018700039 4279063454
-0.032675818 -0.0012224829 -0.018183853 4278866593
-0.03093569 -0.00036255084 -0.018929372 4278866083
-0.029085826 -0.00032156892 -0.0190439 4278669479
-0.027472001 0.0013571857 -0.020419054 4278538409
-0.025627755 0.0013982654 -0.02053307 4278735014
-0.023783602 0.0014394391 -0.020647008 4278341803
-0.021939546 0.0014807303 -0.020760851 4278604198
-0.018646482 0.0040192502 -0.022876874 4278342058
-0.013140067 0.0041437475 -0.02321592 4278538154
-0.011162359 0.003367112 -0.022699889 4278602669
-0.00917935 0.0025907299 -0.022184156 4279782298
-0.038071796 -0.0044661788 -0.017676778 4279849619
-0.036422234 -0.0027828654 -0.019051341 4279653014
-0.034569547 -0.0027421834 -0.019166315 4278997919
-0.032607179 -0.0035225707 -0.018651947 4279456408
-0.030751929 -0.0034815846 -0.018766895 4279194014
-0.029011957 -0.0026194425 -0.019510681 4278800803
-0.027395435 -0.00093624461 -0.020882815 4278341803
-0.025669239 -7.4162148e-05 -0.021625567 4278931363
-0.023701862 -0.0008538831 -0.021111095 4278800549
-0.021729134 -0.0016333973 -0.020596888 4278931618
-0.020137463 4.9619004e-05 -0.021967134 4278603943
-0.018556781 0.0017325142 -0.023336608 4278866083
-0.016718604 0.0017739581 -0.023449875 4278800549
-0.014743585 0.00099492259 -0.022935493 4278866593
-0.012902912 0.0010365974 -0.023048785 4278538409
-0.011204742 0.0018988736 -0.023789195 4278602669
-0.0092219114 0.0011203121 -0.023275072 4279519393
-0.039773077 -0.0076370295 -0.01740508 4282863463
-0.038011055 -0.0067727678 -0.018149091 4279587479
-0.036358792 -0.0050850343 -0.019520577 4279390873
-0.034503531 -0.0050442992 -0.019635713 4279260058
-0.032648344 -0.0050034458 -0.019750753 4279325338
-0.030793227 -0.0049624979 -0.01986572 4279259549
-0.029168479 -0.0032748962 -0.021235222 4279128479
-0.027436826 -0.0024106675 -0.021976802 4278538408
-0.025590133 -0.0023695603 -0.02209099 4278866083
-0.023866814 -0.0015053023 -0.022831896 4278931873
-0.021770988 -0.0031100535 -0.021692501 4278931873
-0.020050596 -0.0022456413 -0.022433063 4278800803
-0.018204283 -0.002204123 -0.022546915 4278538663
-0.016626425 -0.00051689893 -0.023912948 4278866338
-0.014785759 -0.00047530793 -0.024026301 4278996644
-0.012945198 -0.00043362286 -0.024139578 4278996644
-0.011104763 -0.0003918577 -0.024252784 4279061669
-0.0089743584 -0.0019951104 -0.023114985 4280044183
-0.039813839 -0.009124198 -0.0185086 4282731884
-0.038254846 -0.0066063143 -0.020504031 4279521433
-0.036399659 -0.0065657115 -0.02061926 4279456663
-0.034544539 -0.0065249912 -0.020734396 4279522198
-0.032689486 -0.0064841649 -0.020849448 4279587478
-0.030722149 -0.0072687054 -0.02033856 4279325849
-0.029094692 -0.0055767531 -0.021704961 4279586713
-0.027360398 -0.0047102589 -0.022445137 4278800038
-0.025631633 -0.0038438174 -0.023184847 4279193759
-0.023785152 -0.0038026436 -0.023298968 4278996898
-0.021938767 -0.0037613516 -0.023412993 4278997409
-0.020092487 -0.0037199422 -0.023526922 4278800803
-0.018246304 -0.0036784634 -0.023640793 4278800803
-0.016400222 -0.0036368784 -0.023754576 4279062943
-0.014691077 -0.0027702609 -0.024492616 4278997153
-0.012847923 -0.002728546 -0.024606073 4278537898
-0.011004884 -0.0026867259 -0.024719445 4278996134
-0.0087270141 -0.0051191095 -0.02296119 4281420419
-0.039854579 -0.010611185 -0.01961199 4282400128
-0.038194135 -0.00891471 -0.020977685 4282405739
-0.036336362 -0.0088740662 -0.021093087 4281946994
-0.034585517 -0.0080055278 -0.021832965 4280438158
-0.032730602 -0.0079647163 -0.021948017 4279521179
-0.030875765 -0.0079237865 -0.022062974 4278997919
-0.029251043 -0.0062275277 -0.023426032 4279062944
-0.027401801 -0.0061865114 -0.023540486 4279192739
-0.025673117 -0.0053179194 -0.024278589 4278995878
-0.023826756 -0.0052767717 -0.024392718 4279127459
-0.022106402 -0.0044081388 -0.02513014 4278997153
-0.020134352 -0.0051941117 -0.024620684 4279259294
-0.018156964 -0.0059798788 -0.024111496 4278997664
