# .PCD v0.7 - Point Cloud Data file format
VERSION 0.7
FIELDS x y z rgba
SIZE 4 4 4 4
TYPE F F F U
COUNT 1 1 1 1
WIDTH 965
HEIGHT 1
VIEWPOINT 0 0 0 1 0 0 0
POINTS 965
DATA ascii
0.0093036294 -0.0021835435 0.047180735 4289800993
0.01161693 -0.0036470909 0.048405498 4289735968
0.014263839 -0.0066201547 0.050978377 4289016614
0.016932309 -0.0095926421 0.053549971 4287968309
-0.0045818985 -0.0048625469 0.047539897 4288557104
-0.0030010343 -0.0025438536 0.045392703 4288884524
-0.0010096505 -0.0024981182 0.045268327 4289866529
0.00098153949 -0.0024522785 0.04514404 4290324509
0.0029725507 -0.0024063271 0.045019858 4290979094
0.0046623647 -0.00084557198 0.043548994 4290913558
0.006647557 -0.00079953857 0.043425329 4290782744
0.0086325407 -0.0007534232 0.043301746 4291044374
0.010776013 -0.0014643706 0.043851122 4289866529
0.01308614 -0.0029322542 0.045072988 4289016103
0.015899293 -0.0066709183 0.048311859 4289145899
0.018405765 -0.0088948589 0.050204348 4288622129
-0.0070303679 -0.0042293277 0.044458222 4289800739
-0.0054492652 -0.0019042324 0.042315848 4290586393
-0.0037451386 -0.00033914857 0.040846996 4290455833
-0.0013406947 -0.0025729537 0.04274033 4289801504
0.00078991801 -0.003286887 0.043288514 4289604898
0.0026303455 -0.0024813861 0.042492583 4290062624
0.0044651553 -0.0016759094 0.041697085 4290717208
0.006294325 -0.00087045506 0.040902019 4290979094
0.0082737356 -0.00082443655 0.040778805 4290193949
0.010570198 -0.0022970419 0.041998163 4289735969
0.01255466 -0.0022507012 0.041874789 4289800993
0.014867023 -0.0037227217 0.04309332 4289539108
0.017190091 -0.0051944461 0.044311296 4289080619
0.019523799 -0.0066657644 0.04552865 4289995814
-0.010416839 -0.0097253267 0.046881843 4288033334
-0.0090680495 -0.0058688018 0.043399543 4288884779
-0.0080147274 -0.0004886305 0.038576767 4290717208
-0.0067261718 0.0033667032 0.035098441 4290782743
1.8656254e-05 -0.0010693902 0.038754489 4288757023
0.0021407157 -0.0017855838 0.039301664 4289671199
0.0042680576 -0.0025015939 0.039848633 4290063643
0.0062475353 -0.0024556704 0.039725348 4290128414
0.0082268342 -0.0024096295 0.03960216 4289735969
0.010364473 -0.003125051 0.040148668 4289735969
0.012184829 -0.0023172852 0.039356027 4290193694
0.014327511 -0.0030323733 0.039902389 4289735459
0.016308725 -0.0029858965 0.039779369 4290782233
0.018459156 -0.0037006177 0.040325388 4290323488
0.020959124 -0.0059375837 0.042208768 4291042079
0.0234752 -0.008174032 0.044091187 4286529089
-0.012845743 -0.0090821069 0.043806057 4290324254
-0.011362653 -0.0059790909 0.041001365 4289147174
-0.010164019 -0.0013477821 0.036858708 4289933084
0.0037704334 -0.0017947946 0.036666542 4289412119
0.0058946535 -0.0025128908 0.03721213 4289997853
0.0080241337 -0.0032307459 0.037757479 4290128669
0.010158874 -0.0039484287 0.038302615 4290455323
0.011976428 -0.0031385096 0.037511721 4290128414
0.01362443 -0.0015650596 0.036053635 4289212198
0.015594646 -0.0015188269 0.035931312 4289539363
0.017734006 -0.0022359584 0.036476415 4289146663
0.020050697 -0.0037163151 0.037688471 4290520349
0.022378042 -0.0051962677 0.038899902 4288754473
0.025071122 -0.0082024746 0.041444428 4288885544
-0.017246939 -0.008469956 0.04086405 4286790718
-0.015503824 -0.0068915896 0.03940206 4288950824
-0.014023211 -0.0037800409 0.036603916 4289212963
-0.012821462 0.0008643046 0.032470718 4289409823
0.0029726774 0.00045754015 0.032160569 4287906599
0.0055420399 -0.0025611427 0.034705646 4289344544
0.0076658651 -0.0032813028 0.035249729 4289736224
0.0097949654 -0.0040012226 0.035793573 4289866274
0.011607036 -0.0031892806 0.035004698 4290193693
0.01308573 -0.00084577501 0.032884106 4290716443
0.015047655 -0.00079971924 0.032762311 4288558124
0.017009363 -0.00075358339 0.032640595 4289212454
0.019142903 -0.0014729649 0.033184558 4289277223
0.021456398 -0.0029575843 0.034393616 4289735713
0.02395805 -0.0052073663 0.036267325 4289081384
0.02665595 -0.0082219932 0.038805123 4289210924
-0.019516416 -0.0085677952 0.038473148 4287379259
-0.017893407 -0.0062162187 0.036347084 4288949294
-0.016655754 -0.0015582042 0.032221213 4289343268
-0.015576582 0.0038680378 0.027430609 4289017379
0.0091146007 -0.0025088992 0.031961642 4289344033
0.011076786 -0.0024630167 0.031839699 4289866784
0.012711205 -0.00088115875 0.030388951 4290258973
0.014667563 -0.00083522033 0.030267512 4290651929
0.016623721 -0.00078919064 0.030146159 4290848024
0.018751629 -0.0015108185 0.030688822 4290913558
0.020884752 -0.0022322312 0.031231234 4289408803
0.023200542 -0.0037211068 0.032437015 4288949548
-0.021659844 -0.00942754 0.036754183 4288752688
-0.020501003 -0.0039845882 0.031969685 4290847258
-0.019140095 -8.4688887e-05 0.028518792 4290521113
0.0082764551 -0.00022862013 0.02747969 4288233764
0.010546938 -0.0017234618 0.028684633 4289671453
0.012500659 -0.0016776854 0.028563283 4289539618
0.014620624 -0.0024018371 0.029104702 4289408548
0.01657667 -0.0023557981 0.028983364 4290062879
0.0185325 -0.0023096679 0.028862109 4289277734
0.020313501 -0.0014935872 0.028078785 4288556848
-0.02390945 -0.0095088556 0.034373928 4289014574
-0.022392623 -0.0063708071 0.031592641 4289146919
-0.02148461 0.00063375011 0.025492303 4289344290
0.012126558 -0.0016972208 0.026079817 4289672729
0.014407285 -0.0031959713 0.027281037 4289671709
0.016360499 -0.003150003 0.02715987 4289277479
0.017969824 -0.0015596421 0.025717381 4288817203
-0.028543442 -0.0065216059 0.029471098 4288491314
-0.026584297 -0.0064779045 0.029347772 4289015849
-0.024848975 -0.0048827268 0.027898842 4288950823
-0.02358304 -0.00018522516 0.02380012 4289933339
0.013861433 -0.0024366127 0.024141917 4288626974
0.015806369 -0.0023908196 0.024021279 4288164149
-0.030857347 -0.0057969959 0.026446767 4288360243
-0.029225495 -0.0034196889 0.02433924 4288623403
-0.027501009 -0.0018205196 0.022894144 4289212453
-0.026011135 0.0013342556 0.020127457 4288755494
-0.034115851 -0.012904914 0.030158533 4286201924
-0.032851771 -0.0073993946 0.025412252 4289080364
-0.031315204 -0.0042352509 0.022648826 4290520349
-0.029800523 -0.0010714736 0.019886866 4290521114
-0.036510814 -0.011392143 0.026478237 4287640889
-0.034845963 -0.0090013938 0.024378015 4288425779
-0.033197537 -0.0066109309 0.022278961 4289408039
-0.031462032 -0.0050030202 0.020839499 4290127903
-0.030162457 -0.00026594475 0.016767567 4290063134
-0.038975798 -0.0090762945 0.0221522 4286724419
-0.037221029 -0.007463994 0.020714475 4288295219
-0.035379224 -0.0066365395 0.019934783 4288818733
-0.033442218 -0.0065936875 0.019812586 4289277734
-0.031712193 -0.0049815997 0.018376745 4289343013
-0.030311674 -0.0010161083 0.014971543 4288951078
-0.039203599 -0.0090562431 0.019686574 4287510328
-0.037549525 -0.0066528469 0.017596701 4288820518
-0.035715993 -0.0058233542 0.01681911 4289866784
-0.033887982 -0.0049938979 0.016042009 4290063389
-0.03185872 -0.0057379091 0.016575854 4289670944
-0.030354653 -0.0025483072 0.013834044 4289671709
-0.039153852 -0.011394771 0.019190662 4287052603
-0.037497036 -0.0089847408 0.017105436 4288427054
-0.035856634 -0.0065749502 0.015021337 4288688939
-0.03423265 -0.0041654231 0.012938424 4289932574
-0.032315101 -0.0041228859 0.01281754 4290522388
-0.030609734 -0.0025024852 0.011389776 4289868823
-0.039011844 -0.014528685 0.019344371 4287183164
-0.037444655 -0.011320739 0.016611123 4287837748
-0.035801508 -0.0089043509 0.014531719 4288362028
-0.034375861 -0.0049059084 0.011149054 4288688938
-0.032461189 -0.0048634196 0.011028362 4289017378
-0.040912591 -0.016920283 0.018964047 4286463299
-0.039147012 -0.015290517 0.01753854 4287379259
-0.037392393 -0.013660815 0.016113784 4287445559
-0.035844252 -0.01044446 0.013388311 4287577139
-0.034217484 -0.0080218436 0.011314925 4288165934
-0.03250394 -0.0063926624 0.0098930476 4288428584
-0.041044869 -0.017681779 0.017158234 4286986814
-0.039189801 -0.016843418 0.016385611 4287379514
-0.037340235 -0.01600503 0.015613445 4287314999
-0.035593893 -0.014371043 0.014192537 4287380533
-0.033958938 -0.011941666 0.012123456 4287446578
-0.032237243 -0.010308009 0.010704339 4287774253
-0.041177016 -0.018438682 0.015355834 4287248443
-0.039324768 -0.017598204 0.01458501 4287314234
-0.037383113 -0.017555494 0.014462338 4287249463
-0.035441525 -0.017512675 0.01433975 4287380789
-0.033801094 -0.015076669 0.012275171 4287707953
-0.032177079 -0.01264089 0.010211729 4287642419
-0.030569471 -0.010205422 0.0081494376 4288494118
-0.041487865 -0.017590785 0.012263947 4286136643
-0.039459623 -0.018348338 0.012787791 4287379769
-0.037425984 -0.019105742 0.013311391 4287183928
-0.035484549 -0.019062916 0.013188821 4287314744
-0.033844091 -0.016620394 0.011129093 4287838513
-0.032117024 -0.014977896 0.0097160554 4287969328
-0.030506667 -0.01253583 0.007658456 4288820518
-0.028695796 -0.011693333 0.0068924278 4287316528
-0.039778478 -0.017489552 0.009704724 4286595133
-0.037658438 -0.019051384 0.010871679 4287248954
-0.035722606 -0.019008702 0.01074945 4287118648
-0.033786841 -0.018965876 0.010627331 4287707699
-0.032160051 -0.016517008 0.0085734148 4288034864
-0.030338291 -0.015672237 0.0078082131 4288689448
-0.028522063 -0.014827463 0.0070434539 4287642928
-0.026711363 -0.013982674 0.0062791454 4287381808
-0.038080111 -0.017379444 0.0071529113 4285940804
-0.036057867 -0.018141272 0.0076740482 4287706678
-0.034030244 -0.018902903 0.0081949802 4287511349
-0.03220306 -0.018055879 0.0074309497 4288099888
-0.030275773 -0.018013028 0.0073095239 4287838769
-0.028348569 -0.017970026 0.0071882191 4287642929
-0.026643578 -0.016319016 0.0057833521 4287446833
-0.025177155 -0.0130603 0.0030959253 4287381554
-0.034273393 -0.018830925 0.0057692397 4287052859
-0.032246064 -0.019594558 0.0062886276 4288557869
-0.030318923 -0.019551687 0.0061672293 4287707698
-0.028391868 -0.019508699 0.006045925 4287511603
-0.026686911 -0.017853351 0.004644291 4287642419
-0.025106657 -0.015392018 0.0026033591 4287512114
-0.023542829 -0.012930971 0.0005635948 4287512368
-0.034716416 -0.017132979 0.0020715341 4286333759
-0.032597397 -0.01870754 0.0032291673 4287838004
-0.03057307 -0.019473305 0.0037472071 4288034608
-0.02865161 -0.019430447 0.0036262511 4287511603
-0.026841171 -0.018579185 0.0028667841 4287446323
-0.025036272 -0.017727921 0.002107759 4287642419
-0.023469683 -0.015260254 7.2631286e-05 4287642674
-0.022038624 -0.011984725 -0.0025994619 4287119668
-0.020751275 -0.0079015419 -0.005908025 4286464828
-0.031037848 -0.017764751 5.9132813e-05 4286333759
-0.028911091 -0.019343261 0.0012132097 4287510839
-0.026995301 -0.019300427 0.0010926863 4287903794
-0.025193211 -0.01844701 0.00033541356 4288034863
-0.023512974 -0.016783316 -0.0010580389 4287707954
-0.022081811 -0.013499092 -0.003723667 4287445813
-0.029386524 -0.017621722 -0.0024643485 4287249209
-0.027260121 -0.019204423 -0.0013134397 4288034609
-0.025236465 -0.019974183 -0.00079832051 4288034608
-0.023672514 -0.017493624 -0.0028235652 4288100399
-0.022243969 -0.014200803 -0.0054825824 4287379768
-0.025506664 -0.019871647 -0.0031990795 4287641908
-0.023483302 -0.020643482 -0.0026854821 4288624170
-0.025776602 -0.01976021 -0.0055932323 4289212199
-0.023758892 -0.02053434 -0.0050808946 4288492843
-0.0084120631 0.010969881 0.025902241 4282677823
-0.0066257231 0.011778209 0.025112722 4281895229
-0.0039921179 0.0080018975 0.02833784 4282480964
-0.0011865869 0.0034623183 0.032230236 4283460164
-0.011052132 0.013217011 0.021538965 4282025023
-0.0080641396 0.017902711 0.017294448 4278963494
-0.005600296 0.014881164 0.019845791 4280397869
-0.0028252229 0.010327805 0.023730345 4281114164
0.00012988597 0.005009111 0.02828007 4283003459
-0.014792506 0.010831062 0.021309206 4282807873
-0.013664212 0.015486931 0.017190434 4281175618
-0.012434915 0.019373534 0.013740106 4280916284
-0.010959852 0.021722449 0.011623835 4279480123
-0.0089440905 0.020996956 0.012172619 4279740988
-0.006781023 0.019503275 0.0133869 4278700589
-0.0041729957 0.015704747 0.016597513 4279808819
-0.0013904348 0.011138599 0.020471951 4281829184
0.0015748143 0.0058050212 0.025009785 4282025533
0.0044250786 0.0012406744 0.028880179 4283268658
-0.017379697 0.013110735 0.016965957 4282091324
-0.016376648 0.01855058 0.012191609 4281110083
-0.014887627 0.020906137 0.010079172 4280849729
-0.013147514 0.021719759 0.0092972759 4280394300
-0.011549495 0.02330411 0.0078512831 4281502019
-0.009544827 0.022576233 0.0083990982 4281501763
-0.007534869 0.021848584 0.0089466637 4281306434
-0.0050855801 0.01880941 0.011486037 4280590394
-0.0029094815 0.017311918 0.012696441 4281438269
-0.00027228147 0.01350338 0.01589728 4281699389
0.0025448203 0.0089251697 0.019760065 4282744634
-0.019816052 0.01463992 0.013301171 4283396924
-0.018804401 0.020095101 0.0085375654 4281372479
-0.017189633 0.02168387 0.0070935288 4280848964
-0.015323907 0.021726372 0.0069767446 4280718914
-0.013592049 0.02254205 0.0061969538 4278634034
-0.012138654 0.024903512 0.0040918244 4278895409
-0.010145076 0.024173213 0.0046387175 4279546423
-0.007862404 0.021897478 0.0065105227 4279091503
-0.0057081729 0.020395016 0.0077189677 4278962983
-0.0036905557 0.019665582 0.0082645947 4281176894
-0.0015175864 0.018163709 0.0094720591 4281046078
0.00097163022 0.015117127 0.012002666 4281241918
0.0037935004 0.01052607 0.015855506 4284246073
-0.021989871 0.014636403 0.010972893 4281699899
-0.020718656 0.018556176 0.0075439345 4279225378
-0.019223824 0.02092473 0.0054407124 4280525114
-0.017489035 0.021742372 0.0046622274 4281241409
-0.015628889 0.021784769 0.0045458083 4280783428
-0.01376887 0.021827264 0.0044294694 4280850494
-0.01218177 0.023420086 0.0029906526 4279547699
-0.0060411729 0.020448396 0.0052866009 4280785468
-0.0041764602 0.020491539 0.0051703718 4280785213
-0.0021619126 0.01975997 0.0057146535 4280785724
-0.00014209002 0.019028632 0.0062586879 4281046334
0.0021938905 0.016748121 0.0081226937 4281503293
0.0050204843 0.012144264 0.01196555 4282221119
0.0083622113 0.0052175969 0.01778578 4283134783
-0.025001276 0.0075997766 0.014718086 4284049978
-0.024035126 0.013864493 0.0093115214 4281829438
-0.021374993 0.020947991 0.0031305715 4279551269
-0.017788172 0.021809818 0.0022376445 4280850494
-0.01593361 0.021852089 0.0021215719 4281045824
-0.013945583 0.021117115 0.002665428 4281110594
-0.012088574 0.021159662 0.0025493694 4280980033
-0.0102317 0.021202305 0.0024333899 4281045824
-0.0083749667 0.021245053 0.0023175008 4281111613
-0.0065183975 0.021287901 0.002201701 4280982328
-0.0043675676 0.019776775 0.0034039621 4281047099
-0.0025058612 0.019819958 0.0032880032 4280983093
0.0037106276 0.01684287 0.0055738911 4280008739
0.0067082494 0.011449547 0.010064662 4281831988
-0.02750729 0.0099351555 0.010409781 4282026044
-0.026303574 0.014657388 0.0063344231 4281436739
-0.024898261 0.01781919 0.0035796929 4280981054
-0.023514848 0.020980613 0.00082642445 4280915008
-0.021662775 0.021022519 0.00071027922 4281371458
-0.019936182 0.021844229 -6.452424e-05 4280265014
-0.01783089 0.020326911 0.0011368296 4280981053
-0.016107284 0.021148818 0.00036233716 4280981054
-0.013988644 0.01963204 0.0015630251 4280981308
-0.012268011 0.02045404 0.00078891451 4281045823
-0.010275025 0.019717233 0.0013310121 4281304904
-0.0087018274 0.021318717 -0.00010032346 4281240899
-0.0068508312 0.021361446 -0.00021576835 4281046588
-0.0049999803 0.021404276 -0.00033113221 4281046589
-0.0031492934 0.021447213 -0.00044639537 4280785978
0.00070692599 0.020754272 -1.9796658e-05 4280201009
0.0028758869 0.01923964 0.001178414 4279287854
0.008226797 0.011538258 0.0075112237 4281045824
0.010942787 0.0076886602 0.010675219 4281043274
-0.02911358 0.0060350671 0.011381447 4284246328
-0.028331753 0.01389966 0.0046822531 4281699898
-0.026918057 0.017070232 0.0019333876 4281241664
-0.025409129 0.01945837 -0.0001563743 4280003894
-0.024036497 0.022628216 -0.0029024356 4281436484
-0.022195462 0.022669865 -0.0030178926 4281567299
-0.020354535 0.02271161 -0.0031332723 4281241919
-0.018257681 0.0211898 -0.0019346693 4279808563
-0.016280822 0.020450121 -0.0013934296 4281046078
-0.01429864 0.019710673 -0.00085244013 4281046078
-0.012583528 0.020534744 -0.0016245689 4280915264
-0.010873999 0.021358794 -0.002396272 4280915008
-0.0093116984 0.022964349 -0.0038236338 4281110338
-0.0074717104 0.023006825 -0.0039383932 4280915773
-0.0053377151 0.021486616 -0.0027415543 4281111614
-0.0034925938 0.021529412 -0.0028564814 4279158058
-0.0016476288 0.021572327 -0.0029713078 4281307708
0.00019717216 0.021615325 -0.0030860626 4281633089
0.0023577437 0.020096129 -0.0018905845 4281503038
0.0045290217 0.018577242 -0.00069565105 4281047098
0.0068744197 0.016277658 0.0011534021 4280784448
0.0094020665 0.013197688 0.0036560912 4280717893
0.012120135 0.0093373675 0.0068119331 4280387158
-0.029156286 0.0045178402 0.010255076 4283853118
-0.028150748 0.010835435 0.0048847566 4281177149
-0.026731502 0.014014805 0.0021420745 4281569338
-0.025334153 0.017193845 -0.00059918675 4280721974
-0.023958694 0.020372493 -0.0033389959 4278893624
-0.022237591 0.02119833 -0.0041102893 4279611704
-0.018300217 0.019713936 -0.003030255 4279678259
-0.016454227 0.019756028 -0.0031457781 4280915519
-0.014608372 0.019798221 -0.0032612146 4281111104
-0.01317104 0.02219204 -0.0053410488 4281110848
-0.011333618 0.022234259 -0.0054557961 4281306688
-0.0099210553 0.024627661 -0.0075338921 4281241664
-0.0078034922 0.023102621 -0.0063393456 4281241664
-0.005822219 0.022361515 -0.0057995166 4281242174
-0.0038356334 0.021620573 -0.0052599157 4280265014
-0.0019962341 0.021663344 -0.0053744069 4278896683
-1.8104911e-06 0.02092283 -0.0048351861 4278701864
0.0019978806 0.020182556 -0.0042962036 4279939123
0.0063397586 0.017136199 -0.001912752 4280263739
0.0090249553 0.013264125 0.0012369545 4281045824
0.011568375 0.01017586 0.0037322836 4280979524
0.014304869 0.0063051898 0.0068789572 4280649298
-0.028872482 0.00064098835 0.011093671 4283068483
-0.027969982 0.0077627227 0.0050810287 4281305923
-0.026659478 0.011737464 0.001689877 4281503038
-0.025376305 0.015711691 -0.0016994848 4281502529
-0.024000738 0.018899055 -0.0044328133 4280199224
-0.020564243 0.020555126 -0.0059717442 4278765358
-0.018598542 0.019810693 -0.0054330803 4280784448
-0.016888764 0.020638837 -0.0062018293 4280849984
-0.015051201 0.020680828 -0.0063167545 4281045824
-0.01334985 0.021508949 -0.0070847739 4281176383
-0.011792853 0.023122964 -0.0085054142 4278506023
-0.010105379 0.023951029 -0.0092724459 4280524859
-0.0079907887 0.02242153 -0.0080809081 4281307199
-0.0058654696 0.020892417 -0.0068900082 4281307198
-0.0040287599 0.020935042 -0.0070043979 4281176638
-0.0020397976 0.020192089 -0.0064664786 4279614254
-0.00035580248 0.02102056 -0.0072329324 4279357214
0.0037981793 0.018750103 -0.0055060787 4279937849
0.0061320737 0.016437234 -0.0036660004 4280588609
0.0088140965 0.012554238 -0.00052417465 4280522564
0.011523128 0.0086719543 0.0026160358 4279412039
-0.028806582 -0.0016710302 0.01061614 4282545478
-0.027566466 0.0031041186 0.0065772873 4281240388
-0.02613068 0.0063013025 0.0038464819 4281305923
-0.024950668 0.011075323 -0.00018842646 4281306434
-0.023803454 0.015848784 -0.0042212196 4281697604
-0.022321839 0.018256066 -0.0062944759 4281306178
-0.020856664 0.020663125 -0.0083666695 4281045313
-0.019024447 0.020704811 -0.0084813954 4280784449
-0.017192341 0.020746572 -0.0085960608 4280849984
-0.015227091 0.02000024 -0.0080588497 4280980544
-0.013528515 0.020830465 -0.0088250823 4278505259
-0.0060556084 0.020211501 -0.0086312126 4280981054
-0.0042217299 0.020254051 -0.0087454291 4281111359
-0.0023880228 0.020296695 -0.0088595655 4281045824
-0.00055447221 0.020339442 -0.0089736115 4280981053
0.0015944839 0.018806884 -0.0077870805 4281241918
0.003914617 0.016487116 -0.0059511233 4280783683
0.0062509179 0.01416778 -0.0041160509 4281108044
0.0091011524 0.0094864797 -0.00033273967 4279668314
-0.028849524 -0.0031961892 0.0094838813 4281893189
-0.027497746 0.00080110133 0.0061062346 4281370439
-0.026059143 0.0040070601 0.003381737 4281370949
-0.024642419 0.0072126295 0.00065869023 4281306179
-0.023367189 0.011208553 -0.0027138838 4281175874
-0.022241618 0.015994633 -0.0067354813 4281566789
-0.020898733 0.019198893 -0.0094536301 4280980289
-0.019322202 0.020821674 -0.010869371 4280588099
-0.017365176 0.020072801 -0.010333323 4280849729
-0.015402835 0.019324208 -0.0097975638 4280784704
-0.013571117 0.019366184 -0.0099120354 4280067388
-0.012016859 0.020988902 -0.011326051 4279545913
-0.010332234 0.021821203 -0.01208963 4279481144
-0.0063924305 0.020325257 -0.011018319 4281046843
-0.0045641325 0.020367673 -0.01113219 4280980543
-0.0027359799 0.020410186 -0.011245979 4280981054
-0.0005980134 0.018872989 -0.010062106 4280916029
0.0017083958 0.016546221 -0.0082301907 4281242174
0.0040309355 0.014219997 -0.0063992306 4280916028
0.0065327883 0.011104481 -0.0039208857 4278752099
-0.02889245 -0.0047210837 0.0083518177 4281697093
-0.027429149 -0.0015059942 0.0056321537 4281566024
-0.02587362 0.00091570243 0.0035636746 4281501253
-0.024334528 0.0033370983 0.001496354 4281501764
-0.022931416 0.0065511782 -0.0012192725 4281370438
-0.021672465 0.010557707 -0.0045826542 4281436993
-0.020690821 0.016149333 -0.0092423502 4280913479
-0.019236553 0.018569248 -0.011304025 4280980034
-0.017537881 0.019403672 -0.012067214 4280914754
-0.015445299 0.017860195 -0.010884331 4279807034
-0.013885476 0.019487275 -0.012295542 4280914754
-0.012336656 0.021114161 -0.013705948 4281174343
-0.010657534 0.021948507 -0.014467563 4281370948
-0.0085518807 0.020405805 -0.013285218 4281175874
-0.0065822378 0.019655703 -0.012751162 4280719933
-0.0046073012 0.018905824 -0.012217291 4281111359
-0.0026270598 0.018156184 -0.011683733 4280916029
-0.0003317073 0.015822563 -0.0098560452 4281046334
0.001979813 0.013489434 -0.0080293473 4280327744
0.0046282187 0.0095728524 -0.0049098539 4278954059
-0.028826788 -0.0070410436 0.0078683905 4282480453
-0.027360655 -0.0038172174 0.0051550078 4281892169
-0.025916412 -0.00059374608 0.0024431031 4281435463
-0.024260517 0.0010390487 0.001028577 4281566534
-0.022615612 0.0026716925 -0.00038518594 4281566534
-0.021226119 0.0058942698 -0.0030934 4281370949
-0.019983429 0.0099114161 -0.0064475816 4281109828
-0.018895742 0.014722986 -0.010447262 4281435973
-0.017319333 0.016354529 -0.011856394 4281501764
-0.015753951 0.017985983 -0.013264792 4280002619
-0.014199559 0.019617228 -0.014672394 4279025204
-0.01265619 0.021248339 -0.016079219 4280002874
-0.01098258 0.022084778 -0.01683891 4279025203
-0.0088826083 0.020537538 -0.015659422 4279025714
-0.0069186017 0.019785164 -0.015126609 4280849983
-0.0046504624 0.017444173 -0.013302241 4280849218
-0.0023661479 0.015103718 -0.011478836 4280586823
8.9198351e-05 0.011969419 -0.0090107769 4280192083
-0.027292285 -0.0061325543 0.0046748826 4282479434
-0.025731239 -0.0036976989 0.0026157629 4281565769
-0.024186619 -0.0012631193 0.00055774482 4281565769
-0.022539016 0.00037395768 -0.00085293164 4281566278
-0.020902414 0.002010921 -0.0022628917 4281305158
-0.019526519 0.0052419379 -0.0049636662 4281370693
-0.018172529 0.0084726363 -0.0076630106 4280979523
-0.016970728 0.012499955 -0.011006366 4281175363
-0.015663236 0.015729779 -0.013702663 4281502019
-0.014377639 0.018959245 -0.01639748 4280003894
-0.012836993 0.020594696 -0.017800931 4278899743
-0.0090691708 0.019881537 -0.017382355 4280720954
-0.0068148077 0.017533632 -0.015562116 4281045314
-0.0042455569 0.013593074 -0.01245418 4280783684
-0.0016492531 0.0096532386 -0.009347857 4279543109
0.00097411871 0.0057140607 -0.0062431213 4279932494
-0.025546312 -0.0068101091 0.0027820705 4283067464
-0.023996208 -0.0043688985 0.00072862825 4281956428
-0.022343177 -0.0027273437 -0.00067922019 4281565258
-0.020701151 -0.0010859622 -0.0020862473 4281565514
-0.019194912 0.0013546441 -0.0041367239 4281435719
-0.017832633 0.0045942087 -0.006830126 4281370949
-0.016492255 0.007833384 -0.0095220776 4281109318
-0.015439685 0.012670401 -0.013499937 4280915008
-0.014284197 0.016707713 -0.016832165 4281501509
-0.012879245 0.019146537 -0.018875906 4280523328
-0.011208482 0.019987198 -0.019632157 4280915008
-0.0091117397 0.018431185 -0.018458942 4280783173
-0.0065645538 0.014479136 -0.015357808 4281174344
-0.0039903 0.010527827 -0.012258274 4279346249
-0.0012369975 0.0057785511 -0.0085178679 4279931474
0.0010846257 0.0034259614 -0.0067063915 4279406939
-0.023806028 -0.0074831098 0.000893177 4282871113
-0.022505466 -0.0034322962 -0.0024405397 4281891404
-0.020744156 -0.0025881687 -0.0032014111 4281565004
-0.019237868 -0.00014106836 -0.0052470569 4281631559
-0.017365642 -9.84855e-05 -0.0053643011 4281370949
-0.016014259 0.0031496212 -0.0080504734 4280850239
-0.014817663 0.0071986467 -0.011377252 4280916539
-0.013648394 0.011247141 -0.01470225 4280915518
-0.012506451 0.015295096 -0.018025476 4281567809
-0.01082759 0.016138123 -0.018780604 4280784448
-0.0087229498 0.014577987 -0.017611163 4280653633
-0.0061680451 0.010615259 -0.014518593 4279082323
-0.022309918 -0.0065439809 -0.0022745351 4282021708
-0.020787157 -0.004090148 -0.0043164054 4281695564
-0.019156143 -0.0024401778 -0.0057162354 4281566534
-0.017408736 -0.0015939763 -0.0064744558 4281435973
-0.015927102 0.0008592587 -0.0085134953 4281176130
-0.014594775 0.0041157529 -0.01119191 4281175109
-0.013284314 0.0073718186 -0.013868901 4281305158
-0.011995751 0.010627504 -0.016544433 4281173323
-0.010165066 0.010669641 -0.016658705 4281041489
-0.0081907995 0.0099087004 -0.01613309 4279602014
-0.019323755 -0.0031317929 -0.0074672 4281826888
-0.017579135 -0.0022834884 -0.0082236324 4281241664
-0.015970126 -0.00062948745 -0.0096186353 4281371713
-0.014504902 0.0018300377 -0.011651763 4281566534
-0.012920618 0.0034837201 -0.013045112 4281500743
-0.011485551 0.0059427284 -0.01507615 4281434189
-0.0097850412 0.006790543 -0.015829436 4281107534
-0.019242126 -0.0054348363 -0.0079392996 4281367124
-0.017749403 -0.0029684426 -0.0099694245 4281305924
-0.016013134 -0.0021180669 -0.01072365 4281566534
-0.014547851 0.00034798682 -0.012751922 4281370439
-0.012963582 0.0020060092 -0.014142038 4281500744
-0.011252135 0.0028561354 -0.014894475 4281761353
-0.0095462576 0.0037062634 -0.015646467 4281173069
-0.015926197 -0.0044164304 -0.011192689 4281171793
-0.014192831 -0.0035638446 -0.011945038 4281565514
-0.012871135 -0.00028146897 -0.014603333 4281631559
-0.011157054 0.00057093799 -0.015354357 4281826889
-0.0094485171 0.0014232974 -0.016104897 4280194124
-0.014368534 -0.004239792 -0.013683768 4281107788
-0.012914125 -0.0017609261 -0.015701557 4281369673
-0.011338126 -9.4340183e-05 -0.017084638 4281695819
-0.0097731166 0.0015720595 -0.018466908 4280062543
-0.013092335 -0.0024259277 -0.017431937 4280971619
-0.01151906 -0.00075510889 -0.018811574 4281039703
0.027132697 -0.0036277417 0.032193698 4281092488
0.029655106 -0.0058832308 0.034061432 4281683834
0.023678541 0.00090825558 0.025851561 4280502673
0.030451275 -0.0028006351 0.02879758 4280438158
0.019393548 0.00080252439 0.023615133 4280304028
0.021155268 0.001620492 0.022834674 4279389088
0.022731349 0.003210282 0.021394476 4279126439
0.028710097 0.0025764983 0.021696186 4278270658
0.031787723 -0.0020073019 0.025534004 4279059373
0.034704164 -0.0058186762 0.028710587 4281946994
0.018648706 0.0023464672 0.019826764 4279061669
0.020576715 0.00239213 0.019707376 4278405043
0.022324592 0.0032120515 0.018929474 4279322789
0.02388417 0.0048058964 0.017493606 4279520923
0.025803402 0.0048516132 0.017374957 4278995879
0.027722403 0.0048974305 0.017256401 4278601904
0.03021358 0.0026217494 0.019111659 4279192739
0.032527328 0.0011203755 0.020308219 4278865319
0.0360291 -0.0050230157 0.025449662 4281553783
0.014576711 0.0014878605 0.018262006 4282927469
0.016330577 0.0023097862 0.017485198 4278865574
0.017904401 0.003908053 0.016051492 4278603179
0.019821413 0.0039534979 0.015932813 4278732718
0.023289695 0.0055970531 0.014382035 4279258018
0.025385946 0.0048664007 0.014920574 4278800038
0.027111411 0.0056882147 0.014145865 4278602414
0.029403389 0.004181847 0.015340518 4278405554
0.031319164 0.0042277426 0.015222276 4278865063
0.03421551 0.00039423443 0.018383903 4278800549
0.037138812 -0.003438524 0.021543942 4279914388
0.015597649 0.0038849432 0.013719125 4278736288
0.01768367 0.0031515285 0.01425642 4278669478
0.019597858 0.0031968988 0.014137913 4278603434
0.024968751 0.004890183 0.012472793 4278400198
0.02916573 0.0034249537 0.013546517 4279061413
0.030885309 0.0042489637 0.012773912 4278538154
0.033187509 0.0027386285 0.013964797 4278603688
0.035500377 0.0012286883 0.015155051 4278406828
0.03822694 -0.0018368419 0.017652739 4279979924
0.017114483 0.0039611906 0.011156611 4278735269
0.019020408 0.0040063486 0.011038605 4278800294
0.02092614 0.0040516146 0.010920692 4278472108
0.022649221 0.0048775263 0.0101493 4278864299
0.024551831 0.0049228799 0.010031702 4278795958
0.026454233 0.0049682986 0.00991417 4278667183
0.028928198 0.0026727002 0.011755886 4278800039
0.03064502 0.0034987908 0.010985125 4278538154
0.032552227 0.0035445653 0.010867474 4278538154
0.034260489 0.0043705832 0.01009734 4278340784
0.039293468 -0.0002179509 0.013776069 4281290369
0.042661645 -0.005631513 0.018222285 4282733414
0.018797241 0.0032633021 0.0092537655 4278866084
0.020700142 0.0033085085 0.0091360314 4278603434
0.022420466 0.004136527 0.0083664274 4278669479
0.024505354 0.0033991393 0.0089007812 4278603944
0.026407659 0.0034445599 0.0087832557 4278407339
0.028690793 0.0019249897 0.0099687055 4278669479
0.030598126 0.0019706916 0.009850991 4278734504
0.032309271 0.0027989 0.0090822568 4278603434
0.035714686 0.0044550896 0.0075459634 4278663359
0.041165739 -0.0017105797 0.012515659 4278403769
0.044342592 -0.0063567646 0.016299205 4280635019
0.01632563 0.0040500518 0.0062882528 4278342823
0.018220462 0.0040949769 0.0061709555 4278734249
0.0201151 0.0041399822 0.0060537318 4278603434
0.022009544 0.0041850787 0.0059365919 4278669223
0.024088815 0.0034453757 0.006469667 4278603434
0.026173338 0.0027058441 0.0070025264 4278538154
0.028072625 0.0027512815 0.0068852557 4278669223
0.03016489 0.002012128 0.0074177068 4278472363
0.03357064 0.0036725812 0.0058844858 4279060904
0.035466395 0.0037182327 0.0057676537 4279322788
0.039670788 0.0022410024 0.0068318513 4278339508
0.042199746 -6.581191e-05 0.0086608455 4279389598
0.04516916 -0.0039406577 0.011785878 4280636039
0.048380397 -0.0085989404 0.015557678 4282602854
0.017820902 0.004152678 0.0037471019 4278996389
0.019709989 0.0041975547 0.0036302237 4278472109
0.021598898 0.0042425115 0.0035134191 4278668969
0.023857526 0.0027134791 0.0046937745 4278603688
0.026126839 0.0011847466 0.0058735749 4278538409
0.02783563 0.0020170994 0.0051080408 4278407339
0.029731899 0.0020625591 0.0049910243 4278538154
0.0333253 0.0029403511 0.0041094632 4278797744
0.034815751 0.0045591891 0.0026977074 4279913369
0.037110999 0.0030315649 0.0038761967 4279454368
0.039003536 0.0030772556 0.0037596505 4278602924
0.041314684 0.0015500765 0.00493728 4278603178
0.043848582 -0.00076309871 0.0067611425 4278997154
0.047472715 -0.0070074527 0.011817669 4278538663
0.015711859 0.0033852421 0.0020940625 4278930088
0.017598338 0.0034299437 0.0019772621 4278799528
0.019484609 0.0034747478 0.0018605556 4278603179
0.021370694 0.003519645 0.0017439317 4278472619
0.023256585 0.0035645962 0.0016273641 4278537898
0.02532991 0.0028204396 0.0021576709 4278341549
0.027218141 0.0028656088 0.0020410786 4278734758
0.02910617 0.0029108319 0.0019245446 4278669479
0.03436669 0.0046246294 0.00028348109 4278270913
0.040848814 0.0016064104 0.0025176103 4279127458
0.043589078 -0.0015020352 0.0049822521 4278669479
0.05065646 -0.013236176 0.014422192 4282143853
0.0137797 0.0018308405 0.001090334 4279850639
0.015666232 0.0018754713 0.00097347633 4278865318
0.017552584 0.0019201823 0.00085669267 4278603434
0.019079983 0.0035480019 -0.00055131374 4278734249
0.024908602 0.0028911401 -0.00025484629 4278268109
0.028480858 0.0037724432 -0.0011321121 4278996389
0.03036043 0.0038175602 -0.0012480543 4278472363
0.032239839 0.003862733 -0.0013639407 4278406829
0.038496509 0.0016259961 0.00022073323 4278669479
0.041220337 -0.0014916211 0.0026798539 4278865828
0.043965675 -0.0046085902 0.0051376708 4280570248
0.047376618 -0.010097076 0.0095246965 4280832644
0.011173785 0.0034525078 -0.0024920194 4278998684
0.013220683 0.0027029142 -0.0019637314 4279062943
0.015098944 0.0027473588 -0.0020800703 4278407084
0.016977049 0.0027918592 -0.0021963543 4278341294
0.018854961 0.0028364509 -0.002312554 4278471599
0.022425473 0.0037194379 -0.0031884275 4278269383
0.024112642 0.0045577195 -0.0039478289 4278268874
0.028048836 0.0038539041 -0.0035356907 4279257254
0.030118532 0.0031055827 -0.0030082706 4278603688
0.03199514 0.0031506605 -0.0031240052 4278734248
0.034072615 0.0024026465 -0.0025969744 4278472364
0.036359057 0.00086173601 -0.0014276801 4278866083
0.038862698 -0.0014719339 0.00038340344 4278472874
0.041800797 -0.0053910976 0.0034779264 4279784084
0.044553936 -0.0085166302 0.0059288205 4281160318
0.047757842 -0.013227276 0.0096621411 4282405993
0.010960251 0.0027480498 -0.0042489683 4279653779
0.012833156 0.0027922727 -0.0043650442 4278669989
0.014532052 0.0036325585 -0.0051238099 4278407849
0.016401894 0.0036768597 -0.005239584 4278538154
0.019959055 0.0045615043 -0.0061131627 4279389344
0.022010334 0.0038102586 -0.0055864546 4279390109
0.023879446 0.0038548671 -0.0057019428 4278996899
0.027617119 0.0039443132 -0.0059327041 4278995114
0.029876798 0.0023981389 -0.0047651241 4278537133
0.031750605 0.0024431571 -0.0048806793 4278668714
0.034227163 0.00010223314 -0.0030729193 4278275504
0.036719844 -0.0022382913 -0.0012660682 4278473384
0.039435044 -0.0053736027 0.0011805631 4279456663
0.042171754 -0.0085083162 0.003625928 4280964479
0.044929974 -0.011642384 0.006069988 4281488249
0.047709703 -0.01477595 0.0085127857 4282143344
0.010578558 0.002846403 -0.0066439705 4279718039
0.012103833 0.0044869166 -0.0080423541 4278670244
0.013965592 0.004530929 -0.0081577012 4278604709
0.015827172 0.0045750327 -0.0082729654 4278800548
0.019731708 0.0038655158 -0.0078626294 4278401219
0.021595471 0.0039099175 -0.0079778461 4279519394
0.023459062 0.0039543975 -0.0080929911 4278995369
0.025512524 0.003201155 -0.0075679449 4278601904
0.027378477 0.0032458398 -0.0076831225 4278274483
0.029635191 0.0016952995 -0.0065186336 4278733994
0.031704426 0.00094259344 -0.0059943674 4278668714
0.034381621 -0.0022023916 -0.0035519912 4278603688
0.036876731 -0.0045494158 -0.0017501729 4280701829
0.040006995 -0.0092880949 0.0019681314 4281225853
0.042751506 -0.012431335 0.0044065272 4281553784
0.045093991 -0.013979489 0.0055660447 4281881204
0.0083351806 0.0029097926 -0.0089168949 4278735014
0.0098606348 0.0045546181 -0.01031216 4278406828
0.013746895 0.0038419664 -0.0099027036 4278735523
0.015605658 0.0038859975 -0.010017797 4278669734
0.01746425 0.0039300993 -0.010132828 4278538408
0.027332671 0.0017520245 -0.0087918146 4279454369
0.029589176 0.00019711722 -0.0076305605 4278800039
0.032054536 -0.0021572886 -0.005831874 4278603433
0.034736827 -0.0053108931 -0.0033962447 4280635274
0.037644215 -0.0092635443 -0.00032421458 4281291134
0.040372305 -0.012415941 0.0021086694 4281357179
0.042494901 -0.013169253 0.0026281639 4281618809
0.04419931 -0.012323507 0.0018730251 4282012274
0.0042462498 0.002938984 -0.01106853 4279062944
0.006103009 0.0029825196 -0.011183835 4278273973
0.007628642 0.0046315435 -0.01257591 4279192484
0.011501372 0.0039162021 -0.01216738 4278268873
0.015560664 0.0023989901 -0.011121484 4278667183
0.017240085 0.0032454636 -0.011874094 4278734503
0.019277446 0.0024872534 -0.011351465 4278603944
0.021135591 0.0025314987 -0.011466349 4278342059
0.022993565 0.0025757905 -0.011581189 4278341293
0.025041305 0.0018180013 -0.011058995 4278538408
0.027286917 0.00025840476 -0.0099003669 4278800548
0.029933915 -0.0029048873 -0.0074691446 4279260058
0.032404386 -0.005265641 -0.0056756651 4280963458
0.035292588 -0.0092297671 -0.0026105777 4281487994
0.037800699 -0.011589488 -0.00081932254 4281684344
0.040118717 -0.013147078 0.000335116 4281684343
0.041820586 -0.012299245 -0.00041834114 4281618808
0.043728508 -0.012253171 -0.00053582562 4282536808
0.0020307079 0.0030211452 -0.013329691 4279127969
0.0037220642 0.0038694963 -0.014081927 4279061668
0.0055705383 0.0039128326 -0.01419672 4279519139
0.007418856 0.0039562378 -0.014311451 4279387813
0.0092670247 0.0039997473 -0.014426091 4278666163
0.011285879 0.003238529 -0.013904153 4279191464
0.016658075 0.0041745268 -0.01488397 4278734504
0.018868856 0.002609387 -0.01372662 4278406829
0.020721473 0.0026534814 -0.013841179 4278668969
0.022948191 0.0010889173 -0.012684745 4278603433
0.02518563 -0.00047534797 -0.011528866 4278604199
0.027818903 -0.0036477754 -0.009103355 4278605219
0.032754049 -0.0083826054 -0.0055257785 4280897668
0.035647243 -0.012357432 -0.0024691313 4281487483
0.037957072 -0.013919606 -0.0013175305 4281422204
0.039865278 -0.013873633 -0.0014351119 4281618808
0.041355573 -0.012219928 -0.0028208909 4282668134
-0.00017363578 0.0031126067 -0.015584894 4278669224
0.0015151277 0.0039629228 -0.016335383 4278995880
0.0031982958 0.0048131924 -0.017085465 4279454879
0.0050384998 0.0048563182 -0.017199757 4278667948
0.0090545714 0.0033288449 -0.016158063 4279521433
0.011070527 0.0025654025 -0.015637629 4278800803
0.012744777 0.0034159143 -0.016386818 4278930343
0.01458966 0.003459556 -0.016501097 4278733483
0.016434357 0.0035032909 -0.016615294 4278668969
0.018642187 0.0019337144 -0.015461016 4278472109
0.020676352 0.0011711344 -0.014941386 4278603179
0.023089953 -0.0012043677 -0.013154288 4278998173
0.025899239 -0.0051923608 -0.010100769 4280308874
0.02854301 -0.0083731972 -0.0076824287 4281226108
0.031208321 -0.01155347 -0.005265309 4281422458
0.033301391 -0.012314364 -0.0047490359 4279390618
0.036202319 -0.016299896 -0.0017009742 4281356668
0.037706606 -0.014641628 -0.0030845432 4281553529
-0.019409586 -0.0061216913 -0.0096867317 4279916684
-0.0025183782 0.004022833 -0.018468477 4279193249
-0.00052616745 0.0032561161 -0.017948592 4278471344
0.0013142228 0.0032990538 -0.018063039 4278865829
0.0029946193 0.00415143 -0.01881133 4278733994
0.0086743012 0.0034716371 -0.018520087 4278535603
0.010513939 0.003514979 -0.018634176 4278929833
0.012180008 0.0043674335 -0.019381268 4278471089
0.016031928 0.0036454946 -0.018975995 4278800039
0.018415682 0.0012626462 -0.017192068 4278669224
0.020815559 -0.0011197906 -0.015409044 4278341039
0.023605607 -0.0051191999 -0.012362495 4279718548
0.026422627 -0.0091178957 -0.0093175611 4281029248
0.028881751 -0.011498699 -0.0075380327 4281554038
0.031747311 -0.015496083 -0.004495983 4281619318
0.03384836 -0.016258923 -0.0039818697 4281225854
0.036155254 -0.017830018 -0.0028366009 4279457174
-0.020958997 -0.010095973 -0.0087748365 4283319658
-0.019452471 -0.0076163048 -0.01079625 4279719314
-0.017835222 -0.0059492551 -0.012182192 4279785869
-0.0046974197 0.0041350424 -0.020710243 4279454624
-0.002713412 0.0033658799 -0.020191526 4280371859
-0.00087845325 0.0034085736 -0.020305723 4278602924
0.001113452 0.0026397295 -0.019787319 4279193503
0.0027910843 0.0034942236 -0.02053389 4278734758
0.004788138 0.0027256571 -0.020015689 4278669223
0.0064600408 0.0035802331 -0.020761743 4278271934
0.0082942918 0.0036233403 -0.020875575 4278402239
0.014148317 0.0021308642 -0.019953972 4279126694
0.016344987 0.00055226497 -0.018805597 4278734503
0.018915392 -0.0026480518 -0.016395852 4278537898
0.02150736 -0.0058477959 -0.013987396 4279390619
0.024120897 -0.0090469634 -0.011580227 4281029249
0.026945643 -0.013056339 -0.0085438602 4281422714
0.029027894 -0.013821956 -0.0080303177 4281488248
0.03150557 -0.016208798 -0.006256761 4281684853
0.033603743 -0.0169739 -0.0057441024 4281816434
0.037002943 -0.015261595 -0.007238117 4282406249
0.039106034 -0.016026402 -0.0067256298 4281620084
0.041005701 -0.015980657 -0.0068427017 4282471784
-0.020880274 -0.012411485 -0.0092559913 4282272374
-0.019619707 -0.0082962569 -0.01253856 4279718548
-0.017878111 -0.0074393614 -0.013288355 4279784338
-0.016271863 -0.0057680607 -0.014670334 4279850128
-0.014411557 -0.0057255849 -0.014786708 4280181628
-0.004740566 0.002670873 -0.021797072 4279388324
0.00091284513 0.0019849539 -0.021508303 4278399943
0.0027474239 0.0020277947 -0.02162236 4278797998
0.0047442988 0.001257062 -0.021105759 4278799783
0.0064161569 0.0021137521 -0.021850234 4278538664
0.01209148 0.0014298614 -0.021561621 4278668969
0.014279917 -0.0001533702 -0.020416044 4278734249
0.016657814 -0.0025495533 -0.018641504 4279324063
0.019233286 -0.0057584662 -0.016238563 4278669224
0.02219867 -0.010593025 -0.012578537 4280635784
0.024635822 -0.012987526 -0.010807534 4281160318
0.027089104 -0.015381637 -0.0090374509 4281095038
0.028981611 -0.015336473 -0.0091543868 4281619319
0.030873924 -0.015291243 -0.0092712566 4282078063
0.044543475 -0.016597962 -0.0088331299 4282668134
-0.020923242 -0.013914397 -0.010371682 4281879419
-0.019538201 -0.010604993 -0.013014889 4279718038
-0.018047988 -0.0081126522 -0.015025494 4279587734
-0.016444474 -0.0064370809 -0.016404074 4279719059
-0.014587019 -0.0063946899 -0.016520286 4279915663
-0.013135217 -0.0039028609 -0.01852829 4279917193
-0.010421503 0.0018962473 -0.023171213 4279196564
-0.0087350346 0.0027546436 -0.023915505 4278932894
-0.0067620128 0.0019806586 -0.023399504 4279586204
-0.0049324483 0.0020229984 -0.023513535 4278995879
-0.0031030104 0.0020654425 -0.023627479 4278272188
-0.001273714 0.0021079667 -0.02374135 4279255978
0.0043757558 0.00142028 -0.023453584 4278864808
0.0062072277 0.0014631972 -0.023567336 4278538409
0.0080385506 0.0015062317 -0.023680991 4278472874
0.010040253 0.00073369965 -0.023166189 4278538154
0.012393706 -0.0016697655 -0.021395126 4278537388
0.014763325 -0.0040727574 -0.019625001 4278995623
0.017506406 -0.0081061292 -0.016600005 4280569738
0.020095102 -0.011323443 -0.014204371 4281028738
0.022521272 -0.013724834 -0.012437626 4280242828
0.024776787 -0.015310582 -0.011299182 4280242829
0.02704297 -0.016895961 -0.010161387 4281160064
0.02874314 -0.016035732 -0.010905405 4282078063
-0.022610787 -0.017097596 -0.010109113 4282927724
-0.020966183 -0.01541713 -0.011487241 4281224834
-0.019456785 -0.012917915 -0.013494329 4279259039
-0.017836854 -0.01123779 -0.014870749 4279587223
-0.016487267 -0.0079203118 -0.017505124 4279391129
-0.01462993 -0.0078779478 -0.017621346 4279718804
-0.013178069 -0.0053796144 -0.019624513 4279391129
-0.011742629 -0.0028816052 -0.021626536 4278736034
-0.010604724 0.0012531355 -0.02488482 4278341803
-0.0089210384 0.002113685 -0.025627362 4278996899
-0.0070969127 0.0021557882 -0.025741134 4278536879
-0.0036004409 0.0030585136 -0.02659642 4279193504
-0.0017793998 0.0031008162 -0.026709799 4278800803
-0.00011536479 0.0039613359 -0.027450727 4278864553
0.0020218492 0.0023676828 -0.026308831 4278798764
0.0040075183 0.0015922915 -0.025794808 4278865318
0.0059984699 0.0008171536 -0.025281092 4278537899
0.0079946965 4.223641e-05 -0.024767632 4278603179
0.010507606 -0.0031858832 -0.022374013 4278472364
0.012695737 -0.0047779195 -0.021234969 4279784849
0.015070483 -0.0071873311 -0.019470029 4280505989
0.017282777 -0.0087787025 -0.018332334 4280767619
0.019687086 -0.011187226 -0.01656916 4281028993
0.022291571 -0.014412777 -0.014180916 4280963458
0.024544142 -0.016002938 -0.013045599 4280832389
0.02680739 -0.01759279 -0.011910828 4279455644
-0.021130562 -0.016098587 -0.013230898 4281028993
-0.019623846 -0.013592927 -0.015232974 4279848854
-0.01800663 -0.011908555 -0.016606014 4279259548
-0.016400404 -0.010224272 -0.017978324 4279784084
-0.01454049 -0.010181854 -0.018094709 4279194269
-0.013220906 -0.0068561761 -0.020720594 4278801058
-0.011785392 -0.0043516736 -0.022717789 4278931619
-0.010506805 -0.0010267664 -0.025340984 4279193249
-0.0091068782 0.0014771745 -0.027335841 4278931108
-0.0075774454 0.0031602662 -0.028702853 4279192483
0.0038017854 0.00095307827 -0.027503796 4278865318
0.0056248978 0.00099575892 -0.02761706 4278800294
0.0079508871 -0.0014215903 -0.025854152 4278603434
0.010633804 -0.0054783728 -0.022841804 4279325084
0.012997545 -0.0078946631 -0.02108111 4280570248
0.015377432 -0.010310492 -0.019321358 4281095038
0.017594911 -0.011906058 -0.018187275 4281160318
0.019823119 -0.0135013 -0.017053803 4280898179
0.022062056 -0.015096244 -0.015920887 4281356923
0.024124987 -0.015871271 -0.015412818 4282471273
0.026193202 -0.016646091 -0.01490501 4282667878
0.0280746 -0.016601294 -0.015021336 4281619063
-0.034432016 -0.017069709 -0.014145075 4282929254
-0.021537598 -0.015128983 -0.016224505 4281356669
-0.019790746 -0.014263464 -0.016968299 4279980179
-0.017922591 -0.014221087 -0.017085372 4279259293
-0.01631365 -0.012532467 -0.018454591 4278735014
-0.014583424 -0.011666941 -0.019197131 4278604198
-0.013128709 -0.0091556134 -0.021190774 4278932129
-0.011552718 -0.007467391 -0.022557743 4279194014
-0.010268562 -0.0041336752 -0.025174821 4278931618
-0.0088631175 -0.0016231723 -0.027165158 4279127968
-0.0074741095 0.00088711455 -0.029154424 4279388834
-0.005655773 0.0009291321 -0.029267799 4278539429
0.0016163513 0.0010981113 -0.029720537 4278341039
0.0037584081 -0.00050405599 -0.028585367 4278996899
0.0059111938 -0.0021059606 -0.027450781 4279193759
0.008242324 -0.0045297183 -0.025693055 4280897923
0.011100568 -0.009419403 -0.022065552 4281356923
0.013472147 -0.011842031 -0.020310203 4281291388
0.015684135 -0.013442182 -0.019179096 4281356923
0.017549902 -0.01339811 -0.019294716 4281291643
0.019596696 -0.014175845 -0.018787377 4281685109
0.031395964 -0.016373858 -0.01761483 4282274413
-0.01995749 -0.014929456 -0.018700251 4281291389
-0.018092193 -0.014887162 -0.01881716 4279456154
-0.016356487 -0.014019513 -0.019558478 4279652504
-0.014626332 -0.013151848 -0.020299422 4279586714
-0.01317155 -0.010634027 -0.022288233 4278996644
-0.011320263 -0.010591648 -0.022403963 4279718548
-0.0097498074 -0.0088991188 -0.023767285 4279391383
-0.0083334185 -0.0063818824 -0.025753478 4278931873
-0.0069334581 -0.0038648732 -0.027738608 4278865828
-0.00554993 -0.0013481639 -0.029722653 4279194268
-0.0040315762 0.00034349225 -0.031082409 4278342568
-0.00040116161 0.00042780302 -0.031308465 4278473129
0.0017326325 -0.0011790358 -0.030176112 4278669478
0.0040392727 -0.0036100401 -0.02842183 4278603688
0.006362088 -0.0060406188 -0.026668524 4278735014
0.0087010562 -0.0084706787 -0.024916189 4280701319
0.0110562 -0.010900324 -0.023164757 4280766344
0.013600469 -0.014153758 -0.020792482 4281159808
0.015814945 -0.015758198 -0.019664766 4281028483
0.017861731 -0.016538227 -0.019159136 4281750389
0.035709172 -0.020255707 -0.017100606 4282602599
-0.018134944 -0.016376216 -0.019922549 4282472294
-0.016399305 -0.015506427 -0.020662269 4280701319
-0.014669206 -0.014636611 -0.021401605 4279259038
-0.013079502 -0.012939588 -0.022763036 4279258784
-0.011363197 -0.012069932 -0.023501318 4279587479
-0.0096524395 -0.011200262 -0.024239223 4279390873
-0.0080902353 -0.0095035825 -0.025598722 4279456408
-0.0066847727 -0.0069799647 -0.027579371 4279062944
-0.00529572 -0.0044566598 -0.029558867 4278603434
-0.004074268 -0.0011067064 -0.032158874 4278669223
-0.0024129972 -0.00023777317 -0.032893315 4278669479
-0.00044406205 -0.0010224488 -0.032384947 4278735269
0.0020081475 -0.0042871526 -0.030013738 4278473893
0.0043199062 -0.0067245401 -0.028264696 4280111758
0.0069773719 -0.010814723 -0.025275191 4280963714
0.0091594458 -0.012424581 -0.024148857 4280832898
0.01152245 -0.0148606 -0.022402795 4279980178
0.013555788 -0.015643269 -0.021898059 4280306578
0.01577004 -0.017252112 -0.020773605 4280963204
-0.022150263 -0.016289953 -0.022037543 4281684343
-0.014976215 -0.014462182 -0.0237459 4280898433
-0.013257153 -0.013590425 -0.024482837 4279849109
-0.011543632 -0.01271864 -0.025219388 4279325084
-0.0098356344 -0.01184695 -0.025955493 4279194523
-0.0081331916 -0.010975281 -0.026691172 4279586969
-0.0064362958 -0.010103634 -0.027426425 4279521178
-0.0050417408 -0.0075736954 -0.0294015 4279717529
-0.0036636069 -0.0050440459 -0.031375483 4279062689
-0.0021480471 -0.0033437582 -0.03272859 4278997408
