# .PCD v0.7 - Point Cloud Data file format
VERSION 0.7
FIELDS x y z rgba
SIZE 4 4 4 4
TYPE F F F U
COUNT 1 1 1 1
WIDTH 968
HEIGHT 1
VIEWPOINT 0 0 0 1 0 0 0
POINTS 968
DATA ascii
-0.0084021576 0.014525903 0.025379304 4290454814
-0.0066315569 0.015319148 0.024585163 4290389788
-0.0043377355 0.013106419 0.026508911 4290325274
-0.0018928088 0.01014276 0.029110903 4290456854
-0.012841418 0.0045869555 0.032058176 4289015849
-0.012002211 0.011414202 0.025835924 4288885034
-0.01071636 0.015225163 0.022329608 4289081128
-0.0090778247 0.016774168 0.020859279 4290062113
-0.0071915165 0.016815616 0.020745518 4289735459
-0.0050410628 0.015349803 0.021987295 4289997598
-0.0027449951 0.0131307 0.023906123 4289998618
-0.00029513612 0.010158511 0.026501458 4288690468
0.0016150735 0.010200897 0.026386566 4289673493
0.0055807307 0.0095325727 0.026833935 4287709484
-0.014582787 0.001488084 0.032381836 4290716699
-0.013949957 0.0098478701 0.024818378 4288884778
-0.012771357 0.014426017 0.020642485 4289146408
-0.011253875 0.016735392 0.018498568 4290062369
-0.0096262693 0.018288603 0.017032139 4289342759
-0.007880345 0.019085696 0.016242754 4288950569
-0.0057437755 0.017615249 0.017482137 4289146918
-0.0037312582 0.016900884 0.018045044 4289474083
-0.0014383905 0.014675332 0.019959237 4289408548
0.00059013814 0.0139616 0.020521309 4289016359
0.0027669445 0.012492402 0.02175862 4289016869
0.0048087686 0.011779154 0.022320032 4288951078
0.0068558455 0.011066103 0.022881197 4289344033
0.0087570399 0.011108728 0.022767171 4291111438
0.010965817 0.0096406695 0.024002871 4290654223
-0.015666243 0.0067651104 0.025152039 4290062879
-0.014820654 0.013631715 0.018958541 4288884778
-0.013418674 0.016705973 0.016143892 4288950314
-0.011914779 0.019021595 0.014005672 4290258463
-0.010047663 0.019062528 0.013893003 4290454814
-0.008439295 0.020619782 0.01243106 4290323998
-0.0064458959 0.019902775 0.012993385 4290520603
-0.0047166944 0.020701921 0.012206814 4290128158
-0.002443213 0.018469376 0.014117361 4289343013
-0.00043392926 0.017753033 0.014678966 4289277989
0.0018664747 0.01552129 0.016588045 4289277989
0.0038917512 0.014805513 0.017148845 4289473574
0.0059223026 0.014089944 0.017709395 4290520093
0.0078070387 0.014132218 0.017596373 4290586393
0.010153025 0.011901895 0.019503012 4290520603
0.012671709 0.0089145508 0.022081783 4291830029
0.015211985 0.005927844 0.024659293 4288233763
-0.016941994 0.00063123181 0.028176298 4289997089
-0.01663303 0.011321122 0.018625483 4288950568
-0.015572183 0.016685808 0.013795323 4288753964
-0.013944335 0.018247547 0.012335227 4289015593
-0.012079943 0.018288331 0.012222654 4289277224
-0.010215688 0.018329198 0.012110152 4289735204
-0.0084808171 0.01913047 0.011324726 4290193184
-0.006751541 0.019931709 0.010539706 4289669668
-0.0048931688 0.019972777 0.010427808 4289146663
-0.002897542 0.019253867 0.010988545 4288885033
-0.00089662895 0.018535173 0.011549038 4289473828
0.0011095665 0.017816665 0.012109343 4289670179
0.0032666326 0.016338499 0.013341408 4289343013
0.0051377863 0.016380379 0.013229134 4289408549
0.007310845 0.014902784 0.014460394 4289735969
0.0093408599 0.014185192 0.015019555 4290324764
0.012002029 0.010429183 0.018264085 4290389788
0.014690228 0.0066738706 0.021507071 4288950823
0.017243542 0.0036788229 0.024077442 4290064409
0.019324511 0.0029628072 0.024633797 4289803543
-0.017886709 0.0051923078 0.021651907 4290128414
-0.017136678 0.012861269 0.014814066 4289211943
-0.015968181 0.017478311 0.010668004 4289996833
-0.014227524 0.018281555 0.0098836021 4289996833
-0.01236872 0.018322224 0.0097713741 4289277224
-0.01038361 0.017600494 0.010330817 4289146409
-0.0086515322 0.018403871 0.009547173 4289277223
-0.0067931451 0.018444857 0.0094352113 4289408038
-0.005069524 0.019248268 0.0086522419 4289211944
-0.002939485 0.017764868 0.0098824762 4289211944
-0.0012188926 0.018568417 0.0090998439 4288950314
0.00078166276 0.017847659 0.0096588265 4289539364
0.0027875006 0.017127128 0.010217574 4290586139
0.0047986358 0.016406761 0.010776117 4289539364
0.0068150163 0.015686659 0.011334374 4289015848
0.0086829886 0.015728692 0.011222457 4289147174
0.01133284 0.011961529 0.014459553 4289081385
0.014168851 0.0074333232 0.018364741 4289735714
0.017199203 0.0021441653 0.022937542 4288950823
0.019609123 -9.7312033e-05 0.024830898 4288493354
-0.019283697 -0.00019791722 0.023990139 4289408293
-0.018717725 0.0090235975 0.015824374 4288950569
-0.017524358 0.013654144 0.011686464 4289539109
-0.016009182 0.015989499 0.0095620025 4290585629
-0.014268607 0.016794937 0.0087792436 4290585629
-0.01240994 0.016835609 0.0086670248 4290650909
-0.010551412 0.016876394 0.008554901 4289342503
-0.0088221319 0.017681917 0.0077730697 4289211944
-0.006834764 0.01695828 0.0083309235 4289473318
-0.0049766637 0.016999381 0.0082190661 4289342503
-0.0029814206 0.016276119 0.0087765958 4289342759
-0.0012609065 0.017081866 0.0079956045 4289277224
0.00059672818 0.01712328 0.0078840191 4289473574
0.0024542063 0.017164772 0.0077725044 4290454814
0.0043115094 0.017206369 0.0076610809 4290781979
0.0063195527 0.016483912 0.0082182232 4290651164
0.0083328336 0.015761679 0.0087751327 4290258718
0.010976806 0.011983527 0.012004489 4290127649
0.014125057 0.0059141573 0.017236341 4289211943
0.017316625 -0.00015412085 0.022465685 4288557104
0.019893497 -0.0031659603 0.025021741 4287706679
-0.020315319 0.0051728804 0.016826225 4289212455
-0.019322503 0.011351308 0.011358097 4289277734
-0.017911695 0.014460439 0.0085687544 4289277223
-0.016286496 0.016035056 0.0071185287 4289211944
-0.014551457 0.016842613 0.0063377023 4289081129
-0.012821976 0.017650103 0.0055573178 4290127393
-0.010845434 0.016923854 0.0061140563 4289734948
-0.009121675 0.017731452 0.0053341952 4289408038
-0.0070081651 0.016238717 0.0065588169 4289015594
-0.0051529184 0.01627977 0.0064471457 4289473318
-0.0031605996 0.015554296 0.0070032505 4289342759
-0.0017227791 0.017895347 0.0048889653 4289146408
0.00026923418 0.017170073 0.0054452401 4289015593
0.0021211356 0.017211454 0.00533407 4289080873
0.0039728582 0.017252939 0.0052229874 4289473574
0.0059752762 0.016528154 0.0057789031 4290323999
0.0081365183 0.015037367 0.0070012473 4290062113
0.010933615 0.010482075 0.01088924 4289342504
0.014399253 0.0028629508 0.01744096 4289277224
0.017595656 -0.0032225773 0.022657005 4289015594
0.020013154 -0.0054769665 0.024540236 4286790973
-0.022251032 0.0036175493 0.015815953 4290455834
-0.021345884 0.010583172 0.0096916547 4288819754
-0.019926693 0.013701087 0.0069082165 4289604643
-0.01841405 0.016049365 0.0047935769 4289669668
-0.016799763 0.01762809 0.0033472576 4288819243
-0.014954884 0.017668398 0.003235823 4288557613
-0.012986567 0.016939664 0.0037913383 4288753964
-0.01113921 0.016980236 0.003679913 4289669668
-0.0092919767 0.017020902 0.0035685659 4289342759
-0.0073131844 0.016292753 0.0041237138 4289211944
-0.0054635108 0.016333682 0.0040123761 4289342759
-0.0038883202 0.017912338 0.0025689942 4289081129
-0.0021842793 0.0187221 0.0017922582 4289931554
-0.00020062923 0.01799448 0.0023474288 4290323999
0.0020789802 0.015729809 0.0042335 4289604389
0.0037825331 0.016539866 0.0034570158 4289211944
0.0057820231 0.015812906 0.0040114615 4288950314
0.0080938041 0.013549225 0.0058958791 4288950568
0.011202864 0.0074440632 0.011104066 4289277224
0.014832124 -0.00096497126 0.018304031 4289342759
0.018036082 -0.0070678107 0.023506677 4288164149
-0.023149252 0.0082766283 0.009360929 4288950058
-0.021826085 0.012175007 0.0059169484 4289211944
-0.020417698 0.015301408 0.0031406584 4289408038
-0.018800605 0.016884467 0.0016973452 4290520093
-0.0170765 0.017696051 0.00092035206 4290651164
-0.015237201 0.017736217 0.00080924347 4290258463
-0.013151053 0.016233886 0.0020288178 4290193184
-0.011180341 0.015503159 0.0025826639 4290258463
-0.0093332492 0.015543832 0.0024713336 4289342759
-0.0074862912 0.01558462 0.0023601002 4289342759
-0.0059082396 0.017167589 0.00091971317 4289539108
-0.0042041242 0.017979482 0.00014448403 4289539108
-0.0023657754 0.018020382 3.3991921e-05 4290782233
-0.00052758306 0.018061386 -7.640705e-05 4290716444
0.0017462634 0.01579004 0.0018052052 4290716444
0.0037403032 0.015060673 0.0023582766 4290651418
0.0058903396 0.013560819 0.0035747944 4288819243
0.0083579719 0.01052005 0.0061176769 4289015848
0.011628002 0.0036270861 0.011975884 4289277223
0.015264638 -0.0048057605 0.019157616 4288753199
0.017991304 -0.0086144879 0.022357857 4287705148
-0.024436265 0.0020965245 0.012351617 4289997089
-0.023725305 0.010649325 0.004925963 4288950058
-0.022305816 0.013784545 0.0021553936 4289408039
-0.020795714 0.016145723 5.0559989e-05 4289146409
-0.019186813 0.017732961 -0.0013890094 4289669668
-0.017235011 0.016999329 -0.00083588017 4290193184
-0.015157182 0.015492348 0.00038086838 4290193184
-0.013068568 0.01398577 0.0015970117 4290454814
-0.011347622 0.014799746 0.00082212151 4289604389
-0.0095033906 0.014840359 0.00071096816 4289211688
-0.0077908896 0.015654387 -6.324581e-05 4289473829
-0.0060839802 0.016468426 -0.00083708909 4289343014
-0.0045196936 0.018055556 -0.0022733188 4289539108
-0.0026869178 0.018096345 -0.0023834645 4290193184
-0.00071180612 0.017364191 -0.0018310207 4290389278
0.0017042272 0.014313268 0.00070825242 4290650908
0.0036980733 0.013581729 0.0012597238 4290651418
0.0059985146 0.011304663 0.0031350339 4288885288
0.0086218715 0.0074824672 0.0063331588 4289212709
0.012208864 -0.00097549707 0.01349991 4288950058
0.015537925 -0.0078866482 0.019340118 4287836728
-0.025102891 0.0052436572 0.0072512059 4289211433
-0.02419376 0.012268057 0.0011703912 4288950058
-0.022785071 0.015411766 -0.0015930251 4289473318
-0.021173369 0.017003322 -0.0030295956 4289146408
-0.019342292 0.017043104 -0.0031403597 4288884779
-0.017157588 0.01475572 -0.0012639349 4289146408
-0.015318569 0.014795894 -0.0013750193 4288884778
-0.013232928 0.013284864 -0.00016188425 4289473574
-0.011514783 0.014100952 -0.00093499181 4289473318
-0.0096734092 0.01414152 -0.0010459627 4289407783
-0.0078321695 0.014182178 -0.0011568533 4289473574
-0.0061253309 0.014998408 -0.0019290631 4289800738
-0.0044240765 0.015814556 -0.0027008296 4290192928
-0.0028681122 0.017405989 -0.0041332147 4289146408
-0.00089592114 0.0166716 -0.0035822089 4289146409
0.0012267083 0.01516228 -0.0023707149 4289277224
0.0035079494 0.012878152 -0.00049919257 4289277223
0.0059559569 0.0098194536 0.0020318346 4289408549
0.0090388358 0.0036613923 0.0072026243 4289081639
0.012477152 -0.0040454175 0.013691039 4288754219
0.015652187 -0.010201134 0.018856434 4287115844
-0.026609622 0.00059431419 0.0089004654 4289146408
-0.025873046 0.0091954786 0.0015088019 4289015594
-0.024447825 0.012348088 -0.0012491792 4289865763
-0.022934821 0.01472229 -0.0033445319 4290585629
-0.021101058 0.014762023 -0.0034555381 4290585629
-0.019612782 0.017135913 -0.005549226 4290127648
-0.017433837 0.014841815 -0.0036772897 4289277223
-0.015720982 0.015659774 -0.0044485927 4289146408
-0.013520475 0.013366429 -0.0025778243 4289146409
-0.011681832 0.013406834 -0.0026887057 4289473319
-0.0098433197 0.013447342 -0.0027994995 4289407783
-0.0080049336 0.013487956 -0.0029102059 4289146409
-0.0063008852 0.014306253 -0.0036805847 4289342759
-0.0048762634 0.016679602 -0.0057697985 4290716444
-0.0033284649 0.018275192 -0.0071984562 4290258463
-0.0013646334 0.01753846 -0.0066485587 4290193184
0.0010397546 0.014469882 -0.0041215457 4290062369
0.0034657717 0.011401905 -0.0015957449 4290128159
0.0062144548 0.0067800749 0.0022463934 4289996833
0.0093021542 0.00060472079 0.0074039302 4289015594
0.012589201 -0.0063466467 0.013217403 4288295474
-0.027258933 0.0037728269 0.0038221024 4288819499
-0.026225686 0.010056304 -0.0015708675 4288819244
-0.024808552 0.013217492 -0.0043219104 4289473575
-0.023194067 0.014817746 -0.0057522934 4289669669
-0.021253545 0.014077092 -0.0052034482 4289866019
-0.019537821 0.014897095 -0.0059735253 4290650908
-0.017474268 0.013376655 -0.0047657136 4289669668
-0.015882004 0.014976894 -0.0061943978 4289408038
-0.013931021 0.01423691 -0.00564586 4289080874
-0.012226656 0.015057111 -0.0064149164 4289146409
-0.010270473 0.014317462 -0.0058665313 4289015594
-0.0083089918 0.013578085 -0.0053184209 4288819243
-0.0067445934 0.015178235 -0.0067450348 4289277223
-0.0050543696 0.015998522 -0.0075128712 4289604389
-0.0035092942 0.0175984 -0.0089381319 4290454814
-0.001690682 0.017639006 -0.0090473276 4290258463
0.00070790201 0.014561595 -0.0065264478 4290455324
0.003423579 0.0099259038 -0.0026921092 4290193438
0.0064727142 0.0037321802 0.002454702 4289539109
0.0097184181 -0.0032397956 0.0082559865 4288687918
-0.029165749 0.0022418145 0.0028277272 4290586139
-0.028110296 0.0085430462 -0.0025537165 4288688683
-0.026786193 0.012495669 -0.0059573576 4289931298
-0.025168918 0.014100222 -0.0073847454 4289146409
-0.023453072 0.014922151 -0.0081533231 4288884779
-0.02140592 0.013396813 -0.0069479765 4288688428
-0.019692998 0.014218898 -0.0077162124 4289342759
-0.017750163 0.013476396 -0.0071690045 4289669925
-0.016042911 0.014298582 -0.0079367291 4289342759
-0.014218029 0.014338585 -0.0080468552 4289146409
-0.012393273 0.014378684 -0.0081568994 4289081129
-0.010568652 0.014418898 -0.0082668466 4289081129
-0.008875493 0.015241204 -0.0090334062 4289277223
-0.0071879253 0.016063506 -0.0097995391 4289146408
-0.0055059306 0.016885774 -0.010565268 4289080873
-0.0036900118 0.016926231 -0.010674369 4289146408
-0.0015897527 0.015403261 -0.0094713271 4289015593
0.00081117451 0.012317223 -0.0069570541 4289473574
0.0038244501 0.006105205 -0.0018211291 4289211689
0.0068811253 -0.00010568276 0.0033122415 4288949803
0.009828046 -0.0055340435 0.0077877324 4288164404
-0.030880591 -0.0008586999 0.0031480517 4289474083
-0.029797496 0.0054604281 -0.0022221808 4288950313
-0.028555412 0.010209033 -0.0062758741 4289146409
-0.027033955 0.01260276 -0.0083573274 4290062113
-0.025635704 0.015780957 -0.011094254 4290193184
-0.023821339 0.015820174 -0.011204158 4290389278
-0.021782618 0.014290275 -0.010001486 4290062369
-0.019733109 0.012760786 -0.0087994114 4290258464
-0.017790467 0.01201609 -0.0082538193 4290389279
-0.016083289 0.012840452 -0.0090199215 4289277223
-0.014258545 0.012880454 -0.0091300365 4289146409
-0.012559772 0.013704857 -0.0098954625 4289277224
-0.010866567 0.01452923 -0.010660482 4289408293
-0.0090476424 0.014569426 -0.010770009 4290520093
-0.0073628686 0.01539384 -0.01153435 4290520093
-0.0054101981 0.014650142 -0.010988787 4290389278
-0.0034522265 0.013906663 -0.010443462 4289669668
-0.0013467744 0.012379462 -0.0092439717 4289080874
0.0010592118 0.0092848521 -0.0067364764 4289211689
0.0042249486 0.0022717472 -0.00095969992 4288949803
0.007138826 -0.0031726863 0.0035063545 4287770683
-0.032327048 -0.0063293092 0.0054301955 4290259484
-0.031878874 0.0055176746 -0.0045186123 4289212453
-0.030724162 0.011066565 -0.0092188148 4289015594
-0.02910132 0.012679668 -0.010640186 4288884779
-0.027697444 0.015866572 -0.013371056 4289800483
-0.025995295 0.016692447 -0.014135645 4290520093
-0.024189238 0.016731469 -0.014245057 4290520093
-0.022046793 0.014410334 -0.012390539 4290520093
-0.020117868 0.013663026 -0.011845767 4290650908
-0.018065989 0.012129331 -0.010647005 4289669668
-0.016123667 0.011382582 -0.010102917 4289734948
-0.014299069 0.011422591 -0.010213014 4289277223
-0.012474589 0.011462698 -0.010323035 4288950058
-0.010778736 0.01228931 -0.011086589 4289538853
-0.0090884455 0.013115911 -0.011849727 4290193184
-0.0074037388 0.013942504 -0.012612444 4290454814
-0.0054512657 0.013196619 -0.01206849 4290781979
-0.0034934767 0.012450965 -0.011524775 4290192928
-0.001246158 0.010133276 -0.0096756518 4289276968
0.0014518611 0.0054579135 -0.0058695134 4289342503
0.0046250671 -0.0015745815 -0.00010775336 4289015338
0.0073962584 -0.0062480848 0.0036941601 4288229939
-0.033259224 -0.01655837 0.011624022 4290847769
-0.033111572 -0.0015199129 -0.00092156068 4290847768
-0.032397181 0.0079913456 -0.0088827815 4288558124
-0.031058859 0.011976661 -0.012263155 4289081128
-0.029444225 0.013593981 -0.013680828 4288492334
-0.027840555 0.01521113 -0.015097717 4288884778
-0.025821242 0.01367194 -0.013900551 4288884779
-0.02400988 0.013711097 -0.014010271 4289669925
-0.022198621 0.013750358 -0.014119905 4289473574
-0.020387448 0.013789723 -0.014229454 4289538853
-0.018341277 0.012251528 -0.013033537 4289146409
-0.016284324 0.010713713 -0.011838232 4288950058
-0.014462575 0.010753656 -0.011948165 4289408038
-0.012766678 0.011582354 -0.012710169 4289342759
-0.011076339 0.012411019 -0.013471773 4289408038
-0.0092604123 0.012451166 -0.013581106 4289146408
-0.0073107146 0.011702942 -0.013038682 4289538853
-0.0053557046 0.010954948 -0.012496497 4290258463
-0.0033953935 0.010207171 -0.011954555 4290454814
-0.0010036081 0.0070947502 -0.0094592404 4289080873
0.0016993582 0.0024064556 -0.0056631109 4289211944
0.0048773214 -0.0046455227 8.377053e-05 4288688173
0.0076534674 -0.0093320012 0.0038757131 4287705404
-0.034202471 -0.01017162 0.003960866 4289539363
-0.033802174 0.002532972 -0.0065946998 4289800738
-0.032627799 0.0081126038 -0.011273514 4288950314
-0.031294778 0.012108671 -0.014645468 4289996834
-0.029584464 0.012938833 -0.015407489 4290258464
-0.02787967 0.013768988 -0.01616909 4289408038
-0.025860615 0.012225436 -0.014975158 4289277224
-0.024049398 0.012264589 -0.01508487 4289081129
-0.022350319 0.013094975 -0.015845861 4289211433
-0.020656779 0.013925323 -0.016606458 4289342504
-0.018616315 0.012382703 -0.01541347 4289342504
-0.016565066 0.010840377 -0.014221018 4289342504
-0.014748905 0.010880204 -0.014330605 4289211688
-0.01318419 0.012501804 -0.015741263 4290062113
-0.011502087 0.013332466 -0.016500749 4290323744
-0.0098255575 0.014163112 -0.017259818 4289604134
-0.0076192915 0.011831203 -0.015418218 4289211944
-0.0056699142 0.01108087 -0.014877268 4289146408
-0.0034366921 0.0087497737 -0.013037129 4289473574
-0.0010452829 0.0056286324 -0.010548282 4289604389
0.0019466206 -0.00065354072 -0.0054629776 4288950058
0.0049819052 -0.0069346298 -0.00038019038 4288295219
-0.035144553 -0.003741093 -0.0036697653 4289015849
-0.0342132 0.0042354856 -0.010292259 4288557869
-0.032858167 0.0082427654 -0.013657554 4288819499
-0.031432077 0.011456 -0.016370513 4290323999
-0.029825661 0.013081806 -0.017781159 4290716444
-0.027918775 0.012327081 -0.017240293 4290454814
-0.02589998 0.010779181 -0.016049579 4290585629
-0.024088908 0.010818342 -0.016159272 4289146408
-0.022277925 0.010857599 -0.016268888 4289146409
-0.020581748 0.011690198 -0.017028011 4289473318
-0.018656246 0.010936452 -0.016487846 4289342504
-0.016965721 0.011769148 -0.017246462 4289277224
-0.015157863 0.011808785 -0.017355558 4289146154
-0.013601318 0.013434494 -0.018762451 4289081129
-0.011799134 0.013474228 -0.018871035 4290454303
-0.010128133 0.014306972 -0.019628193 4290585374
-0.0081951469 0.013553986 -0.019087963 4290716444
-0.0059838817 0.011215774 -0.017251441 4290520093
-0.0036171935 0.0080852937 -0.014767654 4290062113
-0.00094502792 0.0033701416 -0.010989175 4289408295
0.0020489916 -0.0029293913 -0.0059169657 4288688429
0.0050863624 -0.0092277993 -0.00084724464 4287968564
-0.037131965 -0.0044696163 -0.0053094523 4290389788
-0.036265753 0.0043250639 -0.012566888 4289604389
-0.034902342 0.0083432812 -0.015924674 4289146409
-0.033279475 0.0099735353 -0.017333269 4288950058
-0.031569265 0.010807926 -0.018092133 4289538853
-0.029965598 0.012438064 -0.019499417 4289538853
-0.028165389 0.012476744 -0.019608639 4290127648
-0.026152302 0.01092433 -0.018420774 4290323999
-0.024237614 0.010167828 -0.017881833 4289277224
-0.022429492 0.010207014 -0.017991282 4288950058
-0.020621475 0.010246338 -0.018100619 4289146409
-0.018930908 0.011081094 -0.018857703 4289407783
-0.017366003 0.012711169 -0.020262063 4289015338
-0.015812077 0.014341077 -0.021665633 4289146409
-0.014018089 0.014380513 -0.021773813 4289081129
-0.012095943 0.013624946 -0.021234743 4289342504
-0.010430451 0.014459712 -0.021989902 4289669158
-0.0085031055 0.013704469 -0.021450993 4289799973
-0.0062975883 0.011359559 -0.01961894 4289538088
-0.003519278 0.0058356766 -0.015201761 4289342249
-0.00056112185 -0.0004821457 -0.010140426 4289015594
0.0024404079 -0.0067988671 -0.0050815986 4288622894
-0.038351864 -0.01237737 -0.0011122341 4288492589
-0.037870143 0.00043305755 -0.011595275 4289081129
-0.036845066 0.0076549333 -0.017537858 4288950058
-0.035219446 0.0092894975 -0.018943455 4289080874
-0.033604778 0.010923957 -0.020348363 4290127649
-0.03190282 0.011760345 -0.021105107 4289080873
-0.030307356 0.013394596 -0.022508625 4289080873
-0.028515458 0.013433093 -0.022617344 4289146408
-0.026510809 0.011876205 -0.02143224 4289669923
-0.02438619 0.0095219184 -0.019600973 4289669923
-0.022580933 0.0095610563 -0.019710239 4289015849
-0.020775769 0.0096002873 -0.019819425 4289342758
-0.019205336 0.011234732 -0.021220954 4289146663
-0.017765913 0.013666449 -0.023267746 4289277223
-0.016342938 0.016097957 -0.0253135 4289996834
-0.014434487 0.015339812 -0.024775308 4289735204
-0.012520701 0.014581906 -0.024237342 4289342504
-0.010339744 0.012229702 -0.022408849 4288753453
-0.00854351 0.012269503 -0.022516927 4288622638
-0.0062019378 0.0091209728 -0.020044655 4288099124
-0.0034214631 0.003581902 -0.015638951 4288491058
-0.00017760694 -0.0043472182 -0.0093011726 4288622384
0.0025424138 -0.0090873092 -0.0055449409 4287705149
-0.038983516 -0.0082744025 -0.0067526563 4288492333
-0.038432784 0.0037700031 -0.016562251 4288753964
-0.037333664 0.010210859 -0.021843031 4288819243
-0.035536192 0.010249002 -0.021952441 4288688429
-0.033834256 0.011087446 -0.02270765 4290062114
-0.032236025 0.012726014 -0.024108233 4290258208
-0.030547835 0.013564391 -0.024862438 4290454814
-0.028761532 0.013602776 -0.024970815 4290520093
-0.026549853 0.010441517 -0.022498071 4290389279
-0.024752814 0.010480357 -0.022606928 4289211688
-0.022844065 0.009719478 -0.02207079 4289473574
-0.021159016 0.010558376 -0.022824366 4289146409
-0.019479498 0.011397226 -0.023577556 4289277224
-0.017925516 0.013035754 -0.024974776 4290650908
-0.016382512 0.01467411 -0.026371215 4290650908
-0.014599666 0.014713282 -0.026478734 4290520093
-0.012432519 0.012354171 -0.024654323 4290585118
-0.010510877 0.01159435 -0.024118392 4289473319
-0.0084503293 0.010035416 -0.022939095 4288557613
-0.0059701055 0.0060789604 -0.019830015 4288492334
-0.0030457228 -0.00027445704 -0.014792613 4288884524
6.3810498e-05 -0.0074259806 -0.0091146445 4287900988
-0.03927628 -0.0073510464 -0.0097904066 4287903538
-0.038558524 0.0031207204 -0.018285656 4288296239
-0.03737184 0.0087764133 -0.022908745 4288165168
-0.035667203 0.0096169543 -0.023662599 4288492334
-0.034063496 0.011259882 -0.025060358 4289211688
-0.032568865 0.013704931 -0.027101446 4290062113
-0.03088893 0.014545305 -0.02785353 4290454814
-0.029110935 0.014583508 -0.027961403 4290520093
-0.02701411 0.012215508 -0.026138298 4290127649
-0.025119074 0.011452066 -0.025603017 4289734948
-0.023218684 0.01068881 -0.02506794 4289538598
-0.021541879 0.011529712 -0.025819462 4289473318
-0.019519035 0.0099649262 -0.024641566 4289931299
-0.01796506 0.011607783 -0.026035562 4290062369
-0.016299434 0.012448711 -0.026786136 4290062369
-0.014514007 0.012487972 -0.026893789 4290454814
-0.012600608 0.011725673 -0.026359068 4290585629
-0.010681875 0.010963576 -0.025824534 4289866018
-0.0083572529 0.0077971723 -0.023364283 4289015848
-0.0056022555 0.0022269953 -0.018979799 4289212453
-0.0026703253 -0.0041436255 -0.013955787 4288885033
0.00030499697 -0.010513207 -0.0089343311 4288622893
-0.039484225 -0.0072192401 -0.012174944 4287969328
-0.03859695 0.0016712956 -0.019362511 4287969074
-0.037320103 0.0065375771 -0.023331277 4288688684
-0.035705466 0.008184934 -0.024726501 4288034353
-0.034101781 0.0098321866 -0.026121033 4288034354
-0.032607123 0.012283741 -0.028157281 4288492334
-0.030927267 0.013126289 -0.028907739 4288819243
-0.029252935 0.01396885 -0.029657837 4289146408
-0.027265392 0.012398517 -0.028481368 4289146153
-0.025484964 0.012436992 -0.028589221 4289211689
-0.023481254 0.010867259 -0.027413612 4289538598
-0.021809969 0.011710158 -0.028163154 4289407783
-0.019792829 0.01014095 -0.026988186 4290585374
-0.018124461 0.010984002 -0.027737387 4289342503
-0.016461626 0.01182705 -0.02848617 4289342759
-0.014679052 0.011866217 -0.028593674 4289342759
-0.01264054 0.0102979 -0.027419679 4289342759
-0.010591265 0.0087298844 -0.026246214 4289146408
-0.0081308298 0.0047511403 -0.023152221 4289211944
-0.0052347593 -0.0016377829 -0.018139096 4289342759
-0.0022953004 -0.0080256015 -0.013128553 4288557358
0.00026270375 -0.01200188 -0.010040128 4287312449
-0.039269917 -0.011113109 -0.011344169 4288100399
-0.038286872 -0.003005296 -0.017872935 4287707443
-0.036909081 0.0010673944 -0.021191245 4288295983
-0.035465993 0.0043328386 -0.023866534 4288558124
-0.033949465 0.0067913029 -0.025899382 4288427053
-0.032351315 0.0084429141 -0.027290246 4288557868
-0.030864852 0.010900909 -0.029321063 4288623404
-0.029187877 0.011745667 -0.030069653 4288295984
-0.027516428 0.012590466 -0.030817864 4288884523
-0.025741592 0.012628807 -0.030925391 4289080618
-0.023855198 0.01186089 -0.03039271 4289342248
-0.022077806 0.011899522 -0.030500215 4289407783
-0.020300504 0.01193825 -0.030607644 4289996834
-0.018523302 0.011977075 -0.030714989 4290454814
-0.016868714 0.012822153 -0.031461701 4289342759
-0.014969185 0.012055056 -0.030929416 4289080873
-0.013064332 0.011288239 -0.030397408 4289538853
-0.010631431 0.0072979461 -0.027309909 4289800484
-0.0080380365 0.0025024898 -0.023585213 4289408295
-0.0050037578 -0.0047095474 -0.017946558 4288884779
-0.0021982901 -0.01030897 -0.013587656 4288229684
-0.039308988 -0.0125925 -0.0124433 4287969584
-0.038151372 -0.0060810745 -0.017675988 4287641909
-0.036498625 -0.0044243131 -0.019067202 4288099634
-0.035041839 -0.0011499152 -0.021736873 4288230704
-0.033511665 0.0013153534 -0.023765696 4288295983
-0.031997889 0.0037803855 -0.025793441 4288558125
-0.030500505 0.0062451568 -0.027820049 4288492589
-0.028916128 0.0079010036 -0.029206699 4288557358
-0.027236585 0.0087480973 -0.029953748 4288492079
-0.025562562 0.0095951725 -0.030700386 4288295729
-0.024005644 0.011250796 -0.032085098 4288753708
-0.022231106 0.011289356 -0.032192439 4288819243
-0.020573676 0.01213642 -0.032937817 4289146408
-0.018802047 0.012175111 -0.033044834 4290454814
-0.017030515 0.012213921 -0.033151757 4290323999
-0.01513391 0.011444634 -0.032620955 4290454814
-0.012976162 0.0090592187 -0.030815421 4290585629
-0.01054097 0.0050581153 -0.027736152 4289734948
-0.0076786764 -0.0013664197 -0.022746965 4289015594
-0.0046368986 -0.0085978694 -0.017123347 4288949803
-0.0019626245 -0.013404344 -0.013413063 4288098869
-0.039263755 -0.014882912 -0.012903756 4287706934
-0.03792908 -0.0099765137 -0.016846994 4287772468
-0.036268201 -0.0083152466 -0.018235477 4287903283
-0.034710713 -0.0058430135 -0.020261208 4287968819
-0.033264797 -0.0025600195 -0.022923639 4288034353
-0.031742819 -8.8319182e-05 -0.024947044 4288230704
-0.030237239 0.0023831688 -0.026969351 4288296239
-0.028438028 0.0024218 -0.02707853 4288295983
-0.026851017 0.0040821414 -0.028461963 4288165425
-0.025166191 0.0049316119 -0.029207645 4288230703
-0.023709912 0.0074024741 -0.031226635 4288426798
-0.022155803 0.0090624299 -0.032607831 4288492333
-0.020612679 0.010722311 -0.033988316 4288165424
-0.01896086 0.011571491 -0.034731679 4288295984
-0.017192177 0.01161023 -0.034838434 4289342503
-0.015173368 0.010028342 -0.033673048 4289277224
-0.013015937 0.0076364037 -0.031872347 4289146408
-0.010450624 0.0028141458 -0.028165467 4288819243
-0.0074529387 -0.0044379234 -0.022553828 4288753964
-0.0045423992 -0.010878673 -0.017580422 4288164149
-0.037967995 -0.011444606 -0.01793772 4287641654
-0.036217466 -0.010592327 -0.018686421 4287837749
-0.03456483 -0.0089268181 -0.020071035 4287903794
-0.032923147 -0.0072614122 -0.02145496 4287969074
-0.031488087 -0.0039698537 -0.024110179 4287969073
-0.029873744 -0.0023047775 -0.025492253 4287838259
-0.028167073 -0.0014529005 -0.026237819 4287969074
-0.026571918 0.00021195225 -0.027618514 4288165168
-0.024770275 0.00025086105 -0.027727673 4288427053
-0.023414519 0.0035413224 -0.030377707 4288492844
-0.021966442 0.0060186032 -0.032391284 4288361774
-0.02041788 0.0076828916 -0.033768829 4288492333
-0.0187607 0.0085344035 -0.034510944 4288753963
-0.016986702 0.0085732769 -0.034618009 4288296239
-0.015212808 0.0086122062 -0.034725025 4288230194
-0.012927912 0.005401263 -0.03229491 4288557613
-0.010229871 -0.00024643913 -0.027963737 4288688428
-0.0069609992 -0.0091426745 -0.021099102 4288557614
-0.0043120682 -0.013975911 -0.01740681 4286920259
-0.037746206 -0.015359156 -0.017122997 4286594369
-0.036166836 -0.012873616 -0.01914042 4287248698
-0.034511514 -0.011203665 -0.020522008 4287575864
-0.032772068 -0.010349246 -0.021268187 4287576118
-0.031233698 -0.007864194 -0.023282904 4287707189
-0.029611211 -0.00619464 -0.024662191 4287969073
-0.02789646 -0.0053404365 -0.025406642 4287772723
-0.026293173 -0.0036710184 -0.026784634 4288034353
-0.024483498 -0.0036319457 -0.026894286 4288099889
-0.023008078 -0.0011477098 -0.02890471 4288231214
-0.021434959 0.00052136555 -0.030280644 4288034864
-0.019989647 0.0030052271 -0.032289106 4288034353
-0.018441197 0.0046739336 -0.033663355 4287838004
-0.016659174 0.0047129449 -0.03377093 4287968819
-0.014752258 0.0039373543 -0.033245616 4287903284
-0.012456845 0.0007179305 -0.030822624 4288230194
-0.0096180439 -0.0057593472 -0.025870929 4288230448
-0.006602671 -0.013050116 -0.020289479 4288230449
-0.034273729 -0.015119885 -0.01970968 4286986814
-0.032526206 -0.014263125 -0.02045474 4287117883
-0.030979643 -0.011771381 -0.022465099 4287510839
-0.02944947 -0.0092798769 -0.024474377 4287642164
-0.027729351 -0.0084233638 -0.02521752 4287969074
-0.026014749 -0.0075668674 -0.02596025 4288034353
-0.024305668 -0.0067103896 -0.026702572 4287903283
-0.022602107 -0.005853856 -0.027444502 4287969074
-0.021018121 -0.0041802432 -0.028817814 4287838259
-0.019561883 -0.0016896706 -0.030822119 4287903538
-0.018002558 -1.6389415e-05 -0.032193787 4287838259
-0.016331993 0.00083980523 -0.032933366 4287903540
-0.014417097 6.2189996e-05 -0.032410171 4287706933
-0.012113903 -0.0031657405 -0.029994113 4287771958
-0.0092675574 -0.0096601695 -0.025055854 4288033843
-0.0063777976 -0.016153622 -0.020120116 4287837494
-0.030432923 -0.018150382 -0.019763188 4286791229
-0.028886382 -0.015652075 -0.021768581 4287118393
-0.02725314 -0.013973468 -0.023142025 4287641908
-0.025736675 -0.011475513 -0.025145449 4287838004
-0.024019506 -0.010616694 -0.025886644 4287772468
-0.022307854 -0.0097578801 -0.026627423 4287707189
-0.020601731 -0.0088990703 -0.02736778 4287772468
-0.019134562 -0.0064017624 -0.029367903 4287707443
-0.017564368 -0.0047239121 -0.030737001 4287707189
-0.015882991 -0.0038653202 -0.031475622 4287772468
-0.013832543 -0.0054639336 -0.030325118 4287706933
-0.011516117 -0.0087002665 -0.027916336 4287902773
-0.0086567737 -0.01521186 -0.022991782 4287837494
-0.006153129 -0.019265676 -0.019957034 4287314234
-0.026674446 -0.020366803 -0.020453248 4286071873
-0.025141615 -0.017862061 -0.022452794 4286791483
-0.023733675 -0.014535902 -0.025080232 4287183673
-0.022125166 -0.012853161 -0.026448699 4287445303
-0.020527605 -0.011170631 -0.027816407 4287380023
-0.018941011 -0.0094882045 -0.029183354 4287511094
-0.017484773 -0.0069845095 -0.031177882 4287641653
-0.015800744 -0.0061236992 -0.03191505 4287707189
-0.013872631 -0.0069053974 -0.031395916 4287510583
-0.011301506 -0.011792783 -0.027737999 4287706423
-0.0083070956 -0.019142736 -0.022199031 4287771958
-0.0060616694 -0.021565126 -0.020427767 4287183419
-0.023339763 -0.019291714 -0.023656026 4287249463
-0.021720376 -0.017604437 -0.025021948 4286725949
-0.020225827 -0.015093684 -0.027014082 4287053114
-0.018631097 -0.013406704 -0.028378334 4287183673
-0.017166637 -0.01089639 -0.030368486 4287641654
-0.015718594 -0.008386286 -0.032357614 4287510839
-0.013663195 -0.0099934991 -0.031213893 4287641654
-0.010959655 -0.015717208 -0.026939766 4287707189
-0.0079577491 -0.023086525 -0.021415804 4287576118
-0.0058373921 -0.024692021 -0.020275783 4287314234
-0.016729601 -0.015646767 -0.028943615 4286790973
-0.015392583 -0.012304341 -0.031553425 4287183419
-0.013204593 -0.01474131 -0.029788688 4287379514
-0.010618128 -0.019654464 -0.026151072 4287445558
-0.0078690089 -0.02539221 -0.021890972 4287380023
-0.0057461709 -0.027002051 -0.020754308 4286463044
-0.012621809 -0.020334076 -0.027753148 4286071618
-0.010404296 -0.022776876 -0.025994945 4286594624
-0.007650286 -0.028529759 -0.021746427 4287248954
0.00098980591 -0.010755286 -0.017912697 4281102434
-0.00089592487 -0.012269162 -0.01889592 4282148954
0.030592002 -0.01597093 0.035900839 4280766853
0.033101253 -0.018216245 0.037783794 4282143089
0.035264902 -0.018934112 0.038332425 4279976098
0.027189739 -0.011471476 0.029518973 4280242319
0.029493645 -0.01295828 0.030733343 4279980434
0.03145209 -0.012913319 0.030616671 4279455899
0.033591092 -0.013633937 0.031165138 4279190698
0.035918809 -0.015119954 0.032378346 4278665654
0.038629614 -0.018136691 0.034920484 4280174233
0.024171665 -0.0084719583 0.024488818 4281682813
0.026626341 -0.010731734 0.026365185 4278996134
0.028746568 -0.011455126 0.026913032 4278996898
0.039992638 -0.017371882 0.031637657 4280568464
0.04272709 -0.020396598 0.034172036 4280373134
0.023956649 -0.0092527177 0.022674313 4279455134
0.026235811 -0.010748893 0.023883672 4279520413
0.030114412 -0.010659896 0.023652574 4279584674
0.032053389 -0.010615282 0.023537135 4279848599
0.033992156 -0.010570567 0.023421785 4279650464
0.036116794 -0.011295673 0.023968019 4278928558
0.038435414 -0.012790372 0.025175374 4279389344
0.041339293 -0.01659403 0.0283658 4279128224
0.044658601 -0.021936417 0.03287679 4279587479
0.02004271 -0.010889515 0.021755032 4282666094
0.021810211 -0.010072961 0.02097849 4282341223
0.023741744 -0.01002885 0.020863248 4278472874
0.026017927 -0.011529397 0.022069501 4278800294
0.031285286 -0.0090794116 0.019742807 4278860729
0.033579662 -0.010579171 0.020948254 4279254958
0.035512686 -0.010534514 0.020833304 4278927283
0.038011685 -0.012805792 0.022697704 4278865318
0.040909685 -0.016620446 0.025880389 4278931618
0.044223011 -0.021978144 0.030380357 4282274669
0.019833535 -0.011663128 0.019945404 4280305559
0.021431319 -0.01006973 0.018511198 4279127204
0.023526944 -0.010800386 0.019055596 4278406828
0.025455453 -0.010756239 0.018940611 4278734503
0.027383775 -0.010712035 0.018825684 4279127204
0.029134065 -0.0098932516 0.018052047 4278861749
0.035094917 -0.010534322 0.018366806 4278401984
0.037588194 -0.012812206 0.020226648 4279127714
0.040480331 -0.016637867 0.023401583 4278866084
0.044175893 -0.023559064 0.029206205 4282602344
0.019460335 -0.011655154 0.01748121 4279717273
0.021052711 -0.010057578 0.016050609 4278732718
0.022973128 -0.010013692 0.015936052 4278799273
0.024893388 -0.0099697467 0.015821548 4278800038
0.026988417 -0.010702353 0.016364465 4278866084
0.02891098 -0.010658171 0.01624996 4278669223
0.031013779 -0.011390438 0.016792532 4278864299
0.032938644 -0.011346029 0.016678022 4278667438
0.035049185 -0.012077997 0.017220298 4279061158
0.037730776 -0.015138774 0.019731866 4278996899
0.041007884 -0.020527828 0.024211248 4280766344
0.017166719 -0.011681985 0.015138416 4281878144
0.01892332 -0.01085921 0.014367342 4278668458
0.020507522 -0.0092573911 0.012940453 4278668203
0.022419684 -0.0092137083 0.012826378 4279191974
0.026593335 -0.010683792 0.013909908 4278531014
0.02851034 -0.010639712 0.013795757 4279648423
0.030787937 -0.012152985 0.014992423 4278669479
0.032526873 -0.011330009 0.014222855 4278669479
0.034817629 -0.012842798 0.015418871 4278669223
0.037684694 -0.016690928 0.018579066 4279915919
0.041152515 -0.02287367 0.023701876 4282602854
0.014884248 -0.011699505 0.012801703 4283253614
0.016638272 -0.010874668 0.012032289 4279127968
0.018386699 -0.010049887 0.011263337 4278799273
0.020129479 -0.009225158 0.01049478 4278732719
0.026373386 -0.011437282 0.012116097 4278793663
0.030381896 -0.012130072 0.012541953 4278800039
0.032298371 -0.012085846 0.012427947 4278603944
0.034771964 -0.014383818 0.014274335 4278603944
0.038015574 -0.019804213 0.018733013 4278997409
0.041488208 -0.026004283 0.023842622 4281816689
0.012301423 -0.010140467 0.0091637829 4283252594
0.014522932 -0.011664433 0.010356786 4280504459
0.016271479 -0.010837581 0.0095893685 4278668968
0.018014386 -0.010010771 0.0088223508 4278471599
0.021822125 -0.0099238493 0.0085951379 4279453348
0.023725711 -0.0098802447 0.0084816599 4279390108
0.025803931 -0.010619767 0.0090207122 4279455643
0.029976085 -0.012098167 0.010098089 4278799273
0.032070033 -0.012837116 0.010636435 4278865574
0.034912013 -0.016707603 0.01378182 4279062434
0.037969366 -0.021360243 0.017577335 4280636803
0.041250266 -0.026794927 0.02202251 4282471784
0.012101777 -0.010877836 0.0073804241 4282271099
0.014003426 -0.01083475 0.0072667091 4280045713
0.015904911 -0.010791572 0.0071530757 4279062944
0.017642327 -0.0099626519 0.0063879783 4278472109
0.019540735 -0.0099193566 0.0062746671 4278862513
0.02558437 -0.01135974 0.007236938 4278339508
0.027664945 -0.012101283 0.0077743055 4278470324
0.031841815 -0.013583758 0.0088482844 4278931108
0.034866288 -0.018250346 0.012636005 4279062688
0.0381115 -0.02370109 0.017071875 4281356924
0.011746593 -0.010822563 0.004950088 4280766088
0.013642684 -0.010779614 0.0048366976 4279259294
0.015538603 -0.01073656 0.0047233975 4278603943
0.017598167 -0.011481207 0.0052600619 4278604454
0.01932992 -0.010650201 0.0044970256 4278669479
0.029165298 -0.012007659 0.0052303341 4278538154
0.031796582 -0.015113208 0.0077123325 4278866084
0.0351917 -0.021367423 0.012787547 4279784338
0.038253538 -0.026046075 0.016563341 4282013039
0.0098067224 -0.012381572 0.003937393 4282272374
0.011236064 -0.0099682324 0.0018776134 4280111248
0.013123877 -0.0099254642 0.0017647226 4278472619
0.015011527 -0.0098825898 0.0016519222 4278472874
0.016898997 -0.0098396484 0.0015391856 4278538919
0.018786296 -0.0097966157 0.0014265319 4278538408
0.020673409 -0.0097534899 0.0013139602 4278735014
0.022904187 -0.011289865 0.0024970812 4278866084
0.024796382 -0.011246469 0.0023843218 4278866084
0.026865758 -0.011992624 0.00291911 4278669478
0.028940342 -0.012738553 0.0034536654 4278669479
0.03175135 -0.016642459 0.0065765306 4278276268
0.037830777 -0.026026979 0.014111307 4281223304
0.0096102953 -0.013105084 0.0021641101 4281618043
0.010725938 -0.0091006625 -0.0011849562 4278736798
0.012605458 -0.009058075 -0.0012973459 4278537898
0.01448483 -0.0090153944 -0.0014096545 4278866084
0.022344284 -0.010427754 -0.00056581304 4278931619
0.024228223 -0.010384528 -0.00067806535 4278669734
0.026466556 -0.011924908 0.00050149299 4278735014
0.029255576 -0.015840277 0.0036175009 4278801059
0.032254316 -0.020546617 0.0073775058 4281029503
0.03528548 -0.025252141 0.011135632 4282340204
0.0088030174 -0.010645771 -0.0021885978 4280701829
0.010527119 -0.0098087918 -0.0029465952 4279128223
0.012245625 -0.0089718066 -0.0037042354 4279125419
0.014119431 -0.0089292638 -0.00381622 4279650208
0.018032916 -0.0096382257 -0.0033950512 4278269128
0.021612987 -0.0087582283 -0.0042633885 4279519139
0.023834959 -0.010303445 -0.0030861814 4278865574
0.026422076 -0.013436321 -0.00062107819 4278538154
0.029570565 -0.018950421 0.0037750094 4278931618
0.032574251 -0.023669699 0.0075249951 4281619064
0.035239615 -0.026800536 0.0099856146 4282667878
0.0086071268 -0.011351442 -0.003948628 4279587479
0.010328442 -0.010512305 -0.0047048819 4278995878
0.0122023 -0.010469869 -0.0048169503 4279191209
0.014076002 -0.010427363 -0.0049289553 4279388068
0.016113102 -0.011181263 -0.0043973881 4279258274
0.017822899 -0.01034203 -0.0051526846 4279259293
0.02105394 -0.0078674518 -0.007304918 4279191208
0.023441955 -0.010213384 -0.0054877009 4278734249
0.026200436 -0.014151273 -0.0023861262 4278865318
0.029705413 -0.021272963 0.0032837451 4279849109
0.032893948 -0.026801333 0.0076662069 4281881459
0.0060875937 -0.0096978527 -0.0075209606 4279916683
0.0076482147 -0.0080579426 -0.0089176642 4278867359
0.0098192319 -0.0096136406 -0.007744357 4278536878
0.011684813 -0.0095713977 -0.0078559332 4278731699
0.015578985 -0.010285294 -0.007437035 4278469559
0.017446786 -0.010242717 -0.0075485343 4279782044
0.019145511 -0.0094015338 -0.0083014537 4278864554
0.021181934 -0.010157336 -0.0077713276 4279060394
0.023572378 -0.012509803 -0.0059590908 4279127204
0.026687346 -0.018055186 -0.001583736 4279849363
0.030199803 -0.025196265 0.0040711164 4280177294
0.032848328 -0.028344955 0.0065197269 4282537574
0.0041789338 -0.011230912 -0.0085167158 4282796144
0.0055953264 -0.0087854806 -0.010551596 4279064984
0.0071478039 -0.007141456 -0.011944538 4278735779
0.0093103945 -0.0087016672 -0.010774019 4278930854
0.011483714 -0.010261575 -0.0096040219 4278734249
0.01537215 -0.010977788 -0.0091864094 4278270148
0.017403297 -0.011736063 -0.0086577218 4278402238
0.021138214 -0.011650687 -0.0088804998 4279322533
0.023702674 -0.014810266 -0.0064335587 4279127204
0.026996851 -0.021171417 -0.0014302685 4278275759
0.0036951527 -0.0103116 -0.011542835 4281948268
0.0049536526 -0.0070565417 -0.014211783 4278932129
0.0066477433 -0.0062116608 -0.014961597 4278603178
0.0088019297 -0.007776428 -0.013793829 4279061923
0.01096686 -0.0093408693 -0.012626568 4278799784
0.013142489 -0.010904949 -0.011459932 4278800548
0.015002094 -0.010862671 -0.011571025 4278276269
0.021266058 -0.013946668 -0.0093514416 4278800549
0.023832887 -0.017114904 -0.0069111274 4278997410
0.027129143 -0.023493391 -0.0019209126 4279980944
0.030289024 -0.029068096 0.0024291521 4281946483
0.034315832 -0.029781992 0.002837881 4282471018
0.036051273 -0.028935077 0.0020864157 4282602344
0.0033587441 -0.010184661 -0.013921147 4279065494
0.00506109 -0.0093375109 -0.014669975 4278865573
0.0070627406 -0.010101311 -0.014143066 4279717273
0.0090696886 -0.010864872 -0.013616459 4278470069
0.014795616 -0.011543896 -0.013312034 4278997154
0.01648619 -0.010696484 -0.014059691 4278734758
0.018171176 -0.0098491237 -0.014806957 4278603944
0.020707913 -0.013026842 -0.012371399 4278538409
0.023962975 -0.01942369 -0.0073917788 4279127968
0.02708444 -0.025014631 -0.0030507897 4281161083
0.029884532 -0.028994964 1.5974641e-05 4282537318
0.0028756633 -0.0092410743 -0.016929233 4278998938
0.0050187707 -0.010814959 -0.015767409 4278930343
0.0068678632 -0.010773314 -0.015878167 4280372114
0.010723449 -0.01149727 -0.01546373 4278400453
0.014426023 -0.011413233 -0.015685027 4279319984
0.016111128 -0.010563746 -0.016430791 4278669224
0.018128 -0.011328874 -0.01590604 4278668969
0.021007195 -0.016129609 -0.012207191 4278734759
0.024441212 -0.023350894 -0.0066060764 4280831878
0.027393438 -0.028149806 -0.0029114692 4282340203
0.0026867241 -0.0099040512 -0.018657992 4278733484
0.004826881 -0.011482371 -0.017499244 4279060649
0.0068254471 -0.012250585 -0.016975462 4279585438
0.010522962 -0.012167046 -0.017196743 4278471853
0.015736334 -0.010422181 -0.018795265 4278537898
0.017916232 -0.011998974 -0.017638428 4278734758
0.020963557 -0.017622214 -0.013315816 4278866338
0.024570972 -0.025672344 -0.0070961369 4281553018
0.027348652 -0.029675029 -0.004044306 4282536808
0.002351135 -0.0097504184 -0.021016553 4278930343
0.0046351254 -0.012145249 -0.019227715 4279126183
0.0083218217 -0.012062181 -0.019448517 4279324574
0.01032266 -0.012832345 -0.018926358 4278931873
0.012168378 -0.012790542 -0.01903674 4278931108
0.014013931 -0.012748622 -0.019147024 4278865319
0.015859365 -0.012706657 -0.019257262 4278537898
0.018378869 -0.015910935 -0.016840173 4278996898
0.0214338 -0.021549225 -0.012529355 4279325338
0.02435264 -0.02637505 -0.0088522397 4280635784
0.026773758 -0.028765919 -0.0070709628 4280700809
-0.00093769655 -0.013741663 -0.01998971 4281097334
0.00047389418 -0.011257522 -0.021995382 4279194269
0.0024560615 -0.012030708 -0.021473972 4278471854
0.0044435337 -0.012803619 -0.020952836 4278800038
0.008124575 -0.012720725 -0.021173334 4278599609
0.011805035 -0.012637461 -0.021393513 4278535348
0.01364506 -0.012595713 -0.021503499 4278732208
0.015650712 -0.013367692 -0.020983065 4279128223
0.018335663 -0.017394485 -0.017942086 4279325340
0.021561272 -0.023861686 -0.013012543 4281488504
0.024134465 -0.027073285 -0.010605023 4282537318
0.030526839 -0.03019706 -0.0084249191 4282471529
-0.00097943842 -0.015213973 -0.021083361 4279324573
0.00072015822 -0.014356324 -0.021824082 4279520158
0.0024142042 -0.013498706 -0.0225644 4280438923
0.0044014901 -0.01427382 -0.022044891 4279521434
0.0060898438 -0.013416149 -0.022784734 4279389598
0.0096073523 -0.012517012 -0.023634017 4278665398
0.013439469 -0.01324997 -0.023224486 4279388834
0.015773669 -0.015656138 -0.021448014 4278865829
0.018629357 -0.020509748 -0.017786684 4280242573
0.02151747 -0.025362458 -0.014127241 4282209389
-0.0021723732 -0.020821013 -0.018922297 4281418633
-0.00031520799 -0.020779645 -0.019033883 4280240023
0.0012540296 -0.019100906 -0.020402245 4279650974
0.0029588714 -0.018240858 -0.021141654 4279848088
0.00465817 -0.017380873 -0.021880612 4279192485
0.0061998367 -0.015702479 -0.023247117 4280897159
0.0075756907 -0.013205776 -0.025240691 4280963458
0.0094076246 -0.013164409 -0.025350342 4280176784
0.011239432 -0.013122971 -0.02545993 4279193503
0.013396978 -0.014717933 -0.024314839 4278800293
0.015730873 -0.017130656 -0.022543229 4279586968
0.01875446 -0.022815397 -0.018264614 4281685364
-0.0040714182 -0.022345044 -0.019912066 4282990964
-0.0022142492 -0.022303807 -0.020023748 4280566678
-0.00021607801 -0.023083337 -0.019508364 4280240024
0.0014997162 -0.022221008 -0.020246841 4279847324
0.003209956 -0.021358745 -0.02098494 4279847578
0.0050639138 -0.02131718 -0.021096133 4279389344
0.0063097402 -0.017992971 -0.023712594 4278995878
0.0076883957 -0.015489733 -0.025701512 4279258273
0.0093654916 -0.014627822 -0.026437333 4279914898
0.011517517 -0.016227342 -0.025295215 4280045969
0.013680235 -0.017826486 -0.024153717 4279194015
0.016019307 -0.020245703 -0.022387266 4280441218
0.018879458 -0.025125219 -0.018745648 4282274923
-0.0022560954 -0.023786446 -0.021125086 4280174488
-0.00025810674 -0.024568178 -0.020611327 4280306323
0.0014576279 -0.023703698 -0.021348199 4279585439
0.003460817 -0.024485122 -0.02083461 4279717274
0.0053200945 -0.024443461 -0.020946138 4279127458
0.0067234337 -0.021933336 -0.022931745 4279455644
0.0079556629 -0.018600669 -0.025540862 4279194013
0.0096381754 -0.017736521 -0.026275432 4279128479
0.011315078 -0.016872328 -0.027009612 4279456153
0.013800502 -0.020121071 -0.024623033 4279521944
0.015976466 -0.021724261 -0.023485487 4282208878
-0.0021596365 -0.026094183 -0.021602377 4280044693
-0.00030011684 -0.026052816 -0.021714142 4279848854
0.0014155693 -0.025186222 -0.022449434 4279323808
0.003272146 -0.025144748 -0.022560891 4279586204
0.0051285774 -0.025103169 -0.022672262 4279651738
0.0066811517 -0.023411572 -0.024029769 4279717783
0.0080681071 -0.020895172 -0.026009522 4279521689
0.0097532943 -0.020028818 -0.026742652 4279521944
0.011592917 -0.019987257 -0.026852747 4279194269
0.013920657 -0.022419816 -0.025095444 4279849363
0.01626458 -0.024851985 -0.023339015 4279782044
0.018624656 -0.027283682 -0.021583473 4282012274
-0.0037899911 -0.029274968 -0.021348257 4282991473
-0.0022014901 -0.027578674 -0.022705093 4279915409
-0.00034208223 -0.027537344 -0.022816878 4279849873
0.0012298748 -0.025841281 -0.024172541 4278865063
0.003083609 -0.025799863 -0.024283826 4280241809
0.0047881231 -0.024931191 -0.02501671 4279914134
0.0066389069 -0.024889678 -0.025127698 4279783318
0.0080259517 -0.022366809 -0.027102638 4279652758
0.0098683164 -0.022325326 -0.027213002 4279521689
0.011550598 -0.021456782 -0.027944278 4279652758
0.013878047 -0.023895884 -0.026191827 4280177293
0.01622168 -0.026334573 -0.024440233 4281946994
0.01841335 -0.027946072 -0.023310082 4282340204
-0.0022433065 -0.029063033 -0.023807712 4281948523
