# .PCD v0.7 - Point Cloud Data file format
VERSION 0.7
FIELDS x y z rgba
SIZE 4 4 4 4
TYPE F F F U
COUNT 1 1 1 1
WIDTH 961
HEIGHT 1
VIEWPOINT 0 0 0 1 0 0 0
POINTS 961
DATA ascii
0.018790297 -0.0092848567 0.046242516 4289014318
-0.014287926 -0.0054727877 0.041560572 4288753198
-0.012548164 -0.0039016912 0.040102124 4290716188
-0.010444559 -0.0046236599 0.040656563 4290651674
-0.0085910335 -0.0038168626 0.039869625 4290128159
-0.0066126846 -0.0037742807 0.039753523 4289147174
-0.0049007796 -0.0022033639 0.038297091 4289474848
-0.0030640587 -0.0013966374 0.037511434 4289148193
-0.00095578283 -0.0021179169 0.038065962 4289409313
0.0012990683 -0.0036028717 0.039290018 4289474849
0.0035646632 -0.0050875535 0.040513549 4289997599
0.0054007024 -0.0042804005 0.039728265 4290259739
0.0072310716 -0.0034732129 0.03894335 4290455579
0.0089036226 -0.0019023959 0.037489787 4288688939
0.010874949 -0.0018589944 0.037374813 4289081383
0.01331903 -0.0041062646 0.039266299 4289474594
0.015618861 -0.0055895159 0.040488265 4289343779
0.017766297 -0.0063089905 0.04104121 4288623148
0.019918948 -0.0070282305 0.041593943 4287378749
-0.016314942 -0.0071024289 0.040499765 4288229684
-0.014689092 -0.0047603715 0.038374763 4288949548
-0.012835354 -0.0039516557 0.037589315 4290651164
-0.010862313 -0.0039094072 0.037473358 4290390554
-0.0092723034 -0.0015677717 0.035350721 4290913813
-0.0076987781 0.00077355932 0.033229161 4289541403
0.00026650727 0.00017702952 0.033438973 4287840043
0.0028007254 -0.0028445274 0.03599631 4289475614
0.0049164519 -0.0035674665 0.03654905 4289671453
0.006888032 -0.0035242513 0.036433917 4290979858
0.0085551217 -0.0019491781 0.034983929 4290520603
0.010675743 -0.0026716962 0.035536613 4290913813
0.012959205 -0.0041597672 0.036756214 4290848788
0.015093036 -0.0048817713 0.037308294 4290063134
0.017069072 -0.0048379544 0.03719328 4288688174
-0.018341817 -0.0087316725 0.039439246 4287575354
-0.016824286 -0.0056142136 0.036650579 4288687408
-0.015089914 -0.0040346496 0.035198905 4289669414
-0.013122313 -0.0039926395 0.035083175 4289408549
-0.011404559 -0.0024131518 0.03363261 4288885289
-0.010335688 0.0030091545 0.028846305 4288561439
0.0065452084 -0.0035662949 0.033931162 4289346074
0.0085110143 -0.003523076 0.033816464 4289802778
0.01063145 -0.0042477734 0.034367543 4290457109
0.012599602 -0.0042043049 0.034252856 4289998873
0.014727809 -0.0049286224 0.034803636 4288884778
-0.018725991 -0.0080052875 0.036262561 4289080365
-0.016983338 -0.0064212997 0.034813557 4289342504
-0.015251715 -0.0048374012 0.033365235 4290782744
-0.01365317 -0.0024827663 0.031251706 4289932064
-0.012445491 0.0021841927 0.027141631 4289932063
0.0077067837 -0.001245454 0.029327894 4288234273
0.010122918 -0.0035130084 0.031206381 4289346073
0.012240246 -0.0042398237 0.031756114 4289410844
0.014042452 -0.0034263339 0.030978067 4288556593
-0.020966392 -0.0080805607 0.033876833 4288883759
-0.019337475 -0.0057190582 0.031766068 4289276969
-0.017258819 -0.0064505395 0.032315217 4289735714
-0.0154134 -0.0056355577 0.031535055 4290390043
-0.014183562 -0.0009551961 0.027433366 4290913813
-0.013734926 0.0083627002 0.019348284 4290133003
-0.022978827 -0.0096975602 0.032824341 4287836984
-0.021452654 -0.0065539684 0.030054467 4289147684
-0.019720845 -0.0049615623 0.028612459 4289735969
-0.017534073 -0.0064708181 0.029823603 4289408804
-0.01581341 -0.0048784157 0.028382426 4289539108
-0.015079319 0.0029158639 0.021639833 4289605408
-0.025202155 -0.0097585656 0.030447876 4286789444
-0.023670331 -0.0066062612 0.027684061 4288359988
-0.021938443 -0.0050096717 0.026245238 4290651419
-0.01999015 -0.0049683787 0.026130417 4290978583
-0.017925531 -0.0057045249 0.026677145 4290978840
-0.016808871 -0.00022052042 0.021933166 4289081383
-0.02566573 -0.0082091726 0.026640777 4289407529
-0.023928314 -0.0066082366 0.025204772 4289080619
-0.022201918 -0.0050073881 0.023769526 4290258973
-0.020259213 -0.004966218 0.023655031 4289997343
-0.018665764 -0.0025857352 0.021561038 4290390044
-0.017922491 0.0052521853 0.014850216 4287970604
-0.02602341 -0.0074242763 0.023505712 4289211943
-0.024077926 -0.0073832534 0.023390898 4289800739
-0.02224341 -0.0065601524 0.022617588 4289016104
-0.020641647 -0.004173059 0.020527888 4288493099
-0.019637935 0.002123314 0.015148012 4288952353
-0.02831801 -0.0066666808 0.020494949 4288621873
-0.026486117 -0.0058416706 0.019723255 4288949293
-0.024227414 -0.0081536751 0.021580435 4289931808
-0.022395726 -0.0073283948 0.020808881 4290847768
-0.021023728 -0.0033665691 0.017410632 4290521879
-0.030495837 -0.0066819377 0.018149192 4288425523
-0.028974414 -0.0034952704 0.015411717 4288884269
-0.026843052 -0.005027866 0.016609563 4288884778
-0.024592847 -0.0073465817 0.018462386 4289473828
-0.022769421 -0.0065193344 0.017692987 4289997343
-0.021859363 0.00059846882 0.01168259 4292092168
-0.032274026 -0.0098431576 0.018427612 4287117629
-0.030835886 -0.005858805 0.015041177 4288884778
-0.029220033 -0.0034523234 0.012964847 4289800739
-0.02719963 -0.0042007929 0.013505787 4288950569
-0.024957929 -0.0065261461 0.015354234 4289473828
-0.023585547 -0.0025426932 0.011972044 4289081893
-0.032702699 -0.0082264282 0.014667994 4288623403
-0.031175584 -0.0050223581 0.011943041 4290259483
-0.029260494 -0.0049822386 0.011829828 4291175443
-0.027240291 -0.0057328884 0.012369162 4290782489
-0.025430568 -0.0049016448 0.011603684 4290128159
-0.024400845 0.0014646268 0.0062739346 4289082659
-0.034669068 -0.0098048933 0.013640727 4289997344
-0.033033945 -0.0073852576 0.011572815 4289278499
-0.031415246 -0.0049657663 0.009505949 4289605409
-0.029505752 -0.0049257819 0.0093930531 4290455834
-0.02759634 -0.0048856549 0.009280269 4290128668
-0.025687028 -0.0048453985 0.0091675902 4290063388
-0.024662443 0.0015381956 0.0038510333 4288232234
-0.036818098 -0.0097920392 0.011313728 4287051839
-0.035085991 -0.0081613008 0.0099002151 4289343269
-0.033364851 -0.0065307207 0.0084874779 4290258719
-0.031754307 -0.0041048974 0.0064259283 4289605154
-0.029853132 -0.0040650656 0.006313541 4288754729
-0.027846966 -0.0048203468 0.0068504792 4289212964
-0.026051044 -0.0039850604 0.0060890401 4289867804
-0.037132233 -0.0089325421 0.0082308268 4287706168
-0.03531421 -0.0080952756 0.0074692853 4289081128
-0.033598553 -0.0064604618 0.0060601057 4289539108
-0.031893875 -0.0048256991 0.004651634 4290324764
-0.029995564 -0.0047859354 0.0045394097 4290194204
-0.027992345 -0.0055434043 0.0050748661 4290849044
-0.026091494 -0.0055033397 0.0049626753 4291504139
-0.037446007 -0.008059836 0.0051577995 4288753708
-0.035542194 -0.0080203107 0.005044987 4288688428
-0.033832025 -0.0063812295 0.0036393176 4288754474
-0.032033309 -0.0055419421 0.0028807211 4289081383
-0.030137885 -0.0055022361 0.0027686693 4290063389
-0.028032631 -0.0070614647 0.0039486522 4290848533
-0.026239611 -0.0062219305 0.0031906641 4289736989
-0.0373943 -0.010381794 0.0046752729 4287509819
-0.035675935 -0.0087383054 0.0032722701 4288426799
-0.033871796 -0.0078968406 0.0025148876 4288558379
-0.032172624 -0.0062535526 0.0011132435 4288558379
-0.030177899 -0.0070156744 0.0016458728 4289473828
-0.028177809 -0.0077775698 0.0021782697 4289605154
-0.026387602 -0.006935915 0.0014220695 4289213218
-0.039074712 -0.014355801 0.0055903345 4286985794
-0.037342701 -0.012707832 0.0041897194 4287379259
-0.035621643 -0.011060009 0.0027898145 4288034098
-0.033911556 -0.0094122356 0.0013906166 4288035118
-0.032113031 -0.0085685868 0.00063527853 4288558634
-0.030320019 -0.0077249627 -0.00011966634 4288688938
-0.02821802 -0.009292962 0.0010540354 4289081638
-0.026643034 -0.0068414537 -0.0009857493 4287708973
-0.038937442 -0.017496804 0.0057407827 4287706169
-0.037108853 -0.016650751 0.004984986 4287642419
-0.03547357 -0.014192068 0.0029460341 4287838259
-0.03375807 -0.012539882 0.0015497888 4287969328
-0.03205353 -0.010887771 0.0001542333 4287903794
-0.030155834 -0.01084802 4.2045256e-05 4287903794
-0.028258219 -0.010808151 -7.0048962e-05 4288362284
-0.026575696 -0.0091561647 -0.001463979 4288428074
-0.024904158 -0.0075042536 -0.0028572187 4287447599
-0.03897718 -0.019029107 0.0046039326 4288164149
-0.037330922 -0.016563833 0.0025690647 4287904049
-0.035419554 -0.016524168 0.0024557901 4287707443
-0.033797923 -0.014059178 0.00042262406 4288165678
-0.031795569 -0.014827773 0.00094986847 4287969074
-0.029991861 -0.013979607 0.00019750185 4288165168
-0.028088946 -0.013939622 8.5099135e-05 4288099123
-0.026401017 -0.012283152 -0.0013059741 4288622383
-0.024724055 -0.010626839 -0.0026962704 4288231979
-0.023058087 -0.0089705791 -0.0040858584 4287643949
-0.039105237 -0.019750457 0.0028283703 4287640888
-0.03737063 -0.018089391 0.0014372298 4288033588
-0.035553195 -0.017239088 0.00068542827 4288034864
-0.033837765 -0.015578234 -0.00070436369 4288100654
-0.031835619 -0.016349021 -0.00017873454 4287969584
-0.029930055 -0.016309127 -0.00029140292 4287904049
-0.028129239 -0.01545871 -0.0010418794 4288165678
-0.026441339 -0.013797901 -0.0024297216 4288623914
-0.024764411 -0.012137248 -0.0038167869 4288296749
-0.023098473 -0.010476671 -0.0052031623 4287773744
-0.021443497 -0.0088162385 -0.0065887505 4287774254
-0.019681241 -0.0079660602 -0.0073365243 4287643693
-0.037501328 -0.018801861 -0.00033152942 4287771703
-0.03549926 -0.0195751 0.00019228039 4288099889
-0.033781152 -0.017909829 -0.0011944249 4288296749
-0.031776492 -0.018682756 -0.00067057461 4288100399
-0.02997024 -0.017830174 -0.0014198469 4288034864
-0.027960289 -0.018602744 -0.00089612696 4288296748
-0.026374318 -0.01612496 -0.0029171871 4289016359
-0.024694696 -0.014459901 -0.0043011764 4288362029
-0.023026053 -0.012794941 -0.0056844931 4288100908
-0.021252889 -0.011942467 -0.0064313728 4287904558
-0.019603491 -0.01027772 -0.0078133363 4287839279
-0.017965071 -0.0086130369 -0.0091946004 4287709228
-0.032014791 -0.018576019 -0.0030704683 4288034609
-0.030214082 -0.017721361 -0.0038178551 4287903793
-0.028209776 -0.018496254 -0.0032953678 4288100399
-0.026414663 -0.017641468 -0.0040422408 4289343779
-0.024735074 -0.015972093 -0.0054230168 4288297259
-0.022953734 -0.015117411 -0.0061688656 4288166443
-0.021293376 -0.013448155 -0.0075483676 4288035373
-0.019407675 -0.013407995 -0.0076593561 4288166444
-0.017884709 -0.010924525 -0.009671405 4287905069
-0.016130988 -0.010069912 -0.010415317 4287970348
-0.014761761 -0.0067725405 -0.013058999 4287773998
-0.030355901 -0.018420655 -0.0055759847 4287249208
-0.028145526 -0.020831645 -0.0037888226 4288296238
-0.026347779 -0.019974688 -0.0045342045 4289016359
-0.024665497 -0.01830087 -0.0059119519 4288362538
-0.022881526 -0.017443961 -0.0066563394 4288297259
-0.02110308 -0.016587066 -0.0074003236 4288231979
-0.019212075 -0.016546801 -0.0075116307 4288100909
-0.017683644 -0.014056657 -0.0095191989 4287839279
-0.016048081 -0.012383323 -0.010893742 4288166698
-0.014549784 -0.0098936092 -0.012899378 4287969838
-0.028499134 -0.019894769 -0.0068112165 4286399038
-0.026602473 -0.019854859 -0.0069232099 4289081128
-0.024705902 -0.019814819 -0.007035099 4288231469
-0.022922009 -0.01895576 -0.0077778799 4288100653
-0.021143645 -0.018096711 -0.0085202586 4288297004
-0.019134741 -0.018875258 -0.0080009056 4288100909
-0.01748278 -0.017197307 -0.0093733128 4288231723
-0.015718315 -0.016338201 -0.010114609 4288166698
-0.01433802 -0.013023185 -0.01274607 4287904049
-0.023187567 -0.018825157 -0.010158058 4287381044
-0.021184191 -0.019606167 -0.009640052 4288231214
-0.019293468 -0.019565932 -0.0097513599 4288231469
-0.017402831 -0.01952558 -0.0098625729 4288100653
-0.015759151 -0.017843369 -0.011231192 4288558888
-0.01412645 -0.016161339 -0.012599053 4287118393
-0.019687921 -0.018605737 -0.012753354 4287707698
-0.017564289 -0.020211777 -0.011609565 4288230703
-0.015799973 -0.01934837 -0.012347652 4288820263
-0.01416729 -0.017662011 -0.013712291 4287313213
-0.016210686 -0.018377578 -0.015340475 4286988599
-0.0095657073 0.0099678496 0.022728015 4282286908
-0.0083128326 0.013851664 0.019280633 4281372988
-0.0062729008 0.013124484 0.019835878 4280073254
-0.0038122647 0.010092412 0.022390891 4281050923
-0.0011888146 0.0062926514 0.025611237 4282287164
0.0017495379 0.00095708016 0.030162726 4283068739
-0.011040267 0.016911335 0.014268917 4281568574
-0.0076717287 0.01930476 0.012052017 4278639899
-0.0056539252 0.018575035 0.012607022 4279876904
-0.0029251873 0.013993113 0.016486233 4279485734
-0.00016392767 0.0094120158 0.020363625 4282481983
0.0024832636 0.0056020794 0.023574628 4283266363
-0.01296946 0.01536041 0.013259352 4281829693
-0.011992816 0.020811372 0.008501254 4281112124
-0.01025705 0.021624573 0.0077279564 4280720954
-0.0085268915 0.022437796 0.0069550164 4280980034
-0.0065256096 0.021705497 0.0075094141 4278830894
-0.0043779723 0.020200815 0.0087268064 4279873843
-0.0017882362 0.016378641 0.011932996 4281830204
0.00053554028 0.014102223 0.013811788 4282025789
0.0033232048 0.0095088528 0.01767808 4282155583
0.0061433539 0.0049162945 0.021542547 4284116534
0.010779269 0.0011397367 0.024629822 4283919674
-0.014773853 0.013034682 0.012912673 4284049978
-0.013774995 0.018501248 0.0081645194 4280916539
-0.01229395 0.020866811 0.0060678236 4278962728
-0.010563713 0.021682084 0.0052964771 4280460343
-0.0088390559 0.022497337 0.0045255339 4281697348
-0.0068434328 0.021762811 0.0050786221 4281240899
-0.0047014877 0.020253599 0.0062931478 4279742519
-0.0026925653 0.019519564 0.0068456074 4280589374
-0.00067833811 0.01878573 0.0073978202 4280784194
0.0014903322 0.017277468 0.0086109787 4280915009
0.0039735362 0.014220315 0.01114565 4281045824
0.006478332 0.011163733 0.013679133 4281633600
0.0088473856 0.0088822087 0.015550745 4281827143
-0.015687216 0.016964383 0.0071641523 4280980033
-0.014197823 0.019336585 0.0050717671 4280393023
-0.012594845 0.020931229 0.0036411271 4280003129
-0.0072992258 0.022606149 0.0019942855 4279027754
-0.0033088177 0.021132976 0.0030975367 4280784448
-0.001452066 0.021173626 0.0029890749 4280588608
0.00040452182 0.021214396 0.0028807127 4280588354
0.0024127811 0.020478453 0.0034318087 4280915264
0.0067596585 0.017453909 0.0058515165 4279087934
0.011963017 0.010547989 0.011562857 4278687073
-0.017477479 0.014648304 0.00682359 4282155583
-0.016350664 0.019365758 0.002757194 4280979524
-0.014620297 0.02018518 0.0019889246 4281044804
-0.012635522 0.019445747 0.002539176 4281045313
-0.011043593 0.02104466 0.0011124589 4280524093
-0.0093272552 0.021864116 0.00034526153 4280198459
-0.007478334 0.021904286 0.00023703068 4279937339
-0.0053477958 0.020386145 0.0014457634 4280065348
-0.0034937412 0.020426646 0.0013373919 4279934789
-0.001639843 0.020467252 0.0012291108 4280849729
6.4834952e-05 0.021286998 0.00046293042 4280784703
0.0019156933 0.021327719 0.00035496405 4281047354
0.0079470426 0.019114114 0.0020035258 4278568244
0.010456018 0.016040519 0.0045240372 4278631738
0.012986571 0.012967502 0.007043371 4280978759
0.015706807 0.0091164419 0.010218327 4280652103
-0.019154094 0.01154621 0.0071384795 4283134783
-0.01837045 0.018622488 0.0011066361 4281371713
-0.014915202 0.020265501 -0.00042646332 4279287853
-0.012936063 0.01952377 0.00012249826 4280980798
-0.011216938 0.020345349 -0.00064332644 4281240899
-0.0095033906 0.021166913 -0.0014087467 4280914754
-0.0075192228 0.020425618 -0.00085983658 4280914499
-0.0055297613 0.019684531 -0.00031116465 4280456518
-0.0036785528 0.019724976 -0.00041936385 4280326469
-0.0019737706 0.020546749 -0.0011839739 4280915264
-0.0002745986 0.021368526 -0.0019481576 4280524604
0.0015706867 0.021409143 -0.0020557896 4279939124
0.0035702437 0.020668775 -0.0015073393 4281633854
0.0055750683 0.019928627 -0.00095911743 4281371968
0.0075851753 0.019188635 -0.00041110208 4280981308
0.0094379336 0.019229807 -0.00051887846 4280915518
0.011786476 0.016928576 0.0013395317 4280588864
0.014655299 0.012285409 0.0051627913 4280521544
0.017727323 0.0068624085 0.0096392585 4280125018
-0.019908596 0.014747974 0.0020850785 4281698878
-0.018654067 0.018707633 -0.0013060053 4279159078
-0.011522762 0.020434342 -0.0030513771 4281111614
-0.0098147281 0.021257967 -0.0038148474 4280980544
-0.0078362003 0.020514376 -0.0032672279 4280849473
-0.005852364 0.019770987 -0.0027198449 4280914753
-0.004006736 0.019811325 -0.0028277107 4281110339
-0.0023074597 0.020635173 -0.0035903633 4280980033
-0.00061379373 0.021458987 -0.0043526255 4280784703
0.0015292391 0.019932866 -0.0031508359 4278766889
0.0033742413 0.019973591 -0.0032583608 4278506023
0.0052190721 0.02001439 -0.0033658224 4278831914
0.011248313 0.017788254 -0.0017264222 4280653888
0.014444433 0.011566014 0.0033947953 4280650828
-0.021463249 0.010860362 0.0030550861 4283199299
-0.020662371 0.017976083 -0.0029487039 4281177403
-0.019059088 0.019587848 -0.0043666326 4281046079
-0.017218079 0.019627325 -0.0044747908 4281306944
-0.01537719 0.019666918 -0.0045828521 4281567808
-0.01366625 0.020492602 -0.0053450875 4280330804
-0.01196089 0.021318246 -0.0061068581 4280981309
-0.010125834 0.021358024 -0.0062143495 4281241664
-0.0081529357 0.020612143 -0.0056680106 4281045823
-0.0061747357 0.019866422 -0.0051218681 4280915518
-0.0044781081 0.020692326 -0.0058828723 4281176383
-0.002787061 0.021518175 -0.0066434201 4281111358
-0.00095274299 0.021558452 -0.006750484 4281176383
0.0010330081 0.02081335 -0.0062045241 4280851259
0.0031783581 0.019282971 -0.0050060004 4278375463
0.0083788708 0.020976 -0.0066322694 4280393279
0.011371292 0.015520533 -0.0021739302 4280587334
0.014737472 0.0084957602 0.0035862364 4280190553
-0.022316515 0.014884087 -0.002628057 4281372479
-0.020821117 0.017288685 -0.0046967184 4280525369
-0.019220576 0.018904772 -0.0061113043 4280590393
-0.017506745 0.019732464 -0.0068721864 4281763138
-0.015925501 0.021348298 -0.0082854396 4281632579
-0.014095768 0.021387767 -0.0083927615 4281241919
-0.012266159 0.021427326 -0.0085000051 4280591159
-0.010436684 0.021466993 -0.0086071603 4281176638
-0.0086073466 0.021506764 -0.0087142279 4281046078
-0.0067781545 0.02154664 -0.0088212062 4281438524
-0.0049491003 0.021586604 -0.0089281043 4281503038
-0.0031201914 0.021626655 -0.0090349326 4281177148
-0.0014402643 0.022454575 -0.0097931903 4281632579
0.00068868697 0.02091942 -0.0085969931 4281241409
0.002519846 0.020959809 -0.0087037338 4280784194
0.0045078173 0.020212777 -0.0081593757 4280654144
0.0061816648 0.021040898 -0.0089169526 4280523583
0.0084995702 0.018719293 -0.0070713377 4280783938
0.011659302 0.012461324 -0.0019739748 4280387668
0.015030235 0.0054170853 0.0037713561 4279734868
-0.023754891 0.010202137 -0.0010090668 4282743358
-0.022704616 0.015776008 -0.00568124 4281306689
-0.021217354 0.018187005 -0.0077446057 4280329019
-0.019503474 0.019016758 -0.0085039595 4279286833
-0.017919417 0.020636953 -0.0099142557 4279482163
-0.016219389 0.021466605 -0.010672648 4278701864
-0.012571197 0.021545392 -0.010886562 4280981308
-0.010882441 0.022375129 -0.011644046 4280981053
-0.0090613961 0.022414725 -0.011750625 4281242174
-0.0072404966 0.022454411 -0.011857124 4281372479
-0.0054197274 0.022494193 -0.011963543 4280461363
-0.0016299039 0.021784149 -0.011526269 4279033109
0.0003445968 0.021034461 -0.010982881 4281242428
0.0023244023 0.020284913 -0.01043971 4281111104
0.0041525662 0.020325352 -0.010546191 4280849984
0.0061401874 0.019576222 -0.010003368 4280784703
0.0087824985 0.01566888 -0.0068644555 4280588098
0.012112148 0.0086040413 -0.0011313651 4279998793
-0.023794834 0.0087138237 -0.0021131795 4282089793
-0.022512238 0.012717369 -0.0054737162 4281044548
-0.020900737 0.014342234 -0.0068825139 4281566533
-0.019543186 0.017552353 -0.0095903026 4281306689
-0.018207531 0.020762097 -0.012296736 4280266798
-0.01651302 0.021593817 -0.013053177 4279418669
-0.014694441 0.021633029 -0.013159857 4280851004
-0.012875985 0.021672353 -0.013266441 4280850494
-0.011192746 0.022504151 -0.014021983 4280849984
-0.009239465 0.021751314 -0.013479352 4280980543
-0.0074214153 0.021790944 -0.013585681 4281242174
-0.0021167919 0.022702452 -0.014552446 4278644234
0.0018208176 0.021198526 -0.013468202 4280849984
0.0039544031 0.019655012 -0.012278647 4280785213
0.00609871 0.018111769 -0.011089615 4280784703
0.0092274919 0.011818186 -0.0060163587 4280587588
0.012399599 0.0055257129 -0.00094558834 4279341914
-0.023608264 0.0056356611 -0.0019196689 4281762629
-0.022088148 0.0080602849 -0.0039753523 4280980289
-0.020703163 0.011279573 -0.0066783717 4280849984
-0.019340064 0.014498509 -0.0093800183 4281306689
-0.017998863 0.017717067 -0.012080305 4281566278
-0.016298983 0.018551074 -0.01283545 4280980033
-0.014734253 0.020179734 -0.014237931 4280590138
-0.013180539 0.021808296 -0.015639735 4280261698
-0.01150281 0.022642136 -0.016393347 4280915008
-0.0095551647 0.021887012 -0.015851997 4280784704
-0.0077426694 0.021926492 -0.015958019 4280133688
-0.0059303306 0.021966107 -0.016063934 4281502529
-0.0039722137 0.021211438 -0.015522951 4281633089
-0.0020087957 0.020457044 -0.014982235 4281307709
0.00011125207 0.018908672 -0.013795285 4280395319
0.0017798245 0.019743007 -0.014547842 4280981563
0.003913179 0.018195122 -0.01336152 4280589628
0.0063762665 0.01505952 -0.010883703 4280523074
0.0091854185 0.010336529 -0.0071153622 4279670608
-0.02330875 0.0017518969 -0.0010853794 4281435464
-0.021780424 0.0041831816 -0.0031366486 4281174853
-0.020268545 0.0066142688 -0.0051869098 4281306433
-0.019015808 0.01063913 -0.0085293623 4281046079
-0.017542273 0.013069625 -0.010577201 4280785214
-0.016085174 0.015499831 -0.01262395 4280719168
-0.014385495 0.016336136 -0.013377442 4280524094
-0.012823615 0.017969191 -0.01477644 4280392513
-0.011272758 0.019602109 -0.016174717 4280456773
-0.0095952302 0.020438254 -0.016926676 4280848963
-0.0077828728 0.020477772 -0.017032662 4278634798
-0.0061137713 0.021313876 -0.017783942 4280004148
-0.0041585639 0.020557038 -0.017244434 4281372478
-0.002198033 0.01980035 -0.016705135 4281372734
-0.00023222715 0.019043919 -0.01616611 4280460343
0.0015848503 0.019084007 -0.016272025 4280656183
0.0040287003 0.015939176 -0.013799638 4280850494
0.0068130568 0.011202528 -0.010039678 4281240133
-0.023462087 0.001052768 -0.0028425253 4281369929
-0.021936446 0.0034904899 -0.0048888037 4281174343
-0.020308685 0.0051287981 -0.0062888917 4281305668
-0.018691912 0.0067669349 -0.0076882122 4281370948
-0.016962122 0.0076058609 -0.0084420042 4281305924
-0.015491378 0.010042868 -0.010484717 4281174089
-0.013907623 0.011680673 -0.011881892 4281239368
-0.012334872 0.013318284 -0.013278314 4281633599
-0.011042938 0.016553599 -0.015962457 4281501254
-0.0094976574 0.018190846 -0.0173571 4281370438
-0.00782305 0.0190292 -0.018107191 4280914243
-0.0061540157 0.019867498 -0.01885684 4279221043
-0.0041989908 0.019108474 -0.018318938 4278505003
-0.0023871735 0.019148245 -0.018424697 4279683614
-0.00057549775 0.019188106 -0.018530376 4278639899
0.0016978905 0.01683259 -0.01670666 4281372988
0.0041441098 0.013679112 -0.014240883 4281175108
-0.023502223 -0.00044332165 -0.0039524073 4281369673
-0.021976549 0.0020009419 -0.0059938217 4281369929
-0.02034881 0.003643577 -0.0073906891 4281370948
-0.01861082 0.0044846749 -0.0081434036 4281305668
-0.016878393 0.005325797 -0.0088956868 4281371203
-0.015024841 0.005365639 -0.0090045081 4281371203
-0.013300814 0.0062068319 -0.0097561842 4281370693
-0.011846591 0.0086502181 -0.011792916 4281437504
-0.010408819 0.011093385 -0.013828658 4281438014
-0.0091250688 0.014337343 -0.016505761 4280915774
-0.0074423589 0.015178001 -0.017254673 4281305668
-0.0059082285 0.016819529 -0.018645292 4281436228
-0.0043851212 0.01846097 -0.020035235 4281110848
-0.0027245954 0.019301441 -0.020782631 4280981563
-0.00076731294 0.018540476 -0.020246344 4281242684
0.0018108264 0.014577049 -0.017144362 4281176639
0.0047292262 0.0090130968 -0.012761191 4280975954
-0.023542348 -0.001939185 -0.00506212 4281630793
-0.021785181 -0.0010957103 -0.0058145002 4281369673
-0.020270474 0.0013549859 -0.0078503862 4281501764
-0.018408664 0.0013947906 -0.0079598529 4281436483
-0.016794767 0.003041639 -0.0093524791 4281436483
-0.014812008 0.0022781314 -0.0088199861 4281697859
-0.0133413 0.0047283387 -0.010852951 4281502274
-0.011622895 0.0055716177 -0.011602579 4281632579
-0.010044847 0.0072181365 -0.012992772 4281175363
-0.0084778108 0.0088645658 -0.014382284 4281045568
-0.0070620142 0.011313959 -0.016411675 4281045314
-0.0055197366 0.012960055 -0.017799586 4280654144
-0.0041341297 0.015408955 -0.01982709 4281240644
-0.0024682134 0.016251758 -0.020573227 4281501508
-0.00050566345 0.015488687 -0.020038826 4280979014
0.0022313148 0.010711673 -0.016305353 4280455753
0.0050007626 0.0059354817 -0.012573697 4279929179
-0.023243599 -0.0058525112 -0.0042496892 4282676294
-0.021594033 -0.0042008329 -0.0056414614 4282022219
-0.019955438 -0.0025493354 -0.0070324736 4281761353
-0.018448964 -9.2189759e-05 -0.0090629477 4281500998
-0.016835082 0.0015590107 -0.010452335 4281697094
-0.014979083 0.0015989142 -0.010561293 4281828419
-0.013381761 0.0032500355 -0.011949576 4281632579
-0.011663437 0.0040954901 -0.012697581 4281436993
-0.0098159611 0.0041355146 -0.012805816 4281436739
-0.0081060342 0.0049809823 -0.013553184 4281371203
-0.0065418556 0.0066317571 -0.014939174 4281044804
-0.0049886927 0.0082824202 -0.0163245 4281110083
-0.0035921521 0.010738141 -0.018347822 4280782663
-0.0019154176 0.011583284 -0.019092951 4280326213
5.7831407e-05 0.010818309 -0.018560838 4281109318
0.002651453 0.0068334369 -0.015475888 4280910929
-0.019759096 -0.0056584813 -0.0068628155 4282479689
-0.018005017 -0.0048105353 -0.007611637 4282219079
-0.016504042 -0.0023469329 -0.0096368231 4281566534
-0.014893021 -0.00069130771 -0.011022779 4281435973
-0.013422213 0.0017719241 -0.013046061 4281632833
-0.011572026 0.0018118946 -0.013154538 4281111358
-0.009856604 0.0026595397 -0.013900695 4281045824
-0.0078719892 0.0018921355 -0.01337124 4281371203
-0.0064424798 0.0043548336 -0.01539176 4281305924
-0.0047437735 0.0052024359 -0.016136702 4281240644
-0.003196191 0.0068574017 -0.01751841 4281305158
-0.0013630763 0.0068976162 -0.017625429 4280978504
0.00062086433 0.0061306795 -0.017095577 4280846413
0.0027638227 0.004556735 -0.015929282 4280123488
-0.016297068 -0.0054556532 -0.0094676428 4283330879
-0.014680613 -0.0037956145 -0.010850647 4282416194
-0.013075165 -0.0021356735 -0.012232977 4281632324
-0.011480696 -0.00047589093 -0.01361453 4280979779
-0.009762641 0.00037403125 -0.014359266 4281371713
-0.0079128146 0.00041421968 -0.01446755 4281371713
-0.0062031597 0.0012641205 -0.015211603 4281370949
-0.0046418346 0.0029235678 -0.016590929 4281435718
-0.002946049 0.0037733829 -0.017334005 4281500744
-0.0012558326 0.0046232073 -0.018076735 4281240134
0.00073067844 0.0038540727 -0.017548634 4281303628
-0.01298666 -0.0044319332 -0.012699137 4281304649
-0.01138949 -0.0027677426 -0.014077611 4281304393
-0.0096687675 -0.0019156625 -0.014820868 4281306178
-0.007816352 -0.0018754592 -0.014929336 4281502018
-0.0061040409 -0.0010232832 -0.015671965 4281306178
-0.0046827123 0.001452337 -0.017682264 4281305159
-0.0029869676 0.0023042811 -0.018423755 4281435209
-0.0011486635 0.0023445869 -0.018531092 4281370184
0.00068949908 0.0023849634 -0.018638369 4281172814
-0.0079944022 -0.0025410941 -0.016659794 4280647004
-0.0061449558 -0.0025008647 -0.016768022 4281304649
-0.0047235563 -1.873821e-05 -0.018773485 4281238349
-0.0030278862 0.00083536934 -0.019513361 4281303883
-0.0011896938 0.00087564904 -0.019620709 4281369929
0.00064835697 0.0009160107 -0.019727988 4280974423
-0.0064655617 -0.0023459299 -0.019125914 4280516188
-0.0049069636 -0.00067352504 -0.0204954 4281106514
-0.0032140799 0.00018272642 -0.021233547 4281369164
-0.001378715 0.00022291485 -0.021340754 4281108298
0.00030575693 0.00107913 -0.022078224 4280385883
0.021739759 -0.0062205987 0.040810145 4281158788
0.023383662 -0.0046497267 0.039358761 4279782043
0.018547654 -0.0024973229 0.035078295 4281747073
0.020009689 -0.00015691109 0.032964308 4279716763
0.028920881 -0.0045731384 0.036504943 4282405228
0.017674401 -0.0002345331 0.030583918 4279324064
0.018954486 0.002879831 0.027810687 4278537133
0.02744098 -1.5985221e-05 0.030016929 4279059373
0.030303724 -0.0038090181 0.033224404 4279585693
0.032823965 -0.006066652 0.035102416 4280569738
0.015676089 -0.0018428452 0.029536832 4282468469
0.017298654 -0.00025948044 0.028096262 4279258274
0.020510525 0.0029067537 0.025217313 4279324319
0.022273622 0.0037198616 0.024441903 4279521434
0.02420757 0.0037632389 0.024329703 4279126694
0.026320554 0.0030370643 0.024880242 4278929834
0.028620705 0.0015414944 0.02609309 4278930854
0.03111618 -0.00072321948 0.027967688 4278800294
0.033627748 -0.0029875319 0.02984146 4278603689
0.036155403 -0.0052514058 0.031714354 4280830859
0.03812065 -0.0052068215 0.031600714 4280436629
0.012717038 0.0011826633 0.024517002 4281491054
0.014817491 0.0004534563 0.025066292 4278867104
0.016592011 0.0012687659 0.02429159 4278276779
0.02012416 0.0028992174 0.022743478 4278401728
0.022055499 0.0029424718 0.022631383 4278728639
0.024163075 0.0022139316 0.023180559 4278269129
0.026275873 0.0014855778 0.023729488 4278467008
0.028393909 0.00075741392 0.024278242 4278668969
0.030332565 0.00080115627 0.024165962 4278603434
0.03264562 -0.00069826096 0.025374915 4278734504
0.034589253 -0.00065422803 0.025262482 4278865574
0.04140982 -0.0043786475 0.028225347 4279976354
0.044370718 -0.0081906524 0.03141138 4282470764
0.015720353 0.0035889847 0.01983982 4278607514
0.018148504 0.0013091629 0.021708282 4278341548
0.02166383 0.0029438352 0.02016449 4278532289
0.023765795 0.0022129631 0.020712426 4278991288
0.025693871 0.002256318 0.020600649 4279060649
0.027621761 0.00229974 0.020488938 4278472363
0.029364876 0.0031171767 0.019718165 4278537899
0.031476878 0.0023868484 0.020265758 4278471854
0.037648745 0.00097083207 0.021248497 4278662593
0.039977022 -0.0005323384 0.022453595 4278269893
0.042717621 -0.0035821283 0.024974443 4279585438
0.04527618 -0.0058579678 0.026836125 4282208624
0.016759053 0.0059738671 0.015293444 4278737819
0.01901038 0.0044638021 0.01649916 4278670753
0.021272376 0.0029541282 0.017704295 4279324318
0.023545071 0.0014447747 0.018908871 4279061668
0.025291301 0.0022642342 0.018139446 4278603433
0.027213633 0.0023075482 0.018028067 4278537899
0.02895128 0.0031269928 0.017259272 4278472619
0.031057656 0.002394435 0.017805552 4278471343
0.033169284 0.0016620634 0.018351581 4278798764
0.034900859 0.0024815826 0.017583292 4279192993
0.037017465 0.0017494885 0.018129155 4278996389
0.041467138 -0.00048987381 0.019876707 4278799529
0.043805614 -0.0019970033 0.021078097 4279061669
0.020881213 0.0029733581 0.015250728 4279065749
0.022795692 0.0030163592 0.015139706 4278801059
0.024888955 0.0022810651 0.015684929 4278538154
0.026624054 0.0031025438 0.014917837 4278865319
0.028722353 0.0023675403 0.015462901 4278603179
0.034085698 0.0040539326 0.013819534 4279912349
0.036191292 0.0033193612 0.01436445 4280043930
0.038302124 0.0025850134 0.014909066 4279322789
0.040819585 0.00029516872 0.01676333 4278798253
0.04335314 -0.0019942708 0.018616762 4278799273
0.046315074 -0.0058387676 0.021778544 4280634763
0.022575423 0.0022638822 0.013347803 4278473894
0.024665795 0.0015263194 0.013891629 4278472364
0.02639813 0.0023499755 0.01312629 4278537643
0.028493553 0.001612681 0.01366994 4278538154
0.035756081 0.0033466546 0.011920095 4278269129
0.040373065 0.00031345617 0.014313195 4279256743
0.043104298 -0.0027626334 0.016815253 4279061923
0.046269223 -0.0073979562 0.020622153 4278604198
0.020099588 0.0030387407 0.010363493 4278934169
0.022179119 0.0022987267 0.010906232 4278800038
0.024263896 0.001558912 0.011448728 4278668714
0.025990754 0.0023845667 0.010685356 4278407084
0.028080575 0.0016450183 0.011227675 4278669223
0.029614583 0.0032532206 0.0098122703 4278865829
0.031516984 0.0032963408 0.0097022383 4278603433
0.040528625 -0.0020059738 0.01382479 4278931364
0.04346554 -0.0058728503 0.016971795 4278734758
0.046635427 -0.010521168 0.020768734 4282143343
0.021607019 0.003127479 0.0078197327 4278603179
0.023504674 0.0031701839 0.0077097444 4278472619
0.031282999 0.0025570458 0.0079212375 4278275759
0.033374749 0.0018156013 0.0084619997 4278865829
0.03547173 0.0010743523 0.0090025188 4278865829
0.037771761 -0.00045115501 0.010193036 4278537899
0.040483505 -0.0035451408 0.012683238 4278996644
0.04382655 -0.0089915991 0.017122086 4280308364
0.047001392 -0.013652806 0.020908993 4282536808
0.01914569 0.0039270548 0.0048527261 4278472874
0.021035284 0.0039694915 0.0047431421 4278537388
0.022924677 0.0040120082 0.0046336306 4278602669
0.026702911 0.0040972559 0.0044148117 4278399433
0.032753386 0.0026521785 0.0053850012 4279061413
0.034842059 0.0019085659 0.0059243809 4278734504
0.037726998 -0.0019813944 0.0090580983 4278668969
0.041039824 -0.0074438285 0.013487318 4278735014
0.044390455 -0.012905287 0.017914364 4282209134
0.017042093 0.0031615989 0.0031918529 4278736798
0.018582605 0.0047825696 0.0017854605 4278734503
0.020463929 0.0048248069 0.0016763449 4278800038
0.024407409 0.0041203713 0.0021063131 4279323043
0.026290886 0.0041629029 0.0019972548 4279062178
0.028360993 0.0034164703 0.0025359238 4279322789
0.032324672 0.0027130553 0.0029652186 4278733484
0.034797721 0.00038940739 0.0047976533 4278472109
0.037879951 -0.0043002795 0.0085703675 4278931364
0.040994532 -0.0089891218 0.012341221 4281815414
0.01682844 0.0024429997 0.0014247308 4278802079
0.018193081 0.0048597949 -0.00062508765 4278668968
0.020244747 0.0041104639 -8.7198336e-05 4278472619
0.024001196 0.004195041 -0.00030488987 4278268874
0.02587916 0.0042374367 -0.00041363528 4279385519
0.027943663 0.0034886943 0.00012373272 4278470324
0.031896219 0.0027828841 0.00055200001 4278667183
0.034558482 -0.00033849943 0.003025518 4278865573
0.037637517 -0.0050412854 0.0067886543 4280439943
0.041149601 -0.011325102 0.011840541 4282340458
0.016103737 0.0041103242 -0.0022751365 4278866083
0.017630689 0.005739673 -0.0036742848 4278472364
0.019849859 0.0041943276 -0.0024924849 4278538154
0.025835648 0.0027339617 -0.0015287586 4278268618
0.031852283 0.0012750356 -0.00056634494 4279388578
0.034903914 -0.0034415433 0.0031886529 4279521178
0.038185477 -0.0089504113 0.0075855926 4281422969
0.041504867 -0.014458397 0.011980439 4282405994
0.015720218 0.0042033354 -0.0046743928 4279062944
0.017414786 0.0050410489 -0.0054263808 4278406574
0.019455262 0.0042870818 -0.0048911031 4278668968
0.021679454 0.0027375529 -0.0037127894 4278735014
0.023733176 0.0019840049 -0.0031781143 4278931109
0.025608219 0.0020263204 -0.0032867033 4278731443
0.027483068 0.0020687142 -0.0033952172 4279189424
0.029736429 0.00052017067 -0.0022183496 4279388834
0.03200046 -0.0010280767 -0.0010420587 4279061923
0.035249107 -0.0065530352 0.0033454467 4278603433
0.038535573 -0.012077006 0.0077307876 4279063198
0.013642266 0.0034654373 -0.006316606 4278601903
0.015336961 0.0043052221 -0.0070670638 4279258529
0.021636292 0.0012388425 -0.0048243934 4278727108
0.023508698 0.001281024 -0.0049328851 4279061923
0.025197081 0.0021210769 -0.0056826696 4278931619
0.027066402 0.0021633403 -0.0057908706 4278472364
0.029692702 -0.0009851139 -0.0033348033 4278537644
0.032532528 -0.0049306415 -0.00023905118 4278865829
0.035983518 -0.011268226 0.0047774035 4280505224
0.038885444 -0.015212201 0.0078696739 4281619319
0.041213877 -0.016763154 0.0090391412 4280964990
0.042944387 -0.01592163 0.0082873013 4281881969
0.01156994 0.0027323412 -0.0079556713 4278476443
0.013599709 0.0019735107 -0.0074232128 4279520159
0.015294358 0.0028154692 -0.0081720483 4279061414
0.019018114 0.0028989213 -0.0083881356 4278530248
0.02292224 0.0021826411 -0.0079640355 4279060139
0.024786234 0.0022246921 -0.0080719972 4278800039
0.026650034 0.0022668066 -0.0081798937 4278472108
0.029648982 -0.0024902076 -0.0044511156 4278800294
0.032872297 -0.0080462582 -8.4846281e-05 4279259548
0.036328115 -0.014401101 0.0049183378 4281553784
0.038642965 -0.015956806 0.0060853586 4282537064
0.0095032305 0.0020040786 -0.0095916353 4278476953
0.011362858 0.0020454442 -0.0096997786 4278735779
0.013222329 0.0020868992 -0.0098078428 4279715489
0.015081644 0.0021284251 -0.0099158436 4278533309
0.016940787 0.0021700291 -0.010023773 4279651738
0.018975332 0.0014093323 -0.009492984 4278865574
0.022698194 0.0014930768 -0.0097087864 4279060394
0.024559379 0.0015350329 -0.0098166056 4278733993
0.026793256 -2.7123839e-05 -0.0086484095 4278668714
0.029794462 -0.0047971513 -0.0049294792 4278865828
0.033211835 -0.011170347 6.300048e-05 4281553529
0.035894118 -0.014334815 0.002502973 4282275179
0.0091372207 0.002126568 -0.01197027 4279521943
0.011155941 0.0013630455 -0.011440476 4279192994
0.013012581 0.0014044205 -0.011548387 4279322534
0.018581547 0.0015290091 -0.01187171 4278799273
0.020615764 0.00076624844 -0.011342508 4278732973
0.022474296 0.00080806855 -0.011450231 4278273719
0.024699986 -0.00075875781 -0.010284822 4278930089
0.027309142 -0.0039337873 -0.0078472411 4278734503
0.030318044 -0.0087166987 -0.0041384688 4280177803
0.033359341 -0.013498812 -0.00043152249 4281750644
0.035654955 -0.015063773 0.00073005073 4282405993
0.0087714642 0.0022579813 -0.01434236 4279520413
0.010949165 0.00068516936 -0.01317782 4278603178
0.012802981 0.00072645303 -0.013285588 4278537134
0.024656922 -0.0022502057 -0.011391032 4279192993
0.027824655 -0.0078533161 -0.0070556905 4278799783
0.03065221 -0.011842724 -0.0039916616 4281551998
0.033314981 -0.015025121 -0.0015635681 4282667878
0.0044068173 0.0039351685 -0.017762918 4278343843
0.0082441941 0.0032074125 -0.017342368 4279193504
0.010248989 0.0024391999 -0.016815022 4278669223
0.012259051 0.0016711773 -0.016287928 4278734758
0.013934515 0.0025213426 -0.017029226 4278538153
0.017619416 0.0026038075 -0.017243145 4278732973
0.019639738 0.0018363344 -0.016716408 4279061414
0.022026956 -0.00054843631 -0.014922954 4278931108
0.024613865 -0.0037414869 -0.012497118 4278931109
0.027967341 -0.010168459 -0.0075399447 4279848598
0.030986182 -0.014977289 -0.0038511192 4282339438
0.033270679 -0.016551249 -0.0026954829 4281553784
0.035177074 -0.016508037 -0.0028057459 4282144619
0.0040528253 0.0040889597 -0.020119239 4278866083
0.0057261214 0.0049408777 -0.020859072 4280241554
0.0078790411 0.003358773 -0.019699669 4278733229
0.013552688 0.0026700525 -0.019387176 4279062689
0.015217073 0.0035222592 -0.020126205 4278669734
0.017051205 0.0035633082 -0.020232677 4278866339
0.019241244 0.0019824421 -0.019075049 4278734504
0.021984287 -0.0020308485 -0.016022472 4278602923
0.024754323 -0.0060434723 -0.012971418 4278865318
0.027923733 -0.011676982 -0.0086588161 4280701063
0.030564308 -0.014877399 -0.0062424671 4282601833
0.041053064 -0.018714586 -0.0036374957 4282208879
-0.013027295 -0.0059181312 -0.013801625 4282077043
-0.011693668 -0.0026212484 -0.016443085 4280440964
0.0038553476 0.0034379372 -0.021837302 4278602669
0.0055258647 0.0042919638 -0.02257536 4279715999
0.0093433633 0.0035595214 -0.022156812 4278530248
0.011339523 0.0027868329 -0.021632152 4278530758
0.015002608 0.0028685527 -0.021844994 4279716509
0.017009176 0.0020963242 -0.021320768 4278537898
0.019199014 0.00051108841 -0.020166375 4278603433
0.021941647 -0.0035130922 -0.017121866 4278734503
0.024894692 -0.0083496198 -0.013448807 4280636039
0.027880155 -0.01318535 -0.0097775739 4281880948
-0.013067909 -0.0074041253 -0.014903961 4281421183
-0.011602465 -0.0049149664 -0.016907481 4279981454
-0.010019034 -0.003242285 -0.018278688 4279982219
-0.0081723034 -0.0032022409 -0.01838685 4279722628
0.0036580041 0.0027914597 -0.023551995 4279127458
0.0069879442 0.0045036813 -0.025024256 4279388068
0.0089732111 0.0037284801 -0.024500648 4279781534
0.01096379 0.002953398 -0.023977272 4279386029
0.014788292 0.0022193966 -0.02356041 4279322789
0.016967185 0.00062953029 -0.022408718 4278537899
0.019156806 -0.00096008554 -0.021257566 4278800038
0.022079661 -0.0058104387 -0.017592536 4279194013
0.025034972 -0.010659968 -0.013929313 4281356923
0.027836636 -0.014693573 -0.010896228 4282208623
-0.011379719 -0.0080313263 -0.016745161 4279391129
-0.0099252276 -0.0055357357 -0.018743156 4279587734
-0.0083500631 -0.0038588652 -0.020110553 4279456919
-0.0066461079 -0.0030004447 -0.02084784 4279325084
-0.0050902329 -0.0013237419 -0.022213999 4279653268
-0.0031096265 -0.0021019271 -0.02169219 4280115074
0.00011412054 0.00043295976 -0.023793114 4279722119
0.0017902628 0.0012912462 -0.024528421 4279127968
0.003460817 0.0021495307 -0.025263391 4278799528
0.0071083531 0.0022301665 -0.025475878 4278863788
0.0089318976 0.0022706101 -0.025582012 4279324828
0.010588318 0.0031288648 -0.02631587 4278997154
0.012578577 0.002351732 -0.025794074 4278996388
0.014401704 0.0023923954 -0.025900012 4278537388
0.016750105 -1.9586645e-05 -0.0241239 4278734503
0.019292489 -0.0032486171 -0.021721501 4279062944
0.022398181 -0.0089294305 -0.017439252 4281225088
0.024991877 -0.012157145 -0.015039785 4279649443
0.027607135 -0.015384313 -0.012641443 4281224324
-0.012762472 -0.012837881 -0.015223013 4282993003
-0.011288773 -0.01033549 -0.017217383 4279390619
-0.0098314993 -0.0078334101 -0.019210683 4279390619
-0.0083906539 -0.0053315377 -0.021202983 4279325339
-0.0068264976 -0.0036504604 -0.02256643 4279521434
-0.004988417 -0.00361042 -0.022673951 4279521433
-0.0031504482 -0.0035703117 -0.022781411 4279587734
-0.0014605224 -0.0027097184 -0.023516109 4279326103
-7.738173e-05 -0.00020867772 -0.025504643 4278604453
0.0017493293 -0.00016852934 -0.025611233 4279587478
0.0035759062 -0.00012828689 -0.025717743 4278603944
0.0054023489 -8.7963417e-05 -0.025824182 4278339763
0.014187768 0.0017544022 -0.027607154 4278865573
0.016883314 -0.0023036329 -0.024584316 4278931618
0.019605882 -0.0063610142 -0.021563007 4280242573
0.02289699 -0.012876543 -0.016666973 4282012019
0.029445633 -0.016847702 -0.013867334 4282470763
-0.012674395 -0.015152804 -0.015703024 4282141049
-0.011197921 -0.012643923 -0.017692698 4279259549
-0.0096036308 -0.010958027 -0.019054888 4279325339
-0.008020319 -0.0092723239 -0.020416327 4279325084
-0.0065876991 -0.0067640264 -0.022403235 4279324573
-0.004744295 -0.0067238929 -0.022511082 4279324573
-0.0029010102 -0.0066836895 -0.022618869 4279062944
-0.0012056902 -0.0058208732 -0.023352241 4279062434
0.00018294901 -0.0033131717 -0.025336305 4278602669
0.0018617138 -0.0024505388 -0.026068576 4278668969
0.0036908984 -0.0024102926 -0.026175277 4279979924
0.0053612515 -0.0015476719 -0.02690693 4279784084
0.0068645775 0.00013715029 -0.028263124 4278604453
0.011647739 0.0035464959 -0.031078609 4278275759
0.013973996 0.0011208588 -0.029310999 4279062433
0.016841434 -0.0037700282 -0.025671978 4279980178
0.020096794 -0.010303847 -0.020786876 4281619829
0.02285412 -0.014371252 -0.017775623 4282341223
0.033359356 -0.019089973 -0.014579074 4282601834
-0.033103831 -0.018734766 -0.014344264 4281157513
-0.012843903 -0.015821725 -0.017436491 4281420929
-0.011107158 -0.014956459 -0.018171133 4279258019
-0.0096443519 -0.012441213 -0.020155126 4278996899
-0.0079241358 -0.011576084 -0.02088864 4279193503
-0.006488733 -0.0090612378 -0.022870881 4279259294
-0.0046427287 -0.0090210885 -0.022978913 4279389853
-0.0027968362 -0.008980846 -0.023086866 4279389853
-0.00095108151 -0.0089404862 -0.023194721 4278865573
0.00044307858 -0.0064262301 -0.025174249 4278406573
0.001974009 -0.0047367364 -0.026529027 4278603179
0.003649883 -0.0038719717 -0.027259495 4278472874
0.0054788291 -0.0038316231 -0.027366104 4279652503
0.0069849044 -0.0021424294 -0.028719252 4279784339
0.0083159059 0.00037084799 -0.030694792 4279260313
0.0097972527 0.0020596711 -0.032046363 4278538919
0.011606656 0.0020998707 -0.032151621 4278603944
0.014104858 -0.00115644 -0.029766219 4279193758
0.01732447 -0.0077085332 -0.024892041 4279455898
0.020054385 -0.011787497 -0.021887338 4282274924
-0.013141941 -0.01565888 -0.019790186 4281355904
-0.011279296 -0.015618785 -0.019899497 4279585184
-0.009550903 -0.014751378 -0.020632001 4279650718
-0.0078280345 -0.013884068 -0.021364087 4279454368
-0.0062502809 -0.012189746 -0.022718698 4279061669
-0.0045412481 -0.011322483 -0.023449862 4278931364
-0.0026927665 -0.01128219 -0.023557968 4278931619
0.00070299208 -0.0095477961 -0.025018578 4279389853
0.0020862222 -0.0070271427 -0.026992606 4278931108
0.0039206222 -0.0069868295 -0.027099648 4278734248
0.0055963174 -0.00611981 -0.027828427 4278275503
0.0084389299 -0.001906395 -0.031149382 4279259039
0.010089785 -0.0010396997 -0.031876545 4278997663
0.011904515 -0.00099939387 -0.031982124 4278604199
0.014407828 -0.0042643081 -0.029603502 4278800548
0.017282486 -0.0091811493 -0.025984325 4280373643
0.020012006 -0.013271027 -0.022987708 4282472038
-0.011582658 -0.01544721 -0.022246374 4282274924
-0.0098597445 -0.014577829 -0.022976926 4280569738
-0.0080055892 -0.014537747 -0.023085613 4279979414
-0.0062910505 -0.013668364 -0.023815537 4279520158
-0.004582081 -0.012798952 -0.024545094 4278799529
-0.0028786436 -0.011929624 -0.02527423 4278733993
-0.0011807606 -0.011060322 -0.026002968 4279389853
0.00066195428 -0.01102001 -0.026110632 4279259038
0.0021983385 -0.0093218209 -0.027459279 4278997154
0.003879562 -0.0084525868 -0.028186897 4278603178
0.0057137311 -0.0084122065 -0.028293872 4278800039
0.0072252974 -0.0067142937 -0.029640866 4279127204
0.0087258592 -0.0050165411 -0.030987235 4279192739
0.010382086 -0.0041475631 -0.031713102 4278997154
0.012540966 -0.005764313 -0.030579841 4278800293
0.014882684 -0.0082091931 -0.028827775 4280439944
0.017765053 -0.013138965 -0.025218716 4281685363
-0.00845645 -0.01352403 -0.026043585 4281882478
-0.006471239 -0.014315411 -0.025532007 4279388068
-0.00476503 -0.013443947 -0.026259759 4279390109
-0.0030643716 -0.012572533 -0.026987135 4279389599
-0.0012216493 -0.012532354 -0.027094899 4278668459
0.00062093884 -0.01249207 -0.027202573 4278275503
0.0023103878 -0.011620651 -0.027929107 4279062179
0.0039942786 -0.010749259 -0.028655246 4278996899
0.0058310702 -0.01070885 -0.028762395 4278997154
0.0073453635 -0.009006544 -0.030106401 4279062688
0.008848682 -0.0073044663 -0.031449679 4279194014
0.010507599 -0.0064332467 -0.032174159 4278931874
0.012499638 -0.0072236061 -0.031662259 4279390874
0.015013143 -0.01050572 -0.029297194 4281029758
0.017548211 -0.013787215 -0.026933346 4281422458
-0.022806 -0.018650567 -0.023790842 4282338165
-0.0031051189 -0.01404442 -0.028078968 4280962439
-0.0012625083 -0.014004266 -0.02818674 4279650974
0.00057997555 -0.013964008 -0.028294427 4279258019
0.0022693798 -0.013090461 -0.029019376 4279389598
0.0041089207 -0.013050106 -0.029126769 4279783319
0.0057899207 -0.012176558 -0.029851092 4279259038
0.0073042363 -0.010469936 -0.031191887 4279325084
0.0088075772 -0.0087635275 -0.032531947 4279456154
0.010466456 -0.0078901928 -0.033254847 4279194779
0.012627631 -0.0095156506 -0.032128233 4280244104
0.014971517 -0.011973618 -0.030385992 4281227128
0.017506264 -0.015263848 -0.02802862 4282144619
0.019530356 -0.016055511 -0.027520085 4282274668
-0.0013033226 -0.015476058 -0.0292785 4282537318
0.00053906441 -0.015435861 -0.029386224 4281750389
0.0022284091 -0.014560152 -0.03010956 4279782808
0.0042234808 -0.015355188 -0.029601438 4279389344
0.0057488084 -0.013644159 -0.030939708 4279259039
0.0074242204 -0.012768452 -0.031662073 4279259038
0.0089302957 -0.011057697 -0.032999109 4279260059
0.010591879 -0.010182226 -0.033720549 4279063454
0.01275555 -0.011811955 -0.032597367 4280048009
0.014758021 -0.012606364 -0.032089334 4282144108
0.020977333 -0.015823416 -0.029952692 4282602343
-0.0087142847 -0.017107621 -0.029938554 4282209899
-0.0033311844 -0.016150119 -0.03087697 4282601579
0.0037156865 -0.01431438 -0.032535002 4281816434
0.0057077631 -0.01511165 -0.032028247 4280437904
0.0072221309 -0.013396452 -0.033362668 4279717274
0.0090529546 -0.013356115 -0.033469424 4279193249
0.010717228 -0.012478448 -0.034189429 4278931874
0.012883402 -0.014112502 -0.033069659 4281618808
-0.0090275444 -0.016898884 -0.032256972 4282013039
-0.0033717528 -0.017619478 -0.031966936 4281620338
0.0093392059 -0.016498346 -0.033331018 4279781279
0.010842502 -0.014778919 -0.034661468 4279914389
0.012672998 -0.014738529 -0.03476816 4282406248
