# .PCD v0.7 - Point Cloud Data file format
VERSION 0.7
FIELDS x y z rgba
SIZE 4 4 4 4
TYPE F F F U
COUNT 1 1 1 1
WIDTH 955
HEIGHT 1
VIEWPOINT 0 0 0 1 0 0 0
POINTS 955
DATA ascii
0.025704049 0.00195619 0.021432716 4289408549
0.028190315 -0.00033339113 0.023286983 4289669923
0.030507348 -0.0018446529 0.024484403 4289997089
0.032646991 -0.0025777193 0.02502536 4289734948
0.03479185 -0.0033105817 0.025566071 4289930278
0.037328891 -0.0055987192 0.02741763 4289145133
0.013697542 0.0017001238 0.019657336 4288490803
0.015797839 0.0009632865 0.020198479 4289538599
0.018072359 -0.00055383425 0.021394774 4289735459
0.019842513 0.00027060416 0.020624891 4289931553
0.021432668 0.0018753391 0.019200303 4291044374
0.023188844 0.0026996266 0.018431371 4290978838
0.0251192 0.0027436782 0.018317554 4290717209
0.027597018 0.00044733565 0.020167511 4291044119
0.029720411 -0.00028835144 0.020707753 4290128414
0.031848997 -0.0010238402 0.021247748 4289931554
0.033982836 -0.0017591286 0.021787494 4289734694
0.036315292 -0.0032741586 0.022980943 4289341738
0.03865841 -0.0047888085 0.024173792 4289668393
0.011397384 0.0016735736 0.017315697 4287835199
0.013489529 0.00093427487 0.017855629 4289473828
0.015420757 0.00097789988 0.017741431 4289473829
0.017520703 0.00023897644 0.018281046 4289408804
0.019454271 0.00028283987 0.018166848 4289735713
0.021213308 0.0011092778 0.017399296 4289604898
0.022789679 0.0027181618 0.015978839 4290521114
0.024714507 0.0027620755 0.015865343 4290521114
0.027004093 0.0012413952 0.017057847 4290586138
0.029489584 -0.0010612132 0.018902563 4289932064
0.031615295 -0.0017989376 0.019441117 4289997343
0.03374625 -0.0025364715 0.019979414 4290193184
0.035495698 -0.0017096647 0.019212861 4290062623
0.037827745 -0.0032289377 0.020403113 4290650909
0.039772846 -0.003183994 0.020288844 4290126884
0.042322256 -0.0054846825 0.022130135 4291238174
0.044683509 -0.0070030689 0.023318831 4288489274
0.011353068 0.00012958609 0.016171461 4288688429
0.013118252 0.00095803756 0.015404865 4290455324
0.015043929 0.0010015275 0.015290989 4290782489
0.01713825 0.00026025251 0.015829358 4290978838
0.019409366 -0.0012655128 0.017019413 4290259484
0.021342643 -0.0012215609 0.016905302 4289801504
0.02309873 -0.00039293431 0.016139602 4290193949
0.025028877 -0.0003488753 0.016025808 4289866528
0.026958831 -0.00030476414 0.015912071 4290128158
0.029073738 -0.0010450007 0.016449574 4289997343
0.031193852 -0.0017850259 0.016986841 4290193438
0.033128642 -0.0017405646 0.016872995 4290455324
0.035063215 -0.0016960232 0.016759224 4290062368
0.036997572 -0.0016514156 0.016645521 4290258973
0.039130464 -0.0023909067 0.017182287 4289931554
0.041268557 -0.0031301524 0.01771877 4290388514
0.043411873 -0.0038692183 0.018254986 4289276204
0.045560397 -0.0046080849 0.018790957 4288556593
0.0092222393 -0.00067023002 0.014490415 4289212198
0.010987543 0.00016023405 0.01372538 4289735968
0.012747236 0.00099069253 0.012960767 4288819754
0.014667355 0.0010340447 0.01284721 4289408549
0.016756065 0.00029051676 0.013384257 4291240468
0.018850014 -0.00045279879 0.013921065 4290193949
0.021123424 -0.0019828123 0.015107861 4289670433
0.023053668 -0.0019388483 0.01499399 4290128413
0.025163367 -0.0026815357 0.015530068 4289997598
0.026913576 -0.0018506949 0.01476646 4290193694
0.028843239 -0.0018064925 0.014652811 4290258973
0.030584902 -0.00097569078 0.013889821 4290389788
0.032511435 -0.00093140826 0.013776469 4290847769
0.03424453 -0.00010058843 0.013014071 4290585628
0.036167935 -5.6225806e-05 0.012901016 4289081128
0.038488463 -0.0015844516 0.014085563 4289146664
0.040416896 -0.0015398432 0.013972308 4290062624
0.0425492 -0.0022813445 0.014507551 4289277223
0.04468672 -0.0030226582 0.01504254 4289472808
0.04724852 -0.0053359182 0.016873546 4288752688
0.05046308 -0.010006683 0.020647537 4287117373
0.0069419369 -0.00067584123 0.012162832 4288097593
0.0090202838 -0.0014221501 0.012698598 4289800738
0.010782816 -0.00058956537 0.01193535 4290913559
0.012376487 0.001032264 0.010523276 4289473828
0.01445704 0.00028627459 0.011059113 4288754474
0.016374141 0.00032967329 0.010945821 4289408804
0.018633887 -0.001205029 0.012130095 4290193949
0.020730212 -0.0019504018 0.012665193 4290455323
0.023008637 -0.0034845616 0.013848526 4290193948
0.02511815 -0.0042294161 0.014383006 4290063134
0.026868336 -0.00339641 0.01362101 4290390299
0.028427869 -0.0017745998 0.01221144 4290128159
0.030164048 -0.00094174407 0.011450393 4290455323
0.031894624 -0.00010894239 0.010689734 4290258974
0.033619545 0.00072381832 0.0099294707 4291174933
0.035534717 0.00076797977 0.0098168906 4290913049
0.037648283 2.3731962e-05 0.010351516 4290717209
0.039767057 -0.00072032772 0.010885885 4290455068
0.041891076 -0.0014641974 0.011419998 4290651163
0.044020317 -0.0022079251 0.011953894 4289407274
0.046573684 -0.0045278766 0.013780492 4288360499
0.0043682083 0.00091131404 0.0085447691 4287835453
0.0064329505 0.00016239751 0.0090796323 4289735203
0.0086607262 -0.0013779011 0.010262248 4290128159
0.010417767 -0.00054326281 0.0095009441 4290782488
0.012169167 0.00029138289 0.0087399976 4290586139
0.014080904 0.00033456739 0.0086269518 4290062623
0.016161107 -0.00041357055 0.0091612935 4290193693
0.018075205 -0.00037015975 0.0090482375 4290979094
0.020337261 -0.001909086 0.010229196 4290586138
0.022610009 -0.0034476789 0.011409593 4290193948
0.024534419 -0.0034037847 0.011296112 4289801248
0.026094161 -0.0017777462 0.0098897414 4290194204
0.027642868 -0.00015189592 0.0084840711 4289866528
0.029555827 -0.00010801665 0.0083714491 4289866529
0.031658985 -0.00085491408 0.0089048939 4290128159
0.033381149 -2.0045787e-05 0.0081464089 4290324509
0.035293527 2.4049543e-05 0.0080339918 4290978583
0.037205696 6.8186782e-05 0.0079216212 4290258718
0.039318889 -0.0006781742 0.0084547037 4290520348
0.041641295 -0.0022148676 0.0096327411 4289800739
0.044181034 -0.0045417794 0.011455275 4288883758
0.0018168539 0.0025166832 0.0049385475 4288491314
0.0040202215 0.00097127538 0.0061192187 4289211689
0.0060793236 0.00022006873 0.0066528069 4289604389
0.0083014071 -0.001324675 0.0078324769 4289539108
0.01021336 -0.0012816777 0.0077192755 4289931553
0.011962019 -0.00044497102 0.0069601452 4290651163
0.014036767 -0.0011954438 0.0074930899 4290847513
0.015948206 -0.0011521941 0.0073801158 4290912793
0.018202074 -0.0026957835 0.008558305 4290913304
0.02029261 -0.0034456397 0.0090905111 4290586649
0.022211656 -0.0034019374 0.0089772958 4290063389
0.023951069 -0.0025649141 0.0082191015 4290128669
0.025502697 -0.00093467347 0.0068163974 4290325019
0.027413048 -0.00089094415 0.006703862 4290717208
0.029135592 -5.4067932e-05 0.0059468392 4290651674
0.031042822 -1.0234304e-05 0.0058346195 4290258973
0.033142887 -0.00075929891 0.0063666883 4290128158
0.035248213 -0.0015082229 0.0068985377 4289931808
0.037160307 -0.0014640875 0.0067861732 4290323999
0.039273359 -0.0022126515 0.0073176287 4290193438
0.041799456 -0.0045464174 0.0091360305 4289473063
0.044341639 -0.0068798102 0.01095356 4286071619
-0.00027187914 0.0017517125 0.0032802781 4288359988
0.0016242787 0.0017939592 0.0031677193 4289735458
0.003824681 0.00024412572 0.0043453267 4290651418
0.0058808848 -0.0005093161 0.0048774732 4290651163
0.0079423636 -0.0012625447 0.0054093781 4289604644
0.009848766 -0.0012197075 0.0052964794 4289931808
0.01191806 -0.0019725636 0.0058280677 4290128158
0.013826855 -0.001929475 0.0057151751 4289735459
0.015903965 -0.0026819692 0.0062464378 4290324509
0.017815121 -0.0026386292 0.0061335522 4289931808
0.019900061 -0.003390823 0.0066645201 4289932574
0.021636903 -0.0025517228 0.005907991 4290325019
0.02336812 -0.0017127222 0.0051518879 4290194203
0.025093742 -0.00087375194 0.0043961885 4291110164
0.026813738 -3.4846365e-05 0.0036408678 4291240723
0.028528094 0.00080401637 0.0028859437 4291371538
0.030617341 5.2460469e-05 0.0034169829 4291044118
0.032904789 -0.0014940528 0.0045903749 4290128158
0.035007238 -0.0022451757 0.0051207342 4290193438
0.036916517 -0.0022011092 0.0050085317 4289996834
0.039428964 -0.0045418362 0.0068228696 4289866273
0.041957512 -0.0068821656 0.008636279 4288622894
0.044708692 -0.010016842 0.011090642 4286332994
-0.0023549274 0.00099154282 0.0016251476 4287966524
-0.00046147406 0.0010336172 0.0015126646 4289343268
0.0014318302 0.0010757837 0.0014002619 4290652183
0.0036292523 -0.00047841668 0.0025747754 4289932318
0.0056825727 -0.0012341542 0.00310551 4291109653
0.0077411458 -0.0019896291 0.0036359648 4291044374
0.009644717 -0.0019468497 0.0035232394 4289932064
0.011548102 -0.0019039651 0.0034106043 4289735969
0.013617061 -0.0026589213 0.0039406577 4289277733
0.015691295 -0.0034136865 0.0044704517 4289146919
0.017428458 -0.0025726296 0.0037154262 4289016104
0.019333892 -0.0025293576 0.0036029248 4289539874
0.021062545 -0.0016883165 0.0028485344 4290586648
0.02296491 -0.0016449504 0.0027363361 4290848023
0.024685048 -0.00080395024 0.0019825622 4289801504
0.026214793 0.00083454605 0.0005876536 4289997598
0.028108448 0.00087796431 0.00047615473 4290651673
0.030001938 0.00092144962 0.00036471919 4290717209
0.032473929 -0.0014269575 0.0021764189 4289670178
0.034570806 -0.002180418 0.0027054637 4289931808
0.037069589 -0.0045280708 0.0045156907 4289538853
0.039584458 -0.006875257 0.0063249697 4288818988
-0.0022537261 -0.0013230545 0.0011453596 4289080619
-0.00065093488 0.00032009464 -0.00025156047 4290586393
0.0010901764 0.0011627013 -0.001005806 4289081894
0.0031298399 0.00040439423 -0.00047594775 4289408804
0.0053296015 -0.0011540176 0.00069525838 4289735969
0.0073825568 -0.0019118078 0.0012244196 4290913559
0.009440802 -0.0026694192 0.0017533868 4290259228
0.011667259 -0.0042269463 0.002923223 4290390043
0.013407439 -0.0033838307 0.0021694994 4289867039
0.015310392 -0.0033407998 0.0020570073 4289539618
0.016870946 -0.0016976763 0.00066319946 4289539874
0.018768124 -0.0016545951 0.00055118371 4289801503
0.020665124 -0.0016114442 0.00043923128 4290193694
0.022741213 -0.0023680385 0.00096759992 4290651929
0.02445858 -0.0015248926 0.00021555647 4290913558
0.025985688 0.00011783186 -0.0011759326 4289343524
0.027876526 0.00016115699 -0.0012872871 4289474339
0.029957302 -0.00059498288 -0.00075901253 4289932063
0.032429025 -0.0029499279 0.0010478495 4290193694
0.03452576 -0.0037055798 0.0015752758 4289670178
0.037024267 -0.0060597695 0.0033806656 4289473319
0.039940841 -0.010012109 0.006462994 4286267968
-0.0044748001 -0.0012754146 -0.0011471403 4289343014
-0.0024403185 -0.0020362805 -0.00061886222 4289604899
-0.00098683685 0.00041390117 -0.0026529487 4290781978
0.00074878335 0.0012585036 -0.0034052203 4290716954
0.0027828142 0.00049792789 -0.0028766929 4289343014
0.004976891 -0.0010650251 -0.0017083557 4289343013
0.0068667904 -0.0010226518 -0.0018203463 4289931553
0.0090768561 -0.0025849943 -0.00065284455 4290651673
0.011297651 -0.0041470495 0.00051413104 4290193694
0.013197944 -0.0041041803 0.00040172087 4289735969
0.014929727 -0.0032589491 -0.00034986786 4289539874
0.016484894 -0.001611664 -0.001740098 4289604898
0.018202759 -0.00076664146 -0.0024907109 4289801249
0.02044446 -0.002327736 -0.0013246834 4290193949
0.022517659 -0.0030865422 -0.00079781353 4290128158
0.024414204 -0.0030432339 -0.00090961321 4291044118
0.025941335 -0.0013962025 -0.0022979029 4291109909
0.027644739 -0.000551112 -0.0030473676 4290979094
0.029722661 -0.0013095113 -0.0025205547 4290585884
0.032191381 -0.0036710473 -0.00071836449 4289866274
0.034676209 -0.0060321279 0.0010828668 4289408038
0.037573591 -0.0099958833 0.0041581676 4287314743
-0.0069613047 0.00039165653 -0.0047124252 4289343014
-0.0047994219 -0.0011767885 -0.0035458012 4289539619
-0.0029143542 -0.0011350391 -0.0036578882 4289408803
-0.0010294318 -0.0010931855 -0.0037698857 4289539619
0.00085534155 -0.0010512508 -0.0038818135 4290389533
0.0025880262 -0.00020444579 -0.0046322262 4290913049
0.0046244636 -0.00096706674 -0.0041054012 4290520348
0.0066661835 -0.0017294735 -0.0035788179 4290847768
0.0088732988 -0.003296277 -0.0024143341 4290324764
0.011091121 -0.0048627104 -0.0012504621 4290586649
0.012823045 -0.0040154546 -0.0020004814 4290324763
0.014549352 -0.0031682407 -0.0027501057 4290128413
0.016099088 -0.001516711 -0.0041368431 4290063134
0.017985202 -0.0014739111 -0.0042482289 4290455324
0.020047538 -0.0022352803 -0.0037223664 4289866273
0.022473402 -0.0046046781 -0.0019228398 4290258719
0.024551705 -0.0053655454 -0.0013978155 4290062623
0.026266113 -0.0045180689 -0.0021464159 4290521114
0.027787656 -0.002866724 -0.003531076 4290128413
0.029868156 -0.0036272597 -0.0030060471 4289343013
0.032339312 -0.0059953267 -0.0012088954 4289342758
0.035217457 -0.0099704619 0.0018594069 4287249464
-0.0090187229 -0.00034498051 -0.0063520111 4287835963
-0.0070034005 -0.001110849 -0.0058259983 4289212453
-0.0051237755 -0.0010693166 -0.0059378333 4289081638
-0.0031005517 -0.0018348116 -0.0054121409 4289146918
-0.0012184829 -0.0017930507 -0.0055239918 4289539619
0.0006634593 -0.0017511733 -0.0056357458 4289604644
0.0025452524 -0.0017092028 -0.0057474198 4290651163
0.004426904 -0.0016671275 -0.0058590062 4290324509
0.006308414 -0.0016249828 -0.0059705293 4290324509
0.0083497912 -0.0023894897 -0.0054454822 4290128158
0.010559231 -0.0039605177 -0.0042843134 4290390044
0.012613907 -0.0047245412 -0.0037599155 4290128158
0.014169253 -0.0030686399 -0.0051438296 4289997344
0.015542664 -0.00060642324 -0.0071628159 4289408804
0.01724688 0.0002425937 -0.0079094227 4289932063
0.019474529 -0.0013275407 -0.006749047 4291175189
0.021891952 -0.0037037353 -0.004953858 4289801249
0.023780145 -0.0036606551 -0.0050651934 4289735969
0.02585271 -0.0044236961 -0.0045414227 4290259229
0.027556039 -0.0035743006 -0.0052876817 4290127903
0.029823609 -0.005143153 -0.0041293832 4289342759
0.032487139 -0.0083237467 -0.0017024968 4288034353
-0.011601564 0.0021613371 -0.010534463 4288752944
-0.0094671324 0.00058334414 -0.0093728527 4289603879
-0.0074601546 -0.00018487033 -0.0088479482 4290389788
-0.0053069219 -0.0017622816 -0.0076872576 4290913304
-0.0034302697 -0.0017207614 -0.0077988766 4290455069
-0.0014073774 -0.0024883198 -0.0072746929 4289670434
0.00047171116 -0.0024465355 -0.0073863007 4289474084
0.0021988451 -0.0015955493 -0.0081331832 4289866529
0.0040749386 -0.0015536211 -0.0082444567 4289604643
0.005950883 -0.0015116017 -0.0083556492 4290128158
0.0079866648 -0.002278422 -0.0078318967 4290193694
0.010027736 -0.0030450281 -0.0073083853 4290193438
0.011908658 -0.0030026324 -0.0074196775 4290455324
0.0136213 -0.0021514352 -0.0081653036 4289473829
0.015157484 -0.00049154274 -0.0095447954 4287773234
0.017029792 -0.00044908095 -0.0096553853 4289408548
0.019078217 -0.0012151431 -0.009131955 4290781978
0.021310933 -0.0027894704 -0.0079750791 4290390043
0.023190886 -0.0027465923 -0.00808594 4290258973
0.025439546 -0.0043203947 -0.0069298865 4289997344
0.027511761 -0.0050856308 -0.0064076493 4289604389
0.029968962 -0.0074670892 -0.0046194643 4287772979
0.032634869 -0.010656343 -0.0021991944 4286922554
0.03571295 -0.01546127 0.0014854381 4286660669
-0.013506413 0.00063149072 -0.011526934 4288687664
-0.011510279 -0.00013936963 -0.011003173 4289080618
-0.0097796991 0.00071324129 -0.011749111 4289408549
-0.0079165176 0.00075427443 -0.011860069 4289539363
-0.0057717003 -0.00082763657 -0.010702157 4289735714
-0.0037597418 -0.001597736 -0.010179034 4291239958
-0.0018887818 -0.0015562465 -0.010290243 4289669923
0.00013108552 -0.0023259716 -0.0097674392 4290193183
0.002004467 -0.0022842186 -0.0098786363 4289997344
0.0038777292 -0.0022423724 -0.0099897552 4289670434
0.0055936426 -0.0013892911 -0.01073423 4290128158
0.0076238215 -0.0021584374 -0.010211779 4289997343
0.0094966218 -0.0021163011 -0.010322647 4289931808
0.011369303 -0.0020741434 -0.010433491 4290520603
0.012905665 -0.00041004736 -0.011809798 4290193439
0.014601804 0.00044304132 -0.012552766 4288296238
0.01646585 0.00048528798 -0.012662888 4289343014
0.018682189 -0.0010938412 -0.01150834 4290193694
0.020730294 -0.0018619923 -0.010986511 4289735713
0.022420354 -0.0010087378 -0.011728894 4289997344
0.024842322 -0.00339776 -0.009943583 4289604389
0.027467497 -0.0065967934 -0.0075274901 4289539109
0.030304059 -0.010605698 -0.0044811298 4287903538
0.035277128 -0.015380207 -0.00091775972 4287052603
-0.015919987 0.0023579523 -0.015053612 4288096828
-0.013677649 -4.3361448e-05 -0.013263877 4289539109
-0.011949744 0.00081125274 -0.014008121 4290193949
-0.0099566355 3.8238242e-05 -0.013485732 4289343523
-0.0082344078 0.00089294184 -0.014229481 4288034608
-0.0062360987 0.00012024771 -0.013707248 4289146663
-0.0043760166 0.00016139727 -0.013817883 4290127903
-0.0022235364 -0.0014245473 -0.012663476 4290324254
-6.0319901e-05 -0.0030100942 -0.011509666 4290062368
0.0016585514 -0.0021549799 -0.012252852 4290193438
0.0033718422 -0.0012998953 -0.012995639 4290062623
0.005393818 -0.0020715022 -0.012474395 4289866528
0.0074210837 -0.0028428836 -0.011953386 4290193694
0.0094536617 -0.0036140634 -0.011432629 4289866529
0.010995634 -0.001945619 -0.012806132 4290193438
0.012526594 -0.0002773134 -0.014178903 4291044374
0.014046527 0.0013908641 -0.015551 4290062368
0.016249217 -0.00019307435 -0.014398918 4290062623
0.018462613 -0.0017766422 -0.013247444 4289735969
0.020686723 -0.0033598752 -0.012096534 4290455578
0.022558346 -0.0033172602 -0.012206958 4289539108
0.025167055 -0.0065254532 -0.0097964229 4289080618
0.027984336 -0.010545751 -0.0067570675 4286529854
-0.016088057 0.0016942387 -0.016782515 4288556849
-0.013848729 -0.0007137144 -0.014997409 4289212199
-0.011858411 -0.0014890814 -0.014476557 4289997598
-0.010268737 0.00018372014 -0.015850443 4290390043
-0.0085520111 0.001040454 -0.016592264 4289670433
-0.0067000873 0.0010813083 -0.016702499 4289997599
-0.0047048107 0.00030645914 -0.016181637 4290324254
-0.0025580078 -0.0012839297 -0.01503018 4290520348
-0.00054938346 -0.0020583426 -0.014509934 4289866529
0.0013129115 -0.0020168731 -0.014620499 4289800993
0.0030206963 -0.0011596968 -0.015361388 4289866273
0.0051941499 -0.002749166 -0.014211194 4289997343
0.0070587322 -0.0027073626 -0.014321686 4289801249
0.0089231804 -0.0026654904 -0.014432115 4289670179
0.010457017 -0.00099283177 -0.015801944 4290062879
0.012147792 -0.00013566483 -0.01654147 4290193693
0.013832979 0.000721463 -0.017280605 4290913559
0.016032726 -0.00086685363 -0.016131625 4290586139
0.018243194 -0.0024548951 -0.01498318 4290913048
0.020643175 -0.0048575895 -0.013206436 4290258974
0.02287779 -0.006444952 -0.012059322 4289407784
0.025491588 -0.0096617509 -0.0096555678 4287706934
-0.017729722 -0.0014604423 -0.016506046 4287052348
-0.015874647 -0.0014200388 -0.016616859 4288034608
-0.013889845 -0.0021978272 -0.016097385 4289146664
-0.012032259 -0.0021571699 -0.016208198 4289539108
-0.010310054 -0.0012982441 -0.016948804 4290455579
-0.0087313764 0.00037878565 -0.018318787 4290717464
-0.0070229992 0.0012376131 -0.019058418 4290717464
-0.0050333366 0.0004604375 -0.018538862 4290979094
-0.0027460828 -0.0019523995 -0.016761024 4289866784
-0.00088921189 -0.0019111587 -0.016871348 4290062879
0.0009675175 -0.0018698489 -0.016981609 4290062879
0.0025155395 -0.00019294489 -0.018349282 4290062623
0.0046805963 -0.0017869142 -0.017201871 4290324509
0.0065369233 -0.001745325 -0.017311897 4290782233
0.0085555539 -0.0025212104 -0.016793579 4290258719
0.010083973 -0.00084441528 -0.018159844 4289800993
0.011937171 -0.00080265105 -0.018269498 4289539618
0.013619609 5.6575052e-05 -0.019006867 4289474339
0.015816405 -0.0015361803 -0.01786096 4289800993
0.017847896 -0.0023113759 -0.017343108 4289735459
0.020778432 -0.0071723983 -0.013688893 4289866274
0.023196995 -0.0095811179 -0.011918039 4288295473
0.026000082 -0.013623605 -0.0088940971 4286006083
-0.017397515 -0.0054039219 -0.015717462 4286921533
-0.015534401 -0.0053633568 -0.015828758 4287903283
-0.013671402 -0.0053226976 -0.015939981 4289539364
-0.012073483 -0.0036411057 -0.017308034 4289081384
-0.010486536 -0.0019597095 -0.018675324 4288950313
-0.0089105852 -0.00027841609 -0.020041931 4289670178
-0.0072049871 0.00058250595 -0.020779792 4289605154
-0.0050748736 -0.0010170573 -0.019633885 4289474083
-0.0029339865 -0.0026163566 -0.018488526 4289801249
-0.00093116611 -0.0033952286 -0.017971229 4290128158
0.00092546642 -0.0033539329 -0.018081494 4290062623
0.0024734885 -0.0016727229 -0.019445967 4289997089
0.0044813454 -0.0024512066 -0.018928763 4290455069
0.0061751828 -0.0015899101 -0.019665454 4290193693
0.0080258325 -0.0015483871 -0.019775096 4291306004
0.0098763406 -0.0015068082 -0.019884687 4290717464
0.011726715 -0.0014651241 -0.019994188 4289932319
0.013747469 -0.0022429051 -0.019477438 4289670433
0.015773505 -0.0030204849 -0.018960945 4289866018
0.01833275 -0.0062561929 -0.016567104 4289931298
0.020913593 -0.0094913356 -0.014174485 4289211433
0.023516007 -0.012725901 -0.011783072 4287183674
0.025955856 -0.015140652 -0.010018317 4286071363
0.028038196 -0.015916629 -0.0095048295 4286463553
-0.015321504 -0.00849682 -0.015677396 4287968818
-0.013582889 -0.0076334374 -0.016415939 4288819499
-0.011982255 -0.0059474716 -0.017780945 4288754474
-0.010392595 -0.0042616911 -0.019145183 4288950568
-0.0089517869 -0.0017535598 -0.021135233 4289474084
-0.0072462484 -0.00089049619 -0.0218715 4289539620
-0.0054029673 -0.00084978063 -0.021981183 4289735714
-0.0032677725 -0.0024535125 -0.02083876 4289670434
-0.001270555 -0.0032347459 -0.020322718 4289931808
0.00088342279 -0.0048378855 -0.019181281 4289931808
0.002585642 -0.0039744331 -0.019917004 4290324254
0.0042822734 -0.0031110342 -0.020652346 4287707443
0.0059733465 -0.0022476045 -0.021387316 4288820009
0.0078211576 -0.0022061751 -0.021496814 4290390299
0.0098339021 -0.0029865578 -0.020981319 4290193949
0.011684172 -0.0029449114 -0.021090839 4289343524
0.013704754 -0.0037248852 -0.02057571 4290128414
0.015903838 -0.0053263376 -0.019436441 4289538854
0.018465459 -0.0085706953 -0.017049212 4289015084
0.021227293 -0.012636023 -0.014039115 4286071618
-0.015362658 -0.009989067 -0.016783416 4289015593
-0.013494473 -0.0099483402 -0.016894981 4288231214
-0.011891115 -0.0082580373 -0.018256899 4287904049
-0.010298755 -0.0065678256 -0.01961812 4287970094
-0.0087173544 -0.0048777969 -0.020978574 4288296748
-0.0071469657 -0.0031878594 -0.022338331 4288885033
-0.0054443143 -0.0023226296 -0.023072768 4288950313
-0.0038931705 -0.00063299574 -0.024431217 4289800993
-0.0017583519 -0.0022409828 -0.023291927 4289996834
0.00038723648 -0.0038486677 -0.022153232 4289931554
0.0020812452 -0.0029832646 -0.022886887 4290520348
0.0036128759 -0.0012937132 -0.024243914 4288427053
0.0054525658 -0.0012525553 -0.024352994 4289212453
0.0074543953 -0.0020354078 -0.02383858 4289670689
0.0094615296 -0.0028180676 -0.023324426 4289408803
0.011306249 -0.0027765692 -0.023433637 4289997598
0.013491683 -0.0043828296 -0.022296831 4289931808
0.016207226 -0.0084602386 -0.019292202 4289473063
0.018949792 -0.012536971 -0.016289119 4286529598
-0.017147791 -0.012348886 -0.017153598 4287443519
-0.01527692 -0.012308212 -0.017265409 4288623913
-0.013276558 -0.013094407 -0.016753364 4288165678
-0.011535462 -0.01222657 -0.017488785 4287772979
-0.0099349432 -0.0105319 -0.018847238 4287904048
-0.0084831417 -0.0080105448 -0.020828295 4288165933
-0.0069072954 -0.006316226 -0.022185139 4288362284
-0.0054856278 -0.0037953472 -0.024164259 4289212454
-0.0039344914 -0.0021013711 -0.025519483 4289211943
-0.0022457466 -0.0012340648 -0.026251394 4289539109
-0.00025986135 -0.0020198566 -0.025737878 4289931553
0.0015772805 -0.0019789771 -0.025846973 4290913559
0.0031007454 -0.00028523616 -0.027200345 4290324764
0.0049321949 -0.00024430454 -0.027308967 4290324764
0.0069257095 -0.0010295361 -0.026795689 4290259484
0.0087596029 -0.0009883875 -0.026904337 4290521114
0.010928653 -0.0025994764 -0.025769878 4289604898
0.013278767 -0.005036226 -0.024014663 4289408293
0.016164266 -0.0099506574 -0.020396724 4286856763
-0.017436989 -0.012184509 -0.019506004 4287380279
-0.015444886 -0.012973166 -0.018995166 4288100653
-0.013447426 -0.013761597 -0.018484566 4287903794
-0.01157688 -0.013720751 -0.018596221 4287903794
-0.0098413974 -0.012850779 -0.019329626 4287838258
-0.0083868131 -0.010322885 -0.021306034 4288165679
-0.0066678524 -0.0094530918 -0.022038318 4288362029
-0.00524069 -0.0069255936 -0.024012938 4288165933
-0.0036841035 -0.00522719 -0.025365282 4288623913
-0.0021385103 -0.0035289461 -0.02671691 4288623659
-0.00030135363 -0.0034881746 -0.026826087 4289146919
0.0012276918 -0.001790076 -0.028176639 4290324509
0.0027457476 -9.219721e-05 -0.02952645 4290455579
0.0047310814 -0.00087989122 -0.029014379 4290651673
0.0065595731 -0.00083895866 -0.029122777 4290586139
0.0087176561 -0.0024546939 -0.027991015 4290324254
0.010886483 -0.0040701414 -0.026859779 4289473573
0.013576895 -0.0081699807 -0.023869913 4288819244
0.016294353 -0.012269147 -0.020881597 4286071874
-0.017725937 -0.012011192 -0.02185186 4286071874
-0.015866198 -0.011970814 -0.021963041 4287510584
-0.013747603 -0.01359298 -0.020832986 4287706934
-0.011750441 -0.014383532 -0.02032394 4288034608
-0.0098828413 -0.014342674 -0.020435363 4288099889
-0.0081529468 -0.01347059 -0.021166775 4287969328
-0.0065689534 -0.011767412 -0.022517726 4287838513
-0.0049959384 -0.010064419 -0.023867905 4287904049
-0.0031423643 -0.010023484 -0.023978207 4288231469
-0.0015858859 -0.0083206575 -0.025327329 4288427819
-4.0404499e-05 -0.0066180034 -0.026675671 4288689193
0.0013401806 -0.00408471 -0.028642446 4289212199
0.0030176267 -0.0032131569 -0.029370271 4289081639
0.0048488528 -0.0031722886 -0.029478922 4289277478
0.0065178797 -0.0023007626 -0.030206129 4289277224
0.0086757615 -0.0039208801 -0.029077604 4289931044
0.011179373 -0.0072016334 -0.026713025 4289014828
0.014045052 -0.012142695 -0.023113377 4286464063
-0.014176928 -0.012582045 -0.023793872 4286987578
-0.012055967 -0.014208421 -0.022667129 4287707189
-0.0099242479 -0.015834423 -0.021540992 4288099633
-0.0080568567 -0.015793497 -0.021652352 4288361519
-0.0064701363 -0.014085993 -0.023000218 4288034864
-0.0047514141 -0.013211779 -0.023729272 4288034864
-0.0028925091 -0.013170749 -0.023839906 4288165933
-0.0010337308 -0.013129648 -0.02395048 4288493099
0.00052265078 -0.011422457 -0.025296278 4288558378
0.0017603114 -0.0080494918 -0.027876366 4289539618
0.0031326935 -0.0055098087 -0.029837769 4289277989
0.0049665496 -0.0054689236 -0.02994661 4288819499
0.0066382661 -0.0045951884 -0.030672379 4289211433
0.0089633688 -0.0070523592 -0.028930366 4288818479
0.011472076 -0.010341731 -0.026572578 4286333249
0.014342718 -0.015295707 -0.022982981 4286006338
0.016554303 -0.01691875 -0.021860708 4286594368
-0.010369964 -0.014819406 -0.024497602 4287837748
-0.0085108429 -0.014778705 -0.024608497 4288034354
-0.006792061 -0.013902469 -0.025335979 4287969584
-0.004792951 -0.014696989 -0.024830032 4288231214
-0.0029341653 -0.014655985 -0.024940677 4288689449
-0.0010754839 -0.014614923 -0.02505127 4289474594
0.00048091263 -0.012903437 -0.026393875 4289212709
0.0018725097 -0.010356919 -0.028351661 4288623914
0.0034042224 -0.0086457981 -0.029692661 4288689449
0.0047657043 -0.0060998145 -0.031648554 4288492589
0.0067585707 -0.0068938527 -0.031141773 4288622638
0.008921437 -0.0085226493 -0.030020006 4286136898
-0.0069735385 -0.014547801 -0.02705013 4287576374
-0.0048344433 -0.016182091 -0.025930714 4289211944
-0.0029757693 -0.016141159 -0.026041403 4288820009
-0.0014138147 -0.014425304 -0.027381185 4288428073
0.00028818846 -0.013546964 -0.028105829 4288297259
0.0018308833 -0.011831305 -0.029444367 4288428074
0.0032061562 -0.0092786672 -0.031396288 4288362538
0.0047241896 -0.0075634089 -0.03273325 4288099889
0.0068788007 -0.009196857 -0.031614318 4287903539
-0.0050187148 -0.016827397 -0.027644631 4288557614
-0.0030173361 -0.017626166 -0.027142011 4288230448
-0.001307115 -0.016745593 -0.027865618 4288100908
0.00024659187 -0.015025549 -0.029201657 4288231468
0.0017893165 -0.013305592 -0.030537009 4288297259
0.0033210739 -0.011585872 -0.031871617 4288428073
0.0048418343 -0.0098662525 -0.033205546 4288426798
0.0068371221 -0.010664749 -0.032702193 4287380279
-0.0032043159 -0.018269293 -0.028854102 4286529854
-0.0012004972 -0.019070141 -0.028353214 4288296238
0.00035594404 -0.017345712 -0.029686201 4288820008
0.0020550415 -0.016463101 -0.030407451 4288820518
0.0032795817 -0.01305577 -0.032961003 4288820263
0.0049594268 -0.012173414 -0.033680983 4288819243
0.0066337287 -0.011291064 -0.034400612 4286660668
0.0004652366 -0.019670183 -0.030173942 4286988089
0.0021670163 -0.018785365 -0.03089375 4288558124
0.0035506785 -0.016213072 -0.032831777 4287903794
0.0050769448 -0.014484789 -0.034159608 4288034354
0.0065922141 -0.012756633 -0.035486773 4286595134
0.0013579205 -0.016036021 -0.035030238 4286137409
0.0030405223 -0.015149424 -0.035747275 4287772468
0.0047175959 -0.014262842 -0.036463968 4287706934
0.0063891187 -0.013376324 -0.037180223 4287118138
-0.0022562891 0.0040172441 0.048804857 4279521688
-0.00040142238 0.0048160898 0.048009444 4280700043
-0.0051008798 0.0069194203 0.043688163 4279192993
0.0036821589 0.0025514206 0.047264494 4282274413
-0.0084580407 0.0014507892 0.046119791 4282077299
-0.0072546601 0.0060512954 0.041958161 4278865319
-0.0059499517 0.0098917382 0.038472168 4278668203
0.0026217178 0.0062685078 0.041369773 4278339253
0.0053354725 0.0025165463 0.044616438 4279389853
0.0076247007 0.0010425234 0.045843646 4281225598
-0.0092740878 0.0044262921 0.040903658 4279783063
-0.0078240447 0.0075161802 0.038097043 4278734249
-0.0048529729 0.01293325 0.033159867 4279258273
-0.0029077828 0.012976042 0.033043988 4279520159
-0.00053591281 0.010734634 0.034942746 4278994858
0.0019971579 0.0077322768 0.037512019 4278471088
0.0042563751 0.0062531279 0.038737699 4278930853
0.006074883 0.0070581334 0.037949696 4278931364
0.0085005015 0.0048183482 0.039845578 4280569739
0.011254109 0.0010567 0.043082021 4282667623
-0.011671048 0.0050935978 0.037836824 4278538664
-0.01008942 0.0074282466 0.035707138 4278735014
-0.0083929561 0.0089987991 0.034249071 4278407339
0.0016630143 0.0076865824 0.035006884 4278470833
0.0036211535 0.0077300211 0.034890503 4278537899
0.0052782968 0.009300462 0.033435341 4278735015
0.0073837489 0.0085805496 0.033988744 4278865574
0.0096502975 0.007097573 0.035210948 4278996644
0.012244694 0.0040883776 0.03777048 4281290114
0.01502195 0.00031659473 0.040997587 4282403954
0.017826229 -0.0034545017 0.044223156 4282797928
-0.01368187 0.0034760768 0.036787234 4280635274
-0.0086988397 0.0089670224 0.031752139 4278735014
-0.0068848878 0.0097756917 0.030967209 4278669224
-0.0050765425 0.010584331 0.030182686 4278405553
-0.00076582283 0.0083725629 0.031956274 4278274739
0.0013290793 0.0076499609 0.032508403 4278734504
0.0031340271 0.0084589636 0.031724408 4278603944
0.0049333498 0.0092679365 0.030940816 4278275503
0.0070331618 0.0085457778 0.031492904 4278733994
0.011248566 0.0071020601 0.032596402 4278271679
0.016632609 0.00030197389 0.038367901 4279387558
-0.016053509 0.0041643437 0.033733979 4280307599
-0.013266958 0.011164532 0.027490884 4278468028
-0.0091357119 0.0097125387 0.028594546 4278401729
-0.007062126 0.0089868279 0.02914606 4278800294
-0.004846599 0.0074932938 0.03036429 4278866084
-0.0028990954 0.0075361906 0.030248318 4278800038
-0.00080966204 0.0068112193 0.030799098 4278734504
0.00099539012 0.0076222783 0.030016623 4278734504
0.0026472732 0.0092012128 0.028568249 4278669223
0.0045886189 0.0092444075 0.028452963 4278406318
0.0066828132 0.0085199485 0.029003769 4278798764
0.0084708035 0.0093310727 0.028222635 4278732719
0.010570057 0.0086069321 0.028773293 4278273973
0.01527597 0.0048567709 0.031870045 4278929834
0.017898947 0.0018311162 0.034415171 4279192738
0.020374149 -0.0004265327 0.036294013 4279191464
0.023209587 -0.0042183888 0.039501786 4282470764
-0.018173207 0.0033250023 0.032022789 4279848853
-0.016817942 0.007220543 0.028573912 4278537133
-0.013435315 0.010387021 0.025677495 4278535859
-0.0076408908 0.010513687 0.025331717 4278668969
-0.0052999109 0.0082452716 0.027212746 4278735014
-0.0032213926 0.0075177355 0.027762529 4278603434
-0.0011375844 0.0067904582 0.028312027 4278668968
0.00066193193 0.0076036202 0.027531534 4278668968
0.0024558529 0.0084167896 0.026751399 4278603688
0.0043943599 0.0084599266 0.026636288 4278275503
0.0082708448 0.0085464893 0.026406314 4278798254
0.010367192 0.0078200875 0.02695559 4279061924
0.012307681 0.0078636492 0.026840638 4279192483
0.01457563 0.0063679991 0.028053317 4278340018
0.016687714 0.0056422614 0.028601814 4279061669
0.019312836 0.0026080506 0.031140417 4279127968
0.021959528 -0.00042557344 0.03367782 4280503185
-0.020172428 0.0017175842 0.030979823 4281618808
-0.018920735 0.006397129 0.026873197 4278538154
-0.015655369 0.010344992 0.023318198 4279191974
-0.013980485 0.011932285 0.021874286 4279127969
-0.012188271 0.012746793 0.02109535 4278930343
-0.010008372 0.011243581 0.022309091 4278667694
-0.0079515427 0.010513215 0.02285834 4278340784
-0.0056163259 0.0082381042 0.024734907 4278668969
-0.0036827177 0.0082807122 0.024619773 4278537899
-0.0014652908 0.0067787459 0.025831591 4278668968
0.00032872707 0.0075939624 0.025053039 4278668969
0.0022645593 0.0076369373 0.024938013 4278669223
0.0040500611 0.0084521724 0.024160124 4278538409
0.016309775 0.0056251241 0.026121229 4279127968
0.018929094 0.0025820872 0.028653715 4278732974
-0.022507366 0.0024361387 0.027946293 4280963204
-0.021132488 0.0063536623 0.024512276 4278800549
-0.019432735 0.0079455478 0.023069814 4278603689
-0.012359023 0.011987259 0.019295432 4278402239
-0.0083957016 0.011296359 0.019729346 4278799784
-0.0062054619 0.0097892275 0.020939387 4278799528
-0.0042828843 0.0098316139 0.020824928 4278538154
-0.002218537 0.0090995794 0.021372367 4278472619
-0.00029356778 0.0091422284 0.021257918 4279192739
0.001778625 0.0084105683 0.021805041 4278996133
0.0037059933 0.0084534688 0.0216906 4278538409
0.0056331903 0.0084964735 0.021576248 4278276014
0.013667509 0.0071213478 0.022440787 4279192993
0.016098484 0.0048429901 0.024307664 4279913880
-0.024825413 0.0031685131 0.024921756 4280635528
-0.02344482 0.0070969304 0.021495398 4278996388
-0.019709542 0.0079571446 0.020602912 4278603944
-0.017906215 0.0087759336 0.019826312 4278800548
-0.016231243 0.010371876 0.018388752 4278668203
-0.014441784 0.01119059 0.01761315 4278796979
-0.01278615 0.012786311 0.016176965 4279255214
-0.010617662 0.011274124 0.017384902 4278733738
-0.0085721165 0.010539175 0.017931603 4278603179
-0.0063848533 0.0090275807 0.01913863 4278537389
-0.0046042651 0.0098466547 0.018363968 4278668458
0.0012930706 0.0091974838 0.018681988 4278269128
0.0054365471 0.0077301273 0.019773304 4278669734
0.007516183 0.0069967853 0.020318612 4278669734
0.0094428882 0.0070399949 0.020204447 4278865574
0.01120849 0.0078595681 0.019431297 4278930854
0.013459384 0.0063504288 0.020635318 4279324063
0.01588732 0.0040655127 0.022497479 4282070159
-0.026913766 0.0023553409 0.023227636 4280438668
-0.025740258 0.0078539336 0.018487524 4278340273
-0.024045799 0.0094542047 0.017051701 4278271678
-0.018068295 0.0080192434 0.018027924 4278799784
-0.016396087 0.0096194847 0.016593765 4278734758
-0.014483966 0.0096610738 0.016479507 4278603689
-0.012700159 0.010481968 0.015705954 4278472874
-0.010660127 0.0097446134 0.016251285 4278407594
-0.008882042 0.010565598 0.015478233 4278668968
-0.0067004934 0.0090495804 0.016682334 4278472109
-0.0049254224 0.0098707201 0.015909627 4278471343
-0.0012475848 0.010734134 0.015023877 4278470069
0.0050873458 0.0077470234 0.017315835 4279192483
0.0070059374 0.0077899741 0.017202098 4278603688
0.008924365 0.0078329807 0.017088413 4278734758
0.01100345 0.0070976568 0.017632287 4278800038
-0.029099956 0.0023289332 0.020877447 4281684854
-0.027699798 0.0062793 0.017465919 4278537644
-0.02621793 0.0094474601 0.014715062 4278733738
-0.024310816 0.0094883619 0.014600671 4278995368
-0.022403814 0.0095293904 0.014486385 4278339508
-0.018350232 0.0080487402 0.015574641 4278733484
-0.0165608 0.0088717109 0.014802204 4278669224
-0.014776945 0.0096946647 0.01403018 4278668968
-0.01287055 0.0097362576 0.013916356 4278603688
-0.010964282 0.0097779548 0.013802622 4278734758
-0.0091917329 0.010601007 0.013031526 4278669734
-0.0071521699 0.00986169 0.013575437 4278668714
-0.0033406541 0.0099458555 0.013348616 4278864808
-0.0015795752 0.010769092 0.012578529 4279455644
0.00047025084 0.010030427 0.013122143 4279257509
0.0025253594 0.0092919981 0.013665532 4279126184
0.0047383755 0.0077729551 0.014864994 4278798253
0.006651409 0.0078157606 0.014751568 4278669224
0.0090384707 0.0055165505 0.016606282 4278800039
-0.029866248 0.0062732073 0.015129259 4279193759
-0.02816619 0.007882013 0.013699427 4278471343
-0.024575613 0.0095315417 0.012156256 4279847578
-0.022788655 0.010356295 0.011385332 4279913113
-0.0207729 0.0096134832 0.011928452 4279060904
-0.01684802 0.0089121917 0.012357559 4278734504
-0.015069708 0.0097372578 0.011587451 4278800039
-0.013040815 0.0089951577 0.012130175 4278668968
-0.01126821 0.0098203262 0.011360575 4278735015
-0.0093676671 0.0098620141 0.011247269 4278931108
-0.0076034963 0.010687181 0.010478382 4278604199
0.00027999282 0.0092889117 0.011337171 4278269893
0.004542239 0.0070247808 0.013075517 4279192484
0.0066077039 0.0062846085 0.013616825 4279520159
0.0088364556 0.0047617359 0.014812317 4282461839
-0.033340245 0.0015177876 0.016851597 4282667623
-0.032021333 0.0062764017 0.012798712 4278735013
-0.030528214 0.0094619645 0.010059936 4278734760
-0.024951831 0.01036973 0.0090630129 4278665399
-0.023058739 0.010410455 0.0089495555 4278339253
-0.019153044 0.0097063845 0.0093779806 4278471088
-0.017257564 0.0097475303 0.0092646535 4278603434
-0.015487496 0.010574547 0.0084966961 4278735014
-0.013594989 0.01061586 0.0083837211 4278603944
-0.011833347 0.011442949 0.0076163802 4278341804
-0.0098103769 0.010698778 0.0081580151 4278341804
-0.0079182722 0.010740393 0.0080452953 4278669479
-0.005887419 0.0099966573 0.008586579 4278800548
-0.0038512647 0.0092531359 0.0091276206 4278536879
-0.0018098205 0.008509825 0.0096684173 4278534074
0.0022889301 0.0070238626 0.010749374 4278732718
0.0044987202 0.0054960474 0.011942559 4279323808
0.0068744645 0.0031834291 0.013788166 4280497828
-0.035399895 0.00072854478 0.015173079 4282536809
-0.034165077 0.0062889839 0.010474209 4278931619
-0.032666344 0.0094832471 0.0077414755 4278866085
-0.030982614 0.011100289 0.0063190036 4278734760
-0.028991386 0.010352141 0.0068600178 4278603944
-0.026994806 0.0096042315 0.0074008042 4278340273
-0.023214255 0.0096854633 0.0071741547 4278862003
-0.019434139 0.0097671645 0.0069478871 4278799528
-0.01754424 0.0098081743 0.0068348832 4278931109
-0.015654474 0.0098493127 0.0067219855 4278538154
-0.013892777 0.010678436 0.005956227 4278472363
-0.0080966949 0.010014917 0.006271272 4278732974
-0.0059299134 0.0084812371 0.0074634361 4278931364
-0.0038939565 0.0077355569 0.0080028903 4278735014
-0.0018526986 0.0069900667 0.0085420813 4278603688
0.00019384921 0.0062447554 0.0090810787 4278734759
0.0022456795 0.0054997299 0.0096198134 4279258273
0.0046076551 0.003180217 0.011461268 4278666163
-0.036107045 0.0047292858 0.0094623696 4279520923
-0.031229779 0.011175045 0.0038967947 4278270403
-0.029244203 0.010424593 0.0044365264 4279258273
-0.027253274 0.0096743824 0.0049760286 4278669734
-0.025256999 0.0089244107 0.0055153044 4278604199
-0.023369648 0.0089650201 0.0054021981 4278473129
-0.02159939 0.0097960504 0.0046372078 4278538664
-0.019714978 0.0098368423 0.0045244587 4278603944
-0.017830674 0.0098777497 0.004411805 4278865829
-0.016071655 0.010708877 0.0036477391 4278275249
-0.014318205 0.011539998 0.0028840932 4278536878
-0.0061111748 0.0077558933 0.0056898035 4278992819
-0.0040781386 0.0070079537 0.0062277988 4278668969
-0.0020397827 0.0062602283 0.0067655486 4278735015
3.837049e-06 0.0055127405 0.0073030763 4279061924
0.002202414 0.0039758356 0.0084904321 4280175508
-0.038141195 0.0039629871 0.0077989693 4278799784
-0.036718231 0.0079677617 0.0044261464 4279127204
-0.035028961 0.0095933834 0.0030096329 4278534328
-0.033250071 0.010426129 0.0022451896 4278663358
-0.029284701 0.0089205885 0.0033217177 4278863789
-0.027293976 0.0081682066 0.0038596243 4278538409
-0.0254094 0.0082086446 0.0037465983 4278735015
-0.023639124 0.0090417424 0.0029831452 4278735014
-0.021874398 0.0098748254 0.002220101 4278735015
-0.019995574 0.0099154944 0.0021076829 4278800038
-0.018361624 0.011541029 0.0006952309 4278538154
-0.014487617 0.010830431 0.0011212126 4278340784
-0.012481432 0.010079236 0.0016589001 4279062688
-0.010603212 0.010120464 0.0015469458 4278931363
-0.0062923208 0.00703518 0.0039195293 4279323299
-0.0041207522 0.0054930197 0.0051050289 4278668969
-0.002226755 0.0055349972 0.0049924329 4278537899
-3.9160252e-05 0.0039934581 0.0061771027 4279389344
0.002009578 0.0032439437 0.0067128101 4282853264
-0.040348824 0.0047920244 0.0048378948 4279717529
-0.036948353 0.0080520706 0.0020097452 4278733229
-0.035264574 0.0096819839 0.00059676333 4279324319
-0.033390682 0.0097217122 0.00048402348 4278865318
-0.031413611 0.0089666164 0.0010209482 4278405809
-0.029431179 0.0082117105 0.0015576828 4278799019
-0.027552087 0.0082519064 0.0014448931 4278669224
-0.025561661 0.0074974494 0.0019812793 4278734504
-0.023794204 0.0083326688 0.0012196159 4278603688
-0.02191541 0.0083732149 0.0011071112 4278538154
-0.020275928 0.010003108 -0.00030252174 4278735014
-0.018525116 0.010838305 -0.0010629389 4278669479
-0.012653641 0.0093720304 -0.00010201405 4278730424
-0.010645054 0.0086188251 0.00043399748 4278339763
-0.0086311735 0.0078658937 0.00096973649 4278927794
-0.0044461042 0.0055665942 0.0026878039 4278930853
-0.0024135858 0.004814351 0.0032227123 4279324318
-0.042192057 0.0024449117 0.0044816397 4280177294
-0.040926076 0.0080665173 -0.00017413241 4278866083
-0.033531174 0.0090219164 -0.0012737173 4278733229
-0.027809959 0.008344627 -0.0009632234 4278472619
-0.025936555 0.0083848266 -0.0010755777 4278931109
-0.024291441 0.010018899 -0.0024824566 4278603943
-0.022423685 0.010059224 -0.0025942894 4278472874
-0.02067557 0.010896423 -0.0033530137 4278669223
-0.018810745 0.01093688 -0.0034645251 4278538409
-0.01682106 0.010180802 -0.0029292847 4278734758
-0.0069313794 0.0072001377 -0.00090242061 4279061413
-0.0046299025 0.0048527801 0.00092293054 4279127968
-0.0026002899 0.0040983232 0.0014563424 4278664379
-0.042405311 0.0025322642 0.0020661447 4279652758
-0.040965479 0.0065697944 -0.0012836107 4278669479
-0.039276183 0.008208205 -0.0026906217 4278735015
-0.037407897 0.0082475925 -0.0028031887 4278603688
-0.030041344 0.009205495 -0.0038987612 4278734249
-0.028284766 0.010044635 -0.0046567586 4278603688
-0.026311077 0.0092854025 -0.0041225771 4278734504
-0.024560131 0.010124669 -0.0048800539 4278603688
-0.018973932 0.010245548 -0.0052143233 4279451819
-0.017112084 0.010286064 -0.0053255642 4278931363
-0.015122704 0.0095278667 -0.0047918055 4278735014
-0.013258372 0.0095686587 -0.0049030287 4278669479
-0.011127986 0.0080122473 -0.00372507 4278537898
-0.0092584677 0.0080533596 -0.0038364492 4278865574
-0.0069734752 0.0056989593 -0.0020150067 4279782044
-0.042271338 -0.00057876948 0.0022402452 4278997154
-0.040825926 0.0034697233 -0.0011017867 4278735268
-0.039131224 0.0051126545 -0.0025059208 4279259294
-0.037447475 0.0067554256 -0.0039092689 4279063453
-0.035579406 0.0067949193 -0.0040217428 4278277034
-0.03381177 0.0076360637 -0.0047790161 4278406318
-0.032049663 0.0084772399 -0.0055359192 4278668459
-0.030293081 0.0093183769 -0.006292359 4278538154
-0.028542023 0.010159523 -0.0070483731 4278538154
-0.026573997 0.009398059 -0.0065154936 4278602923
-0.024714593 0.0094380593 -0.0066269329 4278340274
-0.022855286 0.00947819 -0.0067382669 4278467263
-0.015291542 0.0088388035 -0.006539491 4278472619
-0.013430066 0.0088795247 -0.0066505494 4278735015
-0.011435676 0.0081194798 -0.0061185444 4278669223
-0.0094359741 0.0073596956 -0.0055868216 4278669223
-0.0068770759 0.0033972906 -0.0024848194 4281153179
-0.042397659 -0.0012862002 0.00047568069 4279390618
-0.040776007 0.0011651805 -0.0015702066 4278932128
-0.038986482 0.0020086085 -0.002327445 4278801058
-0.037297323 0.0036558667 -0.0037279432 4278669734
-0.035521545 0.0044992212 -0.0044841915 4279194014
-0.034052193 0.0077537773 -0.00716988 4278997154
-0.032295614 0.0085969502 -0.0079248073 4279062435
-0.030438818 0.0086365631 -0.0080363369 4278866085
-0.028582092 0.0086762821 -0.0081477808 4278734248
-0.026614271 0.0079126237 -0.0076165171 4278668459
-0.024755012 0.0079526203 -0.0077279462 4278668203
-0.02289585 0.0079927361 -0.007839282 4278536623
-0.021275502 0.0096395547 -0.0092348093 4278864044
-0.019299895 0.0088765351 -0.008703663 4278270913
-0.015587755 0.0089573925 -0.008925396 4278799528
-0.01373186 0.0089980038 -0.0090361144 4278800038
-0.011344202 0.0058266362 -0.0065814247 4278996644
-0.0092062876 0.0042617992 -0.0054102996 4279255213
-0.042350587 -0.0036014686 -4.2258762e-07 4279325083
-0.040815555 -0.0003373567 -0.0026839972 4279457173
-0.038934041 -0.00029784441 -0.0027974769 4279128734
-0.037147395 0.00054779835 -0.0035528503 4278866593
-0.035463788 0.00219943 -0.0049496759 4278473384
-0.033991627 0.0054626931 -0.0076291077 4278669479
-0.032335389 0.0071139401 -0.0090240659 4279259549
-0.030584417 0.007959296 -0.0097769443 4278865829
-0.028730564 0.0079989461 -0.0098882224 4279062435
-0.026765663 0.0072330656 -0.0093583893 4278537643
-0.02328613 0.008924148 -0.010862243 4279782553
-0.021554675 0.0097696474 -0.011613533 4279716509
-0.019584712 0.0090043237 -0.011083669 4279454368
-0.015883729 0.0090849446 -0.011304731 4278668203
-0.013903208 0.0083201332 -0.010775215 4278996644
-0.01151865 0.0051400075 -0.0083268005 4279126949
-0.043947142 -0.0083856555 0.0015579961 4282077043
-0.042390198 -0.0051125013 -0.0011205212 4279456408
-0.040855091 -0.0018396922 -0.0037976373 4279587989
-0.039065748 -0.00099197403 -0.0045516719 4279194779
-0.037092432 -0.0017605554 -0.0040244856 4278998173
-0.035308659 -0.00091268588 -0.0047779847 4278604453
-0.033830978 0.0023594089 -0.0074512716 4278670243
-0.030518636 0.005670717 -0.010234702 4278865828
-0.028770551 0.0065182885 -0.010985716 4279324829
-0.027028017 0.0073659113 -0.011736342 4279127714
-0.018148981 0.0099886367 -0.014205868 4278601649
-0.016052026 0.0084138596 -0.013039022 4279126948
-0.013814181 0.0060319882 -0.011234418 4279389343
-0.011161588 0.0012285253 -0.0075163934 4282267528
-0.043986812 -0.0099051222 0.00043163262 4281029248
-0.042256761 -0.0082443245 -0.00096190674 4279456154
-0.040805373 -0.0041522658 -0.0042720111 4279718548
-0.039013404 -0.0033023055 -0.0050245784 4279718804
-0.037132263 -0.0032626688 -0.0051379381 4279325593
-0.035251178 -0.0032229251 -0.0052512139 4279260059
-0.03357042 -0.001562559 -0.0066413311 4278866593
-0.032003481 0.00090782531 -0.0086689387 4278866083
-0.030241799 0.0017577382 -0.0094192429 4278603689
-0.028593943 0.0034177527 -0.010807124 4278407083
-0.027068075 0.0058876444 -0.012832052 4279193758
-0.025444876 0.007547318 -0.01421824 4278997664
-0.018064927 0.0077071385 -0.014659752 4278865318
-0.015965514 0.0061280681 -0.013496283 4279586203
-0.044193961 -0.0097988546 -0.0019702669 4282601323
-0.04246939 -0.0081338724 -0.0033602063 4279325083
-0.04066658 -0.0072816005 -0.0041119535 4279652758
-0.038869254 -0.0064293435 -0.0048632207 4279587478
-0.037077446 -0.0055771125 -0.0056140907 4279849873
-0.035193786 -0.005537306 -0.0057275137 4279325594
-0.033510339 -0.0038725911 -0.0071145277 4279325339
-0.031837855 -0.0022079535 -0.0085008424 4278997664
-0.030176334 -0.00054346584 -0.0098863607 4278997153
-0.028417539 0.00030868594 -0.010634783 4278472618
-0.025371268 0.0052614836 -0.014674555 4278800039
-0.023989156 0.0085495831 -0.017328687 4278736034
-0.022271547 0.009401287 -0.018074319 4278932129
-0.020315774 0.0086291218 -0.017548461 4278996898
-0.018105537 0.0062333578 -0.015752085 4279127714
-0.015751801 0.003026261 -0.013321378 4278335174
-0.046130888 -0.011353055 -0.0029784041 4282928743
-0.044317182 -0.010498662 -0.0037293267 4282404209
