# .PCD v0.7 - Point Cloud Data file format
VERSION 0.7
FIELDS x y z rgba
SIZE 4 4 4 4
TYPE F F F U
COUNT 1 1 1 1
WIDTH 671
HEIGHT 1
VIEWPOINT 0 0 0 1 0 0 0
POINTS 671
DATA ascii
-0.015945002 0.003220248 0.033625692 4288294453
-0.014170952 0.004796315 0.032188293 4289210669
-0.012098957 0.0040618414 0.032758716 4290584099
-0.0097044632 0.0010172403 0.035335787 4289798698
-0.018145014 0.0031497013 0.031221151 4288293688
-0.016468417 0.0055025229 0.029119153 4288491058
-0.014607847 0.0063103214 0.028353257 4290518818
-0.012546957 0.0055734692 0.028922623 4289865253
-0.01037506 0.0040645581 0.030159129 4289734184
-0.0080839768 0.0017836886 0.032062408 4289930024
-0.020333722 0.0030885534 0.028822776 4289276204
-0.018654302 0.005447818 0.02672537 4289145644
-0.016796466 0.006257656 0.025961159 4289473573
-0.014944177 0.0070674829 0.02519729 4289343014
-0.012994558 0.0071028415 0.025099644 4288950569
-0.010939445 0.0063638436 0.025667792 4289997089
-0.0086622909 0.0040761763 0.027566917 4289211943
-0.006368909 0.0017889254 0.029465323 4289146153
-0.0042868927 0.0010507787 0.030032387 4289407273
-0.0018499829 -0.0020100083 0.032594778 4287117629
-0.020553056 0.0030716741 0.026332175 4289014829
-0.018784441 0.0046605589 0.024904538 4289604644
-0.017026816 0.0062493067 0.023477577 4290193694
-0.015280209 0.0078380508 0.022051234 4289670178
-0.013441768 0.0086499555 0.021289783 4289473828
-0.011292174 0.0071318792 0.022520995 4290062623
-0.0090235136 0.004837553 0.024415653 4290651163
-0.0068496279 0.0033201715 0.025645837 4289212199
-0.0048924498 0.0033561355 0.02554816 4289015084
-0.0028189495 0.0026157848 0.026114136 4289081128
-0.00074013695 0.0018756385 0.026679926 4289145643
-0.022902958 0.0045871902 0.022619762 4289211943
-0.020864096 0.003842948 0.023185056 4289211943
-0.01891448 0.0038779359 0.023087136 4289604899
-0.017062299 0.0046920255 0.022326432 4289997599
-0.015315738 0.0062851021 0.020903302 4290782488
-0.013477396 0.0070992084 0.020143488 4290913559
-0.011433579 0.0063556386 0.020708965 4290913304
-0.0092761777 0.0048334766 0.021936653 4290062623
-0.0072189718 0.004090419 0.022501659 4289539618
-0.0053838156 0.0049049277 0.021742344 4289539109
-0.003321413 0.0041621719 0.022307243 4289669924
-0.0013728328 0.0041982308 0.022210184 4290585628
0.00069746375 0.0034558726 0.022774875 4289996323
0.002897691 0.0019351845 0.024000937 4291042844
0.0052359663 -0.00036354875 0.025887912 4288883758
-0.024798494 0.0022141393 0.02222858 4288229684
-0.023116197 0.0045928424 0.020145388 4290193184
-0.021082982 0.0038462663 0.020709386 4289735203
-0.019044418 0.0030999593 0.02127317 4289343269
-0.017097775 0.0031350031 0.021175481 4289801249
-0.015251253 0.0039513214 0.020416785 4289539618
-0.013410281 0.0047676647 0.019658389 4289801504
-0.011363938 0.0040219454 0.020222187 4289670433
-0.0094204471 0.0040574381 0.020125031 4289604898
-0.0073661655 0.0033121519 0.020688571 4289474083
-0.0054201894 0.0033479277 0.020591468 4290062623
-0.0037070885 0.004945471 0.019173771 4289931808
-0.0017668344 0.004981379 0.019077128 4290651674
0.00029511005 0.0042366413 0.019640662 4290127903
0.0024868995 0.002711501 0.020863887 4289996834
0.004562173 0.0019672858 0.021426886 4290061604
0.0069027469 -0.0003378652 0.023309037 4288818479
0.0091267601 -0.0018620801 0.024530901 4286136898
-0.026699347 -0.00016299915 0.021834709 4288359988
-0.025092412 0.0030058473 0.019095507 4289210414
-0.023240179 0.00382395 0.018337771 4290781979
-0.021301687 0.0038586287 0.018240331 4290978328
-0.01926877 0.0031100241 0.018802769 4290782233
-0.017230496 0.0023616049 0.01936508 4289604899
-0.015186865 0.0016134558 0.019927178 4289473828
-0.013343271 0.002431999 0.019170318 4289801503
-0.01139982 0.0024673846 0.019073084 4289539873
-0.0095646232 0.0032860627 0.018316783 4289801759
-0.0075132623 0.0025384873 0.018878886 4289670688
-0.0056837536 0.0033573089 0.018123051 4289604898
-0.0038598292 0.0041760961 0.01736762 4290651674
-0.0022795685 0.0065608174 0.015295369 4289277479
-0.0002287142 0.0058136871 0.015857836 4288950569
0.0018274374 0.0050668381 0.0164201 4289473828
0.0040161163 0.0035373932 0.017640334 4289800738
0.00621555 0.0020082276 0.018860165 4289800738
0.00842572 0.00047939736 0.020079488 4289342248
0.010782018 -0.0018317765 0.021956179 4289341738
0.012878269 -0.0025773395 0.02251685 4287183163
-0.028848011 -0.00018674135 0.01946157 4286594368
-0.027235508 0.0029908093 0.016728461 4288949038
-0.025386028 0.0038108891 0.015972365 4289866018
-0.023453064 0.0038453443 0.015875109 4290258973
-0.021520182 0.0038799169 0.015777946 4290062368
-0.01958739 0.0039146226 0.015680887 4290847513
-0.017557498 0.0031639291 0.016241971 4289277479
-0.015422326 0.0016279682 0.017460778 4289343269
-0.013481647 0.0016631759 0.017363589 4289932318
-0.011541069 0.001698513 0.017266504 4289539873
-0.0097086951 0.002519263 0.01651199 4289539873
-0.0076602511 0.001769518 0.017072599 4289801759
-0.0058335662 0.0025904234 0.016318562 4289408803
-0.0042450018 0.0049817283 0.014250658 4290717208
-0.0025539137 0.0065876804 0.012840661 4290651163
-0.0006304197 0.0066233771 0.012744927 4290193439
0.0014173724 0.0058741961 0.013305995 4290455068
0.0035976432 0.0043401923 0.01452346 4290913559
0.0057886653 0.0028065592 0.015740443 4289408294
0.007857807 0.0020580967 0.016300686 4289669668
0.0099322572 0.0013097837 0.016860779 4289604133
0.011873908 0.0013465048 0.016764648 4289079853
0.014237769 -0.00097081624 0.018636232 4288491058
-0.031063369 0.00058689713 0.016437154 4286659393
-0.029367262 0.0029851124 0.01436754 4288752944
-0.027520545 0.0038072057 0.013613109 4289538344
-0.025679352 0.0046293261 0.012859051 4288819754
-0.023843687 0.0054514855 0.012105371 4288819754
-0.021921866 0.0054858606 0.012008764 4289146919
-0.020000126 0.0055203531 0.01191225 4289604644
-0.017787054 0.0031918827 0.013785153 4290193694
-0.015657589 0.00165143 0.015001069 4289604898
-0.013722509 0.0016865428 0.014904168 4289605409
-0.011892844 0.0025093071 0.014151316 4289801759
-0.010068752 0.0033321567 0.013398809 4289539873
-0.0081394501 0.0033675199 0.013302459 4289605409
-0.0062102601 0.0034030015 0.013206203 4289801248
-0.0043974221 0.0042259507 0.012454559 4290389788
-0.0027090982 0.0058361907 0.011047914 4291044374
-0.00078847259 0.005871864 0.010952344 4290716698
0.0012564026 0.0051204413 0.011511938 4291044374
0.0034337081 0.0035820752 0.012726285 4290717209
0.0054919347 0.0028310828 0.013285424 4289670178
0.0075554401 0.0020803451 0.013844342 4289735203
0.0093536824 0.0029037911 0.013093991 4289735203
0.011146322 0.0037272712 0.01234395 4290193184
0.013355538 0.0021899934 0.013557153 4290519838
0.015575476 0.00065308763 0.014769875 4289995558
0.01780615 -0.00088357693 0.015982166 4290387748
0.020047531 -0.0024198822 0.017193971 4288948528
-0.031409644 0.0021984293 0.012668595 4287902008
-0.029643709 0.0038127434 0.011260037 4288949548
-0.027805282 0.0046368772 0.010507644 4289800739
-0.025886187 0.0046709664 0.010410999 4290455068
-0.024145 0.0062852716 0.0090039326 4290258718
-0.022231508 0.0063195182 0.0089077586 4290455068
-0.020223733 0.0055639399 0.0094666304 4291044374
-0.018016409 0.0032287734 0.011335014 4289931808
-0.015792824 0.00089402404 0.013202674 4289408803
-0.01396317 0.0017189197 0.012451328 4289474083
-0.01213906 0.0025437581 0.011700367 4289670688
-0.010428492 0.0041583255 0.010295514 4289932574
-0.0085075125 0.0041935258 0.010199571 4289801248
-0.0063597634 0.0026497156 0.011411767 4289277989
-0.0046659037 0.0042643007 0.010007988 4289539364
-0.0028641708 0.0050893258 0.009258586 4289800993
-0.0010680333 0.0059144115 0.0085095102 4289866529
0.0010955557 0.0043712761 0.0097212726 4290128158
0.0030157678 0.0044071674 0.0096258922 4289735714
0.0051954091 0.002864603 0.01083698 4289604643
0.0071207732 0.0029007979 0.010741497 4289931553
0.0091812313 0.0021479251 0.011299027 4289735459
0.010833114 0.0037626186 0.0098979948 4290585884
0.012895972 0.0030100029 0.010455562 4290847258
0.01482071 0.0030466076 0.010360421 4290454558
0.017037548 0.001505326 0.011570173 4290519583
0.019116245 0.00075331237 0.012127181 4288556593
0.021351762 -0.00078735547 0.013336126 4288687664
-0.031521641 0.0014504213 0.010875683 4287706169
-0.029677805 0.002276693 0.010124532 4288818990
-0.027839484 0.0031030048 0.0093737589 4289081129
-0.026006686 0.0039293785 0.0086233085 4289343013
-0.02417941 0.0047557428 0.0078732762 4290716699
-0.022357661 0.0055821454 0.0071236249 4290782488
-0.020352814 0.0048243143 0.0076810131 4290324509
-0.018245552 0.0032746373 0.008891508 4289801248
-0.015927963 0.00014130305 0.011407666 4289604899
-0.014101129 0.00096825836 0.010658101 4289735714
-0.012385055 0.0025871587 0.0092561077 4289408804
-0.010679994 0.0042060167 0.0078547075 4291174934
-0.0087646022 0.0042411219 0.0077590495 4290848023
-0.0066225491 0.0026927735 0.0089683188 4290848023
-0.0048180595 0.003519916 0.0082203103 4289474339
-0.0029003061 0.0035554199 0.0081247985 4289539619
-0.00098268688 0.0035910187 0.008029364 4289474083
0.0010590889 0.0028351974 0.0085858963 4288950824
0.0029791668 0.0028710645 0.0084905047 4288623659
0.0048991032 0.0029070489 0.008395209 4289408549
0.0068188831 0.0029431488 0.0083000101 4289735203
0.008873716 0.0021879673 0.0088561857 4290455069
0.010382213 0.0045982832 0.0068074474 4289408293
0.01229611 0.0046345731 0.0067127626 4289343013
0.014066488 0.0054621706 0.0059672589 4289604388
0.016123399 0.0047074435 0.006523638 4290454303
0.018185608 0.0039528999 0.0070798947 4289342249
0.020404577 0.0024075592 0.0082864305 4288949549
0.022788495 7.1461778e-05 0.010142906 4288622129
0.025031611 -0.0014732336 0.011348386 4288556083
-0.033104099 -0.0040945327 0.013099487 4287444028
-0.031555619 -8.7555498e-05 0.0097387424 4287706169
-0.029711893 0.00074088247 0.0089892028 4288295983
-0.02787368 0.0015693717 0.0082400497 4288427308
-0.025954895 0.0016034562 0.0081434203 4289081384
-0.024125002 0.0024320926 0.0073948302 4289408294
-0.022300627 0.0032607075 0.0066466504 4289997344
-0.020387523 0.0032950435 0.0065505682 4289735714
-0.018280517 0.0017409911 0.0077578388 4289474083
-0.016162705 0.00018730015 0.0089646149 4289604898
-0.014341414 0.0010163304 0.0082169389 4289800993
-0.012736019 0.0034336299 0.0061672186 4289931808
-0.010823388 0.0034685694 0.0060716127 4290258719
-0.008910872 0.0035036141 0.005976093 4289801248
-0.0067717768 0.0019508689 0.0071822922 4291044374
-0.0050861798 0.0035740696 0.0057853456 4289670433
-0.0031740144 0.0036094552 0.0056901015 4289605154
-0.0012619831 0.0036449721 0.0055949609 4289474338
0.00077416003 0.0028868411 0.006150139 4289409059
0.0026886538 0.0029226141 0.0060550324 4289212454
0.0044733249 0.0037521413 0.0053100502 4289474083
0.0063848272 0.0037880549 0.0052152392 4289800993
0.0085664168 0.0022369954 0.006419987 4290258718
0.010069512 0.0046537118 0.0043763323 4290847513
0.011837244 0.0054833256 0.0036324896 4289800738
0.013599396 0.0063129291 0.0028889936 4289997088
0.015793987 0.0047625545 0.0040933499 4290455069
0.017850563 0.0040057488 0.0046482128 4290455069
0.02006387 0.0024558925 0.0058518392 4290193184
0.021979533 0.0024927151 0.0057574357 4289539109
0.024051927 0.0017364994 0.0063117309 4289277224
0.02596996 0.0017735409 0.0062173395 4288753198
-0.033288434 -0.0040495307 0.010652496 4288163894
-0.031589594 -0.0016252801 0.0086019887 4287706679
-0.029826565 2.0391308e-06 0.0072032488 4287707188
-0.027741238 -0.0015573006 0.0084079048 4287969328
-0.025817158 -0.0015231387 0.008310996 4288623659
-0.024070676 0.00010428531 0.0069133849 4289343269
-0.022335187 0.0017316672 0.0055163656 4289604643
-0.020516444 0.0025624759 0.0047701676 4289408548
-0.018509366 0.001800477 0.0053243274 4289604899
-0.016496919 0.0010387017 0.005878312 4289604899
-0.014581509 0.0010734475 0.0057823877 4289866529
-0.012876429 0.0027008331 0.0043873773 4290389788
-0.0112902 0.0051244339 0.0023435405 4288950313
-0.0094992854 0.0059554437 0.0015992594 4288950569
-0.0074873567 0.0051942347 0.002153696 4289604898
-0.0053540766 0.0036371388 0.0033570437 4290193694
-0.0033287704 0.0028764177 0.0039109918 4289801248
-0.0011766776 0.0013199146 0.0051135086 4289539874
0.00061362982 0.0021514888 0.004369684 4289343523
0.0023983605 0.0029830905 0.0036262337 4289343524
0.0040478855 0.004610463 0.0022347418 4289474338
0.0062157661 0.0030547278 0.0034368248 4289408804
0.0082593411 0.0022949721 0.0039903289 4289408549
0.0098948032 0.0039224327 0.0025997947 4290324764
0.011519238 0.0055498248 0.0012098379 4290913559
0.013419114 0.0055859396 0.0011159121 4291175189
0.015610747 0.0040311078 0.0023172298 4291436563
0.017664425 0.0032720733 0.0028706263 4289997344
0.019723393 0.0025132117 0.0034238147 4289800993
0.021633483 0.0025499281 0.0033296868 4289604899
0.023386575 0.003382015 0.0025886043 4289473829
0.025293618 0.0034188488 0.0024947578 4289800739
0.027362771 0.0026605767 0.0030477364 4291435544
0.0297672 0.0003121784 0.0048937988 4290518819
0.032187767 -0.0020357824 0.0067390874 4287640634
-0.033247299 -0.0063925181 0.010160571 4287640634
-0.031467929 -0.0047606491 0.0087640882 4287771958
-0.029618971 -0.0039277272 0.0080175363 4287772724
-0.027608985 -0.0046924795 0.0085694725 4287969328
-0.025679609 -0.0046582045 0.0084723113 4288034864
-0.024016455 -0.0022276205 0.0064288364 4288951078
-0.022278283 -0.00059582153 0.0050349175 4288820263
-0.020551097 0.0010358412 0.0036416706 4288951078
-0.018641103 0.0010702568 0.0035458452 4289081638
-0.016830817 0.0019033416 0.00280187 4289212198
-0.015026066 0.0027364176 0.0020582394 4289801249
-0.013226878 0.0035695899 0.0013149597 4290913559
-0.0116488 0.005999485 -0.00072362227 4290258719
-0.0098661706 0.0068325708 -0.0014659149 4290716698
-0.0078625865 0.0060689934 -0.00091262674 4291044119
-0.0057377294 0.0045074206 0.00028786465 4290324509
-0.0036021024 0.0029461132 0.0014879433 4290062623
-0.0016985089 0.0029814625 0.0013932164 4289800993
0.00020495802 0.0030168947 0.0012985577 4289735714
0.0021082833 0.0030524554 0.0012040038 4289735969
0.0038818978 0.0038861679 0.00046274858 4290128413
0.0059145428 0.0031238822 0.0010151465 4289605154
0.0080875009 0.0015639695 0.0022138131 4289277989
0.0098579675 0.002397893 0.0014729884 4289474084
0.011622854 0.0032317946 0.00073250197 4289997343
0.013382122 0.0040657325 -7.6752185e-06 4290324509
0.015573539 0.0025065262 0.0011904158 4290193438
0.017478414 0.0025429395 0.0010963946 4289997343
0.019685835 0.00098427758 0.0022937988 4289670688
0.021287665 0.0026160334 0.00090858241 4290325019
0.023035266 0.0034501944 0.00016938643 4289539618
0.024777234 0.0042843567 -0.00056952582 4291371538
0.026675835 0.0043210955 -0.0006629072 4290586139
0.028739221 0.0035605598 -0.0001111647 4290651674
0.031310864 0.00040848367 0.0023749762 4289866018
0.033733711 -0.0019459412 0.0042154067 4288949548
-0.033281293 -0.0079384474 0.0090177422 4287182909
-0.03134644 -0.0079044756 0.0089200092 4287641143
-0.02949214 -0.0070693204 0.0081747714 4287838003
-0.027310472 -0.0094381645 0.010019766 4288034864
-0.025456294 -0.0086027607 0.0092747211 4288100144
-0.023696303 -0.0069663902 0.0078828773 4288427563
-0.022038691 -0.0045291805 0.0058445861 4289147429
-0.020397499 -0.0020921517 0.0038072045 4288296748
-0.01867589 -0.00045611616 0.0024175507 4289081893
-0.016965274 0.0011798544 0.001028546 4288754728
-0.015163358 0.0020151208 0.00028664421 4289605154
-0.013366971 0.0028503425 -0.00045486522 4289801248
-0.011683874 0.0044861604 -0.0018422337 4290324764
-0.010122258 0.006922449 -0.0038751103 4290586394
-0.0081243291 0.0061566206 -0.0033232055 4290716953
-0.0058892444 0.0037901364 -0.0014797807 4289997344
-0.0038752109 0.0030248305 -0.00092851167 4289670178
-0.0019772053 0.0030600624 -0.0010229712 4290128158
-7.9326332e-05 0.0030953996 -0.0011173445 4289997343
0.0016916245 0.0039310558 -0.0018569172 4290717208
0.0037160479 0.0031664027 -0.0013058234 4291306259
0.0057457723 0.0024019363 -0.00075492996 4291109909
0.0077808127 0.0016376423 -0.00020417092 4290324763
0.0096834525 0.0016735867 -0.00029839703 4289408549
0.011585958 0.0017096493 -0.0003925272 4289866529
0.013345152 0.0025457656 -0.0011310863 4289735714
0.015244633 0.0025819442 -0.0012249383 4289800993
0.01714395 0.0026182397 -0.0013186932 4289932064
0.019194402 0.0018548286 -0.00076825975 4289867039
0.020942084 0.0026910985 -0.001505974 4290128668
0.022527441 0.0043269601 -0.002887103 4290325018
0.024261199 0.0051630922 -0.0036239601 4289278499
0.026151523 0.0051996792 -0.003716928 4289081639
0.028206579 0.0044368478 -0.0031664316 4290259484
0.030434519 0.0028747479 -0.0019728781 4289997344
0.032673158 0.001312911 -0.00077973423 4288819754
0.035268612 -0.0018473151 0.0016989331 4288623403
0.037709862 -0.0042077061 0.0035337009 4288622128
-0.033315279 -0.0094841607 0.0078750728 4288098358
-0.031302862 -0.01025347 0.0084234793 4287837494
-0.029365502 -0.010219324 0.0083257155 4287968308
-0.02734503 -0.010988211 0.0088739228 4287969328
-0.025405064 -0.010953782 0.0087762037 4288100399
-0.023642406 -0.0093130311 0.0073874351 4288231468
-0.021890722 -0.0076722745 0.0059992932 4289082149
-0.020150021 -0.0060316781 0.0046118042 4288362538
-0.01842029 -0.0043911347 0.0032249733 4288362283
-0.016900588 -0.0011448329 0.00054867874 4288296748
-0.015096031 -0.00030741375 -0.00019172188 4289343268
-0.013297033 0.00053007947 -0.00093178946 4289343269
-0.01161126 0.0021703015 -0.0023160661 4289212454
-0.010046903 0.0046131751 -0.0043442389 4289735713
-0.0081595741 0.0046478687 -0.0044384198 4289670178
-0.0061565116 0.0038800538 -0.0038883118 4289735714
-0.0041480996 0.0031124372 -0.0033383218 4289539363
-0.002376996 0.0039501078 -0.0040764869 4289735714
-0.00036337972 0.0031827828 -0.0035266117 4290586139
0.0016555451 0.0024157269 -0.0029769496 4290127903
0.0035503134 0.0024512033 -0.0030710225 4290455068
0.0054449365 0.0024868096 -0.0031649901 4290455579
0.0073394179 0.0025225086 -0.0032588798 4290913559
0.0093714148 0.0017561037 -0.0027095655 4289539619
0.011408702 0.00098990696 -0.0021604327 4289539363
0.013022035 0.0026301802 -0.0035400714 4289604899
0.014915951 0.0026662536 -0.0036336482 4289801249
0.016809702 0.0027024313 -0.0037271369 4289997599
0.018854551 0.0019367575 -0.0031780971 4290063389
0.020596735 0.0027750432 -0.0039138952 4290063389
0.022176638 0.0044151833 -0.0052915821 4291175699
0.023745492 0.0060551642 -0.0066686142 4290521624
0.025627561 0.0060915761 -0.0067611868 4289409058
0.027674302 0.0053263772 -0.0062119151 4289801503
0.029893883 0.0037597157 -0.0050211335 4289670178
0.032124147 0.0021933909 -0.0038308562 4289408803
0.034884118 -0.0017772156 -0.00071683072 4289147429
0.037319683 -0.0041443245 0.0011133977 4287248698
-0.031570073 -0.0093846535 0.0053458191 4286332994
-0.029641042 -0.0093506603 0.0052484716 4288229939
-0.02762894 -0.010121962 0.005795497 4287903283
-0.025611458 -0.010892971 0.0063423235 4287969074
-0.023677167 -0.010858506 0.0062449914 4288231469
-0.021834243 -0.010018704 0.0055039176 4288754728
-0.019902825 -0.009984035 0.0054069185 4288231469
-0.018261723 -0.0075338343 0.0033792988 4288296748
-0.016637053 -0.0050838143 0.0013525886 4288035374
-0.014926616 -0.0034390327 -2.9878138e-05 4288231468
-0.013122253 -0.0025993171 -0.00076856598 4288362283
-0.011538725 -0.00014969008 -0.0027929542 4288885543
-0.0099716336 0.0022997451 -0.0048164418 4288885544
-0.0083078966 0.0039441362 -0.0061962316 4289670178
-0.006307736 0.0031740926 -0.0056475895 4289801249
-0.0046578459 0.0048184544 -0.0070265224 4289866529
-0.0026551969 0.0040487051 -0.0064778212 4289604388
-0.00077119842 0.0040837601 -0.0065715211 4290585884
0.0012393631 0.0033143722 -0.0060230549 4289146664
0.0029964224 0.0041542016 -0.0067586545 4288950569
0.0050121732 0.0033851154 -0.0062102936 4289408803
0.0070332363 0.0026162141 -0.0056621335 4289604898
0.0090596154 0.0018474874 -0.0051141079 4289997598
0.011091277 0.001078981 -0.0045663291 4289604898
0.012985207 0.0011149701 -0.0046599689 4289735714
0.014733255 0.001955247 -0.0053946641 4289866528
0.016327217 0.0035997201 -0.0067700353 4289801248
0.018212542 0.0036358293 -0.0068630399 4289605409
0.019943789 0.004476062 -0.0075967009 4289736223
0.021826074 0.0045122867 -0.0076894267 4289867038
0.023548841 0.0053525455 -0.0084225303 4290848023
0.025590152 0.0045849681 -0.007874676 4290913814
0.027636744 0.0038175862 -0.0073270118 4291175444
0.029856108 0.0022465619 -0.0061394474 4290128158
0.032086171 0.00067586219 -0.0049523977 4289277989
0.034845777 -0.0033056606 -0.0018464339 4287314489
-0.027995629 -0.0084348321 0.0020842233 4287903029
-0.02590345 -0.010015709 0.0032724927 4288099888
-0.023888968 -0.010788841 0.0038179376 4288165679
-0.022051595 -0.0099469405 0.0030787711 4288820009
-0.020031806 -0.010719756 0.0036241137 4288427563
-0.018296733 -0.0090704272 0.0022434492 4288362284
-0.016473219 -0.008228437 0.0015052299 4288231468
-0.014757391 -0.00657917 0.00012566829 4288231468
-0.012947682 -0.0057371724 -0.00061166892 4288362283
-0.011466276 -0.0024738149 -0.0032728983 4288231469
-0.0098964497 -1.7854851e-05 -0.0052916515 4289147429
-0.008230038 0.0016309638 -0.006668407 4289539619
-0.0065746121 0.0032796459 -0.0080444906 4289146919
-0.0049301982 0.0049282853 -0.0094199805 4289277734
-0.0030543879 0.0049630962 -0.0095133428 4289277479
-0.0010547675 0.0041911528 -0.0089659998 4290651163
0.00095018372 0.0034194412 -0.0084188972 4290193439
0.0027017072 0.0042613577 -0.0091525996 4289735714
0.0047118366 0.0034899851 -0.0086055752 4290062623
0.0067272633 0.0027187979 -0.008058751 4290324764
0.0087480173 0.0019478085 -0.0075121182 4290128413
0.010774069 0.0011770274 -0.0069656665 4289735969
0.012519464 0.0020193192 -0.0076987012 4289997343
0.014259279 0.0028616255 -0.0084313704 4289932064
0.015696667 0.0053166132 -0.010442507 4289604899
0.01772213 0.004546158 -0.0098957019 4289801248
0.019752882 0.0037759356 -0.0093491366 4289277988
0.021788903 0.0030059097 -0.0088027604 4289408803
0.023670912 0.0030421773 -0.0088954363 4289408804
0.025552765 0.0030785622 -0.0089880163 4290128158
0.027599201 0.0023089754 -0.0084419753 4289539109
0.029818356 0.00073356461 -0.0072576473 4289473319
0.032388568 -0.0024533977 -0.0047971797 4288687664
-0.024189025 -0.0099006612 0.00075678033 4287576118
-0.022177532 -0.010675902 0.001300852 4288426288
-0.02025459 -0.0106414 0.0012042678 4288362029
-0.01842837 -0.0097973049 0.00046743616 4288165679
-0.016607679 -0.0089531941 -0.00026903409 4288427818
-0.014894627 -0.0072996384 -0.0016452429 4288427819
-0.012982916 -0.0072648702 -0.0017409167 4288297004
-0.01139392 -0.004802133 -0.0037558679 4288166189
-0.0096008442 -0.0039580208 -0.0044906568 4288493354
-0.0081522614 -0.00068634143 -0.0071436376 4288754984
-0.0063784495 0.0001576147 -0.0078772446 4288623913
-0.0049654804 0.0034288503 -0.010528293 4288688939
-0.0030898005 0.0034636343 -0.010621666 4288819754
-0.001214236 0.0034985244 -0.010714953 4289670179
0.00078780577 0.0027245376 -0.010169277 4290586139
0.0022778995 0.0051863641 -0.012178695 4290847769
0.0041476451 0.0052214675 -0.012271455 4291109653
0.0061520264 0.0044478672 -0.011725715 4290782744
0.0082991943 0.0028657364 -0.010541793 4289997599
0.010316908 0.0020925994 -0.0099965576 4290193949
0.012196995 0.0021282723 -0.010089553 4289997343
0.013931297 0.0029726289 -0.010820353 4289604898
0.015363283 0.00543404 -0.012826388 4290716954
0.017383151 0.0046613347 -0.012280969 4290913559
0.019254483 0.0046972195 -0.012373251 4290521113
0.021751754 0.0014997246 -0.0099159526 4289670434
0.023633659 0.0015359786 -0.010008632 4289539363
0.025353462 0.002380582 -0.010738328 4289866529
0.027396999 0.0016087545 -0.010193764 4289669668
0.029613227 2.8982759e-05 -0.0090125548 4289147174
0.032520644 -0.0047829985 -0.0052849664 4287903029
-0.022485662 -0.009776732 -0.0017517277 4287445048
-0.020664912 -0.0089306934 -0.0024867724 4288165169
-0.018753093 -0.0088962708 -0.0025827088 4288558124
-0.016642712 -0.010484997 -0.0014013341 4288231469
-0.014827657 -0.0096386466 -0.0021358614 4288231723
-0.012913372 -0.0096038356 -0.0022316671 4288428074
-0.011106674 -0.0087574571 -0.0029655686 4288166189
-0.0091953091 -0.0087224673 -0.0030610566 4288689449
-0.0077357739 -0.0054418975 -0.0057081487 4288558633
-0.0064137727 -0.001350336 -0.0089918608 4288231468
-0.0047639795 0.00030705333 -0.010361138 4288754729
-0.0031251945 0.0019643768 -0.011729838 4288820009
-0.0012497678 0.0019992646 -0.011823119 4288950569
0.00049901009 0.0028453376 -0.012553566 4288950313
0.0022422224 0.0036914134 -0.01328366 4289605154
0.0038478673 0.0053484915 -0.014650364 4289212454
0.0057119168 0.0053835828 -0.014742772 4289801504
0.0078507066 0.0037969388 -0.013561732 4289801248
0.010000221 0.002210631 -0.012381127 4289800993
0.011731878 0.0030569909 -0.013110274 4290062623
0.013457954 0.0039033405 -0.013839077 4289931808
0.015326768 0.0039389795 -0.013931382 4291306004
0.017195426 0.0039746994 -0.014023616 4290651163
0.019217685 0.0031999629 -0.013479853 4291044374
0.021401711 0.0016147755 -0.012300535 4289997599
0.023278058 0.0016509243 -0.012392941 4289604643
0.025316179 0.00087671774 -0.011849794 4289604389
0.02735956 0.00010270812 -0.011306835 4289866529
0.030077636 -0.0039124847 -0.0082231704 4289211433
-0.019077502 -0.0079820203 -0.0056230118 4286856763
-0.016975537 -0.0095752124 -0.0044444841 4287641653
-0.015168741 -0.008726893 -0.005176954 4288034608
-0.013158061 -0.0095059322 -0.0046356437 4288034864
-0.011249457 -0.0094711091 -0.0047310791 4288231469
-0.0093409531 -0.009436179 -0.0048264288 4288362283
-0.007771194 -0.0069605205 -0.0068306625 4288297259
-0.0061022714 -0.0052985456 -0.0081977583 4288166188
-0.0043260157 -0.0044501289 -0.008928217 4288035118
-0.0027974211 -0.0019748635 -0.010930127 4288296749
-0.0011614934 -0.00031320425 -0.012295361 4288558633
0.00033693016 0.0021616854 -0.014295633 4288885544
0.0020773448 0.0030098688 -0.015023987 4288819753
0.0038121864 0.0038580559 -0.015751986 4289016359
0.0056761093 0.0038931211 -0.015844403 4289474084
0.0078146607 0.0023021256 -0.014666572 4289931554
0.0096837655 0.0023374939 -0.014759096 4290193184
0.011552736 0.0023729312 -0.014851559 4290127904
0.013276041 0.0032213777 -0.015578631 4290520859
0.015142009 0.0032569449 -0.015670808 4289015849
0.016705878 0.0049182894 -0.017031774 4289277734
0.018873513 0.0033283466 -0.015854934 4289997088
0.021051884 0.0017387522 -0.014678596 4289604898
0.023240969 0.00014942279 -0.013502669 4289932063
0.025278933 -0.00062698964 -0.012961145 4289539108
0.027486749 -0.0022157652 -0.01178607 4289538599
0.030207157 -0.0062418049 -0.0087105874 4286006338
-0.015407581 -0.0086177429 -0.0075730463 4287772468
-0.013402529 -0.0093990918 -0.0070330137 4288230448
-0.011284739 -0.010996005 -0.0058582476 4288426798
-0.0093763806 -0.010961091 -0.0059536002 4288885543
-0.0076937787 -0.009294657 -0.0073182629 4288231469
-0.0061377138 -0.0068126181 -0.0093169007 4288035373
-0.004243277 -0.006777626 -0.0094113117 4287970094
-0.0027119368 -0.0042958111 -0.011408545 4288231469
-0.0010733083 -0.0026297707 -0.012770706 4288623913
0.00055429712 -0.00096377311 -0.014132272 4289081893
0.0023000799 -0.00011333078 -0.014859295 4289539619
0.0040402934 0.00073711341 -0.015585962 4289016104
0.0056403317 0.002402863 -0.016945887 4289015849
0.0075040162 0.0024379962 -0.017038241 4289211944
0.0092275068 0.0032884702 -0.017763898 4290127648
0.011230975 0.002508543 -0.017222712 4289866274
0.012948766 0.0033590999 -0.017947946 4290651163
0.014809176 0.0033945497 -0.018039856 4289473573
0.016367599 0.0050600655 -0.019397311 4289473828
0.018375941 0.0042806398 -0.018856138 4289735459
0.020702302 0.0018715961 -0.017050032 4290324254
0.02288574 0.00027780002 -0.015877128 4289735459
0.025727108 -0.0045748628 -0.012175549 4289277223
0.028107405 -0.0069826273 -0.010371922 4287838004
-0.011642016 -0.01006674 -0.0088854162 4287576118
-0.009631902 -0.010849969 -0.0083470987 4288426544
-0.00772921 -0.010815053 -0.0084420908 4287772979
-0.0059421435 -0.0099621564 -0.0091699902 4287970094
-0.0041606128 -0.0091093034 -0.0098974984 4288035373
-0.0025055707 -0.0074387239 -0.011257338 4288100654
-0.00086154789 -0.0057681864 -0.012616586 4288558634
0.00077148899 -0.004097797 -0.01397517 4289212199
0.0025226362 -0.0032450967 -0.014700862 4288362029
0.0041363835 -0.0015748052 -0.016058367 4288427053
0.0057391264 9.5312949e-05 -0.017415227 4288427053
0.0074681342 0.00094790431 -0.018139593 4288688684
0.0090515763 0.0026179017 -0.019495392 4288950314
0.011052147 0.0018357574 -0.018955739 4289146664
0.012621723 0.0035056528 -0.020310659 4290062623
0.014476597 0.0035409732 -0.020402312 4290389789
0.016331322 0.0035763746 -0.020493899 4291175188
0.018185914 0.0036118571 -0.020585414 4290913559
0.020509288 0.0011962131 -0.018784009 4290586139
0.023007847 -0.0020360281 -0.016352599 4289342758
0.025528029 -0.005267797 -0.01392214 4287707443
0.028234266 -0.0093159806 -0.010862156 4286268478
0.03046599 -0.010913011 -0.0096946405 4286791484
-0.011891674 -0.0099444427 -0.011271007 4286988089
-0.010107212 -0.0090896962 -0.0119973 4286464573
-0.0081028268 -0.0098750331 -0.011460254 4287772979
-0.0060930923 -0.010660209 -0.010923429 4288100399
-0.0041961931 -0.010625198 -0.011017983 4287969584
-0.0025411919 -0.0089502726 -0.0123746 4288558634
-0.00077357888 -0.0080952598 -0.013099699 4289016613
0.00098849088 -0.0072402917 -0.013824403 4288688938
0.0028740652 -0.0072051007 -0.013918106 4288492844
0.0042323954 -0.0038909288 -0.016533881 4288230448
0.0057033487 -0.0013967527 -0.018518049 4288558124
0.0072950646 0.0002776105 -0.019871142 4288623403
0.0090157166 0.0011323011 -0.02059342 4288950824
0.01073081 0.0019869567 -0.021315373 4289212198
0.012440316 0.0028416151 -0.02203697 4288558124
0.014144249 0.0036963103 -0.022758257 4289473828
0.015993431 0.0037315944 -0.022849577 4289735969
0.017996021 0.0029476164 -0.022311337 4289473828
0.020472676 -0.00029390259 -0.019885333 4289343268
0.022811949 -0.0027156759 -0.01808955 4288622638
-0.0064747259 -0.0097093303 -0.01393304 4287707189
-0.0043498874 -0.011318807 -0.012767954 4288034609
-0.0024559461 -0.011283752 -0.012862286 4288820009
-0.00080925226 -0.0096045211 -0.014215264 4289016359
0.00095274299 -0.0087473989 -0.014938369 4288362029
0.0028381944 -0.0087122107 -0.015032062 4288100399
0.0044600666 -0.0070331716 -0.016383532 4288165168
0.0059364848 -0.0045323414 -0.018363193 4288296238
0.0075336322 -0.0028535861 -0.019713301 4288165679
0.0093995407 -0.0028183677 -0.019805733 4288688939
0.010980122 -0.0011396888 -0.021154922 4288623404
0.012404367 0.0013604565 -0.023131702 4288885288
0.014108248 0.0022172821 -0.023851408 4288819753
0.015957326 0.0022525406 -0.023942741 4288950313
0.018113226 0.00064489199 -0.022778273 4288949803
0.020436093 -0.0017838748 -0.020986553 4288818733
0.023092948 -0.0058549731 -0.017940406 4286725693
-0.0027331561 -0.0111486 -0.015236683 4287903538
-0.00084489584 -0.01111358 -0.015330681 4288492333
0.0011694916 -0.011902664 -0.01479697 4288427564
0.0030602589 -0.011867387 -0.014890937 4288165678
0.0046875477 -0.010183861 -0.016239502 4288231214
0.0063038468 -0.0085005201 -0.017587429 4288165678
0.007909134 -0.0068172216 -0.018934764 4287904049
0.0095034242 -0.0051340708 -0.020281436 4288296493
0.011086717 -0.0034510703 -0.021627519 4288361774
0.012658991 -0.0017681231 -0.02297302 4288820009
0.014220282 -8.5360836e-05 -0.024317883 4289670434
0.015921243 0.000773679 -0.025035763 4289146663
0.018076941 -0.00083835656 -0.023874532 4288034099
0.020555682 -0.0040972782 -0.02146155 4286725438
-0.0012508929 -0.010143373 -0.018324357 4286529854
0.0007551536 -0.010934744 -0.017791882 4288165424
0.0026376322 -0.010899652 -0.017885461 4288165423
0.0043883771 -0.010038241 -0.018604673 4288165678
0.0061335638 -0.0091768382 -0.019323541 4288428074
0.0077361017 -0.00748925 -0.020667523 4288362283
0.0094674453 -0.0066279252 -0.021385569 4288427563
0.011193231 -0.0057666106 -0.022103269 4289474594
0.012913458 -0.004905316 -0.022820633 4289670688
0.014628105 -0.0040439861 -0.023537686 4289212453
0.016337186 -0.0031827239 -0.024254363 4288688939
0.018347457 -0.0039731003 -0.023721423 4288361008
0.0042210035 -0.010712174 -0.020339206 4287707189
0.0060976893 -0.010677014 -0.020432362 4288100144
0.0078372434 -0.0098134317 -0.021149334 4288558889
0.0095712468 -0.0089498945 -0.021865906 4289212963
0.011157244 -0.0072581889 -0.023205716 4288755238
0.013022557 -0.0072228843 -0.023298047 4288689703
0.014739893 -0.0063594123 -0.024013612 4288558889
0.016602248 -0.0063239895 -0.024105666 4288493098
0.018464468 -0.0062884856 -0.024197649 4288753963
0.02079469 -0.0087367222 -0.022420892 4286398783
0.022823565 -0.0095287859 -0.021890383 4287249208
0.0056591332 -0.009685427 -0.023408212 4289081128
0.0076643899 -0.010480823 -0.022878669 4289474593
0.0093956217 -0.0096152239 -0.023593541 4288558888
0.011263669 -0.0095799807 -0.023686092 4288559144
0.013131626 -0.0095446687 -0.023778582 4288886053
0.014999434 -0.0095092636 -0.023870993 4289147939
0.01671657 -0.0086435545 -0.024584891 4288951078
0.018428147 -0.007777879 -0.025298458 4287576629
0.0093597546 -0.011108669 -0.024697378 4287445813
0.011227705 -0.011073452 -0.024789941 4288688683
0.01295048 -0.010205684 -0.025502671 4288754474
0.014815472 -0.010170361 -0.025594966 4288362028
0.016680337 -0.010134956 -0.025687193 4288165423
0.018238649 -0.0084347613 -0.027019028 4286464063
0.012479469 -0.0091928598 -0.028460726 4288492589
0.014336206 -0.0091577359 -0.028552644 4288034609
0.016042367 -0.0082879728 -0.029262841 4287641398
0.032894477 -0.0076993583 0.021190004 4282537574
-0.022437096 -0.0078774644 -0.021530598 4282271608
0.0024670586 -0.0081396354 -0.033274855 4283122035
0.0021696389 -0.0079301149 -0.035592817 4283124584
0.001872465 -0.007711791 -0.037904341 4282994278
