# .PCD v0.7 - Point Cloud Data file format
VERSION 0.7
FIELDS x y z rgba
SIZE 4 4 4 4
TYPE F F F U
COUNT 1 1 1 1
WIDTH 957
HEIGHT 1
VIEWPOINT 0 0 0 1 0 0 0
POINTS 957
DATA ascii
-0.0025114864 0.0029238258 0.0077228346 4289015084
-0.00027293712 0.0014030971 0.0089082904 4288949294
0.0016584769 0.0014489125 0.008786086 4289080364
0.0032664612 0.0030608866 0.0073572495 4288818733
0.0051920861 0.003106758 0.0072355536 4288426034
0.0069504753 0.0039355764 0.0064609298 4289014573
0.0088730156 0.0039815726 0.0063395766 4289602859
0.010450356 0.0055931518 0.0049130009 4287704639
-0.02919184 -0.0016033808 0.010260256 4288819243
-0.027609762 0.00079953019 0.0081729982 4288753453
-0.025802646 0.0016298397 0.0073955399 4290716954
-0.023877621 0.0016740831 0.0072726817 4289997343
-0.021952715 0.0017184438 0.0071499194 4290716954
-0.019899022 0.00097695924 0.0076810443 4290389788
-0.01770838 -0.00055022724 0.0088655725 4289931553
-0.015506983 -0.0020770049 0.010049459 4289473829
-0.013568997 -0.0020318842 0.0099262036 4289474849
-0.011910737 -0.00041527767 0.0084968228 4289670434
-0.010263517 0.0012012459 0.0070681968 4289735713
-0.008482106 0.0020319959 0.0062931445 4290521114
-0.0065583065 0.0020772042 0.006171105 4290455578
-0.0044839904 0.001337097 0.0067015835 4290782489
-0.0022509843 -0.00018822309 0.0078840721 4290062623
-0.00016338378 -0.00092782918 0.0084138494 4289669924
0.0017706379 -0.00088195968 0.0082914736 4289735459
0.003542915 -5.0796196e-05 0.0075174705 4289735969
0.0054738671 -4.7991052e-06 0.0073954375 4289212709
0.0072376281 0.00082636066 0.0066221193 4290717209
0.0091654956 0.00087248161 0.006500429 4290454303
0.01074829 0.0024885805 0.0050766976 4290127394
0.012845501 0.0017498713 0.0056063668 4289015338
0.015125863 0.00022656098 0.0067865201 4289343013
0.017416872 -0.0012963656 0.0079660211 4289604133
0.019168623 -0.00046495069 0.0071938657 4289276968
0.020542666 0.001935631 0.0051217093 4289341739
0.022466473 0.0019822624 0.0050007277 4289014574
0.024390042 0.0020289738 0.0048798234 4289995558
0.026313446 0.0020757411 0.004758975 4289734439
0.028236613 0.0021225996 0.0046382123 4288555064
0.030359216 0.0013852045 0.0051668775 4287638849
-0.030947451 -0.0047720694 0.010542499 4286725694
-0.029351614 -0.0023624427 0.0084591284 4289081384
-0.027536299 -0.0015298896 0.0076826741 4289734948
-0.02584723 9.1050752e-05 0.0062539489 4288950569
-0.024169154 0.0017117886 0.0048260367 4288819754
-0.022375956 0.0025442019 0.0040512704 4289735714
-0.020330649 0.0018003499 0.0045813094 4290062878
-0.017885298 -0.0013075173 0.0070671481 4290193949
-0.015686903 -0.0028386991 0.0082480013 4289670689
-0.013751768 -0.0027936529 0.0081249215 4289539618
-0.012096241 -0.0011727409 0.0066989646 4290259484
-0.010594208 0.0012358753 0.004622431 4289605409
-0.0091086626 0.0036442196 0.0025470299 4289016358
-0.0070479736 0.0029014414 0.0030766972 4289539874
-0.0046807826 0.00058370922 0.0049076718 4290128669
-0.0024507493 -0.00094602816 0.0060871146 4289801248
-0.00021001697 -0.0024753558 0.0072659203 4289997599
0.0015651137 -0.0016420633 0.0064932709 4289866784
0.0034961104 -0.0015961612 0.0063711642 4289997598
0.0052627251 -0.00076286029 0.0055992086 4290324764
0.0070236921 7.0450827e-05 0.0048276433 4290063134
0.0087790862 0.00090366695 0.0040565324 4289605409
0.010528833 0.0017368319 0.0032858425 4290716954
0.012798242 0.00020886119 0.0044633378 4290128158
0.015256174 -0.002105786 0.006289341 4290128414
0.017549664 -0.0036330461 0.0074654915 4289866274
0.019120835 -0.0020125131 0.0060460032 4289866274
0.02049499 0.00039459858 0.0039786999 4290454814
0.022229999 0.0012279497 0.003209339 4289997089
0.024342187 0.00048792735 0.0037368168 4290781724
0.026459597 -0.00025191158 0.0042640814 4290389278
0.028188556 0.00058155973 0.003495228 4290847768
0.030510537 -0.00094445515 0.0046699983 4289670178
0.033247709 -0.0040429081 0.007139226 4289539364
-0.029511258 -0.0031169103 0.0066614063 4289146409
-0.027698763 -0.0022821929 0.0058867172 4290520603
-0.025891807 -0.0014475114 0.0051125255 4290717208
-0.024337094 0.00096799899 0.0030369344 4290455578
-0.022546709 0.0018025879 0.0022639395 4290586139
-0.020504314 0.0010564383 0.0027925796 4290847513
-0.018193599 -0.0012699082 0.004621713 4289932063
-0.016135134 -0.0020154035 0.0051494665 4289866529
-0.014071345 -0.0027607093 0.005677002 4289670433
-0.012281619 -0.0019255858 0.0049044588 4290193949
-0.010782242 0.00048945379 0.0028329943 4290782743
-0.0091542453 0.0021143286 0.0014121402 4289539873
-0.0072415918 0.0021592872 0.0012908154 4289801759
-0.0048774406 -0.00016508531 0.0031171688 4290324764
-0.0026504025 -0.0016991915 0.004293527 4290848023
-0.00056862086 -0.0024433229 0.0048204814 4289997599
0.0013597235 -0.0023975857 0.004698467 4290128414
0.0034493059 -0.0031412868 0.0052250358 4290324764
0.0048875436 -0.00072681997 0.0031580185 4290520858
0.0064761937 0.00089787971 0.0017402931 4290390554
0.0080537647 0.0025224602 0.00032330025 4289409058
0.010137223 0.0017789509 0.00085058203 4289735968
0.012400948 0.00024650712 0.002025208 4290193949
0.014853127 -0.0020748274 0.0038466989 4290717464
0.01714094 -0.0036065388 0.0050199204 4290455578
0.018706709 -0.0019818163 0.0036040633 4290128158
0.019889638 0.0012206296 0.00089498982 4290847513
0.021239236 0.0036337553 -0.0011658524 4289800994
0.023337647 0.0028912472 -0.0006391108 4288950569
0.025829419 0.00057137292 0.0011802632 4289016104
0.027943738 -0.00017058756 0.0017061247 4289408293
0.030063294 -0.00091237947 0.0022316906 4289342249
0.032794677 -0.0040196604 0.0046948153 4289864743
-0.029670779 -0.0038667126 0.0048670708 4289343014
-0.027861089 -0.003029915 0.0040942323 4289605154
-0.026177492 -0.001400474 0.0026723524 4290259229
-0.024504907 0.00022888742 0.0012512282 4290586393
-0.02284332 0.0018580593 -0.0001690723 4290716699
-0.020806581 0.0011096597 0.00035827653 4290062624
-0.018633068 -0.000430963 0.0015341905 4289866529
-0.016448811 -0.0019711903 0.0027094563 4290062623
-0.014527567 -0.0019264533 0.0025872705 4289539619
-0.012606461 -0.001881625 0.0024651648 4289997598
-0.010970138 -0.00025236048 0.001046977 4290782744
-0.0091998205 0.00058471411 0.00027745636 4291306259
-0.0072872937 0.00062964484 0.00015612179 4290913813
-0.0050739497 -0.00090926234 0.0013300902 4291306259
-0.0031563044 -0.00086399447 0.0012085917 4290586394
-0.0010828897 -0.0016104449 0.0017344221 4289997599
0.0009958148 -0.0023567001 0.0022599702 4289735713
0.0030797794 -0.0031026984 0.0027852845 4290193693
0.0046767518 -0.0014735265 0.001370213 4290717209
0.0062626824 0.00015545543 -4.4106506e-05 4291044629
0.0078375563 0.0017843312 -0.0014576851 4291044628
0.0099181011 0.0010386063 -0.00093189068 4290979094
0.012178883 -0.0004983386 0.00023970008 4291175444
0.014628015 -0.0028261943 0.0020565079 4290586393
0.016912892 -0.004362369 0.0032267212 4290455578
0.018475972 -0.0027333517 0.0018142019 4290586139
0.019656338 0.00047770888 -0.00088817859 4290389788
0.021003328 0.0028972812 -0.0029440108 4291043864
0.022907615 0.0029435065 -0.0030637165 4290847769
0.025199674 0.0014079399 -0.0018937057 4290782744
0.027502388 -0.00012731459 -0.00072425138 4290716954
0.029616363 -0.00087141152 -0.00019995123 4290323998
0.032341965 -0.0039875582 0.0022570449 4289211179
-0.031642586 -0.0054508923 0.0038476619 4287640889
-0.029945206 -0.0038170167 0.0024279649 4289212198
-0.028258808 -0.0021832571 0.0010090712 4289800993
-0.026342422 -0.0021393425 0.00088666659 4289474084
-0.024795793 0.00028908625 -0.0011787293 4289932063
-0.022887789 0.0003330484 -0.0013004201 4289539108
-0.020979919 0.00037711486 -0.0014220225 4289866274
-0.01894078 -0.00037329085 -0.00089635979 4289604899
-0.01689633 -0.0011234507 -0.00037094532 4289932064
-0.01498339 -0.0010789279 -0.00049261842 4289735969
-0.013070576 -0.0010342905 -0.0006141942 4289997599
-0.011157904 -0.00098953489 -0.00073567173 4289605154
-0.0092453733 -0.00094469823 -0.000857078 4289997598
-0.0074806958 -0.00010553189 -0.0016245111 4290521113
-0.0054207593 -0.0008547008 -0.0010996121 4290063134
-0.0033555254 -0.0016036718 -0.00057492033 4289866784
-0.0011291653 -0.0031464007 0.00059507508 4289343269
0.00079075992 -0.0031008674 0.00047358917 4289081638
0.0025492311 -0.0022613574 -0.00029308535 4289474084
0.0044660941 -0.0022156872 -0.00041422108 4290128414
0.0060493201 -0.00058236346 -0.0018251641 4290324764
0.0077909529 0.00025703665 -0.0025905585 4291044374
0.0095269829 0.0010963874 -0.0033555352 4291109909
0.011782065 -0.00044497009 -0.0021868437 4290521114
0.014047869 -0.0019860631 -0.0010187477 4290455578
0.016324319 -0.0035267472 0.00014871592 4290258973
0.018062338 -0.002686982 -0.00061611412 4290193694
0.019794732 -0.0018472783 -0.0013805339 4290062623
0.020956069 0.0013721129 -0.0040752487 4290847513
0.022860259 0.0014183242 -0.0041949567 4291043864
0.024958163 0.00067152642 -0.0036713665 4291109909
0.027454562 -0.0016612103 -0.0018619397 4290651418
0.029568382 -0.0024074996 -0.0013392586 4289866783
0.032293618 -0.0055323578 0.0011112839 4289539619
-0.030104388 -0.0045554759 0.00064212037 4288754473
-0.028656151 -0.0013232608 -0.0020662681 4289735714
-0.026868507 -0.00048248842 -0.002834365 4289866784
-0.025209565 0.0011552479 -0.004248152 4290520859
-0.023309875 0.0011990061 -0.0043693208 4289539108
-0.021281708 0.00044601038 -0.0038446239 4289473829
-0.019116912 -0.001103458 -0.0026746623 4289931808
-0.017075382 -0.0018558917 -0.0021507042 4289539618
-0.015165299 -0.0018114313 -0.0022721915 4289866784
-0.013255347 -0.0017668423 -0.0023935724 4289997599
-0.011345524 -0.0017221835 -0.0025148923 4289866784
-0.0095807686 -0.00088094734 -0.0032807903 4289670434
-0.0078215972 -3.9760023e-05 -0.0040462734 4289801504
-0.0057672858 -0.00079122558 -0.0035226287 4289735969
-0.0035546273 -0.002338721 -0.0023550717 4289735969
-0.0013312176 -0.0038859248 -0.0011880933 4289605154
0.00074438006 -0.0046365745 -0.00066556316 4289343524
0.0025027767 -0.003794902 -0.0014306228 4289604899
0.0044195428 -0.0037492579 -0.0015517701 4289474084
0.0061694533 -0.0029075746 -0.002316135 4289735713
0.0077443644 -0.0012700297 -0.0037232642 4289932063
0.0094803423 -0.0004284922 -0.0044866088 4290390299
0.01138553 -0.00038274936 -0.0046067466 4289932319
0.013823196 -0.0027239802 -0.0027988898 4290455324
0.015916444 -0.0034734858 -0.0022769375 4290128414
0.017831966 -0.0034272587 -0.0023975493 4289931808
0.019747309 -0.0033809273 -0.0025180709 4289931808
0.021285631 -0.0017436659 -0.0039224504 4289931553
0.023004033 -0.00090197939 -0.004684262 4290128414
0.024910659 -0.00085562002 -0.0048040571 4290324764
0.027013637 -0.0016044378 -0.0042823805 4289670433
0.029321156 -0.0031482335 -0.0031196713 4289802268
0.031639323 -0.0046916436 -0.0019576126 4289474594
-0.030378364 -0.0044900239 -0.0017853696 4288622129
-0.029053111 -0.00044994615 -0.005131728 4289342758
-0.027273718 0.00039276388 -0.0058977143 4291175188
-0.025499869 0.001235486 -0.0066632424 4291044119
-0.023479957 0.00048006512 -0.006139758 4291043863
-0.02158324 0.00052386802 -0.006260653 4290062368
-0.019292902 -0.0018290901 -0.0044496008 4289670434
-0.017388266 -0.0017848662 -0.0045708236 4289932319
-0.015347064 -0.0025393637 -0.0040483745 4289801248
-0.01357938 -0.0016961158 -0.0048130127 4289801504
-0.011817265 -0.000852881 -0.0055772094 4289735713
-0.0099158809 -0.0008083079 -0.0056979102 4291240468
-0.0081622228 3.4973957e-05 -0.0064614629 4291371539
-0.0061135367 -0.0007188376 -0.0059390338 4290979094
-0.0039065704 -0.0022708308 -0.0047743628 4290324763
-0.0015331432 -0.0046208794 -0.0029678699 4289670689
0.0005395636 -0.005373803 -0.0024467988 4289409314
0.0021340176 -0.0037317248 -0.003852136 4289408803
0.0038813204 -0.002888042 -0.0046148016 4289474339
0.0054564178 -0.0012462721 -0.0060187271 4289866784
0.0071898103 -0.00040272158 -0.0067803646 4290717209
0.0089175776 0.00044080522 -0.0075416407 4290651928
0.010814518 0.00048633479 -0.0076612695 4289997599
0.012888767 -0.00026594661 -0.0071397698 4289931808
0.015148453 -0.0018157437 -0.0059777303 4289866529
0.01723592 -0.0025674896 -0.0054569775 4290062623
0.019328624 -0.003319026 -0.0049364939 4290062623
0.020861566 -0.0016776007 -0.0063372636 4289931808
0.022574514 -0.00083389133 -0.0070971283 4290193438
0.024281844 9.7695738e-06 -0.0078565758 4289997598
0.026180029 5.5971555e-05 -0.0079758046 4289539618
0.028675668 -0.0022897413 -0.0061760489 4289604898
0.030985489 -0.0038377792 -0.0050166841 4289539363
0.033715218 -0.0069798315 -0.0025793756 4288492334
-0.03065208 -0.0044156341 -0.0042061559 4289341738
-0.029332098 -0.00036484934 -0.007544118 4289996833
-0.027558226 0.00047993101 -0.0083081182 4290193949
-0.025666881 0.00052337814 -0.0084288418 4289670179
-0.023524143 -0.0010355432 -0.0072641298 4290913558
-0.021756042 -0.00019055232 -0.0080275051 4290521114
-0.019599937 -0.0017489484 -0.0068634832 4290128414
-0.017566971 -0.0025059539 -0.00634216 4290128413
-0.015665323 -0.0024616984 -0.0064631179 4289866784
-0.0137638 -0.0024173497 -0.0065839961 4289997598
-0.012004483 -0.0015719626 -0.0073464392 4289866783
-0.009961158 -0.0023283032 -0.0068254592 4291044373
-0.0083550662 -0.00068211276 -0.0082286783 4290586393
-0.0064595342 -0.00063748751 -0.0083488654 4291371539
-0.0044111982 -0.0013933503 -0.0078280093 4290979094
-0.0020462424 -0.0037501208 -0.0060258326 4289670689
1.8104911e-05 -0.0045054243 -0.0055058566 4289736479
0.0016044229 -0.0028592641 -0.006907423 4289998110
0.0031796992 -0.0012131869 -0.0083082309 4289735969
0.004910484 -0.00036764611 -0.0090681771 4290193948
0.0068049282 -0.00032236241 -0.0091877868 4291306259
0.0086992085 -0.00027699769 -0.0093073221 4291437074
0.01059331 -0.00023152959 -0.009426767 4291240723
0.012664661 -0.00098601263 -0.0089067463 4290324764
0.014741279 -0.0017403471 -0.0083869677 4290259228
0.016640298 -0.0016945102 -0.0085065356 4290193694
0.018539138 -0.0016486053 -0.0086260382 4289997343
0.020249531 -0.00080282241 -0.0093842288 4290259228
0.021763302 0.00084254332 -0.010780513 4290913558
0.02345974 0.0016880883 -0.011537679 4291306259
0.025150545 0.0025336165 -0.012294472 4291306259
0.027632333 0.00018098205 -0.010498673 4289669924
0.030130208 -0.002171163 -0.0087038102 4289145899
0.033257872 -0.0069209607 -0.0049968502 4286332993
-0.031040326 -0.0035286346 -0.0072621354 4289473573
-0.029610828 -0.00027077924 -0.0099499263 4290258973
-0.027722239 -0.00022748578 -0.010070543 4289408804
-0.02595672 0.00061937328 -0.010832317 4289016359
-0.023945373 -0.00014060736 -0.010311535 4289932063
-0.022185508 0.00070633367 -0.01107279 4290193949
-0.020037822 -0.00085662957 -0.0099114124 4289997598
-0.018013231 -0.0016159676 -0.0093912221 4289932573
-0.016119871 -0.0015719142 -0.0095116589 4290063644
-0.014365926 -0.00072465744 -0.010272201 4290259484
-0.012475546 -0.00068046525 -0.010392295 4290848023
-0.010440584 -0.0014391253 -0.0098724393 4289277989
-0.0085477605 -0.0013946532 -0.0099925213 4289539619
-0.0069554076 0.0002556406 -0.011391573 4290390043
-0.0049154088 -0.00050265994 -0.010871783 4290063133
-0.0027145445 -0.002063381 -0.0097131142 4290521113
-0.00050292164 -0.0036238362 -0.0085550435 4290063134
0.0010752454 -0.0019734749 -0.0099528972 4289867294
0.002806142 -0.0011258526 -0.010711304 4290194459
0.0043649524 0.00052423682 -0.012107795 4290063133
0.0062511414 0.00056930725 -0.012226894 4289801759
0.0083090737 -0.00018789154 -0.011707734 4289867038
0.010372266 -0.00094484631 -0.011188894 4291175444
0.012086041 -9.7195618e-05 -0.011945894 4290063134
0.014154322 -0.00085386261 -0.01142725 4290455833
0.016045086 -0.00080823805 -0.011546308 4290194203
0.018121183 -0.0015645451 -0.011028029 4290782999
0.019637905 8.5142441e-05 -0.012421338 4290521113
0.021334499 0.00093281642 -0.013177004 4290521114
0.023025483 0.0017803824 -0.013932223 4290782998
0.024907209 0.0018261708 -0.014050426 4290521369
0.02738598 -0.00053305645 -0.01225929 4291044883
0.030082658 -0.0036934549 -0.0098328851 4289343778
0.033005334 -0.0076547782 -0.006771687 4288295218
-0.031428177 -0.0026284135 -0.010308233 4288818734
-0.03000674 0.00063796062 -0.012989031 4290847769
-0.028246637 0.0014867494 -0.013748933 4290716954
-0.026492082 0.0023355624 -0.014508443 4290390043
-0.02449182 0.0015731072 -0.013988528 4290455578
-0.022486232 0.00081092026 -0.013468917 4291044629
-0.020475324 4.8981048e-05 -0.012949556 4289932573
-0.018459089 -0.0007127244 -0.01243045 4289932573
-0.016437531 -0.0014742087 -0.011911612 4290063644
-0.014549881 -0.0014301823 -0.012031606 4290324763
-0.012662344 -0.0013860748 -0.012151532 4290979094
-0.010774955 -0.0013418389 -0.01227135 4290782743
-0.0090350732 -0.00049243215 -0.013029155 4290063389
-0.0071506649 -0.00044806954 -0.013148637 4290324764
-0.0052664056 -0.00040362589 -0.013268048 4290913559
-0.0030712187 -0.0019688932 -0.012112229 4290193949
-0.0010235459 -0.0027289554 -0.011594445 4290259484
0.00086841732 -0.0026840228 -0.011714116 4289539618
0.002432853 -0.0010295566 -0.013107803 4290390553
0.0041526705 -0.00017994829 -0.013863834 4290651928
0.0058669001 0.00066962373 -0.01461944 4289147429
0.0079192072 -8.9848414e-05 -0.014101591 4289081893
0.0099767894 -0.00084913522 -0.013584033 4290063133
0.012039676 -0.0016082483 -0.013066699 4290783253
0.013747789 -0.00075843651 -0.013821706 4290325018
0.01581575 -0.0015172614 -0.013304569 4290259994
0.017703526 -0.0014716662 -0.013423407 4290259994
0.019214846 0.00018228032 -0.014813183 4290979094
0.020715125 0.0018359898 -0.016202169 4289670944
0.022397965 0.0026855087 -0.016955273 4289278244
0.024664037 0.0011232225 -0.015803045 4289801503
0.026940785 -0.00043872558 -0.014651431 4289736223
0.029833421 -0.0044117775 -0.011596456 4289278243
0.032752976 -0.0083840722 -0.0085431691 4289407528
-0.031930324 -0.00090687256 -0.013983062 4289342758
-0.030402269 0.0015599811 -0.016018359 4289539363
-0.028650407 0.0024107564 -0.016776115 4290389789
-0.02678125 0.0024536802 -0.016895434 4291044373
-0.024786644 0.0016889507 -0.016376829 4290848023
-0.022786699 0.00092445593 -0.015858481 4290782743
-0.02078142 0.00016014744 -0.015340351 4289801758
-0.018904541 0.00020370353 -0.015459824 4289605408
-0.016891345 -0.00056014862 -0.01494207 4289801504
-0.014872819 -0.0013237898 -0.014424592 4290063134
-0.01313274 -0.00047241803 -0.015180951 4290848279
-0.011253633 -0.00042838417 -0.01530025 4291175444
-0.0092273504 -0.0011915243 -0.014783025 4291044628
-0.0071957558 -0.0019544428 -0.014266064 4291175444
-0.0053116158 -0.001910001 -0.014385467 4290848279
-0.0034276247 -0.001865468 -0.014504788 4289997598
-0.0013855845 -0.0026278268 -0.013988258 4289997598
0.00033994019 -0.0017761104 -0.014743183 4289801758
0.002059862 -0.00092443172 -0.015497681 4290521624
0.0036078691 0.00073400978 -0.016887005 4291306259
0.0054829568 0.0007788064 -0.017005412 4291044373
0.0073578805 0.00082365889 -0.017123763 4291044629
0.0094071478 6.2017702e-05 -0.016607283 4291306259
0.011284478 0.00010710116 -0.016725656 4290979604
0.013161622 0.00015227776 -0.016843945 4290259739
0.015038624 0.00019751024 -0.016962182 4289997853
0.016915433 0.00024284516 -0.017080326 4289801504
0.018604033 0.001094521 -0.017832292 4290717209
0.02009619 0.0027523963 -0.019217594 4290848023
0.021964364 0.0027977256 -0.019335043 4289997344
0.024421014 0.00042482279 -0.017552292 4289997344
0.026694849 -0.001141577 -0.016403755 4290651419
0.029584318 -0.0051255543 -0.013356728 4290454304
0.032296382 -0.0083029354 -0.010944208 4290584354
-0.032317344 2.2085384e-05 -0.017007913 4288426033
-0.030680075 0.0016850866 -0.01840107 4289473318
-0.028693628 0.00091779139 -0.017883712 4289408294
-0.026579078 -0.00065931212 -0.016730251 4289146919
-0.024579223 -0.0014261408 -0.016213559 4289473828
-0.022702247 -0.0013828101 -0.016333207 4289669923
-0.020825386 -0.0013393741 -0.016452769 4289866529
-0.018814992 -0.0021055937 -0.01593655 4289800993
-0.016935639 -0.0020619007 -0.016056122 4289604899
-0.015056405 -0.0020181034 -0.016175607 4289801249
-0.013460919 -0.00035500713 -0.017565385 4289866784
-0.011587378 -0.0003111288 -0.01768435 4289932319
-0.0095667094 -0.0010766489 -0.017168367 4289801759
-0.0073907822 -0.0026512258 -0.016017992 4289736223
-0.0058148578 -0.00098826271 -0.017406212 4289801503
-0.0037837327 -0.0017531877 -0.016890708 4289866783
-0.0019054338 -0.0017086929 -0.017009597 4289670689
-2.7291477e-05 -0.0016641058 -0.017128406 4290063134
0.0016871616 -0.00081040431 -0.017880958 4289735968
0.0033960119 4.3309294e-05 -0.01863312 4290063389
0.0052682683 8.8009052e-05 -0.018751368 4290913558
0.0071403831 0.00013278984 -0.018869545 4291306514
0.009186767 -0.00063117314 -0.018354485 4291044629
0.011238419 -0.00139488 -0.017839735 4290259738
0.012935609 -0.00054107048 -0.01859081 4290128923
0.014809802 -0.00049592275 -0.018708881 4289867038
0.016498506 0.00035789516 -0.019459335 4289997598
0.018369645 0.00040313322 -0.019577092 4290128414
0.019859165 0.0020652087 -0.020958981 4290389533
0.021724515 0.0021104533 -0.021076266 4291043863
0.023785859 0.0013474924 -0.020561744 4291043863
0.025852457 0.00058472902 -0.020047503 4290455324
0.028730661 -0.0034104185 -0.017007876 4289800228
0.031431526 -0.0065967683 -0.014601124 4289276458
-0.03213124 -0.0030975891 -0.016846329 4288230195
-0.030488547 -0.0014300952 -0.018236656 4288819754
-0.028496869 -0.0021994542 -0.017721258 4289277733
-0.026377138 -0.0037808227 -0.016571315 4289212453
-0.024372041 -0.0045496551 -0.016056612 4289146663
-0.022489764 -0.0045062341 -0.016176624 4289146663
-0.020738471 -0.0036507007 -0.016930792 4289474083
-0.018725548 -0.0044190297 -0.016416349 4289474083
-0.01711623 -0.002751559 -0.017803917 4290193438
-0.015239835 -0.0027078465 -0.017923234 4289343269
-0.013647072 -0.0010405043 -0.019309632 4289539619
-0.011631913 -0.0018083788 -0.01879503 4290128413
-0.0096114427 -0.0025760555 -0.018280638 4289605154
-0.0075856596 -0.0033434867 -0.017766565 4289081893
-0.005859822 -0.0024877223 -0.018518504 4289212453
-0.0038288832 -0.0032548159 -0.018004596 4289866529
-0.001950711 -0.0032103471 -0.018123496 4289670178
-0.00023343414 -0.0023545162 -0.018874692 4289670178
0.0016417354 -0.0023099566 -0.018993279 4289801249
0.003516756 -0.0022652573 -0.019111753 4289277989
0.0055605546 -0.0030316315 -0.018598352 4289212453
0.0072663426 -0.0021757004 -0.019348543 4289735969
0.0091409013 -0.0021307957 -0.019466825 4289474339
0.010838225 -0.0012748549 -0.020216396 4289801504
0.012889564 -0.0020407443 -0.019703172 4289801503
0.014581122 -0.001184796 -0.020452272 4289932574
0.016267106 -0.00032895617 -0.021200929 4289408804
0.018135436 -0.00028382707 -0.021318538 4289735969
0.019812942 0.00057196338 -0.022066545 4289735459
0.021678224 0.00061717071 -0.022183852 4289670178
0.023543321 0.00066245906 -0.022301083 4289931553
0.025607049 -0.00010256749 -0.021788293 4289669923
0.0280791 -0.0024880641 -0.02001616 4289603878
0.030567229 -0.0048730732 -0.018245043 4288883758
0.033485398 -0.0088780513 -0.015215894 4287379259
-0.03194537 -0.0062257224 -0.016691096 4288295729
-0.030297253 -0.004553807 -0.018078497 4288558123
-0.028180405 -0.0061396491 -0.016931724 4288558123
-0.026175428 -0.0069107916 -0.016418731 4288558123
-0.024165101 -0.0076816995 -0.015905995 4288623658
-0.022277527 -0.0076381415 -0.016026333 4288623658
-0.020651657 -0.0059661898 -0.017411904 4288689449
-0.018769737 -0.0059225378 -0.017531715 4288886053
-0.017024174 -0.0050647832 -0.018283768 4289409058
-0.015145209 -0.0050210035 -0.018403243 4289016868
-0.013549715 -0.0033492739 -0.019786596 4288755239
-0.01138762 -0.004933164 -0.01864196 4289147939
-0.0096561387 -0.004075306 -0.019392796 4289344290
-0.0076305568 -0.0048449175 -0.01888033 4288820518
-0.0057522207 -0.0048006489 -0.01899939 4288820518
-0.0035634711 -0.0063834637 -0.017856184 4288689703
-0.0016799644 -0.0063388925 -0.017975438 4289409569
0.0002033934 -0.0062942412 -0.018094622 4289278243
0.0019231737 -0.0054360959 -0.018844297 4288820263
0.0039696619 -0.0062046489 -0.018332737 4288951334
0.0056837276 -0.005346471 -0.019081924 4289016613
0.0075637624 -0.0053015202 -0.019200616 4288624424
0.0094436705 -0.0052565122 -0.019319253 4288689449
0.011146404 -0.0043983632 -0.020067545 4288951333
0.013202988 -0.0051662568 -0.01955631 4289082148
0.014899969 -0.0043080752 -0.020304114 4289736478
0.016406178 -0.0026370445 -0.021680763 4289343524
0.018277138 -0.002591847 -0.021798534 4288951079
0.019766748 -0.00092111342 -0.023173988 4289408803
0.021438643 -6.3279644e-05 -0.023920018 4289081638
0.023300946 -1.8099323e-05 -0.024037104 4289147174
0.025361829 -0.00078538619 -0.023525767 4289081384
0.02762942 -0.0023649889 -0.022386549 4289080619
0.030111872 -0.0047567319 -0.020619908 4288098868
-0.031759743 -0.0093623381 -0.016542157 4288361009
-0.029989053 -0.008502597 -0.017294763 4288296238
-0.027984183 -0.009276038 -0.016783472 4288493354
-0.025851373 -0.010865806 -0.015640838 4288558123
-0.023833092 -0.011638707 -0.015130231 4288492843
-0.022065509 -0.010778601 -0.015882315 4288558123
-0.020434219 -0.009102134 -0.01726504 4288754728
-0.01868045 -0.0082421107 -0.018016068 4288951078
-0.017068408 -0.0065659368 -0.019397378 4289213218
-0.014911775 -0.008154464 -0.018255824 4289540384
-0.013169222 -0.0072944062 -0.019005919 4288689703
-0.010999233 -0.0088824192 -0.017865062 4289016868
-0.009259671 -0.0080222115 -0.018614804 4289147429
-0.0073758662 -0.0079779448 -0.018734308 4288689703
-0.0051872358 -0.0095652575 -0.017594365 4288820518
-0.0032982752 -0.0095206648 -0.017714044 4288624424
-0.0012515262 -0.010291675 -0.017204333 4288689703
0.00063987076 -0.010246839 -0.017324029 4289736734
0.0023677573 -0.0093863439 -0.018072611 4289082404
0.0040900633 -0.0085258735 -0.018820835 4288820518
0.0058067963 -0.0076654623 -0.019568577 4288951334
0.0073464289 -0.0059897676 -0.020944385 4288624424
0.0092235059 -0.0059448322 -0.021062847 4288885798
0.011100434 -0.0058998289 -0.021181248 4288820263
0.012977198 -0.0058547454 -0.021299576 4289212964
0.014853805 -0.0058096051 -0.021417849 4289212964
0.016730271 -0.0057643959 -0.021536058 4288820263
0.018418767 -0.0049041254 -0.022281621 4288689449
0.019911118 -0.0032289689 -0.023654077 4288558634
0.021778956 -0.0031837546 -0.023771584 4288558889
0.023842551 -0.0039532543 -0.023262113 4289016614
0.025911465 -0.0047226283 -0.022752903 4289146918
0.027985603 -0.0054917345 -0.022243991 4288688173
0.030473173 -0.0078898361 -0.020482572 4288425779
-0.033579178 -0.011731664 -0.016908994 4286594624
-0.031803057 -0.010869701 -0.017660463 4288753708
-0.030032448 -0.01000781 -0.018411463 4289081638
-0.027907968 -0.011602241 -0.017271625 4288493353
-0.02589523 -0.012377556 -0.016762367 4288493353
-0.023877148 -0.01315265 -0.016253375 4288428074
-0.021981686 -0.013108945 -0.016374242 4288492843
-0.020347677 -0.011428127 -0.017753873 4288362029
-0.018591262 -0.010565859 -0.018503519 4288558123
-0.016840395 -0.0097036622 -0.019252695 4288754984
-0.014678571 -0.011296466 -0.018114667 4289212963
-0.012789093 -0.011252376 -0.018234765 4288689448
-0.010755479 -0.012026358 -0.017726203 4288951588
-0.0091575235 -0.010345729 -0.019103132 4289671199
-0.0071214214 -0.011119514 -0.01859455 4288493353
-0.0050800145 -0.01189303 -0.018086271 4288624679
-0.0030333251 -0.012666337 -0.017578265 4288624679
-0.0011391863 -0.012621539 -0.01769821 4288624679
0.00091538578 -0.01339446 -0.017190555 4289082403
0.002648674 -0.01253171 -0.017937895 4288493609
0.0042103752 -0.01085132 -0.019311994 4288428074
0.0057610348 -0.0091710482 -0.020685364 4288493353
0.0076436028 -0.0091261147 -0.020804273 4288558889
0.0095259994 -0.0090810768 -0.020923091 4288493609
0.011408262 -0.009035971 -0.021041846 4288558888
0.01293119 -0.0073561044 -0.022413196 4289147939
0.014990009 -0.008128278 -0.021905327 4289212963
0.016869083 -0.0080830008 -0.022023698 4288492843
0.018935755 -0.0088548502 -0.021516224 4288558123
0.020436309 -0.0071752127 -0.022885935 4288689449
0.022505365 -0.0079468554 -0.022378501 4288689449
0.02418793 -0.0070843929 -0.023121949 4288428073
0.026262097 -0.0078557823 -0.02261474 4288230703
0.02814021 -0.0078101554 -0.022732772 4288034099
-0.033399243 -0.014883216 -0.016770711 4287117629
-0.031617753 -0.014019011 -0.017520869 4288034099
-0.029958807 -0.012333829 -0.018899348 4288819754
-0.027951606 -0.013111619 -0.018391406 4288558888
-0.02593907 -0.013889128 -0.017883763 4288493353
-0.023921192 -0.01466639 -0.017376369 4288493353
-0.022025857 -0.014622725 -0.017497255 4288427564
-0.020000014 -0.015399601 -0.016990216 4288296749
-0.018368844 -0.013714418 -0.01836637 4288492843
-0.016612601 -0.01284993 -0.019114275 4288820518
-0.014861915 -0.01198543 -0.019861797 4288885799
-0.012833789 -0.01276191 -0.019354574 4289213218
-0.010944568 -0.012717729 -0.019474583 4288689959
-0.0090554655 -0.012673445 -0.019594504 4289802268
-0.0071664751 -0.012629103 -0.019714372 4288428073
-0.0049729124 -0.014224979 -0.018581275 4288493608
-0.0030787513 -0.014180311 -0.018701321 4288232234
-0.0011847317 -0.01413555 -0.018821284 4288624679
0.00070915371 -0.014090695 -0.018941168 4288624679
0.0027661249 -0.014865659 -0.018435227 4288624423
0.0044964999 -0.014000734 -0.019180713 4288559144
0.006052658 -0.012316088 -0.020551195 4288820774
0.0077691525 -0.011451269 -0.021295713 4288624423
0.0098282844 -0.0122259 -0.020789623 4288689959
0.011539049 -0.011361062 -0.021533662 4288559144
0.013244249 -0.01049633 -0.022277255 4289475104
0.015126109 -0.010451126 -0.022395905 4288754984
0.017192774 -0.011225211 -0.021890095 4288492843
0.01926472 -0.011999182 -0.021384552 4288558123
0.020770751 -0.010315064 -0.022751445 4288558634
0.022845097 -0.011088793 -0.022245992 4288493354
0.024533078 -0.01022405 -0.022988182 4288166444
0.026413977 -0.010178447 -0.023106458 4288100144
0.028294764 -0.010132799 -0.023224689 4288035884
0.030583277 -0.011725008 -0.022096474 4287706678
-0.033665594 -0.01475014 -0.019148417 4287967289
-0.032003853 -0.013060667 -0.020523924 4287903029
-0.030236129 -0.012194532 -0.021271534 4288492333
-0.028234579 -0.012974596 -0.020764904 4289015848
-0.026227679 -0.013754413 -0.020258524 4288623914
-0.024215426 -0.014534069 -0.01975238 4288492843
-0.022325665 -0.014490522 -0.019872904 4288427309
-0.020174921 -0.016092569 -0.018740932 4288296238
-0.018413197 -0.015225893 -0.019487653 4288493098
-0.016521037 -0.015181998 -0.01960811 4288427819
-0.014767688 -0.014315324 -0.020354155 4288951589
-0.012878459 -0.014271274 -0.020474261 4289540384
-0.010989357 -0.014227133 -0.020594288 4288755238
-0.009100385 -0.014182875 -0.020714218 4289606429
-0.0072115213 -0.014138548 -0.020834088 4288362283
-0.0051704869 -0.014916448 -0.020329041 4288427819
-0.0032791644 -0.014871877 -0.020448929 4288362283
-0.0013879687 -0.014827201 -0.020568727 4288624169
0.000503093 -0.014782455 -0.020688463 4288624169
0.0027203336 -0.016381755 -0.019559832 4288492843
0.0047824383 -0.017158773 -0.01905576 4288492843
0.006512627 -0.016291581 -0.019799618 4288624424
0.0080659389 -0.014602596 -0.021166641 4288297258
0.0097822696 -0.013735605 -0.021909453 4288493609
0.011493012 -0.012868639 -0.022651907 4289147938
0.013377637 -0.012823447 -0.022770789 4289279009
0.015444294 -0.013599863 -0.022266639 4288428074
0.017331347 -0.013554487 -0.02238558 4288428074
0.019218244 -0.013509042 -0.02250446 4288558889
0.020724334 -0.011820617 -0.023868155 4288558634
0.022798538 -0.012596549 -0.023364328 4288558634
0.02448649 -0.011729678 -0.024104932 4288428074
0.026764289 -0.013326637 -0.022979384 4288165169
0.028449208 -0.012459677 -0.02371975 4287575863
-0.02275297 -0.013524323 -0.022866778 4286922299
-0.020610642 -0.015130902 -0.021737501 4287183929
-0.018723939 -0.015087243 -0.021857692 4287576628
-0.01683734 -0.015043478 -0.021977797 4287772723
-0.015089493 -0.014174782 -0.02272189 4287576629
-0.013347186 -0.013306121 -0.023465563 4288427308
-0.011322282 -0.01408688 -0.022961337 4288296493
-0.0091452673 -0.015692126 -0.021833805 4288885288
-0.0072565153 -0.015647814 -0.021953674 4288100143
-0.0053679124 -0.015603395 -0.022073455 4288034864
-0.0036343709 -0.014734421 -0.022816259 4288230958
-0.0014333874 -0.016338723 -0.021689959 4288492079
0.00045756996 -0.016294014 -0.021809716 4288295984
0.0025114715 -0.017073421 -0.02130683 4288296239
0.0044048652 -0.01702847 -0.021426603 4288557868
0.0061296001 -0.016159326 -0.022168493 4288296494
0.0078487471 -0.015290206 -0.022909949 4288492589
0.0097362846 -0.015245141 -0.023029162 4288427819
0.011447012 -0.014376024 -0.023770012 4289212964
0.013510957 -0.015154796 -0.023267394 4288951078
0.015215933 -0.014285671 -0.024007775 4288362283
0.017469831 -0.015887901 -0.022884216 4288296238
0.018984266 -0.014195029 -0.024245273 4288689194
0.020868212 -0.014149636 -0.024363954 4288689194
0.022752009 -0.014104173 -0.024482567 4288820009
0.024439961 -0.013235173 -0.02522159 4288820009
0.026519135 -0.014013056 -0.024719615 4288426288
0.028201371 -0.013144082 -0.025458194 4288818479
-0.0017939582 -0.016196946 -0.024053637 4288623659
0.0072893649 -0.014320841 -0.025890782 4286464829
0.0091686621 -0.01427599 -0.026009487 4288951589
0.010694608 -0.012578901 -0.027368266 4287708209
0.012926832 -0.014186105 -0.026246728 4287773233
0.025877543 -0.013043916 -0.027693888 4286136643
-0.025896218 0.0027081491 0.041933097 4278800038
-0.024370924 0.0057765767 0.039096579 4279062179
-0.016671911 0.0074700676 0.037235558 4279717528
-0.014290493 0.0052497312 0.039137863 4278800038
-0.012163378 0.0045404676 0.039687101 4279193503
-0.010030985 0.0038315039 0.040236056 4279193503
-0.0083154216 0.0053883605 0.038757496 4280242319
-0.0068977624 0.0084552951 0.035928652 4280240279
-0.0049174875 0.0085015632 0.035802826 4278270659
-0.0027885213 0.0077929646 0.036352336 4278928049
-4.7907233e-05 0.0040647853 0.03960178 4281552764
0.0022567809 0.0026020203 0.040824946 4282077298
0.0042580813 0.0026492309 0.040698122 4280569228
0.0064189658 0.0019417144 0.041245922 4282601579
0.0085850731 0.0012344951 0.041793454 4282798439
0.010095559 0.0035459902 0.039643954 4282470509
0.011757448 0.0051025916 0.038169622 4279187893
0.013578869 0.0059045963 0.037369866 4281091979
0.0164349 0.0021799244 0.040612653 4282470764
-0.028056435 0.0018190239 0.04019706 4281422458
-0.026754953 0.0064121187 0.036015045 4279193249
-0.023399565 0.010291712 0.032384962 4279189169
-0.021431789 0.010336826 0.032259293 4278731188
-0.017366905 0.0096697416 0.032683022 4278668459
-0.015264373 0.0089576934 0.0332321 4278734504
-0.013291731 0.0090033654 0.033106454 4278866085
-0.01118134 0.0082917232 0.033655196 4278603433
-0.0093469322 0.0090950374 0.03285544 4279126949
-0.005987145 0.012216164 0.029909682 4278532544
-0.0040262491 0.012262112 0.029785186 4278401983
-0.0014594048 0.009279659 0.032354534 4278993838
0.00066626072 0.0085690301 0.032902792 4279061923
0.0027971789 0.0078586061 0.033450782 4278800039
0.0049333721 0.0071483701 0.033998556 4278865574
0.0072372109 0.0056815483 0.035218775 4278930598
0.010366127 0.0095595662 0.031605847 4278729403
0.014652908 0.0081404019 0.03270106 4278929323
0.017332226 0.0051615052 0.035263948 4280438158
0.019496828 0.0044526681 0.035810389 4280111248
0.021485165 0.0045004599 0.035685051 4279914388
0.023473285 0.0045483187 0.035559777 4278865573
0.025087349 0.0061088055 0.034092207 4279519903
0.031618416 0.0039844494 0.035730198 4278401983
-0.028328832 0.001740288 0.037662134 4281749879
-0.027148627 0.0071064737 0.032816134 4278864808
-0.023809571 0.010996612 0.029195219 4279716509
-0.021850117 0.011041535 0.029070079 4279520924
-0.019763835 0.010326734 0.029618423 4279257253
-0.015575372 0.0088977348 0.030714348 4278864553
-0.013473198 0.0081836376 0.031261928 4278603944
-0.011503574 0.0082293618 0.031136565 4278406828
-0.0084246099 0.012878168 0.026852094 4279716508
-0.006617859 0.013683263 0.026055899 4279324573
-0.0019609556 0.0099782627 0.029167511 4278929834
0.00015636533 0.0092652161 0.029714726 4278865063
0.0022789165 0.0085524376 0.03026164 4278734248
0.0044067428 0.0078398939 0.0308083 4278472108
0.0063774437 0.0078866128 0.030683585 4278471088
0.0081828684 0.008692408 0.029888023 4278470069
0.0099826455 0.0094981436 0.029092871 4278601138
0.013911694 0.0095919762 0.028844737 4278535858
0.016403779 0.0073628593 0.030731559 4279062433
0.018375918 0.0074101854 0.030607179 4278472874
0.020347849 0.0074575897 0.030482873 4278603434
0.021951288 0.0090221297 0.029019181 4278602923
0.032965288 0.0047109164 0.032414332 4279258529
-0.028600987 0.0016705245 0.035133939 4281815669
-0.027425949 0.0070518684 0.030299641 4278996389
-0.018106975 0.010325488 0.026985116 4278732463
-0.015886132 0.0088468585 0.028203264 4278930598
-0.013924673 0.0088923033 0.028078347 4278603944
-0.012101136 0.0096996501 0.027282469 4278472619
-0.0087573826 0.012837688 0.024350597 4278403259
-0.0068101957 0.012883244 0.024226923 4278273208
-4.4934452e-05 0.0084520038 0.027876586 4278602924
0.0020747185 0.0077369679 0.028422125 4278734248
0.0038804859 0.0085448008 0.027627975 4278537899
0.0079701394 0.007876778 0.028049082 4278273209
0.010102592 0.0071624797 0.028594062 4279520414
0.011899389 0.0079704467 0.027800813 4279258273
0.013690509 0.0087784212 0.027007952 4278273973
0.015475981 0.0095863137 0.026215561 4278471853
0.017613031 0.008872496 0.026760526 4278734249
0.019392624 0.0096804295 0.025968641 4278930598
0.023308367 0.0097748712 0.025722042 4278536114
0.025265895 0.0098222047 0.025598854 4280109463
0.02722317 0.0098696165 0.02547574 4279323044
0.029375151 0.0091566797 0.026020154 4278601393
0.03192763 0.0069231596 0.027898882 4279192739
0.035297617 0.0016488936 0.032445062 4279455643
-0.028759696 0.00084524415 0.033283442 4281946994
-0.027703028 0.0070063192 0.02778979 4278603688
-0.02597817 0.0085799359 0.026323028 4278407084
-0.024142981 0.0093891118 0.025527492 4278471598
-0.020489316 0.011007329 0.023937829 4278733229
-0.01841177 0.010288097 0.02448358 4278734249
-0.016196646 0.008804936 0.025698889 4278407084
-0.014240764 0.0088502727 0.025574349 4278603688
-0.012422774 0.0096597336 0.024780421 4278669479
-0.010610372 0.010469137 0.023986975 4278669224
-0.0026602522 0.0098882075 0.024160411 4278275249
-0.00040014833 0.00840698 0.025373518 4278537898
0.0015570819 0.0084532201 0.025249541 4278407339
0.0035141259 0.0084995367 0.025125634 4278407339
0.013123229 0.009495737 0.02384025 4278402240
0.014900491 0.010305664 0.023049964 4278865574
0.017029218 0.0095894448 0.023593893 4278603434
0.018981867 0.0096364338 0.023470843 4278668458
0.024459653 0.01130341 0.021769771 4278664634
0.026405968 0.011350587 0.021647373 4279123889
0.031088211 0.0083949119 0.024065452 4279126949
0.03464707 0.0023425976 0.029266529 4278996643
-0.029257696 0.0023248326 0.029428214 4281619064
-0.027979847 0.0069697443 0.025286674 4278538409
-0.02637906 0.0093142539 0.023154439 4278538409
-0.024309497 0.008592302 0.023698814 4278735013
-0.022482689 0.0094035547 0.022905581 4278668968
-0.020534687 0.0094483774 0.022781292 4278800038
-0.018716317 0.010259654 0.021988761 4278537898
-0.016639125 0.0095383562 0.022533005 4278603688
-0.014826484 0.010349711 0.021740993 4278668969
-0.01301945 0.011161093 0.020949453 4278472874
-0.011077642 0.011206329 0.020825977 4278538154
-0.008992888 0.010485649 0.021370068 4278734504
-0.0069028586 0.0097652003 0.021913908 4279323554
-0.0051046461 0.010576775 0.021123223 4279388834
-0.0030095205 0.0098566636 0.021666901 4278734759
-0.0009091273 0.0091367736 0.022210315 4278669479
0.001196526 0.0084171277 0.022753486 4278473129
0.002988562 0.0092289876 0.021963516 4278669734
0.0049371272 0.0092752185 0.021840231 4278669223
0.0068854839 0.0093215648 0.021717053 4278995878
0.0086660534 0.010133451 0.020928031 4278405043
0.010611296 0.0101799 0.020805178 4278273719
0.012556329 0.010226438 0.020682408 4279061159
0.01450114 0.01027308 0.020559732 4278537644
0.016445771 0.010319801 0.020437133 4278603434
0.018390156 0.0103666 0.02031461 4278668458
0.020334333 0.010413479 0.020192163 4278669224
0.022278287 0.010460448 0.020069802 4278796724
0.027913988 0.0113666 0.019038953 4278929834
0.030249313 0.0098843463 0.020245137 4279127204
0.033596449 0.0045790263 0.024770128 4278996644
0.037590198 -0.0030191164 0.03128387 4278341294
-0.02941598 0.0015153941 0.02758947 4281684853
-0.028140645 0.00617339 0.023457799 4278407339
-0.026542529 0.0085243359 0.021330645 4278341549
-0.019020624 0.010240253 0.019500574 4279519139
-0.016949065 0.0095166117 0.020043606 4278669224
-0.015141968 0.010330096 0.019253552 4278799784
-0.01306526 0.0096067917 0.019796418 4278669223
-0.010983281 0.0088837817 0.020338999 4278669224
-0.0091820732 0.0096974019 0.019549599 4278602413
-0.0073864982 0.010511069 0.018760616 4278729913
-0.0054480359 0.010556558 0.018637596 4278667694
-0.003358528 0.0098341033 0.019180058 4278668714
-0.0011098608 0.0083439723 0.020387392 4278669223
0.00083623081 0.0083899722 0.020264136 4278603944
0.0029415116 0.0076682381 0.020805784 4278866085
0.0047278553 0.0084822588 0.020017883 4278538409
0.0065085664 0.0092962291 0.019230401 4278669223
0.00794857 0.011645474 0.017114703 4278800039
0.010053046 0.010924129 0.017656704 4278799528
0.012162797 0.010202946 0.018198473 4278799784
0.01462914 0.0079471637 0.020067528 4278407084
0.01639796 0.0087613091 0.01928114 4278472619
0.018342234 0.0088081416 0.019158648 4278538154
0.019918606 0.010389509 0.017709669 4278603688
0.021857008 0.010436349 0.01758766 4278537898
0.023605905 0.011250436 0.016802765 4278668969
0.025733173 0.010530287 0.017343888 4278734503
0.027670905 0.010577362 0.017222108 4278800548
0.029805847 0.0098576043 0.017762825 4278669223
0.033146963 0.0045369361 0.022276806 4279455388
0.036931634 -0.0023163212 0.02811268 4280438668
-0.02946113 -6.0448423e-05 0.026420347 4281946738
-0.028185565 0.0046106214 0.022298386 4278669224
-0.026705876 0.0077390466 0.019510286 4279192228
-0.023316614 0.010911491 0.016600333 4278268874
-0.019195314 0.00945911 0.017684219 4279189678
-0.017258782 0.0095039234 0.017560853 4278668969
-0.015457191 0.01031943 0.016772827 4278407084
-0.013386149 0.0095938649 0.017314391 4278472363
-0.011450049 0.0096389912 0.017191295 4278537899
-0.0062364265 0.012856122 0.01416696 4278530504
-0.001772061 0.0098662339 0.01657721 4278996388
0.00063277781 0.0076017305 0.018444825 4278276269
0.0027351454 0.0068777688 0.01898505 4278669224
0.0045187101 0.0076939166 0.01819896 4278406828
0.014230125 0.0079259686 0.017585745 4278472363
0.016171798 0.0079726502 0.017463354 4278537899
0.017932191 0.0087888986 0.016679214 4278472109
0.019870706 0.0088356677 0.016557144 4278603434
0.021622494 0.0096519329 0.015773635 4278603433
0.029757388 0.0083016343 0.01660876 4278865574
0.03269776 0.0045037717 0.019790176 4278734758
0.03607066 -0.00083124731 0.024290906 4282274923
-0.02973219 -8.9453533e-05 0.023922326 4282142578
-0.028461836 0.004594516 0.019810461 4278799273
-0.026869103 0.0069584474 0.017693333 4278274994
-0.025171701 0.0085490271 0.016241414 4278865064
-0.023485336 0.010139491 0.014790226 4279388068
-0.019499179 0.0094554909 0.015207818 4278667694
-0.017436214 0.0087273493 0.015748119 4278668459
-0.015637428 0.0095449835 0.0149619 4278734504
-0.01370677 0.0095898844 0.014839079 4278668969
-0.009845905 0.0096800178 0.014593709 4278731444
-0.0082069784 0.011270298 0.013146224 4278534838
-0.0062823892 0.011315487 0.013024107 4278531269
-0.0043579862 0.011360792 0.012902087 4278992308
-0.0021261424 0.0098615251 0.014104059 4278471853
0.00011640042 0.0083626658 0.015305396 4278669224
0.0022104084 0.0076363385 0.015844535 4278603688
0.0041477159 0.0076823533 0.015722001 4278602413
0.0059201494 0.0085005201 0.014938312 4278929834
0.014006913 0.0071419645 0.01577119 4278666928
0.015767455 0.0079603698 0.014988562 4278995878
0.017703362 0.0080070216 0.014866618 4278734759
0.019639067 0.0080537181 0.014744721 4278799528
0.021574534 0.0081005413 0.014622938 4278471599
0.02525299 0.0089657623 0.013720021 4278399433
0.027379684 0.0082414038 0.014257981 4278399943
0.029708922 0.006745914 0.015454883 4278991288
0.032448821 0.0037083812 0.017969226 4279062689
0.036021195 -0.0024131024 0.02311766 4281488504
-0.031080592 -0.0063581122 0.026861221 4282208113
-0.030002981 -0.00010951888 0.021431008 4281881204
-0.028853476 0.0053628311 0.016666429 4278864808
-0.025458612 0.0085526258 0.013768936 4278927028
-0.023653924 0.0093720965 0.012983607 4278798254
-0.021728292 0.0094164498 0.012860781 4279057844
-0.017613523 0.0079554133 0.013938827 4278537134
-0.015817534 0.0087752007 0.013154363 4278668969
-0.014027141 0.0095949173 0.012370374 4278800039
-0.010320287 0.010459563 0.011464732 4278732208
-0.0085439608 0.011279285 0.010681884 4280371858
-0.006624952 0.01132437 0.010560138 4279979159
-0.0045551062 0.010594988 0.01109896 4278601649
-0.0024799779 0.0098658483 0.011637539 4278406064
-0.00039958209 0.0091369189 0.012175845 4278602923
0.0015268996 0.0091825947 0.012053931 4278537899
0.0036150962 0.0084540248 0.012591951 4278339763
0.0053793043 0.0092742257 0.011810368 4278600373
0.0071378946 0.010094337 0.011029245 4279520924
0.0088908523 0.010914406 0.010248547 4279061923
0.013081819 0.0094585605 0.011324216 4278864809
0.015006967 0.0095048621 0.011202879 4278602923
0.016931891 0.0095512569 0.01108163 4278603434
0.019407563 0.0072763525 0.012935774 4278668714
0.023272686 0.0073699094 0.012692612 4278929834
0.025013104 0.0081903785 0.011913227 4279847324
0.026942395 0.0082372986 0.011792015 4278730933
0.029068708 0.007510813 0.012328425 4278601904
0.031800106 0.0044643823 0.014836833 4278931109
0.035161041 -0.00090147648 0.019315653 4280569738
-0.031456135 -0.0056087598 0.023701774 4282537064
-0.03049919 0.0014347099 0.017623741 4282208879
-0.029244732 0.0061444631 0.013532352 4279127458
-0.027549997 0.0077436194 0.012086954 4278602669
-0.023822386 0.0086093321 0.011180425 4278268873
-0.020106152 0.0094752572 0.010274975 4278601904
-0.018054496 0.0087425318 0.01081278 4278668714
-0.016266745 0.0095642563 0.010030501 4278603433
-0.014484588 0.010385972 0.0092486646 4278406573
-0.0025262237 0.0083257686 0.010495121 4278799273
-0.00091517717 0.0099244788 0.0090562366 4278537388
0.00084391236 0.010746496 0.0082764961 4278800039
0.0085039809 0.010929104 0.0077924947 4278535348
0.012683719 0.0094686393 0.008865634 4278470324
0.014781438 0.008738745 0.0094018187 4278537388
0.017065279 0.0072329901 0.010594755 4278537899
0.0191762 0.006503568 0.011130227 4278406318
0.022657618 0.0081486963 0.0095744506 4279125673
0.024389848 0.0089711659 0.008797219 4279455644
0.026310913 0.009017881 0.0086765215 4279258529
0.03095191 0.0060092378 0.011058519 4279324064
0.034504019 -0.00014760345 0.016182348 4280700808
-0.031611238 -0.0064057931 0.02187201 4282733414
-0.030543841 -0.0001225993 0.016468368 4282536809
-0.029289164 0.0046002241 0.012386691 4279980178
-0.027712651 0.0069834068 0.010285201 4279389854
-0.025910728 0.0078070741 0.0095032211 4279455133
-0.023990713 0.0078511983 0.0093806796 4280174743
-0.022323579 0.0094544366 0.007940555 4279913114
-0.020280156 0.0087191667 0.0084772073 4279324064
-0.018626902 0.010322308 0.0070381337 4279127204
-0.016311929 0.008028755 0.0088914037 4279127458
-0.01466712 0.0096319187 0.0074530314 4279192993
-0.012613364 0.0088973604 0.0079893768 4279389854
-0.011125162 0.011279518 0.0058942721 4279061669
-0.0090717226 0.010545215 0.0064307605 4279125929
-0.0070129856 0.0098111331 0.0069669853 4278994348
-0.0049489588 0.009077251 0.0075030033 4279388578
-0.0027260706 0.0075647812 0.0086957999 4278995878
-0.00096142292 0.0083889998 0.007917244 4278865063
0.000797607 0.0092132185 0.0071391449 4278603433
0.0025510117 0.010037424 0.0063614151 4278668714
0.012285858 0.0094876681 0.006413694 4278996388
0.014377981 0.0087554641 0.0069486131 4278472619
0.016656123 0.0072452836 0.0081386417 4278669224
0.018944956 0.0057353787 0.0093280841 4278603689
0.020685732 0.0065601021 0.0085517615 4278405808
0.030104265 0.0075717438 0.0072932928 4279127459
0.033442333 0.0021748804 0.01175089 4279652504
0.037433937 -0.0055537811 0.018167671 4282471528
-0.030588493 -0.0016796142 0.015313221 4282863718
