# .PCD v0.7 - Point Cloud Data file format
VERSION 0.7
FIELDS x y z rgba
SIZE 4 4 4 4
TYPE F F F U
COUNT 1 1 1 1
WIDTH 966
HEIGHT 1
VIEWPOINT 0 0 0 1 0 0 0
POINTS 966
DATA ascii
-0.0039860345 0.017100438 0.017844765 4289735714
-0.0019553602 0.016391616 0.018406322 4289931553
8.0600381e-05 0.015683036 0.01896764 4289408549
0.0021218657 0.01497462 0.019528739 4289539363
0.004310254 0.013515081 0.020768004 4289539620
0.0065093674 0.012055874 0.022006668 4289278754
0.0084245838 0.01209959 0.021888547 4289475358
0.010489669 0.011392139 0.022448489 4290980114
0.01240724 0.011436105 0.022330372 4290522389
0.014635574 0.0099779777 0.023567541 4290456599
-0.018652923 -0.016526684 0.046421353 4289407273
-0.016852956 -0.014973703 0.044937901 4290455068
-0.014845844 -0.014929487 0.044812918 4289997599
-0.01272703 -0.015639409 0.045366716 4289997599
-0.011519194 -0.010315401 0.040492125 4290651928
-0.011287771 0.0010410249 0.030193232 4289605154
-0.010898292 0.010887593 0.021255858 4289016359
-0.0097208023 0.015454464 0.017069058 4289473828
-0.0081998333 0.017758861 0.014917888 4290062623
-0.0064390153 0.018555142 0.014123172 4289408294
-0.0046838075 0.01935143 0.01332891 4289342759
-0.0026669502 0.018640138 0.013889711 4289604899
-0.0007811524 0.018682782 0.013773108 4289931298
0.0013826303 0.017218232 0.015010573 4289669668
0.0034153573 0.016507577 0.015570672 4289342759
0.0054533519 0.015797183 0.016130479 4289538853
0.0072021373 0.016593937 0.015337067 4289604899
0.009245228 0.015883874 0.015896719 4290128159
0.011293586 0.015174005 0.016456105 4290651418
0.01381344 0.012204509 0.019043244 4290651163
0.016038623 0.010742072 0.020277448 4290389533
0.018596198 0.0077736303 0.022862403 4289277479
0.021666106 0.0025464781 0.027472585 4288885034
0.025439139 -0.0056917928 0.034781754 4288622128
-0.020609152 -0.018937137 0.046028167 4289799464
-0.019008078 -0.015866447 0.043192189 4289668903
-0.017216325 -0.014309275 0.041712508 4289931553
-0.014999494 -0.015778232 0.042942513 4290717209
-0.012883615 -0.016490418 0.043494932 4291044374
-0.01225061 -0.0073692575 0.035247378 4290651928
-0.01215199 0.0047759078 0.024297085 4289670433
-0.011660993 0.013894092 0.016058568 4289212198
-0.01025432 0.016961314 0.013235295 4289408549
-0.0087442026 0.019272018 0.011089684 4290455324
-0.0071224794 0.020826347 0.0096212663 4290258718
-0.0052501261 0.020868484 0.0095053427 4290455069
-0.0032443702 0.020154774 0.010065213 4290716954
-0.0012333207 0.019441307 0.01062485 4289931554
0.00078303367 0.018727999 0.011184262 4289539109
0.0028046705 0.018014997 0.01174341 4289539363
0.0046871267 0.018057894 0.011627255 4289539363
0.0064222254 0.018856533 0.010836327 4289866529
0.0083016045 0.01889956 0.010720512 4289277479
0.010486048 0.017431658 0.011953847 4289735459
0.012681212 0.015964098 0.013186602 4289669924
0.015203234 0.012986027 0.015767178 4289997089
0.01822922 0.0077425465 0.020368643 4288950314
0.021783676 0.000234209 0.026989404 4289080363
0.024893638 -0.0050071403 0.031585846 4288033079
-0.020855073 -0.019030981 0.043478098 4289146663
-0.019259363 -0.015951678 0.04064896 4289604388
-0.01736686 -0.01514899 0.039848663 4289539363
-0.015261997 -0.015863676 0.040400006 4289474083
-0.013263471 -0.015819499 0.040275678 4289735969
-0.012981307 -0.0043966509 0.030022308 4289801504
-0.012781065 0.0070245452 0.019774076 4289016103
-0.01206338 0.014651742 0.012905736 4288884778
-0.010664776 0.01772752 0.010089483 4288950314
-0.0090374611 0.019286223 0.0086238831 4289277224
-0.0074211881 0.020844791 0.0071590538 4289931554
-0.0055544265 0.020886835 0.0070434972 4289866274
-0.0036878064 0.02092896 0.006928015 4289735714
-0.0015489012 0.019455075 0.0081604775 4289016104
0.00046180189 0.018739522 0.0087185837 4288950569
0.0023361295 0.018782154 0.0086028725 4288950569
0.0040658936 0.019582771 0.0078138411 4289343270
0.0056429319 0.02114119 0.0063519864 4290520603
0.0075085722 0.021183927 0.0062370352 4289735203
0.0095265843 0.020469066 0.0067950818 4289342758
0.011860427 0.018239137 0.0086983573 4289277479
0.014526468 0.014494505 0.011945903 4289276969
0.018183935 0.0062054284 0.019226372 4289473573
0.021737624 -0.001324676 0.025830973 4288949548
0.024514664 -0.0050664637 0.029071908 4287967544
-0.021201484 -0.018354693 0.040260214 4289082148
-0.019510418 -0.016027823 0.038112413 4289867293
-0.017411105 -0.016744964 0.038662441 4290979094
-0.015088644 -0.018983543 0.040560156 4290848023
-0.01364297 -0.015135191 0.037066378 4289670434
-0.013825644 -0.00063679554 0.024143213 4289866784
-0.013526618 0.010055959 0.014594007 4289343268
-0.0125852 0.016183361 0.0090895221 4289081384
-0.011319924 0.020028178 0.0056073009 4289277224
-0.0094557367 0.020069964 0.0054917573 4289408038
-0.0075916871 0.020111833 0.0053762845 4288819498
-0.0055970699 0.019393411 0.0059335954 4288884778
-0.0038640238 0.020195927 0.0051456424 4289474084
-0.0018642433 0.019477818 0.0057027782 4289146919
1.937151e-06 0.019520182 0.0055875084 4289343013
0.0018679686 0.019562643 0.0054723225 4289146663
0.0035894811 0.020365313 0.0046853921 4289016104
0.0053054057 0.0211679 0.0038989163 4290455324
0.007165473 0.02121054 0.0037843282 4290716443
0.0091778524 0.020493381 0.0043411101 4290585884
0.011505958 0.018256776 0.0062399288 4290651163
0.014324058 0.013741367 0.010150675 4290520348
0.017977964 0.0054282621 0.017413519 4289473573
0.021691564 -0.0028833058 0.024672732 4289211433
0.024302054 -0.0058764219 0.027235128 4287640123
-0.021648202 -0.016901804 0.036379404 4289146919
-0.019864623 -0.015331836 0.034909904 4290847768
-0.017879825 -0.015288174 0.034786269 4291044374
-0.015459757 -0.018296607 0.037352227 4290717208
-0.014245238 -0.012911528 0.032522634 4289997598
-0.014211949 0.00010215119 0.020975174 4289801504
-0.013686348 0.0092994869 0.012792936 4289015848
-0.01274731 0.015444279 0.007301603 4289081129
-0.011362113 0.018537201 0.0044991854 4290650908
-0.0097484514 0.020104345 0.0030409493 4290651164
-0.0077620745 0.019383501 0.0035970318 4290389534
-0.0056397282 0.017900284 0.0048239152 4289866019
-0.0037733763 0.017942455 0.0047084833 4289081129
-0.0020432621 0.018747188 0.0039224173 4289343013
-0.00031876191 0.019551869 0.0031368281 4289408549
0.0014001578 0.020356525 0.0023516496 4289212199
0.0034019761 0.019636665 0.0029072459 4289211944
0.0049681179 0.021203585 0.0014525899 4289342759
0.0069723316 0.020483978 0.0020081853 4289277223
0.0088293739 0.020526655 0.0018938654 4289538853
0.011306886 0.017521404 0.0044576838 4289604389
0.014279623 0.012230936 0.0090282373 4289342758
0.018253911 0.0023701228 0.01761161 4289669668
0.021808807 -0.0052034687 0.024183692 4289146409
0.024587672 -0.00896696 0.027408302 4287312704
-0.02358444 -0.019301826 0.035992421 4288229173
-0.021993835 -0.016196629 0.033183068 4289866783
-0.020115148 -0.015387777 0.032388374 4289408549
-0.017923836 -0.016874824 0.033606976 4288950569
-0.015721735 -0.0183615 0.03482493 4289212198
-0.014958415 -0.0099006221 0.027324732 4290063134
-0.014826361 0.0023846496 0.016476249 4289670434
-0.014079884 0.010077763 0.0096547827 4289081128
-0.012789611 0.013944827 0.0061871787 4289211944
-0.011526715 0.017811406 0.0027213669 4290258463
-0.0099157952 0.019382853 0.0012665563 4290062368
-0.0079323351 0.018659774 0.001821198 4290455069
-0.0059435666 0.017936926 0.0023755967 4290323999
-0.0039494857 0.017214309 0.0029297466 4289081129
-0.0022221692 0.01802114 0.0021455376 4289473574
-0.00050044432 0.018827941 0.0013617412 4289342759
0.0013571531 0.018870234 0.0012470954 4289015593
0.0032145828 0.018912647 0.0011325483 4289080873
0.0047780015 0.0204839 -0.00031874049 4290127648
0.0067793019 0.019762032 0.00023547281 4289604389
0.0087858774 0.019040406 0.00078938063 4289277224
0.011418093 0.01526228 0.0040146266 4289146409
0.014392991 0.0099566355 0.0085736942 4289146408
0.01820853 0.00083162636 0.016468324 4289343013
0.021599378 -0.0059997626 0.022356847 4288754219
-0.023823805 -0.019359445 0.033468843 4288883759
-0.022138029 -0.017013185 0.031335909 4289997088
-0.020262159 -0.016202243 0.030543074 4290193438
-0.018179853 -0.016926216 0.031089269 4289081383
-0.016200911 -0.016882556 0.030966092 4289604899
-0.015670869 -0.0068632681 0.022146488 4290586393
-0.015211817 0.0031546224 0.01333135 4289997599
-0.014473047 0.010869354 0.0065266066 4288884778
-0.013071164 0.013979975 0.003736069 4290062369
-0.011691205 0.017090246 0.00094699534 4289211944
-0.0099579468 0.017898962 0.00016372139 4288950058
-0.0081024878 0.017940696 4.8825983e-05 4289408038
-0.0063776821 0.018749487 -0.00073380535 4289604389
-0.0042587146 0.017257605 0.00048688659 4289800483
-0.0025369152 0.018066507 -0.00029534614 4289277223
-0.00054333359 0.017341934 0.0002573845 4289277223
0.0011727251 0.018150896 -0.00052435091 4289277223
0.0030273087 0.018193245 -0.00063871732 4289735204
0.0044411309 0.02053535 -0.0027533472 4290650908
0.0064367987 0.019811239 -0.0022004358 4290650908
0.0085900612 0.018320862 -0.00098132109 4290650908
0.011219118 0.014531773 0.0022360007 4290193184
0.014506232 0.0076782145 0.0081161615 4289081383
0.018323589 -0.0014728308 0.015991166 4289211944
0.021390077 -0.0067914147 0.020533456 4288753964
-0.023965172 -0.020177891 0.031620126 4289343014
-0.022282105 -0.017825153 0.02949224 4289604644
-0.020202637 -0.018551476 0.030036908 4290717208
-0.018117812 -0.019277625 0.030581363 4290782744
-0.016570941 -0.016155533 0.027787961 4291044374
-0.016382597 -0.0037994441 0.016987845 4289932063
-0.016053371 0.0070158802 0.0075276266 4289212453
-0.015216369 0.013982587 0.0014072801 4289408549
-0.013711158 0.016332172 -0.00070888875 4290455324
-0.012222443 0.018681578 -0.002823968 4290324253
-0.010375146 0.018723011 -0.0029384478 4289735714
-0.0084002577 0.017995417 -0.0023864959 4290389788
-0.0064200498 0.017268043 -0.0018348 4290585629
-0.0044345297 0.016540859 -0.0012833024 4289473574
-0.0028514341 0.018120889 -0.0027296008 4289538853
-0.00086348876 0.017394017 -0.0021781358 4289538853
0.00098840892 0.017436203 -0.0022924128 4289342759
0.002840139 0.017478507 -0.0024065929 4289473574
0.0046917163 0.017520893 -0.0025206986 4289735203
0.006543126 0.017563377 -0.0026347148 4289866019
0.0086988471 0.016068731 -0.0014189794 4290585884
0.011175219 0.013037369 0.0011254619 4290585884
0.014619324 0.0053957365 0.0076555428 4289277223
0.018278088 -0.0030129533 0.014846673 4289277224
0.021344017 -0.0083467979 0.019377634 4288360499
-0.02599318 -0.02180698 0.030565321 4287772214
-0.024204131 -0.02021962 0.029108282 4289801504
-0.022426054 -0.018632455 0.02765204 4289408294
-0.020452678 -0.018589137 0.027529046 4289343268
-0.018373523 -0.01931753 0.028072197 4289801248
-0.017049212 -0.014643326 0.023953853 4289670434
-0.016982276 -0.0014809277 0.012514606 4289147174
-0.016665954 0.0093645975 0.0030779163 4288950568
-0.015608624 0.014807396 -0.001696208 4289146663
-0.014231052 0.017934918 -0.0044722315 4290128158
-0.012508728 0.018747658 -0.0052516479 4290716953
-0.010667026 0.018788986 -0.0053657629 4290520859
-0.0085701086 0.017287757 -0.0041503818 4290586138
-0.0067232177 0.017329417 -0.0042646569 4289997344
-0.0047433488 0.01659999 -0.0037144632 4289670179
-0.0030298568 0.017413072 -0.0044929278 4289473574
-0.0010448247 0.016683955 -0.0039429092 4289408038
0.00066293404 0.017497119 -0.0047208616 4290323999
0.0023650751 0.018310249 -0.0054983962 4290323999
0.0040616132 0.019123368 -0.0062754974 4288950058
0.0060514696 0.018394772 -0.0057254694 4288819498
0.0083509497 0.016124871 -0.0038492917 4289277479
0.010976423 0.012313917 -0.00064791646 4289538853
0.014732283 0.0031091552 0.0071918801 4289408038
0.018232595 -0.0045528281 0.01370237 4289408293
0.021134879 -0.0091313999 0.017559482 4287967543
-0.026416227 -0.020295484 0.026726335 4288491569
-0.024638109 -0.018704087 0.025273241 4289473829
-0.022770617 -0.017886844 0.024485685 4290455069
-0.020702481 -0.018617816 0.025027856 4290128924
-0.018734805 -0.018574499 0.024905309 4290128924
-0.017744076 -0.011565539 0.018804366 4289474594
-0.01780387 0.0024074074 0.0067295735 4288754473
-0.017163955 0.010961544 -0.00069147442 4289146663
-0.01611723 0.016419344 -0.0054535815 4289408548
-0.014511582 0.01800796 -0.006895252 4289408548
-0.012794781 0.018822744 -0.0076727085 4289343013
-0.010708887 0.017316777 -0.0064599146 4289146919
-0.0087398402 0.016584713 -0.0059108366 4289801249
-0.0067654736 0.015852872 -0.0053620064 4289212199
-0.0049188584 0.015894663 -0.005476166 4289408293
-0.0030723773 0.015936546 -0.0055902437 4289669923
-0.0013645478 0.016751777 -0.0063666594 4289735204
0.00033769011 0.017567001 -0.0071426448 4290258463
0.0020343289 0.018382236 -0.007918248 4290651164
0.0038720295 0.018424343 -0.0080314688 4290258463
0.0060083754 0.016920459 -0.0068210945 4290062368
0.0081554241 0.015416965 -0.0056113456 4290062368
0.010932561 0.010822188 -0.0017564623 4290389534
0.01437242 0.0031369533 0.0047414531 4289735203
0.017706256 -0.0037741642 0.010575036 4289015593
0.020599853 -0.008365918 0.014422931 4287443263
-0.026743941 -0.019542707 0.023563996 4288818478
-0.024974037 -0.017947108 0.022114681 4290063898
-0.023014516 -0.017904215 0.021992464 4291502864
-0.021055076 -0.017861189 0.021870347 4290979348
-0.01909573 -0.017818058 0.021748319 4290914069
-0.018438213 -0.008461304 0.01367446 4289605409
-0.018291 0.0039983205 0.0029548262 4289016104
-0.017433599 0.011024151 -0.0031230524 4289146409
-0.016275395 0.015721153 -0.007211328 4289343014
-0.014672484 0.017314062 -0.0086495839 4289931809
-0.012836389 0.017355166 -0.0087634269 4289538853
-0.010875583 0.016620643 -0.0082155298 4289080873
-0.0089094453 0.015886281 -0.0076678623 4289080873
-0.0070682764 0.015927836 -0.0077817668 4289146408
-0.0050942376 0.015193928 -0.0072344546 4289342503
-0.0033863373 0.016011253 -0.0080093183 4289408038
-0.0015455782 0.01605311 -0.0081229638 4289604389
-0.00012846664 0.018421274 -0.010218425 4289211689
0.001559943 0.019238465 -0.010991851 4290193184
0.0032427423 0.020055685 -0.011764893 4290585629
0.0055172704 0.017772011 -0.0098969433 4290454814
0.0078079663 0.015488807 -0.0080299163 4290651164
0.010888714 0.0093307085 -0.002864819 4290258463
0.014485296 0.00084869936 0.0042765471 4289669668
0.017660934 -0.0053069945 0.0094359666 4289015339
-0.028936025 -0.019597838 0.021195929 4286725948
-0.027071292 -0.018776599 0.020411644 4289212453
-0.02521209 -0.017955313 0.019627757 4289146919
-0.023258172 -0.017912546 0.019505884 4289997853
-0.021201368 -0.018648105 0.020045524 4289343779
-0.01977336 -0.014713214 0.016617643 4290063389
-0.019240037 -0.0045524314 0.0079031773 4290259483
-0.018888794 0.0063851774 -0.001467613 4288950824
-0.017589144 0.010317564 -0.0048872605 4289473574
-0.016316842 0.014249466 -0.0083051221 4290193184
-0.01471395 0.015846722 -0.0097401366 4290651164
-0.013122074 0.017443821 -0.011174325 4290651164
-0.011166904 0.016706981 -0.010627711 4290520093
-0.0092064254 0.015970387 -0.010081338 4288950314
-0.007370837 0.016011827 -0.010194888 4289015593
-0.0052695088 0.014497831 -0.0089892978 4288950058
-0.0037000589 0.016095009 -0.010421736 4289277223
-0.0018648729 0.016136751 -0.010535032 4289538853
-0.00045314059 0.018511303 -0.012625309 4289342504
0.0015174076 0.017775524 -0.01207904 4289015594
0.0033466928 0.017817441 -0.012191739 4288950058
0.0056236275 0.015527356 -0.010328833 4289277224
0.0079167299 0.013237704 -0.0084668053 4289408039
0.010999557 0.0070622489 -0.003314811 4289538853
0.014440607 -0.00066645443 0.0031506042 4289146408
0.017455447 -0.0060624089 0.0076392121 4288949549
-0.029070728 -0.020382039 0.019372221 4288164149
-0.027303556 -0.018777885 0.017929424 4289472808
-0.025449898 -0.017954582 0.017147545 4290324254
-0.023501586 -0.017911933 0.017026026 4289474594
-0.021450449 -0.018649731 0.017564375 4289474594
-0.020239007 -0.013143038 0.01282575 4290586904
-0.019932665 -0.0013931952 0.0028141546 4289735968
-0.019374888 0.008013621 -0.0052144639 4288820009
-0.017972175 0.011176325 -0.0079662418 4289604643
-0.016474832 0.013558354 -0.010057681 4289997344
-0.014874671 0.015159868 -0.011489231 4289604389
-0.013285529 0.016761307 -0.012920044 4289669668
-0.011582695 0.017582458 -0.013691654 4290520093
-0.0095031559 0.016063403 -0.012488116 4289473574
-0.0076731406 0.016104713 -0.012601325 4289800483
-0.0055775307 0.014586292 -0.011398654 4289342503
-0.004013516 0.016187649 -0.012827478 4289473319
-0.0020456016 0.01544949 -0.012282856 4289342248
-0.00077756122 0.018610235 -0.015025496 4290062114
0.0011873357 0.017872218 -0.014480529 4290192928
0.0031575449 0.017134402 -0.013935829 4289669669
0.0055806451 0.014058147 -0.01142066 4289211689
0.0078734346 0.01176196 -0.0095634768 4289211434
0.010955635 0.0055690855 -0.0044244216 4289538598
0.014395911 -0.0021813605 0.0020248475 4289080108
0.017410193 -0.0075925607 0.0065021352 4288425268
-0.029297261 -0.020378578 0.016893085 4288491059
-0.027535575 -0.018770222 0.015453925 4289472808
-0.02568746 -0.017944865 0.014674019 4290258719
-0.023744754 -0.017902344 0.014552843 4290913814
-0.021699276 -0.018642444 0.015089918 4291044628
-0.020915315 -0.0099897217 0.0077310274 4291044628
-0.02084114 0.0033576284 -0.0035708414 4289408804
-0.020082541 0.011224955 -0.010263395 4289081384
-0.018582325 0.013613448 -0.012350241 4289539364
-0.016982086 0.015219267 -0.013778662 4289931554
-0.015154459 0.015260082 -0.013892051 4289211944
-0.013448864 0.016083356 -0.014662296 4289408038
-0.011873461 0.017688897 -0.016088897 4289538853
-0.0097996332 0.01616542 -0.014888281 4289931043
-0.0079752058 0.016206611 -0.015001137 4289669668
-0.0058852881 0.014683679 -0.013801308 4289211688
-0.0043267384 0.016289305 -0.015226593 4289473319
-0.0025027096 0.016330812 -0.015339185 4289734949
-0.00081979111 0.01715434 -0.016107457 4290650653
0.001144927 0.016414117 -0.015564118 4290650909
0.0034077801 0.014110532 -0.013710095 4290650909
0.0055376627 0.012589175 -0.01251231 4290781724
0.0078301467 0.010286469 -0.010659961 4289930533
0.010757122 0.0048578009 -0.0061887526 4289211434
0.014193926 -0.0029144995 0.00024449732 4289276459
0.016884852 -0.0067780372 0.0034014494 4288228409
-0.029523546 -0.020366173 0.014420673 4288295219
-0.027672732 -0.019538715 0.013642117 4289407784
-0.025924787 -0.017926142 0.012207109 4289670179
-0.023787554 -0.019453764 0.01339972 4289801503
-0.022050664 -0.017841168 0.011965595 4290521369
-0.021379855 -0.0083798897 0.0039686854 4289801503
-0.021207474 0.0042194612 -0.0066488446 4289343524
-0.020345628 0.011323594 -0.012668703 4289343013
-0.019078184 0.015287906 -0.016062018 4289866529
-0.017372448 0.016113136 -0.016830819 4290716699
-0.015553128 0.016153768 -0.016943693 4290585629
-0.013612077 0.015410002 -0.016401134 4290454814
-0.011790253 0.015450925 -0.016513987 4290585629
-0.0098412633 0.014707565 -0.015971748 4290258463
-0.0080169663 0.014748748 -0.016084606 4289800483
-0.0059273094 0.013221469 -0.014887996 4289538853
-0.0045042336 0.015615661 -0.016964521 4289538853
-0.0028212406 0.016441248 -0.017731264 4290062369
-0.0011438355 0.017266814 -0.018497583 4289800739
0.00095888227 0.015740287 -0.017301517 4289669668
0.0029259808 0.014998082 -0.016759841 4290127648
0.0050474592 0.013472136 -0.015564742 4290650909
0.0076350532 0.0095950328 -0.012409764 4289996834
0.011022296 0.0017997585 -0.0059897425 4289211179
0.014149304 -0.0044267401 -0.00087927561 4289014319
0.016679827 -0.0075175148 0.0016166153 4287574078
-0.029749598 -0.020344742 0.011954894 4288689703
-0.027998887 -0.018727927 0.010522904 4289212453
-0.026064586 -0.018685713 0.01040216 4289474083
-0.02393036 -0.020217702 0.01159168 4289409058
-0.022298943 -0.017813761 0.0095060971 4289474594
-0.022054825 -0.005178161 -0.0010900539 4289866783
-0.021789785 0.0066685863 -0.011026084 4288950823
-0.020719361 0.012218121 -0.01572175 4289212454
-0.019346297 0.01540621 -0.018452201 4289866273
-0.017646097 0.016233541 -0.019219071 4290193439
-0.015832361 0.016274054 -0.019331591 4290650908
-0.013775159 0.014741261 -0.01813654 4290650908
-0.0119562 0.014782127 -0.018249212 4290716444
-0.010137368 0.014823083 -0.018361805 4289669668
-0.0083186552 0.014864158 -0.018474301 4289211689
-0.0063673742 0.014118876 -0.017933678 4289342759
-0.0048170052 0.015732992 -0.019351913 4289604389
-0.0032776557 0.017346989 -0.020769447 4290454814
-0.0016084798 0.018174555 -0.021533625 4289800739
0.00034224615 0.017429691 -0.020992648 4289211944
0.0024445802 0.015898854 -0.019799687 4289408295
0.0045576282 0.01436843 -0.018607337 4289539109
0.0074400939 0.0089082047 -0.014156149 4289735204
0.010823842 0.0010911059 -0.0077521186 4289473064
0.013947506 -0.0051528234 -0.0026544561 4289014318
-0.031731583 -0.02193556 0.010924995 4286855998
-0.030158944 -0.018735282 0.0081878547 4289147938
-0.028230179 -0.018693306 0.0080673713 4290521113
-0.0263987 -0.017861793 0.0072933608 4291110163
-0.02417298 -0.020187702 0.0091336668 4290782999
-0.022957657 -0.014620107 0.0044400631 4289605409
-0.022518281 -0.0035285838 -0.0048229303 4289735968
-0.02204714 0.0067721531 -0.013428099 4288950824
-0.020871051 0.011547703 -0.017459301 4289212198
-0.019500613 0.014744487 -0.02018314 4289343014
-0.0178032 0.015573863 -0.020948192 4289081128
-0.015992332 0.015614331 -0.021060523 4289473318
-0.014059853 0.014866024 -0.020520674 4289538853
-0.012122009 0.0141179 -0.019981034 4289800483
-0.010433219 0.014947601 -0.020745244 4289342759
-0.008490175 0.014199816 -0.020205762 4289604133
-0.0066744424 0.014240935 -0.02031799 4289342503
-0.0048588365 0.014282148 -0.020430138 4289342759
-0.0033194944 0.015900504 -0.021844422 4290389278
-0.0019319467 0.018307101 -0.023908833 4290520093
-0.00013035536 0.01834831 -0.024019884 4290716444
0.0019635446 0.016812991 -0.022829672 4290389278
0.0043660887 0.013701472 -0.020339176 4290650908
0.0073969327 0.0074377619 -0.015248884 4290520093
0.010934312 -0.0011891909 -0.008210904 4289538854
0.013588723 -0.0050862841 -0.0050760903 4288687663
-0.03212963 -0.020316903 0.0071639237 4288491058
-0.030476093 -0.017899942 0.0050863079 4289211944
-0.028555658 -0.017858125 0.0049663591 4290782489
-0.026538137 -0.018607773 0.0054985178 4290259738
-0.024515238 -0.019357186 0.006030424 4290652183
-0.02351303 -0.012191613 4.5321416e-05 4289736224
-0.023402561 0.0013042651 -0.011148685 4289539618
-0.022628419 0.009258803 -0.017777525 4288950568
-0.021354944 0.013255756 -0.021146983 4289146919
-0.019881792 0.015669722 -0.023212638 4289735204
-0.018076409 0.015709933 -0.023324728 4289996834
-0.016152177 0.014959175 -0.022786058 4289604644
-0.014344279 0.014999673 -0.02289813 4289277478
-0.012412101 0.014249321 -0.022359787 4289342758
-0.010601703 0.014290091 -0.022471856 4289342758
-0.0086615831 0.013540115 -0.021933852 4289800738
-0.0068487078 0.013581149 -0.022045918 4289669923
-0.0049006604 0.01283152 -0.021508206 4289538598
-0.0034993254 0.015244905 -0.023568716 4289277223
-0.0019737184 0.016867351 -0.024978798 4289931554
-0.0001722537 0.016908552 -0.025089839 4290716444
0.0020675659 0.014578398 -0.02325388 4290651164
0.0044724531 0.011458252 -0.02077 4290650909
0.0075053759 0.005177211 -0.015692789 4289866019
0.010736015 -0.001893023 -0.0099696992 4289342503
0.013544295 -0.0065913014 -0.0061944965 4288687663
-0.032527193 -0.018680632 0.0034160153 4288623148
-0.030792886 -0.017051209 0.001994641 4290194204
-0.028880779 -0.017009579 0.0018752092 4289147429
-0.02687164 -0.017761599 0.0024062567 4289016614
-0.025056772 -0.016925966 0.0016366257 4289409059
-0.024170339 -0.0089474767 -0.0049831201 4290063389
-0.023759529 0.0022042468 -0.014198988 4289670434
-0.022669114 0.0077997632 -0.018861951 4289277734
-0.021506198 0.012601051 -0.022872858 4289081384
-0.019808847 0.013434671 -0.023634741 4290650908
-0.01811704 0.014268305 -0.024396179 4290585629
-0.016311895 0.014308628 -0.024508167 4290651163
-0.014506858 0.014349058 -0.024620067 4289931809
-0.01257759 0.013596456 -0.024083167 4289081128
-0.010643002 0.01284406 -0.023546534 4289277479
-0.0088328533 0.012884941 -0.023658499 4289931553
-0.0070228279 0.012925919 -0.023770384 4289408294
-0.0053481422 0.013759922 -0.024530195 4289473318
-0.0036790259 0.014593896 -0.025289597 4289342759
-0.0020154789 0.015427835 -0.026048582 4289080873
7.2617084e-05 0.013883602 -0.02486456 4289146408
0.0020253696 0.013132352 -0.024328504 4289080873
0.0045786835 0.0092109181 -0.021203879 4288949804
0.0076137148 0.0029125325 -0.016139762 4289146409
0.010846358 -0.0041772071 -0.010431373 4289211434
0.013342913 -0.00730367 -0.0079594115 4288491059
-0.034486324 -0.020252656 0.0023983312 4286921024
-0.032835416 -0.017822783 0.00033047097 4289604644
-0.030926131 -0.017781343 0.00021111965 4290455068
-0.029016899 -0.017739777 9.1869384e-05 4290324509
-0.026816618 -0.020085931 0.0019190838 4289670688
-0.025398172 -0.016064532 -0.0014435612 4290325018
-0.024826914 -0.0056770258 -0.0099920016 4290652184
-0.024431754 0.0055047944 -0.019184202 4289474084
-0.023033604 0.0087280385 -0.021890497 4289016104
-0.021657314 0.011950903 -0.024595346 4289081383
-0.019849394 0.011991058 -0.024707677 4290193184
-0.018273767 0.013622377 -0.02611508 4290258463
-0.016471479 0.01366264 -0.026226887 4290520603
-0.014669299 0.013703011 -0.026338607 4290651674
-0.012742952 0.012948159 -0.025803154 4289408549
-0.01081128 0.012193542 -0.025267947 4289343269
-0.0090039931 0.012234353 -0.025379742 4289342758
-0.0073292479 0.013070423 -0.026138019 4289408038
-0.005795233 0.01470159 -0.027542336 4289473318
-0.0041343495 0.015537545 -0.028299611 4289800483
-0.002197843 0.014783558 -0.027764311 4290062369
-0.00011269748 0.013234843 -0.026583325 4289604389
0.0019831657 0.011686545 -0.025402948 4288557613
0.0043873005 0.0085489824 -0.022931987 4288884779
0.0074189641 0.002233142 -0.017880619 4288949804
0.0103398 -0.0032869168 -0.013477126 4289014063
0.012984727 -0.0072168168 -0.010366024 4288096829
-0.034872122 -0.018589493 -0.0013305307 4288490294
-0.033054464 -0.017749963 -0.0020974772 4289472298
-0.031242313 -0.016910385 -0.0028640265 4289800993
-0.029058643 -0.019263521 -0.0010407087 4290128158
-0.027052654 -0.020019958 -0.00051270425 4290586393
-0.025739204 -0.015189767 -0.0045139138 4290847768
-0.025380343 -0.0031782165 -0.014334478 4289801248
-0.024682648 0.0056399591 -0.021563243 4288819498
-0.023289848 0.0088717751 -0.024262723 4289277734
-0.021808308 0.011305358 -0.026314413 4290193438
-0.020116564 0.01214321 -0.027072702 4289211944
-0.018430367 0.012981076 -0.027830618 4289080873
-0.016630948 0.01302129 -0.027942235 4289539364
-0.014831621 0.013061602 -0.028053775 4289539364
-0.012908183 0.012304459 -0.027519729 4289735714
-0.011106361 0.012345035 -0.027631266 4289343269
-0.0094342977 0.013183162 -0.02838788 4289277479
-0.0076354183 0.013223864 -0.028499089 4289408293
-0.0062419325 0.015656471 -0.030544579 4289408038
-0.0044514649 0.015697226 -0.030655088 4290650908
-0.0025205798 0.014940917 -0.030121082 4290716444
-0.00029789656 0.012590691 -0.028298665 4290651164
0.0016490407 0.011834938 -0.027765501 4290389279
0.0043447427 0.0070946701 -0.024012741 4289146408
0.0073757805 0.00076145306 -0.018974276 4289080619
0.010296043 -0.0047738403 -0.014582097 4289014574
-0.035085388 -0.018509753 -0.0037538495 4287444539
-0.03336202 -0.016867723 -0.0051648919 4286332993
-0.031192238 -0.019227806 -0.003345659 4286791229
-0.028911984 -0.022387736 -0.00088169798 4287380279
-0.026900759 -0.023146261 -0.0003555892 4287053368
-0.026079878 -0.014301741 -0.0075744116 4288492844
-0.026035525 0.00014276616 -0.019305877 4289211943
-0.025458734 0.0097845234 -0.027160853 4289408038
-0.023977078 0.012224577 -0.029207807 4289407783
-0.022401307 0.013864346 -0.030608919 4290258463
-0.020496745 0.0131042 -0.030075703 4290193184
-0.018818785 0.013944045 -0.030831417 4289670179
-0.016908959 0.013184249 -0.030298354 4290128159
-0.015115224 0.01322443 -0.03040955 4290651164
-0.013073295 0.01166537 -0.029232947 4289931553
-0.01140118 0.012505487 -0.029988002 4289800995
-0.0096050426 0.012546044 -0.030099109 4289538853
-0.0079413243 0.01338619 -0.030853484 4289538853
-0.0062831603 0.01422631 -0.031607434 4289538853
-0.0044928193 0.014267042 -0.031717952 4289866019
-0.0025621355 0.013508592 -0.031185526 4289866018
-0.00048295036 0.011951089 -0.030010698 4290454814
0.0014610849 0.011193071 -0.029478922 4290716444
0.0043021925 0.005640585 -0.025093328 4289931554
0.0073325969 -0.00071005337 -0.0200678 4289473064
0.0099441521 -0.0046625715 -0.016970931 4289210924
-0.035040494 -0.020829219 -0.004236598 4288294453
-0.033314444 -0.019182734 -0.0056446069 4289080109
-0.031233685 -0.020746741 -0.0044746744 4288426543
-0.028953826 -0.023915354 -0.0020171562 4288296238
-0.027136538 -0.023071114 -0.0027805604 4287249718
-0.026619337 -0.011795625 -0.011912541 4287249719
-0.026383057 0.0010829736 -0.022326861 4288623403
-0.025708836 0.0099484101 -0.029518548 4288884779
-0.024340339 0.013197046 -0.032203581 4289277223
-0.022883214 0.015643135 -0.034244031 4289996833
-0.021102935 0.015682686 -0.034354635 4290258463
-0.019206829 0.014920298 -0.033822421 4290651164
-0.017305367 0.014158159 -0.033290438 4290651418
-0.015277207 0.012594275 -0.032116279 4290062113
-0.013486419 0.01263449 -0.032227218 4289408038
-0.011822548 0.013476655 -0.032980174 4289538853
-0.010034706 0.013517004 -0.033090781 4289342503
-0.0081147216 0.012755767 -0.03255951 4290062369
-0.0063243844 0.012796395 -0.03267011 4290323999
-0.0045341663 0.012837112 -0.032780629 4289080873
-0.0027440712 0.012877956 -0.032891043 4288950314
-0.00066785514 0.011316042 -0.031719267 4289146409
0.0012732595 0.010555834 -0.031188972 4289211688
0.0039625317 0.0057892725 -0.027455227 4289277224
0.0071381442 -0.0013800971 -0.021801712 4289211434
0.010054562 -0.006945882 -0.017431956 4288884014
-0.034909807 -0.023957638 -0.0040794662 4287836983
-0.033178348 -0.022306727 -0.005484526 4289146154
-0.03109242 -0.023874916 -0.0043181926 4289408549
-0.028901577 -0.026247451 -0.0025098999 4288493098
-0.027275266 -0.023791697 -0.0045565302 4288558378
-0.027158193 -0.0092675686 -0.016234364 4288623914
-0.026832463 0.0028410144 -0.02597999 4288754219
-0.026063643 0.010925595 -0.032511394 4288557613
-0.02438014 0.011769593 -0.033264529 4288557869
-0.022922978 0.014222182 -0.035300136 4288557869
-0.021142833 0.014261711 -0.035410751 4288950314
-0.019362781 0.014301356 -0.035521269 4289473574
-0.017464247 0.013536986 -0.034990724 4289670179
-0.015560366 0.012772806 -0.034460451 4289342503
-0.013775151 0.012812898 -0.034571048 4289277224
-0.012116786 0.013657041 -0.035322022 4289473318
-0.01033451 0.013697281 -0.035432272 4289211688
-0.0085523538 0.013737626 -0.035542432 4289669925
-0.0066353977 0.012974273 -0.035012577 4290454814
-0.0048507489 0.013014864 -0.035122752 4290520093
-0.0030662231 0.013055544 -0.035232853 4289800483
-0.00099569187 0.011489127 -0.034063913 4290127648
0.0010855868 0.0099230856 -0.032895613 4290323744
0.0037716217 0.0051434785 -0.029171417 4290258718
0.0069438405 -0.0020455476 -0.023532281 4289473318
0.0098569654 -0.0076266471 -0.019173613 4288753454
-0.034607645 -0.02870859 -0.0026457887 4287706678
-0.032953911 -0.026246084 -0.0046895435 4287837749
-0.031042676 -0.026204616 -0.0048090275 4289147429
-0.028943459 -0.027776781 -0.0036466292 4289016614
-0.027510598 -0.023700912 -0.0069698035 4288689449
-0.027298586 -0.0099445339 -0.017977688 4288427308
-0.026872644 0.0013898592 -0.027058581 4288296238
-0.025788639 0.0070763193 -0.031653244 4288492333
-0.024204675 0.0087291747 -0.033045247 4288819499
-0.022631686 0.010381937 -0.034436531 4288623404
-0.020956583 0.011228088 -0.035187319 4288557869
-0.019171219 0.011267848 -0.035298172 4288688939
-0.017504465 0.012114029 -0.036048286 4288492588
-0.015600778 0.011347674 -0.035519626 4288753964
-0.014063615 0.013000153 -0.036908232 4288950058
-0.012410756 0.01384633 -0.03765725 4289277223
-0.010634057 0.013886441 -0.037767157 4289408038
-0.0085932314 0.012314633 -0.036599971 4289342759
-0.0069461465 0.013161004 -0.037348397 4289800739
-0.0051670708 0.013201464 -0.037458234 4290454814
-0.0035283789 0.014047835 -0.038205992 4290716444
-0.0014662668 0.012476917 -0.037039824 4290716444
0.00089805573 0.0092948675 -0.034598891 4289866018
0.003877759 0.0028908383 -0.029609172 4289408295
0.0072031505 -0.0051232632 -0.0233474 4289408039
0.0098133944 -0.0091083925 -0.020274738 4288229428
-0.034649115 -0.030239847 -0.0037839867 4287837494
-0.032906845 -0.028579976 -0.0051832916 4287968564
-0.030901803 -0.02934758 -0.0046634646 4288624169
-0.028891375 -0.03011493 -0.0041439449 4289212963
-0.027552327 -0.025219174 -0.008098294 4288624169
-0.027339445 -0.011425865 -0.019078718 4288492844
-0.026810687 -0.0008699093 -0.027498245 4287838004
-0.025618833 0.0040229466 -0.031443171 4288099633
-0.023814306 0.0040628053 -0.031555459 4288361519
-0.022120152 0.0049114153 -0.032305919 4288754219
-0.02043153 0.0057600886 -0.033055969 4288754474
-0.018864155 0.0074172467 -0.034443457 4288885033
-0.017189313 0.0082657859 -0.035192449 4289016103
-0.015520014 0.0091143399 -0.035941068 4289212199
-0.013856243 0.009962827 -0.036689226 4288819498
-0.012324627 0.011619605 -0.038074184 4289015849
-0.010545332 0.011659749 -0.038184274 4288688428
-0.0087661482 0.011700012 -0.038294267 4288557613
-0.0069870763 0.011740364 -0.038404178 4288753963
-0.0052081198 0.011780798 -0.038514026 4289015594
-0.0037097149 0.013437398 -0.039896578 4289669668
-0.0019364394 0.013477918 -0.040005911 4289800484
0.00056499615 0.0094791241 -0.036934871 4289342759
0.0038354024 0.0014418829 -0.030685946 4289146408
0.006857831 -0.0049784016 -0.02571178 4289276713
-0.0347763 -0.030959483 -0.0055601588 4287771448
-0.032948337 -0.030106656 -0.0063180765 4287968308
-0.030943511 -0.030876465 -0.0057998747 4288427053
-0.028933298 -0.031645957 -0.0052819364 4288754219
-0.027594049 -0.026737183 -0.0092265969 4288754473
-0.027082266 -0.015340268 -0.018267635 4288623149
-0.026442636 -0.0055669416 -0.026029557 4287903538
-0.025134895 -0.0014717598 -0.029328492 4288164913
-0.023531925 0.00019022822 -0.030715255 4288295983
-0.02182968 0.0010411926 -0.031464595 4288427054
-0.020358868 0.0035137106 -0.033486418 4288427053
-0.018557448 0.0035538152 -0.033598278 4288492844
-0.016874518 0.0044047441 -0.034346197 4288558123
-0.015076011 0.0044449903 -0.034457721 4288688938
-0.013525255 0.0061064288 -0.035840712 4288557868
-0.011732381 0.0061467811 -0.035951711 4288754219
-0.010198172 0.0078081116 -0.037333559 4288688684
-0.0084109567 0.0078485273 -0.037444066 4288819499
-0.0067585558 0.0086993352 -0.038189601 4288753963
-0.0049742833 0.0087398924 -0.038299769 4288819499
-0.003470432 0.010400906 -0.039679389 4288884779
-0.0016918406 0.010441527 -0.039789069 4288884523
0.00052341819 0.0080521032 -0.037995361 4288623149
0.0037930608 -6.8433583e-06 -0.031762555 4288557613
0.0071169324 -0.0080644023 -0.02553306 4288491824
-0.037065811 -0.029274942 -0.0091232806 4286920258
-0.035160385 -0.029233871 -0.0092426017 4287836983
-0.033166617 -0.030006146 -0.0087254429 4288229684
-0.031076329 -0.031591617 -0.0075723361 4288099379
-0.028881367 -0.033990141 -0.0057837404 4288557869
-0.027635749 -0.028255001 -0.010354759 4289212198
-0.02722257 -0.016014377 -0.02000891 4288165423
-0.026381075 -0.0078414977 -0.026480215 4287576373
-0.025070455 -0.0037354194 -0.029771252 4288295728
-0.023357332 -0.0028821602 -0.030519737 4288230704
-0.021759897 -0.0012158416 -0.031902838 4288296239
-0.020060536 -0.00036265515 -0.032650296 4288558123
-0.018366698 0.0004904978 -0.033397339 4288361773
-0.016560066 0.00053082965 -0.033509437 4288558124
-0.014753532 0.00057124346 -0.033621468 4288623403
-0.013070852 0.0014245119 -0.034367554 4288688939
-0.01126723 0.0014650673 -0.034479249 4288557613
-0.0097221471 0.0031309854 -0.035858531 4288688939
-0.0080561042 0.0039841682 -0.036603365 4288688939
-0.0063956156 0.0048373286 -0.037347782 4289015848
-0.004603304 0.004878059 -0.037458461 4288753963
-0.0029512011 0.0057312213 -0.038202211 4289081128
-0.00130466 0.0065844059 -0.038945589 4289211943
0.001063969 0.0033763964 -0.036524352 4288884778
0.0040472411 -0.0030797068 -0.031573731 4288753963
0.0072248392 -0.010346772 -0.025993191 4288622638
0.0095291175 -0.012740429 -0.024209568 4286985538
-0.02777395 -0.028957052 -0.012117029 4286465083
-0.027263518 -0.017499436 -0.021112714 4288296493
-0.026319623 -0.010120204 -0.026933955 4287314999
-0.024901453 -0.0068185236 -0.029583355 4288230704
-0.02318297 -0.005962979 -0.030330556 4288230704
-0.021470003 -0.0051074531 -0.031077342 4288165168
-0.019875385 -0.0034368075 -0.03245692 4288295983
-0.018176191 -0.0025813077 -0.033202715 4288230704
-0.016482517 -0.001725873 -0.033948049 4288099633
-0.014431402 -0.0033153314 -0.032794755 4288099633
-0.012864355 -0.00164482 -0.034172341 4288426799
-0.010928996 -0.0024189372 -0.033651959 4288426798
-0.0093757473 -0.00074859522 -0.03502851 4288557869
-0.0075697415 -0.00070775114 -0.035140175 4288296493
-0.0058984347 0.00014779903 -0.035883665 4288427309
-0.0040953755 0.00018876232 -0.03599501 4288427053
-0.0024324507 0.0010443311 -0.036737826 4288492589
-0.00063234195 0.0010854229 -0.036848843 4288361773
0.0017495193 -0.0021309238 -0.034434933 4288296493
0.004893925 -0.0094184112 -0.028867006 4288557869
0.0080871545 -0.016704675 -0.023302013 4287510584
-0.02800845 -0.028836973 -0.014508531 4286530364
-0.026054502 -0.01403818 -0.026126163 4286856764
-0.024523471 -0.011545104 -0.028137473 4288034098
-0.022686858 -0.011504576 -0.028251786 4288099633
-0.02107041 -0.0098292436 -0.02962959 4288034608
-0.019352157 -0.008971313 -0.030374996 4287838258
-0.017754924 -0.0072961189 -0.031751469 4288099889
-0.015932236 -0.0072554629 -0.031864587 4288230449
-0.014230572 -0.0063975807 -0.032608725 4288164913
-0.012658082 -0.004722666 -0.03398338 4288295728
-0.010970213 -0.0038648341 -0.034726545 4288099634
-0.0092878863 -0.0030070674 -0.035469245 4288164913
-0.0074792914 -0.0029661916 -0.035581097 4288296493
-0.0056707971 -0.0029252227 -0.035692867 4288558123
-0.003862422 -0.0028841626 -0.035804559 4288296493
-0.0019141883 -0.0036596823 -0.035286237 4288427308
-0.00010332093 -0.003618367 -0.035397936 4288492844
0.0024344474 -0.0076597761 -0.032361522 4288623659
0.0052955337 -0.013333522 -0.028067818 4288361264
0.0081945471 -0.019006297 -0.023776375 4287444539
-0.023727771 -0.019567503 -0.024182295 4285940804
-0.021976795 -0.018706927 -0.024928307 4286725949
-0.020231333 -0.01784635 -0.025673879 4287510839
-0.018829521 -0.014527351 -0.028309077 4287838004
-0.017218705 -0.012847523 -0.029683163 4287314744
-0.015618835 -0.011167902 -0.031056466 4287772469
-0.013909087 -0.010307675 -0.031799491 4287772469
-0.012328453 -0.0086281914 -0.033171456 4288099378
-0.010758795 -0.0069489144 -0.034542643 4288361264
-0.0092001259 -0.0052697249 -0.035913095 4287968819
-0.0073889308 -0.0052288081 -0.036025118 4288034608
-0.0054433756 -0.0060068201 -0.035508368 4288362029
-0.0034925044 -0.0067845564 -0.034991905 4288362029
-0.0018161014 -0.0059243701 -0.035732336 4288296493
0.00013998151 -0.0067017935 -0.035216052 4288296239
0.0025374144 -0.0099352356 -0.032816038 4288360498
0.005548697 -0.016442757 -0.027906025 4288360498
-0.016452331 -0.020063659 -0.026374388 4286071873
-0.013104733 -0.017516421 -0.028488271 4286202688
-0.011628591 -0.015010834 -0.030485863 4287314489
-0.010168865 -0.012505494 -0.032482419 4287575863
-0.0085965954 -0.01082168 -0.033850502 4287838004
-0.0070353076 -0.0091380496 -0.035217781 4287576373
-0.0053505972 -0.0082757175 -0.035957266 4288230959
-0.0035343058 -0.0082345027 -0.036069464 4288034609
-0.0017181225 -0.008193206 -0.036181595 4288296239
0.0003830567 -0.00979371 -0.035040554 4288361264
0.0027855486 -0.01303571 -0.032647315 4288295219
0.0056536756 -0.018739721 -0.028376726 4288098868
-0.0062871724 -0.015530305 -0.03254322 4287183674
-0.00472055 -0.013842152 -0.033907548 4287511094
-0.0031649061 -0.012154073 -0.035271142 4287837748
-0.001340691 -0.012112597 -0.035383772 4287903284
0.00076840445 -0.013717347 -0.034246441 4288230449
0.0031786822 -0.016967859 -0.031860162 4288099634
0.0059064589 -0.021863842 -0.028225999 4287772468
0.0085160695 -0.025936013 -0.02521817 4287379259
0.0063069128 -0.025821697 -0.027458582 4286921533
0.0087736584 -0.029079441 -0.025082137 4286659393
0.029806521 -0.011033356 0.034205541 4280568208
0.036647428 -0.014679657 0.037197869 4280372113
0.026596423 -0.0073498674 0.028455682 4280173979
0.028729949 -0.0080635883 0.029005565 4278666928
0.030694414 -0.008017689 0.028885201 4278270913
0.032835636 -0.008731002 0.029434703 4278532544
0.037863467 -0.013193769 0.033210814 4279322024
0.040771823 -0.016942719 0.036436073 4278341548
0.02654973 -0.0089212731 0.027287968 4279975843
0.028340075 -0.008113876 0.026499219 4279256744
0.030124772 -0.0073065273 0.025710881 4279258784
0.031903807 -0.0064992178 0.024922952 4278800038
0.034216125 -0.0079762209 0.026139446 4278470834
0.036539089 -0.0094529241 0.027355395 4278734504
0.039613072 -0.013974506 0.031241409 4278866084
0.026165608 -0.0089646969 0.024786353 4279780003
0.02990381 -0.0081095453 0.023879929 4278532034
0.031680074 -0.0073000528 0.023093777 4279188913
0.035944838 -0.0087354984 0.024187682 4278406573
0.039195169 -0.014033788 0.02873056 4278931618
0.025950368 -0.0097651631 0.022956861 4279519139
0.029857036 -0.0096738357 0.022717526 4278400964
0.031633254 -0.0088621564 0.021933006 4278860474
0.033583324 -0.0088163409 0.021813707 4278798254
0.035533193 -0.0087704547 0.021694476 4278931363
0.038962502 -0.014849807 0.026890844 4279194013
0.042622749 -0.021693658 0.032748885 4282602854
0.025398087 -0.00902454 0.019803137 4279061158
0.027343262 -0.0089791007 0.019683944 4279192483
0.029462222 -0.0097016525 0.020228317 4278931108
0.03176317 -0.011192094 0.021435762 4278931364
0.033536386 -0.010378182 0.02065314 4278668969
0.035486143 -0.010332277 0.020533932 4278865574
0.038729925 -0.015661223 0.025054552 4279521943
0.023240674 -0.009856699 0.018102845 4279977374
0.031009588 -0.0096749943 0.017626958 4278601649
0.032951292 -0.0096293557 0.017508188 4278800039
0.035439085 -0.011893859 0.019373568 4278668968
0.038867142 -0.018008035 0.024544075 4280439433
0.022531588 -0.0083209518 0.014304444 4279976864
0.024294678 -0.0075033456 0.013525447 4278469303
0.032545876 -0.0096394569 0.01503302 4278799783
0.035392027 -0.013455179 0.018213401 4278735014
0.038634662 -0.018814571 0.022711411 4281619064
0.02215432 -0.0083171651 0.011837412 4279712684
0.023911927 -0.0074974988 0.011060385 4280042908
0.025663879 -0.0066778436 0.010283794 4278865318
0.029680494 -0.0073623657 0.01070719 4278994603
0.031961467 -0.008866176 0.01190624 4278996134
0.035162982 -0.014241808 0.016395306 4278472619
0.038587037 -0.020390898 0.0215401 4282077299
0.019693825 -0.0075721182 0.0088372156 4282400129
0.021777306 -0.0083044581 0.0093770847 4278662338
0.029281337 -0.0073479451 0.0082498807 4278535858
0.031556632 -0.0088562034 0.0094459895 4278996133
0.034570243 -0.013470639 0.013267608 4278603178
0.038170155 -0.020413859 0.019056322 4282143599
0.019485515 -0.0083274022 0.0070408559 4280830093
0.021566089 -0.0090619642 0.0075792964 4279192484
0.026970882 -0.0073694531 0.0059161191 4278532033
0.031331185 -0.0096161701 0.0076474859 4278996643
0.034341577 -0.014243687 0.011459537 4278735524
0.037938062 -0.021206563 0.017233863 4282340203
0.01911458 -0.0082966071 0.0045934594 4280763538
0.021024067 -0.0082521178 0.0044763661 4278930599
0.022765186 -0.0074262805 0.0037052347 4278995878
0.024671581 -0.0073816869 0.0035884609 4278930854
0.02675141 -0.0081181675 0.0041255313 4279061158
0.029012848 -0.0096355695 0.0053159888 4278668713
0.031284939 -0.011152592 0.0065058121 4278603943
0.034294825 -0.015793147 0.010308184 4278473639
0.037890617 -0.022775587 0.016067984 4279391129
0.018743899 -0.0082569029 0.0021527563 4280304794
0.020813238 -0.0089960862 0.0026886375 4278930344
0.022551585 -0.008168133 0.0019193008 4279189678
0.024455156 -0.008123599 0.0018027057 4279584928
0.026532087 -0.0088623036 0.0023383475 4278603943
0.028790552 -0.010384079 0.0035257009 4278538154
0.031417679 -0.013471953 0.0060161534 4278669224
0.034429792 -0.018125556 0.0098086949 4279653013
0.037843157 -0.024344407 0.014902256 4282537319
0.018536102 -0.0089940354 0.00036988547 4279911583
0.022506166 -0.0096910018 0.00078766746 4278268363
0.028392192 -0.010342615 0.0010884921 4278800038
0.031013515 -0.013439332 0.0035728081 4278668968
0.034019675 -0.018106047 0.007355968 4280701829
0.03705826 -0.022771956 0.01113718 4282537318
0.016110342 -0.008194657 -0.0025926172 4282531709
0.018165883 -0.0089385845 -0.0020591877 4279123123
0.020391967 -0.010470206 -0.00087654917 4279912858
0.022124778 -0.0096379966 -0.0016423506 4278995623
0.027994085 -0.010292217 -0.0013420805 4278799783
0.030609597 -0.013397709 0.0011360799 4278931619
0.033972997 -0.019652639 0.0062067495 4281619319
0.015746001 -0.0081279837 -0.0050137863 4282138499
0.02157573 -0.008786127 -0.0047133267 4279062179
0.023465369 -0.008741932 -0.004829078 4279389598
0.025354806 -0.0086976327 -0.0049447371 4278929323
0.027772326 -0.011022639 -0.0031189243 4279061923
0.030384775 -0.014136952 -0.00064702565 4279062688
0.033926334 -0.021198999 0.0050576995 4282012529
0.015541639 -0.0088447537 -0.006781749 4281483148
0.021194931 -0.0087130703 -0.007128444 4278271678
0.027374703 -0.010956566 -0.0055378489 4279062433
0.030338798 -0.015663497 -0.0017813588 4278865828
0.033879686 -0.022745159 0.0039088014 4278604198
0.03673261 -0.026658416 0.0070159459 4280505734
0.039051879 -0.028195867 0.0081869047 4281947504
0.015018146 -0.0079679471 -0.0098361485 4280172703
0.017056834 -0.0087187774 -0.009306537 4278666418
0.026977357 -0.010881548 -0.0079502016 4278668969
0.030114193 -0.016395785 -0.0035592928 4279193249
0.033651661 -0.023497066 0.0021165102 4282144109
0.014654603 -0.0078744777 -0.012237407 4279715488
0.016687673 -0.0086276587 -0.011709107 4278929834
0.018726017 -0.0093806349 -0.011180995 4278930599
0.02043416 -0.0085403137 -0.011938808 4278996643
0.022648063 -0.010089433 -0.010768253 4278735014
0.024526309 -0.010045417 -0.010883242 4278537899
0.026932042 -0.012390264 -0.0090712942 4278734249
0.029889721 -0.017123491 -0.0053338241 4279520923
0.033242453 -0.023448192 -0.00031439727 4282471529
0.012112398 -0.0062175319 -0.015801212 4282270078
0.014131855 -0.006973315 -0.015273707 4279715998
0.01615658 -0.0077288579 -0.014746513 4278469558
0.018186573 -0.0084841587 -0.014219551 4278399433
0.020221841 -0.0092392545 -0.013692852 4279449779
0.022262391 -0.0099941548 -0.013166423 4278799784
0.024308216 -0.010748886 -0.012640208 4278668969
0.026710931 -0.013100334 -0.010832944 4278734249
0.030022461 -0.019443508 -0.0058239726 4280831623
0.033377308 -0.025785599 -0.00081760203 4282733414
0.012225281 -0.0085051879 -0.016265599 4281941894
0.013928358 -0.0076609328 -0.017020082 4279190953
0.017812435 -0.0083754007 -0.016608503 4278531014
0.023917224 -0.010647004 -0.015033038 4278996134
0.026665714 -0.014606468 -0.011952119 4278603434
0.030155104 -0.021767665 -0.0063171973 4281356924
0.012024704 -0.0091903303 -0.018010357 4281744269
0.013884414 -0.0091472268 -0.018124567 4278665144
0.015743967 -0.0091040451 -0.018238705 4279061668
0.017603356 -0.0090607684 -0.018352762 4279193759
0.023526538 -0.010536285 -0.017419226 4278996134
0.026444849 -0.0153096 -0.013708618 4278996388
0.030287635 -0.024095956 -0.0068134964 4279194524
0.033284407 -0.028867297 -0.0031075145 4281029759
0.011980888 -0.010676431 -0.01911471 4281548428
0.015537892 -0.0097848456 -0.019979719 4278797489
0.017229702 -0.0089363921 -0.020730112 4278865573
0.019250866 -0.0096983667 -0.020207429 4278799528
0.020936925 -0.0088498686 -0.020957334 4278601904
0.023136105 -0.010416634 -0.019798853 4279127203
0.026224133 -0.016008178 -0.01546173 4278799783
0.029528353 -0.022403689 -0.010491198 4281750899
0.011310954 -0.008931797 -0.022760479 4280698003
0.017350387 -0.011225441 -0.021196224 4278599608
0.020892706 -0.010331532 -0.022058345 4278536369
0.02309164 -0.011902641 -0.020903083 4278930853
0.026354682 -0.018316604 -0.015943063 4279127458
