# .PCD v0.7 - Point Cloud Data file format
VERSION 0.7
FIELDS x y z rgba
SIZE 4 4 4 4
TYPE F F F U
COUNT 1 1 1 1
WIDTH 971
HEIGHT 1
VIEWPOINT 0 0 0 1 0 0 0
POINTS 971
DATA ascii
0.0054256544 -0.0083817542 -0.0064872783 4289932829
0.0073228106 -0.0083378619 -0.0066021271 4289933084
0.0092198029 -0.0082938895 -0.0067169024 4290652949
0.010938756 -0.0074502947 -0.0074719824 4290783508
0.013193831 -0.0090052485 -0.0063059963 4290587414
0.015093014 -0.0089609809 -0.0064207213 4290914579
0.017364033 -0.010515367 -0.0052556279 4289802014
0.019268274 -0.010470826 -0.0053705447 4289802013
0.021363765 -0.011225455 -0.0048458492 4289671198
0.022882037 -0.0095823705 -0.0062395702 4289867548
0.024389267 -0.0079394532 -0.0076326327 4290063643
0.025486268 -0.0046986127 -0.010303074 4290782743
0.02757287 -0.0054532215 -0.0097775981 4290783254
0.030074768 -0.0078054341 -0.0079749729 4290652183
0.032592759 -0.010157268 -0.0061732433 4289539619
0.034916393 -0.011709804 -0.0050108638 4288949549
0.037463844 -0.014060814 -0.0032108126 4286922553
-0.028309107 -0.013886302 -0.0029616319 4288035373
-0.026892234 -0.010632059 -0.0056469776 4289539618
-0.025245003 -0.0089840405 -0.0070470585 4290455578
-0.023351073 -0.0089418292 -0.0071629048 4290586649
-0.021720406 -0.0072938912 -0.008561831 4289866784
-0.019697856 -0.0080543682 -0.0080357343 4290062878
-0.017670013 -0.0088145547 -0.0075099105 4291044373
-0.015636846 -0.0095745381 -0.0069843465 4289997598
-0.013598375 -0.010334255 -0.0064589987 4290128413
-0.011409432 -0.011896304 -0.005293143 4290324763
-0.0096534267 -0.011050712 -0.0060496191 4290193694
-0.0082042217 -0.0086003989 -0.0080865379 4290717209
-0.0066181645 -0.0069526266 -0.0094821192 4289016614
-0.0045749694 -0.0077118278 -0.0089566819 4289278243
-0.0023677275 -0.0092729013 -0.0077915974 4289409058
-0.000311248 -0.010031542 -0.0072668483 4290259994
0.0014220923 -0.0091858795 -0.0080215111 4289867294
0.0034836754 -0.0099442229 -0.0074969381 4290259738
0.0052112639 -0.0090985121 -0.0082511166 4289932828
0.0071055964 -0.0090546897 -0.0083657978 4290979603
0.0089997649 -0.0090108234 -0.0084804334 4289344033
0.010893755 -0.0089668408 -0.0085949674 4289278243
0.012968078 -0.009724455 -0.0080708442 4289212964
0.014681213 -0.0088786595 -0.0088238362 4290652439
0.016574688 -0.0088344831 -0.0089381877 4290063388
0.018467978 -0.0087902164 -0.0090524573 4289867038
0.020552464 -0.0095472857 -0.0085287187 4290063643
0.022448085 -0.009502803 -0.0086430088 4290259994
0.024146743 -0.0086569944 -0.0093948655 4290456089
0.025640264 -0.007010052 -0.010783799 4290652183
0.027527198 -0.0069655934 -0.010897432 4290782998
0.029823877 -0.0085232565 -0.0097367652 4290063389
0.031923525 -0.0092795817 -0.0092136534 4290848023
0.034449212 -0.011637729 -0.0074172113 4288818733
0.036990978 -0.013995402 -0.0056216666 4288884014
-0.028472431 -0.014608072 -0.0047331629 4286792249
-0.027181529 -0.010540055 -0.0080523482 4289474084
-0.025539752 -0.0088877594 -0.0094489008 4290717208
-0.023780193 -0.0080406591 -0.010204532 4291044373
-0.022026189 -0.0071935663 -0.010959737 4290979094
-0.020143516 -0.0071514081 -0.011074748 4291306259
-0.01798708 -0.0087187933 -0.0099104047 4291371538
-0.015959539 -0.0094811413 -0.0093860859 4289801504
-0.013784319 -0.011047889 -0.008222728 4290193949
-0.011888564 -0.011005007 -0.0083382176 4290062879
-0.0099929422 -0.010962019 -0.0084536187 4290128158
-0.008699663 -0.0077008 -0.011124177 4291044374
-0.0069684833 -0.0068533989 -0.01187738 4290913814
-0.0049309134 -0.0076148463 -0.011353247 4290914069
-0.0027293563 -0.0091804639 -0.010191023 4291044884
-0.00051707774 -0.010745682 -0.009029408 4291372304
0.0012135059 -0.0098979343 -0.0097823068 4290194714
0.0031053349 -0.0098543558 -0.0098969741 4290063643
0.0051665753 -0.010614799 -0.0093739359 4289932829
0.0070608109 -0.010571016 -0.0094886376 4290914323
0.0089548826 -0.010527151 -0.0096032657 4290717974
0.010493316 -0.0088753821 -0.010992104 4289409058
0.012381598 -0.0088314814 -0.011106256 4289409058
0.014086545 -0.0079836892 -0.011857202 4290521369
0.016157649 -0.0087434631 -0.01133436 4290914069
0.018045411 -0.0086993212 -0.011448292 4290063389
0.02031564 -0.010262316 -0.01028953 4290129179
0.022208467 -0.010217951 -0.010403691 4290456344
0.024101131 -0.010173505 -0.010517778 4290914069
0.025594704 -0.008522206 -0.01190348 4289670689
0.027279384 -0.0076744007 -0.01265284 4288820264
0.029368244 -0.0084332945 -0.012130723 4289539873
0.03166993 -0.0099951383 -0.010973552 4289539363
0.034192652 -0.012359891 -0.0091817863 4289016869
0.036731437 -0.014724158 -0.0073909815 4289800229
-0.028756179 -0.014517893 -0.0071403189 4286530364
-0.027470566 -0.010439086 -0.010451153 4289343014
-0.025960248 -0.0079753669 -0.012482788 4289866529
-0.024208918 -0.007126295 -0.013236316 4289670433
-0.022200264 -0.0078914845 -0.012712715 4289997853
-0.02018629 -0.008656458 -0.012189368 4290193949
-0.0180301 -0.010228228 -0.011028262 4289932319
-0.01628197 -0.0093787909 -0.011781269 4290193949
-0.014397092 -0.0093362648 -0.011896177 4290259228
-0.012512356 -0.0092936335 -0.012010997 4289931808
-0.010479972 -0.010057688 -0.011488398 4289997343
-0.0088937506 -0.0084014041 -0.012877597 4289997599
-0.0073185414 -0.0067452649 -0.014266044 4290586649
-0.0051306635 -0.0083155921 -0.013106329 4290782998
-0.0029320717 -0.0098856026 -0.011947213 4291372815
-0.0008841157 -0.010648845 -0.011425146 4290194713
0.00084097683 -0.0097990101 -0.012176141 4289736988
0.0027272627 -0.0097555816 -0.012290489 4289671453
0.0046133921 -0.0097120963 -0.012404781 4289867803
0.0063271299 -0.0088622915 -0.013154842 4290259738
0.0080352798 -0.0080125658 -0.013904529 4290783253
0.009915486 -0.0079689389 -0.014018256 4291175699
0.011975907 -0.0087312674 -0.013496554 4291044884
0.013675377 -0.0078814812 -0.014245521 4291306514
0.015555099 -0.0078376373 -0.014359049 4289932829
0.017434612 -0.0077937255 -0.014472513 4289932573
0.01950521 -0.0085555213 -0.013951205 4289670689
0.02177503 -0.010122854 -0.012795558 4289866783
0.023268826 -0.0084672561 -0.014178159 4290586649
0.025150374 -0.0084230406 -0.014291551 4291175699
0.026425414 -0.0059622591 -0.016307084 4290456089
0.028708093 -0.0075289803 -0.015152059 4290456089
0.030793913 -0.0082900422 -0.014631389 4290716953
0.033515744 -0.011466905 -0.012210235 4290192929
0.035833165 -0.013032706 -0.011057151 4289733928
-0.028557677 -0.017656989 -0.0069912602 4286202943
-0.027512897 -0.011948219 -0.011568839 4288950824
-0.026002534 -0.0094779776 -0.013595635 4289081383
-0.024251278 -0.0086267414 -0.01434755 4289016104
-0.022374202 -0.008584843 -0.014462316 4289081893
-0.02036313 -0.0093520647 -0.013940414 4289408804
-0.018209927 -0.010928251 -0.012782356 4289343268
-0.016464587 -0.010076694 -0.013533572 4289670179
-0.014582556 -0.01003425 -0.01364832 4289669923
-0.012700647 -0.0099917138 -0.01376299 4289408294
-0.010523483 -0.01156694 -0.012606082 4289212199
-0.008937262 -0.0099063134 -0.013992054 4289408804
-0.0072088987 -0.0090546878 -0.014741899 4289604898
-0.0051744133 -0.0098205656 -0.014220817 4289408804
-0.0031346455 -0.010586226 -0.013699984 4289344289
-0.0012508705 -0.010543053 -0.013814326 4289670943
0.00046873093 -0.0096912365 -0.01456335 4289867294
0.0023494735 -0.009647958 -0.014677379 4289867294
0.0042300597 -0.0096046105 -0.014791343 4289736478
0.0059383363 -0.0087527893 -0.015539482 4290063389
0.0078158826 -0.0087093255 -0.015653124 4289866783
0.0096932799 -0.0086657926 -0.015766703 4289736224
0.011750817 -0.0094303815 -0.015246456 4290194203
0.013447553 -0.0085784867 -0.015993644 4289997853
0.015510209 -0.0093428139 -0.015473599 4289670689
0.017389633 -0.0092989402 -0.015587084 4289735968
0.019268893 -0.0092549743 -0.015700486 4289801504
0.021147989 -0.0092109647 -0.015813842 4289997598
0.022830315 -0.0083590792 -0.016559916 4289997854
0.024905667 -0.0091227628 -0.016040381 4289997853
0.026380166 -0.0074632196 -0.017418474 4290914069
0.028457887 -0.0082267215 -0.01689899 4291110163
0.030125931 -0.0073749404 -0.017644029 4290586139
0.032839261 -0.010560665 -0.015228869 4289604133
0.035361253 -0.012938474 -0.013446746 4290257444
-0.028720714 -0.01836941 -0.0087558683 4287903794
-0.027308878 -0.015080513 -0.011415083 4288231469
-0.025793038 -0.012603628 -0.013437442 4288624424
-0.023779217 -0.013373174 -0.01291748 4288689448
-0.022022713 -0.012519544 -0.013668025 4288886309
-0.020003684 -0.013288767 -0.013148226 4289606174
-0.018252846 -0.012435063 -0.013898274 4289016614
-0.016368095 -0.012392671 -0.014013272 4289081893
-0.014625669 -0.011538936 -0.014762646 4289997598
-0.01274389 -0.011496402 -0.014877306 4289670433
-0.010714613 -0.0122649 -0.014357766 4289212453
-0.0089807436 -0.011411054 -0.015106391 4289081638
-0.0070993826 -0.01136823 -0.015220802 4289736224
-0.0050623491 -0.012136245 -0.014701506 4289605408
-0.0030200258 -0.012904054 -0.014182471 4289867293
-0.0012948811 -0.012050055 -0.0149303 4289474594
0.00026072562 -0.010385309 -0.016310833 4289540129
0.0021386445 -0.010342149 -0.01642473 4289539873
0.0040164068 -0.010298859 -0.016538519 4289147939
0.0057219118 -0.0094449539 -0.017284892 4289605154
0.0077714697 -0.010212064 -0.0167659 4289212453
0.0096487552 -0.010168557 -0.01687949 4289278244
0.011706136 -0.010935338 -0.016360858 4289539618
0.013585821 -0.010891615 -0.016474474 4289277989
0.015651025 -0.01165808 -0.015956217 4289735713
0.017344683 -0.010803975 -0.016701523 4289408804
0.019032769 -0.0099499496 -0.017446455 4289408804
0.020715229 -0.0090959687 -0.018190982 4289147429
0.022195525 -0.0074320231 -0.019566331 4289212453
0.024461888 -0.0090080649 -0.018416885 4289211943
0.026334949 -0.0089640468 -0.018529769 4289408549
0.028412543 -0.0097297542 -0.018011911 4289539364
0.029665746 -0.0072563104 -0.020016415 4289539619
0.032373361 -0.01045097 -0.017607374 4289604898
0.034676827 -0.012025818 -0.016460001 4289341994
0.037853166 -0.016838577 -0.012793038 4286594369
-0.02888361 -0.019077281 -0.010517107 4286333248
-0.027228195 -0.017407451 -0.011901695 4288099379
-0.025457948 -0.016551564 -0.012651632 4288362539
-0.023436159 -0.017323148 -0.012133801 4288558889
-0.021802824 -0.01565351 -0.013516741 4288493609
-0.019912526 -0.015611218 -0.013632245 4289016868
-0.018159054 -0.014755246 -0.014380889 4289213218
-0.016271707 -0.014712801 -0.014496049 4288820518
-0.01438449 -0.014670273 -0.014611138 4289016868
-0.012497403 -0.014627618 -0.014726123 4288886053
-0.010462865 -0.015398232 -0.01420849 4288755239
-0.0087236166 -0.014542051 -0.014955871 4288624424
-0.006989941 -0.013685973 -0.015702821 4288951334
-0.0051061064 -0.013643025 -0.015817337 4289605408
-0.0029055104 -0.015226119 -0.014668018 4289409058
-0.0010165349 -0.015182862 -0.014782703 4288951078
0.00087229908 -0.015139524 -0.014897315 4288885543
0.0024277717 -0.013470355 -0.016274627 4288689703
0.0043108687 -0.013426969 -0.016388757 4288951334
0.0061938092 -0.013383512 -0.016502826 4288559144
0.0080765933 -0.013339977 -0.016616821 4288559144
0.0099592209 -0.013296372 -0.016730754 4288558889
0.011841685 -0.013252675 -0.016844604 4289082404
0.013723992 -0.013208921 -0.016958402 4289540129
0.015791759 -0.013977499 -0.016441911 4288820518
0.017676443 -0.01393354 -0.016555741 4288428073
0.01936993 -0.01307725 -0.017299412 4288885799
0.020864032 -0.011408783 -0.018672401 4289147174
0.022740096 -0.011364835 -0.018785568 4288885544
0.024815172 -0.012132915 -0.018269276 4289147173
0.026693597 -0.012088811 -0.018382512 4289016359
0.028367229 -0.011232642 -0.019124728 4289212453
0.029827915 -0.0095646139 -0.020495523 4289277734
0.031907767 -0.01033244 -0.019979335 4288950568
0.034631133 -0.013535342 -0.017577717 4288295219
-0.029046383 -0.019780554 -0.012275017 4286333248
-0.027147621 -0.019738507 -0.01239136 4287968564
-0.02550048 -0.018064469 -0.013772106 4288166444
-0.023350414 -0.019654121 -0.012623806 4288428073
-0.021451976 -0.019611746 -0.01273988 4288035629
-0.019419722 -0.020385111 -0.012224112 4288493609
-0.017655436 -0.019526739 -0.012971813 4289409824
-0.015757345 -0.019484073 -0.013087643 4288558888
-0.014001444 -0.018625729 -0.013834639 4289344289
-0.012251124 -0.017767392 -0.014581207 4289016868
-0.010506354 -0.016909098 -0.015327374 4288689703
-0.0087671727 -0.01605079 -0.016073171 4288558888
-0.0070335567 -0.015192547 -0.016818509 4288689703
-0.0049941689 -0.015964881 -0.016302604 4289409569
-0.0029494911 -0.016737068 -0.015786925 4289409569
-0.00073841214 -0.018324135 -0.014641447 4288951078
0.0011557415 -0.018280698 -0.014756402 4288754728
0.0027166829 -0.016607109 -0.016130781 4288623913
0.0044358373 -0.015748639 -0.0168749 4288689449
0.006321393 -0.01570514 -0.01698914 4288558889
0.0083814934 -0.016476449 -0.016474009 4288820518
0.010446869 -0.017247504 -0.015959173 4288624423
0.012157269 -0.016388951 -0.016702475 4289409569
0.014044926 -0.016345112 -0.016816624 4289082404
0.015746839 -0.01548654 -0.017559331 4288755239
0.01744318 -0.014628097 -0.018301623 4288559144
0.019324914 -0.014584176 -0.01841525 4288624424
0.021206468 -0.014540187 -0.018528813 4288558889
0.023087889 -0.014496152 -0.018642334 4288624424
0.024969123 -0.014452038 -0.018755779 4288624424
0.026850186 -0.014407879 -0.018869178 4288558633
0.028321967 -0.012735385 -0.020237442 4288951078
0.02999001 -0.011877179 -0.020977711 4288426798
0.032072425 -0.012647082 -0.020463344 4288229938
0.034372792 -0.014230764 -0.019322291 4288687664
-0.029208999 -0.020479338 -0.014029529 4288099123
-0.02743607 -0.019619197 -0.014776511 4288100144
-0.025542993 -0.019577183 -0.014892438 4288362538
-0.02365002 -0.019535065 -0.015008278 4288297259
-0.021494873 -0.021128859 -0.01386345 4288166444
-0.019462813 -0.021904394 -0.013349278 4288166444
-0.017152295 -0.024315435 -0.011575478 4289016868
-0.015522037 -0.022636911 -0.012951579 4288624423
-0.013760772 -0.021776266 -0.013697281 4288951588
-0.012149803 -0.020097926 -0.015072094 4289409824
-0.010107495 -0.020872688 -0.01455822 4288820774
-0.0085103661 -0.019194512 -0.015932005 4288820774
-0.0067713633 -0.018334016 -0.016676087 4288689959
-0.0050379336 -0.017473469 -0.017419774 4289409824
-0.002676785 -0.019882616 -0.015648426 4288820773
-0.00062154979 -0.020656621 -0.015134994 4288493609
0.0014389902 -0.021430455 -0.014621772 4288558888
0.0030053556 -0.019752376 -0.015993312 4288689704
0.0048991218 -0.019708816 -0.016108144 4288493353
0.0066208169 -0.018848067 -0.016850695 4288559144
0.0086861849 -0.019621421 -0.016337566 4288624423
0.010756828 -0.020394556 -0.015824687 4288820774
0.012652688 -0.02035062 -0.0159394 4289213218
0.014365613 -0.019489765 -0.016681189 4288558888
0.015887469 -0.017812243 -0.018049609 4288297258
0.017398275 -0.01613483 -0.019417327 4288689703
0.019470848 -0.01690758 -0.01890431 4288624424
0.021355048 -0.01686356 -0.019018056 4288689703
0.023631804 -0.018452549 -0.017879037 4288755239
0.025521107 -0.018408293 -0.017993003 4288689703
0.027410246 -0.018363979 -0.018106917 4288689703
0.028685749 -0.015870621 -0.02009836 4288297258
0.030566402 -0.015826399 -0.020211682 4287772723
0.032237016 -0.014965962 -0.020950492 4287706678
0.034327261 -0.015737845 -0.020438205 4287052348
-0.029371474 -0.021173596 -0.015780689 4287641654
-0.027601339 -0.020311346 -0.016525889 4288165423
-0.025836758 -0.019449079 -0.01727072 4288166444
-0.023949355 -0.019407099 -0.01738623 4288035118
-0.021799911 -0.021005414 -0.016244242 4288362538
-0.019372098 -0.024243617 -0.013845798 4288297258
-0.017195679 -0.025841076 -0.012705347 4288558888
-0.01528696 -0.025798224 -0.012821866 4289344543
-0.013662275 -0.024115378 -0.014194321 4288689959
-0.012048587 -0.022432636 -0.015566077 4289867803
-0.010298505 -0.021569926 -0.016309377 4288624423
-0.0084038898 -0.021526972 -0.016424723 4288428329
-0.0066622272 -0.020664256 -0.017167365 4288820773
-0.0047705844 -0.020621184 -0.017282395 4289082403
-0.0025625676 -0.022217141 -0.016143283 4288755494
-0.00050477684 -0.022993319 -0.015631588 4288493609
0.001230903 -0.022130322 -0.016373629 4288493609
0.003127411 -0.022086801 -0.016488703 4288558889
0.0050237849 -0.022043187 -0.016603697 4288493353
0.0069200024 -0.021999506 -0.01671863 4288559144
0.0088160709 -0.021955732 -0.01683348 4288493609
0.010711998 -0.021911889 -0.01694827 4289475103
0.012787774 -0.022687096 -0.016437253 4289082403
0.014503375 -0.021823999 -0.017177658 4288820774
0.015842572 -0.019323163 -0.019168425 4288493609
0.017541565 -0.018460311 -0.019907724 4288493609
0.019425862 -0.018416408 -0.020021565 4288624424
0.021503553 -0.019191206 -0.019510392 4288689703
0.023586519 -0.019965775 -0.018999534 4288558889
0.025674753 -0.020740176 -0.01848896 4288624424
0.027364828 -0.01987729 -0.019227467 4288624424
0.028844886 -0.018195953 -0.020589879 4288297259
0.030521058 -0.017333284 -0.021327464 4287641398
0.031981796 -0.015652319 -0.022688579 4288557104
-0.029533807 -0.021863341 -0.017528508 4287837238
-0.027889334 -0.020176437 -0.018899564 4287641653
-0.025879104 -0.020957099 -0.018387578 4288754474
-0.024120133 -0.020092746 -0.019130349 4288100144
-0.022104673 -0.020873087 -0.018618532 4288558634
-0.020083871 -0.021653268 -0.018106936 4288427819
-0.017784853 -0.024077624 -0.016342133 4288820263
-0.015887134 -0.024035025 -0.016457984 4288820263
-0.013989545 -0.023992321 -0.016573748 4289605919
-0.012236685 -0.023127459 -0.017315667 4289540384
-0.010194726 -0.023906618 -0.01680503 4288492333
-0.0082975104 -0.023863623 -0.01692055 4288427564
-0.0064004138 -0.02382057 -0.017036015 4288231213
-0.0045034438 -0.023777399 -0.017151386 4289015848
-0.0024484172 -0.02455594 -0.016641233 4288296494
-0.00054901093 -0.024512529 -0.016756613 4288427819
0.0013502538 -0.024469048 -0.016871931 4288362283
0.0030830353 -0.023603896 -0.017612146 4288100653
0.0051483661 -0.024381856 -0.017102361 4288231469
0.0070472062 -0.024338119 -0.017217455 4288231723
0.0087714046 -0.023472928 -0.017956976 4288820773
0.010844447 -0.024250455 -0.017447468 4288689703
0.012922756 -0.025027739 -0.016938267 4288624423
0.01445841 -0.023341283 -0.018301198 4288428073
0.015983067 -0.021655055 -0.019663367 4288428330
0.017496698 -0.019968968 -0.02102486 4288100398
0.019571707 -0.020746117 -0.020515226 4288100909
0.021651968 -0.021523029 -0.020005899 4288231214
0.023541301 -0.021478903 -0.020119965 4288362029
0.025828317 -0.023076307 -0.018988069 4288558888
0.027521119 -0.022211226 -0.019725155 4288035373
0.029003941 -0.020525536 -0.021084473 4288231723
0.030682825 -0.01966062 -0.021820676 4288165423
0.032146364 -0.017975328 -0.023178792 4287772214
-0.0045473725 -0.025294185 -0.018274633 4287707698
-0.0028087795 -0.024427082 -0.019013777 4287053368
-0.0009149313 -0.024383808 -0.019128827 4287576883
0.00081524253 -0.023516711 -0.019867321 4287838514
0.0027061105 -0.023473378 -0.019982098 4287642419
0.0047658384 -0.024253596 -0.019473629 4287707698
0.0066591501 -0.024210047 -0.019588433 4288623914
0.0082034469 -0.022519331 -0.020948797 4287904048
0.010268189 -0.02329923 -0.020440482 4288231214
0.012338206 -0.024078913 -0.019932415 4288297004
0.014230922 -0.024035063 -0.020046951 4288297004
0.015567601 -0.021521252 -0.022027956 4288100144
0.017075844 -0.019831041 -0.023385894 4288296494
0.019145273 -0.020610496 -0.022877613 4288427053
0.021219961 -0.021389736 -0.02236958 4288427309
0.023299947 -0.022168852 -0.021861795 4288492589
0.025186338 -0.022124764 -0.021975659 4288427309
0.027274139 -0.022903552 -0.021468313 4288427309
0.029162921 -0.02285932 -0.021582257 4288230959
0.03063751 -0.021169432 -0.022937892 4288362538
0.031891398 -0.018657124 -0.024913507 4288033843
0.030799225 -0.023503145 -0.023435762 4287183673
0.010985397 0.0032056402 0.035386737 4280973403
0.012089446 0.0070207473 0.031894214 4280782664
0.013519071 0.0093276072 0.029752262 4281044803
0.015111364 0.010880329 0.028285667 4278635819
0.017238334 0.010171732 0.028842106 4280330038
0.019924492 0.0072023068 0.031420119 4279286579
0.022632174 0.0042334814 0.033996902 4281174853
0.034441307 0.0045100842 0.03328453 4281046589
0.0085450485 0.012209345 0.024790736 4280847688
0.0097849369 0.015278412 0.021981601 4280523073
0.011355713 0.016834935 0.020519502 4281242683
0.01291535 0.018391365 0.019058123 4279027243
0.014827661 0.018435737 0.018942453 4280329784
0.01940082 0.015501587 0.021400003 4281372223
0.021323293 0.015546439 0.021283904 4281373243
0.023631044 0.014080035 0.022511566 4280851768
0.025753967 0.013369583 0.023066945 4281046843
0.027485691 0.01417038 0.022279082 4281372988
0.031135738 0.015016424 0.021375664 4279027243
0.033265829 0.014306398 0.021930872 4279417903
0.035610139 0.012841333 0.023156615 4279419178
0.039447501 0.0060900468 0.029076569 4281567298
0.0076448172 0.014449308 0.020283978 4280913478
0.0085239634 0.019043358 0.016139433 4278961198
0.010075688 0.020603867 0.014681701 4281306433
0.012153603 0.019889688 0.015237885 4281827909
0.014236718 0.019175747 0.015793765 4281111358
0.016325057 0.018462019 0.016349399 4280655673
0.017856874 0.020022361 0.014893163 4281047098
0.019757502 0.020066759 0.014778418 4281176894
0.021850586 0.019353358 0.015333926 4281242684
0.024144277 0.017882412 0.016559238 4280916284
0.025854222 0.018684899 0.015774328 4280916284
0.027759358 0.018729685 0.015659524 4281436483
0.029460691 0.019532109 0.014875229 4281697603
0.031775169 0.018061927 0.016099492 4280524859
0.034100257 0.01659202 0.017323215 4281372478
0.03812965 0.0090633035 0.023898855 4281371713
0.043070763 -0.0014934149 0.033146918 4281305158
0.0072578117 0.014429744 0.017803336 4281043529
0.0081317797 0.019036816 0.013668785 4280068153
0.0096780956 0.020601546 0.012214683 4278635563
0.01157137 0.020645453 0.012100149 4279612724
0.01382789 0.019168897 0.013324182 4279091503
0.017811395 0.018497145 0.013763772 4280851258
0.019522026 0.019301658 0.012980236 4281046843
0.021612234 0.018586008 0.013534371 4281047099
0.023512304 0.018630559 0.013419785 4280590648
0.025412157 0.018675165 0.01330526 4279026989
0.026910216 0.020239523 0.011854557 4280915774
0.028804138 0.02028414 0.011740498 4281697859
0.03069783 0.020328822 0.011626506 4281240898
0.033426978 0.017334977 0.014183039 4281176893
0.037447467 0.0097842589 0.020743033 4281045569
0.042808175 -0.0023222221 0.031303596 4281175109
0.0072126314 0.012893755 0.016665919 4280848199
0.007739827 0.019039212 0.011204837 4280654143
0.0092807338 0.020608248 0.0097542796 4279873079
0.015496433 0.018452654 0.011414381 4279808818
0.017204553 0.019259172 0.010632604 4281176894
0.019096829 0.019303406 0.010518391 4280719933
0.020988896 0.019347684 0.010404225 4280655163
0.023075983 0.018629937 0.010956967 4280785724
0.024970308 0.018674431 0.010842785 4279222319
0.026663691 0.01948099 0.010062188 4278636073
0.030445702 0.019570185 0.0098344944 4278701864
0.033171795 0.016567582 0.012384757 4280329783
0.037188835 0.0089949891 0.018928776 4281046333
0.042331375 -0.0023846989 0.02879798 4280980543
0.0068259612 0.012887841 0.01419531 4280782154
0.0076950341 0.01752097 0.010080576 4280459579
0.0090597942 0.01985913 0.007966917 4280980544
0.010765783 0.020667573 0.0071867299 4281045824
0.012647755 0.02071132 0.007072954 4281111359
0.014898166 0.019226024 0.0082909688 4281176383
0.016972192 0.018505504 0.0088427458 4280981054
0.019051418 0.017785238 0.0093942303 4280980799
0.020943388 0.017829539 0.0092800874 4281046334
0.022835121 0.01787393 0.0091660321 4281176894
0.024726629 0.017918387 0.0090520419 4281176638
0.026216626 0.019491302 0.007608322 4280721718
0.028102234 0.019535756 0.00749479 4280461363
0.029781543 0.020344337 0.0067167873 4280655674
0.032499142 0.017332824 0.0092610903 4280981054
0.036295779 0.010502184 0.015125262 4280849983
0.041854851 -0.0024382425 0.02629905 4280849983
0.0064395443 0.012890868 0.011731399 4280388434
0.0074768439 0.016769966 0.0082915928 4280784959
0.0088389665 0.019114619 0.0061829588 4281046589
0.010542192 0.01992519 0.0054045715 4278765868
0.012239791 0.020735702 0.0046265819 4279156019
0.01448454 0.019245913 0.0058416962 4280523839
0.016365968 0.019289838 0.0057280953 4280848963
0.018626593 0.017800601 0.0069423891 4280849729
0.020513028 0.017844783 0.0068285945 4280849984
0.022204079 0.018655559 0.0060513034 4280915264
0.024087362 0.018699823 0.0059378105 4281242939
0.025769822 0.019510532 0.0051611378 4281438014
0.027649917 0.019554874 0.0050479486 4281307963
0.029529795 0.019599257 0.0049348115 4281438779
0.031826869 0.018111369 0.0061472743 4280915008
0.035614684 0.011260938 0.011997428 4280523073
0.041164391 -0.0017167497 0.023144269 4280588354
0.0063945875 0.01136438 0.010601027 4280910163
0.0070854425 0.016792798 0.0058427094 4280589374
0.0086182505 0.018374721 0.0044024256 4280525369
0.010139965 0.019956509 0.0029628323 4278771479
0.015947081 0.019318601 0.0032858271 4280133433
0.018012382 0.018593682 0.0038349335 4280915264
0.019890562 0.018637696 0.003721653 4280784703
0.021573454 0.019450458 0.0029464746 4280849984
0.023844071 0.01795732 0.0041570938 4280981054
0.025323279 0.01953871 0.0027205851 4279158314
0.031363644 0.018134831 0.0037045083 4279221044
0.035145357 0.011264661 0.0095404796 4280784703
0.04090254 -0.0025184415 0.021321032 4280980033
0.0063496158 0.0098381434 0.0094708391 4281039448
0.0072140619 0.01451046 0.0053854953 4281307963
0.008573629 0.016868128 0.0032867999 4280852023
0.010095373 0.018454293 0.0018504579 4281307708
0.011787452 0.019269051 0.0010760464 4281371969
0.015341535 0.020127403 0.0001892997 4280981053
0.017398529 0.019400122 0.00073730201 4281046334
0.019653067 0.017902074 0.0019455976 4280915518
0.021333195 0.018717 0.0011721672 4280981053
0.023205414 0.018761048 0.0010593729 4280785979
0.025077425 0.018805141 0.00094662793 4280460343
0.028820753 0.018893527 0.00072133914 4278374954
0.034676284 0.011277316 0.0070901415 4279809074
0.039784685 -0.00023388863 0.016864311 4281306433
0.044540837 -0.010202409 0.025315562 4281241408
0.0061341524 0.0090857707 0.007680628 4280779093
0.0066497698 0.015318198 0.0022850479 4280918068
0.0080012754 0.017682256 0.00019165082 4278963748
0.0096935034 0.018499142 -0.00058118836 4280721719
0.011380114 0.019315975 -0.0013536317 4281437249
0.012876995 0.020906085 -0.0027851174 4280981053
0.015109979 0.019403027 -0.0015788618 4280460598
0.017164104 0.018673511 -0.0010322996 4280916284
0.019031219 0.018717287 -0.0011448993 4280785214
0.020898141 0.01876113 -0.0012574338 4280850493
0.022962503 0.018032087 -0.00071131368 4279548209
0.025032073 0.017303208 -0.00016547693 4280720954
0.027106874 0.016574489 0.00038014771 4281436993
0.028775238 0.017391613 -0.00039073592 4281371968
0.030646488 0.017435918 -0.0005032639 4280980288
0.033784986 0.012844265 0.0033308757 4281111104
0.038881458 0.0013001263 0.01308151 4281110594
0.043409146 -0.0079244664 0.020855006 4280977483
0.0057484061 0.0091138314 0.0052351835 4279928414
0.0062589943 0.015363576 -0.00014714291 4281243449
0.0076051354 0.017734008 -0.0022353122 4278834973
0.0092919022 0.01855295 -0.0030062015 4279224359
0.011335619 0.017820774 -0.0024608031 4279418158
0.015065275 0.017907845 -0.0026860016 4279939889
0.01692979 0.017951498 -0.0027984933 4280981309
0.018794112 0.017995214 -0.0029109179 4280850238
0.02046334 0.018814204 -0.003680411 4280785214
0.022324517 0.01885801 -0.0037925255 4279090993
0.024385802 0.018126773 -0.0032477968 4278896173
0.026452281 0.01739574 -0.0027033214 4279873334
0.028523974 0.016664894 -0.0021591077 4281179698
0.030392446 0.016709117 -0.0022714811 4279547444
0.032894216 0.014428871 -0.00041531725 4278894643
0.037550971 0.0044013094 0.0079998076 4280914754
0.042927913 -0.0079486156 0.018378202 4280913733
0.0058684796 0.015417861 -0.0025726608 4280719424
0.0073850527 0.017016856 -0.0039990009 4280718914
0.0090690404 0.017837981 -0.0047681294 4280590139
0.011291109 0.016325811 -0.0035677948 4279613233
0.012971997 0.017146939 -0.0043366044 4280199224
0.015020579 0.016412878 -0.003792983 4281176639
0.016695626 0.017234055 -0.0045613009 4281176639
0.018365026 0.01805521 -0.0053292718 4280981053
0.020223603 0.01809887 -0.005441295 4281046078
0.022279516 0.017365238 -0.0048978529 4281111358
0.024140403 0.017409088 -0.0050099124 4279743284
0.025798075 0.018230269 -0.0057769557 4278374954
0.027450137 0.019051338 -0.0065435646 4279682083
0.032003976 0.016031111 -0.0041484511 4280327489
0.036648937 0.0059749763 0.0042463639 4280588098
0.042013891 -0.0064100744 0.014599601 4280848453
0.0061701983 0.01236078 -0.0023707056 4280784959
0.0076922476 0.013964269 -0.0037941313 4280979778
0.0093816742 0.014787631 -0.0045619425 4281109829
0.011427753 0.014051177 -0.0040199081 4280848454
0.013111331 0.014874572 -0.0047872406 4280783174
0.014975876 0.01491815 -0.0048997854 4281044804
0.016650893 0.015741507 -0.0056664846 4280849218
0.018704332 0.015005538 -0.0051246616 4280784194
0.020568244 0.015049329 -0.0052369996 4280980034
0.022431977 0.015093191 -0.0053492715 4280979778
0.024095312 0.015916554 -0.0061150552 4280848964
0.025550067 0.01751929 -0.0075338874 4281175618
0.027199417 0.01834246 -0.0082987268 4280914754
0.029259749 0.017607061 -0.0077570127 4281175619
0.031747401 0.015313411 -0.0059097079 4280587844
0.035747431 0.0075662881 0.00050598988 4280783683
0.041316874 -0.0056329863 0.011486704 4280783683
0.0059544742 0.0029929876 0.0031688991 4283790133
0.0066446438 0.0085129049 -0.0015213967 4281245234
0.0081748664 0.010120941 -0.0029420825 4281244468
0.0098723769 0.010946732 -0.0037087929 4281181229
0.011745363 0.010990342 -0.0038219737 4281049904
0.013434343 0.011816042 -0.0045880154 4281506098
0.015304223 0.011859741 -0.004700887 4281637168
0.017173886 0.011903534 -0.004813672 4281637424
0.019235335 0.011165565 -0.0042739566 4281506098
0.021107301 0.011209572 -0.0043867612 4281636659
0.022979103 0.011253601 -0.0044995379 4281115948
0.024650566 0.012079356 -0.0052641761 4281179188
0.026316382 0.01290502 -0.0060284436 4280981818
0.027771011 0.01451212 -0.0074439473 4281307199
0.029631093 0.014556156 -0.0075558065 4281176128
0.032334864 0.011474796 -0.0050623845 4281370693
0.036128618 0.0044873711 0.0006855512 4281240134
0.041269489 -0.0071863355 0.010336565 4281370439
0.0060796961 0.00068588182 0.0026935562 4284117809
0.0069458187 0.005436657 -0.0013336344 4281243959
0.0086570755 0.006264817 -0.0020995827 4281441329
0.010362722 0.0070929173 -0.0028651368 4281115184
0.011881702 0.0087052323 -0.0042817676 4281245234
0.013940856 0.0079647973 -0.0037437046 4281245234
0.015632331 0.0087928083 -0.0045082225 4281245234
0.017696522 0.0080526695 -0.003970331 4281113909
0.019765951 0.0073127002 -0.0034327235 4280722994
0.021646 0.0073568728 -0.0035460324 4280854063
0.023328505 0.0081849881 -0.0043097776 4280788783
0.025205441 0.0082292296 -0.0044227941 4280593199
0.027082145 0.0082735363 -0.004535744 4280331824
0.028958663 0.0083178896 -0.0046486463 4280723249
0.030626766 0.0091459323 -0.0054113232 4281309749
0.032921955 0.0076232478 -0.0042245598 4281045824
0.036509566 0.0013999064 0.00085885637 4280979268
0.04122211 -0.0087394817 0.0091865771 4281174600
0.0058646351 -5.1982701e-05 0.00091409218 4284379439
0.0070739239 0.0031385291 -0.001802461 4281831223
0.008787863 0.0039689541 -0.0025670067 4282223924
0.010496184 0.004799312 -0.0033310917 4281831223
0.012017906 0.0064160265 -0.0047446699 4281766454
0.014079623 0.0056734886 -0.0042083655 4281831479
0.01614657 0.0049311481 -0.003672326 4281961529
0.018218756 0.0041889828 -0.0031365594 4281962804
0.019912519 0.0050194003 -0.0038994695 4281897778
0.021795176 0.0050636269 -0.0040129418 4281637168
0.023480393 0.0058939755 -0.0047752387 4281506354
0.025359958 0.0059382711 -0.00488842 4281441073
0.0272393 0.0059826337 -0.0050015352 4281376048
0.029118448 0.0060270503 -0.0051145926 4281441073
0.030997388 0.0060715247 -0.0052275928 4281243958
0.033297814 0.0045446176 -0.0040443726 4281698879
0.037317365 -0.0032673813 0.0023216931 4282089539
0.041390993 -0.011078015 0.0086844955 4281238093
0.0058197305 -0.0015741251 -0.00021305867 4284379949
0.0073746517 4.7519803e-05 -0.0016256275 4282551089
0.0089185387 0.0016689152 -0.0030374511 4282030123
0.010629527 0.0025015399 -0.0038001335 4282028339
0.012334883 0.0033340864 -0.0045623626 4281769005
0.014218248 0.0033780187 -0.0046761096 4282093619
0.015915096 0.0042105075 -0.0054377206 4282224688
0.017984398 0.00346612 -0.0049033826 4282158133
0.019867189 0.0035102665 -0.0050169243 4281832498
0.021749765 0.0035545155 -0.0051303743 4281637934
0.023434952 0.0043870155 -0.0058910698 4281506863
0.025314435 0.0044313092 -0.0060042464 4281506098
0.027193695 0.0044756699 -0.0061173555 4281180973
0.029072769 0.0045200866 -0.0062304079 4281571123
0.031159684 0.0037765894 -0.0056967782 4281372478
0.033673406 0.0014574267 -0.0038704493 4281699134
0.037270673 -0.0048005218 0.0011865119 4282219843
0.040911175 -0.011057352 0.0062408703 4282020434
0.0059447885 -0.0038870713 -0.00069272867 4284379949
0.0073297694 -0.0014700517 -0.0027493858 4282682158
0.0090490729 -0.00063519739 -0.0035109837 4282551598
0.010762744 0.00019962713 -0.004272168 4282224944
0.012651637 0.00024358742 -0.0043863226 4282485043
0.014723875 -0.00050305016 -0.0038538836 4282551598
0.016428843 0.00033179857 -0.0046143727 4282681393
0.018317156 0.00037599914 -0.0047283047 4282551598
0.020013586 0.0012108367 -0.0054882118 4282485553
0.021898784 0.0012551397 -0.0056018247 4282289968
0.02378381 0.0012994893 -0.0057153916 4282093364
0.025668643 0.0013438798 -0.0058289105 4281507119
0.027755819 0.00059804134 -0.0052969656 4281637169
0.029232383 0.002223108 -0.0067009022 4281700664
0.031321883 0.0014774855 -0.0061690519 4282026554
0.033838049 -0.00084815919 -0.0043477272 4282156604
0.037650853 -0.007913487 0.001340861 4282415938
0.0074575245 -0.0037805494 -0.0032274448 4283269679
0.0091795027 -0.0029434729 -0.003987602 4282682158
0.010895848 -0.002106417 -0.0047473349 4283139629
0.012968123 -0.00285534 -0.004216596 4283725873
0.01486215 -0.0028111525 -0.0043309825 4283465519
0.016756013 -0.0027669091 -0.0044453135 4282615348
0.018271826 -0.001137061 -0.005848675 4282746929
0.020159848 -0.0010927822 -0.0059625264 4282615349
0.022047684 -0.0010484364 -0.0060763131 4282552365
0.024132408 -0.0017966237 -0.0055459947 4282485043
0.026022591 -0.0017520972 -0.0056598303 4282354995
0.02791255 -0.0017075147 -0.0057736072 4281637678
0.029802337 -0.0016628653 -0.0058873193 4282028084
0.031483971 -0.00082584284 -0.0066443807 4281635383
0.034213215 -0.0039502066 -0.0041848053 4281895994
0.037817426 -0.010242794 0.00084581226 4281893443
0.017269082 -0.0066691674 -0.0036394056 4283859749
0.018981926 -0.0058297189 -0.0043970896 4283662633
0.020880744 -0.0057851942 -0.0045115971 4283203633
0.022585049 -0.0049457671 -0.0052687079 4283400494
0.024283767 -0.0041064303 -0.0060253772 4283335724
0.025777124 -0.0024724733 -0.007423942 4283073073
0.027866744 -0.0032225698 -0.0068954229 4282224179
0.029961593 -0.003972522 -0.0063672033 4282680118
0.032269552 -0.0055168141 -0.0051974077 4282548794
0.034798734 -0.0078551602 -0.0033866037 4282613563
-0.0039102063 -0.0016819257 0.040402647 4281553274
0.0045329481 -0.0037635434 0.041944575 4280438413
0.0068570301 -0.0052262302 0.043173734 4279193758
0.0086949542 -0.0044261664 0.042377003 4278735269
0.0098538995 -0.00060999393 0.038881 4281159808
-0.0047021359 0.00050552003 0.035848461 4280766344
-0.0012118742 0.0028648823 0.033585425 4279188914
0.0033656508 -7.1013346e-05 0.036041345 4279585438
0.0055076107 -0.00078206323 0.036594797 4279193248
0.0071581528 0.00077597611 0.035127547 4278735013
0.007956259 0.0061149541 0.030294538 4279196564
-0.0051951483 0.0011973642 0.03265639 4282205819
-0.0035299808 0.0027596317 0.031191144 4279848599
-0.0015667081 0.0028042644 0.031071711 4279782808
0.00039638579 0.0028490014 0.030952364 4278864299
0.0026793405 0.001376614 0.032177512 4278601904
0.0049729794 -9.538047e-05 0.033402052 4278668968
0.0067808628 0.00070833601 0.032610435 4278538409
-0.0056878105 0.0019026306 0.029474184 4279255723
-0.0037272051 0.0019471254 0.029354852 4278403003
0.0024734661 0.00055961497 0.030338552 4279058863
0.0046014413 -0.00015608221 0.030889641 4278668968
0.0064038187 0.00064972602 0.030100014 4279061923
-0.0060310811 0.0018580332 0.026971541 4279520924
-0.0037725642 0.00037612207 0.028191444 4278274483
0.0021077693 0.00051023252 0.027834028 4278865829
0.0042301193 -0.00020774454 0.028383862 4278472618
0.0060269982 0.00060011633 0.027596179 4278865573
-0.0065230802 0.002587853 0.023807524 4279784084
-0.0044246614 0.0018667392 0.024356885 4279193249
-0.0023209751 0.0011458639 0.024906019 4279062178
-0.00036915392 0.0011903904 0.024787394 4278931363
0.0017423332 0.00046983361 0.025336228 4278603943
0.0036964715 0.0005146265 0.025217621 4278603434
0.0054851249 0.0013245512 0.024432043 4278603178
-0.0068658069 0.0025634263 0.021319823 4280570248
-0.0028293133 0.0018842854 0.021749733 4278792133
-0.00072872639 0.0011612624 0.022297511 4278792643
0.0015368909 -0.00032885373 0.023510762 4279781533
0.0034881979 -0.00028413162 0.023392322 4278800548
0.0052740872 0.00052789226 0.022608591 4278472873
-0.0072083026 0.0025480371 0.018838743 4280699279
-0.0052727163 0.002592029 0.018720983 4278402238
-0.0034915656 0.0034057237 0.017938862 4278924734
-0.0014020503 0.0026802868 0.018485704 4278530248
0.0010121614 0.0004160367 0.020360557 4278666419
0.0031176284 -0.00030885823 0.020906562 4278931108
-0.0072530136 0.0009977445 0.017690668 4280371603
-0.0054690242 0.0018135943 0.016909927 4280568719
-0.0036906749 0.0026294366 0.016129615 4279585183
0.000647448 0.00040262938 0.017882677 4278797233
0.002584897 0.00044707581 0.017765108 4278865063
0.0045221671 0.00049160793 0.017647617 4278866083
-0.0077438429 0.0017700866 0.014558146 4281880949
-0.0056652352 0.0010398049 0.015102312 4279321003
-0.0037355125 0.0010837819 0.014984997 4280174998
-0.0016491041 0.00035392493 0.015528796 4279913114
0.0018902346 0.0019901283 0.013972811 4279257764
0.0038165003 0.0020344183 0.013855994 4278735014
-0.0080856606 0.0017794296 0.012095459 4282143089
-0.0058613345 0.00027069449 0.013298091 4278794939
0.0016828403 0.0012229048 0.012170943 4278930343
0.0034412891 0.0020430498 0.011395374 4279062689
-0.0059059784 -0.0012722732 0.012155451 4280568718
-0.0038252026 -0.002006745 0.012696339 4279847323
-0.0017391741 -0.0027409298 0.013236953 4279781533
3.3207238e-05 -0.0019184873 0.012462011 4279323298
0.0016377568 -0.00031786971 0.011029966 4279126949
0.0032312423 0.001282556 0.0095987115 4279456154
0.00014750659 -0.0042437399 0.011974035 4280828819
0.0020790398 -0.0041994145 0.011856839 4279126439
0.0038455427 -0.0033747004 0.011084039 4279194524
0.0049361512 0.00057082996 0.0076894392 4279066259
0.04204686 -0.019894505 -0.012892717 4282994278
-0.038328137 -0.021621849 -0.010425056 4282536044
0.043010496 -0.018121492 -0.016643088 4280501908
-0.040378425 -0.02236603 -0.012066574 4281420419
-0.034127008 -0.02150053 -0.024390751 4282797928
-0.013666559 -0.020213459 -0.026273049 4283059814
-0.019591473 -0.020172106 -0.028278027 4282535534
-0.019769829 -0.020829001 -0.030000202 4282666859
-0.014040571 -0.021536583 -0.029722983 4282733414
-0.039489392 0.011970362 0.032090925 4285033003
-0.037753519 0.013519129 0.030610159 4285361443
-0.036028657 0.015067736 0.029130206 4286017814
-0.034203637 0.015863089 0.028331049 4286146588
-0.032270283 0.015905371 0.028212193 4286211868
-0.02998716 0.013688693 0.030132495 4285754144
-0.027926516 0.012978381 0.030692894 4285426979
-0.02573847 0.011515416 0.031932343 4285295908
-0.023789283 0.011558503 0.03181285 4285164328
-0.022095308 0.013107231 0.030335389 4285164584
-0.020282138 0.013903176 0.029537518 4285229354
-0.018341571 0.013946382 0.029418789 4285753633
-0.016265448 0.013237072 0.029978722 4285818913
-0.01418405 0.012528026 0.030538373 4285359659
-0.040046509 0.014188621 0.027541384 4285558304
-0.038429964 0.016496921 0.025385972 4285754909
-0.036504712 0.016538797 0.025267441 4285754143
-0.034579571 0.016580788 0.025149006 4285622563
-0.032654539 0.016622888 0.02503066 4285951769
-0.030729633 0.016665103 0.024912408 4285820188
-0.02880485 0.016707433 0.024794254 4285689119
-0.026758175 0.01599477 0.02535392 4285624604
-0.024581425 0.014527297 0.026590968 4285624604
-0.023031302 0.016835073 0.024440331 4285689628
-0.021107081 0.016877824 0.024322532 4285952023
-0.019315932 0.017675525 0.023527753 4286147863
-0.017123442 0.0162089 0.024764135 4286213144
-0.015335333 0.017006742 0.023969697 4286017049
-0.013129547 0.015540624 0.02520543 4285426724
-0.010193899 0.010301776 0.029822696 4285164073
-0.040397294 0.01491365 0.024362829 4285492514
-0.038577687 0.015713038 0.023567092 4286083858
-0.036871977 0.017270038 0.022094786 4285885724
-0.034844093 0.016554313 0.022653706 4285753888
-0.032924663 0.016596304 0.022535717 4285754398
-0.030888833 0.01588103 0.023094282 4286148884
-0.029086158 0.016680634 0.02230002 4285623839
-0.027289066 0.017480267 0.021506136 4285558558
-0.02524817 0.016765395 0.022064682 4285624093
-0.023329385 0.016807938 0.021947151 4285820699
-0.021410748 0.0168506 0.021829719 4285820189
-0.019625131 0.017650412 0.021036863 4285622563
-0.017709523 0.017693223 0.020919781 4285556774
-0.015794076 0.017736131 0.020802777 4285754654
-0.013737746 0.017022261 0.021360865 4285623583
-0.010813564 0.011767957 0.025967469 4285295399
-0.040747736 0.015652081 0.021194205 4285361443
-0.03904194 0.017213294 0.019725095 4285690138
-0.037238881 0.018014627 0.018932089 4286017048
-0.035219386 0.017296588 0.019489869 4286082328
-0.033308271 0.017338412 0.0193724 4286214419
-0.031513732 0.018139916 0.018580182 4285886489
-0.029605586 0.018181892 0.018463057 4285624093
-0.027575672 0.017464543 0.019020543 4285624094
-0.025540426 0.016747439 0.019577794 4285623839
-0.023754582 0.017549196 0.018786438 4286018068
-0.021714184 0.016832424 0.019343534 4286083603
-0.019934088 0.017634278 0.018552698 4286082838
-0.018024061 0.017676974 0.018435964 4286016793
-0.016114194 0.017719777 0.018319318 4286148374
-0.014063507 0.01700365 0.018876093 4285557793
-0.011145338 0.011733921 0.023471778 4285361699
-0.040995046 0.01564181 0.018709607 4285427233
-0.039294731 0.017207267 0.017244073 4285558048
-0.037605435 0.018772667 0.015779277 4285623583
-0.035705253 0.018814133 0.015662393 4285754398
-0.033918858 0.019617537 0.014872221 4285688608
-0.03178886 0.018135684 0.016102148 4285623329
-0.029767189 0.017415831 0.016658491 4285623839
-0.027618356 0.015934611 0.017887432 4285623838
-0.025832452 0.016738465 0.017097628 4285623839
-0.024052136 0.017542301 0.016308244 4285689119
-0.022147395 0.017584672 0.016191678 4285885979
-0.020242803 0.017627155 0.016075201 4286082838
-0.018473834 0.01843111 0.015286719 4285951513
-0.016572282 0.018473754 0.0151706 4285623328
-0.014389038 0.016994024 0.016398046 4285492513
-0.011476889 0.011708947 0.020982729 4285361444
-0.04124213 0.015640551 0.016231677 4285493024
-0.039547309 0.017210318 0.014769701 4285624348
-0.037863474 0.018779894 0.01330851 4285754653
-0.035968892 0.018821256 0.013191983 4285688864
-0.034188036 0.019626779 0.012403734 4285623074
-0.032180075 0.018904334 0.012959216 4285689373
-0.030047737 0.017418304 0.014185863 4285689373
-0.027904615 0.015932566 0.015411964 4285624094
-0.025999729 0.015974728 0.01529523 4285623839
-0.024349455 0.01754445 0.01383668 4285689628
-0.022450306 0.01758671 0.013720466 4285689373
-0.02081665 0.019156208 0.012263115 4285689374
-0.018787846 0.018435055 0.012817863 4285623583
-0.017029986 0.019241022 0.012031808 4285623839
-0.014714338 0.01699342 0.013926612 4285558813
-0.011951782 0.012456249 0.017830444 4284900915
-0.041181069 0.013349088 0.015772939 4285493023
-0.039694272 0.016455973 0.012972699 4285623583
-0.038013194 0.018029904 0.011514885 4286148373
-0.036232304 0.018837446 0.010728212 4286147864
-0.034343436 0.018878812 0.010612132 4286214164
-0.032338407 0.018154191 0.011166148 4285754654
-0.03020905 0.016663684 0.012389774 4285623584
-0.028190643 0.015939591 0.012943145 4285623839
-0.026291348 0.015981635 0.012826758 4285624094
-0.024519365 0.016789677 0.012041148 4285689629
-0.022752967 0.017597707 0.011255965 4285820444
-0.021257397 0.019937241 0.0091331527 4286214673
-0.019507635 0.020745134 0.0083491635 4286083348
-0.017487347 0.020021727 0.0089028943 4285623838
-0.015180178 0.017767364 0.01079341 4285361699
-0.012282789 0.012451461 0.015356341 4284967214
-0.041427858 0.013359338 0.013303466 4285493024
-0.040051736 0.017243361 0.0098409895 4285689118
-0.038270827 0.01805299 0.0090558585 4286213909
-0.036384717 0.018094176 0.0089398623 4286082583
-0.034385238 0.017367141 0.0094925184 4286214163
-0.032496624 0.017408634 0.0093765501 4285885979
-0.030489184 0.016681982 0.0099288709 4285623583
-0.028476425 0.015955543 0.010481013 4285623838
-0.026458338 0.015229365 0.011032855 4285623838
-0.024689153 0.016039537 0.010249045 4285689374
-0.022925559 0.016849736 0.0094656162 4285951769
-0.021300115 0.018427813 0.0080152787 4286148119
-0.019550417 0.01923787 0.0072328974 4286148629
-0.01753033 0.018512292 0.0077850311 4286148628
-0.01522347 0.016251402 0.009670727 4285426979
-0.012470111 0.011687929 0.013555657 4285098539
-0.041674417 0.013378568 0.01084072 4285492514
-0.040198337 0.016502677 0.0080541056 4285951513
-0.038528226 0.018085072 0.0066035013 4285557283
-0.036647707 0.018126154 0.0064878627 4285688354
-0.03465388 0.017396817 0.0070392438 4285754144
-0.032770853 0.01743819 0.0069236257 4285754398
-0.03076908 0.016709255 0.0074746902 4285754909
-0.028761972 0.015980562 0.0080255214 4285624094
-0.02674954 0.0152521 0.0085761063 4285623838
-0.024858836 0.015294088 0.0084603447 4285754909
-0.023227811 0.016876539 0.0070128231 4285754398
-0.021475323 0.017688761 0.0062318337 4285754399
-0.01972843 0.018500937 0.0054512448 4285754143
-0.017711248 0.01777312 0.0060019442 4286016794
-0.015548114 0.016275616 0.007217675 4285492004
-0.012800686 0.011698881 0.011093292 4285163819
-0.0433136 0.0095007047 0.011832023 4284966448
-0.042125661 0.014952736 0.007052613 4285426723
-0.040555209 0.017312439 0.0049389661 4286082839
-0.038677473 0.017353373 0.0048234281 4286082583
-0.036799829 0.017394396 0.0047079665 4285951258
-0.034808926 0.016662763 0.005257945 4285951003
-0.033044863 0.017476777 0.0044773133 4286214673
-0.030811105 0.015200322 0.0063571255 4285624093
-0.028804209 0.014469434 0.006906345 4285624093
-0.026791975 0.0137388 0.0074553336 4285623839
-0.025282364 0.01609805 0.0053461553 4286083603
-0.023400106 0.016139986 0.0052310084 4286083094
-0.021650419 0.016954327 0.0044518127 4285490983
-0.019636016 0.016224181 0.0050009959 4285491239
-0.017754182 0.016266415 0.004886108 4285622818
-0.015591301 0.014764549 0.0060986201 4285754908
-0.012987696 0.010946842 0.009301044 4285163819
-0.042474024 0.01576951 0.0039420188 4285492259
-0.040911723 0.01813552 0.001833763 4285689628
-0.039042301 0.018176267 0.0017187353 4286214164
-0.037172977 0.018217107 0.0016037859 4286082583
-0.035190456 0.017483195 0.0021526483 4286149138
-0.03331862 0.017524337 0.0020377268 4285755673
-0.031209398 0.016016027 0.0032496215 4285624349
-0.029210865 0.015282745 0.003797784 4285558558
-0.027331207 0.015324408 0.003682639 4285558303
-0.025705528 0.016915413 0.0022418103 4285689629
-0.023961227 0.017731698 0.0014644773 4286083859
-0.022090133 0.017773489 0.0013500922 4286082584
-0.020084098 0.017040981 0.0018981718 4286017049
-0.017934933 0.01553431 0.0031082532 4286082583
-0.016056109 0.015576614 0.0029936521 4285755418
-0.013317868 0.010973595 0.0068503856 4285361189
-0.042617343 0.015044944 0.0021668575 4285426469
-0.040952668 0.016640211 0.00072623743 4285360933
-0.038867813 0.015126543 0.0019360441 4285492004
-0.037214216 0.016721802 0.00049628643 4285557539
-0.035118662 0.015208622 0.0017056218 4285491749
-0.033244245 0.01524982 0.0015905392 4285623839
-0.031013865 0.012960218 0.003460851 4285624093
-0.029374346 0.014555668 0.0020222482 4285624348
-0.027621679 0.015374092 0.0012458521 4285624348
-0.026001461 0.016969303 -0.00019135373 4285624094
-0.024133101 0.017010937 -0.00030563911 4285623328
-0.022264868 0.017052678 -0.00041983882 4285820188
