# .PCD v0.7 - Point Cloud Data file format
VERSION 0.7
FIELDS x y z rgba
SIZE 4 4 4 4
TYPE F F F U
COUNT 1 1 1 1
WIDTH 962
HEIGHT 1
VIEWPOINT 0 0 0 1 0 0 0
POINTS 962
DATA ascii
0.011033684 -0.004592373 0.035089117 4290979349
0.013010703 -0.0045522219 0.034984674 4291110418
0.015145689 -0.0052752271 0.035550293 4290521369
0.017446719 -0.0067611076 0.036785491 4289801503
0.019431293 -0.0067205187 0.036680859 4289932319
0.021581963 -0.007442873 0.037245821 4289866784
0.023399808 -0.006639082 0.036471833 4290258974
0.025383726 -0.0065982323 0.036367439 4290978583
0.027192965 -0.0057944264 0.035594042 4291240469
0.029173702 -0.0057534669 0.035489947 4291109654
0.03133411 -0.0064751785 0.036054727 4290848024
0.033682324 -0.0079593696 0.037287973 4289147174
0.036411896 -0.01096859 0.039857782 4289080364
0.0088656396 -0.005450624 0.033351842 4289345308
0.010687403 -0.0046451474 0.032578837 4289867293
0.01250352 -0.0038396632 0.031806219 4289867294
0.014630131 -0.0045649512 0.032370638 4289802269
0.016761981 -0.005290051 0.032934841 4289670943
0.018899061 -0.0060149347 0.03349885 4289867294
0.021041386 -0.0067396509 0.034062702 4289866783
0.022851013 -0.0059337961 0.033290729 4289866784
0.024998344 -0.006658229 0.033854447 4290128158
0.026802085 -0.005852324 0.03308291 4289800993
0.028777272 -0.0058114408 0.032979138 4289866529
0.030932084 -0.006535477 0.033542644 4289474084
0.033274658 -0.0080241365 0.034772955 4289277734
0.036183737 -0.01180697 0.03800353 4289341993
0.008525081 -0.0054965103 0.030846285 4289215514
0.010341331 -0.0046889298 0.030075213 4290457109
0.012307242 -0.0046490021 0.029971363 4290390808
0.014272936 -0.0046089608 0.029867606 4289540129
0.016399167 -0.0053363247 0.030430509 4289539873
0.01853063 -0.0060634771 0.030993218 4290063389
0.020667322 -0.0067904377 0.031555712 4289867294
0.022640362 -0.0067498786 0.03145184 4289866783
0.024784788 -0.0074764853 0.032014072 4289670433
0.026585765 -0.0066684755 0.031244354 4289408549
0.028381072 -0.0058604935 0.030475007 4289343269
0.030350491 -0.005819655 0.030371593 4289277734
0.032684676 -0.0073128222 0.031599127 4289342503
0.035770439 -0.011873757 0.035487395 4289081383
0.038700625 -0.015666943 0.038708847 4289276458
0.007885173 -0.0039935475 0.027016286 4289608979
0.0098429769 -0.0039538359 0.026912818 4291045904
0.01180058 -0.0039140722 0.026809409 4291176208
0.013915956 -0.0046439059 0.027371215 4291110418
0.016036555 -0.0053735506 0.02793281 4290390554
0.017999016 -0.0053333733 0.027829373 4289866783
0.020293504 -0.0068322914 0.029055407 4289735969
0.022092134 -0.0060223006 0.028287321 4289866783
0.02439981 -0.0075207176 0.029512757 4289801248
0.026195288 -0.006710629 0.028744964 4291044119
0.028162092 -0.0066698948 0.028641645 4291240469
0.030128703 -0.0066291066 0.028538382 4290978583
0.032277517 -0.007357453 0.029099023 4289211688
0.034987047 -0.010393168 0.031650525 4289146919
0.038093835 -0.014966615 0.035528004 4286267713
0.0073954314 -0.003244956 0.023863323 4288496414
0.0093449354 -0.0032054065 0.0237603 4289409058
0.011604615 -0.0047097625 0.024984661 4289932574
0.01340127 -0.003897965 0.024217978 4290652183
0.015674181 -0.0054018693 0.025441779 4289474083
0.017631069 -0.0053617796 0.025338657 4289670688
0.01991988 -0.0068651084 0.026561724 4289605408
0.021713011 -0.0060530379 0.025795558 4289605408
0.023672007 -0.0060126372 0.025692524 4290128668
0.025456555 -0.0052005919 0.024926925 4290455579
0.027589321 -0.0059315953 0.02548668 4290259228
0.02972734 -0.0066624358 0.026046205 4290913558
0.031870551 -0.0073931199 0.026605565 4289996833
0.034574293 -0.010437616 0.029150864 4288949548
0.037675247 -0.015024279 0.033019003 4288164148
0.0088472441 -0.0024436768 0.020617709 4287838003
0.010943398 -0.0031783441 0.021177232 4289081384
0.013044782 -0.0039128223 0.021736544 4289670944
0.015312016 -0.0054211337 0.022957379 4290390554
0.017263338 -0.0053811446 0.022854559 4289801759
0.01938048 -0.0061150528 0.023413295 4289474593
0.021334134 -0.0060748551 0.023310473 4289670943
0.02328755 -0.0060345549 0.023207745 4290782743
0.025066599 -0.0052203704 0.022444032 4289277989
0.026840009 -0.0044062873 0.021680698 4288885544
0.028966971 -0.0051394906 0.022239219 4288950824
0.031463824 -0.0074197585 0.024118718 4289211433
0.034346841 -0.011246666 0.027318338 4289474083
0.0086545423 -0.0032213237 0.018806063 4290585884
0.010592729 -0.0031818952 0.01870372 4290717464
0.012846313 -0.0046949657 0.019922026 4290783254
0.014950067 -0.0054314723 0.020479668 4290390043
0.017059065 -0.0061677629 0.021037115 4289539873
0.019173309 -0.0069038514 0.021594355 4289474594
0.021124125 -0.0068636928 0.021491697 4289670688
0.022731952 -0.0052714637 0.020070024 4291109909
0.024502799 -0.0044553084 0.019308403 4290979093
0.026091151 -0.002863273 0.017887831 4290324763
0.028566182 -0.0051505873 0.019763581 4290390043
0.030692764 -0.0058858925 0.020320566 4290454304
0.033749521 -0.010499679 0.024171567 4288883758
0.036838688 -0.015112677 0.028020876 4287248444
0.008461982 -0.003994422 0.016997859 4289407529
0.010242313 -0.003176542 0.016236877 4289996834
0.012490198 -0.0046940204 0.017452221 4289473828
0.014748797 -0.0062112371 0.018667107 4289474339
0.016854912 -0.0069497684 0.019223085 4289473829
0.018468589 -0.0053532328 0.017804209 4289474084
0.020745635 -0.0068697585 0.019018283 4289474084
0.02251935 -0.0060514314 0.018258078 4289473574
0.024287425 -0.0052331612 0.017498218 4290651164
0.0256963 -0.0028587542 0.015423384 4290847769
0.027986124 -0.0043746643 0.016637046 4290520603
0.030104391 -0.0051123798 0.01719288 4289473829
0.032967627 -0.0089614708 0.020377371 4289342248
0.035857804 -0.012809921 0.023560513 4288032569
0.0076605976 -0.0016398607 0.012563768 4287181634
0.011661313 -0.0023421915 0.013017968 4286986049
0.013906054 -0.003864049 0.014230351 4288360243
0.015998386 -0.0046050325 0.014785445 4289014574
0.017930128 -0.0045653377 0.014683739 4288687408
0.020030238 -0.0053059887 0.015238552 4288949293
0.021964312 -0.0052660722 0.01513685 4288884269
0.023550175 -0.0036654789 0.013722877 4289342504
0.025124967 -0.0020649889 0.012309503 4288557104
0.027047552 -0.0020250631 0.012208587 4288295219
0.028969906 -0.0019850591 0.012107747 4288687918
0.031816423 -0.0058453772 0.01528504 4288687663
0.0350651 -0.011265134 0.019771935 4286986303
-0.021522775 0.010236168 0.035835866 4281046589
-0.019681666 0.011027215 0.035050832 4280656439
-0.0056391209 0.0090363305 0.03636115 4282478923
-0.0038156137 0.0098279677 0.035577677 4281827398
-0.0011780411 0.0061031636 0.038869843 4282411859
0.0020439476 -0.00063161366 0.04487678 4281698368
0.0051727593 -0.0066127246 0.050202355 4282479689
-0.026090469 0.013130512 0.030810973 4281240644
-0.024579812 0.01618983 0.027990418 4279353133
-0.022872511 0.017737927 0.026529221 4279551523
-0.020952206 0.017775154 0.026426459 4278571558
-0.016877066 0.016339371 0.027578374 4281764413
-0.014831524 0.01562182 0.028154045 4280915519
-0.013026528 0.016414801 0.027372902 4280784703
-0.011101481 0.016452679 0.027270297 4281111613
-0.009304978 0.01724573 0.026489785 4281045569
-0.0055949837 0.018076861 0.025607599 4279811370
-0.0032663792 0.015850333 0.02753835 4280071724
-0.00036446005 0.010604778 0.032178126 4279939889
0.0030014664 0.0030956734 0.038847785 4281697348
0.0062769502 -0.0036574621 0.044837538 4281828674
0.0093063712 -0.0089001087 0.049470741 4282481218
-0.027660795 0.0085119475 0.032477949 4282674253
-0.026854601 0.016884474 0.024918621 4280589374
-0.025362957 0.019952113 0.022105612 4281567809
-0.023456313 0.019988989 0.022003515 4281958979
-0.021549791 0.020025952 0.021901496 4281568319
-0.019528713 0.01930554 0.022476697 4281112124
-0.01773715 0.020100227 0.021697734 4280981308
-0.015710879 0.019380121 0.022272814 4281176894
-0.013802186 0.019417597 0.022171022 4280980288
-0.011893637 0.019455148 0.0220693 4280327489
-0.0099852458 0.019492833 0.021967685 4280196928
-0.0080770105 0.019530607 0.021866148 4281241664
-0.0063027143 0.020325618 0.021088596 4281176128
-0.0042610392 0.019606473 0.021663344 4279223084
-0.0019356385 0.017373471 0.023589505 4281436993
0.0013996363 0.0098419171 0.030244654 4281502528
0.0047891885 0.0023116339 0.036896985 4282286399
-0.028001521 0.0092332158 0.029294578 4282804814
-0.027099345 0.016869655 0.022429626 4280654399
-0.025613096 0.019945985 0.019623354 4279287854
-0.023821231 0.02074256 0.018845771 4279744303
-0.021811124 0.020019634 0.019419858 4280331059
-0.017892297 0.019334083 0.019892078 4280851514
-0.015989039 0.019371329 0.019790487 4280980543
-0.014331572 0.020927785 0.018338874 4281045569
-0.012308523 0.020205664 0.01891268 4280197948
-0.010536712 0.021002611 0.018136732 4278699824
-0.0087705031 0.021799559 0.017361168 4281045568
-0.0070099197 0.022596551 0.016585944 4281502783
-0.0048456118 0.021115651 0.017834198 4280656439
-0.0023922101 0.018116629 0.020430332 4280460344
0.00065038353 0.012081526 0.025721602 4281307963
0.004025653 0.0045290943 0.032358538 4281699643
0.0071605071 -0.0015039593 0.037645068 4284581143
-0.02824099 0.0092057101 0.026795806 4282869329
-0.027343884 0.016863862 0.019947316 4281241409
-0.025863029 0.019948831 0.017147826 4278960943
-0.024076711 0.020747529 0.016372124 4279616038
-0.022184107 0.020784272 0.016270878 4279229714
-0.02017704 0.020059174 0.016843634 4279876394
-0.018281966 0.020096174 0.016742414 4281112124
-0.016266998 0.019371523 0.017314885 4281111613
-0.01449224 0.020170501 0.01654025 4280915519
-0.012597594 0.020207828 0.016439306 4280980034
-0.010959528 0.021768523 0.014992087 4278373169
-0.0027093664 0.018111838 0.017953621 4280004659
0.00032722205 0.01205912 0.0232323 4281177403
0.0036963373 0.0044848137 0.029853331 4281634364
0.0068251863 -0.0015658187 0.035127293 4282945829
-0.028480258 0.0091872346 0.024303649 4281762118
-0.027588226 0.016867137 0.017471649 4280851003
-0.026112754 0.019960726 0.014678928 4280588609
-0.024441052 0.021525631 0.013232627 4281241919
-0.022444967 0.020798096 0.013804245 4280980544
-0.020443551 0.020070778 0.01437566 4281372223
-0.018436812 0.019343665 0.014946866 4281438269
-0.016544744 0.019380743 0.014845907 4281242429
-0.014898233 0.020945719 0.01340137 4281437248
-0.013011899 0.020982897 0.013300879 4281176638
-0.011382036 0.022547765 0.011857389 4280654144
-0.0095014535 0.02258504 0.011757364 4280785469
-0.0076210275 0.022622412 0.011657414 4280785978
-0.0054681003 0.021132642 0.012899781 4281307198
-0.0028872415 0.017352397 0.016154559 4280980288
4.2468309e-06 0.012045706 0.020749655 4281047098
0.0035117641 0.0036860108 0.028025508 4281308728
0.0066372901 -0.0023821155 0.033286702 4282419764
-0.028719317 0.00917775 0.021818224 4281696583
-0.027832352 0.016879359 0.015002687 4281112124
-0.026362263 0.019981591 0.012216747 4280849983
-0.024587028 0.02078441 0.011444928 4280004148
-0.022705615 0.020820936 0.011344286 4280395828
-0.020709854 0.020091353 0.011914402 4281242173
-0.018708758 0.01936196 0.012484299 4281372989
-0.016822278 0.019398937 0.012383647 4281242429
-0.015181247 0.020968178 0.010942651 4281242174
-0.013300497 0.021005245 0.010842454 4281177659
-0.011548009 0.021808466 0.010072405 4280915519
-0.0095394552 0.021079728 0.010642352 4280784194
-0.0076591559 0.021117119 0.010542428 4280719933
-0.0056427419 0.020388791 0.011112075 4281175618
-0.0033430383 0.018129157 0.013020205 4280981564
-0.00031849742 0.012041351 0.018273652 4281374264
0.003182821 0.0036575198 0.025532074 4281374008
0.0064495131 -0.0031937547 0.03144956 4282093364
-0.02885738 0.0084085763 0.020009235 4281632069
-0.02807628 0.016900631 0.012540358 4281177660
-0.026611581 0.020011501 0.0097611956 4280655674
-0.018863343 0.018620862 0.010697275 4281372223
-0.017219484 0.020194476 0.0092592556 4281307709
-0.01534145 0.020231394 0.0091591366 4281177403
-0.013588894 0.021036645 0.0083906595 4281372733
-0.011841927 0.021841886 0.0076225577 4281307454
-0.0079642981 0.02114821 0.0080915475 4279811370
-0.0059535205 0.020417621 0.0086598918 4280526134
-0.0037984997 0.018919228 0.0098957904 4280526643
-0.00092438608 0.013581749 0.014469131 4281374009
0.0027096793 0.0044058952 0.022377826 4282026809
0.0059675723 -0.0024651634 0.028281221 4281961784
-0.029096078 0.0084149856 0.017535515 4281825358
-0.028319992 0.016930887 0.010084754 4280587843
-0.026754484 0.019279597 0.007980207 4280849984
-0.024878692 0.019315915 0.0078797918 4279287854
-0.022891372 0.018581705 0.0084470455 4278897959
-0.019252025 0.019425577 0.0075791162 4281176639
-0.017496545 0.020232836 0.0068119373 4281177148
-0.015501555 0.019499218 0.0073791109 4281176893
-0.013877071 0.021076994 0.0059455726 4281307708
-0.012007643 0.021113975 0.0058460836 4281046333
-0.0012466013 0.013599684 0.012009716 4281504313
0.0020925477 0.0059376415 0.018567648 4281766198
0.0053389147 -0.00095327292 0.024457082 4284704563
-0.029133204 0.006884234 0.016401557 4282086733
-0.028460089 0.016197132 0.0083021987 4280261954
-0.026897289 0.018552328 0.0062026493 4280915008
-0.025133226 0.019361494 0.0054362998 4281763139
-0.02315155 0.018624989 0.0060022362 4281827909
-0.021507494 0.020207057 0.0045705535 4281241919
-0.019640379 0.020243576 0.0044708797 4280916538
-0.017893162 0.021052917 0.0037057283 4281177659
-0.015784044 0.019544294 0.0049371445 4281112123
-0.014039826 0.020353759 0.0041723666 4281046844
-0.01217325 0.020390699 0.0040730392 4280069173
-0.010698829 0.022745168 0.0019789482 4281306434
-0.0088407211 0.022782145 0.0018802282 4281044548
-0.0068466552 0.02204687 0.0024462338 4280917049
-0.0044307783 0.018994858 0.0050055725 4280851513
-0.001710169 0.014398886 0.0088925511 4281243194
0.0016201138 0.0067148693 0.015434771 4281504823
0.0047106668 0.00057633407 0.020646069 4283527483
-0.029472213 0.0076794457 0.013273049 4282544203
-0.028703436 0.01624321 0.0058582444 4280198713
-0.02725216 0.019379983 0.0030992269 4279354409
-0.025278747 0.018640997 0.0036639557 4279221809
-0.02352307 0.019452343 0.0028997208 4279940908
-0.021772958 0.020263648 0.0021359096 4279228184
-0.019911431 0.020300066 0.0020365394 4280851003
-0.018050034 0.02033657 0.0019372361 4280980798
-0.016188767 0.020373201 0.0018380409 4280915263
-0.01432763 0.020409925 0.0017389202 4280980798
-0.012594532 0.02122145 0.00097642594 4279026478
-0.010736413 0.021258337 0.00087763311 4279222063
-0.0090117753 0.022069925 0.00011576095 4280590649
-0.0070206188 0.021332419 0.00068030821 4280068664
-0.0047466084 0.019046126 0.0025704694 4279614764
-0.0020318925 0.014436973 0.0064480621 4281241919
0.001292266 0.006731052 0.012974435 4281437504
0.0042298436 0.0013493188 0.017510612 4280662559
-0.029609758 0.0069332328 0.011480995 4282935884
-0.029049881 0.017075622 0.0027578566 4281045569
-0.027394649 0.018666347 0.0013317737 4280524093
-0.023782775 0.019515788 0.0004698477 4279094563
-0.022152424 0.021106379 -0.00095464999 4280394809
-0.020065326 0.019588394 0.00027131394 4281111359
-0.018206794 0.019624857 0.00017217465 4280588354
-0.016348395 0.019661447 7.314526e-05 4280915263
-0.01474034 0.021252031 -0.0013498437 4280915518
-0.01288766 0.02128871 -0.0014484205 4280329529
-0.0050622076 0.019106412 0.00014197 4280461363
-0.0024948493 0.015260695 0.0033490583 4281176128
0.00082043558 0.0075328201 0.009859737 4281306944
0.004043147 0.00058261864 0.015706763 4281375539
-0.029747196 0.0061916299 0.0096924314 4282869328
-0.028982993 0.014803201 0.0023135077 4281305669
-0.02743106 0.017177826 0.0002291213 4281239623
-0.025678169 0.017993325 -0.00053176924 4281566278
-0.023819413 0.018029464 -0.00063115812 4281239369
-0.021960776 0.018065726 -0.00073045108 4281239623
-0.01998537 0.017322814 -0.00016884599 4280848964
-0.018243857 0.018138537 -0.00092879485 4280784449
-0.016630247 0.019733494 -0.0023489145 4281438014
-0.01490261 0.02054918 -0.0031079487 4281436993
-0.01292501 0.019806741 -0.0025461426 4281634619
-0.010942094 0.019064492 -0.0019844833 4281699898
-0.008820653 0.017543526 -0.00076314155 4281438523
-0.0070963241 0.018359585 -0.0015216739 4280652358
-0.0051002353 0.017617935 -0.00096053997 4280783683
-0.0028160736 0.015318898 0.00091947324 4281242429
0.00049307942 0.0075691305 0.0074143102 4281372988
0.0038565397 -0.00017947145 0.013906329 4282090304
-0.028709829 0.010963283 0.0031860066 4280132413
-0.027149688 0.013344534 0.0011060532 4279479613
-0.025497373 0.014944037 -0.00031331484 4279087168
-0.023633301 0.014980288 -0.00041298405 4279610429
-0.02176936 0.015016655 -0.0005125592 4279543618
-0.019788686 0.014271626 4.7188834e-05 4279936318
-0.017922256 0.014308242 -5.2368501e-05 4280785978
-0.016300507 0.01590771 -0.0014696895 4280527409
-0.014689773 0.01750703 -0.0028862981 4280526899
-0.012706913 0.016762545 -0.0023263721 4280460853
-0.010849189 0.016799433 -0.002425136 4280197693
-0.0085920878 0.01449302 -0.00054876436 4280393278
-0.0068623908 0.015311399 -0.0013060116 4280393278
-0.0048610419 0.014567642 -0.00074672443 4280589118
-0.0028543994 0.013824135 -0.00018768408 4280524348
0.00016593188 0.0076144543 0.0049754847 4280785724
0.0032297 0.0014056824 0.010136462 4281568319
0.0058883205 -0.0024596686 0.013322775 4283852608
-0.029620063 0.0015864298 0.0087594455 4282804815
-0.028436974 0.0071104765 0.0040490297 4280847689
-0.026868645 0.0094984882 0.0019734693 4280456263
-0.024990991 0.009534888 0.0018729869 4280195143
-0.023113444 0.009571394 0.0017725913 4280065094
-0.021236014 0.0096080154 0.0016722915 4279803463
-0.019358691 0.0096447561 0.0015720859 4280390983
-0.017600995 0.010465184 0.00081453135 4280586824
-0.015971087 0.012069121 -0.00059995195 4280195398
-0.014227271 0.012889491 -0.0013566067 4280130118
-0.01236137 0.012926446 -0.0014558792 4279934533
-0.010365214 0.012180153 -0.0008981959 4279672904
-0.0083637573 0.011434061 -0.0003407211 4279803974
-0.0064928308 0.011471428 -0.0004400271 4279738184
-0.0044835061 0.010725718 0.00011719612 4279541323
-0.0026101843 0.010763343 1.7919927e-05 4279345739
-0.00016096979 0.0076686703 0.0025433232 4279212628
-0.029757399 0.00085002184 0.0069746571 4282085458
-0.028473705 0.0056031402 0.0029324298 4280585549
-0.026693739 0.0064255986 0.0021748696 4280324938
-0.02491932 0.0072480626 0.0014176915 4280325959
-0.023039181 0.0072846264 0.0013171645 4280325959
-0.021273166 0.0081072152 0.00056057435 4280195398
-0.019279268 0.0073581059 0.0011163946 4280194634
-0.017399497 0.0073949974 0.001016135 4279932493
-0.015642013 0.0082177557 0.00026025076 4280128334
-0.013890099 0.0090404637 -0.0004952203 4280064073
-0.012016166 0.0090775844 -0.00059491186 4279933513
-0.01014236 0.0091148 -0.00069452706 4279607624
-0.0082686953 0.009152133 -0.00079404353 4279999814
-0.0065309666 0.00997499 -0.00154844 4279933513
-0.0043833181 0.0084417164 -0.00033801503 4279867724
-0.0025073886 0.0084793996 -0.0004374244 4279539283
-0.00034371763 0.0069466066 0.00077234267 4279015004
-0.029894609 0.00011817552 0.005193322 4281694034
-0.02851044 0.0040960647 0.0018160254 4280782409
-0.026836328 0.0057088975 0.00040514616 4280390729
-0.02495623 0.0057453401 0.00030453072 4280195144
-0.023187462 0.0065700486 -0.00045067165 4280260934
-0.021310318 0.0066066664 -0.00055095647 4279998283
-0.019433275 0.0066434015 -0.00065114722 4280128589
-0.017436981 0.0058922768 -9.6985605e-05 4279606348
-0.015679576 0.0067171995 -0.0008512577 4280128589
-0.013678089 0.0059663951 -0.00029721158 4279736909
-0.011798833 0.0060036257 -0.0003971844 4279998283
-0.010049999 0.0068287179 -0.0011507496 4279803719
-0.0081737451 0.0068660956 -0.0012504077 4279737928
-0.006297648 0.0069035906 -0.0013499688 4279736909
-0.004283227 0.0061535705 -0.00079621887 4279669589
-0.0022635236 0.0054037999 -0.00024271535 4279079264
-0.030131977 0.00018142536 0.0027617868 4281237584
-0.028547168 0.0025892276 0.00069979869 4280650829
-0.026767384 0.0034160521 -5.4509146e-05 4280454989
-0.024993148 0.0042428579 -0.00080845202 4280194633
-0.023224466 0.0050697438 -0.001562033 4280586314
-0.021461342 0.0058965776 -0.0023152009 4280193358
-0.019587174 0.0059332717 -0.0024152258 4280127568
-0.017713126 0.0059700478 -0.0025151819 4279865684
-0.015717141 0.0052168947 -0.0019625789 4280127568
-0.013715841 0.004463898 -0.0014101488 4279866448
-0.011709217 0.0037111752 -0.00085794809 4279280204
-0.0099577382 0.0045384578 -0.0016099929 4280259404
-0.0080788992 0.0045758951 -0.0017097841 4279476044
-0.0063358769 0.0054032635 -0.0024612634 4279604820
-0.0043216422 0.0046510603 -0.0019091197 4279473239
-0.0024432465 0.0046888012 -0.0020086558 4279209058
-0.030268922 -0.00053897779 0.00098885444 4280845393
-0.028789759 0.0026678685 -0.0017199571 4280193358
-0.026909858 0.0027042013 -0.001820641 4279800913
-0.025138449 0.0035331938 -0.0025728431 4279735888
-0.023372572 0.0043621473 -0.0033246235 4279866448
-0.021498438 0.0043987092 -0.0034247444 4279800149
-0.019624405 0.0044353791 -0.00352478 4279733848
-0.017631218 0.0036798771 -0.0029737304 4280192594
-0.015754703 0.0037168302 -0.0030737238 4280388434
-0.013753589 0.0029616505 -0.0025228986 4279473749
-0.011747163 0.0022067595 -0.0019722963 4279541069
-0.0098655932 0.0022441391 -0.0020723166 4279345738
-0.0079841539 0.002281623 -0.0021722489 4279800913
-0.0062384866 0.0031111799 -0.0029222085 4279148369
-0.0043600574 0.0031487904 -0.0030218437 4279013728
0.0026032999 0.0030084886 0.0063796639 4279784848
0.0051011816 -8.498691e-05 0.008902655 4279913369
0.0086127818 0.0015584156 0.0073896917 4279644598
0.010832995 3.1640753e-05 0.0086000143 4279513018
0.013063908 -0.0014948444 0.0098098982 4281483914
0.015142456 -0.0022382783 0.01036411 4279848598
0.017060481 -0.0021988535 0.010263133 4278996388
0.019146822 -0.0029419558 0.010817062 4279126693
0.021067172 -0.0029023224 0.010716083 4279323043
0.022813395 -0.002080136 0.0099606114 4281157768
0.024200656 0.00030690059 0.0078966217 4280499869
0.026109554 0.00034654327 0.0077964272 4281352334
0.028200313 -0.00039603561 0.008350444 4281614984
0.031035572 -0.0042674802 0.01152024 4281286798
0.034085333 -0.0089205112 0.015342579 4281353354
0.0019773543 0.0046289712 0.0026359642 4279259038
0.0043146014 0.0023117028 0.0044988329 4278864809
0.0060595348 0.0031353235 0.0037445151 4279056313
0.0079537034 0.0031738617 0.0036445013 4279316669
0.010005236 0.0024275277 0.0041983924 4278595018
0.014287092 0.00015050359 0.0059590917 4278996643
0.016191415 0.000189621 0.0058588162 4278799273
0.018095545 0.00022884272 0.0057586324 4278864554
0.020170636 -0.00051656831 0.0063116122 4278863788
0.02172932 0.0010921769 0.0049055335 4278928813
0.025351442 0.0019556358 0.0040532448 4278727619
0.027613223 0.00042611733 0.0052587814 4278793663
0.030255206 -0.0026719766 0.0077685574 4280108699
0.033481121 -0.0081226351 0.012233983 4280044439
0.0017917305 0.0039049033 0.00086369261 4279453349
0.0038272813 0.0031557661 0.0014165888 4278532798
0.0058681145 0.0024067834 0.0019693165 4279979413
0.0076046288 0.0032325499 0.0012170897 4279193249
0.0096505582 0.0024838746 0.0017696997 4278537389
0.011701748 0.0017354377 0.002322054 4278798764
0.013921134 0.00020013005 0.0035260967 4278864808
0.015819885 0.00023914687 0.0034261257 4278865064
0.017718479 0.0002782438 0.003326227 4278471853
0.021341234 0.0011435337 0.0024753278 4279585184
0.023236513 0.0011828113 0.0023757867 4279258019
0.025131606 0.001222169 0.0022763177 4278666674
0.029290594 -0.00027215481 0.0033791517 4279126949
0.032314993 -0.0049518012 0.0071833786 4278865319
0.035942242 -0.011990217 0.012937439 4282733158
0.0016061962 0.0031854324 -0.00090517313 4279322279
0.011181533 0.0025877524 -0.00075183006 4278338998
0.013555415 0.00025864877 0.0010997647 4279061669
0.015448622 0.00029756688 0.001000096 4278472363
0.017341666 0.00033652782 0.00090047286 4278537643
0.022666641 0.0020319205 -0.00069710508 4278864554
0.024553493 0.0020711068 -0.00079614145 4278602924
0.028511211 0.0013608467 -0.00034483476 4278339253
0.031524308 -0.003332084 0.0034502973 4279454368
0.034949988 -0.0096016759 0.0085415374 4282733159
0.0015673041 0.0016788095 -0.0020210948 4278668203
0.0053336322 0.0017551687 -0.0022201627 4278333134
0.010821775 0.0026618652 -0.0031669908 4279125673
0.013189934 0.00032616034 -0.001319983 4278668459
0.015077591 0.00036494248 -0.0014193747 4278603434
0.017133363 -0.00038754009 -0.00087026006 4278406829
0.018681392 0.0012340061 -0.0022661835 4278995368
0.022097141 0.002894273 -0.0037601152 4278268618
0.027916893 0.0022205375 -0.0034082108 4279191973
0.0309214 -0.0024856366 0.00037767144 4278406064
0.034338377 -0.0087728202 0.0054564415 4281619319
-0.032099001 -0.0028808853 0.00062180648 4281160829
-0.030806381 0.0019245632 -0.0033822483 4279262354
-0.025391951 0.0036227293 -0.0049837674 4279128223
-0.023520559 0.0036591236 -0.0050838278 4279127968
-0.0026613325 0.0024785697 -0.0048821727 4279329673
-0.0007860586 0.0025163498 -0.004981467 4279062944
0.0010890663 0.0025542118 -0.0050806911 4278865829
0.0031132102 0.0017982628 -0.004532001 4278406573
0.0051426217 0.0010425504 -0.0039835675 4278275504
0.010622308 0.0019512381 -0.0049283449 4278734504
0.012499146 0.0019897036 -0.0050272355 4278537899
0.014375821 0.0020282622 -0.0051260465 4278865063
0.016252339 0.0020668916 -0.0052247955 4278537899
0.018128641 0.0021056104 -0.0053234627 4278537643
0.027507462 0.0023003127 -0.0058157947 4278537388
0.030506089 -0.0024190573 -0.0020393112 4278799783
0.033917077 -0.0087237861 0.0030268417 4280963458
-0.032330334 -0.0027993247 -0.0017966217 4281553783
-0.031042989 0.0020190366 -0.0057906569 4278863278
-0.02937711 0.0036490001 -0.0071882587 4279584418
-0.027405567 0.0028881561 -0.0066397074 4279912093
-0.025536951 0.0029243566 -0.0067397226 4278468794
-0.023557443 0.0021639168 -0.0061914106 4279190444
-0.021686308 0.0022004135 -0.0062913769 4280568974
-0.018063542 0.0030703824 -0.0071388017 4279128223
-0.016195476 0.0031071827 -0.007238334 4278998174
-0.014202911 0.0023475178 -0.0066903341 4279062433
-0.012587044 0.0039775278 -0.0080845067 4279651483
-0.010722078 0.0040145833 -0.0081836395 4279978139
-0.0088572428 0.0040517207 -0.0082827015 4279847323
-0.0069925487 0.0040889848 -0.0083816592 4280700044
-0.004989773 0.0033300444 -0.0078338161 4278866083
-0.002840735 0.0017751474 -0.0066395388 4278865829
-0.00096831471 0.0018128641 -0.006738686 4278866084
0.0010503531 0.0010545664 -0.0061914432 4278537898
0.0029252023 0.0010925308 -0.0062905722 4278537643
0.0047998875 0.0011305753 -0.0063896305 4278865319
0.006519869 0.001964625 -0.0071345107 4278537643
0.0082342252 0.0027986821 -0.0078790048 4278537643
0.010262959 0.0020410698 -0.007331938 4278800039
0.012134261 0.0020794217 -0.0074305362 4278668968
0.014005393 0.0021178592 -0.0075290622 4278668969
0.015876345 0.0021563638 -0.0076275258 4278668969
0.017917998 0.0013993643 -0.0070808786 4278603434
0.019791305 0.0014380794 -0.0071793464 4278668714
0.021488145 0.0022723693 -0.0079224771 4278865574
0.023179352 0.0031066071 -0.0086652646 4278734248
0.025046684 0.0031454414 -0.0087632369 4278602924
0.02728276 0.0015937295 -0.0075725066 4278668969
0.030091047 -0.0023435252 -0.0044497373 4278668968
0.033496037 -0.0086657833 0.00060380681 4278996898
0.037136912 -0.015782213 0.0062990235 4281880693
-0.033403277 -0.011537183 0.0030148956 4282798439
-0.032561447 -0.002708883 -0.0042083939 4281356668
-0.031179328 0.0013232343 -0.00754529 4278733738
-0.029413443 0.0021583755 -0.0082924785 4278734249
-0.023705252 0.0014678854 -0.0079454361 4278333388
-0.020201612 0.0031386744 -0.0094375983 4278996133
-0.018339008 0.0031752344 -0.0095369387 4278406318
-0.016476531 0.0032118987 -0.0096361926 4278340529
-0.014614165 0.0032486673 -0.0097353607 4278602414
-0.013006482 0.0048828479 -0.01112588 4278535603
-0.0091605522 0.0041581634 -0.010677765 4278334154
-0.0070305206 0.0025982577 -0.0094858417 4278465988
-0.00502792 0.0018371604 -0.0089395894 4279256489
-0.0031609237 0.0018746704 -0.0090385219 4278470833
-0.0011504516 0.0011139289 -0.0084925359 4278603178
0.00071898848 0.0011516754 -0.0085914591 4278603434
0.0025882795 0.0011895038 -0.0086903116 4278603178
0.0044573992 0.0012274366 -0.0087890755 4278602414
0.0099038556 0.0021397714 -0.0097288871 4279187128
0.011932276 0.0013800338 -0.0091833752 4278799273
0.013635203 0.0022162776 -0.0099254688 4278537899
0.015500613 0.0022546705 -0.010023639 4278733994
0.017536655 0.0014953688 -0.0094783213 4278668458
0.019404441 0.0015339721 -0.0095764967 4278602669
0.022602551 0.0040042605 -0.011701645 4278266833
0.024643339 0.003245309 -0.011156316 4279256234
0.026689366 0.0024866071 -0.010611231 4278996389
0.029302008 -0.00066426862 -0.0081386529 4278866083
0.032695562 -0.0070041567 -0.0030974948 4281554549
0.036517531 -0.014937739 0.0032260511 4282275178
-0.033440053 -0.01306453 0.001883444 4282733158
-0.032305978 -0.0066165356 -0.0033849829 4281225853
-0.03091557 -0.0025734026 -0.006714263 4279061923
-0.029347043 -0.00013332069 -0.0087511055 4278668969
-0.027584065 0.00070404075 -0.0094964476 4278930599
-0.025826633 0.001541445 -0.010241455 4279781534
-0.023852952 0.0007764753 -0.0096960375 4279387814
-0.02198755 0.0008128453 -0.0097957086 4278469558
-0.020354927 0.0024514701 -0.011184695 4278799528
-0.018376127 0.0016869884 -0.010639338 4279061413
-0.016635563 0.0025245789 -0.011382987 4279257763
-0.014776058 0.0025612954 -0.011481999 4278537133
-0.012916673 0.0025981087 -0.011580934 4278667948
-0.010927461 0.0018342417 -0.011035824 4279190699
-0.0090656094 0.0018713381 -0.011134715 4278665909
-0.0052041784 0.0011451375 -0.010688704 4278469558
-0.0031991899 0.00038200058 -0.010144127 4279061668
-0.0013324544 0.00041957945 -0.010242991 4278864554
0.00038785487 0.0012577157 -0.010984859 4278734248
0.0022515953 0.0012954194 -0.011083427 4278340529
0.0058241114 0.0021714699 -0.011922999 4279316923
0.0076846406 0.0022093896 -0.012021187 4278857923
0.0095450208 0.0022474062 -0.012119296 4278267598
0.011567831 0.0014853422 -0.011575056 4278798764
0.013265252 0.0023236889 -0.01231529 4278865063
0.015125118 0.0023619551 -0.012413176 4278799273
0.017326348 0.00080035441 -0.011227348 4278406063
0.01919131 0.00083888136 -0.011325386 4278667694
0.02424024 0.0033541322 -0.013542837 4278268618
0.028700508 0.00023300946 -0.011173634 4279128224
0.032275163 -0.0069240769 -0.0055041071 4280898944
-0.03243969 -0.0073226765 -0.0051474706 4281488504
-0.031051897 -0.003268701 -0.0084685246 4279259038
-0.027831309 0.00082078017 -0.011887674 4278995879
-0.02618752 0.0024635829 -0.013274247 4279324064
-0.02422221 0.0016963203 -0.012730037 4279520414
-0.02039184 0.00096564554 -0.012285312 4278929834
-0.018651243 0.001805285 -0.013027443 4278929833
-0.016794473 0.0018418357 -0.013126395 4278995624
-0.014937826 0.0018785018 -0.013225251 4278273719
-0.013081297 0.0019152388 -0.013324047 4278402494
-0.011094991 0.0011491422 -0.012780396 4279061923
-0.0092359893 0.0011861511 -0.012879158 4279324574
-0.0073771216 0.0012232885 -0.012977815 4279323299
-0.0055183955 0.0012604948 -0.013076412 4278536369
-0.0035190135 0.00049506314 -0.012533154 4278930344
-0.0018013343 0.0013352111 -0.013273352 4279061413
5.697459e-05 0.001372721 -0.013371694 4278799783
0.0037731379 0.0014479868 -0.013568169 4278929323
0.0054766089 0.002288213 -0.014307343 4279127458
0.0074886978 0.0015236214 -0.013764326 4278603178
0.009186402 0.0023639128 -0.014503061 4278667948
0.011203617 0.0015996061 -0.01396018 4278602159
0.012895569 0.002439959 -0.014698477 4278930599
0.014581919 0.0032802597 -0.015436434 4278799273
0.016774766 0.0017141737 -0.014253438 4278668203
0.020488001 0.0017909519 -0.014448589 4278995623
0.025872283 0.002708463 -0.015380337 4278273973
0.028286397 0.00034172088 -0.013559419 4279127204
0.031475544 -0.0052315602 -0.0091825351 4279717274
0.035087444 -0.012407387 -0.0035294495 4282668134
-0.033796899 -0.013701096 -0.0023068516 4282471019
-0.032670457 -0.0072184661 -0.0075490447 4281750134
-0.03138788 -0.0023480179 -0.011504087 4278931364
-0.026331961 0.0017879419 -0.015013436 4278271168
-0.024591137 0.0026294403 -0.015754202 4278599099
-0.022628844 0.0018600263 -0.015211384 4278599099
-0.020661201 0.0010907967 -0.01466872 4279257253
-0.018926129 0.0019325595 -0.015408971 4278733738
-0.016953267 0.0011636615 -0.014866414 4278668203
-0.015223879 0.0020055398 -0.015606198 4278667694
-0.011392247 0.0012737401 -0.015162319 4278795448
-0.0095388107 0.001310613 -0.015260804 4278731954
-0.005832348 0.001384709 -0.015457487 4278273208
-0.0038385838 0.00061698817 -0.014915548 4278995368
-0.002126433 0.0014591776 -0.015653854 4278864808
-0.00041987002 0.0023014098 -0.016391825 4278603434
0.0015789345 0.0015340317 -0.0158499 4278796979
0.005438 0.000804618 -0.015406187 4278469558
0.0072928667 0.0008423999 -0.015504094 4278404535
0.011002131 0.00091824681 -0.015699668 4278798253
0.012526102 0.0025651474 -0.017075134 4278668459
0.014206976 0.0034075156 -0.017811183 4278864808
0.016223527 0.0026412457 -0.017269716 4278864299
0.020448521 0.00030503422 -0.0155491 4278469813
0.022125982 0.001147639 -0.016284743 4279193248
0.023797855 0.0019902028 -0.017020036 4279258783
0.02787254 0.00045932457 -0.015938692 4278602414
0.031055786 -0.005129368 -0.011572774 4279652249
0.034661643 -0.012324891 -0.0059339008 4282274668
-0.034022279 -0.013605202 -0.0047150408 4282668134
-0.033095233 -0.0054894267 -0.01122581 4281291133
-0.031623706 -0.0022219298 -0.013889149 4278800039
-0.029866356 -0.0013782913 -0.014629449 4278668969
-0.028219834 0.00027318671 -0.016009837 4278799019
-0.026476279 0.0011167917 -0.016749226 4278272188
-0.024738256 0.0019604173 -0.017488223 4278732463
-0.022892334 0.0019963868 -0.017586868 4279192484
-0.021046508 0.0020324886 -0.01768541 4278537643
-0.019200787 0.0020686947 -0.017783865 4278733738
-0.017355178 0.0021049827 -0.017882252 4278603179
-0.015634023 0.0029488299 -0.01861994 4278537643
-0.013791375 0.002985293 -0.018717997 4278993328
-0.0081288964 0.0022880919 -0.018372832 4278533054
-0.0062840246 0.0023250133 -0.018470699 4279126184
-0.0042986199 0.0015549287 -0.017929949 4278603179
-0.0025946721 0.0023991242 -0.018666208 4278800039
-0.0008963123 0.0032432899 -0.019402111 4278668969
0.0010941178 0.0024736207 -0.018861394 4278340273
0.006940186 0.00097251125 -0.017878236 4278269893
0.010638349 0.0010480843 -0.018073257 4278603178
0.012487203 0.0010860115 -0.018170649 4278472108
0.014000185 0.0027370583 -0.019542217 4278537898
0.016013853 0.0019685365 -0.019002225 4278603433
0.018032797 0.0012001917 -0.01846246 4278602669
0.021907769 0.00047035888 -0.018020066 4278272188
0.027458958 0.00058577582 -0.018311338 4278930854
0.030636273 -0.0050182324 -0.013956463 4278865829
0.034236088 -0.012233488 -0.0083318315 4282405229
-0.033034261 -0.007793365 -0.011693158 4282536043
-0.031559955 -0.0045171306 -0.014350199 4279258528
-0.029902481 -0.0028612679 -0.015728002 4279062178
-0.028150756 -0.0020154566 -0.016466308 4279258784
-0.026296612 -0.001979541 -0.016565552 4279324319
-0.02466391 -0.0003237538 -0.017941803 4279520924
-0.022928804 0.00052205846 -0.01867898 4279586459
-0.021315351 0.0021776427 -0.020054001 4279389598
-0.01935637 0.0014040414 -0.019514065 4279455134
-0.017513614 0.0014402904 -0.019612288 4279322534
-0.015670974 0.0014766213 -0.019710444 4278996899
-0.013955452 0.0023226049 -0.020446161 4278866849
-0.011856306 0.00074013695 -0.019268965 4279391129
-0.010143749 0.0015862957 -0.020004353 4278866593
-0.00816641 0.00081367232 -0.01946494 4278931874
-0.0063216574 0.00085055456 -0.019562827 4278866084
-0.0043364242 7.8313053e-05 -0.019023666 4278801059
-0.0026325583 0.00092466176 -0.019758323 4278604454
-0.0010803044 0.0025801249 -0.021129278 4278669989
0.0007584691 0.0026172958 -0.021226546 4278669988
0.0029000714 0.0010364912 -0.020050999 4278669733
0.0050524101 -0.00054402649 -0.018875968 4278735014
0.0069016293 -0.00050638057 -0.018973593 4278537134
0.008910358 -0.0012775641 -0.018435167 4278669479
0.010437205 0.00037796795 -0.019804422 4278735268
0.012118153 0.0012245737 -0.02053733 4278472874
0.013961308 0.0012624338 -0.020634383 4279061923
0.01597482 0.00049171783 -0.02009601 4278603943
0.017993629 -0.00027880631 -0.019557854 4278669989
0.019841723 -0.00024060719 -0.019654991 4278866084
0.021689661 -0.00020235032 -0.019752076 4278536879
0.023174636 0.0014528111 -0.021118686 4278602413
0.025016807 0.0014911201 -0.02121534 4278602923
0.026858799 0.0015294626 -0.021311957 4278734504
0.029837921 -0.0032817191 -0.017602311 4278668968
0.033426262 -0.010516806 -0.011991624 4279388324
-0.03287638 -0.010913807 -0.011525904 4282667114
-0.031396549 -0.0076287733 -0.014176786 4280044949
-0.029733676 -0.0059684096 -0.015551689 4278602668
-0.028081771 -0.0043081949 -0.016925884 4278601903
-0.026332941 -0.0034601633 -0.017662343 4278471853
-0.024589658 -0.0026120767 -0.01839846 4278275758
-0.010048665 -0.00069734454 -0.020458948 4278274994
-0.0042336583 -0.0022095684 -0.019481931 4278274993
-0.00097218156 0.00029887259 -0.021582983 4278668458
0.00086919218 0.00033607893 -0.021680404 4278668458
0.0027104318 0.00037336536 -0.021777753 4278733994
0.0050139949 -0.002022747 -0.019971207 4279061924
0.0068630874 -0.0019850805 -0.020068808 4279258528
0.0088716522 -0.0027584918 -0.019532025 4278668459
0.010398537 -0.001098603 -0.020898046 4278667183
0.012409493 -0.0018717218 -0.020361284 4278864298
0.01442574 -0.0026446972 -0.0198247 4279126184
0.016447268 -0.0034174453 -0.01928838 4279060904
0.01812768 -0.0025684685 -0.020019492 4278539173
0.019802496 -0.001719486 -0.020750294 4278604708
0.021471724 -0.00087060221 -0.021480715 4279194523
0.023316689 -0.00083235092 -0.0215776 4279129244
0.024977446 1.6499311e-05 -0.022307472 4278668713
0.027006119 -0.00075565465 -0.021771196 4279062433
0.029608555 -0.0039589843 -0.019336866 4279128479
0.033193573 -0.011213721 -0.01374054 4280702084
-0.034508593 -0.014893183 -0.010627557 4282602854
-0.033009563 -0.011599248 -0.013273134 4282339949
-0.031432714 -0.0091200303 -0.015281485 4280241043
-0.02987228 -0.0066409782 -0.01728892 4279716764
-0.028012879 -0.006605099 -0.017388547 4278538154
-0.026261419 -0.0057548527 -0.018123545 4279127969
-0.024404921 -0.0057187872 -0.018222837 4278996898
-0.022548519 -0.0056826277 -0.018322052 4279127969
-0.020692214 -0.005646362 -0.018421182 4278931364
-0.018954746 -0.0047959257 -0.019155083 4279127713
-0.017222833 -0.0039454717 -0.019888669 4279062179
-0.015248109 -0.0047229519 -0.019352611 4279127203
-0.013268054 -0.0055002058 -0.018816821 4278799528
-0.0114123 -0.0054634111 -0.018915519 4278733994
-0.0096889921 -0.0046127522 -0.019648295 4278996389
-0.0079712681 -0.0037620505 -0.020380734 4278406574
-0.0059835203 -0.0045387698 -0.019844994 4278733994
-0.0038499758 -0.0061288634 -0.018675799 4278799528
-0.0018489063 -0.0069050789 -0.018140664 4278930598
-0.000280343 -0.0052405978 -0.01950603 4278996644
0.0011285171 -0.0027627796 -0.021504087 4278603178
0.002823703 -0.0019120164 -0.022234876 4278537644
0.0049755946 -0.0035012644 -0.021066297 4278734248
0.0069814175 -0.004276976 -0.020531036 4278538664
0.0089925155 -0.0050524613 -0.01999604 4278473638
0.010846645 -0.0050145714 -0.020093817 4278277034
0.014554471 -0.0049385848 -0.020289186 4278734758
0.016578555 -0.0057134777 -0.019754635 4278275248
0.018261649 -0.0048622862 -0.020484284 4278471344
0.021611057 -0.0031599915 -0.021942582 4278408103
0.02363994 -0.0039345333 -0.021408018 4278473894
0.027153365 -0.0030449843 -0.022233557 4278670244
0.032768913 -0.01109363 -0.016117159 4281161594
-0.03314263 -0.012280164 -0.015016939 4282209134
-0.031568483 -0.009794509 -0.017020328 4279717273
-0.029908407 -0.0081255436 -0.018388657 4279913878
-0.028049152 -0.008089656 -0.018488267 4278668459
-0.026189983 -0.0080536623 -0.018587794 4278668714
-0.024330903 -0.0080175735 -0.018687245 4279127713
-0.022358682 -0.0087976847 -0.018153043 4279193503
-0.020497065 -0.0087613221 -0.018252462 4279193503
-0.018754233 -0.0079086367 -0.018985059 4279389853
-0.017016951 -0.007055955 -0.019717282 4279324318
-0.015161093 -0.0070193736 -0.019816147 4279455133
-0.013178501 -0.0077987593 -0.019282112 4279324063
-0.011320155 -0.007761931 -0.019380962 4279061924
-0.0095941983 -0.0069090575 -0.020112274 4279062179
-0.0078738108 -0.0060562016 -0.020843221 4278930854
-0.005745817 -0.0076508466 -0.019677024 4278537389
-0.003747493 -0.0084294211 -0.019143455 4279586460
-0.0016007051 -0.010023559 -0.017978085 4279389598
-2.6732683e-05 -0.0083546005 -0.019340571 4279651994
0.0015362576 -0.0066858046 -0.020702356 4279061924
0.0030881912 -0.0050171129 -0.02206354 4278406573
0.0050912723 -0.0057951584 -0.021529829 4279455644
0.0070996433 -0.0065729795 -0.020996382 4278931364
0.0091132969 -0.0073505845 -0.020463133 4279193503
0.011132255 -0.008128034 -0.01993013 4278800548
0.012991562 -0.0080899792 -0.020028135 4278997153
0.014850743 -0.0080518546 -0.02012608 4279062688
0.016709745 -0.0080136498 -0.020223955 4278997154
0.02025152 -0.0071219988 -0.021049783 4278996644
0.021928847 -0.0062686373 -0.021777431 4278865573
0.023963004 -0.0070452271 -0.02124482 4278472363
0.025634587 -0.0061918506 -0.021972064 4279062944
0.027487196 -0.0061533656 -0.022069296 4278932383
0.0299078 -0.0085592289 -0.020277863 4278473638
0.032728687 -0.012594115 -0.017228434 4282537063
-0.033372428 -0.012137765 -0.017390227 4281487994
-0.031803716 -0.009645652 -0.019388525 4279652504
-0.030046813 -0.0087911915 -0.02012076 4279520668
-0.027980387 -0.010392688 -0.018955471 4279389598
-0.02611864 -0.010356659 -0.019055149 4279127204
-0.024367433 -0.0095019927 -0.019786842 4279389344
-0.022395398 -0.010284284 -0.019254247 4279651739
-0.020533923 -0.010247936 -0.019353667 4279717273
-0.018553909 -0.011029906 -0.018821301 4279389598
-0.016932622 -0.0093565779 -0.020183755 4279586458
-0.014950097 -0.010138249 -0.019651411 4279586203
-0.013089042 -0.010101479 -0.019750489 4279585693
-0.011228099 -0.010064615 -0.019849492 4279258529
-0.0097639523 -0.0075733075 -0.021841215 4278996133
-0.0077764541 -0.008354459 -0.021308823 4279454878
-0.0057836287 -0.0091354195 -0.02077665 4278930599
-0.0035047159 -0.011552139 -0.018983655 4279389599
-0.0014958233 -0.012332583 -0.01845219 4279520668
0.00022670627 -0.011477152 -0.019181369 4279455133
0.0016465634 -0.0089860912 -0.021170342 4278865063
0.0033525229 -0.0081307907 -0.021898495 4279192993
0.0052068681 -0.0080932081 -0.021996515 4279258784
0.0073745027 -0.0096907876 -0.020835189 4279127968
0.0090745687 -0.0088353548 -0.021562843 4278931874
0.011255525 -0.01043255 -0.020402061 4279128223
0.012952596 -0.0095769539 -0.021129465 4279259293
0.014811672 -0.0095388684 -0.021227432 4279193503
0.016500287 -0.0086833537 -0.021954248 4278734759
0.018183313 -0.0078278799 -0.022680713 4279062179
0.020036504 -0.0077896724 -0.022778189 4279062179
0.021889523 -0.0077514192 -0.022875624 4278931364
0.023742378 -0.0077130739 -0.022972975 4278997153
0.025595076 -0.007674695 -0.023070293 4279062688
0.027634233 -0.0084532537 -0.022539482 4279128223
0.030057289 -0.010865593 -0.020753024 4280440453
-0.033311594 -0.014449425 -0.017863298 4280308109
-0.031740148 -0.011950752 -0.019856913 4280045968
-0.02987837 -0.011914961 -0.019956769 4279848344
-0.028016679 -0.011879042 -0.020056522 4279586204
-0.026155062 -0.011843052 -0.020156218 4279454878
-0.024293531 -0.011806931 -0.02025581 4279061669
-0.022318963 -0.012591414 -0.019724941 4279914643
-0.020454898 -0.012555009 -0.019824494 4279652249
-0.018709507 -0.011697922 -0.020554071 4279783319
-0.017090954 -0.01002037 -0.02191313 4279586714
-0.015111346 -0.010804273 -0.021382244 4279455133
-0.013253134 -0.010767578 -0.021481186 4279717018
-0.011395033 -0.010730789 -0.02158005 4279258019
-0.0099335797 -0.0082329847 -0.02356684 4279127203
-0.0078140758 -0.0098366719 -0.022406708 4279520669
-0.0058214255 -0.010619814 -0.021876143 4278733739
-0.0036831349 -0.012222959 -0.020716883 4279520669
-0.001534082 -0.013825732 -0.019558152 4279586204
0.00033416599 -0.013788163 -0.019657126 4279389088
0.0020537972 -0.012930521 -0.020384468 4279323553
0.0036166161 -0.011252956 -0.021739805 4279192738
0.0056302398 -0.012035182 -0.021209912 4279520924
0.0074925125 -0.011997372 -0.021308301 4279324318
0.0091952607 -0.0111397 -0.022034548 4279324829
0.010892451 -0.010282094 -0.022760391 4279062434
0.012748852 -0.010244163 -0.022858294 4279324574
0.014605105 -0.010206139 -0.022956114 4279193503
0.016461201 -0.010168059 -0.023053883 4278537643
0.018144205 -0.0093104541 -0.023778765 4279062179
0.019997306 -0.0092722718 -0.023876255 4279389853
0.022028632 -0.010053413 -0.023346832 4279193248
0.023884118 -0.010015043 -0.023444345 4278931364
0.025739484 -0.0099766534 -0.023541834 4279259038
0.027781203 -0.010757353 -0.023012789 4279325084
0.03020671 -0.013176195 -0.021231325 4282078063
-0.03699626 -0.016836651 -0.018138127 4282535534
-0.035217546 -0.015977813 -0.018868593 4282075003
-0.033541095 -0.014295784 -0.020228259 4280568974
-0.031776145 -0.013436907 -0.020957837 4280503439
-0.02991451 -0.013401132 -0.021057693 4279717019
-0.028052941 -0.01336525 -0.021157466 4279912604
-0.026299108 -0.012506324 -0.021886175 4279126693
-0.024440434 -0.012470267 -0.021985622 4279454624
-0.022355698 -0.014079833 -0.020827493 4279782554
-0.020375971 -0.014866247 -0.020298481 4279782808
-0.01862793 -0.014006981 -0.021026546 4279783574
-0.017006688 -0.012325002 -0.022382574 4279651228
-0.015148498 -0.012288428 -0.022481604 4279586204
-0.013163738 -0.013074331 -0.021952553 4279717528
-0.011303037 -0.013037507 -0.022051569 4279848343
-0.0097066872 -0.011355653 -0.023405926 4279258273
-0.0077168234 -0.012141155 -0.022876924 4279651739
-0.0057216398 -0.012926428 -0.022348113 4279062433
-0.0035808533 -0.014533884 -0.021192225 4279390364
-0.0017153174 -0.014496471 -0.021291129 4279390109
0.00029581785 -0.015281182 -0.020762986 4279979158
0.0021638349 -0.015243532 -0.020861885 4280044438
0.0037293881 -0.013561659 -0.022214135 4279716253
0.0054378062 -0.012701862 -0.022939188 4280240788
0.0074538589 -0.013486173 -0.022411007 4279716763
0.0091565624 -0.012626348 -0.023135653 4279585949
0.010853693 -0.0117666 -0.023859903 4279585693
0.012874737 -0.012550486 -0.023331819 4279914643
0.014733627 -0.012512462 -0.02342982 4279520923
0.016422167 -0.011652654 -0.024153443 4279324318
0.018105127 -0.010792885 -0.024876716 4279782809
0.020133749 -0.011576348 -0.024348831 4279980179
0.02216766 -0.012359618 -0.023821166 4279782808
0.023844749 -0.011499777 -0.024543984 4279520668
0.025516264 -0.010639987 -0.025266463 4279847578
0.027555123 -0.011422966 -0.024738915 4279521434
0.030166887 -0.014669732 -0.022337468 4280309129
0.0326083 -0.017094748 -0.020561667 4281750389
-0.039081722 -0.016715845 -0.020401435 4280571269
-0.030052755 -0.014061918 -0.022786202 4282276199
-0.026227858 -0.014815294 -0.022357959 4282275944
-0.0242563 -0.015604319 -0.021830255 4282341734
-0.022279385 -0.01639308 -0.021302795 4282798694
-0.020297121 -0.017181639 -0.020775547 4281094783
-0.018664904 -0.015495261 -0.022128981 4281095549
-0.0169225 -0.014633788 -0.022855097 4280963968
-0.015185624 -0.013772391 -0.023580821 4280570504
-0.013201043 -0.014560499 -0.023053398 4280439688
-0.01121112 -0.015348427 -0.022526128 4280767109
-0.009347938 -0.015311464 -0.022625206 4280178059
-0.0076196641 -0.014449778 -0.023350207 4280570248
-0.0056219175 -0.015237278 -0.022823151 4279850384
-0.003899321 -0.014375527 -0.023547718 4280438158
-0.0018963963 -0.015162707 -0.023020776 4280765324
-3.3810735e-05 -0.015125299 -0.023119483 4280306833
0.0021254122 -0.016736409 -0.021967633 4280110738
0.0036909804 -0.015050228 -0.023316685 4280108954
0.0053993389 -0.014188278 -0.024040138 4280174999
0.0071021467 -0.013326454 -0.024763232 4280109974
0.0091178939 -0.014112828 -0.024236636 4280174743
0.010976955 -0.014074969 -0.024334772 4279716509
0.013000578 -0.014861071 -0.023808433 4279978139
0.014527254 -0.013175111 -0.025155084 4279126693
0.016553305 -0.013960964 -0.024628801 4279258273
0.018238969 -0.013099006 -0.025350632 4278996898
0.020445712 -0.01470842 -0.024200674 4279520924
0.022128351 -0.013846325 -0.024922272 4279913623
0.023805402 -0.012984366 -0.025643516 4279650719
0.025660597 -0.012946039 -0.025741041 4280108444
