# .PCD v0.7 - Point Cloud Data file format
VERSION 0.7
FIELDS x y z rgba
SIZE 4 4 4 4
TYPE F F F U
COUNT 1 1 1 1
WIDTH 964
HEIGHT 1
VIEWPOINT 0 0 0 1 0 0 0
POINTS 964
DATA ascii
0.023276366 -0.0066008936 0.0013954295 4290128923
0.025200635 -0.0065575507 0.0012844261 4289670689
0.026938081 -0.0057248697 0.00052605662 4289670688
0.02885925 -0.005681457 0.00041533634 4290063134
0.030588135 -0.0048487894 -0.00034240633 4289997598
0.033090517 -0.0071726092 0.0014880877 4289605664
0.036003977 -0.011074027 0.004611332 4289996323
0.038744159 -0.014185805 0.0070864251 4286006084
0.0052793548 -0.0053590266 -0.0013355855 4289343013
0.0073536709 -0.0061087376 -0.000799248 4289605154
0.0092711747 -0.0060662581 -0.00091038877 4290128924
0.011188492 -0.0060236864 -0.0010214485 4290325018
0.013105638 -0.0059810337 -0.0011324347 4289670688
0.015022606 -0.0059382897 -0.0012433389 4289997853
0.017285325 -0.0074789557 -6.0956925e-05 4289998108
0.019207358 -0.007435909 -0.00017201249 4289932573
0.021307603 -0.0081844367 0.00036327355 4289801758
0.023050837 -0.0073495973 -0.00039392058 4290259739
0.024788454 -0.0065148212 -0.001150745 4289997598
0.026520431 -0.0056800973 -0.0019071861 4289997598
0.028246805 -0.0048454236 -0.0026632482 4289932063
0.029775493 -0.0032194154 -0.0040644594 4290324764
0.032266743 -0.0055500064 -0.0022381749 4289015848
0.034971505 -0.0086713787 0.00023241341 4288885543
0.0069917217 -0.0060537281 -0.0032290928 4289800738
0.0087416247 -0.0052172029 -0.0039855293 4289997599
0.010650687 -0.0051748184 -0.0040961127 4289539873
0.012559555 -0.0051323539 -0.004206623 4289605408
0.014638439 -0.0058837682 -0.0036718929 4289933084
0.01689551 -0.0074289818 -0.0024924004 4289867294
0.019163251 -0.0089738062 -0.0013134857 4289867293
0.021084987 -0.0089306924 -0.0014244709 4289801758
0.023006529 -0.0088874986 -0.0015353817 4289997598
0.024376549 -0.0064631919 -0.0035793106 4289997598
0.025916561 -0.0048327632 -0.0049780728 4289670434
0.027634718 -0.0039960882 -0.0057320339 4291044373
0.029539175 -0.003952981 -0.0058417381 4291437329
0.03183277 -0.0054966854 -0.004663914 4290978838
0.034334399 -0.0078335153 -0.0028430475 4290128158
0.037452362 -0.012549841 0.00090721436 4288622638
0.0067892894 -0.0067862552 -0.005008121 4289931809
0.0083744451 -0.0051512644 -0.0064067729 4289801504
0.010113254 -0.004312722 -0.007160882 4289736224
0.011846431 -0.0034741601 -0.0079146316 4291306513
0.013914287 -0.0042280629 -0.0073808595 4291306513
0.016160235 -0.0057778126 -0.0062039895 4291045394
0.018416874 -0.0073272451 -0.0050276783 4290194458
0.020505928 -0.0080804303 -0.0044949502 4290193949
0.022419222 -0.0080374349 -0.0046053948 4290063134
0.023964897 -0.006402615 -0.0060013095 4290324764
0.0254995 -0.0047680028 -0.0073964796 4290062878
0.02721221 -0.0039292825 -0.0081485137 4291306259
0.029111154 -0.0038863216 -0.0082579143 4290848534
0.031399094 -0.0054345122 -0.0070830099 4290782743
0.033697695 -0.0069823833 -0.0059086625 4290388768
0.036807053 -0.011711995 -0.0021675751 4288687664
0.0064277947 -0.006715612 -0.007426287 4288950059
0.0081694275 -0.0058749225 -0.0081790071 4289800993
0.0097408295 -0.0042357678 -0.0095736105 4289408548
0.01146853 -0.0033952333 -0.010325409 4290782998
0.013360702 -0.003353063 -0.010434896 4290783254
0.015425488 -0.0041090837 -0.0099025453 4291306513
0.017846532 -0.0064613749 -0.008087188 4290782998
0.019927263 -0.0072168768 -0.0075556403 4290128413
0.02201324 -0.007972179 -0.0070243333 4289997599
0.023553513 -0.0063331737 -0.0084166555 4289735459
0.0250827 -0.0046943044 -0.0098083289 4290913048
0.026600868 -0.0030556517 -0.011199269 4289409059
0.028683379 -0.0038107242 -0.010667533 4289212708
0.030771159 -0.0045656208 -0.010136059 4289800993
0.033258654 -0.0069158203 -0.0083240923 4289866273
0.036162145 -0.010860942 -0.0052326377 4288884268
0.038889952 -0.014007732 -0.0027826829 4287706679
0.0060665533 -0.0066359979 -0.0098378686 4288491568
0.007964544 -0.0065939873 -0.0099479062 4289931808
0.0095332488 -0.0049506053 -0.011339089 4290716953
0.011258192 -0.0041079624 -0.012089112 4288885543
0.012977518 -0.0032652868 -0.012838768 4289343779
0.015036695 -0.0040236665 -0.012307681 4289801759
0.017101131 -0.0047817975 -0.011776878 4290193949
0.019348979 -0.0063400581 -0.010606483 4290128414
0.021426655 -0.0070977723 -0.01007628 4289801248
0.023326002 -0.0070550414 -0.010185882 4290128413
0.025038831 -0.006212052 -0.01093482 4290913048
0.026557013 -0.0045690592 -0.012322532 4290455834
0.028064139 -0.0029262137 -0.013709603 4290586904
0.030338086 -0.0044835042 -0.012540355 4290194204
0.032622695 -0.0060404046 -0.011371686 4290520603
0.035317756 -0.0091967359 -0.0089263981 4289996834
0.038034372 -0.012352534 -0.0064823166 4290061604
0.0074362531 -0.0057027899 -0.012991694 4288754728
0.0089967847 -0.0040552178 -0.014379224 4290717974
0.010713525 -0.0032105846 -0.015127156 4290521369
0.01259461 -0.0031686695 -0.015236005 4290455833
0.014820844 -0.0047319476 -0.014067737 4290848534
0.016882405 -0.0054923734 -0.013538351 4291044373
0.018771112 -0.0054500438 -0.013647461 4289997599
0.020659663 -0.0054076333 -0.013756499 4290193693
0.022915095 -0.0069699525 -0.012589691 4290390043
0.024808712 -0.0069272877 -0.012698917 4289801248
0.026324227 -0.0052800318 -0.014083255 4290782998
0.028020352 -0.0044351015 -0.014829504 4291241234
0.03009969 -0.0051945988 -0.014300752 4291240979
0.032381386 -0.006755969 -0.013135194 4290062879
0.03467375 -0.0083170552 -0.011970144 4289801503
0.037179336 -0.010679751 -0.010168899 4288818479
0.0069083199 -0.0047983136 -0.0160257 4289474084
0.0086251721 -0.003951598 -0.01677209 4289670688
0.010503583 -0.0039098551 -0.01688087 4290586138
0.012381844 -0.0038680434 -0.016989585 4290978583
0.014605135 -0.0054357322 -0.015824383 4290913304
0.016663805 -0.0061983541 -0.015296491 4289997344
0.018549711 -0.0061561037 -0.015405452 4289800993
0.020073935 -0.0045045642 -0.01678725 4289866784
0.022320993 -0.0060713999 -0.015623179 4289932063
0.02420637 -0.0060289335 -0.015731938 4289735969
0.026091591 -0.0059864111 -0.015840646 4289474594
0.027976602 -0.0059438329 -0.015949294 4289474594
0.030055791 -0.0067055337 -0.015422171 4289670689
0.032140233 -0.0074669998 -0.014895337 4289539364
0.034229912 -0.0082282908 -0.014368763 4289605409
0.036527321 -0.0097935693 -0.01320721 4288883758
0.039450966 -0.013770728 -0.010141103 4288425779
0.0067041293 -0.0054950798 -0.017777978 4288752688
0.0085825846 -0.005453432 -0.017886832 4289212198
0.010293797 -0.0046046283 -0.018631246 4289539364
0.012339048 -0.0053698942 -0.018104324 4289539363
0.014217041 -0.0053280154 -0.018212972 4289473828
0.016445361 -0.0068998733 -0.017051246 4289997088
0.017972507 -0.0052440185 -0.01843005 4289473828
0.019849978 -0.0052018883 -0.018538471 4289474084
0.022094123 -0.006773158 -0.017377485 4289277989
0.024162814 -0.007537446 -0.01685158 4289081638
0.026236787 -0.0083016064 -0.016325897 4289081893
0.028315976 -0.009065507 -0.015800487 4288951079
0.030011922 -0.0082162749 -0.016543448 4289016614
0.031899229 -0.0081735197 -0.016652133 4288493353
0.033986039 -0.0089370916 -0.016127046 4288492334
0.036280543 -0.010506756 -0.014968615 4288687664
0.006823279 -0.0078060795 -0.018258242 4287705659
0.0087043494 -0.0077643916 -0.018367261 4288819754
0.010418244 -0.0069133705 -0.019110225 4289016359
0.012296282 -0.0068715755 -0.019218938 4289605154
0.014346644 -0.0076388563 -0.018693896 4289277989
0.016402259 -0.0084059257 -0.01816909 4288493353
0.01828526 -0.0083637927 -0.018277921 4288297258
0.020348705 -0.0091305161 -0.017753437 4288035884
0.022417441 -0.0098971343 -0.017229196 4288101419
0.024491422 -0.010663506 -0.016705234 4288362538
0.026570648 -0.011429666 -0.016181506 4288493609
0.028655142 -0.012195663 -0.015658051 4288493609
0.030356489 -0.011344148 -0.016399715 4288231723
0.032052219 -0.010492722 -0.017141026 4288166444
0.03414163 -0.011258417 -0.01661771 4288296238
0.036640994 -0.013640913 -0.014830668 4288360753
0.0089902803 -0.010891032 -0.018218245 4288100144
0.010876529 -0.010849158 -0.018327512 4288166698
0.012932315 -0.011618627 -0.017804429 4288755749
0.014820978 -0.011576538 -0.017913714 4288951589
0.016709477 -0.011534381 -0.018022936 4288166444
0.018419944 -0.010680893 -0.018763885 4287905069
0.02048596 -0.011449825 -0.018241161 4287970349
0.022557244 -0.012218533 -0.01771874 4287905069
0.02500578 -0.0146091 -0.01593392 4288035884
0.027093045 -0.015377302 -0.01541231 4288297259
0.029185526 -0.016145304 -0.014890941 4288100653
0.030894995 -0.015291453 -0.015631471 4288231469
0.032598861 -0.014437677 -0.016371638 4288100144
0.034496695 -0.014394689 -0.016480938 4288230449
0.036798947 -0.015972929 -0.015329465 4289144878
0.0070612952 -0.012440589 -0.019228064 4286528578
0.0091117993 -0.013212553 -0.018706445 4287839789
0.011167563 -0.013984246 -0.01818509 4287970604
0.013398267 -0.015569315 -0.017033376 4288232489
0.015294977 -0.015527068 -0.017143141 4288821028
0.017191514 -0.015484751 -0.017252844 4288101419
0.018910125 -0.014628975 -0.017992619 4287970348
0.020984128 -0.015399888 -0.017472042 4287969838
0.023063406 -0.016170638 -0.016951662 4287970348
0.025147945 -0.016941153 -0.01643157 4287904813
0.027049117 -0.016898373 -0.016541272 4287904813
0.028950088 -0.016855516 -0.0166509 4288231723
0.03085091 -0.016812589 -0.016760468 4288231723
0.032751575 -0.016769618 -0.016869988 4288165679
0.034652054 -0.0167266 -0.016979463 4288950059
0.036552355 -0.016683504 -0.017088866 4286790718
0.0071801692 -0.014764147 -0.019717583 4286399294
0.0093973503 -0.016354013 -0.018568434 4287840044
0.011291541 -0.016312031 -0.018678209 4288167208
0.013694301 -0.018717168 -0.016900826 4288494118
0.015596353 -0.018674826 -0.017010922 4288624934
0.01749824 -0.018632405 -0.017120942 4287970604
0.01922223 -0.01777437 -0.017859438 4287969838
0.021121077 -0.017731888 -0.017969191 4288035374
0.023019768 -0.017689314 -0.01807886 4288035884
0.02529002 -0.019277403 -0.016932338 4287774254
0.027382404 -0.020049877 -0.016414292 4288101163
0.029288739 -0.020006927 -0.01652425 4287970349
0.031000905 -0.019148754 -0.017261762 4288363049
0.03270746 -0.018290633 -0.017998897 4288623403
0.034408405 -0.017432576 -0.018735658 4288755238
0.0071375966 -0.016273752 -0.020838108 4287314999
0.0091904551 -0.017049985 -0.020319918 4287970859
0.011081837 -0.017008081 -0.020429544 4288167208
0.013481602 -0.019419817 -0.01865685 4288494118
0.01555305 -0.020195408 -0.018139564 4289344799
0.01762978 -0.020970788 -0.017622516 4288035884
0.019534126 -0.020928282 -0.017732657 4287904814
0.021257937 -0.020068014 -0.018469477 4287904559
0.023159258 -0.020025436 -0.018579341 4288362283
0.025246203 -0.020800291 -0.01806266 4287969838
0.027338438 -0.021574968 -0.01754624 4287773999
0.028862216 -0.019897243 -0.018908516 4288231724
0.030568928 -0.019037038 -0.019644108 4288624169
0.032270029 -0.018176861 -0.020379379 4288884523
0.034164928 -0.018134028 -0.020488575 4289669158
0.0070950389 -0.017783176 -0.021958504 4287838259
0.0093117729 -0.019381829 -0.020815859 4288297003
0.011372484 -0.020159999 -0.020299695 4288100653
0.013607949 -0.0217581 -0.019157961 4289148193
0.015509799 -0.021715811 -0.019268077 4288951333
0.017411478 -0.021673463 -0.019378141 4288362539
0.019313022 -0.021631036 -0.019488133 4288362284
0.021034077 -0.020768696 -0.020223206 4288165678
0.022932597 -0.02072621 -0.020332929 4288100143
0.025016688 -0.021503344 -0.019817732 4288296493
0.026729137 -0.020641018 -0.020552175 4287969584
0.028435983 -0.019778684 -0.021286268 4287577138
0.029943347 -0.018096942 -0.022644328 4290193949
0.032226138 -0.019693248 -0.021504857 4286791738
0.0087771714 -0.01842837 -0.023812909 4286726713
0.01322604 -0.021633822 -0.02153476 4286792759
-0.0077494159 0.013325018 0.04351452 4280329528
-0.0057644248 0.013367635 0.043398455 4281372478
-0.0036405623 0.012670106 0.043969952 4282023238
0.00033392757 0.012755948 0.04373794 4280784959
0.0024680942 0.012058963 0.044309068 4281306944
0.0035578758 0.016542114 0.040071961 4281438269
0.0064156801 0.021807283 0.035036422 4279087934
0.0090015903 0.018890731 0.037668329 4279544128
-0.014625732 0.016806576 0.037876055 4281109319
-0.012915611 0.018333752 0.036387842 4281370183
-0.009528596 0.021387771 0.033413574 4279090739
-0.0053519756 0.019986808 0.034557454 4281438013
-0.0033974648 0.020028993 0.034443337 4281046078
-0.0015875995 0.020813551 0.033643752 4280849984
0.00051096082 0.020113647 0.034215357 4281046843
0.0020152181 0.022382628 0.032045815 4280526643
0.0038081557 0.023167122 0.031247448 4281307454
0.0059061125 0.022467498 0.031819306 4281176639
0.0080092996 0.021768078 0.032390933 4279286834
0.011082463 0.016617205 0.037069973 4280850493
-0.016266737 0.012955246 0.038878005 4281956938
-0.015169337 0.018211499 0.033966895 4280718149
-0.01372619 0.021232478 0.031112831 4280393278
-0.012174271 0.023508377 0.02894482 4281828418
-0.01037192 0.024294581 0.028147019 4281502783
-0.0083028004 0.023591477 0.028718438 4280720699
-0.0062283874 0.022888575 0.029289611 4280981309
-0.0042903647 0.022930432 0.029176474 4281372734
-0.0023525283 0.022972383 0.029063426 4281111869
-0.00026777387 0.022270028 0.029634237 4280655418
0.0016724095 0.022312213 0.02952119 4279092523
0.0033072606 0.023843102 0.028041344 4280394808
0.0052415952 0.023885373 0.027928796 4281176384
0.0073337033 0.023183566 0.028499465 4280915008
0.01007396 0.019505456 0.031801831 4279873334
0.013821945 0.011363658 0.039199691 4280523839
-0.016064204 0.0098801134 0.039071571 4282149973
-0.015086308 0.015898794 0.033488125 4280914244
-0.01389626 0.020422675 0.029273801 4279024693
-0.012347024 0.022705056 0.027110882 4279547443
-0.010547489 0.023493446 0.026314847 4279873843
-0.0086174086 0.023534935 0.02620203 4279091248
-0.0065486357 0.022829719 0.026771974 4278700844
-0.0048993751 0.024364941 0.025294211 4281176639
-0.0028282553 0.023660023 0.025864132 4281046589
-0.00089891255 0.023701929 0.025751676 4281046589
0.001180023 0.022997331 0.026321329 4280004149
0.0097088516 0.019434929 0.029278848 4280720699
0.012633644 0.015000285 0.033253167 4281241409
0.017418146 0.0023583705 0.0447172 4281109829
-0.014878228 0.012832799 0.033688076 4281435463
-0.014066234 0.019617483 0.027438268 4279674688
-0.0070074722 0.023528863 0.023579981 4281046079
-0.0050833374 0.023570471 0.023467697 4280915773
-0.003159374 0.023612168 0.023355495 4281111103
-0.0010886267 0.022905197 0.023923915 4281111103
0.00098739564 0.022198427 0.024492089 4281112634
0.0029162243 0.022240549 0.024379835 4281046843
0.0048448592 0.022282735 0.024267644 4280785213
0.006773293 0.02232502 0.02415555 4281371203
0.0088621229 0.02161888 0.024723306 4281372988
0.011446185 0.018667694 0.027329572 4281111613
0.015878335 0.0074850516 0.037408322 4281111613
0.020560734 -0.004444018 0.048161667 4281436738
-0.015170883 0.01276408 0.031161055 4282023238
-0.014363937 0.019568324 0.024926174 4280719423
-0.012822796 0.021863695 0.022773452 4281045569
-0.010898281 0.021905009 0.022660922 4281176128
-0.0091099404 0.022697616 0.021868933 4281241408
-0.0073272251 0.02349022 0.021077361 4281175873
-0.0054086596 0.023531727 0.020965416 4281045313
-0.0033460781 0.022822313 0.021532625 4280980799
-0.0014251545 0.022864074 0.021420691 4281046334
0.00064522028 0.022155028 0.021987591 4281176383
0.0025684834 0.022197038 0.021875668 4281241919
0.0046466589 0.021488357 0.022442266 4281111104
0.0065722391 0.021530617 0.022330359 4280784703
0.0083370805 0.022323608 0.021540403 4279744559
0.010586053 0.020864792 0.02278474 4280785978
0.014007635 0.014152407 0.02877317 4281632834
0.018658988 0.0021877671 0.03950242 4282088519
0.022368617 -0.0052722674 0.046161719 4282023239
-0.015213203 0.011197167 0.029997848 4282282828
-0.014533665 0.01877467 0.023099139 4280981309
-0.012995191 0.021076486 0.020951491 4280719424
-0.010940295 0.020364333 0.021517225 4280849218
-0.0091520287 0.021159135 0.020726878 4280981308
-0.007508073 0.022707306 0.019259147 4280459068
-0.0055923611 0.022748768 0.019147381 4281306434
-0.0035326853 0.022037074 0.019713182 4280979524
-0.001467742 0.021325663 0.020278729 4280783938
0.00045286119 0.021367535 0.020166904 4281241664
0.0025255904 0.020656485 0.020732135 4281176128
0.0042935088 0.02145157 0.019943509 4281241664
0.0098897517 0.022331089 0.018932708 4279092523
0.012636065 0.018609811 0.022202488 4279353134
0.016758591 0.0088678086 0.030878995 4281958979
0.020608902 0.00063272286 0.038199726 4282612544
-0.015867934 0.001274365 0.03639771 4281624418
-0.015380543 0.010386406 0.028157897 4280776033
-0.014575541 0.017229874 0.021952361 4280914753
-0.013037026 0.019538254 0.019809596 4280785213
-0.011248674 0.020335175 0.019020818 4280719933
-0.0078274384 0.0226845 0.016768284 4279417393
-0.0038632676 0.022011932 0.017221339 4281045823
-0.0016571656 0.020542845 0.018461294 4281241408
0.00026059896 0.020584688 0.018349659 4281241919
0.0021781623 0.020626634 0.018238112 4281306944
0.0039405748 0.021423828 0.017451398 4280850238
0.0058550313 0.02146589 0.017340172 4280068664
0.0076088607 0.022263069 0.016554151 4281307454
0.009520188 0.022305243 0.016443245 4279026733
0.011928901 0.020082749 0.018356141 4281111359
0.015365273 0.013331597 0.024314612 4281829183
0.01902172 0.0058268504 0.030944578 4281894208
-0.014362093 0.014169495 0.022156164 4280783174
-0.013078876 0.018000301 0.018667918 4280785979
-0.011423722 0.019557256 0.01720589 4280655418
-0.0097796209 0.021114029 0.015744627 4280590903
-0.0081465803 0.022670668 0.014284085 4280329784
-0.0041936338 0.021995727 0.014736206 4280915774
-0.0021399707 0.021279737 0.015299187 4281046333
-0.00023049861 0.021321423 0.015188054 4281111868
0.0016787648 0.02136318 0.015076987 4281111868
0.0034329519 0.02216237 0.014292439 4279417904
0.0054967552 0.021447003 0.014855125 4280785980
0.0072450936 0.022246268 0.014071069 4281893699
0.0091508552 0.022288337 0.013960495 4281763649
0.011222221 0.021573417 0.014522952 4280915519
0.014309965 0.016316503 0.019121896 4281438013
0.017949365 0.0087895421 0.025736678 4282872644
-0.014404111 0.012620899 0.021006577 4280193613
-0.013381414 0.017982781 0.016179658 4281307708
-0.01199783 0.02106389 0.01337479 4279613488
-0.010500431 0.023384772 0.011244311 4281046844
-0.0086040087 0.023425765 0.01113364 4281438013
-0.006566532 0.02270706 0.011695796 4280851258
-0.0042358488 0.020469032 0.013602934 4280069938
-0.0024757385 0.021270253 0.012819457 4281177148
-0.00057183951 0.021311831 0.012708657 4281176894
0.0011797249 0.022113111 0.011925788 4280981308
0.003080532 0.022154804 0.011815303 4279418924
0.0089447796 0.021521091 0.012155895 4279291933
0.011013232 0.020803954 0.012716913 4279158059
0.013592333 0.017809354 0.015291224 4281241919
0.017048925 0.011019546 0.021219417 4281307198
0.020728178 0.0034718411 0.027815714 4282743613
-0.01419105 0.0095480541 0.021201059 4278366794
-0.013423171 0.016449749 0.01504163 4281438268
-0.012305491 0.021063976 0.01090002 4279092523
-0.010949228 0.024153404 0.0081033008 4279550503
-0.0090611018 0.024194226 0.0079931142 4279618589
-0.0070319846 0.023473181 0.0085541485 4279553564
-0.0047097728 0.021228459 0.010456937 4279224104
-0.0028112754 0.021269821 0.010346378 4280981819
-0.00091296434 0.021311287 0.010235912 4281046589
0.00083310902 0.022114594 0.0094550354 4281111869
0.002728343 0.022156194 0.0093448972 4281111868
0.0047808886 0.021436267 0.0099050207 4280982584
0.0068386942 0.020716533 0.010464904 4279810093
0.0089017451 0.019996978 0.011024601 4280005423
0.010804355 0.020039104 0.010914306 4281111104
0.013211966 0.017797187 0.012812744 4281372733
0.016491324 0.01174898 0.018057328 4281373244
0.020509385 0.0026567141 0.025976419 4282221120
-0.013595153 0.015681412 0.013233677 4281370949
-0.01247998 0.020308666 0.0091019487 4280981053
-0.011126325 0.023406763 0.0063118748 4280261188
-0.0091026686 0.022683319 0.0068715382 4280587843
-0.0070737451 0.021960109 0.0074309846 4281110594
-0.0047518462 0.019708846 0.0093289213 4281372224
-0.0027069151 0.01898618 0.0098875808 4280850493
-0.00065670907 0.018263683 0.010446041 4280654908
0.0010947362 0.019069359 0.009666455 4281110339
0.0028405786 0.019874945 0.0088872937 4280718404
0.0048956648 0.019152902 0.0094456552 4281503293
0.0071161911 0.017667294 0.010672235 4281959744
0.0091845095 0.016945712 0.011229959 4281828674
0.011258058 0.016224373 0.011787469 4281829184
0.013336852 0.01550324 0.012344745 4281503039
0.016447261 0.010201174 0.016908474 4281570104
0.020116888 0.0026097102 0.023472913 4282549304
-0.013636865 0.014151116 0.012097686 4280912459
-0.012654353 0.019558009 0.0073073367 4280981053
-0.010896508 0.020365376 0.0065285303 4280588353
-0.0090059228 0.020406283 0.0064182226 4280523839
-0.0068334043 0.018914573 0.0076438366 4280000579
-0.0047939196 0.018189516 0.0082011232 4280002619
-0.0027491823 0.017464686 0.0087581789 4279480633
-0.00069915503 0.01674002 0.0093150409 4278765868
0.0013561249 0.016015626 0.0098716384 4280010779
0.0032620132 0.016057495 0.0097609079 4280790823
0.0053250864 0.015333456 0.010317192 4280206110
0.0073934197 0.014609641 0.010873252 4281313828
0.0096298382 0.013120129 0.012095743 4280986154
0.011380263 0.013928435 0.011318189 4281245998
0.01379817 0.011673651 0.013206362 4281244979
0.016574182 0.0078879585 0.016425982 4281834029
0.01989837 0.0018060179 0.021642115 4283139373
-0.013548497 0.011852347 0.011628817 4279929178
-0.012297332 0.015737142 0.0081831338 4279215688
-0.01039584 0.015778195 0.008072122 4278955078
-0.0084944963 0.01581936 0.0079612071 4279347779
-0.006452322 0.015092055 0.008516687 4281046843
-0.0045485795 0.015133462 0.0084057702 4281373243
-0.0024985671 0.014406581 0.0089609129 4281570358
-0.00044330209 0.013679928 0.0095158322 4281310258
0.0017691255 0.012185204 0.010736155 4280723503
0.003683053 0.012227255 0.010624963 4281245489
0.0057541281 0.011501188 0.011179213 4281570614
0.0078304559 0.010775368 0.011733186 4281701939
0.010074794 0.0092817405 0.012951952 4282093619
0.011998825 0.0093243988 0.012840456 4282354993
0.014259093 0.0078312652 0.014058479 4282746163
0.01704286 0.0040348591 0.017269548 4282876469
0.019853622 0.00023912825 0.020479109 4284118063
-0.013330214 0.0087785153 0.011822253 4279994458
-0.012073439 0.012674325 0.0083843498 4278755158
-0.010166623 0.012715506 0.0082730381 4279345994
-0.0083981678 0.013527554 0.0074970024 4279804993
-0.0062125325 0.012027471 0.0087153325 4280915519
-0.0043034926 0.012069029 0.0086041344 4281111613
-0.0022482201 0.011340092 0.0091573531 4281439543
-0.00033678114 0.011381914 0.0090461737 4281831223
0.0018781275 0.0098828403 0.010263148 4281571123
0.0039492026 0.0091545591 0.010815683 4281636148
0.0060255229 0.0084264921 0.011367979 4281768239
0.0077871308 0.009239194 0.01059294 4282224178
0.010031223 0.0077412231 0.011808489 4282290988
0.011955142 0.0077839019 0.011697018 4282616879
0.014383338 0.0055163009 0.013574884 4282811443
0.016998515 0.0024791071 0.016114801 4283268149
-0.01350211 0.0080156298 0.010018351 4279797854
-0.011982493 0.010376169 0.0079157474 4279146329
-0.010208517 0.011190408 0.0071409289 4279867213
-0.0083019882 0.011231703 0.0070297215 4280259404
-0.0062547475 0.010500214 0.0075816391 4281045313
-0.0042022318 0.0097689508 0.0081333304 4281045313
-0.002144441 0.0090378998 0.008684787 4281111614
-8.136034e-05 0.008307022 0.0092360554 4281831479
0.0018352121 0.0083490657 0.0091246562 4281636148
0.0039060935 0.0076186182 0.0096755913 4282157878
0.0056678355 0.0084334398 0.0089021167 4282027063
0.0077437833 0.0077032847 0.0094528897 4282223158
0.0099876374 0.0062009571 0.010665213 4282614583
0.012076825 0.0054712901 0.011215367 4282549558
0.014507428 0.0031972332 0.013088246 4283726640
0.017124973 0.00015140604 0.015621561 4283921204
-0.013673883 0.0072573954 0.008217833 4278753883
-0.012024313 0.0088491375 0.0067821918 4279146073
-0.010115042 0.0088903913 0.0066707497 4280062034
-0.0082059354 0.0089317607 0.0065594083 4280194123
-0.0061561614 0.0081981579 0.0071095619 4280847434
-0.003957577 0.0066897338 0.0083207944 4281108808
-0.0017482638 0.0051816897 0.0095314356 4281110594
0.00017381459 0.0052237576 0.009419647 4281568829
0.0019440055 0.0060407436 0.0086471578 4282027063
0.0038630068 0.0060829418 0.0085356953 4282158133
0.0057818145 0.0061252443 0.008424324 4282093364
0.0077004433 0.0061676381 0.0083130347 4281896248
0.0097814724 0.0054355273 0.0088619748 4281961273
0.012198381 0.0031545395 0.010730715 4283006774
0.014631398 0.00087407697 0.012598571 4283594804
-0.013845548 0.0065037766 0.0064208144 4279080283
-0.011800975 0.0057675755 0.0069694212 4279016024
-0.010021701 0.0065863049 0.0061975522 4280127059
-0.0079719648 0.0058504203 0.0067460109 4279735633
-0.0060576946 0.0058920113 0.0066344477 4280650318
-0.0038566291 0.0043792957 0.0078423033 4281107789
-0.00179106 0.0036440818 0.0083900811 4281109319
0.0001308918 0.0036861589 0.0082783094 4281762883
0.0020526722 0.003728318 0.0081666103 4281764669
0.0039742664 0.0037705908 0.0080550099 4281896248
0.0060527548 0.0030360734 0.0086023463 4282615349
0.0081365034 0.0023017684 0.0091494499 4282549303
0.010062993 0.0023444379 0.0090377806 4283202868
0.012319796 0.00083374791 0.01024299 4283660848
0.014587268 -0.00067655277 0.011447621 4284248623
0.00023682415 0.0013695778 0.0077948729 4283068484
0.0024120584 -0.018259251 -0.028208457 4281823063
-0.029619236 -0.0021262942 0.037387855 4281159043
-0.027943164 0.00019053463 0.035241134 4278993583
-0.022329617 0.0025904374 0.032863028 4278865318
-0.020352826 0.0026322501 0.032746978 4279259294
-0.033648454 -0.0038037794 0.036439177 4281027974
-0.032156482 4.1075982e-05 0.032945834 4278669989
-0.030485749 0.0023642192 0.030804213 4278603943
-0.022941709 0.0048110569 0.028317314 4279256233
-0.021095403 0.0056129145 0.027527899 4279585439
-0.033885211 -0.0038721515 0.033908248 4281027974
-0.03259914 0.0015092166 0.029076293 4278735013
-0.029190179 0.0054052668 0.025478266 4279061923
-0.027235132 0.0054462636 0.025363225 4279586459
-0.0252802 0.0054874038 0.0252483 4279781789
-0.023211457 0.0047660368 0.025806226 4278797233
-0.021370698 0.0055700233 0.025018729 4279584419
-0.033926744 -0.0054616807 0.032728147 4281618808
-0.032640424 -6.5053813e-05 0.027907539 4279062689
-0.027710214 0.0069423756 0.021516915 4278729149
-0.021529175 0.0047713919 0.02318722 4278930344
-0.019458175 0.0040481901 0.02374354 4278471344
-0.033870831 -0.0078181913 0.032218717 4282208368
-0.032681711 -0.001639015 0.026739012 4279259294
-0.031227633 0.002237943 0.023272313 4278536878
-0.027859796 0.0061551323 0.019693151 4278794683
-0.025918785 0.0061959988 0.019579057 4279582889
-0.023636483 0.0039361538 0.02147356 4279323043
-0.021571007 0.0032105362 0.022028491 4278602923
-0.019500218 0.0024851812 0.02258322 4279061158
-0.034009811 -0.0086398702 0.030368604 4282208369
-0.032622885 -0.0039820997 0.026239354 4279456409
-0.031165939 -9.4227493e-05 0.022780642 4278538409
-0.029630788 0.0030239159 0.019991979 4278603943
-0.02790096 0.0046032695 0.018541064 4278734758
-0.026071131 0.0054133041 0.017758962 4278931363
-0.023791872 0.003146871 0.019648787 4278865828
-0.021845795 0.0031880634 0.019534558 4278931109
-0.019780658 0.0024604211 0.020088002 4278406828
-0.033856679 -0.011771766 0.030523591 4281554039
-0.032564182 -0.0063292282 0.025736697 4280636804
-0.031207152 -0.0016588867 0.021619033 4279194013
-0.02967193 0.0014679749 0.018836856 4278538409
-0.027942132 0.0030516936 0.017389193 4278800038
-0.024174519 0.0039048484 0.016494911 4278662594
-0.022236772 0.0039458973 0.0163812 4279453604
-0.020418286 0.0047582304 0.015601651 4279062689
-0.033801053 -0.014138334 0.030006766 4281422968
-0.032605585 -0.0079066912 0.02456557 4280702849
-0.031453833 -0.0016758423 0.019127041 4278604199
-0.030029431 0.0022332883 0.015686572 4278407339
-0.02841603 0.004594774 0.013577688 4278668714
-0.024556827 0.0046761716 0.013350953 4278268364
-0.0206981 0.0047580367 0.013124601 4278865063
-0.018890724 0.0055724448 0.012347422 4278472619
-0.033939987 -0.014956905 0.028158888 4281292663
-0.032646995 -0.009483858 0.023394667 4281030269
-0.031597611 -0.0024597039 0.01730543 4279259549
-0.030491985 0.0037877476 0.011882694 4278472108
-0.028889451 0.0061554881 0.0097793462 4278995113
-0.026970848 0.0061959224 0.0096666003 4278733994
-0.024825212 0.0046851719 0.010879968 4278733738
-0.020977672 0.0047668153 0.010654286 4279584674
-0.019297574 0.006358766 0.0092165256 4279127204
-0.036257461 -0.014255716 0.025106873 4282471528
-0.034370273 -0.01343637 0.024327427 4281750643
-0.032788288 -0.010282642 0.021561768 4281161084
-0.031843878 -0.0024608597 0.014825244 4279390618
-0.030638058 0.0030258847 0.010077634 4278995114
-0.025206879 0.0054810299 0.0077542225 4278797744
-0.0194607 0.0056031542 0.0074173128 4279258019
-0.017669976 0.0064216824 0.0066444417 4278278818
-0.034703013 -0.012678436 0.021169811 4282274413
-0.032829639 -0.011857056 0.02039291 4281422713
-0.031782255 -0.0047937399 0.014332972 4280308109
-0.030784022 0.0022686636 0.0082760183 4278734759
-0.025247823 0.0039501516 0.0066177407 4278268618
-0.019745346 0.0056319674 0.0049622888 4278668714
-0.01796015 0.0064525483 0.0041913576 4279062689
-0.016180526 0.0072731385 0.0034208465 4278541978
-0.034841307 -0.013472234 0.0193404 4282340203
-0.032870986 -0.013431196 0.019224253 4280964224
-0.031720743 -0.0071306853 0.013837683 4279588244
-0.030614194 -0.00083099399 0.0084537631 4279194268
-0.029227495 0.0031210156 0.0050480226 4278603688
-0.027314775 0.0031613102 0.0049356101 4278734249
-0.02540217 0.0032017427 0.0048233112 4278930599
-0.023489676 0.0032422962 0.0047111074 4278865319
-0.021696147 0.0040650135 0.0039411457 4278603434
-0.019908175 0.0048877308 0.0031715967 4278603434
-0.010646492 0.0066561392 0.0013006469 4279264138
-0.0088838562 0.007478985 0.00053308345 4280506243
-0.0069861934 0.0075202258 0.00042249542 4280568974
-0.0045152605 0.0044353781 0.0029376829 4279913878
-0.002314873 0.0029141018 0.0041391384 4279389854
4.5053661e-05 0.00061172619 0.0059962012 4282665838
-0.034882493 -0.015046095 0.01817194 4282341478
-0.032912333 -0.015005048 0.018055812 4279522964
-0.031556908 -0.010256322 0.013996539 4280767874
-0.030549765 -0.0031545525 0.0079682255 4280177294
-0.02926809 0.0015928494 0.0039135301 4278537644
-0.027576748 0.0032019867 0.0024877293 4278669223
-0.025669742 0.0032422999 0.0023757555 4278800294
-0.023878895 0.0040670214 0.0016074842 4279190954
-0.021974839 0.0041075023 0.0014958559 4279451563
-0.020313915 0.0057165166 7.2152354e-05 4278996134
-0.018415552 0.0057571242 -3.8958155e-05 4278668713
-0.01055314 0.0043527717 0.00082805846 4279323553
-0.0051307976 0.0060443087 -0.00081426231 4278465479
-0.0027955174 0.0037347516 0.0010392889 4280109464
-0.00029533356 0.00064204261 0.0035464447 4280437139
-0.033252649 -0.014218164 0.014920305 4281554549
-0.031598058 -0.011816853 0.012837998 4281554039
-0.030590557 -0.0046954919 0.0068242401 4280897923
-0.029416509 0.0008515995 0.0021239873 4278668969
-0.02794905 0.0040382603 -0.00060863141 4278406318
-0.026163638 0.004864932 -0.0013750456 4278537388
-0.020719305 0.0065586409 -0.0030173897 4278533054
-0.01870507 0.0058127018 -0.0024736961 4279126949
-0.016812418 0.0058533056 -0.0025843857 4278735014
-0.014660645 0.0043216208 -0.0013870541 4278603943
-0.012630474 0.0035764324 -0.00084406743 4278602923
-0.010865122 0.0044035772 -0.0016086344 4278733228
-0.0091053508 0.005230722 -0.0023727873 4278271934
-0.0073511824 0.0060578501 -0.0031365352 4278600629
-0.0032758191 0.0045687342 -0.0020507365 4278863279
-0.00063549727 0.00068138912 0.0011033192 4279520158
-0.033692226 -0.012628926 0.011140603 4282077809
-0.03184386 -0.01179924 0.010371744 4281357179
-0.030631334 -0.0062361807 0.00568044 4281226109
-0.029564817 0.00011498947 0.00033789221 4279062688
-0.028210487 0.0040990459 -0.0030415845 4278668969
-0.026543841 0.0057165204 -0.0044594193 4278796469
-0.02500413 0.0081224954 -0.0065296269 4279253428
-0.023006205 0.0073738685 -0.0059867953 4278662339
-0.021002937 0.006625467 -0.0054441933 4278662084
-0.018870242 0.0050888276 -0.0042491318 4279191208
-0.016980447 0.0051293494 -0.0043596677 4278668968
-0.01496122 0.004381598 -0.0038176975 4278996133
-0.013068967 0.0044223936 -0.0039282111 4278799274
-0.0091471411 0.0037161345 -0.0034970809 4279454368
-0.0073930472 0.0045454493 -0.0042591952 4279455388
-0.005644545 0.0053747753 -0.005020963 4279258528
-0.0034639463 0.0038399687 -0.0038280287 4278732719
-0.0011240095 0.001517578 -0.0019843774 4279454113
-0.033733159 -0.01418675 0.0099840602 4282405483
-0.031987157 -0.012563774 0.0085644899 4281619318
-0.030672118 -0.0077766073 0.0045368373 4281553783
-0.029497564 -0.0021990445 -0.00014076754 4279128988
-0.028250813 0.002586904 -0.0041641681 4279061159
-0.026810519 0.0057904953 -0.0068821623 4278994858
-0.025044452 0.0066212313 -0.0076441118 4279389344
-0.023165338 0.0066611832 -0.007754277 4279061923
-0.021164995 0.0059105614 -0.007213111 4278995369
-0.019159336 0.0051601501 -0.006672184 4278666928
-0.017148349 0.0044099642 -0.0061314851 4278799783
-0.015132047 0.0036600018 -0.0055910153 4278930343
-0.013374873 0.0044912202 -0.0063519441 4278537133
-0.0096019395 0.0045729196 -0.0065720314 4278728639
-0.0078560784 0.0054042125 -0.007332061 4279187894
-0.0059726909 0.0054452522 -0.0074417344 4278662084
-0.0016121566 0.0023671025 -0.0050622476 4279519649
0.00073547661 3.845524e-05 -0.0032238257 4279061414
-0.031925909 -0.01491029 0.0080620972 4281881713
-0.03050302 -0.010903275 0.0046946062 4280504969
-0.029430427 -0.0045171445 -0.00062244665 4279128988
-0.028070375 -0.000511216 -0.003986069 4278799528
-0.017316122 0.0036951834 -0.0078998841 4278733994
-0.015432183 0.0037356848 -0.0080099991 4278668969
-0.013680533 0.0045689689 -0.0087689785 4278734504
-0.011799578 0.0046096379 -0.0088787451 4278406064
-0.0041313842 0.0039809896 -0.0086687682 4279124909
-0.0020999461 0.003229917 -0.0081302524 4279126438
0.00023922324 0.00089457538 -0.0062961848 4281091978
-0.037809674 -0.016587107 0.0072519919 4282471018
-0.035958722 -0.015751092 0.0064876517 4281684343
-0.03401386 -0.01571057 0.0063730171 4281092488
-0.03206908 -0.015669955 0.006258457 4280375174
-0.030439027 -0.013242934 0.0041971141 4281030013
-0.029255796 -0.0076347715 -0.00045836065 4280637313
-0.028110802 -0.0020272341 -0.0051115295 4278668969
-0.019860744 0.0061246725 -0.01214624 4278602924
-0.017737102 0.0045748977 -0.010960284 4278537899
-0.015732076 0.0038203122 -0.010422341 4278538154
-0.013985954 0.004655675 -0.011179435 4278407339
-0.012245405 0.0054910006 -0.011936069 4278472874
-0.010235328 0.0047368864 -0.011398225 4278603689
-0.0085004866 0.0055722771 -0.012154385 4278276014
-0.0063422546 0.0040238546 -0.010969923 4278603178
-0.0044647232 0.0040648626 -0.011079184 4278734758
-0.0022904798 0.0025170306 -0.0098955482 4278865318
4.5664608e-05 0.00017507467 -0.0080661746 4278865829
0.0027057156 -0.0037551206 -0.0049454859 4280959634
-0.03251842 -0.014032071 0.0025156913 4281685619
-0.030689601 -0.013193961 0.0017545586 4281488504
-0.029188938 -0.0099632442 -0.00094773946 4281095548
-0.028151222 -0.0035429532 -0.0062367674 4279127458
-0.026931196 0.0012816442 -0.010229408 4278603434
-0.02539682 0.0037136478 -0.012279918 4278603688
-0.023878876 0.0061453627 -0.014329346 4278734504
-0.022135068 0.0069824019 -0.015085021 4278668713
-0.020272937 0.0070222197 -0.01519402 4278668968
-0.018157713 0.0054678889 -0.014010753 4278669224
-0.016161051 0.0047109621 -0.013474004 4278407339
-0.014291119 0.0047512827 -0.013583212 4278734248
-0.01255608 0.0055886628 -0.014337906 4278668714
-0.010551643 0.0048322389 -0.013801364 4278734759
-0.0086821131 0.0048728725 -0.013910307 4278538154
-0.0065268576 0.0033200616 -0.012728963 4278406318
-0.0027776361 0.003402059 -0.012947064 4278996133
-0.00044995546 0.0010533854 -0.011122063 4279127204
0.0023553148 -0.0036843903 -0.0073644873 4280371603
-0.032865256 -0.013176368 -0.00056810258 4282340203
-0.030835174 -0.013935776 -3.5691075e-05 4282078063
-0.029337153 -0.010696456 -0.0027313135 4281422969
-0.028301843 -0.0042588525 -0.0080072768 4279325339
-0.027197279 0.0013783956 -0.012635319 4278472364
-0.025552649 0.003017203 -0.014035557 4278538154
-0.023919027 0.0046559023 -0.015435058 4278734504
-0.020437114 0.0063342908 -0.016942699 4279253174
-0.018324874 0.0047755251 -0.015762512 4279518629
-0.016331133 0.004016378 -0.015227199 4278669224
-0.014464051 0.0040566297 -0.015336245 4278472619
-0.012731809 0.0048960941 -0.016089179 4278734504
-0.010730281 0.0041374462 -0.015554072 4278668969
-0.0090037473 0.0049770037 -0.016306516 4278668459
-0.003116101 0.0035014683 -0.015345534 4278268363
0.0018514469 -0.0028061131 -0.010419711 4280043418
-0.033007771 -0.013911367 -0.0023534321 4282667879
-0.030980617 -0.014673022 -0.0018224739 4282143854
-0.029377811 -0.012226944 -0.0038675284 4281553783
-0.028452341 -0.0049701231 -0.0097743487 4279850385
-0.027237363 -0.00011950359 -0.013747318 4278472108
-0.025708355 0.0023253644 -0.015787777 4278341549
-0.023840841 0.0023650518 -0.015897276 4278471343
-0.016501077 0.003326376 -0.016976994 4278406063
-0.014636856 0.0033665569 -0.017085876 4278537898
-0.012907412 0.0042081783 -0.017837072 4278472363
-0.01090879 0.0034472505 -0.017303374 4278537388
-0.0073240697 0.0043294998 -0.018162455 4279058863
-0.0057542995 0.0059722206 -0.019554209 4278928049
0.001040563 -0.00031275116 -0.014747604 4279781533
0.0036991686 -0.0042755203 -0.011651052 4279519139
-0.031125937 -0.015405674 -0.0036058468 4282274668
-0.029418465 -0.013757193 -0.0050035655 4281488248
-0.028492618 -0.0064808303 -0.010895867 4280504713
-0.027503058 -9.3188137e-06 -0.016143182 4278603433
-0.025979478 0.002442007 -0.018178506 4278471854
-0.024117544 0.0024815826 -0.018287672 4279192229
-0.0207651 0.0049721552 -0.020429872 4279384499
-0.016929191 0.0042481637 -0.020005543 4278929834
-0.014941391 0.0034846319 -0.019473054 4278668203
-0.013082869 0.0035247868 -0.019581534 4278668969
-0.011224471 0.003565046 -0.019689929 4278275249
-0.0076508299 0.0044491766 -0.020546708 4279781023
-0.0059410185 0.0052928971 -0.021294802 4279062178
-0.0037922263 0.0037271073 -0.02012264 4279520924
-0.0017836317 0.0029647639 -0.019590814 4278733229
0.00038392097 0.0013994984 -0.018419581 4279323553
0.0028748885 -0.0017713774 -0.015969923 4280306069
-0.031375717 -0.015327502 -0.0060267262 4281227638
-0.029566418 -0.014480968 -0.0067802081 4280569738
-0.028642923 -0.0071851034 -0.012657819 4279849619
-0.027655762 -0.00069630332 -0.017892012 4278931108
-0.024512194 0.0034129405 -0.021311518 4278667693
-0.022900514 0.0050643561 -0.022699993 4279258783
-0.021176171 0.0059097139 -0.023447949 4278996643
-0.019331038 0.0059492802 -0.023555873 4279060649
-0.017227843 0.004377435 -0.022384822 4278732463
-0.015245676 0.0036115563 -0.021853585 4278602413
-0.013392732 0.0036515994 -0.021961734 4278668714
-0.011402648 0.0028861398 -0.021430846 4278472108
-0.0061276257 0.0046181651 -0.023032062 4278400964
-0.0041299164 0.0038532382 -0.022501275 4278269638
-0.00027220696 0.0031293454 -0.022078495 4278930344
0.0020512342 0.00075467955 -0.020272527 4279258274
-0.031729795 -0.014431915 -0.0090802927 4282013039
-0.029821489 -0.014391841 -0.0091925394 4281488249
-0.028463162 -0.010309909 -0.012499459 4281422458
-0.027695641 -0.0021870239 -0.018998682 4279324574
-0.026636384 0.0035101706 -0.023578729 4278733229
-0.017526232 0.0045155352 -0.024757471 4278994859
-0.015549719 0.0037474176 -0.024227556 4278602669
-0.013702333 0.0037873024 -0.02433541 4278537899
-0.011855073 0.0038273176 -0.024443157 4278668969
-0.01000794 0.003867426 -0.024550822 4278799274
-0.0063140839 0.0039479202 -0.02476592 4278268873
-0.0024699792 0.0032213433 -0.024344128 4279319473
-0.00062081218 0.0032619936 -0.024451543 4278996133
0.0015406683 0.0016879896 -0.023286365 4278996389
0.0040307716 -0.0015002163 -0.020849541 4278798509
-0.031979036 -0.014333731 -0.011486315 4282537064
-0.030076321 -0.014293768 -0.011598228 4282077808
-0.028613377 -0.011011623 -0.014259437 4281357179
-0.027622856 -0.0044879774 -0.019468019 4280308108
-0.026675977 0.0020348774 -0.024673939 4278603688
-0.017953351 0.0054726964 -0.027759768 4278800038
-0.015985169 0.0047021648 -0.027230952 4278603943
-0.014146078 0.0047418727 -0.027338319 4278733993
-0.012032855 0.0031618597 -0.026174095 4278537644
-0.010188572 0.0032018861 -0.02628161 4278668969
-0.0083444156 0.0032419963 -0.026389055 4278930853
-0.0065004006 0.0032822331 -0.026496395 4278932129
-0.0046565086 0.003322552 -0.026603661 4279128733
-0.0025113001 0.0017436957 -0.025440961 4279259294
-0.00066224486 0.00178432 -0.025548387 4279062179
0.0018113181 -0.0014130473 -0.023117151 4279651738
0.0041476116 -0.003800394 -0.021321578 4279979158
-0.030330915 -0.014186759 -0.013997358 4282143343
-0.028763466 -0.011708718 -0.016016062 4281291388
-0.02777534 -0.0051678196 -0.02121155 4280636294
-0.026830856 0.0013723345 -0.026404414 4278603944
-0.025339887 0.0038490901 -0.028418381 4278668969
-0.023261599 0.0022632806 -0.027255796 4279062943
-0.021419473 0.0023026196 -0.027363662 4279259549
-0.019703638 0.0031544184 -0.02810619 4278603433
-0.017993368 0.0040062414 -0.028848365 4278668714
-0.016025376 0.0032335306 -0.028321158 4278537899
-0.010089487 0.00091680512 -0.026741091 4278470834
-0.0082427412 0.00095698889 -0.02684867 4278274483
-0.00024350733 -0.0021284102 -0.024745487 4278405553
0.0020817742 -0.0045226347 -0.022954214 4279258019
0.0045820251 -0.0077280449 -0.020530954 4279780513
-0.030585255 -0.014070909 -0.016389852 4282471018
-0.028913423 -0.012401339 -0.017769292 4281553529
-0.027702648 -0.0074727079 -0.021683807 4281487993
-0.026524622 -0.0025446527 -0.025596309 4279718294
-0.024907485 -0.0008759005 -0.026972286 4278932384
-0.023059942 -0.00083656143 -0.027080558 4278995880
-0.021212511 -0.00079709291 -0.027188722 4278601138
-0.019617435 0.00087146275 -0.028563131 4278535604
-0.017775655 0.00091102254 -0.028670806 4278601903
-0.015802421 0.00013626274 -0.028145589 4278601903
-0.013823859 -0.00063826051 -0.027620595 4279190698
-0.011839971 -0.0014125695 -0.027095836 4279256743
-0.0098507628 -0.0021867147 -0.026571274 4278733739
-0.0079986937 -0.0021464247 -0.026679173 4279062179
-0.0062919334 -0.0012919353 -0.027419101 4279193760
-0.0042949393 -0.0020655906 -0.026894756 4279389599
-0.0022926629 -0.0028390111 -0.026370704 4278995878
2.1584332e-05 -0.0052401116 -0.024583727 4279848344
0.0023519844 -0.0076407022 -0.022797648 4280307343
0.0050160736 -0.011668485 -0.019749898 4282271353
-0.030625306 -0.015580332 -0.017510433 4282601833
-0.028843757 -0.014723442 -0.018254139 4281619574
-0.02774252 -0.0089647677 -0.022791475 4281422713
-0.026449099 -0.0048406022 -0.026062123 4280045713
-0.024711348 -0.0039843628 -0.026802983 4279784083
-0.022858504 -0.0039449064 -0.02691156 4279784083
-0.021005761 -0.0039053569 -0.02702006 4279585438
-0.019405268 -0.0022323076 -0.0283916 4279191464
-0.017558172 -0.0021926546 -0.028499603 4278864554
-0.015842699 -0.0013363538 -0.029238753 4278930343
-0.013730101 -0.0029295692 -0.028084312 4279323553
-0.011606716 -0.0045224978 -0.026930384 4278536623
-0.0096122585 -0.0052986667 -0.026407793 4279061158
-0.0077548735 -0.0052582845 -0.02651602 4279258529
-0.0060427189 -0.0044015599 -0.027254611 4279454878
-0.0040404871 -0.0051772753 -0.026732266 4279848089
-0.0020329431 -0.0059527671 -0.026210148 4278799273
0.00028643757 -0.0083602592 -0.024428312 4279389088
0.0024660006 -0.0099512413 -0.02327719 4279849363
0.0051323995 -0.013989833 -0.020237658 4282532473
-0.030879274 -0.015451014 -0.019893002 4281288074
-0.029103242 -0.014592129 -0.020634741 4280701318
-0.027557559 -0.012094923 -0.022637557 4280832134
-0.026143409 -0.00877894 -0.025269873 4279914644
-0.024515428 -0.007101282 -0.026640028 4279390364
-0.022777844 -0.0062427754 -0.027379185 4279717273
-0.021045808 -0.0053842701 -0.028117929 4279586458
-0.019319318 -0.0045257313 -0.028856311 4279455133
-0.017469633 -0.0044860514 -0.028964486 4279388834
-0.01562006 -0.0044462653 -0.029072575 4278929834
-0.013770603 -0.0044063739 -0.029180579 4279651228
-0.011647459 -0.0060036723 -0.028029881 4279126693
-0.0096531883 -0.0067820204 -0.027508903 4278930089
-0.0077959262 -0.0067416639 -0.027617142 4279258019
-0.0060838312 -0.0058827894 -0.028354123 4279651483
-0.0039340034 -0.0074790567 -0.027204726 4279913878
-0.0019239113 -0.0082567465 -0.026684359 4279127713
9.1485679e-05 -0.0090341624 -0.026164256 4278798763
0.0022680908 -0.010629567 -0.025016207 4280896393
-0.029362485 -0.014451928 -0.023008741 4281947249
-0.027822204 -0.011948361 -0.025006425 4280701064
-0.026298333 -0.0094450107 -0.027003042 4279519903
-0.024673093 -0.007763139 -0.028369784 4279652504
-0.022817798 -0.0077236462 -0.028478518 4279586458
-0.021209061 -0.0060418742 -0.02984418 4279717529
-0.01923345 -0.0068233768 -0.029324085 4279389598
-0.017509859 -0.0059626354 -0.030060608 4279520413
-0.015529018 -0.0067438199 -0.029540665 4279127204
-0.01367696 -0.0067039016 -0.02964884 4279258019
-0.011688184 -0.0074846782 -0.029129259 4279389088
-0.0098336376 -0.0074444837 -0.029237416 4278733484
-0.0078369491 -0.0082248636 -0.028718129 4279061158
-0.0059799179 -0.0081844525 -0.028826308 4279454623
-0.0039753318 -0.0089644864 -0.028307348 4279782554
-0.0021158457 -0.008923823 -0.028415523 4279847578
4.9807131e-05 -0.010523975 -0.02727012 4278732974
0.0022261739 -0.012123748 -0.026125304 4281682303
-0.036813192 -0.016931022 -0.023050539 4280176529
-0.029621478 -0.014302839 -0.025376223 4282078319
-0.028086603 -0.011792934 -0.027368709 4281421693
-0.026338115 -0.010930039 -0.028105486 4279847578
-0.024595156 -0.010067206 -0.02884182 4279718039
-0.022737276 -0.010027697 -0.028950736 4279586458
-0.021002654 -0.009164826 -0.029686421 4279389598
-0.019147698 -0.0091251731 -0.02979501 4279455133
-0.017164223 -0.009908529 -0.029276956 4279455133
-0.015175413 -0.010691684 -0.028759148 4279848089
-0.013315316 -0.010651606 -0.028867804 4278733739
-0.011592105 -0.0097884703 -0.029602442 4279519648
-0.0097349621 -0.0097482596 -0.029710777 4279717274
-0.0078779422 -0.0097079314 -0.029819019 4279387813
-0.0057311803 -0.011313144 -0.028675973 4280567953
-0.0038689673 -0.011272534 -0.028784391 4280698003
-0.0020068735 -0.011231843 -0.028892737 4281025679
8.1807375e-06 -0.012013655 -0.028375883 4280567443
0.0023401156 -0.014440362 -0.026609357 4282667114
-0.040985614 -0.015204764 -0.026450332 4282602088
-0.02966119 -0.015796354 -0.026484985 4282472294
-0.028126277 -0.013279933 -0.028472625 4281815923
-0.026262909 -0.013240532 -0.028582025 4280765579
-0.024752658 -0.010724373 -0.030568097 4280242574
-0.022656836 -0.012335888 -0.029426027 4279980179
-0.021165803 -0.009819977 -0.03141078 4280240788
-0.019313693 -0.009780379 -0.031519197 4279977629
-0.017204572 -0.011391297 -0.030377671 4280174743
-0.015215948 -0.012176656 -0.029861487 4280502674
-0.013221983 -0.012961824 -0.02934549 4279978138
-0.011359408 -0.012921603 -0.02945422 4280503693
-0.0094969496 -0.012881299 -0.029562883 4280438924
-0.0074924566 -0.013665914 -0.029047329 4281029248
-0.005772382 -0.012800412 -0.029779978 4280504969
-0.0037626922 -0.013584697 -0.029264562 4281619829
-0.0018979982 -0.013543978 -0.029373083 4281815924
0.00027260929 -0.0151527 -0.0282345 4281685364
-0.028165936 -0.014766776 -0.029576425 4281160574
-0.026417598 -0.013899581 -0.03030999 4279521689
-0.02479241 -0.012204738 -0.031667069 4280308363
-0.022696838 -0.013820633 -0.03052824 4280438669
-0.021082707 -0.012125795 -0.031884503 4280765834
-0.019227996 -0.012086182 -0.031993102 4280570504
-0.01724489 -0.012873933 -0.03147829 4280898434
-0.01525645 -0.013661471 -0.030963719 4281095804
-0.013128746 -0.015276195 -0.029826332 4281948524
-0.005668737 -0.015114635 -0.030261487 4281687403
-0.005999431 -0.014945169 -0.032608461 4279721863
0.015492126 -0.019467456 -0.030081637 4282797928
-0.026841331 -0.014372222 -0.034376755 4281686384
0.0035701096 -0.017889187 -0.033014614 4282798438
-0.026880808 -0.015849976 -0.035473805 4282144109
0.0032120198 -0.017711522 -0.035353445 4282798439
