# .PCD v0.7 - Point Cloud Data file format
VERSION 0.7
FIELDS x y z rgba
SIZE 4 4 4 4
TYPE F F F U
COUNT 1 1 1 1
WIDTH 646
HEIGHT 1
VIEWPOINT 0 0 0 1 0 0 0
POINTS 646
DATA ascii
-0.012580834 0.003975797 0.034531087 4288622129
-0.010844134 0.0055218986 0.03306105 4291304218
-0.0082539245 0.0025550644 0.035665862 4291369499
-0.0054953024 -0.0011632992 0.038948409 4288098358
-0.016529337 0.0015194356 0.034235165 4286398529
-0.015186228 0.0053334399 0.030733926 4289276458
-0.013454787 0.0068837111 0.029267361 4290650909
-0.011451818 0.0069250916 0.029156616 4290651164
-0.0090169087 0.0047036069 0.031078188 4290191908
-0.0064190999 0.00172832 0.0336762 4291434268
-0.0037996843 -0.0012464176 0.036273085 4286529089
-0.017103888 0.0029257033 0.030330671 4289211179
-0.015364103 0.0044803829 0.028866859 4289734693
-0.013773948 0.0067915921 0.026727622 4289408549
-0.011917815 0.0075894301 0.025941281 4289408549
-0.0096353665 0.0061177765 0.027182659 4289473573
-0.00719551 0.0038899914 0.029099209 4289472809
-0.0048889518 0.0024190396 0.030339407 4289145388
-0.0025716648 0.00094838627 0.031579137 4289341484
-0.019287609 0.0020317901 0.028574942 4288818479
-0.017411932 0.0028318986 0.027788902 4289277479
-0.01581338 0.00514973 0.025653979 4290520858
-0.0140929 0.0067085573 0.024194537 4290979348
-0.012101084 0.0067497385 0.02408444 4289997343
-0.009965539 0.0060323183 0.024648642 4290324509
-0.0076780766 0.0045565353 0.025886601 4290847769
-0.0055292994 0.0038396385 0.026450189 4289735203
-0.0033752546 0.0031229109 0.027013598 4289473573
-0.0012159795 0.00240645 0.027576765 4288950059
0.001263611 0.00017341226 0.029486543 4288491314
-0.0217207 0.0026651793 0.02547547 4288294963
-0.019980635 0.0042283875 0.024017965 4289146153
-0.017852753 0.0035082628 0.02458063 4289474594
-0.01599095 0.0043103718 0.023797056 4290128924
-0.014134802 0.0051125553 0.023013866 4290914069
-0.0124254 0.0066755977 0.021558395 4291175445
-0.010295488 0.0059559294 0.02212126 4291306003
-0.0080137327 0.0044756313 0.023356346 4290651418
-0.0058705807 0.0037564621 0.023918645 4289735459
-0.0038742125 0.0037981854 0.023808626 4289931553
-0.0018780455 0.0038400241 0.023698704 4289538599
0.00027539581 0.0031213691 0.024260661 4289865253
0.0024340674 0.0024029207 0.024822393 4291435289
0.0049238354 0.0001637172 0.026726952 4290911264
0.007429719 -0.0020750407 0.028630702 4286201923
-0.023887523 0.0017854576 0.023729069 4288752943
-0.022399522 0.0048797936 0.020930855 4290585119
-0.020542938 0.0056837951 0.02014905 4290716953
-0.018293232 0.0041979891 0.021382248 4290325019
-0.01616843 0.0034757112 0.021943534 4289670944
-0.014315069 0.0042799977 0.021162173 4289670943
-0.012467332 0.0050842525 0.020381181 4290194459
-0.010481425 0.005125456 0.020271512 4289801758
-0.0083491579 0.0044037835 0.020832723 4289735969
-0.0060623884 0.002919354 0.022064393 4289997599
-0.0040688738 0.0029610344 0.021954546 4290258719
-0.0022302642 0.0037656804 0.021174414 4290062368
-0.00055472553 0.005333018 0.019724524 4290847768
0.0014300272 0.0053748102 0.01961538 4290651928
0.0037402809 0.0038914313 0.020846097 4290455579
0.0063924044 0.00088315504 0.023415802 4291566614
0.0088977739 -0.0013620532 0.025314806 4287052348
-0.025926694 0.00014492916 0.022656402 4288229429
-0.024676919 0.0047793589 0.018523222 4289472809
-0.022950381 0.0063509676 0.017072825 4290978583
-0.020974662 0.006391441 0.016963335 4290978840
-0.018733382 0.0049010734 0.018193817 4291044118
-0.01648137 0.0034110718 0.019423736 4290193949
-0.014356934 0.0026867511 0.019983536 4290194459
-0.012650296 0.0042584795 0.018534711 4289671199
-0.010667242 0.0042996532 0.018425221 4289998110
-0.0086843669 0.0043409071 0.018315805 4289867038
-0.0064032972 0.0028520608 0.019544533 4289866784
-0.0044153482 0.0028936481 0.019435009 4289866784
-0.0025822446 0.0037003229 0.018656844 4290848023
-0.0010695383 0.0060369181 0.016541896 4289539619
0.00074682385 0.0068434342 0.015764801 4288950823
0.0028831586 0.0061202827 0.016324626 4289408804
0.0053557903 0.003867771 0.018220527 4289670178
0.0080127791 0.00085098762 0.020783579 4289342503
0.010349385 -0.00063590845 0.022009829 4289014573
-0.028323241 0.00080853235 0.01957676 4287902773
-0.026699264 0.0031525041 0.017459502 4290127394
-0.025216404 0.0062641031 0.014674453 4289800993
-0.023373459 0.007072099 0.013896575 4289016104
-0.02140604 0.0071124029 0.013787551 4289343269
-0.019173197 0.0056175566 0.015015231 4289800993
-0.016794093 0.0033554151 0.016910588 4290062878
-0.014675304 0.0026288209 0.017469099 4290128669
-0.012692198 0.0026698755 0.017359523 4289801758
-0.010996662 0.0042459103 0.015914595 4289801759
-0.0090193748 0.0042870822 0.015805511 4289671199
-0.0068931058 0.003561025 0.016363969 4289867293
-0.0047616139 0.0028352095 0.016922159 4290128923
-0.003243193 0.0051783766 0.014811689 4291044373
-0.0015840009 0.0067541017 0.013369175 4290913814
0.00022413582 0.0075626527 0.012594171 4290455324
0.0021893606 0.0076041748 0.012486199 4290716954
0.0048162788 0.0045779957 0.015044333 4290716954
0.0074647665 0.0015523257 0.017601399 4289997344
0.0097929835 6.0855411e-05 0.018824922 4289931553
0.011784561 0.00010331441 0.018715786 4289735969
0.013423219 0.0016793227 0.017274862 4290193949
-0.030353803 -0.00082450826 0.018509036 4286398019
-0.028840598 0.002296207 0.015728602 4289014574
-0.027105659 0.0038764733 0.01428411 4289996833
-0.025506329 0.006226663 0.012173131 4290586139
-0.023541629 0.0062668105 0.012064179 4289670178
-0.021707095 0.0070769326 0.011288475 4289670178
-0.019479934 0.0055775628 0.012513274 4290389788
-0.017242052 0.0040785833 0.013737531 4290847769
-0.014855251 0.0018101814 0.015627706 4290259229
-0.012875013 0.0018512174 0.015518317 4289801758
-0.011182226 0.0034315581 0.014076775 4289605408
-0.0093541294 0.0042422186 0.013301929 4289867549
-0.0073826015 0.0042833793 0.013193244 4289474849
-0.0052594543 0.0035552285 0.01375029 4289605664
-0.0032855794 0.00359665 0.013641631 4289997854
-0.0016263798 0.0051767542 0.012202371 4290652183
0.00018168986 0.0059875199 0.01142901 4291306259
0.001984112 0.0067982734 0.010655966 4291306003
0.0044425353 0.0045324001 0.012542956 4290651928
0.0069171041 0.0022669579 0.014429128 4289801248
0.0088952035 0.0023090555 0.014320677 4289735714
0.010699496 0.00312023 0.013547806 4289931553
0.01249814 0.0039313226 0.012775356 4290127139
0.014649153 0.0032047234 0.013331586 4291434779
0.017350607 0.00017190492 0.015879614 4291042079
0.019889116 -0.0020916304 0.017762681 4287705149
-0.030743543 -9.9998433e-05 0.015332935 4288229683
-0.029119387 0.0022570114 0.013225267 4289145643
-0.027389925 0.003841544 0.011784323 4289539108
-0.025671519 0.0054260013 0.010344028 4290062623
-0.023836918 0.0062382095 0.0095698684 4290847768
-0.021877959 0.0062783682 0.0094613284 4290978583
-0.019786473 0.0055466318 0.010017952 4290651418
-0.017554276 0.0040431288 0.011239333 4290128413
-0.01531136 0.0025400068 0.012460163 4289866783
-0.013480276 0.0033526993 0.011686606 4289736479
-0.011654809 0.0041653705 0.010913432 4289540128
-0.0098349825 0.0049780929 0.010140615 4290979603
-0.0077227205 0.0042474032 0.010696625 4291110674
-0.0056051984 0.0035169586 0.011252368 4290194458
-0.0034824237 0.0027867402 0.011807911 4289736224
-0.001668781 0.0035996824 0.01103577 4289539618
0.00029913336 0.0036411933 0.010927603 4289866783
0.0021042377 0.0044541419 0.010156071 4289343778
0.0042343736 0.0037244833 0.010711506 4289932829
0.0063697621 0.0029950044 0.011266707 4290194458
0.0081687942 0.0038081273 0.010495732 4290063644
0.010309197 0.0030789464 0.011050798 4290324763
0.011926115 0.0046631792 0.0096175782 4290716953
0.014247753 0.0031632199 0.010835197 4291109399
0.016398393 0.0024344935 0.011389876 4290651164
0.018923029 0.00016413582 0.013268868 4290519584
0.021463744 -0.0021057546 0.015146995 4288360499
0.024020568 -0.0043752687 0.017024336 4286071363
-0.030784134 -0.001685644 0.014159849 4287902774
-0.029159956 0.00067792786 0.012057044 4288230448
-0.027308799 0.0014924067 0.011283396 4288951079
-0.0255877 0.0030812966 0.0098461974 4289277734
-0.02362328 0.0031214515 0.00973727 4289997599
-0.021918815 0.0047101849 0.0083012078 4290259229
-0.019827522 0.0039762785 0.0088562369 4289605154
-0.017866291 0.0040167184 0.0087477472 4289997598
-0.015629061 0.0025090845 0.0099657103 4289735969
-0.013803519 0.0033239 0.0091940425 4289932319
-0.012127094 0.0049126013 0.0077599343 4290717719
-0.010461733 0.0065012234 0.0063264798 4291568143
-0.0083605498 0.0057681254 0.006881481 4291372049
-0.0061024129 0.0042615035 0.0080986451 4291306514
-0.0036791712 0.0019814558 0.0099776071 4289736224
-0.001868315 0.0027965354 0.0092072487 4289932829
0.0002566129 0.0020643827 0.0097612049 4289474593
0.0020616502 0.002879533 0.0089913104 4288951334
0.003861025 0.003694721 0.0082217678 4289016869
0.0058227703 0.0037363921 0.0081141535 4289540128
0.0074428543 0.0053248866 0.006683873 4290128923
0.0097456649 0.0038199886 0.0078991577 4290848279
0.011530615 0.0046351827 0.0071307123 4289800993
0.013488807 0.0046771239 0.0070235487 4289016104
0.015446782 0.0047191675 0.0069164783 4289343013
0.017773211 0.0032150471 0.0081307478 4289473573
0.020297326 0.00093827583 0.010004943 4289669414
0.022647783 -0.00056516984 0.011218017 4289210669
0.02500888 -0.0020682351 0.012430547 4287706169
-0.03094095 -0.0024942537 0.01232419 4287902773
-0.02920052 -0.00090089464 0.010889016 4287968818
-0.027227797 -0.00086078816 0.010779466 4288428073
-0.025503993 0.00073248427 0.0093454048 4289081893
-0.023664121 0.0015492076 0.0085741412 4289474594
-0.021829836 0.0023659011 0.0078033246 4289343268
-0.020001151 0.0031825821 0.0070328973 4289474083
-0.018042766 0.0032229456 0.0069245528 4289474083
-0.016084552 0.0032634395 0.0068163145 4289866783
-0.014126509 0.0033040359 0.0067081656 4290390299
-0.01245556 0.0048970389 0.0052775592 4289735969
-0.01079566 0.0064898808 0.0038476922 4289212709
-0.0088490099 0.0065305536 0.0037404038 4289605409
-0.0065992922 0.0050194054 0.0049548019 4290652184
-0.004338868 0.0035085543 0.006168738 4289539873
-0.0023818836 0.003549743 0.0060611013 4289735968
-0.00026530027 0.0028152438 0.0066139065 4289801504
0.0016940236 0.0028566765 0.0065062884 4289540128
0.0034879074 0.0036738957 0.0057387147 4289409314
0.0052761585 0.0044910642 0.0049715023 4289409314
0.0070587397 0.0053082607 0.0042046364 4290063644
0.0093558803 0.0037988382 0.0054170396 4290848279
0.01095923 0.0053915824 0.0039910153 4290913559
0.012909152 0.0054333559 0.0038843136 4289474084
0.014858872 0.0054752207 0.0037776921 4289932064
0.017176911 0.0039665974 0.0049892161 4290324509
0.01950562 0.0024583051 0.0062001534 4289931299
0.022034705 0.0001751259 0.0080693234 4289931554
0.024002559 0.00021770224 0.0079619493 4289342504
0.025970213 0.00026033632 0.0078546312 4289603113
0.028135464 -0.0004719235 0.0084056575 4286790718
-0.03261945 -0.0064539616 0.013247101 4286725183
-0.030981485 -0.0040771556 0.011153134 4288426799
-0.029122207 -0.003258236 0.010382202 4288165678
-0.027146906 -0.0032180829 0.010272507 4288166443
-0.02529607 -0.0023991058 0.0095022172 4288493609
-0.023323771 -0.0023587681 0.0093928687 4288820518
-0.021740973 1.7494895e-05 0.0073023941 4288754984
-0.020042155 0.0016149571 0.0058732051 4288558379
-0.018354379 0.0032123453 0.0044446643 4289016104
-0.01640176 0.003252733 0.0043367427 4289931553
-0.014449283 0.0032932027 0.0042288918 4290259229
-0.012783781 0.0048904349 0.002801884 4290782744
-0.011129342 0.0064875209 0.0013755523 4289670689
-0.0091882646 0.0065280651 0.0012685601 4289997853
-0.0069442466 0.0050124661 0.002480058 4290782998
-0.0046894997 0.0034971624 0.0036910195 4291044629
-0.0025810599 0.002760177 0.0042426307 4289997598
-0.00062712282 0.0028014141 0.0041352455 4289735969
0.0011641681 0.0036207135 0.0033693239 4289408803
0.0029498264 0.0044399169 0.0026038028 4289605154
0.004729867 0.0052591139 0.0018386729 4289539618
0.0070161 0.0037450562 0.003048338 4289735968
0.0091396868 0.0030089668 0.0035995413 4289801504
0.010916375 0.0038283984 0.0028347485 4290913558
0.012508646 0.0054252897 0.001412658 4290978583
0.014452823 0.0054670521 0.0013063531 4291240213
0.016949423 0.0031764912 0.003172338 4290782233
0.019275196 0.001663798 0.0043802205 4290062368
0.021421961 0.00092872558 0.0049304701 4289931553
0.023189209 0.0017483993 0.0041665975 4289735204
0.02495081 0.0025680042 0.0034030732 4289341993
0.026904538 0.0026104241 0.003296582 4290454048
0.029058576 0.0018758229 0.0038466658 4290191909
0.03162428 -0.00041273795 0.0057092551 4287182653
-0.032773379 -0.007262025 0.011411713 4287444794
-0.0307898 -0.0072219186 0.011301396 4288165169
-0.028925162 -0.0064007081 0.010531787 4288493098
-0.026944552 -0.0063604433 0.010421799 4288166443
-0.02508837 -0.0055391286 0.0096527897 4288362538
-0.023364775 -0.0039370237 0.008225292 4288820518
-0.021781951 -0.0015542123 0.0061396733 4288755239
-0.020215608 0.00082831597 0.0040550847 4288820263
-0.018395416 0.0016493774 0.0032884274 4288950823
-0.01658082 0.0024703559 0.0025221799 4289604644
-0.014631197 0.0025107828 0.0024145003 4289408293
-0.012968443 0.0041123 0.00099086203 4290258973
-0.011170678 0.0049332627 0.00022579171 4290978840
-0.0092297271 0.0049738274 0.00011882745 4291306259
-0.0071374476 0.0042341691 0.00066951849 4291306259
-0.005039908 0.00349474 0.0012200121 4290521114
-0.0027801469 0.0019752807 0.0024275389 4290324763
-0.00098872185 0.002796628 0.0016632024 4290193949
0.00063467771 0.0043980298 0.00024225749 4289735969
0.0024121329 0.0052192477 -0.0005211886 4290586393
0.0041839257 0.0060405028 -0.0012842827 4290913814
0.0066323504 0.0037419391 0.00057916902 4290194204
0.0089235976 0.0022237296 0.0017853975 4289474594
0.010521524 0.0038250485 0.00036619045 4290194204
0.012287088 0.0046464638 -0.00039627217 4290390043
0.014047012 0.0054678419 -0.0011583604 4290062623
0.016722038 0.0023910529 0.0013588443 4290062368
0.018858016 0.0016534696 0.0019080658 4289800738
0.020809591 0.0016956101 0.0018015187 4290062624
0.022568658 0.0025173328 0.0010396689 4290127903
0.024322063 0.0033389502 0.00027821586 4290781978
0.026267551 0.0033811931 0.0001721736 4290716189
0.028413303 0.0026442106 0.0007210765 4290388768
0.030564256 0.0019073761 0.0012697969 4289930534
-0.033040538 -0.0072821248 0.00892164 4287575353
-0.030830447 -0.0088086426 0.010127513 4287772979
-0.028965898 -0.0079852547 0.0093595255 4288231469
-0.02698544 -0.0079449806 0.0092495549 4288624424
-0.025129344 -0.0071214773 0.0084821749 4288166443
-0.023278829 -0.0062980289 0.0077152234 4288231723
-0.021693248 -0.0039086659 0.0056343451 4289475104
-0.01985937 -0.0030852666 0.0048684552 4288558888
-0.018166199 -0.001479086 0.0034461282 4288296748
-0.016346231 -0.00065581547 0.0026812013 4288493098
-0.014672443 0.00095023913 0.0012600776 4289278244
-0.013152979 0.0033387844 -0.0008167401 4289146919
-0.011358015 0.0041619116 -0.0015800837 4289408549
-0.0094199255 0.0042024222 -0.0016868878 4289735969
-0.0073305368 0.0034604953 -0.0011375975 4290324763
-0.005235903 0.0027188221 -0.00058856606 4290259484
-0.003136009 0.0019773552 -3.975071e-05 4290324764
-0.0011904538 0.0020184135 -0.00014667585 4290063134
0.00026789308 0.0044064228 -0.002219649 4289866783
0.0020398274 0.0052297185 -0.0029811664 4291437328
0.0039739311 0.0052708364 -0.0030872365 4291175443
0.0064193308 0.0029656915 -0.0012284517 4291044629
0.0087076277 0.0014430666 -2.5287271e-05 4290062878
0.01047878 0.0022667041 -0.00078649633 4290128414
0.012244314 0.0030902969 -0.0015473403 4290128414
0.014004208 0.0039138445 -0.0023078192 4289866529
0.016494796 0.001610144 -0.00045122765 4290128413
0.018441074 0.0016521001 -0.00055753812 4289931808
0.020197578 0.0024758363 -0.0013176408 4289866784
0.021948487 0.0032995013 -0.002077397 4290389789
0.023693718 0.0041231322 -0.0028367788 4289277734
0.025630981 0.0041651851 -0.0029423805 4289735713
0.027768418 0.0034258557 -0.0023946315 4289539618
0.029707946 0.003468093 -0.0025002565 4290651419
0.032058932 0.0019477336 -0.0012998413 4289407528
0.034837671 -0.0011349453 0.0012057479 4290126373
0.037637919 -0.0042170878 0.0037102178 4287510073
-0.03121908 -0.0080388151 0.0069848727 4287576119
-0.029244084 -0.0079987627 0.006875122 4288165424
-0.027026329 -0.0095292432 0.0080775153 4288493098
-0.025170323 -0.0087035503 0.0073117651 4288886053
-0.023319889 -0.0078779366 0.0065464247 4288362794
-0.021475054 -0.0070522856 0.005781509 4288624423
-0.019768141 -0.005441587 0.0043615624 4288886053
-0.017802149 -0.0054010204 0.0042528305 4288362539
-0.016111881 -0.0037903828 0.0028339382 4288689449
-0.014432654 -0.0021799146 0.0014157761 4289474594
-0.013194181 0.0017850315 -0.0019661319 4288820008
-0.011399284 0.0026103351 -0.0027278569 4289081383
-0.0097586587 0.0042203194 -0.0041436506 4289474083
-0.0076749101 0.0034761312 -0.0035957126 4290128159
-0.005894132 0.0043014097 -0.0043563833 4289866784
-0.0036484599 0.002772972 -0.0031545227 4289605154
-0.0015516207 0.0020293165 -0.0026070401 4289866783
-9.8668039e-05 0.0044237631 -0.0046748584 4290193949
0.0015027821 0.0060335402 -0.0060881143 4289736224
0.0035963207 0.0052900887 -0.0055402508 4289801503
0.0056951195 0.0045468989 -0.004992635 4290390554
0.0079723001 0.0030196859 -0.0037920894 4289801248
0.0099084154 0.0030611064 -0.0038980795 4289866784
0.011844337 0.0031025941 -0.0040040063 4290128158
0.01359874 0.0039282157 -0.0047625592 4289997599
0.015715554 0.0031858343 -0.0042156195 4290455579
0.017837629 0.0024435725 -0.0036688838 4290258973
0.01958596 0.003269345 -0.004426972 4290324509
0.02132865 0.0040950119 -0.0051846663 4290455068
0.023260623 0.0041368916 -0.0052900212 4290978583
0.025587603 0.0026114015 -0.00409164 4289408548
0.027524583 0.0026535196 -0.0041971738 4289670434
0.029258251 0.0034793285 -0.0049541993 4289539363
0.031192072 0.003521495 -0.0050594741 4289800484
0.03375113 0.0012133187 -0.0032109609 4289407273
0.036537491 -0.0018778353 -0.00071219541 4289210924
-0.029640697 -0.0072158086 0.003742855 4287248953
-0.027431384 -0.0087507553 0.0049424563 4288557869
-0.025335401 -0.0094979592 0.0054872911 4288623403
-0.023360956 -0.0094575565 0.0053778403 4288755239
-0.0215162 -0.0086297523 0.0046145264 4288297258
-0.019544754 -0.0085891914 0.0045054052 4289671454
-0.017573446 -0.008548514 0.004396379 4288558634
-0.01574003 -0.0077205976 0.003633948 4288428074
-0.014052667 -0.0061055501 0.0022185314 4289343779
-0.012805857 -0.0021295541 -0.0011557695 4288558888
-0.011148758 -0.00051497482 -0.0025693215 4288755239
-0.0095027164 0.0010995278 -0.0039822217 4289474593
-0.0078676939 0.0027138488 -0.0053944048 4288558123
-0.0062437654 0.0043280921 -0.0068059359 4289212454
-0.0041605532 0.0035818717 -0.0062593939 4289539619
-0.0020720735 0.0028359173 -0.0057131024 4289997853
-0.00046499074 0.004450086 -0.0071234992 4290782998
0.0011310205 0.0060640587 -0.0085331872 4289801503
0.0030512884 0.0061048823 -0.0086385002 4289670688
0.0053121373 0.0045728744 -0.0074403575 4290128669
0.0075836629 0.0030411379 -0.0062426934 4290913558
0.0098658651 0.0015097689 -0.0050455844 4290259484
0.011801682 0.0015512547 -0.0051515047 4289997598
0.013374805 0.0031652781 -0.0065595368 4290259739
0.015120812 0.0039929594 -0.007315971 4289997598
0.017234549 0.0032483987 -0.0067704273 4289735713
0.019164108 0.0032900791 -0.0068757618 4289669923
0.020901345 0.0041178106 -0.0076315394 4290258973
0.022827789 0.0041595637 -0.0077366 4290913304
0.02475401 0.0042013726 -0.0078416029 4290978840
0.026880302 0.0034574415 -0.0072964784 4290978840
0.028808832 0.0034994255 -0.0074015139 4290978583
0.030942842 0.0027557844 -0.0068567218 4289670179
0.033707343 -0.0003446145 -0.0043632705 4288818988
-0.025748476 -0.0087085497 0.0023609735 4287249464
-0.023782339 -0.0086683277 0.0022519752 4288231213
-0.02168683 -0.009417491 0.0027953926 4288493863
-0.019718252 -0.0093769711 0.0026864428 4288624423
-0.017749809 -0.0093363598 0.0025775712 4289670944
-0.015919194 -0.0085063186 0.0018169135 4288755239
-0.014094174 -0.0076762484 0.0010565966 4289016869
-0.012560986 -0.0052678138 -0.0010064393 4288624168
-0.010752626 -0.0044378648 -0.0017656703 4288755239
-0.0093955323 -0.0012406937 -0.0044783019 4289344290
-0.0077578351 0.0003780704 -0.0058874544 4288624424
-0.0061311647 0.0019966876 -0.0072958609 4290193948
-0.0043588579 0.0028262842 -0.0080528045 4289277989
-0.0024327114 0.002866942 -0.0081586558 4289670689
-0.00066890568 0.0036964878 -0.0089149643 4289932574
0.0010892823 0.0045260242 -0.0096708825 4291110163
0.0030094311 0.0045668581 -0.0097761797 4291241234
0.0050997362 0.0038191066 -0.0092313485 4291306514
0.0073683187 0.0022829454 -0.0080367578 4290913814
0.0094718263 0.0015356801 -0.0074924976 4290128669
0.0114021 0.0015770383 -0.0075981217 4290193949
0.012969777 0.0031953403 -0.0090026716 4289735969
0.01452639 0.004813436 -0.010406519 4289997599
0.016445205 0.0048547839 -0.010511342 4290717209
0.018363796 0.0048962352 -0.010616072 4290128158
0.020474277 0.0041495548 -0.010071871 4289866529
0.022395208 0.0041911802 -0.010176635 4289408549
0.024118394 0.0050209234 -0.010929929 4289931808
0.026036195 0.0050626104 -0.011034427 4290128158
0.028359637 0.003528506 -0.0098422589 4290062623
0.030899376 0.0012067761 -0.0080024339 4289538854
0.033663578 -0.0019023658 -0.005515445 4287641398
-0.023949947 -0.0094491504 0.00043768249 4286137408
-0.021986809 -0.0094088651 0.00032894127 4288558378
-0.019891635 -0.010160141 0.00087089278 4288820518
-0.017791167 -0.010911137 0.0014125984 4289540383
-0.015960626 -0.010078918 0.0006535612 4288558888
-0.013995342 -0.010038173 0.00054500997 4289082659
-0.012316354 -0.0084144706 -0.00086339563 4288886309
-0.010648392 -0.0067909621 -0.0022710916 4289147939
-0.0089914799 -0.0051675299 -0.0036781356 4289147939
-0.0073456094 -0.0035442782 -0.0050844634 4288689703
-0.005710803 -0.001921104 -0.0064901393 4289736479
-0.0044003725 0.0012841481 -0.0091935582 4289082148
-0.0026337281 0.0021158415 -0.0099484734 4289016613
-0.00087270886 0.0029475139 -0.010703008 4289670944
0.001212351 0.0021973052 -0.010159628 4290259738
0.0031351224 0.0022381642 -0.010265092 4290914069
0.0050577074 0.0022791144 -0.010370475 4289932573
0.0071530864 0.0015293988 -0.0098274583 4289997598
0.009253718 0.00077981781 -0.0092846397 4290128413
0.011181161 0.00082114711 -0.009390085 4289997598
0.012746163 0.0024437206 -0.010791278 4290193949
0.014483929 0.0032755793 -0.011544032 4291109654
0.016402662 0.0033169263 -0.01164885 4290913558
0.018131867 0.0041487687 -0.012401011 4291109398
0.020047471 0.0041901995 -0.012505544 4290586139
0.02176816 0.0050219656 -0.01325716 4289605154
0.023483172 0.0058537466 -0.01400844 4289932063
0.025592893 0.0051050545 -0.013465604 4289866274
0.028316446 0.0019862307 -0.010982998 4289276969
0.031472713 -0.0027122325 -0.0072083436 4288230449
-0.020064909 -0.010938663 -0.00094129704 4286791484
-0.017967351 -0.01169194 -0.00040100142 4288492333
-0.016139604 -0.010857583 -0.0011583287 4288623914
-0.014317468 -0.010023246 -0.0019152034 4289016868
-0.012786925 -0.007601765 -0.0039684512 4288755749
-0.0108357 -0.0075610792 -0.0040760525 4289475103
-0.0090330839 -0.0067268582 -0.0048316326 4288755494
-0.0070848987 -0.0066860262 -0.0049389116 4289344289
-0.0055985227 -0.0042651198 -0.0069893934 4288689703
-0.0041286647 -0.0018443801 -0.0090389065 4288755239
-0.0023566335 -0.0010103944 -0.009792503 4289147938
-0.00059022754 -0.00017639576 -0.010545766 4289409313
0.0013353229 -0.00013558101 -0.010651459 4289539618
0.0030932128 0.00069840346 -0.011404057 4289801504
0.0045051053 0.0031182966 -0.01345003 4290194203
0.0065921545 0.0023662234 -0.012908175 4289932319
0.0083331764 0.0032000826 -0.013659675 4290128413
0.010603651 0.0016554696 -0.01247156 4289866783
0.011979446 0.0040749763 -0.014515346 4289932063
0.014073901 0.0033233264 -0.013973624 4290324764
0.015987076 0.003364556 -0.014078135 4290782999
0.017900065 0.0034058657 -0.014182574 4289736224
0.01981286 0.0034472202 -0.014286967 4290651929
0.021725468 0.0034886436 -0.014391296 4289997599
0.02344048 0.0043225777 -0.015140977 4289866784
0.025550067 0.0035716803 -0.014599767 4289996579
0.028273299 0.00044413563 -0.012123604 4288230194
-0.018143401 -0.01246812 -0.002211256 4287119413
-0.01631847 -0.01163166 -0.0029667523 4288035119
-0.014358908 -0.011591035 -0.0030749869 4289016613
-0.01282832 -0.0091630165 -0.005123389 4289409824
-0.010731556 -0.0099180695 -0.0045843543 4289736989
-0.0087779015 -0.0098772431 -0.0046920236 4289475614
-0.0071266145 -0.008245117 -0.0060922243 4288820774
-0.0056401864 -0.0058176741 -0.0081378613 4288820518
-0.003857173 -0.0049813525 -0.0088905767 4289344290
-0.0020797774 -0.0041450765 -0.0096428506 4290063644
-0.0003079772 -0.0033088329 -0.010394756 4290129178
0.0012934878 -0.0016772805 -0.011791864 4290652693
0.0028839111 -4.5922585e-05 -0.013188263 4290063388
0.0041229874 0.0031756633 -0.015874533 4289604898
0.0060315877 0.0032163882 -0.015979094 4290062879
0.0079399869 0.003257182 -0.016083594 4289932319
0.0098482221 0.003298067 -0.016188012 4290259484
0.011213228 0.0057238112 -0.018226335 4290717208
0.013112918 0.0057646693 -0.01833017 4288950824
0.015012428 0.0058056074 -0.018433934 4288493099
0.017290063 0.0042570694 -0.017249234 4289016613
0.019386508 0.003503555 -0.016709112 4289736224
0.021293595 0.0035448498 -0.016813144 4290324764
0.023397788 0.0027916366 -0.016273344 4290127903
0.025907308 0.00044946838 -0.014446543 4289735203
0.029041164 -0.0042756433 -0.010690143 4287576119
-0.013012581 -0.0099261347 -0.0069233011 4289213219
-0.010773122 -0.011481287 -0.0057407394 4289737499
-0.0089679286 -0.010642624 -0.0064932816 4289541149
-0.0071683154 -0.009804016 -0.0072453963 4289475103
-0.0056818351 -0.0073700352 -0.0092861895 4289671454
-0.0037423968 -0.0073292237 -0.0093928659 4289736733
-0.0018031299 -0.0072882846 -0.0094994344 4289540383
0.0001359731 -0.0072472757 -0.0096059404 4288951589
0.001580961 -0.004813761 -0.011644224 4288689703
0.0030094609 -0.002380508 -0.013681537 4289279009
0.0042513981 0.00084983418 -0.016361512 4289474849
0.0058169886 0.0024851807 -0.017753201 4289539873
0.0073715597 0.004120369 -0.019144228 4289997598
0.0090932697 0.0049582715 -0.019891441 4289997598
0.010447487 0.0073903254 -0.021924321 4290913559
0.012519896 0.0066338708 -0.021384681 4290913814
0.014411166 0.0066746068 -0.021488013 4290914069
0.016869552 0.0043245633 -0.019663442 4290652183
0.018960431 0.0035687177 -0.019124653 4290783508
0.021251068 0.0020162459 -0.01794379 4289931808
0.023946904 -0.0011295155 -0.015479131 4290127904
0.026664279 -0.0042746933 -0.013015561 4287183928
-0.010814674 -0.013044277 -0.0068969568 4290065429
-0.0090095475 -0.012203423 -0.0076478701 4289410588
-0.0073609874 -0.010562742 -0.0090414593 4290129944
-0.0055697709 -0.009722041 -0.0097914292 4289279009
-0.0037841573 -0.0088813491 -0.010541009 4289213474
-0.0018450022 -0.0088404464 -0.010647599 4289213474
-6.788224e-05 -0.0079997107 -0.011396622 4289213218
0.0015390441 -0.0063594128 -0.012787555 4289344290
0.0031349063 -0.0047192145 -0.014177857 4289147939
0.0048897639 -0.0038787152 -0.014925409 4289409058
0.0062935278 -0.0014393528 -0.01695637 4289867293
0.0076807812 0.00099980831 -0.018986389 4289278244
0.0088733733 0.0042380369 -0.021657031 4289474594
0.010224961 0.0066765775 -0.023684992 4290193949
0.012110867 0.0067171049 -0.0237881 4290455834
0.013996609 0.0067577143 -0.023891134 4290717719
0.016260266 0.0052001043 -0.022712102 4290456599
0.018534593 0.0036428389 -0.021533644 4289866529
0.021208569 0.00048785796 -0.019074278 4289408549
0.024101272 -0.0034655489 -0.015975513 4288426799
-0.0080063194 -0.0089105405 -0.012758562 4287447853
-0.0059187561 -0.0096719908 -0.012223698 4288885544
-0.003825888 -0.010433281 -0.011689013 4289540639
-0.0020459443 -0.0095904097 -0.012436653 4288820774
-0.00043340772 -0.0079457564 -0.013824752 4288689959
0.001497142 -0.0079048481 -0.013930729 4288624423
0.0032602772 -0.007062111 -0.014677206 4288820518
0.0050177872 -0.0062193722 -0.015423359 4288820518
0.0065970272 -0.0045750556 -0.016809357 4288951334
0.0078143924 -0.0013276835 -0.01947497 4288428073
0.0091879666 0.0011177338 -0.021499308 4288820263
0.010545067 0.0035628895 -0.023522751 4289016359
0.012252778 0.0044049253 -0.024265837 4288885544
0.01414115 0.004445571 -0.024369029 4289539363
0.016407296 0.0028837095 -0.0231934 4289800738
0.018875852 0.00052086823 -0.021379039 4289604389
0.021749362 -0.0034439352 -0.01828737 4286922299
-0.0043365434 -0.0095724612 -0.014755556 4288230958
-0.0020877272 -0.011139972 -0.013582895 4288361773
-0.00031343848 -0.010295004 -0.014328504 4288689449
0.001619719 -0.010254059 -0.014434638 4288689703
0.0033855289 -0.0094091287 -0.015179677 4289082148
0.0051457286 -0.0085642077 -0.015924327 4288886053
0.0069003031 -0.0077192616 -0.016668636 4288755239
0.0084739402 -0.0060706558 -0.01805106 4288689703
0.010036528 -0.0044222097 -0.01943282 4288689703
0.011226505 -0.0011665882 -0.022090379 4288689704
0.01257807 0.0012850608 -0.024108617 4289081639
0.014471799 0.0013257945 -0.024212122 4289343014
0.016365327 0.0013665846 -0.024315573 4289080618
0.019025251 -0.0018062207 -0.021868436 4288687918
0.022095472 -0.0065851971 -0.018147489 4286333504
-0.0027653575 -0.0094641708 -0.017280214 4286857018
-0.00067861378 -0.010229766 -0.016748291 4287576374
0.0015777946 -0.011801315 -0.015579158 4287903794
0.0035106838 -0.011760291 -0.015685214 4288493353
0.0049338639 -0.0093010273 -0.017702863 4288624169
0.0066856816 -0.0084540378 -0.018445386 4288951078
0.008431904 -0.0076071043 -0.019187557 4288689703
0.010350503 -0.0075660599 -0.019292589 4288951078
0.011726797 -0.005107448 -0.021307409 4288754728
0.013086587 -0.0026491804 -0.023321245 4288689449
0.014616065 -0.00099684112 -0.024697855 4288753964
0.016701102 -0.00176169 -0.024165256 4288295728
0.019366145 -0.0049430667 -0.021724911 4286267968
0.0012072176 -0.011731653 -0.017995283 4287118393
0.0031345561 -0.011690781 -0.018101061 4288100144
0.0048919469 -0.010841556 -0.018842394 4287904303
0.0064712092 -0.0091842487 -0.020218762 4288558634
0.0082146749 -0.0083352122 -0.020959178 4288427563
0.010130465 -0.0082942452 -0.021064069 4288558634
0.011865437 -0.0074452362 -0.021803906 4288558634
0.013594799 -0.0065962365 -0.022543428 4288689449
0.014946364 -0.0041315509 -0.024551924 4288426798
0.017036676 -0.0048984322 -0.024021279 4288492334
0.019515321 -0.0072807176 -0.022222051 4286660669
0.0024246573 -0.009991413 -0.021778625 4287969073
0.0045105889 -0.010761106 -0.021249758 4287903794
0.0064293444 -0.010720287 -0.021354968 4288296749
0.0078224242 -0.008248467 -0.023361178 4288427308
0.009732686 -0.0082076518 -0.02346579 4288362283
0.011642784 -0.0081667909 -0.023570359 4288427563
0.01355271 -0.0081258379 -0.023674846 4288296493
0.015090428 -0.0064647254 -0.025045455 4288231214
0.016805813 -0.0056137601 -0.02578246 4287511093
0.019089989 -0.0071926527 -0.024620736 4286595389
0.021773241 -0.010391071 -0.022194238 4288361263
0.0060427189 -0.010631125 -0.023755498 4287183929
0.0077806637 -0.0097778477 -0.024492454 4288099889
0.0096908361 -0.0097370688 -0.024597088 4288165423
0.011420302 -0.0088838656 -0.025333425 4288427308
0.01332742 -0.008843001 -0.02543778 4288558123
0.015234374 -0.0088020796 -0.02554208 4288296493
0.01695247 -0.0079489201 -0.026277648 4287053369
0.019047782 -0.0087200301 -0.025750495 4286333503
0.0073888451 -0.0096777584 -0.026884511 4289407528
0.0092934966 -0.0096371314 -0.026988868 4287968308
0.011378452 -0.010410949 -0.026462991 4287772723
0.013102293 -0.0095556593 -0.027197383 4288427308
0.015006445 -0.0095148142 -0.027301544 4288362029
0.0167218 -0.0086595761 -0.028035376 4286726459
0.0107954 -0.0094877854 -0.029478114 4286399294
0.012877315 -0.010263789 -0.028953644 4287641910
0.014778674 -0.010223045 -0.02905768 4287839534
0.014365286 -0.010108015 -0.031437207 4286202434
-0.013380721 -0.011438607 -0.010512948 4283197768
0.016378529 -0.0057043862 0.031542175 4282209133
0.031040408 -0.0064868862 0.021197608 4283253104
-0.024596121 -0.0058706878 -0.019308701 4281749879
-0.028462149 -0.0074783936 -0.020228034 4282469999
-0.021079123 -0.0057034511 -0.021926962 4281225343
-0.015072696 -0.0072025517 -0.020968888 4281551999
-0.023026306 -0.0072676186 -0.022949494 4281552763
-0.018263459 -0.0068177353 -0.030434089 4282340203
-0.016088612 -0.0084135551 -0.029277198 4282274413
0.016926304 -0.0081247268 -0.037629124 4282994534
0.020446062 -0.008723855 -0.039568953 4282928998
