# .PCD v0.7 - Point Cloud Data file format
VERSION 0.7
FIELDS x y z rgba
SIZE 4 4 4 4
TYPE F F F U
COUNT 1 1 1 1
WIDTH 963
HEIGHT 1
VIEWPOINT 0 0 0 1 0 0 0
POINTS 963
DATA ascii
0.019783832 -0.0086304732 0.057026763 4290125608
0.021978602 -0.0093369614 0.057593953 4289405743
0.011318803 -0.008925152 0.054915141 4288621873
0.013187364 -0.0081307115 0.054124642 4289995559
0.014892258 -0.0065843901 0.052656319 4289276969
0.01658605 -0.0050382549 0.051188722 4290258464
0.018432178 -0.0042439764 0.050399702 4290454304
0.020771168 -0.0057047764 0.051644221 4290061604
0.023627527 -0.0094201555 0.05492099 4289995558
0.02633927 -0.012383311 0.057518911 4286463554
0.0044812784 -0.0069035003 0.050664838 4288426033
0.0064919963 -0.0068615237 0.050553191 4288426033
0.0083527416 -0.0060652411 0.049764615 4289343013
0.01036036 -0.0060231416 0.049653277 4289277223
0.012367748 -0.0059809266 0.04954204 4289800483
0.013901062 -0.0036764592 0.047401171 4290389534
0.01573918 -0.0028802585 0.046614144 4289277734
0.017735034 -0.0028379876 0.046503771 4289277734
0.020229034 -0.0050572716 0.048421834 4289670179
0.022907972 -0.008029866 0.051015008 4289341739
0.025436908 -0.010248215 0.052931286 4288621873
0.0035728812 -0.003976211 0.045418166 4289932828
0.0057141185 -0.0046909992 0.045983005 4290324764
0.0078606233 -0.0054055899 0.04654761 4289408293
0.009859927 -0.005363632 0.046436757 4289866274
0.011703856 -0.0045652855 0.045650907 4289604898
0.01338423 -0.0030107033 0.044190455 4290717209
0.015214115 -0.0022124648 0.043405522 4289997598
0.017201677 -0.0021703616 0.043295611 4289016104
0.019521162 -0.0036402941 0.044534817 4289277479
0.021851294 -0.0051098727 0.045773458 4289538854
0.024363607 -0.0073350947 0.047685817 4289212199
0.027066238 -0.010315755 0.050271403 4289145644
0.005230695 -0.0040156208 0.04277705 4290787078
0.0076681525 -0.0062497482 0.04468812 4289736224
0.0095122382 -0.0054493044 0.043903813 4289997598
0.01119554 -0.0038903691 0.042446379 4289866529
0.013025567 -0.0030900203 0.041663002 4290324764
0.014849953 -0.0022896938 0.040880006 4290978838
0.016995221 -0.003005961 0.04144346 4291306259
0.019145735 -0.0037220214 0.042006694 4291175188
0.021301478 -0.0044378992 0.042569693 4290651929
0.023462445 -0.0051536057 0.043132517 4289473828
0.026151113 -0.0081432778 0.045712411 4289014574
0.0046007037 -0.0025660414 0.038908679 4289541149
0.0071765929 -0.0055676773 0.041487705 4290193948
0.0091647506 -0.0055259094 0.041377503 4289801248
0.010997646 -0.0047233999 0.040595524 4289931808
0.01266712 -0.0031603184 0.039142225 4289931808
0.014646493 -0.0031184405 0.039032727 4290128414
0.016788892 -0.0038369391 0.039594728 4290128414
0.018770553 -0.0037948135 0.039485253 4290062878
0.020583339 -0.0029922426 0.038704749 4289408803
0.022733234 -0.0037102997 0.039266545 4289408038
0.025410682 -0.0067089088 0.041840602 4289407529
0.028463304 -0.011227328 0.045754869 4289603114
0.0065357983 -0.0041092979 0.037626632 4288953628
0.008969754 -0.0063564442 0.039528295 4289539363
0.010799877 -0.0055517983 0.038748097 4289866784
0.012466609 -0.0039843498 0.037298154 4290062879
0.014443144 -0.0039425129 0.037188832 4289801248
0.016582631 -0.0046632709 0.037749436 4289866784
0.01856146 -0.0046211975 0.037640125 4289866784
0.020371467 -0.0038164398 0.036861368 4289604898
0.022175819 -0.003011764 0.03608302 4289670178
0.024844736 -0.0060192607 0.03865109 4289473318
0.02771198 -0.0097885672 0.041887093 4288622639
0.030785672 -0.014319528 0.045790557 4288556593
-0.031296249 -0.0049306005 0.037209857 4288622128
0.0083182305 -0.0048870752 0.035676133 4289540128
0.010447249 -0.0056104949 0.036235437 4289474849
0.012266204 -0.0048037721 0.03545757 4290128413
0.014400266 -0.0055268696 0.036016755 4290259483
0.01637648 -0.0054849321 0.035907533 4290063389
0.018518291 -0.0062077148 0.036466468 4289997598
0.019991152 -0.0038713124 0.03435358 4289735713
0.021961287 -0.0038292147 0.034244906 4291174934
0.024279147 -0.0053162361 0.03547148 4290520604
0.026784405 -0.0075675445 0.037364993 4290257953
0.029844031 -0.012111854 0.041259553 4289864233
-0.03302535 -0.0088550877 0.038163058 4288687664
-0.032117032 -0.00036354922 0.030679014 4288492589
0.0076671541 -0.0033999942 0.03183708 4289216024
0.0097851008 -0.0041258382 0.032395445 4289017379
0.011908308 -0.0048514483 0.032953534 4289736479
0.014036745 -0.0055768192 0.03351143 4289997853
0.016170435 -0.0063019926 0.034069099 4289998110
0.018143587 -0.0062600048 0.033960126 4289539618
0.019611076 -0.0039172033 0.031852443 4289997598
0.021575652 -0.0038752211 0.031744074 4289735714
0.023713917 -0.0045999149 0.032301772 4289474084
0.026034057 -0.006091143 0.033525061 4290586138
0.02890297 -0.0098821204 0.036744874 4289802014
0.031616785 -0.012905806 0.039297748 4288230194
-0.035139505 -0.0097098388 0.036432095 4288622893
-0.033539277 -0.0065882346 0.033645574 4289277734
-0.032156162 -0.0019257367 0.029523116 4286792503
0.0094330534 -0.0041621737 0.029899325 4290457364
0.011393093 -0.0041207559 0.029790863 4290849298
0.013513185 -0.0048484616 0.030347619 4289605664
0.015475541 -0.0048067831 0.030239183 4289605664
0.017603405 -0.0055341991 0.030795677 4289670943
0.019399635 -0.0047231521 0.030022562 4291175445
0.021190219 -0.0039121751 0.029249867 4289474084
0.022801295 -0.0023322618 0.027813196 4289081384
0.025107607 -0.0038281437 0.029034017 4289474594
0.027783193 -0.0068614446 0.031582478 4290194459
0.030662373 -0.010663 0.034793708 4289277734
0.033568487 -0.014463872 0.038003538 4288099124
-0.035178866 -0.011293602 0.035260212 4288164914
-0.033483766 -0.0089360299 0.033147316 4289146919
-0.032000199 -0.0050331717 0.029701419 4288102183
0.011035696 -0.0041482402 0.027301766 4290456088
0.012989968 -0.0041068085 0.027193721 4289867038
0.014944047 -0.0040653106 0.027085738 4289867038
0.017063558 -0.0047950158 0.027641054 4289474338
0.019019954 -0.004753259 0.027533101 4290586648
0.020805031 -0.0039401948 0.026762346 4291109654
0.022584468 -0.0031271288 0.02599192 4290979094
0.024711318 -0.0038563833 0.026547121 4290848279
0.027022615 -0.0053563975 0.027764522 4289866273
0.029344618 -0.0068561742 0.028981416 4288688173
0.032231301 -0.010668362 0.032184232 4288295218
-0.035218228 -0.012877028 0.034088578 4287445303
-0.033617884 -0.0097379712 0.031314991 4288623403
0.010521099 -0.0033930205 0.024157243 4289279774
0.012467086 -0.0033517685 0.024049653 4289409059
0.014412895 -0.0033104271 0.023942143 4289801758
0.016524069 -0.0040424773 0.024496311 4289997598
0.018640473 -0.0047743237 0.02505026 4289539873
0.020420089 -0.003959219 0.024281405 4289212964
0.022194028 -0.0031441152 0.023512954 4289408804
0.024138793 -0.0031023268 0.02340585 4288820009
0.02608335 -0.0030604675 0.023298811 4288950059
0.028209597 -0.003791661 0.023852546 4288884269
0.030525684 -0.0052958336 0.025066594 4288358459
-0.035073623 -0.016014628 0.034245312 4287052859
-0.033467773 -0.01286668 0.031477857 4287511603
0.010006867 -0.0026244707 0.021022582 4290460679
0.012264736 -0.0041350164 0.02223604 4289605918
0.014044896 -0.0033179885 0.021468576 4289606173
0.01598493 -0.0032766471 0.021361476 4289736479
0.018093005 -0.0040108506 0.021914266 4289408803
0.020035356 -0.0039692875 0.021807166 4288950568
0.021977507 -0.0039276294 0.021700149 4289277989
0.023566633 -0.0023349505 0.020274431 4288885033
-0.035021167 -0.018381238 0.033733316 4286267714
0.011582427 -0.0025796928 0.018449819 4288689958
0.013351619 -0.0017606812 0.017684605 4288556593
-0.035152558 -0.019188801 0.031896625 4285940803
-0.037354507 -0.019247044 0.029515624 4286071364
-0.03591292 -0.018431215 0.023783052 4286005828
-0.033853661 -0.019180343 0.024328314 4286006339
-0.032022752 -0.019923799 0.022399757 4286202433
-0.030357745 -0.017514264 0.02032754 4286595644
-0.032062124 -0.021494132 0.021237835 4287052603
-0.030297335 -0.019870382 0.019822761 4287445813
-0.032392491 -0.020680638 0.018123524 4286921789
-0.03033676 -0.021436095 0.018664269 4286202433
-0.033013355 -0.017463649 0.013071236 4285875268
-0.030874502 -0.019018298 0.014260435 4286333248
-0.029134419 -0.017386148 0.012853273 4286136899
-0.031312086 -0.017377313 0.01052037 4286660924
-0.029275928 -0.018137377 0.011059088 4286202433
-0.031550109 -0.017320648 0.0080851354 4286399038
-0.029519595 -0.018083068 0.0086225811 4286398784
-0.029763043 -0.01801974 0.0061926711 4286201668
-0.011123307 0.010117436 0.030726692 4282809913
-0.0100995 0.015470129 0.025894696 4280136748
-0.0084474273 0.017027579 0.024438379 4280201263
-0.0063982867 0.01630827 0.025006402 4280526389
-0.0035112575 0.011036277 0.029620616 4281894463
-0.00030326843 0.0042476691 0.035581257 4282415938
0.0026651397 -0.0010223724 0.040191066 4283859239
-0.018916477 0.0084067192 0.03001125 4284180029
-0.017456599 0.011491707 0.027207464 4282612033
-0.015651602 0.012292346 0.026426081 4281698879
-0.014102373 0.01461556 0.024297986 4281503038
-0.01269744 0.017699718 0.021497563 4281308984
-0.011183944 0.020022422 0.019371632 4278964514
-0.0094204396 0.020822655 0.018592892 4280528428
-0.0046618432 0.015574157 0.023091557 4280788019
-0.0014763027 0.0087654721 0.029038899 4282482749
-0.026498772 0.0051702801 0.030643368 4282809148
-0.025532596 0.012083508 0.024478748 4281829439
-0.023947231 0.014413442 0.022353075 4280396594
-0.02226422 0.01597945 0.020900982 4279612469
-0.020592246 0.017545395 0.019449551 4281567554
-0.018931303 0.019111175 0.017998856 4280848964
-0.017159104 0.019913387 0.017220896 4280653634
-0.015267465 0.019952096 0.017115276 4280849473
-0.013375968 0.019990917 0.017009756 4280003129
-0.011615101 0.020793188 0.01623271 4281436228
-0.0097266287 0.020832147 0.016127504 4281762118
-0.0079742447 0.021634441 0.015351086 4281111104
-0.0053955615 0.017857693 0.018602055 4280915518
-0.0026484132 0.013318451 0.022522565 4281373499
0.00056353956 0.0064908098 0.028453972 4281699898
0.0036775172 0.00042727217 0.033712029 4283856688
-0.030326214 0.0027701166 0.030381998 4283526974
-0.029204499 0.0089377183 0.024900349 4281568063
-0.027808849 0.012806443 0.021435376 4281438014
-0.024988342 0.019776724 0.015181398 4280005424
-0.02321583 0.020580754 0.014404832 4279679533
-0.021215312 0.01985319 0.014970185 4280459068
-0.019328985 0.019891568 0.014864702 4281111104
-0.017565038 0.020695772 0.014088874 4280915008
-0.015806682 0.021499954 0.013313431 4280523583
-0.012176335 0.022342842 0.012433689 4279155764
-0.010432053 0.023147054 0.011659266 4279286833
-0.008557491 0.023185845 0.011554925 4278573344
-0.0061287098 0.020163305 0.014128892 4279418668
-0.0035369843 0.016376019 0.017371116 4281372989
-0.00048606843 0.010293636 0.022619674 4281438268
0.002755031 0.00344708 0.028534982 4282613819
-0.031369179 0.0088951904 0.022528429 4282416194
-0.030171335 0.014311457 0.017731151 4281045824
-0.028588433 0.016654219 0.015615165 4280783683
-0.027021993 0.018996727 0.013500235 4280653123
-0.025360741 0.020570967 0.012055716 4281306179
-0.023482483 0.020608965 0.011950525 4279741754
-0.021487609 0.019879069 0.012514624 4280719678
-0.019367944 0.018381491 0.013747444 4281045569
-0.017604079 0.019187883 0.012973244 4281175874
-0.015970718 0.020762112 0.011530698 4280980034
-0.014093123 0.020800672 0.011425973 4280458813
-0.0087328404 0.022452153 0.0097761471 4278635564
-0.0065842271 0.020955957 0.011007936 4280654909
-0.004283607 0.018692534 0.012906997 4280916793
-0.0016788542 0.014894728 0.016140496 4281177659
0.0016864985 0.0072607417 0.022709988 4282025788
-0.031407796 0.0073591787 0.02139191 4282413898
-0.030312777 0.013561161 0.015937656 4280977994
-0.028944127 0.017451189 0.012490402 4279805759
-0.02727735 0.019029792 0.011048728 4280131904
-0.025510348 0.019837968 0.010275631 4281305924
-0.023748916 0.020646159 0.0095029389 4281045058
-0.021643009 0.019143846 0.010733222 4279742519
-0.019645724 0.018411934 0.011295657 4280980288
-0.017643131 0.017680284 0.011857827 4280980034
-0.016009793 0.01925889 0.010418533 4281045058
-0.014259912 0.020067401 0.0096469009 4280784194
-0.012645934 0.021645781 0.0082088849 4280914753
-0.010776926 0.021684382 0.0081047965 4280589628
-0.0090438351 0.022492863 0.0073343343 4281046334
-0.006900914 0.020992182 0.0085631991 4280784704
-0.0048884675 0.020261504 0.0091253938 4280981053
-0.0025828779 0.017991759 0.011019411 4281373499
0.00032547861 0.012644306 0.015576074 4281634364
0.0040186718 0.0034501925 0.0234593 4282613563
-0.031346153 0.0050507616 0.020922422 4282413389
-0.030557107 0.013588177 0.013480878 4281238093
-0.029299509 0.018261574 0.0093754875 4279284028
-0.027640928 0.019844323 0.0079375459 4279219768
-0.025659841 0.019109607 0.0084989732 4278829619
-0.021914925 0.019185543 0.0082893679 4279024184
-0.020042643 0.019223683 0.0081847021 4281110339
-0.018170491 0.019261926 0.0080801258 4281045059
-0.016298473 0.019300275 0.0079756351 4281109828
-0.014554117 0.020110872 0.0072059422 4281240388
-0.012685109 0.02014938 0.0071017849 4280980034
-0.010816243 0.020187981 0.0069977059 4281045569
-0.0090832151 0.020998653 0.006228873 4280980543
-0.0072173811 0.021037411 0.0061251274 4281046589
-0.0054928586 0.021848161 0.0053568813 4279939124
-0.0033423305 0.020343445 0.0065822876 4280852278
-0.00059471279 0.015752152 0.01046416 4282156094
0.0029319897 0.0073032677 0.017664827 4282156094
0.0063663796 -0.00037270505 0.024198353 4283463223
-0.030783545 -0.0011360459 0.023776058 4282217038
-0.030183565 0.0089752898 0.015021225 4281563218
-0.029231876 0.015986264 0.0089301309 4280913734
-0.027787395 0.019122832 0.0061657703 4280718403
-0.025809236 0.018385895 0.0067257574 4280458049
-0.024053421 0.019198332 0.0059566195 4280914754
-0.02230319 0.020010814 0.0051878295 4281110339
-0.020677805 0.021597732 0.0037553417 4281241409
-0.0186974 0.020861283 0.0043155304 4281175618
-0.016711675 0.020125061 0.0048755123 4281045058
-0.014593158 0.018614706 0.0060990071 4280915264
-0.012984671 0.02020175 0.0046677343 4280849473
-0.011254303 0.021014456 0.0039005964 4280980289
-0.0098008215 0.023375459 0.0018073353 4281111104
-0.0036697835 0.020395301 0.0041498351 4279223848
-0.0012211427 0.017338637 0.0066970801 4278572068
0.0019953847 0.010413231 0.012555654 4281633344
0.0052607507 0.0034889411 0.018411582 4283004479
-0.030421909 -0.0057946686 0.025283325 4282216530
-0.02970757 0.0035682302 0.017212301 4281889618
-0.029058743 0.01292992 0.0091451081 4281566533
-0.027825408 0.017629113 0.005060575 4280261699
-0.026180644 0.019220479 0.0036299331 4280914243
-0.024546877 0.020811692 0.0022000293 4280979523
-0.022807635 0.021626152 0.001433493 4281175108
-0.021193169 0.023217205 4.8415386e-06 4280654653
-0.019223861 0.022478364 0.00056404481 4281110593
-0.01724923 0.021739744 0.0011230385 4281176894
-0.015141856 0.020224806 0.0023439268 4280980289
-0.013414152 0.021039531 0.0015784774 4280915008
-0.011692036 0.021854281 0.00081337005 4280980544
-0.0099754967 0.022668973 4.8691873e-05 4280589628
-0.0082645677 0.023483668 -0.00071558857 4280850494
-0.0061361566 0.021969739 0.00050448015 4280915519
-0.0039969981 0.020456094 0.0017240711 4280329784
0.00076106936 0.015101731 0.0061442526 4281633599
0.0040040091 0.0081573725 0.011986892 4282025278
0.0071411207 0.0019900706 0.017166343 4284122144
-0.029232137 -0.0018603411 0.019387467 4282281554
-0.028674718 0.0083068646 0.010677168 4281891913
-0.027863432 0.016135629 0.0039555589 4280849729
-0.026440706 0.019289363 0.0012053971 4280915008
-0.024926156 0.021663822 -0.00088222197 4280980289
-0.019384149 0.021776754 -0.0011919994 4279223848
-0.015435405 0.020295259 -7.7141216e-05 4281045824
-0.013713215 0.021112058 -0.00084065984 4280915264
-0.011996616 0.021928836 -0.0016037967 4280849983
-0.0081654489 0.021227062 -0.0011493094 4280003383
-0.006175518 0.020487212 -0.00059231906 4281436484
-0.0041803047 0.019747544 -3.5494391e-05 4281501763
-0.0021798015 0.019008126 0.00052107137 4280916284
-2.4884939e-05 0.017490685 0.0017366512 4280459323
0.0027481988 0.012860898 0.0055882377 4281242683
0.0063267127 0.00434139 0.012732849 4281634109
0.0093356669 -0.0010645557 0.017238978 4282617898
-0.028860021 -0.0065291096 0.020886468 4282281298
-0.028185636 0.0028853957 0.012856633 4282020688
-0.027684994 0.013079949 0.0041705766 4281697603
-0.026589599 0.018586099 -0.00055275846 4281111613
-0.025077742 0.020966999 -0.0026353369 4280915264
-0.023582362 0.023347747 -0.0047169342 4279937849
-0.021746054 0.02338516 -0.0048195836 4280524093
-0.019788027 0.022641737 -0.004262974 4280002874
-0.015983298 0.021936346 -0.0038092225 4280980798
-0.014142059 0.021974307 -0.0039118133 4280654143
-0.012168214 0.021231636 -0.0033557718 4280327488
-0.010189068 0.020489212 -0.0027999231 4279807034
-0.0084810033 0.021308199 -0.0035608164 4279614254
-0.0064967051 0.020566057 -0.0030051214 4280137003
-0.0046507567 0.020604637 -0.0031075911 4278832678
-0.002658613 0.019862887 -0.0025521647 4278506533
-0.00066119432 0.019121319 -0.0019969791 4281047098
0.0021005571 0.014478201 0.0018455244 4281177659
0.0053583533 0.0074950643 0.0076583456 4281699389
0.0083504543 0.0020734984 0.012154088 4283329093
-0.028693788 -0.0096479859 0.021055553 4282281298
-0.027802549 -0.001774163 0.014361685 4282217549
-0.027182262 0.0076655392 0.0063543054 4281303628
-0.02629479 0.014753934 0.00032519805 4281568318
-0.025001977 0.018708181 -0.0030690394 4280655163
-0.02350384 0.021095503 -0.0051459572 4281045823
-0.021664947 0.021132987 -0.0052487352 4281697093
-0.019826185 0.02117059 -0.0053514163 4281762884
-0.017863017 0.020425148 -0.0047965986 4281111104
-0.016021781 0.020463012 -0.0048992601 4280525369
-0.014180671 0.020500984 -0.005001836 4280458304
-0.012339704 0.020539049 -0.0051043327 4280719424
-0.010363471 0.019794364 -0.0045499527 4280456773
-0.0086581893 0.020615477 -0.00530907 4280718659
-0.0068176612 0.02065387 -0.0054112938 4280264248
-0.0049772933 0.020692326 -0.0055134553 4280396339
-0.0029907599 0.01994827 -0.0049593425 4280589884
-0.00084992498 0.018421847 -0.0037494227 4280850238
0.0016051084 0.015330683 -0.0012282182 4281111358
0.0045451596 0.0098926499 0.00325908 4281435973
0.0073659346 0.0052379649 0.0070887371 4280649554
-0.028630443 -0.011989576 0.020561341 4282804559
-0.027525302 -0.0056652064 0.015197143 4282021198
-0.02689632 0.0038007796 0.0072087143 4280976463
-0.026221998 0.012480062 -0.00011946115 4281567044
-0.025153447 0.018016223 -0.0048185578 4280655928
-0.023658007 0.020410027 -0.0068904725 4279874099
-0.021940995 0.021232836 -0.0076491684 4280004148
-0.020107813 0.021270309 -0.0077515496 4279223085
-0.018150292 0.020522643 -0.0071980553 4280268839
-0.016314629 0.020560373 -0.0073004169 4281047609
-0.014349204 0.019813094 -0.0067471969 4280915519
-0.012511089 0.019851092 -0.006849539 4280719424
-0.0104024 0.018319111 -0.0056413859 4280261188
-0.0086972006 0.019142412 -0.0063988748 4280588098
-0.0068567917 0.019180775 -0.0065011079 4281307198
-0.0048730224 0.01843439 -0.0059485268 4281045823
-0.0027377158 0.0169034 -0.0047416026 4279871549
-0.0004427135 0.014587933 -0.002880746 4280197183
0.0018684641 0.0122729 -0.0010207142 4279348544
0.004195787 0.0099583752 0.00083847187 4279216198
-0.028772421 -0.012759489 0.018753333 4283197003
-0.027353708 -0.0087812524 0.015367948 4281629774
-0.026502643 -0.00086456724 0.008708722 4281759824
-0.025927737 0.0086266026 0.00074273924 4281369419
-0.024964284 0.014965899 -0.0046003265 4280915264
-0.023579601 0.018153951 -0.0073223291 4279026989
-0.022097848 0.020554084 -0.0093885055 4278702374
-0.018561739 0.021416519 -0.010247058 4280656184
-0.016480129 0.019879296 -0.0090408688 4281176639
-0.014517605 0.019129772 -0.0084891077 4280720189
-0.012417194 0.01759313 -0.0072838208 4280589119
-0.010306038 0.016056884 -0.0060790796 4280523839
-0.0083221532 0.015308119 -0.0055282712 4280326468
-0.0064737089 0.015346646 -0.0056309542 4279937339
-0.0043384731 0.013811154 -0.0044272887 4280324429
-0.0023387074 0.013063012 -0.0038771457 4279538009
-3.5837293e-05 0.010741193 -0.00202156 4279276378
0.0021315739 0.0092067234 -0.00081949565 4279930709
0.0044640601 0.0068857111 0.0010345881 4279602013
-0.027287614 -0.011115741 0.014878808 4282543438
-0.026217416 -0.0047571007 0.0095425099 4282217039
-0.025633812 0.0047603305 0.0015954596 4281693778
-0.024888791 0.012696937 -0.0050415336 4281371714
-0.023733642 0.017473329 -0.0090632569 4281438014
-0.022135697 0.019090209 -0.010471575 4281111614
-0.020305511 0.019127626 -0.010573786 4281438268
-0.018475443 0.019165151 -0.010675908 4281634619
-0.016518429 0.018413223 -0.010125537 4281504059
-0.014426298 0.016872007 -0.0089231292 4280979523
-0.012323417 0.015331082 -0.0077211969 4279871039
-0.010074545 0.013001136 -0.0058678794 4279152959
-0.00794743 0.011460917 -0.0046671438 4280391493
-0.0058095753 0.0099210665 -0.0034669708 4280390473
-0.0038043857 0.0091707166 -0.0029187752 4280062289
-0.0017939061 0.0084206332 -0.0023708334 4279733339
0.00037069619 0.0068816599 -0.0011719111 4279929179
0.0023944601 0.006132029 -0.00062457612 4279602013
-0.025932506 -0.0086624827 0.010366863 4282412623
-0.025118873 -0.00070288032 0.0037421249 4282347599
-0.024359811 0.0072557181 -0.002879479 4281957193
-0.023190856 0.012045499 -0.0068923249 4281829949
-0.02157931 0.013667006 -0.0082981782 4281438779
-0.019735646 0.013704691 -0.008401148 4279937593
-0.017892092 0.013742503 -0.0085040135 4279736909
-0.015794646 0.012196925 -0.0073052216 4279606859
-0.01381617 0.01144338 -0.0067575746 4279541834
-0.011832375 0.010689992 -0.0062101125 4280522818
-0.0098432675 0.0099368729 -0.0056629041 4279868744
-0.0078488663 0.0091839731 -0.005115909 4279803208
-0.0057085231 0.0076397657 -0.0039190711 4279931474
-0.0037008077 0.0068873558 -0.0033726571 4279605073
-0.0016878024 0.0061351284 -0.0028264839 4279929434
0.0004792884 0.0045918562 -0.0016309276 4279471199
-0.025863718 -0.01099206 0.0098811723 4282607443
-0.024825711 -0.0045991186 0.0045726006 4282282574
-0.023944728 0.0025872439 -0.0013833864 4282152015
-0.02288074 0.0081843901 -0.0060369223 4280652359
-0.021261059 0.009810457 -0.0074400492 4279736653
-0.019287847 0.0090542398 -0.0068939351 4279343444
-0.017309304 0.0082982853 -0.0063480777 4279538773
-0.015325453 0.0075425655 -0.005802426 4280062033
-0.013595626 0.0083747711 -0.0065550595 4280192848
-0.011738982 0.0084131658 -0.0066584232 4279344719
-0.009882465 0.0084516779 -0.0067616911 4279540304
-0.0077503957 0.0069028847 -0.0055677416 4279801679
-0.0054670274 0.0045607556 -0.0037258347 4279800659
-0.003454037 0.0038062539 -0.0031813472 4278820949
-0.0015817806 0.0038454924 -0.0032851929 4279603289
0.00043906271 0.0030913688 -0.0027409852 4279209058
-0.024532877 -0.0085082194 0.0053936322 4282217039
-0.023643367 -0.0013020895 -0.00054829638 4282216783
-0.022570964 0.0043104682 -0.005191003 4281108043
-0.0211806 0.0075335559 -0.0078874221 4280455498
-0.019083407 0.0059790667 -0.0066952212 4280127824
-0.017099619 0.0052210577 -0.0061512599 4280127314
-0.014983598 0.003667092 -0.004959933 4280061014
-0.013245687 0.004501652 -0.0057113944 4279342678
-0.011513352 0.0053362511 -0.0064625069 4279734614
-0.0097865835 0.0061707702 -0.0072132079 4279539029
-0.0076520443 0.0046176538 -0.0060225641 4279539029
-0.0057877749 0.0046564918 -0.0061261421 4279019083
-0.0034939572 0.002308201 -0.0042896201 4279213905
-0.00162182 0.0023474377 -0.0043934598 4279210845
0.00054752082 0.0007954333 -0.003204464 4279013218
-0.024682399 -0.0092356596 0.0036176606 4282083674
-0.023682024 -0.0028085802 -0.0016629189 4282151759
-0.022609372 0.0028192066 -0.0062943455 4280781133
-0.021218922 0.0060510226 -0.0089842975 4280323663
-0.019243367 0.0052905381 -0.0084415898 4279865429
-0.017138384 0.0037319586 -0.0072529754 4279864408
-0.015149452 0.0029719286 -0.006710805 4279928668
-0.013414346 0.0038086269 -0.0074605569 4279666784
-0.011817083 0.0054434277 -0.0088555356 4279535968
-0.0098258257 0.0046838261 -0.0083132889 4279406173
-0.0076915175 0.0031263251 -0.0071258815 4279146073
-0.023947012 -0.0027133627 -0.0040675704 4281890639
-0.022647768 0.0013281964 -0.0073975027 4279933513
-0.021257225 0.0045687072 -0.010081014 4279671119
-0.019403215 0.0046066102 -0.010184556 4279277909
-0.017301194 0.0030436032 -0.0089990133 4279342679
-0.015188396 0.0014808849 -0.0078139482 4279470434
-0.024324898 -0.0018062703 -0.0071091573 4281760589
-0.023033671 0.0022460092 -0.010430571 4279802699
-0.021295525 0.0030866303 -0.011177553 4279276889
-0.019441657 0.0031245071 -0.011281106 4278949723
-0.024476297 -0.0024961103 -0.0088571077 4281299293
-0.023303449 0.0023720432 -0.012812099 4278688348
0.028821155 0.00011621602 0.017978201 4282009468
0.032246932 -0.0060438188 0.023142466 4281486973
0.03571599 -0.012202885 0.028304452 4282339694
0.019138142 -0.0016371077 0.017365353 4280304538
0.021066584 -0.0015957346 0.0172591 4279454114
0.022818461 -0.00077661593 0.016495118 4279258019
0.02804026 0.0016803741 0.014205533 4278860474
0.030892909 -0.0021651331 0.017386049 4279320494
0.034342349 -0.0083420351 0.0225362 4281618044
0.014576867 -0.00014482811 0.013807821 4280830349
0.016662844 -0.00088384002 0.014358614 4279454624
0.018583231 -0.0008427389 0.014252733 4278864298
0.020503402 -0.00080155581 0.014146924 4278733228
0.022247091 1.9539148e-05 0.013385065 4278602414
0.025354072 0.0032210238 0.010550725 4279516333
0.027444273 0.0024826042 0.011101657 4278598078
0.032969542 -0.0044503808 0.016790662 4280307599
0.01387357 0.0014475919 0.010050607 4279451819
0.015780427 0.0014883447 0.0099454261 4278799528
0.017857879 0.00074703991 0.010495123 4278472108
0.019767061 0.00078800321 0.010389934 4278602923
0.023405902 0.0016520973 0.0095253903 4279387558
0.025130115 0.0024751015 0.0087663289 4279521178
0.027033046 0.0025162585 0.0086617274 4279062433
0.028935798 0.0025574844 0.0085571893 4278864809
0.031597599 -0.0005280422 0.011067891 4278799529
0.034666054 -0.0051763253 0.014884708 4280635528
0.0092186034 0.0037614834 0.0058620689 4278540704
0.011274688 0.0030172858 0.0064111389 4279057079
0.015234612 0.0023138449 0.0068552447 4278602668
0.017303742 0.0015701689 0.0074038496 4278668714
0.019204669 0.0016109422 0.0072991042 4278537899
0.03041628 0.0026411805 0.0060199709 4279323299
0.032890521 0.00033093058 0.0078719687 4279521689
0.036552042 -0.0066814972 0.013634397 4279914898
0.0088578835 0.0038185064 0.0034358129 4279717274
0.010745846 0.003858652 0.0033315234 4279455389
0.012468383 0.0046854652 0.002575408 4278733483
0.014521211 0.0039392076 0.0031231814 4278274229
0.0165793 0.0031930991 0.0036707642 4278799784
0.018642627 0.0024472438 0.0042180894 4278472619
0.020535089 0.0024879389 0.0041138893 4278341549
0.027729049 0.0042237043 0.0023962955 4278734248
0.029804796 0.0034785401 0.0029433239 4278472363
0.031885765 0.0027336143 0.0034900866 4278537898
0.035142794 -0.002726811 0.007938195 4278735524
0.038635485 -0.0089722537 0.013034438 4282602343
0.013976187 0.0047934763 5.4356467e-05 4279061159
0.016196556 0.003256401 0.0012507273 4278602923
0.018254288 0.0025082361 0.0017967384 4278537898
0.020141207 0.0025488157 0.0016928456 4278603434
0.022206724 0.001800932 0.0022385849 4278668969
0.023914494 0.0026301723 0.0014852426 4278537899
0.025616638 0.0034593064 0.00073229679 4278603434
0.027313158 0.004288394 -2.0283507e-05 4278669224
0.029383309 0.0035409909 0.0005254086 4278800294
0.031458713 0.0027937461 0.0010708465 4278734504
0.034124568 -0.00031770114 0.0035620346 4279061923
0.037207536 -0.0050047748 0.0073491279 4280701063
0.0098516271 0.0047902241 -0.0021493332 4278269638
0.013767198 0.004079245 -0.0017075952 4278864808
0.015814066 0.0033285879 -0.0011626611 4278537899
0.017692924 0.0033689104 -0.0012661725 4278734248
0.019747578 0.0026185699 -0.00072155835 4278537644
0.021628767 0.0026591029 -0.00082507997 4278603434
0.023509793 0.0026996918 -0.00092854758 4278668714
0.02539061 0.0027403496 -0.00103195 4278668458
0.027271256 0.0027810745 -0.0011352886 4278471853
0.033301994 0.0013230965 -0.00015082862 4278794683
0.036373638 -0.0033772849 0.0036271955 4279650208
0.039878562 -0.0096571781 0.0086969454 4280963203
0.0057488307 0.0047966838 -0.0043472908 4279784339
0.0099731609 0.0024964754 -0.0026121195 4278274738
0.012014769 0.0017433502 -0.0020686435 4278537898
0.013558321 0.0033696592 -0.0034661824 4278603433
0.015431829 0.0034097359 -0.0035694963 4278603433
0.017131925 0.0042428672 -0.004319333 4278734759
0.019178271 0.003490191 -0.0037758611 4278276014
0.021408513 0.0019448269 -0.0025862642 4278472619
0.023286723 0.0019853525 -0.0026895804 4278668714
0.025164738 0.0020259432 -0.002792831 4278734504
0.030605383 0.0029406734 -0.003747764 4278990268
0.032284953 0.003773991 -0.0044960794 4278270658
0.038232215 -0.0048603471 0.0023952276 4279718293
0.0058652163 0.0025052801 -0.0048080478 4279325338
0.0080556646 0.00095411576 -0.0036199274 4278865573
0.010094568 0.00019865483 -0.0030779932 4278603433
0.012138724 -0.00055658817 -0.0025362684 4278603434
0.016571313 0.0051300824 -0.0073626125 4278603179
0.018785208 0.0035799686 -0.0061754519 4278669223
0.02083122 0.0028251801 -0.0056335228 4278472619
0.022882462 0.0020705611 -0.0050918395 4278472619
0.024938971 0.0013161022 -0.0045503364 4278602924
0.026813984 0.0013567097 -0.0046533635 4278405043
0.028499343 0.0021921843 -0.0054004905 4279191464
0.030179098 0.0030275639 -0.0061472133 4279650463
0.031853214 0.0038628876 -0.0068935798 4278599354
0.034312129 0.0015197527 -0.0050648833 4278338998
0.037388138 -0.0032065958 -0.0013065016 4278733483
0.040902615 -0.0095211305 0.0037369495 4282471019
-0.027654644 -0.015702309 0.0090088407 4282666858
-0.026049793 -0.013267525 0.0069596237 4281619828
6.1407685e-05 0.001686709 -0.006250097 4278344354
0.0036451966 0.0025632083 -0.0071015293 4279520669
0.0055111647 0.0026026759 -0.0072047589 4279061923
0.0076959357 0.0010470822 -0.0060195955 4278734249
0.0098914355 -0.00050823484 -0.0048349155 4278602923
0.011437923 0.0011267103 -0.006226256 4278864299
0.014327362 0.0051934719 -0.0096504176 4278269129
0.016357243 0.0044359975 -0.009109336 4278859963
0.018568218 0.0028814115 -0.0079252087 4278535349
0.020432808 0.0029215496 -0.008027846 4278996133
0.022297233 0.002961766 -0.0081304107 4278537899
0.02434542 0.0022049714 -0.0075901244 4278733484
0.028268181 0.0014889184 -0.0071527329 4279125419
0.029945187 0.0023263805 -0.0078977188 4279781788
0.031616576 0.0031638052 -0.0086423317 4279651229
0.033874966 0.0016108658 -0.0074604265 4278535858
0.036544569 -0.0015352117 -0.0049951905 4279061669
0.03984464 -0.0070708022 -0.00060581509 4279521178
0.042976841 -0.011808852 0.0031398972 4280439434
-0.027798742 -0.016442467 0.007223051 4282666348
-0.026304334 -0.013200313 0.0045333835 4281422714
-0.0025768727 0.0041522924 -0.010469328 4280438159
-0.00057290494 0.0033912621 -0.0099290414 4279781024
0.0012851059 0.0034303684 -0.010031977 4279258784
0.0032969415 0.0026696902 -0.0094919866 4279192993
0.005314067 0.0019091982 -0.0089521622 4278537644
0.0074959025 0.00034915656 -0.0077700885 4278472363
0.0095263049 -0.00041084457 -0.0072309189 4278537643
0.012094572 0.005266102 -0.011932091 4278731954
0.013946004 0.0053057019 -0.012034189 4279912603
0.015970297 0.0045458954 -0.011494439 4278469814
0.019856192 0.0038262401 -0.011057102 4278864299
0.022074759 0.0022676177 -0.0098765083 4278537898
0.023936182 0.0023078173 -0.0099788746 4278799273
0.033635549 0.00091193616 -0.0092088683 4279190189
0.035901718 -0.00064514112 -0.0080305869 4279192483
0.038787305 -0.0045984592 -0.0049323714 4278735269
0.041905493 -0.0093499171 -0.0011955346 4281226364
-0.02804767 -0.016374968 0.0047966992 4282272628
-0.026558626 -0.013124238 0.0021137749 4280635783
-0.025422655 -0.0074649137 -0.0024988325 4280900218
-0.01401018 0.0040414333 -0.012233833 4278673303
-0.0121595 0.004079679 -0.012336883 4278604454
-0.010039147 0.0025130697 -0.011155241 4278799528
-0.0046150312 0.0034313556 -0.012106363 4279387814
0.00079149008 0.0043501947 -0.0130559 4278531268
0.0027950108 0.0035871249 -0.012517021 4278597313
0.004960455 0.0020222981 -0.011337333 4278799783
0.0069772452 0.0012597274 -0.0107991 4278800038
0.0089993179 0.00049730577 -0.010261058 4278406573
0.011886545 0.0045856331 -0.013669142 4278995114
0.013735153 0.0046251435 -0.013771108 4279127713
0.01592955 0.0030614007 -0.012592596 4279193249
0.018134616 0.0014980268 -0.011414646 4278863788
0.019993596 0.0015380215 -0.011516989 4278798253
0.021671273 0.0023795404 -0.012259013 4278603434
0.023527175 0.0024196077 -0.012361083 4278603688
0.025569461 0.0016583931 -0.011823655 4278603944
0.029477805 0.00093770027 -0.011388608 4278340784
0.031338438 0.00097813271 -0.011490743 4278669733
0.033593722 -0.00058360305 -0.010315143 4279063453
0.035659559 -0.0013439925 -0.0097787753 4278997663
0.038339175 -0.004507252 -0.0073269922 4278800039
0.044387922 -0.013234872 -0.00051215186 4282602599
-0.028296374 -0.016298501 0.0023769089 4280831878
-0.026705079 -0.013844402 0.00034298172 4280112013
-0.025461245 -0.0089750309 -0.0036161486 4280833409
-0.017874356 0.0032903757 -0.013763542 4278995368
-0.016026285 0.0033283569 -0.013866603 4279585694
-0.014307726 0.0041711833 -0.01461056 4279519648
-0.0083601139 0.0018720962 -0.012996927 4279454368
-0.0066475123 0.0027152523 -0.013740289 4279126693
-0.0047974885 0.0027538948 -0.013843001 4278863024
-0.0029476061 0.0027926173 -0.013945642 4278338743
-0.0010978654 0.0028314553 -0.014048186 4279519139
0.00075173378 0.0028703641 -0.01415067 4279188658
0.0047636926 0.0013400894 -0.013076401 4278471599
0.0066182837 0.00137938 -0.013178955 4278668714
0.0086347386 0.00061471015 -0.012642257 4278930088
0.013524458 0.0039491039 -0.015504613 4278467263
0.019595861 0.001656739 -0.013894783 4279323044
0.021630198 0.0008930061 -0.013358661 4278930598
0.023302227 0.001736667 -0.014098693 4278669224
0.025528163 0.00016965158 -0.012924924 4278604199
0.02738633 0.00020986982 -0.013027044 4278735014
0.02962821 -0.0013567032 -0.011854004 4278538154
0.03168612 -0.0021195635 -0.011318907 4278997154
0.033946633 -0.0036855694 -0.010146845 4278931363
0.035817675 -0.003644797 -0.010249468 4278931363
0.038094126 -0.0052103708 -0.0090781413 4279653268
0.040997803 -0.0091850273 -0.0059970375 4279130008
-0.030453462 -0.016251454 7.0888142e-05 4281748858
-0.028544825 -0.016213171 -3.624981e-05 4280962949
-0.026743844 -0.015367379 -0.00078385987 4280701828
-0.025610108 -0.0096776541 -0.0053737611 4280832898
-0.021608993 0.0017374065 -0.014650182 4278669733
-0.019760832 0.0017751623 -0.014753417 4279585949
-0.018036671 0.0026200451 -0.015496246 4278600883
-0.014475707 0.0035029128 -0.016341334 4278273209
-0.012501385 0.0027340986 -0.015804719 4278930344
-0.010521755 0.0019655135 -0.015268306 4278997154
-0.0086743087 0.0020038914 -0.015371031 4278799273
-0.0069672167 0.0028490629 -0.016112434 4278536879
-0.0029871091 0.0013130065 -0.015040266 4279520159
-0.0011374876 0.0013518203 -0.015142822 4278996899
0.00071199983 0.0013907384 -0.015245288 4278931109
0.0024075285 0.0022361353 -0.015985703 4278405043
0.0044105276 0.0014688056 -0.01545002 4278405298
0.0062595531 0.0015079658 -0.015552276 4278668714
0.0081084445 0.0015472323 -0.015654445 4278537899
0.009957172 0.0015865434 -0.015756566 4278472364
0.017701618 0.00013272651 -0.014890635 4278865574
0.019554965 0.00017256662 -0.014992693 4278931109
0.021408156 0.00021247566 -0.015094687 4278865828
0.02326116 0.00025244243 -0.015196628 4278799528
0.025673315 -0.0021247072 -0.013389841 4278602923
0.027534127 -0.0020844145 -0.013492092 4278864298
0.02977851 -0.0036552725 -0.012322485 4279519904
0.032033578 -0.0052258233 -0.011153406 4279258018
0.034102045 -0.0059906747 -0.01062046 4279653268
0.036175758 -0.0067552729 -0.010087773 4279849108
0.038457438 -0.0083250701 -0.0089200251 4280569993
0.040955268 -0.010699913 -0.0071176095 4281619829
-0.030798163 -0.015347365 -0.0029752827 4282667623
-0.028688271 -0.016928477 -0.0018036537 4281421438
-0.026890106 -0.016080596 -0.0025495142 4280702339
-0.025538392 -0.011994679 -0.0058503477 4280767364
-0.02455283 -0.0054809488 -0.011065532 4280111758
-0.02188392 0.0018789414 -0.017019775 4278274483
-0.020041339 0.0019165818 -0.017122701 4278930854
-0.010695405 0.0012973286 -0.016998615 4279388578
-0.0089882463 0.0021445621 -0.017738495 4278734503
-0.0071464889 0.0021828786 -0.017840859 4278407083
-0.003172189 0.00064235553 -0.016771592 4278861493
-0.0013253912 0.00068107992 -0.016874013 4278798764
0.0023677498 0.0007588435 -0.01707859 4278665909
0.0040576383 0.0016063843 -0.017817013 4278602414
0.0060603246 0.00083694048 -0.017282875 4278603434
0.0077444613 0.0016845297 -0.018020855 4278800038
0.009916909 0.00010701455 -0.016851075 4278669223
0.011765376 0.00014641695 -0.016953113 4278865319
0.013783775 -0.00062239449 -0.016419547 4278931109
0.015807427 -0.0013909638 -0.015886251 4278669479
0.017836355 -0.0021593496 -0.015353193 4278930599
0.019692324 -0.0021194713 -0.015455409 4278602923
0.021729074 -0.0028875442 -0.014922675 4278275503
0.023587443 -0.002847489 -0.015024929 4279060904
0.025818378 -0.004423161 -0.013857861 4278731953
0.027870923 -0.0051906826 -0.01332584 4279192485
0.030120529 -0.0067657884 -0.012159754 4279389854
0.032380842 -0.0083406568 -0.010994175 4279914643
0.034454599 -0.0091075283 -0.010463176 4279849108
0.036533602 -0.0098742172 -0.0099324174 4280373644
0.038820542 -0.011448331 -0.008768172 4280569994
0.041118138 -0.01302209 -0.0076044928 4282537574
-0.028936327 -0.016827421 -0.004205252 4281750389
-0.027036238 -0.016789179 -0.004311814 4280374409
-0.025466759 -0.014315882 -0.0063299537 4280701829
-0.024252396 -0.009407863 -0.010258325 4280636039
-0.023302022 -0.002877377 -0.015458583 4279782809
-0.021803599 -0.00040509645 -0.017472506 4278995878
-0.018360928 0.0012931228 -0.018951492 4279127458
-0.016647931 0.0021422729 -0.019690439 4278865574
-0.014811262 0.0021800995 -0.019792806 4278798764
-0.012974698 0.002218008 -0.019895105 4278470579
-0.011003587 0.001444824 -0.019361425 4278930088
-0.0093019418 0.0022941418 -0.020099441 4278537643
-0.0073256418 0.0015212819 -0.01956589 4278735014
-0.0053440407 0.00074864179 -0.019032627 4278930854
0.00033062696 5.3666532e-05 -0.018704008 4278271679
0.0041742623 -0.00067928061 -0.018273529 4278865828
0.0058612153 0.00017045625 -0.019010115 4278669734
0.0075425878 0.0010201242 -0.019746358 4278735269
0.0098766759 -0.0013723336 -0.017945454 4278800038
0.012059636 -0.0029539485 -0.016779386 4278407083
0.014253311 -0.0045351954 -0.015613879 4278537389
0.01628498 -0.0053058518 -0.015082628 4278340783
0.018146448 -0.0052659661 -0.01518523 4278406574
0.020007774 -0.0052259983 -0.01528776 4278996644
0.022049807 -0.0059961611 -0.01475695 4279456154
0.024097107 -0.0067661172 -0.01422636 4279848854
0.028018475 -0.0074954936 -0.013798755 4279586458
0.030078843 -0.0082649626 -0.013268733 4279979924
0.032338969 -0.0098442044 -0.012106385 4280045204
0.034609757 -0.011423113 -0.010944623 4279849109
0.036691368 -0.012191955 -0.010415644 4280176528
0.038980804 -0.01377038 -0.0092547731 4280177038
-0.027397037 -0.015865508 -0.0073422445 4280832389
-0.025285117 -0.01745501 -0.0061770561 4280766599
-0.024065111 -0.012533908 -0.010096052 4280571015
-0.023224544 -0.0051721483 -0.015919074 4279849364
-0.022196501 0.00056139752 -0.020468969 4278735013
-0.018770315 0.0022636037 -0.021943828 4278339508
-0.016939104 0.0023012068 -0.022045972 4279782298
-0.015237164 0.0031523407 -0.022782587 4279520159
-0.011311524 0.0016012527 -0.021717701 4278406574
-0.0094780549 0.0016392935 -0.021819683 4278603433
-0.0076447092 0.0016774423 -0.021921575 4278866083
-0.0056687295 0.00090251677 -0.021389607 4278604454
-0.0038329214 0.00094090216 -0.0214915 4278473384
-0.0018490329 0.00016628206 -0.020959795 4278669733
0.00014016032 -0.0006080959 -0.02042836 4278800549
0.0024419278 -0.0030081291 -0.018630778 4278997409
0.004134424 -0.0021562278 -0.019366153 4279521178
0.0062985793 -0.0037428541 -0.018202469 4278931364
0.007988058 -0.0028908076 -0.018937595 4278341548
0.010165513 -0.0044769794 -0.017774517 4279192739
0.012353688 -0.0060628057 -0.016612021 4279127459
0.014382638 -0.0068357876 -0.016082298 4279193503
0.016589522 -0.0084210597 -0.014920715 4279586714
0.018280946 -0.0075686034 -0.015655605 4279390363
0.020144902 -0.0075286105 -0.015758304 4279914643
0.022189498 -0.008300893 -0.015229247 4279652503
0.024239361 -0.0090730023 -0.014700437 4279652504
0.026294507 -0.0098449402 -0.014171876 4278800294
0.02835492 -0.010616731 -0.013643506 4280176528
0.030420601 -0.011388304 -0.013115422 4280045204
0.032491535 -0.012159694 -0.012587576 4280111249
0.034764864 -0.013742936 -0.011429206 4280373133
0.036649197 -0.013701973 -0.011532632 4280569228
0.03893847 -0.015284782 -0.010375 4280570248
0.044816926 -0.015972868 -0.010055742 4282602088
-0.027542815 -0.016560655 -0.0090946024 4279912604
-0.025433864 -0.018154616 -0.0079324385 4280176018
-0.023878042 -0.015668385 -0.0099400897 4279194269
-0.023031671 -0.0082869567 -0.015748939 4279128223
-0.022234373 -0.00090641528 -0.021554958 4278865828
-0.020760469 0.0015784167 -0.023557754 4278537133
-0.011484656 0.00095102005 -0.023434732 4279127968
-0.0096540339 0.00098898448 -0.023536567 4278604199
-0.0078235306 0.0010270551 -0.023638315 4278865828
-0.0059931464 0.0010652058 -0.023739995 4278866339
-0.0040174723 0.00028818101 -0.023209564 4278538154
-0.0018883198 -0.0013039159 -0.022047451 4278930854
0.0002515614 -0.0028956318 -0.020885892 4278471854
0.0025557727 -0.005302202 -0.01909326 4278274993
0.0045635328 -0.006078193 -0.018564342 4278537898
0.0065765977 -0.0068539884 -0.018035652 4278601903
0.0084332153 -0.0068146363 -0.018138304 4278274483
0.010454133 -0.0075901169 -0.017609941 4279587479
0.012480356 -0.0083654243 -0.017081751 4279522199
0.014511861 -0.0091404896 -0.016553828 4279718039
0.016548634 -0.0099153593 -0.016026137 4279521434
0.018240027 -0.0090607628 -0.016759435 4279718038
0.020281933 -0.0098354034 -0.016231939 4279849363
0.022329114 -0.010609839 -0.015704663 4279783319
0.024381541 -0.01138409 -0.015177627 4279980178
0.026253067 -0.011343752 -0.015280605 4278931364
0.028124407 -0.011303356 -0.015383529 4279979924
0.030570507 -0.013705843 -0.013597944 4280045459
0.032449678 -0.013665145 -0.013701198 4279979413
0.034525752 -0.014438569 -0.013175224 4280307088
0.036207527 -0.013583602 -0.013907566 4279978139
0.048557371 -0.01740673 -0.01138485 4282143599
-0.029783618 -0.015652657 -0.012003156 4281229169
-0.028010298 -0.014796601 -0.012741189 4281226619
-0.025912501 -0.016395094 -0.011581668 4281291133
-0.024029344 -0.016357027 -0.011687157 4280504969
-0.022838987 -0.011410339 -0.01558507 4280309384
-0.022154044 -0.0031921174 -0.022008851 4279652759
-0.020919181 0.00093530305 -0.025270604 4278866083
-0.019464392 0.0034263711 -0.027267417 4278474149
-0.01582979 0.0035010204 -0.027470145 4278603433
-0.013617344 0.0010852888 -0.025677867 4278865828
-0.011523161 -0.00051237457 -0.024517398 4279257764
-0.0096926577 -0.00047441199 -0.024619227 4278929834
-0.0080021992 0.00038119592 -0.025351707 4278537898
-0.0061746687 0.00041927025 -0.025453243 4278276269
-0.004347235 0.00045744888 -0.025554692 4278668714
-0.0019275844 -0.0027739331 -0.023134977 4279520413
0.00021207333 -0.0043700226 -0.021976646 4279782553
0.0028230473 -0.0084177041 -0.018928921 4279717019
0.0048360825 -0.0091957748 -0.018401917 4279324064
0.0070133954 -0.010790879 -0.017245455 4279455644
0.0087163672 -0.0099342689 -0.017978081 4279062179
0.010742575 -0.010711827 -0.017451635 4279193503
0.012439832 -0.00985518 -0.018183826 4279849108
0.01430133 -0.0098155215 -0.018286597 4279718038
0.016335249 -0.01059266 -0.017760387 4279979668
0.018199161 -0.010552799 -0.017863179 4280176783
0.020240895 -0.011329612 -0.017337279 4280110993
0.022287942 -0.012106275 -0.016811648 4280307853
0.024340212 -0.012882721 -0.01628623 4279717783
0.026397802 -0.013659053 -0.015761025 4278733739
0.028271794 -0.013618633 -0.015864117 4279586969
0.030720338 -0.016027549 -0.014083548 4280832898
0.032407865 -0.015170428 -0.014814698 4281095038
-0.026170764 -0.016258774 -0.013956311 4281291134
-0.024180528 -0.017041104 -0.013430849 4281028994
-0.022761904 -0.013721947 -0.016058022 4280439943
-0.02207382 -0.0054819286 -0.022465859 4279784339
-0.020836074 -0.0013436675 -0.025719699 4279261078
-0.019625638 0.0027941633 -0.028971922 4278801314
-0.017811131 0.0028313827 -0.029073168 4278538663
-0.015738741 0.0012287609 -0.027914904 4278864809
-0.013523858 -0.0011935104 -0.026127573 4278471854
-0.011427201 -0.0027954606 -0.024970535 4278341548
-0.0094569437 -0.0035772575 -0.024443258 4278472364
-0.0076212399 -0.0035391022 -0.024545312 4278406574
-0.005785659 -0.0035008881 -0.024647316 4278276268
-0.0039501935 -0.0034625567 -0.024749223 4278996644
-0.0016707554 -0.005882917 -0.022965061 4279324573
0.00062485784 -0.0083028395 -0.021181723 4279586460
0.0029366389 -0.01072228 -0.019399248 4279717529
0.005108431 -0.012321942 -0.018245773 4279717529
0.0068142265 -0.011463219 -0.018977033 4279586458
0.0086760744 -0.011423828 -0.019080028 4279520924
0.010537781 -0.011384346 -0.019182945 4279193760
0.012399331 -0.011344781 -0.019285789 4280176783
0.014600292 -0.012943367 -0.018133663 4280176274
0.016466968 -0.012903551 -0.018236684 4280109974
0.018333517 -0.012863664 -0.018339647 4279716764
0.020199917 -0.012823686 -0.018442528 4279651739
0.0222468 -0.013602555 -0.017918522 4280372369
0.02448231 -0.015200083 -0.016767988 4280764814
0.026356399 -0.01515978 -0.016871175 4279387303
0.0284191 -0.015938075 -0.016347868 4281422459
-0.026538696 -0.015290984 -0.016953586 4282143854
-0.024556812 -0.016075686 -0.01642929 4280702083
-0.022800248 -0.015215313 -0.017162932 4280636293
-0.021757573 -0.0094206939 -0.021668566 4280832644
-0.02039073 -0.0060937367 -0.024286201 4279718549
-0.019045766 -0.0027670963 -0.02690259 4278735778
-0.015518848 -0.0018698815 -0.027734695 4278406064
-0.013430472 -0.0034764884 -0.026580447 4279389088
-0.011331331 -0.0050827265 -0.025426766 4279455643
-0.0093585253 -0.005866725 -0.02490123 4279587224
-0.0073804036 -0.0066504441 -0.024375938 4279456153
-0.0052544251 -0.0082558524 -0.023223547 4279651228
-0.003262952 -0.0090391291 -0.022698874 4279061668
-0.0012661591 -0.009822268 -0.022174401 4279782809
0.00088663399 -0.011426813 -0.021023275 4279651739
0.0030501783 -0.013031131 -0.019872667 4279783064
0.0053805783 -0.015456625 -0.018096006 4279980178
0.0072506145 -0.015417164 -0.018199531 4279914134
0.0087973848 -0.013734711 -0.019555582 4279455643
0.010497414 -0.0128738 -0.020284807 4278734503
0.012358859 -0.01283426 -0.020387666 4280045204
0.014559612 -0.014437244 -0.019238785 4280766344
0.016426206 -0.01439744 -0.01934181 4280963203
0.018292658 -0.014357569 -0.019444777 4280897159
0.030445434 -0.018221229 -0.016938129 4281423478
-0.037606157 -0.018658467 -0.016171254 4280178569
-0.024820171 -0.015921732 -0.018790493 4281488504
-0.022953853 -0.01588391 -0.018894969 4280373643
-0.021677621 -0.011723269 -0.022134947 4280701574
-0.020187259 -0.0092120189 -0.024119394 4279718549
-0.018589865 -0.0075254794 -0.025476007 4278997408
-0.016877297 -0.0066633848 -0.026205322 4279389853
-0.015041381 -0.0066256914 -0.026307734 4278734759
-0.01320558 -0.0065878686 -0.026410041 4278669479
-0.011101227 -0.0081984121 -0.025259851 4279194013
-0.0091231614 -0.0089844428 -0.024736268 4279718038
-0.0071397759 -0.0097702779 -0.024212919 4279914134
-0.0052935481 -0.0097318757 -0.024315538 4279979669
-0.0031570494 -0.011341359 -0.023166841 4279848089
-0.001157701 -0.012126583 -0.022644171 4279717274
0.00099758059 -0.013735462 -0.021496436 4279979924
0.0028569102 -0.013696442 -0.021599526 4280242063
0.0051843077 -0.016128588 -0.019827509 4280111248
0.0068927333 -0.01526553 -0.02055574 4278998429
0.0084340721 -0.013578823 -0.021908326 4279129244
0.010128625 -0.012715871 -0.022635652 4279521689
0.012151495 -0.013500017 -0.022113852 4280701828
0.014518976 -0.01593093 -0.020343767 4282012784
0.032088637 -0.018862626 -0.018777587 4282209899
-0.024970781 -0.016585737 -0.020519337 4282667624
-0.022992097 -0.017374761 -0.01999802 4280766599
-0.021479826 -0.014856706 -0.021978974 4280636039
