# .PCD v0.7 - Point Cloud Data file format
VERSION 0.7
FIELDS x y z rgba
SIZE 4 4 4 4
TYPE F F F U
COUNT 1 1 1 1
WIDTH 963
HEIGHT 1
VIEWPOINT 0 0 0 1 0 0 0
POINTS 963
DATA ascii
-0.0078705177 -0.0047407341 0.00029550306 4291044883
-0.0062582493 -0.0031112125 -0.001119202 4291175953
-0.0046570376 -0.0014818786 -0.0025330852 4291110674
-0.002750501 -0.0014369702 -0.0026527219 4291241488
-0.00036148727 -0.0037681693 -0.00083248923 4289933084
0.0017164499 -0.0045148516 -0.0003060461 4289736734
0.0037996694 -0.0052613379 0.00022011949 4289540638
0.0053810179 -0.0036319857 -0.0011921544 4288823069
0.011121936 -0.0034950357 -0.001551121 4289672729
0.012855276 -0.0026575448 -0.0023160316 4289475103
0.014583014 -0.0018201862 -0.0030805161 4289867548
0.016305111 -0.00098284148 -0.0038445573 4290194713
0.018585809 -0.0025198124 -0.0026735812 4289998109
0.020686381 -0.0032651518 -0.0021478799 4289474849
0.022792213 -0.004010248 -0.0016224938 4289802013
0.024707019 -0.0039638951 -0.0017417204 4290390553
0.026621655 -0.0039174985 -0.0018608999 4290652694
0.028132789 -0.0022888435 -0.0032681292 4289932829
0.029632851 -0.00066040084 -0.0046745539 4289605663
0.03153602 -0.00061407033 -0.0047928607 4289539618
0.034068353 -0.002940394 -0.0029805056 4290848024
0.037254296 -0.007638725 0.00076096039 4289867293
0.040257387 -0.011545457 0.0038572717 4289736478
-0.028658949 -0.0091473348 0.0024306802 4286136899
-0.0270999 -0.0067179888 0.00036661373 4288295728
-0.025557306 -0.0042888513 -0.0016963612 4289669669
-0.023902986 -0.0026550246 -0.0031111622 4290847768
-0.022128776 -0.0018162681 -0.0038783376 4289931808
-0.020092905 -0.0025672549 -0.0033517228 4289931808
-0.018051717 -0.0033180313 -0.0028253784 4290390044
-0.016005222 -0.0040685628 -0.0022992785 4291044629
-0.014095198 -0.0040241666 -0.002419577 4289932574
-0.012185313 -0.0039796997 -0.0025398126 4289997854
-0.0099811405 -0.0055242567 -0.0013682679 4289605664
-0.0082160532 -0.0046849181 -0.0021343497 4289802014
-0.006151244 -0.0054345331 -0.0016089636 4289932574
-0.004547298 -0.0038007554 -0.0030198293 4289998109
-0.0027962849 -0.0029614782 -0.0037847534 4289801503
-0.00089003891 -0.0029164795 -0.0039043003 4289474594
0.0010160133 -0.0028713662 -0.0040237466 4289997853
0.0030881688 -0.0036202744 -0.0034984984 4289474594
0.0051655918 -0.0043689758 -0.0029735174 4290325529
0.0070765838 -0.0043234825 -0.0030930759 4290784018
0.0089873895 -0.004277885 -0.0032125432 4290456854
0.010898039 -0.0042322306 -0.0033319555 4290260503
0.012808472 -0.0041864738 -0.0034512738 4289343779
0.014353603 -0.0025532218 -0.0048577338 4290914323
0.016072951 -0.0017137825 -0.0056199958 4290849043
0.017974712 -0.0016680071 -0.0057386034 4291110673
0.020257674 -0.0032092091 -0.004570961 4289998363
0.022164457 -0.0031631365 -0.0046897507 4289540384
0.024267182 -0.0039104009 -0.0041657318 4289933083
0.02597744 -0.003070822 -0.0049271584 4290456344
0.027480498 -0.0014380608 -0.0063306056 4290848788
0.028972462 0.00019454863 -0.0077333497 4289605664
0.031281434 -0.0013456335 -0.0065669608 4289147173
0.034020498 -0.004471628 -0.0041173818 4289409313
0.036568642 -0.0068039768 -0.0023108558 4289998364
0.03891772 -0.0083430149 -0.0011468362 4288818989
-0.028823216 -0.0098893791 0.00064152014 4286202178
-0.027389526 -0.0066562346 -0.0020633065 4287641654
-0.025852323 -0.0042207679 -0.0041210605 4289015339
-0.024075352 -0.003379886 -0.0048868726 4290520603
-0.022173103 -0.0033361195 -0.0050070169 4290847768
-0.020137429 -0.004089321 -0.0044820365 4291109654
-0.018096447 -0.0048422553 -0.0039572818 4291436563
-0.016328134 -0.0040011266 -0.0047222162 4290259484
-0.014423683 -0.0039568832 -0.0048421826 4289867038
-0.012663834 -0.0031157313 -0.0056064203 4289867294
-0.010468058 -0.0046648188 -0.0044376487 4289867294
-0.0085613355 -0.0046201916 -0.0045575127 4290128923
-0.0066547543 -0.0045754733 -0.0046772948 4290063644
-0.0045929998 -0.0053272108 -0.0041533178 4289866783
-0.0030000806 -0.0036892807 -0.0055601308 4289474338
-0.00093592703 -0.0044407519 -0.0050361473 4289670688
0.00047959387 -0.0020066015 -0.007085185 4290455323
0.0027096048 -0.0035542035 -0.005917985 4289539873
0.0046125054 -0.0035090018 -0.0060371119 4289605664
0.0070301071 -0.0058521531 -0.0042281533 4289670943
0.0085921139 -0.0042144051 -0.0056326189 4289997853
0.010497205 -0.0041688699 -0.0057516736 4289539873
0.012042552 -0.002531345 -0.007154969 4290128924
0.013941839 -0.0024858136 -0.0072735599 4290324763
0.015655734 -0.001644305 -0.0080339145 4290063134
0.017739877 -0.002394476 -0.0075104949 4291110674
0.020019911 -0.0039400794 -0.0063458956 4290259994
0.021923892 -0.0038940897 -0.0064645219 4289867804
0.024023749 -0.0046436149 -0.0059419572 4290063898
0.025731266 -0.0038019428 -0.006701604 4290587413
0.027231649 -0.0021648994 -0.0081016468 4291306769
0.02872096 -0.00052800868 -0.0095009888 4291110163
0.030613117 -0.00048199575 -0.0096186493 4290259739
0.033134043 -0.0028216643 -0.0078153182 4290848279
0.035458677 -0.0043656472 -0.0066530933 4290258719
0.038009055 -0.0067044962 -0.0048515173 4289408548
0.040357716 -0.008247776 -0.0036906973 4289342249
-0.028507806 -0.013825045 0.0014329869 4286202178
-0.027433675 -0.008184569 -0.0031983186 4286529598
-0.025896423 -0.0057425639 -0.0052512055 4287903538
-0.024375625 -0.0033007897 -0.0073030172 4289800738
-0.022348199 -0.00405645 -0.006779206 4290062624
-0.020315442 -0.0048119128 -0.0062556015 4290063134
-0.018413577 -0.0047679641 -0.0063755787 4290128413
-0.016789727 -0.0031256573 -0.0077816895 4289867038
-0.015176881 -0.0014835373 -0.0091869812 4289474594
-0.013286296 -0.0014395192 -0.0093060005 4289801504
-0.011248782 -0.0021942947 -0.0087823411 4290325274
-0.0090561509 -0.0037476672 -0.0076165111 4290128923
-0.0071578547 -0.0037031611 -0.007735787 4290063134
-0.0051044449 -0.0044573108 -0.0072128624 4290324763
-0.003361702 -0.0036138473 -0.0079740779 4289997599
-0.0016245544 -0.0027704556 -0.0087348232 4290978840
0.00027039647 -0.0027256384 -0.0088535985 4291567634
0.002331309 -0.0034791622 -0.0083308853 4291240469
0.0045663491 -0.0050309245 -0.0071671871 4290521624
0.0064689592 -0.0049856566 -0.0072862417 4290128924
0.0081971213 -0.0041420264 -0.0080460887 4289998619
0.010096669 -0.0040966449 -0.0081648128 4290259739
0.011636607 -0.0024548611 -0.0095645739 4290782998
0.013530359 -0.00240946 -0.0096828183 4289605154
0.015238784 -0.001565963 -0.010441179 4288950824
0.017317325 -0.0023184055 -0.0099190753 4289736479
0.019591704 -0.0038685529 -0.0087573323 4289671199
0.021683462 -0.0046205223 -0.008235937 4290325018
0.02397646 -0.0061700321 -0.0070752902 4290129434
0.02548524 -0.0045285309 -0.0084726857 4289867038
0.026982956 -0.002887181 -0.0098693809 4289801503
0.028673768 -0.00204363 -0.010626287 4290586138
0.030772716 -0.0027950639 -0.010105071 4290848023
0.033086494 -0.0043438077 -0.0089454465 4290520858
0.034986332 -0.0042974995 -0.0090635037 4289670179
0.03731598 -0.0058456552 -0.0079047894 4289473063
0.039874047 -0.0081907939 -0.0061085164 4288949039
-0.028312597 -0.016971722 0.0015722495 4286594624
-0.027355257 -0.010514333 -0.003690585 4287052858
-0.026065774 -0.0064625554 -0.0070235301 4287707699
-0.024675634 -0.0032127947 -0.00971248 4289473828
-0.022784557 -0.0031693149 -0.0098319408 4289931808
-0.020760171 -0.0039270958 -0.009309466 4289866784
-0.018730469 -0.004684668 -0.0087872613 4289801504
-0.016973183 -0.0038394723 -0.0095482804 4289997599
-0.015504647 -0.0013918206 -0.011591516 4290717719
-0.01347534 -0.002149079 -0.011069046 4289866783
-0.011293694 -0.0037072143 -0.0099058095 4289670689
-0.0091013238 -0.0052649789 -0.0087432312 4290063134
-0.007355608 -0.0044195158 -0.0095031206 4289997598
-0.005460307 -0.0043749772 -0.0096221324 4290324764
-0.0035651475 -0.0043303473 -0.0097410642 4290324764
-0.0018307716 -0.003484875 -0.010500036 4290324509
6.1348081e-05 -0.0034401063 -0.010618621 4290390299
0.0019533038 -0.0033952808 -0.01073715 4290716953
0.0040138736 -0.0041509159 -0.010215981 4290783254
0.0062512159 -0.0057068961 -0.0090556107 4289998109
0.0081508309 -0.0056615965 -0.0091744009 4290129434
0.0098733455 -0.0048158043 -0.0099322563 4289932574
0.011230946 -0.0023695137 -0.011967526 4290979348
0.012936801 -0.0015239455 -0.012724211 4291175443
0.014822125 -0.0014786748 -0.012841877 4291110163
0.017082892 -0.0030335831 -0.011682586 4291045139
0.019354314 -0.0045881309 -0.01052396 4291306769
0.021443196 -0.0053423969 -0.01000397 4289801759
0.023537308 -0.0060964199 -0.0094842948 4289932574
0.025239371 -0.0052505839 -0.010240402 4290324764
0.026935793 -0.0044047264 -0.010996114 4289997089
0.029034786 -0.0051584775 -0.010476554 4290324254
0.030932225 -0.0051123644 -0.010594564 4289539364
0.033248499 -0.0066653583 -0.0094383806 4289343269
0.03493873 -0.005819465 -0.010193495 4288884779
0.03705325 -0.0065725748 -0.0096747763 4288820009
0.039608337 -0.0089243036 -0.0078831734 4288229938
-0.02823738 -0.019323044 0.0010641785 4288230449
-0.027154494 -0.013651974 -0.0035450382 4286988089
-0.025859386 -0.009589212 -0.0068702511 4286857529
-0.024719536 -0.00472329 -0.010834224 4289016104
-0.02282859 -0.0046797893 -0.010953658 4289735459
-0.021071143 -0.0038325824 -0.011713265 4289931808
-0.019047063 -0.0045925099 -0.01119229 4290062878
-0.017295297 -0.0037452197 -0.011951379 4291044374
-0.01540757 -0.0037013935 -0.012070313 4291240979
-0.013519976 -0.0036574267 -0.012189131 4291306258
-0.011338592 -0.0052199303 -0.011029128 4290848533
-0.0094458386 -0.0051756739 -0.011148144 4290193949
-0.0077056214 -0.0043281894 -0.011906086 4289866783
-0.005971007 -0.0034806672 -0.012663626 4290062878
-0.0040841252 -0.0034362609 -0.01278206 4291044629
-0.0021974072 -0.003391739 -0.012900394 4289670178
-0.00031083077 -0.003347124 -0.013018647 4288754473
0.0015755668 -0.0033024298 -0.013136828 4289343779
0.0034618229 -0.0032576546 -0.013254936 4289540129
0.0053479075 -0.0032127751 -0.013372953 4290586904
0.007582128 -0.0047730892 -0.01221556 4290194458
0.0094733089 -0.0047279461 -0.01233379 4289997854
0.011005163 -0.0030776933 -0.013726593 4290128924
0.012890555 -0.0030325064 -0.013844325 4290782999
0.014960811 -0.0037896195 -0.013324961 4290913813
0.017224051 -0.0053488123 -0.012169138 4290848533
0.01911708 -0.005303212 -0.012287175 4289997853
0.021203086 -0.0060596908 -0.011768677 4289800993
0.023294337 -0.0068160095 -0.011250407 4289800993
0.025390841 -0.0075720972 -0.010732462 4289408548
0.027291298 -0.0075260624 -0.010850772 4289081638
0.029395565 -0.0082818288 -0.01033321 4288820264
0.031298354 -0.0082355896 -0.010451555 4288297258
0.033410385 -0.0089910589 -0.0099343956 4288100909
0.035103351 -0.0081429798 -0.010688102 4287772978
0.037220441 -0.0088981977 -0.010171161 4287707189
0.039995566 -0.012057967 -0.0077496367 4287837239
-0.02864106 -0.018454192 -0.0020048744 4286398784
-0.027198788 -0.015186132 -0.0046843784 4286399293
-0.025778376 -0.01191843 -0.0073623937 4286661434
-0.024635565 -0.0070394049 -0.011316842 4287838768
-0.022872623 -0.0061900606 -0.012075225 4289539108
-0.021381833 -0.0037292046 -0.014110412 4289866274
-0.019363407 -0.0044913916 -0.01359074 4289343013
-0.017617151 -0.0036421167 -0.014347834 4290978840
-0.015593525 -0.0044039777 -0.013828337 4290979349
-0.013564602 -0.0051655825 -0.013309075 4290979349
-0.011677273 -0.0051215612 -0.013427831 4291044629
-0.0099396929 -0.0042720633 -0.014184061 4289867038
-0.0082077086 -0.0034226151 -0.014939881 4290194204
-0.0063262433 -0.0033784201 -0.015058037 4289932063
-0.0042871386 -0.0041393051 -0.014539056 4290455834
-0.0024032593 -0.004094868 -0.014657225 4291044628
-0.00051952153 -0.0040503247 -0.014775304 4291175443
0.0013640523 -0.0040057143 -0.01489332 4290782998
0.0032474846 -0.0039609997 -0.015011246 4290914069
0.0053020939 -0.0047210534 -0.014492892 4290260249
0.0073619932 -0.0054809689 -0.013974784 4289801503
0.0094271675 -0.0062406049 -0.013456965 4290063133
0.010959037 -0.0045860251 -0.014846547 4290390299
0.01266212 -0.0037362715 -0.015599817 4290128414
0.014729485 -0.0044956226 -0.015081963 4289736224
0.017177448 -0.0068637165 -0.013293948 4289474594
0.019260749 -0.0076225242 -0.012776969 4289474594
0.021156237 -0.0075768107 -0.012895119 4290062879
0.023051523 -0.0075310548 -0.013013221 4289147428
0.025542215 -0.0098978309 -0.011227658 4288689704
0.027646549 -0.010655855 -0.010711784 4288493609
0.029756106 -0.011413707 -0.010196201 4288362538
0.031457566 -0.010563356 -0.010948895 4288100909
0.033572167 -0.011320945 -0.010433522 4287773998
0.035267867 -0.010470645 -0.011185791 4287510839
0.037387542 -0.011228019 -0.010670665 4287314489
0.039729983 -0.012788989 -0.0095224502 4287444538
-0.029163986 -0.016763868 -0.0057019354 4286137153
-0.027120713 -0.017528214 -0.0051858677 4286333758
-0.025447324 -0.015868034 -0.0065825665 4286595644
-0.024423912 -0.010167695 -0.011165203 4286988343
-0.022916622 -0.0077001401 -0.013196649 4289146664
-0.021559022 -0.0044248616 -0.015863977 4289735714
-0.019951392 -0.002765689 -0.017256223 4290389788
-0.018354747 -0.00110674 -0.018647674 4289474084
-0.01634492 -0.0018710708 -0.018128909 4289277734
-0.014329784 -0.0026351921 -0.017610416 4289670688
-0.012162514 -0.0042067347 -0.016456012 4289343523
-0.010433152 -0.0033552861 -0.01721013 4290259228
-0.008709386 -0.0025038132 -0.017963853 4290455578
-0.0066811964 -0.0032672733 -0.01744584 4289801248
-0.0046477243 -0.004030467 -0.016928125 4290063134
-0.0027693808 -0.0039861714 -0.017045956 4290848534
-0.0008912012 -0.0039417828 -0.017163705 4290717463
0.0009868294 -0.0038973149 -0.017281383 4290586648
0.0030332878 -0.0046598366 -0.016764209 4290586393
0.0050850138 -0.0054221619 -0.016247317 4290324764
0.0073160455 -0.0069912574 -0.015096208 4289735969
0.0092043206 -0.0069462121 -0.015214277 4289474338
0.011092402 -0.0069010751 -0.015332263 4289604899
0.012980327 -0.0068558697 -0.015450185 4288820263
0.015052959 -0.0076172599 -0.014934272 4288297258
0.017130874 -0.0083784647 -0.014418645 4288297258
0.019214019 -0.0091394745 -0.013903294 4288297513
0.021495469 -0.010706836 -0.012754945 4289147939
0.023787588 -0.012273804 -0.011607232 4288821028
0.025891945 -0.013034099 -0.01109305 4288101163
0.028001562 -0.013794245 -0.010579106 4288100908
0.029912524 -0.013747928 -0.010698048 4287970349
0.0318233 -0.013701541 -0.010816926 4287839534
0.033524565 -0.012848947 -0.011568009 4287642673
0.035644308 -0.013608614 -0.011054521 4287511604
0.037554525 -0.013562073 -0.011173238 4287052859
-0.027165044 -0.019064106 -0.0063264961 4286398784
-0.025491662 -0.017399576 -0.0077199531 4286333503
-0.024212491 -0.01330451 -0.011019822 4286791739
-0.022960618 -0.0092099681 -0.014317889 4288165423
-0.02186925 -0.0043058172 -0.018249564 4289604643
-0.020402938 -0.0018324787 -0.020273414 4290389788
-0.018814471 -0.00016931724 -0.021661144 4290782489
-0.016954329 -0.00012612715 -0.021778338 4290520603
-0.014662154 -0.002512401 -0.019991357 4290521369
-0.012647338 -0.0032786336 -0.01947441 4290913559
-0.010627232 -0.0040446091 -0.018957695 4290193949
-0.0087540224 -0.0040007336 -0.019075427 4290390043
-0.0065710843 -0.0055759829 -0.017925039 4289932063
-0.0046927184 -0.0055317823 -0.018042944 4289932063
-0.0028145015 -0.0054874895 -0.018160764 4290193439
-0.00077335536 -0.0062525147 -0.017645031 4289997088
0.0012730807 -0.0070173191 -0.017129559 4289997344
0.0033247992 -0.0077819042 -0.01661435 4289735968
0.0052105561 -0.0077371038 -0.016732398 4289801503
0.0072701201 -0.008501377 -0.016217511 4288885799
0.0093349442 -0.0092653958 -0.015702929 4288624424
0.011405036 -0.010029206 -0.015188615 4288558889
0.01329831 -0.009983887 -0.015306882 4288166698
0.015006579 -0.0091296127 -0.016057201 4288035629
0.01708433 -0.0098930206 -0.015543202 4288166698
0.019357584 -0.011465028 -0.014397655 4288166698
0.021641508 -0.013036617 -0.013252726 4288624423
0.02393613 -0.014607905 -0.012108434 4288755748
0.026043065 -0.01537038 -0.011596009 4288166698
0.02815523 -0.016132623 -0.011083907 4287905069
0.030068822 -0.016086262 -0.011203028 4287839534
0.032188788 -0.016848171 -0.010691304 4287839534
0.033895485 -0.015993357 -0.011441094 4287773744
0.036232449 -0.017563252 -0.010299164 4287511348
0.037936091 -0.016708408 -0.011048686 4287117883
-0.027331587 -0.019787265 -0.0081014056 4286725949
-0.025535997 -0.018930912 -0.0088571887 4286594878
-0.024256635 -0.014825015 -0.012149003 4287118648
-0.023134992 -0.0099072503 -0.016072966 4287576883
-0.021912981 -0.0058024442 -0.019360989 4288754218
-0.020582441 -0.0025103884 -0.022013571 4290193439
-0.018996686 -0.00084296893 -0.023397913 4291044629
-0.016998123 -0.0016119508 -0.022881709 4291110164
-0.014994238 -0.0023807473 -0.022365719 4291110164
-0.012985066 -0.0031492626 -0.02185002 4290390554
-0.010821134 -0.0047294595 -0.020701867 4289670689
-0.0091029182 -0.0038738372 -0.021451984 4290062624
-0.0069256797 -0.0054535102 -0.020304509 4289800738
-0.0048952922 -0.0062212031 -0.019789826 4290062624
-0.0026992932 -0.0078002494 -0.018643394 4289800994
-0.00081862509 -0.007755856 -0.018761337 4289539364
0.0012276322 -0.008522816 -0.018247457 4289670434
0.0031107366 -0.0084781917 -0.018365424 4289998109
0.0053360015 -0.010056242 -0.017220527 4288428073
0.0075719878 -0.011633898 -0.016076267 4287970604
0.0096420795 -0.01239998 -0.015563644 4288101164
0.011538126 -0.012354697 -0.015682161 4288166698
0.013434008 -0.012309333 -0.015800606 4287774254
0.015329726 -0.01226389 -0.015918976 4287969839
0.017412744 -0.013029433 -0.015406916 4288100653
0.019501023 -0.013794696 -0.014895145 4287904813
0.021787465 -0.015370618 -0.013753647 4288624678
0.024084583 -0.016946252 -0.012612717 4288231724
0.025995731 -0.016900085 -0.012731787 4287708718
0.028308801 -0.018475164 -0.0115918 4287642928
0.03002128 -0.017618194 -0.012340449 4287904559
0.031934649 -0.017571801 -0.012459529 4287708464
0.033638611 -0.016714904 -0.013207549 4287511604
0.035760798 -0.01747887 -0.012697536 4287838004
0.037673622 -0.017432334 -0.012816465 4286725183
-0.027742319 -0.01887648 -0.011138653 4286006084
-0.025705192 -0.019647459 -0.01062696 4286987579
-0.02417317 -0.017159859 -0.012645533 4287510584
-0.02304855 -0.012229086 -0.01655997 4287642419
-0.021956682 -0.0072988793 -0.020472275 4287773234
-0.020626023 -0.0039981678 -0.023118418 4289343013
-0.018901795 -0.0031407196 -0.02386773 4289670179
-0.016900688 -0.0039118705 -0.023353269 4289539363
-0.014894284 -0.0046827518 -0.02283911 4289539363
-0.012882575 -0.0054533891 -0.022325194 4289539363
-0.010865554 -0.0062238178 -0.021811549 4289408548
-0.008995302 -0.0061800294 -0.021929108 4289212709
-0.0068155825 -0.0077640596 -0.020785006 4288558634
-0.0049401596 -0.0077199815 -0.020902764 4288428074
-0.0025841966 -0.010117195 -0.019129129 4288689703
-0.00070092082 -0.010072734 -0.019247232 4288297258
0.0015135556 -0.011655569 -0.01810503 4288558888
0.0032335818 -0.010797171 -0.018853297 4288821028
0.00529024 -0.011565978 -0.018341552 4287839533
0.0073521733 -0.01233454 -0.017830124 4287905069
0.0095959231 -0.013916296 -0.016689545 4287905069
0.011671118 -0.014684432 -0.016178789 4287904559
0.013751581 -0.0154523 -0.015668329 4287904559
0.015652642 -0.015406767 -0.015787061 4287773233
0.017740935 -0.016174302 -0.015276984 4287904048
0.019644357 -0.016128549 -0.015395745 4287838513
0.021740474 -0.016895773 -0.014886063 4288231213
0.023841821 -0.01766279 -0.014376648 4288101164
0.025948457 -0.018429657 -0.013867471 4287839279
0.027859375 -0.018383482 -0.013986519 4287904559
0.029566422 -0.017524455 -0.014733272 4287773488
0.031061471 -0.015852839 -0.016107131 4287707698
0.033172816 -0.016619306 -0.01559811 4288099889
0.035077609 -0.016573071 -0.01571662 4287249464
-0.026248723 -0.017909013 -0.014286515 4285940804
-0.024344888 -0.017865404 -0.014406905 4286398784
-0.022962227 -0.014554988 -0.017050069 4286530109
-0.021734402 -0.010428363 -0.020322304 4286857528
-0.020398185 -0.0071188197 -0.022962388 4288231213
-0.01880699 -0.0054426552 -0.024340579 4289474084
-0.016803369 -0.0062158913 -0.023827951 4289212454
-0.014938295 -0.0061725476 -0.023945425 4288689449
-0.012926772 -0.0069453768 -0.023433127 4289016868
-0.01090993 -0.0077180085 -0.022921108 4288820773
-0.0090397969 -0.0076742466 -0.023038676 4288493608
-0.0068603307 -0.0092626326 -0.0218978 4288362538
-0.004985027 -0.0092185577 -0.022015549 4288297004
-0.0026293695 -0.011622303 -0.020246757 4288297004
-0.000746198 -0.011577868 -0.020364871 4288231469
0.0013024285 -0.0123492 -0.019854438 4288231723
0.0033563524 -0.013120336 -0.019344209 4288428328
0.005586572 -0.014706958 -0.018206168 4288493863
0.0078275278 -0.01629328 -0.017068692 4288166698
0.0099027306 -0.017063629 -0.016559657 4287773744
0.011983186 -0.017833767 -0.01605089 4287904559
0.013887018 -0.01778827 -0.016169872 4287707954
0.015790708 -0.017742705 -0.016288793 4287773233
0.017694235 -0.017697059 -0.016407639 4287838513
0.019787624 -0.018466612 -0.015899474 4287838513
0.022079058 -0.0200512 -0.014764758 4288885544
0.024185695 -0.02082029 -0.014257314 4288230958
0.025901228 -0.019959085 -0.015003052 4288100143
0.027410246 -0.018282892 -0.016374698 4288034863
0.028704613 -0.015792029 -0.018371683 4286595388
-0.02464395 -0.017747471 -0.016794216 4286332993
-0.023136396 -0.015247389 -0.018801451 4286464063
-0.021778189 -0.011928781 -0.02143655 4286726204
-0.020306218 -0.0094292546 -0.023441417 4287446323
-0.018573951 -0.0085673565 -0.024187986 4288689703
-0.01670615 -0.0085240621 -0.024305714 4287970349
-0.014694687 -0.0092991879 -0.02379512 4288101419
-0.012824416 -0.0092556383 -0.023912858 4288101418
-0.010805055 -0.010030391 -0.023402624 4288493609
-0.0087803602 -0.01080497 -0.022892613 4289017379
-0.0065957084 -0.012397562 -0.02175536 4288100653
-0.0045577139 -0.013171582 -0.021246076 4288231725
-0.0025143996 -0.013945394 -0.020737061 4288427818
-0.00062862784 -0.013900928 -0.020855362 4288100653
0.0015880838 -0.015492441 -0.019719806 4288100653
0.0036472529 -0.016265605 -0.019211581 4288035374
0.0060536638 -0.018674398 -0.017450552 4288689958
0.0079551563 -0.018629203 -0.01756957 4288231724
0.010032892 -0.019401694 -0.01706234 4288231724
0.012115918 -0.020173978 -0.016555374 4287838769
0.014022373 -0.020128449 -0.016674545 4287642163
0.015744127 -0.01926527 -0.017419312 4287904049
0.017273039 -0.017584685 -0.018789209 4287314744
0.019170865 -0.017539125 -0.018907661 4287118649
0.021453924 -0.019128243 -0.017775722 4289342759
-0.02481531 -0.018441796 -0.018547259 4286005828
-0.02318028 -0.016756294 -0.019922011 4286464063
-0.021821961 -0.013428995 -0.022550644 4286725949
-0.02034992 -0.010922977 -0.02455068 4287707698
-0.018341132 -0.01170056 -0.024041707 4288820263
-0.016327001 -0.012477983 -0.023532964 4288166444
-0.014307573 -0.013255102 -0.023024498 4288166698
-0.012575723 -0.01239075 -0.023769204 4288232233
-0.010700271 -0.012347018 -0.023887221 4288101418
-0.0086730495 -0.013123672 -0.023379032 4288624934
-0.0064859241 -0.01472056 -0.022245178 4288755749
-0.0046027005 -0.01467634 -0.022363456 4288297003
-0.0025595874 -0.015452344 -0.02185606 4288035374
-0.0008366704 -0.014587658 -0.0225998 4287904048
0.0015425682 -0.017003771 -0.020842042 4287707954
0.0037697554 -0.018599281 -0.019710377 4288297004
0.0060076788 -0.02019449 -0.018579274 4288231724
0.0080826804 -0.020969322 -0.01807357 4288951844
0.0099866465 -0.020924013 -0.018192701 4287904559
0.011711389 -0.020058798 -0.018936193 4287904559
0.013248786 -0.018373789 -0.020303549 4287576629
0.014775179 -0.016689003 -0.021670112 4286399039
-0.02498652 -0.019131612 -0.020296954 4286725183
-0.023224153 -0.01826502 -0.02104244 4286463808
-0.021732911 -0.015752174 -0.023038931 4286725949
-0.020529117 -0.011593516 -0.026285375 4287838513
-0.018385001 -0.013196342 -0.025152491 4288820519
-0.01637106 -0.013975931 -0.024645349 4288363049
-0.014351815 -0.014755266 -0.024138516 4288166698
-0.012620024 -0.013888752 -0.024881607 4288101419
-0.010744683 -0.013845046 -0.024999635 4287708464
-0.0085658431 -0.015446559 -0.023868561 4288035629
-0.0063762367 -0.017047757 -0.022738118 4288558378
-0.0044904053 -0.017003505 -0.022856582 4288231724
-0.0026047081 -0.016959185 -0.022974983 4287642673
-0.00071915239 -0.016914759 -0.023093296 4287773234
0.0014970824 -0.018515006 -0.021964209 4287969584
0.0033877939 -0.018470302 -0.022082729 4287577138
-0.023398008 -0.018948164 -0.022787027 4286659904
-0.021776695 -0.017254228 -0.024154397 4287314744
-0.020437259 -0.013909965 -0.026768874 4287838513
-0.018428851 -0.014691919 -0.026263125 4287969838
-0.016274214 -0.016298801 -0.025134033 4288297004
-0.014252435 -0.017080257 -0.024628984 4288624679
-0.012225345 -0.0178615 -0.024124205 4288231724
-0.010341965 -0.017817624 -0.024242751 4287838768
-0.0084587187 -0.01777363 -0.024361201 4287708209
-0.0065755919 -0.017729567 -0.024479588 4287773234
-0.0046925917 -0.017685411 -0.024597896 4288296493
-0.0028097108 -0.017641187 -0.024716144 4287577138
-0.00092698634 -0.017596845 -0.024834292 4286530619
-0.02396154 -0.017144319 -0.026396185 4286267714
-0.021953106 -0.017928677 -0.025892226 4287314233
-0.020345494 -0.0162306 -0.027255487 4289146919
-0.018472657 -0.016187353 -0.027373657 4288165934
-0.016599923 -0.016144037 -0.027491767 4287773233
-0.014440216 -0.017755065 -0.026366169 4288231213
-0.012269758 -0.019365709 -0.025241224 4288820008
-0.010237545 -0.020148903 -0.024738308 4288231214
-0.0086550713 -0.018450871 -0.026099509 4287707698
-0.0069291815 -0.017579941 -0.026838837 4286726458
-0.0028547198 -0.019145526 -0.025833212 4288559398
-0.020389155 -0.017725863 -0.028365901 4287576373
-0.018378388 -0.018512201 -0.027863532 4288296493
-0.016362295 -0.019298296 -0.027361482 4287969839
0.021024317 0.016172543 0.03354805 4282413900
0.023364305 0.014728105 0.034783274 4279812134
0.015270606 0.013710719 0.033425719 4280717383
0.016509987 0.016749697 0.030591849 4280718658
0.01754339 0.020536231 0.027081866 4280980288
0.021043137 0.022124765 0.025485065 4278440490
0.023937248 0.018432206 0.028749678 4279351349
0.0037566945 0.010354999 0.034349483 4281428835
0.0047386438 0.014905116 0.030162927 4281890638
0.0077959523 0.018749902 0.02653382 4279024439
0.009563379 0.019546354 0.025735602 4279675199
0.011149406 0.021093061 0.024261381 4280848454
0.012902796 0.021889297 0.023464207 4280523074
0.014650509 0.022685537 0.022667408 4280850493
0.016208649 0.024231838 0.021195129 4279547444
0.017942309 0.025027843 0.020399366 4281502273
0.019859612 0.025073795 0.02027964 4281828418
0.022544913 0.02211993 0.022861768 4281307453
0.025836058 0.016916962 0.027468402 4281567298
-0.00038969517 0.0094358679 0.032748155 4281036898
0.0003041923 0.015505491 0.02721753 4281110338
0.0014405027 0.019315591 0.023716835 4280785213
0.002714172 0.022372341 0.020893458 4280591159
0.0043008849 0.023923161 0.019422248 4279743538
0.0098727569 0.024812022 0.018387379 4281111359
0.011963852 0.024105025 0.018942405 4281241919
0.013697915 0.02490315 0.018148109 4281046078
0.015610166 0.024948826 0.018028585 4279092523
0.019433938 0.025040435 0.017789789 4279222063
0.021537453 0.024334161 0.018344354 4279090739
0.024230309 0.021371895 0.020919543 4278375718
0.027931832 0.014650093 0.026860923 4281046079
0.032482624 0.0049217083 0.035492584 4281370948
-0.001689136 0.013900189 0.026181698 4280913734
-0.00069806725 0.018476512 0.022013927 4281438779
0.00042212754 0.02229715 0.018522386 4280329783
0.0018443316 0.024607295 0.016380429 4280590649
0.0035848767 0.025407271 0.015587073 4281893699
0.0054899454 0.025452377 0.015467698 4281567554
0.0075676963 0.024742791 0.016021792 4280915774
0.0096506551 0.024033414 0.016575621 4280915518
0.011560522 0.024078904 0.016456151 4280915519
0.013289116 0.02487904 0.015663868 4280980798
0.015195809 0.024924619 0.01554472 4280525369
0.016915791 0.025724737 0.014753114 4278505003
0.023404218 0.022844864 0.017084979 4280850239
0.026107319 0.019874247 0.019653123 4280915008
0.030032456 0.012379324 0.026250225 4281109829
-0.0018921196 0.013098158 0.024350956 4279540049
-0.0010627285 0.018444868 0.019520454 4281634618
5.2236021e-05 0.022276295 0.016037373 4280722993
0.0014690757 0.024592826 0.01390068 4279222063
0.0032041371 0.02539493 0.013109267 4279873843
0.0051036403 0.025439916 0.012990249 4279352114
0.009428665 0.023259422 0.014767295 4280850239
0.011335716 0.023304867 0.014648018 4281045568
0.013061538 0.024107164 0.013857568 4281045824
0.014965408 0.024152687 0.013738601 4280915518
0.016682632 0.024954947 0.012948811 4280981308
0.018772468 0.02424399 0.013500914 4280981563
0.020675652 0.024289748 0.01338218 4281243449
0.022773169 0.023579149 0.013933932 4281307708
0.024481311 0.024381487 0.013144933 4281176384
0.027783878 0.019133275 0.017716939 4281502274
0.032340653 0.0093484875 0.026306115 4281828418
-0.0016257167 0.010022191 0.02453718 4278491489
-0.00094968081 0.016143776 0.019046692 4281240643
6.3255429e-06 0.020745592 0.014900737 4281111359
0.0012586564 0.023828061 0.012098221 4278700844
0.0071296021 0.023203915 0.012411449 4278830893
0.0092067793 0.022490071 0.012962418 4280849729
0.010932796 0.023294466 0.012173513 4280980288
0.01265315 0.024098868 0.011384996 4280850238
0.014367849 0.024903173 0.010596937 4281046334
0.016449578 0.024189802 0.011147888 4280850493
0.018536545 0.023476576 0.011698607 4281111869
0.020628698 0.022763615 0.01224903 4281178168
0.022531562 0.022809459 0.012130387 4281438524
0.026336551 0.022901388 0.011893334 4280526388
0.030062668 0.016121563 0.017789515 4278568498
0.035480492 0.0032760985 0.029027652 4279480888
-0.0015159473 0.0076995157 0.024047598 4279340639
-0.00067771226 0.013076918 0.019239327 4278818144
0.00028401613 0.017691962 0.015102761 4281371458
0.00121288 0.022306362 0.010968283 4280980288
0.0027778745 0.023874206 0.0095114969 4280980544
0.0046717152 0.023919081 0.0093928557 4280915263
0.0069107339 0.022441441 0.010611376 4281110849
0.0086341947 0.023247877 0.0098242033 4281045313
0.010352015 0.024054287 0.0090374555 4281306178
0.012064174 0.024860652 0.0082511362 4281045313
0.01395423 0.024905903 0.0081330761 4280980543
0.01565779 0.025712265 0.0073473696 4281111613
0.017733708 0.024996618 0.0078971665 4280981308
0.019814827 0.024281224 0.0084466636 4281112634
0.021901153 0.023566047 0.0089959037 4279223594
0.025689669 0.023657611 0.0087599028 4278372913
0.028596565 0.019900432 0.01197535 4279089973
0.033378199 0.0092990696 0.021187695 4278437430
0.038027614 -0.00053989049 0.029729068 4280392513
-0.0002469942 0.0092377812 0.020093445 4279993439
0.00056143105 0.014629904 0.015298462 4280321624
0.0013315454 0.02002118 0.010505995 4280588354
0.0025649294 0.023120748 0.0077177444 4280785978
0.004455924 0.023165597 0.0075993137 4280327998
0.0061741099 0.023974082 0.0068140058 4281176894
0.013724372 0.024154393 0.0063420543 4281502529
0.015611395 0.024199659 0.0062242551 4281177149
0.017687157 0.023481844 0.006772452 4281112123
0.019576438 0.023527356 0.0066546472 4280460598
0.021271139 0.024335923 0.0058712913 4280916538
0.023157261 0.024381505 0.0057537956 4281697858
0.025242984 0.023664238 0.0063016014 4281305923
0.028144017 0.019896058 0.0095093232 4279807033
0.031687707 0.013840452 0.014710044 4281110848
0.036106467 0.0047352985 0.022567047 4281305668
0.00018329918 0.0053858981 0.02093803 4279209058
0.0011619106 0.010027489 0.016819885 4279277909
0.0017788559 0.016200211 0.01137224 4280849984
0.0026863068 0.020840334 0.007258716 4280654144
0.0040704161 0.023182521 0.0051436918 4280524094
0.0057831183 0.02399301 0.0043603983 4280851003
0.013678066 0.022642018 0.0052191047 4279092269
0.015564993 0.022687322 0.0051013352 4281111868
0.017451689 0.022732681 0.0049836254 4281177403
0.019146577 0.023543341 0.00420189 4280460598
0.020835832 0.024353938 0.0034205634 4278375719
0.022716425 0.024399394 0.0033034161 4280135219
0.024796546 0.023679907 0.0038499394 4280785724
0.027286805 0.021430613 0.0057230601 4280720954
0.029998295 0.018416906 0.0082585067 4279806778
0.033770747 0.01157961 0.014108155 4280848709
0.038644902 0.00091970805 0.02326946 4281044294
-2.2344291e-05 0.0045939088 0.01911498 4279797089
0.0012770146 0.007712312 0.016335465 4280126549
0.0020614341 0.013134416 0.011564817 4279868489
0.0029746071 0.017787794 0.0074606333 4281698113
0.0041944608 0.020904599 0.0046863081 4280654654
0.0055648685 0.023253066 0.0025771363 4280133434
0.0074443668 0.023297852 0.0024595791 4281632324
0.0093236715 0.023342719 0.0023420965 4281698113
0.011383399 0.022620017 0.0028878693 4280590649
0.013448365 0.021897504 0.0034333589 4280916029
0.015518568 0.021175204 0.0039785886 4280917048
0.01721637 0.021988055 0.0031982502 4280981563
0.018908523 0.022800846 0.0024183206 4280916539
0.020400777 0.024380906 0.00097647961 4279744303
0.029130377 0.019960159 0.0044795852 4280525624
0.032059982 0.016171062 0.0076694312 4280588863
0.036490306 0.0070140176 0.015486846 4280783174
0.040985547 -0.002141322 0.023300249 4280977993
-0.00054549426 0.0053473078 0.015969517 4279339618
0.0013920069 0.0053930208 0.01584799 4280193360
0.002508007 0.0092899948 0.012413653 4280518738
0.0032626241 0.014726777 0.0076563312 4280585039
0.0041486695 0.019392675 0.0035636527 4280719424
0.0056915805 0.020977652 0.0021214075 4278829619
0.0072234124 0.022562454 0.00067992136 4278504239
0.0089220181 0.023377219 -9.9126715e-05 4280004404
0.010795563 0.023422049 -0.0002161772 4279743283
0.012852207 0.02269713 0.00032826653 4278375973
0.014728062 0.022742199 0.00021121046 4280916538
0.016603708 0.022787319 9.4212126e-05 4280916539
0.018479109 0.022832522 -2.2707973e-05 4280327998
0.020160139 0.023647355 -0.00080029434 4280916284
0.022229299 0.02292314 -0.00025633769 4281306944
0.024303682 0.022199163 0.00028730603 4281505079
0.026383251 0.021475403 0.00083069503 4281633089
0.028673083 0.019982563 0.0020338148 4281699388
0.031596847 0.016182404 0.0052159652 4281241918
0.035810351 0.0077682659 0.012354603 4281175363
0.040509753 -0.0021824958 0.020808676 4280652614
-0.0010682717 0.0061139949 0.012833992 4279209823
0.00086093694 0.0061595198 0.012712991 4279997008
0.0022973791 0.0085224006 0.010609182 4280194633
0.003550373 0.011657337 0.0078457026 4280195144
0.0042725131 0.017108664 0.0031018257 4281044038
0.0054734349 0.020242551 0.00034174649 4280981563
0.012439661 0.022738164 -0.0021072174 4280067643
0.014495909 0.022011222 -0.0015643304 4280784193
0.016557425 0.021284411 -0.0010216897 4280718403
0.018624127 0.020557867 -0.00047934102 4280652869
0.020501956 0.020603226 -0.00059633562 4280719678
0.022773221 0.01910538 0.0006045429 4281567298
0.024656042 0.019151015 0.000487349 4281372479
0.026943177 0.017653659 0.0016873972 4281176893
0.029240936 0.016156673 0.0028867917 4281958724
0.032172404 0.012345875 0.0060603181 4281370439
0.035972424 0.0054505784 0.011864545 4281434954
0.040460452 -0.0037571816 0.019639544 4280978504
-0.0015906617 0.0068940539 0.0097083207 4280253283
0.00049167871 0.0061647482 0.010247355 4279929434
0.0022509992 0.0069848411 0.0094674714 4279669333
0.0038378611 0.0085793976 0.0080288341 4279868489
0.0045657754 0.014046144 0.0032959087 4280392513
0.0057722852 0.017188888 0.00054197852 4280850494
0.0067818463 0.021105511 -0.002869173 4280655928
0.0086526871 0.021150211 -0.0029861024 4281045568
0.010523297 0.021195 -0.0031029442 4281372478
0.012760043 0.019691551 -0.0019033933 4280720699
0.014635697 0.019736601 -0.0020204438 4280654653
0.016511142 0.019781766 -0.0021373937 4279872568
0.018769011 0.0182791 -0.00093902647 4279419434
0.021231584 0.016002873 0.00091625284 4279943968
0.023316726 0.015274752 0.0014559431 4281376304
0.025207624 0.015320582 0.0013382491 4281702449
0.027502671 0.013819106 0.0025345134 4282090049
0.029808365 0.012317939 0.0037302319 4282023238
0.032747559 0.0084964745 0.0068951957 4281892679
0.036555022 0.0015817834 0.012684373 4282153799
0.040624194 -0.0061050509 0.019126866 4282153033
0.000445351 0.0046252515 0.0091042034 4279731553
0.002040565 0.0062242784 0.0076682232 4279930709
0.0039582849 0.0062697362 0.0075480975 4280062033
0.0046892762 0.011751816 0.0028263424 4280784194
0.0057264343 0.015679905 -0.00057848357 4281567808
0.0069111586 0.018830908 -0.0033245087 4281242428
0.0089622587 0.018099191 -0.002784688 4280917304
0.011198968 0.016591365 -0.001588468 4280656438
0.01326327 0.015860181 -0.0010493826 4280072234
0.015146963 0.01590544 -0.0011669248 4280202793
0.017218992 0.015174624 -0.00062818872 4281312808
0.019678757 0.012891728 0.0012223469 4281636914
0.021960661 0.011385346 0.0024160882 4281442858
0.024056524 0.010655301 0.0029534874 4281439289
0.02595818 0.010701396 0.0028351257 4281700154
0.028263889 0.009195853 0.0040275091 4281830204
0.030580223 0.0076905861 0.005219317 4282219079
0.033114739 0.0054099895 0.007065488 4282023239
0.036506429 2.7132221e-05 0.011530111 4281760589
0.00072160363 0.0015279353 0.0092738029 4281302864
0.0024862587 0.0023525516 0.0084967855 4281829183
0.0042452961 0.0031770961 0.0077202404 4281829948
0.0049820617 0.0086745135 0.0030095261 4281764668
0.0063692033 0.011056112 0.00092361774 4282156348
0.0075649694 0.014216086 -0.0018166099 4281245234
0.009449169 0.014261128 -0.0019343551 4280661029
0.011513487 0.013527697 -0.0013969461 4281768239
0.013949104 0.01123745 0.00045005139 4282355249
0.015657835 0.012061398 -0.00032289652 4282287673
0.017549396 0.012106957 -0.00044084759 4282027063
0.020014301 0.009817658 0.0014045043 4281635639
0.022107497 0.0090853199 0.0019404097 4281766198
0.024402514 0.0075750221 0.0031301053 4281963059
0.026110195 0.0083993431 0.0023575183 4282156604
0.028418384 0.0068895128 0.003546509 4281961273
0.030532442 0.0061579216 0.0040813684 4282284358
0.033066683 0.0038708039 0.0059227049 4282545479
0.036668003 -0.0023051137 0.011029242 4282544713
0.0029315576 -0.00153202 0.0093158875 4283790133
0.0043653846 0.00085705239 0.0072317971 4282680119
0.0052746013 0.0055887792 0.003186374 4282028339
0.0066672713 0.0079769995 0.0011050263 4281961529
0.0080434158 0.010364972 -0.00097524934 4281245998
0.0097581595 0.011190984 -0.0017471407 4281572909
0.012007982 0.0096747726 -0.00055822078 4282225198
0.014268495 0.0081588756 0.00063014869 4282289714
0.016353987 0.0074239485 0.0011647437 4281963313
0.017879508 0.0090308581 -0.00025984133 4282028084
0.01996731 0.0082960986 0.00027476717 4282092598
0.0218665 0.0083419997 0.000156458 4282159153
0.024158582 0.0068272855 0.0013431022 4282094894
0.026062794 0.0068734474 0.0012245858 4282354995
0.028370753 0.005359266 0.0024103494 4282353209
0.030689374 0.0038453694 0.0035955459 4282090558
0.033433467 0.00077165384 0.0060836682 4282676039
0.036619335 -0.0038614785 0.0098737106 4282870859
0.0044853613 -0.0014671637 0.0067403279 4283858474
0.0052282587 0.0040608998 0.002051875 4282289459
0.0067930371 0.0056725554 0.00062774867 4282745143
0.0079972595 0.008850161 -0.0021000253 4282354484
0.010066867 0.0081124194 -0.0015662517 4282680629
0.012141712 0.0073749013 -0.0010327352 4282616879
0.014404699 0.0058546923 0.00015222421 4282551598
0.016492739 0.0051176548 0.0006850427 4282616879
0.018209368 0.0059462301 -8.5093081e-05 4282420529
0.020111382 0.0059921201 -0.00020363694 4282355503
0.02220697 0.0052554943 0.00032888073 4282224179
0.024307758 0.0045190863 0.00086114649 4282485809
0.026413813 0.0037828535 0.0013931161 4283008558
0.028525077 0.0030468022 0.0019248761 4283332664
0.030846179 0.001528644 0.0031066239 4283461948
0.033799984 -0.0023359535 0.0062382808 4283724344
0.036990784 -0.0069820196 0.010018291 4283131723
0.0042721406 -0.0022245562 0.0049435878 4284512293
0.0053511485 0.0017479444 0.001568486 4283400749
0.0067467093 0.0041492786 -0.00050332211 4282550323
0.0083004534 0.0057651456 -0.0019235006 4282422313
0.010197923 0.0058105197 -0.0020420644 4282227748
0.012635551 0.0035006739 -0.00020982558 4282291244
0.014540777 0.0035464056 -0.00032874662 4282617389
0.016816929 0.0020222915 0.00085217506 4282812718
0.018538944 0.0028531803 8.3331484e-05 4283139119
0.020637289 0.0021143807 0.00061400793 4283008558
0.022740878 0.0013757152 0.0011444381 4283008558
0.024653256 0.0014220038 0.0010253591 4283660848
0.026366279 0.002253023 0.00025726063 4283988778
0.028477401 0.0015147841 0.00078740157 4283988778
0.0068722963 0.0018387828 -0.00098509481 4283464753
0.0084287673 0.0034590233 -0.0024021608 4283663398
0.010683514 0.0019298038 -0.0012233243 4283662123
0.012768894 0.0011881934 -0.00069369981 4283660848
0.014676742 0.0012339791 -0.00081278989 4283660848
0.016769886 0.00049271248 -0.00028353278 4284314924
0.007169567 -0.0012654727 -0.00082242675 4283791663
0.0090805963 -0.0012198575 -0.00094189867 4284120104
0.011168718 -0.0019637411 -0.00041411398 4284447523
-0.016709201 -0.00086576678 0.040129453 4282798694
-0.015113384 0.0014472697 0.037975706 4282929254
-0.013121627 0.0014931802 0.037849974 4282732139
-0.010849595 2.8051436e-05 0.03907524 4282010999
-0.0089956596 0.00082978047 0.03827408 4278931364
-0.0072930157 0.0023869462 0.036798216 4278865829
-0.005453065 0.0031885542 0.035998091 4278274994
-0.0034676343 0.0032348484 0.035873149 4279061158
-0.019014332 -0.0009966474 0.037717942 4282536554
-0.017811526 0.0035966896 0.033545773 4279650463
-0.015968055 0.0044000279 0.03274665 4278859964
-0.012157813 0.005248934 0.031823546 4278536623
-0.010328449 0.006052291 0.031025574 4278800039
-0.0083591342 0.0060980264 0.03090151 4278668459
-0.0063899904 0.0061438624 0.030777536 4278929323
-0.0027598143 0.0077506974 0.029183894 4279327888
-0.03136922 -0.00058354996 0.035269037 4282010489
-0.029497612 0.00022180937 0.034469165 4281682559
-0.02739501 -0.00049364194 0.035016891 4281354883
-0.025287081 -0.0012088567 0.03556437 4279782553
-0.023421306 -0.0004032664 0.034765132 4278340783
-0.021940507 0.0026830304 0.031947128 4278931109
-0.020223275 0.0042485502 0.030476391 4278799529
-0.018517103 0.005814001 0.029006414 4278406063
-0.010946073 0.0075150914 0.027166612 4278995878
-0.00869672 0.0060410388 0.02838698 4278537134
-0.0065848902 0.00532699 0.02893509 4278863788
-0.035603441 -0.00073686056 0.032995723 4281224578
-0.034061842 0.0023588259 0.030179828 4280109208
-0.030582387 0.0054984018 0.027241025 4278400198
-0.026300386 0.0032997094 0.029007968 4278668714
-0.024209145 0.0025820686 0.029554978 4278668969
-0.022618186 0.0049143117 0.027415935 4278668714
-0.02052724 0.0041968934 0.027963132 4278274229
-0.016733132 0.0050494 0.027044006 4279389343
-0.015183639 0.0073811393 0.024907921 4279454878
-0.013090573 0.0066641849 0.025455371 4279059629
-0.011420451 0.0082336031 0.023991242 4278995368
-0.0091795251 0.0067549702 0.025208946 4278798253
-0.0070760697 0.0060386173 0.025755934 4278799273
-0.0048164353 0.0045606606 0.02697257 4278735013
-0.037943561 -7.0909038e-05 0.029931009 4279062433
-0.036291778 0.0022684289 0.027792368 4278734503
-0.034436475 0.0030775396 0.026996598 4278668458
-0.032812156 0.0054164957 0.024859875 4278340783
-0.030973438 0.006225504 0.02406536 4278535858
-0.026829142 0.0047846232 0.025158353 4278668204
-0.024749015 0.0040645599 0.025704447 4278799783
-0.022789899 0.0041093118 0.025580473 4278537388
-0.017316975 0.0065374821 0.023201175 4278399943
-0.011609085 0.007437028 0.022163412 4279323044
-0.009371154 0.0059540272 0.023378031 4278537133
-0.0072706044 0.0052353926 0.023923628 4278602924
-0.0050139651 0.0037530288 0.025137216 4279587734
-0.038405892 0.0014201095 0.026080608 4278997408
-0.036764983 0.003765732 0.023947515 4278865319
-0.035030592 0.0053439289 0.022484848 4278536368
-0.033194564 0.0061549358 0.021692036 4279127458
-0.031364102 0.0069659278 0.020899665 4279061923
-0.029421106 0.0070099793 0.020776456 4278470324
-0.025164846 0.004797969 0.022535473 4278864554
-0.023340318 0.0056093037 0.021743828 4278537388
-0.021263406 0.0048872344 0.022288689 4278668203
-0.019444615 0.0056986734 0.021497583 4278994859
-0.017631415 0.0065100789 0.020706905 4278338999
-0.015960999 0.0080880597 0.019249132 4278272699
-0.014021847 0.0081329346 0.019126853 4279323298
-0.012082838 0.0081779025 0.019004649 4278472108
-0.0097079873 0.0059239976 0.020883599 4278406318
-0.0077611655 0.0059693679 0.020761074 4278603179
-0.0055129454 0.0044824667 0.021971958 4278671264
-0.039395697 -0.0078878589 0.03172164 4282536554
-0.038450092 -0.00014896039 0.024915252 4279522199
-0.036916289 0.0029725805 0.022119245 4279258784
-0.027643662 0.0062694885 0.018832466 4278994603
-0.025580294 0.0055446811 0.019376446 4278799019
-0.023637813 0.0055890679 0.019253531 4278537388
-0.021566547 0.0048647001 0.019797137 4278733994
-0.019753285 0.0056782104 0.019008016 4278603434
-0.017945625 0.006491743 0.018219292 4278603434
-0.016143553 0.007305203 0.017431034 4278538409
-0.01434708 0.0081186499 0.016643221 4278800293
-0.012271114 0.0073949471 0.01718694 4279192229
-0.010044582 0.0059029572 0.018395849 4279323298
-0.0079553351 0.0051797628 0.018938882 4279520924
-0.0058608204 0.0044568256 0.019481683 4278931874
-0.039237104 -0.011021798 0.031873405 4281552763
-0.038181249 -0.0040325737 0.025749233 4280636294
-0.037067465 0.0021841042 0.020294445 4278996898
-0.029982045 0.0069879964 0.015806837 4278274228
-0.028050359 0.0070319362 0.015684457 4278931108
-0.025995377 0.0063047949 0.016227303 4278472108
-0.024187367 0.0071201269 0.015439965 4278733738
-0.021998327 0.0056222826 0.016647449 4278733994
-0.02006172 0.0056667924 0.016525101 4278537388
-0.018125258 0.0057114195 0.01640285 4278799528
-0.016463026 0.007297866 0.014952118 4278537898
-0.01439254 0.0065717641 0.01549449 4278341294
-0.010380939 0.0058909357 0.015914721 4278530248
-0.0066604093 0.0067518782 0.015007788 4279717528
-0.039485019 -0.011068663 0.029359221 4281422203
-0.038017061 -0.0071551716 0.025908928 4280766853
-0.037004508 -0.00014720671 0.019802192 4279062688
-0.035602145 0.0037650913 0.016356274 4278734503
-0.034002211 0.006129656 0.014240589 4278471853
-0.032188352 0.0069468338 0.013454156 4278800549
-0.030262142 0.0069905128 0.013332024 4278603943
-0.028336052 0.0070343334 0.013210004 4278472874
-0.026410095 0.0070782471 0.013088064 4278538409
-0.024358165 0.0063489974 0.013629584 4278603433
-0.022172112 0.0048467014 0.014834067 4278603434
-0.020238366 0.0048911385 0.014711896 4278603434
-0.018439025 0.0057088193 0.013927003 4278734504
-0.016645283 0.0065265149 0.013142493 4278537388
-0.01471743 0.0065711606 0.013020949 4278274739
-0.010862172 0.0066607669 0.012778129 4278661063
-0.0070075989 0.0067507885 0.012535674 4280043418
-0.041815326 -0.010374739 0.026314635 4282732904
-0.039834179 -0.010330546 0.02618847 4281814904
-0.037957344 -0.0095102051 0.02539926 4280701828
-0.03672776 -0.0040344307 0.02063285 4280767363
-0.035536427 0.001440662 0.01586893 4278998683
-0.034046125 0.0045876037 0.01309534 4278996133
-0.032232359 0.0054069683 0.012310542 4278537898
-0.030424148 0.0062263347 0.011526192 4278865573
-0.02247452 0.0048511922 0.012362516 4278929834
-0.020546373 0.0048955213 0.012240712 4278733738
-0.018752545 0.0057152379 0.011457777 4278602923
-0.012977559 0.0058490187 0.011093715 4279651483
-0.011052877 0.0058938246 0.010972543 4279586968
-0.0091283619 0.0059387349 0.010851463 4279715998
-0.0073545277 0.006758634 0.01007027 4279191208
-0.0054330677 0.0068036821 0.009949537 4279585184
-0.041958362 -0.011179571 0.024476919 4282733159
-0.040081535 -0.010357236 0.02368927 4281225853
-0.038106076 -0.010313031 0.023563575 4281029759
-0.036558282 -0.0071563036 0.020792656 4280702084
-0.035361201 -0.0016659098 0.016039748 4278997664
-0.033977699 0.002267858 0.012611339 4278996134
-0.032391421 0.0046453029 0.010506345 4278537133
-0.030703805 0.0062446147 0.00906316 4278471598
-0.029027205 0.0078438334 0.0076207137 4278401219
-0.027115151 0.0078874622 0.0074996799 4279318709
-0.022776678 0.0048646405 0.0098976921 4278731699
-0.020854112 0.0049088523 0.0097762477 4278668459
-0.019065805 0.0057306271 0.008995289 4278602923
-0.017419953 0.0073298365 0.007555305 4278274484
-0.013592158 0.0074186176 0.0073140766 4278269638
-0.0077011958 0.0067754611 0.0076115364 4279191209
-0.0057853088 0.00682039 0.007491163 4278995879
-0.04012588 -0.011935738 0.022516901 4281684853
-0.038150586 -0.011891526 0.022391222 4281225598
