# .PCD v0.7 - Point Cloud Data file format
VERSION 0.7
FIELDS x y z rgba
SIZE 4 4 4 4
TYPE F F F U
COUNT 1 1 1 1
WIDTH 963
HEIGHT 1
VIEWPOINT 0 0 0 1 0 0 0
POINTS 963
DATA ascii
-0.015445083 -0.002078386 -0.0065903594 4290716443
-0.013541937 -0.0020408621 -0.0066904575 4290716954
-0.011638932 -0.0020032572 -0.0067904862 4291109143
-0.0094604492 -0.0035519879 -0.0055913972 4291044118
-0.0075522959 -0.0035140626 -0.0056915353 4289866529
-0.0056442991 -0.003476033 -0.0057915854 4289997343
-0.0034444854 -0.0050240373 -0.0045933914 4289800993
-0.00153137 -0.0049857022 -0.004693558 4290193694
0.00038158894 -0.0049472852 -0.0047936547 4290194203
0.002140224 -0.0041158441 -0.0055423025 4290128668
0.0040501207 -0.0040772902 -0.0056420919 4290194204
0.006119445 -0.0048314389 -0.0050934358 4290063388
0.0078694075 -0.003999914 -0.0058414387 4289801758
0.009448722 -0.0023757191 -0.0072371559 4290194459
0.011352479 -0.0023369379 -0.0073363655 4290586393
0.013767451 -0.0046757534 -0.0054920707 4289801504
0.016025379 -0.0062217163 -0.0042961966 4289932573
0.017942168 -0.0061823931 -0.0043958789 4290193949
0.019322902 -0.003765746 -0.0064376732 4291044119
0.021049805 -0.0029341169 -0.0071840496 4291044374
0.023139209 -0.0036870828 -0.0066358657 4290782488
0.025420636 -0.0052321595 -0.0054409145 4290586139
0.027523249 -0.0059847338 -0.0048933299 4289604644
0.029823303 -0.0075292513 -0.0036992906 4289211944
0.032328963 -0.0098655904 -0.0018591825 4288295984
0.034850731 -0.012201523 -1.9853935e-05 4286987578
0.03718821 -0.013745063 0.0011723936 4286529854
0.039739445 -0.016080244 0.0030102991 4286006339
0.041689366 -0.016039491 0.002909448 4285940804
-0.018917136 -0.0060630091 -0.0055689304 4289408294
-0.017259449 -0.0044343034 -0.006966576 4289800993
-0.015612785 -0.0028056502 -0.0083635934 4289670179
-0.013844814 -0.0019726902 -0.0091117444 4289800993
-0.011947401 -0.0019351728 -0.009211462 4290651163
-0.0099123567 -0.0026929881 -0.0086632157 4290585628
-0.0078720078 -0.0034506219 -0.0081151193 4290062623
-0.0058263689 -0.0042079957 -0.0075672586 4289866528
-0.0036295131 -0.0057604364 -0.0063721505 4289932064
-0.0015705898 -0.006517346 -0.0058248392 4289866528
0.00049363077 -0.0072741141 -0.005277704 4290063134
0.0022549257 -0.0064404234 -0.0060249385 4290259483
0.0040106028 -0.005606785 -0.0067717605 4290455834
0.0056011602 -0.0039782077 -0.0081649907 4289801248
0.0075051486 -0.0039395792 -0.0082643274 4291044373
0.0090790242 -0.0023111077 -0.0096565895 4291240723
0.010809541 -0.0014776168 -0.01040183 4291175189
0.012875266 -0.0022336636 -0.0098543363 4290979094
0.015292495 -0.0045789788 -0.0080149323 4290128413
0.017198324 -0.0045398856 -0.0081140492 4290063134
0.018925399 -0.0037061581 -0.0088588819 4289735969
0.020828113 -0.0036669895 -0.0089577334 4290324763
0.022914663 -0.0044221971 -0.0084110191 4289932063
0.025193155 -0.0059716748 -0.0072192024 4289473573
0.027482353 -0.0075208889 -0.0060278364 4289212199
0.029974364 -0.0098640602 -0.004191942 4288492333
0.03267736 -0.013001136 -0.0017118827 4286660413
0.035204306 -0.015343528 0.00012231432 4286267968
0.037747353 -0.017685503 0.0019557402 4286071618
0.039900422 -0.018438879 0.0024993401 4286006084
-0.023134071 -0.0052728704 -0.008438671 4287706679
-0.021109313 -0.0060337191 -0.00789198 4289146409
-0.01907922 -0.0067943288 -0.0073454706 4289408293
-0.017424274 -0.0051613469 -0.0087397657 4290781978
-0.016039453 -0.0019329032 -0.011426857 4289866274
-0.014147468 -0.001895614 -0.011526379 4288819498
-0.012255616 -0.0018582316 -0.011625823 4289473829
-0.010088496 -0.0034159087 -0.010432594 4290258718
-0.0081914887 -0.0033781938 -0.010532139 4290324253
-0.006151475 -0.0041378848 -0.0099856155 4289997344
-0.0041061714 -0.0048974073 -0.0094392495 4290585884
-0.0020555779 -0.0056566824 -0.0088931285 4290128159
2.9057264e-07 -0.0064157429 -0.0083472049 4290258973
0.0019073933 -0.0063773575 -0.0084469318 4289997343
0.0036575869 -0.0055416487 -0.0091918521 4290128158
0.0054021627 -0.0047059674 -0.0099364156 4290913559
0.0071411207 -0.0038702916 -0.01068068 4289931808
0.0088744983 -0.0030346774 -0.011424541 4290259229
0.010602251 -0.0021990929 -0.012168044 4290259229
0.012665085 -0.0029573701 -0.01162201 4290979094
0.014560111 -0.0029186141 -0.011720649 4290259483
0.01645495 -0.002879764 -0.011819208 4289932063
0.018706642 -0.0044344133 -0.010629347 4290259228
0.02078779 -0.0051920181 -0.010084042 4290258718
0.023058131 -0.0067460723 -0.0088950666 4289997088
0.025339156 -0.0082999002 -0.0077065667 4288885033
0.027820244 -0.010649937 -0.0058750222 4287053624
0.030317441 -0.012999603 -0.004044211 4286529854
0.032830738 -0.015348886 -0.002214198 4286202433
0.035360128 -0.017697679 -0.00038497802 4286006084
0.037705392 -0.01924986 0.00080042426 4286006084
-0.023053009 -0.0075954013 -0.008917531 4287706679
-0.021268353 -0.0067582163 -0.009663674 4288427054
-0.019489281 -0.0059209508 -0.010409458 4289342758
-0.017842535 -0.0042837681 -0.011800092 4290127903
-0.016336303 -0.0018467288 -0.013835222 4291044374
-0.014449887 -0.0018095393 -0.013934442 4290782488
-0.012428682 -0.0025720913 -0.013388773 4290913049
-0.010264508 -0.0041342275 -0.012198574 4290847514
-0.0082299858 -0.0048963157 -0.011653457 4289997344
-0.0063332468 -0.0048585227 -0.011752925 4290128159
-0.0044366643 -0.0048206365 -0.011852314 4289997089
-0.0025402308 -0.0047826571 -0.011951624 4290258973
-0.00064395368 -0.0047445968 -0.012050863 4290324508
0.0012521446 -0.0047064079 -0.012149996 4290128159
0.0031480938 -0.0046681613 -0.012249077 4289800993
0.004884474 -0.0038304944 -0.012991619 4290978583
0.006615229 -0.0029928554 -0.013733804 4290586138
0.0083403736 -0.0021551736 -0.014475655 4289081638
0.010227494 -0.002116737 -0.014574001 4289147174
0.012114443 -0.0020782435 -0.014672294 4289997598
0.014347248 -0.0036377925 -0.01348479 4289997598
0.016415007 -0.0043980191 -0.012940528 4290193949
0.018844962 -0.0067559853 -0.011111342 4290389788
0.021109834 -0.008314616 -0.0099253878 4290324508
0.023385406 -0.0098729851 -0.008739884 4289539364
0.025858253 -0.012229793 -0.0069127977 4287707699
0.028157927 -0.013787553 -0.0057284618 4286464829
0.030660287 -0.016143594 -0.0039027934 4286333759
0.032984003 -0.017700698 -0.0027195872 4286202433
0.035120927 -0.018458929 -0.0021784948 4286071363
0.03726308 -0.019217003 -0.0016376376 4286267459
-0.02285349 -0.010724397 -0.0087553803 4287576119
-0.021063477 -0.0098849125 -0.0095001813 4288100398
-0.019527022 -0.0074409391 -0.011532208 4289408549
-0.01813373 -0.0041950606 -0.01420696 4289539363
-0.016632911 -0.0017516492 -0.016236935 4289604898
-0.014752075 -0.0017146058 -0.01633589 4290324509
-0.012736496 -0.0024794266 -0.015791522 4290193183
-0.010715611 -0.0032440573 -0.015247371 4290127648
-0.0086894184 -0.004008485 -0.014703426 4289931554
-0.0068009794 -0.0039708763 -0.014802473 4290193184
-0.0049126819 -0.0039331494 -0.014901423 4289866018
-0.0031730235 -0.0030936394 -0.015642822 4290193438
-0.0012877509 -0.0030557858 -0.015741475 4289866019
0.0005973652 -0.0030178642 -0.015840068 4289931554
0.0026389658 -0.003781396 -0.015296495 4290128159
0.0045264885 -0.0037432397 -0.015395075 4290062879
0.0062517524 -0.0029035294 -0.016135359 4291175188
0.0083010346 -0.0036666496 -0.015591996 4290782488
0.010188043 -0.003628239 -0.015690353 4290651928
0.012415379 -0.0051923646 -0.014505871 4290979094
0.014307484 -0.0051536723 -0.014604362 4290324763
0.016726449 -0.0075184698 -0.012779497 4289931808
0.018983163 -0.0090817269 -0.011596419 4288754218
0.021431677 -0.011445782 -0.009772989 4287838768
0.023896307 -0.013809372 -0.0079503721 4287249973
0.026377045 -0.016172603 -0.0061284974 4287577139
0.028684653 -0.017734498 -0.0049478305 4286987833
0.030810975 -0.018495334 -0.0044078804 4286267968
0.032942504 -0.019255921 -0.0038681705 4286398273
0.034881875 -0.019215632 -0.0039686556 4286398274
-0.022772659 -0.013057365 -0.0092419507 4287446323
-0.020858802 -0.013020094 -0.0093429554 4288166188
-0.019316871 -0.010569566 -0.011370424 4289016614
-0.018171377 -0.0057061473 -0.015323127 4288885799
-0.016670533 -0.0032562064 -0.017348269 4289670433
-0.015054032 -0.0016106749 -0.018730763 4290193439
-0.012909248 -0.003182021 -0.01754608 4289996834
-0.011028811 -0.0031447811 -0.017644862 4290062623
-0.0088679716 -0.0047155665 -0.016460914 4290128159
-0.0071253702 -0.0038740141 -0.017201001 4290193438
-0.0050969273 -0.004640379 -0.01665864 4290782233
-0.0033600405 -0.0037987391 -0.017398275 4291174933
-0.0014776215 -0.0037609721 -0.017496802 4291174933
0.00040466338 -0.0037231008 -0.017595243 4290847768
0.0022867844 -0.0036851494 -0.017693609 4289931808
0.0041687563 -0.0036471039 -0.017791901 4290193949
0.0060505569 -0.0036089784 -0.017890118 4290128414
0.0080969408 -0.0043743523 -0.01734823 4290128413
0.010148622 -0.0051395246 -0.016806548 4290259484
0.012205549 -0.0059045549 -0.016265042 4290455578
0.014440641 -0.0074727596 -0.015084174 4289670178
0.01703769 -0.010647417 -0.012624817 4288950824
0.019299611 -0.012214918 -0.01144523 4287904049
0.021934353 -0.015388641 -0.0089877145 4286726968
0.024039336 -0.016152265 -0.0084484695 4286792248
0.026709035 -0.019325148 -0.0059926827 4287054134
0.028832667 -0.020088285 -0.0054542543 4287642419
0.030961551 -0.020851197 -0.0049160868 4286660413
0.032706387 -0.020008024 -0.0056551225 4286332993
-0.022691924 -0.015394527 -0.0097315451 4288296749
-0.020654317 -0.016163854 -0.0091919955 4288820263
-0.019106925 -0.013706641 -0.011214956 4287970094
-0.017829198 -0.0096366135 -0.01451782 4287773744
-0.016578797 -0.0055670491 -0.017819192 4288820264
-0.01509165 -0.0031107049 -0.019838747 4290062368
-0.013081875 -0.0038800724 -0.019297283 4289997089
-0.011066794 -0.0046491902 -0.018756062 4290127904
-0.0090464205 -0.0054181181 -0.018215058 4290062623
-0.0073065907 -0.0045744479 -0.018953387 4290324253
-0.00542669 -0.0045369184 -0.019051921 4290520603
-0.0036953166 -0.0036932202 -0.019789662 4290520859
-0.0015162528 -0.005267621 -0.018609617 4290586394
0.00036590546 -0.0052297758 -0.018708065 4291044374
0.0022479221 -0.0051918374 -0.018806439 4289735714
0.0041297749 -0.0051538064 -0.018904731 4290062623
0.0060114712 -0.0051157181 -0.01900297 4289932064
0.0082223862 -0.0066890139 -0.017824246 4289866528
0.010109209 -0.006650643 -0.017922621 4290128158
0.012676358 -0.0098347915 -0.015468283 4289801249
0.014746569 -0.010601682 -0.014929043 4288165678
0.017348699 -0.013784898 -0.012476439 4286857529
0.019615889 -0.015356699 -0.011300316 4286726969
0.023998559 -0.017694 -0.0095871147 4286268478
0.026481494 -0.020070283 -0.0077750515 4286464829
0.02860228 -0.020835638 -0.0072381496 4287249463
-0.0224929 -0.018544614 -0.0095849764 4288099634
-0.02057115 -0.018507225 -0.0096864253 4287838769
-0.019021012 -0.01604346 -0.011704719 4288035118
-0.017613858 -0.012771257 -0.01436084 4287904304
-0.016357888 -0.0086906571 -0.01765449 4288100654
-0.01473327 -0.0070362953 -0.019030919 4288231468
-0.012984946 -0.0061905938 -0.019768316 4289146664
-0.011104763 -0.0061533949 -0.019867111 4289996833
-0.0093648657 -0.0053076521 -0.020603914 4290258719
-0.0076305568 -0.0044618892 -0.021340396 4290586139
-0.005901821 -0.0036161887 -0.02207648 4289474083
-0.0040303543 -0.0035787495 -0.022174511 4289474083
-0.0020079985 -0.0043494264 -0.021634936 4289605154
1.9669533e-05 -0.0051199486 -0.021095525 4290520859
0.0020526126 -0.0058902334 -0.020556372 4289800993
0.0039316341 -0.0058522769 -0.020654529 4290062623
0.0056485906 -0.0050062835 -0.021389602 4290062623
0.0078538507 -0.0065840753 -0.020213827 4289866273
0.010237195 -0.0089694867 -0.01840183 4289735714
0.012806728 -0.012162302 -0.015954066 4289212454
0.015052281 -0.013739041 -0.01478022 4287577393
0.017659552 -0.016930921 -0.0123343 4286792248
0.019931935 -0.018506955 -0.011161734 4286661435
0.022034071 -0.019275121 -0.01062566 4286268479
0.024141476 -0.020043109 -0.010089734 4286333759
0.026254125 -0.020810898 -0.0095540863 4286595388
-0.022649065 -0.019270161 -0.011357642 4287118904
-0.020609122 -0.020043794 -0.010821436 4287511349
-0.019182734 -0.016762579 -0.01347225 4287707699
-0.017651729 -0.014292601 -0.015484584 4287773489
-0.016137175 -0.011822797 -0.017496016 4287970094
-0.014375187 -0.010974768 -0.01823261 4287969838
-0.012888104 -0.0085052978 -0.020242441 4288231469
-0.01128009 -0.0068467394 -0.021614648 4289081383
-0.0096830875 -0.0051882705 -0.022986257 4289800993
-0.0082399175 -0.0027194023 -0.024993509 4290520859
-0.0065221488 -0.0018717051 -0.025727451 4290520859
-0.0046616718 -0.0018344978 -0.025824917 4289670433
-0.0026503429 -0.0026076464 -0.025286356 4289670433
-0.00032634288 -0.005001206 -0.023476478 4290324764
0.0015445724 -0.0049634892 -0.023574267 4290062624
0.00373362 -0.0065462287 -0.02240099 4289931298
0.0054478049 -0.0056980574 -0.02313434 4290258463
0.0076501369 -0.0072803325 -0.021961611 4289146664
0.010197774 -0.010482402 -0.01951923 4287838513
0.013107024 -0.015303949 -0.015808053 4287250229
0.015530534 -0.017694933 -0.014002881 4287839279
0.017970175 -0.020085452 -0.01219852 4286857273
0.01971329 -0.019236298 -0.012933011 4286529854
0.021812566 -0.020006683 -0.012398387 4286464318
0.023366317 -0.018347774 -0.013766689 4286791229
-0.02076808 -0.020767022 -0.012592195 4286987578
-0.019220613 -0.018290259 -0.014600687 4287576883
-0.017689575 -0.015813788 -0.016608216 4288100399
-0.015916675 -0.014963433 -0.017343894 4287969583
-0.014149312 -0.014113141 -0.018079171 4288428074
-0.012522139 -0.012449978 -0.019449256 4288493354
-0.011317953 -0.0083483914 -0.022723816 4289147429
-0.0097209811 -0.0066855745 -0.024092205 4289147174
-0.008277759 -0.0042102011 -0.026094645 4289539619
-0.0067055225 -0.0025476804 -0.02746159 4290324764
-0.0049960837 -0.0016979631 -0.028193399 4290913559
-0.0029903874 -0.0024733571 -0.027656198 4290390043
-0.00097939372 -0.0032485481 -0.027119201 4290455068
0.0011932701 -0.0048360601 -0.025948357 4289931553
0.0033766553 -0.0064232131 -0.024778042 4289538853
0.0057325736 -0.0088224327 -0.022974422 4288950059
0.0079401284 -0.010408928 -0.021805245 4286922808
0.010660119 -0.014431847 -0.018736122 4286530109
0.013067208 -0.016829796 -0.016935002 4286399293
0.015317768 -0.018415179 -0.015767889 4286726204
0.017579056 -0.020000309 -0.014601238 4287510838
0.019494802 -0.019961087 -0.014700927 4287052603
-0.021168806 -0.019854993 -0.015628193 4286333504
-0.019258466 -0.019817736 -0.015728973 4287445814
-0.017601013 -0.018149961 -0.017097678 4288492843
-0.015954573 -0.016482251 -0.018465767 4288623913
-0.014055461 -0.016444907 -0.018565726 4288624424
-0.012425583 -0.01477736 -0.019932749 4288624424
-0.011081263 -0.011479852 -0.022565989 4288231723
-0.0097588301 -0.00818271 -0.025198029 4288558633
-0.0083155632 -0.0057008313 -0.027195657 4289277479
-0.0067433417 -0.0040339753 -0.02855939 4289146919
-0.0050339624 -0.0031820796 -0.029289585 4290324253
-0.0031792894 -0.0031449515 -0.02938672 4289669923
-0.001171194 -0.0039223861 -0.028851189 4289735459
0.0011548549 -0.0063289534 -0.027051002 4289800739
0.0038150996 -0.010364207 -0.023986997 4288492078
0.0061788857 -0.012769803 -0.022188701 4287380023
0.0082299188 -0.013546103 -0.02165514 4286595389
0.010787793 -0.016765404 -0.019226205 4286529853
0.013027422 -0.018355452 -0.018061809 4286464574
0.015105158 -0.019130927 -0.017529508 4286267968
0.017012835 -0.019091981 -0.017628858 4286987323
-0.019419905 -0.020527603 -0.017489674 4286987578
-0.01763887 -0.019672923 -0.018222623 4287838004
-0.015863393 -0.018818256 -0.018955208 4288165678
-0.013961684 -0.018780889 -0.019055326 4288035374
-0.012329109 -0.017108887 -0.020419303 4288035373
-0.01084476 -0.014619844 -0.022414465 4288166188
-0.0093768463 -0.012131071 -0.024408644 4288231723
-0.0082106888 -0.0080083366 -0.027664993 4288493098
-0.0066357404 -0.0063371197 -0.029025681 4288754473
-0.0052198917 -0.0038490817 -0.031016907 4289735204
-0.0032172501 -0.0046289247 -0.030482793 4289604389
-0.0012093037 -0.005408579 -0.029948894 4288295983
0.0017414764 -0.011088929 -0.02563021 4287183928
0.004253231 -0.014318096 -0.023205552 4286529853
0.0067866147 -0.017546795 -0.020781927 4286595133
0.0085195303 -0.016691761 -0.02151138 4286529599
0.010748252 -0.018286539 -0.020349681 4286398783
0.012817845 -0.019064449 -0.019818634 4286333248
-0.017929267 -0.019556519 -0.02060904 4286071619
-0.0160303 -0.019519309 -0.02070909 4287510583
-0.013999715 -0.020301541 -0.020178549 4287969073
-0.012367159 -0.018625204 -0.021539316 4288165933
-0.0107456 -0.016949035 -0.022899397 4288100908
-0.0092749223 -0.014453673 -0.024888957 4287969839
-0.0079632998 -0.011139272 -0.027507493 4288100654
-0.0065282285 -0.00864447 -0.029495005 4288492843
-0.00496158 -0.0069689816 -0.030851973 4289015593
-0.0029536709 -0.0077509112 -0.030319758 4288622893
-0.00063347071 -0.010170747 -0.028529 4288557869
0.0020152703 -0.014228137 -0.025480611 4287904049
0.0045321584 -0.017465994 -0.023062656 4286857019
0.006747365 -0.019065529 -0.021903647 4286398783
0.0086446032 -0.019027164 -0.022002725 4286595134
0.010541677 -0.018988706 -0.022101725 4286333248
0.012608401 -0.019768929 -0.021572124 4286267969
-0.01619707 -0.020215927 -0.022459626 4286987323
-0.014169399 -0.021000344 -0.021930579 4287641398
-0.012405179 -0.020141374 -0.022659222 4287969328
-0.010783635 -0.018460885 -0.024016101 4287904304
-0.0091730878 -0.016780481 -0.02537238 4287642419
-0.0078586414 -0.013457345 -0.027984638 4287969328
-0.0064207986 -0.01095599 -0.029967483 4287969328
-0.0047034398 -0.010097472 -0.030693311 4287969328
-0.0023888424 -0.012524043 -0.028907241 4286791739
-5.8054924e-05 -0.014950207 -0.027121881 4286530108
0.0024450421 -0.018197136 -0.024709716 4286530108
0.0044931695 -0.018980218 -0.024181057 4287249209
0.0065465868 -0.019763112 -0.023652611 4287903029
0.0084409937 -0.019724809 -0.023751546 4287118139
-0.012711842 -0.020009832 -0.025033265 4287248954
-0.01082164 -0.019972552 -0.025132675 4287707444
-0.0092111006 -0.018287824 -0.02648575 4287511603
-0.0076115653 -0.016603246 -0.027838124 4287838769
-0.0061682463 -0.01409523 -0.029816482 4287904049
-0.0041496456 -0.014881438 -0.02928815 4287773234
-0.0021257252 -0.015667526 -0.028760014 4286530108
0.00036357343 -0.018923458 -0.026353661 4286399293
0.0024062544 -0.019708997 -0.02582638 4286464573
0.0042954087 -0.019671015 -0.0259252 4286594878
0.0061844438 -0.019632941 -0.026023941 4287118394
-0.013421081 -0.017391628 -0.02927744 4287052603
-0.011270598 -0.01900639 -0.028125353 4287183673
-0.0093888044 -0.018969174 -0.028224247 4287772979
-0.007791996 -0.017280342 -0.02957329 4288100399
-0.0062061846 -0.015591601 -0.030921735 4287969584
-0.0041877404 -0.016380016 -0.030395024 4287707954
-0.0018628091 -0.018819518 -0.028619148 4286530365
0.00017167628 -0.019607432 -0.028093146 4286464573
0.0020554364 -0.019569665 -0.028191762 4286464319
0.0037803054 -0.018706366 -0.028914556 4286660414
-0.0095663518 -0.019646063 -0.029959451 4287772469
-0.0076875016 -0.019608865 -0.030058159 4288361518
-0.0060989708 -0.017915737 -0.031403538 4288558123
-0.0042258129 -0.017878462 -0.031501807 4287969584
-0.0020516738 -0.019496741 -0.030353839 4286530108
-2.0071864e-05 -0.020286921 -0.029829323 4286529598
0.0015489161 -0.018593879 -0.031173378 4286202688
-0.008010067 -0.019451158 -0.032411836 4287249463
-0.0062819421 -0.018583933 -0.033131942 4287838258
-0.0045593381 -0.017716758 -0.033851713 4287969073
-0.0020899028 -0.020999417 -0.031463742 4287249719
-0.0067547187 -0.01758318 -0.03609734 4286725948
-0.0048926398 -0.017546209 -0.036195092 4286725693
0.010772824 0.014972568 0.037914056 4281565769
0.011604756 0.020194784 0.033002112 4280719168
0.013563059 0.020234279 0.032899756 4279416629
0.015690267 0.019533597 0.033484112 4279611193
0.019025549 0.013651771 0.038873818 4278372149
0.0061546415 0.016275961 0.034205239 4281695819
0.0076472014 0.018543348 0.032045428 4281109319
0.0091231987 0.020810477 0.02988654 4279872314
0.010582626 0.023077324 0.027728632 4281436485
0.012524486 0.023116503 0.027627163 4281566789
0.014466129 0.023155756 0.027525757 4280721464
0.016922861 0.020968001 0.029479075 4280851514
0.020093724 0.01581133 0.034170661 4281437759
0.0030785277 0.019872218 0.028352067 4281500234
0.004560478 0.02214586 0.026197601 4281305159
0.0065001771 0.022184756 0.026096061 4280849473
0.0082788244 0.022968508 0.025310762 4278568753
0.0098882616 0.024496954 0.023842141 4278504239
0.011819117 0.024535947 0.023741264 4280263738
0.01391875 0.023830406 0.024323869 4280525369
0.016367063 0.021635905 0.026272841 4280005679
0.018656999 0.02018635 0.027537864 4281111868
0.021489106 0.016503731 0.030851383 4281306690
0.025427535 0.0083553903 0.03826065 4281110338
-0.00056358427 0.016736552 0.028767411 4281369163
0.00197047 0.02353866 0.022418618 4278960434
0.0035887212 0.025071397 0.020952575 4280521798
0.0056700259 0.024362981 0.021534283 4280390983
0.0075957626 0.024401721 0.021433566 4280326978
0.0095212907 0.024440531 0.021332916 4279088954
0.013540633 0.023771621 0.02181365 4278765104
0.015639886 0.02306395 0.02239478 4279937338
0.017744325 0.022356518 0.022975665 4280914498
0.020031087 0.020902671 0.024237718 4280783683
0.022868015 0.017209329 0.027542979 4280914243
0.026279554 0.011277046 0.032890204 4281175108
-0.0028459877 0.016629012 0.026349124 4280584019
-0.0017801002 0.021164298 0.022158917 4280587843
-0.00014782697 0.022701576 0.020695223 4278763064
0.0013208091 0.024987988 0.018551182 4278763063
0.004998371 0.02581415 0.017669611 4280848963
0.0072345734 0.024354342 0.018930728 4280783684
0.0093179792 0.023643985 0.01951086 4280848963
0.01140663 0.02293383 0.020090787 4280718148
0.0133316 0.022972845 0.019990323 4280849729
0.015599579 0.021514032 0.021250043 4280849473
0.017355196 0.022302225 0.020469505 4280915264
0.019282199 0.022341531 0.020369124 4280784448
0.021568507 0.020883352 0.021628082 4280653889
0.027284369 0.013476016 0.028220486 4279484204
0.031122431 0.0060302801 0.034910634 4280461108
-0.0056836084 0.019537669 0.021216974 4280652103
-0.004040055 0.021079354 0.019755781 4280195909
-0.0022605509 0.021869279 0.018974993 4280196163
-0.00033690035 0.021907635 0.018874135 4281696583
0.0012815371 0.023449086 0.017414529 4281436229
0.0030440912 0.024239007 0.016634807 4280589374
0.0049589425 0.024277456 0.016534608 4280719424
0.007194899 0.02281332 0.017792538 4280718658
0.0092781484 0.022100806 0.018371081 4280718403
0.01120051 0.022139691 0.018270697 4280653634
0.013122655 0.02217868 0.018170405 4280849218
0.015044563 0.022217736 0.018070182 4280784449
0.016791999 0.023007922 0.017291747 4281111104
0.018710732 0.02304709 0.017191818 4280589374
0.02062922 0.023086347 0.017091973 4280329273
0.022547469 0.023125663 0.016992185 4279676729
0.025020964 0.020912547 0.018925607 4279479868
0.032875225 0.0052265245 0.032951806 4278373678
-0.0070996955 0.014933929 0.022888001 4280782154
-0.0062888414 0.021003664 0.017358815 4281109829
-0.00451193 0.021795634 0.016579721 4280588353
-0.0025936812 0.021833822 0.016479101 4278828343
-0.0006756112 0.021872081 0.016378541 4280067643
0.000937365 0.02341786 0.014922429 4280654654
0.0028495789 0.023456205 0.014822328 4278374189
0.0047615841 0.023494639 0.014722312 4280524093
0.0071552098 0.021272562 0.016654542 4280783683
0.008911632 0.022064805 0.015877023 4280653633
0.010994487 0.021350209 0.016454054 4280588353
0.012576245 0.02289591 0.014999984 4280718914
0.014489897 0.022934821 0.014900204 4280849218
0.016054869 0.024480302 0.013447177 4280915008
0.018139549 0.023766089 0.014024364 4279220788
0.020049781 0.023805197 0.013924966 4279938359
0.021959782 0.023844369 0.013825623 4281632324
0.024239764 0.022377517 0.015078586 4281567298
0.026718184 0.020158079 0.017006999 4281045313
0.030165412 0.014174407 0.022313781 4281044548
0.034042433 0.0066860132 0.028969727 4280783173
-0.0074164197 0.014888126 0.020383259 4279084619
-0.0061862469 0.018706948 0.016897619 4280718403
-0.0045508891 0.020257231 0.015443416 4281175363
-0.0027796999 0.021051437 0.014666285 4279742263
0.00059341639 0.023395594 0.012437027 4279614254
0.0023449436 0.024189666 0.011661191 4279482164
0.0045643151 0.022716444 0.012913432 4280719168
0.0064732805 0.02275493 0.012813659 4280849473
0.0085452944 0.02203786 0.01338958 4280914498
0.010124564 0.023587763 0.011938866 4280915008
0.011861444 0.02438198 0.011164123 4280980034
0.013592638 0.025176249 0.010389721 4281045314
0.015666515 0.024459511 0.010965848 4280653124
0.017745599 0.023743015 0.011541724 4279676729
0.019650295 0.02378203 0.011442624 4279288619
0.021554761 0.023821108 0.011343589 4279090993
0.023644008 0.02310507 0.011919118 4279481143
0.025926255 0.021634057 0.013168775 4279481143
0.028600112 0.018653125 0.015766388 4280393534
0.031681903 0.014162591 0.019711101 4280783428
0.036559366 0.0028779414 0.029719524 4280652613
-0.007039398 0.011059638 0.021261726 4279732574
-0.0058009177 0.014889572 0.017783748 4279669844
-0.0041574016 0.01644443 0.01633231 4279934278
-0.0028187335 0.019515496 0.01353181 4281304649
-0.0013524294 0.021828052 0.011407282 4280392003
0.00024963915 0.023382392 0.0099582411 4280588099
0.0019956753 0.024178557 0.009184327 4280653634
0.0040516034 0.023458812 0.0097593516 4280523073
0.0059522688 0.023497168 0.0096600335 4280719423
0.0078527331 0.023535602 0.0095607899 4280915008
0.013381489 0.024409052 0.0085899215 4279676729
0.015278362 0.024447761 0.0084911194 4281045314
0.017351843 0.023728997 0.0090656914 4280915009
0.019251004 0.0237679 0.0089668818 4278699058
0.023603581 0.021573752 0.010788161 4278372659
0.025885612 0.020098411 0.012034625 4278503729
0.028368704 0.017866027 0.013953207 4280588354
0.031447321 0.013362402 0.017888369 4280979014
0.035733514 0.0043164473 0.025855839 4280913734
0.040084742 -0.0047280826 0.033819988 4280912458
-0.0070786849 0.0094999019 0.020109652 4280060504
-0.0054159313 0.01105942 0.018660367 4279473238
-0.0039083585 0.013379164 0.016538389 4279343698
-0.0024173185 0.015698753 0.014417326 4279412294
-0.0010923594 0.018778387 0.011624092 4280522819
0.00036289543 0.021097399 0.0095050838 4280196164
0.0018015951 0.023416229 0.0073869806 4280587588
0.0038546324 0.022694267 0.0079605579 4280654143
0.0055920482 0.023492627 0.0071888473 4280262973
0.0074869543 0.023530975 0.007089911 4280589374
0.0092157722 0.024329361 0.0063187964 4278765613
0.015238523 0.022925384 0.0073667429 4280654144
0.017135084 0.02296418 0.0072680302 4280980034
0.019210905 0.022243377 0.0078409351 4280522818
0.021291941 0.021522712 0.0084136669 4280849729
0.023563109 0.020042721 0.0096574184 4281045314
0.025844924 0.018563014 0.010900663 4281045569
0.02870851 0.014805181 0.014156388 4280914244
0.031792149 0.010288529 0.018081641 4280913478
0.035691381 0.0027352339 0.024688058 4281566024
0.039843246 -0.0055761393 0.031962283 4281433168
-0.006979391 0.0071777329 0.019629834 4279799129
-0.0054552481 0.0095043276 0.017511737 4279538773
-0.0038035884 0.011068065 0.0160664 4279996499
-0.0021630302 0.012631735 0.014621681 4280259403
-0.00068300962 0.014957715 0.012506168 4280262464
0.00062823296 0.01804591 0.0097201914 4281370694
0.0020724311 0.020371422 0.0076066628 4280653379
0.0036577806 0.021934319 0.0061651636 4280588609
0.0055527762 0.021972597 0.0060661696 4279676473
0.0076106712 0.021248743 0.0066380221 4279482164
0.0095079914 0.02128724 0.0065390356 4281502018
0.011236548 0.022087913 0.0057696272 4281567299
0.013130724 0.022126522 0.0056709386 4280329274
0.014850684 0.022927199 0.0049021104 4281111359
0.016918406 0.022203982 0.0054737758 4280654143
0.018991351 0.021480944 0.0060452223 4280523074
0.021251656 0.019996259 0.0072863009 4280849729
0.023707509 0.017750137 0.0091964714 4280980543
0.026554614 0.013981011 0.012444945 4281306434
0.029619008 0.0094508063 0.016361458 4281761609
0.032715783 0.0049214028 0.020276316 4282348363
0.036040694 -0.00036879163 0.024858624 4282413133
-0.0070187524 0.0056163669 0.018476559 4279471708
-0.0054945797 0.0079495255 0.016363321 4279408469
-0.0038429424 0.0095176343 0.01492122 4279541323
-0.0020556599 0.010320934 0.014149813 4280456008
-0.0002740398 0.011124263 0.013378734 4280263739
0.0011976585 0.013456726 0.011268582 4279807288
0.002497904 0.016553568 0.0084897429 4279741244
0.0037762001 0.019650057 0.0057121217 4280719934
0.0053531677 0.021217253 0.0042743636 4280264249
0.0072451308 0.021255564 0.0041755969 4279091248
0.0091368854 0.021293972 0.0040769195 4279481908
0.010859951 0.022096775 0.0033093859 4280198968
0.012406141 0.023663722 0.0018735128 4279417648
0.014289111 0.023702193 0.0017754706 4279417649
0.016701832 0.021448396 0.003682931 4280851004
0.018951267 0.019959092 0.0049212482 4280785979
0.021393463 0.017706046 0.0068272855 4280916283
0.024221398 0.013925549 0.010068623 4280458049
0.027076274 0.010145674 0.013308616 4281499979
0.030148387 0.0056026224 0.017215027 4282282829
0.033252895 0.0010602381 0.021119829 4282413388
0.036389761 -0.0034813369 0.02502298 4282477904
-0.0055339187 0.0063949768 0.01521509 4279146838
-0.0038822964 0.0079674795 0.013776245 4280194124
-0.0023884103 0.010306809 0.01166961 4280455499
-0.00046291947 0.010345329 0.011568747 4280390473
0.0011582002 0.01191753 0.010131726 4280717128
0.0027682185 0.013489628 0.0086953007 4281043274
0.0038945153 0.017361643 0.0052560158 4280716618
0.005313918 0.019699913 0.0031536734 4280848198
0.0068797916 0.021271426 0.0017197849 4280329784
0.010652006 0.021348096 0.0015230784 4278765613
0.01442337 0.021425124 0.0013266904 4280327744
0.016838543 0.019164827 0.0032291757 4281372734
0.019449137 0.016138736 0.0057976115 4281763393
0.022081256 0.013113147 0.0083649699 4281635894
0.024734914 0.010088122 0.010931225 4282352954
0.027597584 0.0062974896 0.014162799 4282873663
0.030677401 0.0017414922 0.01805911 4282740553
0.03378962 -0.002813736 0.02195381 4282739534
-0.0058555678 0.0063790884 0.012732906 4279276124
-0.0039216727 0.0064175911 0.012631467 4279671119
-0.0024277344 0.0087634698 0.010529676 4279867469
-0.00065168738 0.0095710363 0.0097621847 4280194634
0.0012707785 0.0096096098 0.0096615646 4280325959
0.0028835237 0.011186095 0.0082282778 4280716363
0.0043276772 0.013531389 0.0061293989 4280586314
0.0057553202 0.015876425 0.0040314402 4279871549
0.0071664155 0.018221168 0.0019344455 4280915773
0.0087266415 0.019797031 0.00050415192 4280783938
0.010444164 0.020604067 -0.00025979895 4280522053
0.012498222 0.019873902 0.00030763913 4280652614
0.014731355 0.01837535 0.0015402818 4280913479
0.017328225 0.015340175 0.0041029127 4280000323
0.020305172 0.010768682 0.0079946592 4282223669
0.022950567 0.0077346601 0.010554884 4282353974
0.025432788 0.0054695103 0.012449194 4282746164
0.027931102 0.0032047145 0.014342764 4282745399
0.030635662 0.00017214101 0.016900087 4283136569
0.03374742 -0.0043961629 0.020785134 4283002949
-0.0039610416 0.0048679523 0.011486875 4279341914
-0.002320528 0.0064491425 0.010055134 4279800659
-0.00054182857 0.0072589479 0.0092891213 4279998029
0.0012312457 0.0080687366 0.0085234735 4280585549
0.0029986948 0.0088785086 0.0077581927 4280977993
0.0047605038 0.0096882749 0.0069932844 4280847943
0.0061963499 0.012040025 0.0048997412 4281439289
0.0074528009 0.015162485 0.0021428149 4281766964
0.0090184733 0.016742768 0.0007155044 4281437248
0.010741383 0.017552165 -4.7137961e-05 4281567553
0.013142809 0.015278365 0.0018462744 4281893699
0.015560366 0.013004972 0.0037389034 4281634618
0.018170498 0.0099613611 0.0062943995 4281833008
0.020622984 0.0076888893 0.0081852879 4282290224
0.023091562 0.0054168012 0.010075454 4282681139
0.025391601 0.0039156694 0.011301614 4282942003
0.027702317 0.002414763 0.012527298 4283268148
0.030213721 0.00014384184 0.014415378 4284181559
-0.0023599267 0.0049041416 0.0089139771 4279797089
-0.00043207407 0.0049427506 0.0088130217 4280060504
0.0014955848 0.0049814675 0.0087121595 4280715089
0.0029590949 0.0073401015 0.0066219289 4281109573
0.0048782229 0.0073788203 0.0065216441 4281241664
0.0064769536 0.0089640114 0.00509567 4281701429
0.0079017654 0.011322152 0.0030076746 4281702704
0.0093100592 0.013680093 0.00092056673 4280854829
0.011206634 0.013718721 0.00082172733 4281504314
0.013615951 0.011438558 0.0027098982 4281702703
0.016041376 0.0091588479 0.0045972485 4282355503
0.018659353 0.006106656 0.007145863 4282617388
0.021119729 0.0038277972 0.0090315696 4282812464
0.023596197 0.0015493343 0.010916485 4282876213
0.025535025 0.0015893495 0.010815835 4283401003
0.027660914 0.00085679628 0.011376679 4283988524
-0.00032244623 0.0026224181 0.0083339456 4280188769
0.0016078129 0.0026611909 0.0082329493 4280715599
0.0032286867 0.004251007 0.0068089124 4281241409
0.0048384964 0.005840661 0.0053855721 4281634363
0.0064372271 0.0074302275 0.003962839 4281570358
0.007862106 0.0097949188 0.0018796893 4281831733
0.0097669289 0.0098336339 0.00178036 4281896504
0.011839733 0.0090972632 0.0023419447 4281962549
0.014601506 0.0052605234 0.0055460911 4282093873
0.016695708 0.0045247469 0.0061066784 4283269934
0.018971495 0.0030141044 0.0073275007 4283334959
0.021078847 0.0022787787 0.0078875367 4283399984
0.023373231 0.00076874066 0.0091074836 4283856688
0.025493771 3.379304e-05 0.0096669886 4284250409
0.0017199218 0.00033682957 0.0077506471 4283593783
0.0033435151 0.0019310778 0.0063297097 4282811443
0.0047987774 0.004302742 0.0042496817 4282222393
0.0063974783 0.0058966912 0.0028301943 4281831733
0.0079851225 0.0074904431 0.0014113775 4281831223
0.009892568 0.0075292308 0.0013119252 4282419508
0.012136087 0.0060133636 0.0025309753 4282810679
0.014561176 0.0037204605 0.0044086538 4283008304
0.016655192 0.002982514 0.0049676457 4284052529
0.018930763 0.0014674943 0.0061852429 4284117298
0.021575063 -0.0016014753 0.0087196659 4284509999
0.005073458 0.001205557 0.0044303322 4282746163
0.0068375468 0.0020242063 0.0036718464 4282354739
0.0082707033 0.004402196 0.001597913 4281637169
0.010183454 0.0044410992 0.0014981916 4282158643
0.012264132 0.0037004855 0.0020561805 4282287418
0.014691658 0.0014011217 0.0039288374 4282811954
0.01661469 0.0014405111 0.0038287817 4284250154
0.019066289 -0.00085823424 0.0057003554 4284576043
0.0071173981 -0.0010791868 0.0038475534 4284639793
0.0087186545 0.00052357372 0.002434493 4282746163
0.010474145 0.0013444414 0.0016782284 4282549559
0.012392044 0.0013835216 0.0015782909 4282875704
0.014651246 -0.00014064368 0.0027901446 4283988269
0.009166263 -0.0033678832 0.003261596 4283660848
0.010929845 -0.0025446564 0.0025064601 4283072309
0.012687817 -0.0017214818 0.0017517367 4283661614
0.014952257 -0.0032499461 0.0029601278 4284576553
-0.0066496208 0.0052687488 0.036884874 4278735524
-0.0053543001 0.0090559497 0.033371445 4278605219
-0.010539062 0.0028427467 0.036596201 4279192229
-0.0076425672 0.0089356769 0.030944135 4278604964
-0.014314499 -0.00034145825 0.036984645 4279587733
-0.01295549 0.0034684446 0.033483744 4279062179
-0.017087117 0.0025565196 0.03184022 4279391129
-0.015230026 0.0033515617 0.031057939 4278537898
-0.01350639 0.0049029235 0.029598601 4278340529
-0.011663251 0.0056978744 0.028817259 4279389089
-0.0098257363 0.006492842 0.028036311 4280043929
-0.0082659125 0.0088002253 0.025901597 4278739349
-0.02109091 0.00089110807 0.030876301 4280700554
-0.019467384 0.0032056123 0.028742574 4278800548
-0.017738018 0.0047612451 0.027286015 4278603944
-0.015769571 0.0047996081 0.027182151 4278603434
-0.011963669 0.0056351572 0.02629891 4278598333
-0.010131679 0.0064322073 0.02551987 4279123634
-0.024983332 -0.0015346501 0.030588008 4282668134
-0.023682762 0.0030695423 0.026433051 4278535348
-0.018266104 0.0062273089 0.023422725 4278669734
-0.016183682 0.005504692 0.023993842 4278669479
-0.027441658 -0.00010979082 0.026823916 4279390364
-0.025801338 0.0022178441 0.024698779 4278996133
-0.018549297 0.0061851088 0.020918399 4278602924
-0.016347535 0.0046971962 0.022161026 4278735013
-0.014645815 0.0062613208 0.02071254 4278341549
-0.012824722 0.0070624426 0.019937249 4278276014
-0.010876104 0.0071007647 0.019834684 4278539174
-0.031428702 -0.0017664144 0.025865376 4282470508
-0.029983412 0.0020988723 0.022399671 4279062688
-0.028348409 0.004432844 0.02027959 4278603688
-0.02455781 0.0052733161 0.019401094 4279323808
-0.022725157 0.0060762838 0.018626394 4279258274
-0.020898104 0.0068792831 0.017852092 4278995114
-0.01883227 0.0061518792 0.018420784 4278602413
-0.016761124 0.0054246765 0.018989267 4278866084
-0.015067603 0.0069930051 0.017544514 4278603943
-0.013124418 0.0070311222 0.017442165 4278735268
-0.011048295 0.0063043684 0.018010644 4278411929
-0.033942711 0.00045419391 0.021448113 4281422458
-0.032394145 0.0035625361 0.018661108 4278997409
-0.030550197 0.004367454 0.017887091 4278604454
-0.02882031 0.0059400816 0.016443005 4278668458
-0.023113422 0.0068197846 0.015464792 4279519139
-0.021175228 0.0068573821 0.015362391 4278336703
-0.017174404 0.0061655659 0.015827412 4278865574
-0.015233919 0.0062035266 0.015725128 4278538918
-0.01316328 0.0054743495 0.016292257 4278735779
-0.037901826 -0.0011897264 0.020497104 4282470763
-0.036623809 0.0042376723 0.015707009 4278797233
-0.033152666 0.0073912162 0.01282428 4278863024
-0.030905005 0.0051184017 0.014728757 4279062433
-0.028966442 0.0051555391 0.014625991 4278604453
-0.023501378 0.0075766947 0.012313096 4278402240
-0.019397598 0.0061124917 0.01344547 4278275249
-0.017462552 0.0061502736 0.013343418 4278669479
-0.01565519 0.0069575924 0.012573639 4278538918
-0.013723169 0.0069955122 0.012471894 4278669988
-0.011658326 0.0062641967 0.013037754 4278669224
-0.0097239092 0.0063023828 0.012936046 4278670754
-0.040175978 -0.00047906861 0.017437907 4279521179
-0.038507696 0.0018745298 0.015330188 4279127713
-0.031259503 0.005882727 0.011580298 4278470323
-0.029220868 0.0051476508 0.012145212 4278473129
-0.027288023 0.005184805 0.012042845 4278669988
-0.025469158 0.0059940051 0.011273613 4278735015
-0.023655858 0.0068031922 0.010504816 4278735015
-0.021728847 0.0068405885 0.01040302 4278996133
-0.019557927 0.0053345487 0.011634296 4278538409
-0.017501 0.0046005882 0.012198733 4278669733
-0.01569372 0.0054101013 0.01143058 4278472874
-0.010034196 0.0062957387 0.01045987 4279192739
-0.0079671368 0.0055624656 0.011024207 4279066258
-0.042343978 -0.00052919425 0.015054438 4279390619
-0.040764876 0.0026054345 0.012284836 4278800293
-0.03728262 0.0057761818 0.009414101 4279192739
-0.035457831 0.0065870713 0.0086457934 4278668969
-0.031508062 0.0058861282 0.0091074873 4278668203
-0.02936675 0.0043746363 0.010336641 4278603944
-0.027325705 0.0036375541 0.010899909 4278669478
-0.025393132 0.0036748257 0.010797644 4278407084
-0.023577202 0.0044862982 0.01003029 4278472619
-0.021766853 0.0052977074 0.0092633385 4278734503
-0.019840125 0.0053352192 0.0091616474 4278603689
-0.017913528 0.0053728241 0.0090600345 4278406318
-0.012400396 0.0070337709 0.0074271951 4278467773
-0.0084211752 0.0063361432 0.0078893639 4278733993
-0.04406824 -0.004453904 0.01600278 4280175509
-0.042559125 -0.00053356867 0.012573548 4279324573
-0.040985428 0.0026096692 0.009810688 4278538409
-0.037514169 0.0057889093 0.006947048 4278274484
-0.035694931 0.0066019017 0.0061805975 4278864299
-0.029729098 0.0051589664 0.0072035994 4278669223
-0.027474407 0.0028669331 0.0090932976 4278735014
-0.025658444 0.0036804322 0.0083275177 4278604199
-0.023731578 0.0037177186 0.0082256496 4278538153
-0.02216243 0.0060836021 0.0061336868 4278734503
-0.020244017 0.0061209667 0.0060324445 4278603689
-0.018201102 0.0053823628 0.0065943841 4278537134
-0.016407609 0.0061959866 0.0058302041 4278471088
-0.014619723 0.0070096552 0.0050663603 4279389854
-0.012837421 0.0078232754 0.0043029273 4279913369
-0.010789655 0.0070852228 0.0048649507 4278995369
-0.0085983425 0.0055715442 0.0060891993 4279127204
-0.0065372884 0.0048339553 0.0066506732 4278734504
-0.0044709444 0.0040965956 0.007211959 4279129754
-0.044191398 -0.0052391156 0.014183728 4279717529
-0.042774063 -0.0005290173 0.010099327 4279390109
-0.04111388 0.0018439963 0.0080064554 4279783318
-0.039375532 0.0034379754 0.0065776799 4278603944
-0.035931826 0.0066257082 0.0037221061 4278272188
-0.031899057 0.0051413961 0.0048442921 4278668969
-0.029982895 0.00517812 0.0047427276 4278735014
-0.027955879 0.0044364203 0.0053035151 4278538409
-0.026150919 0.0052519385 0.004539893 4278538409
-0.024235103 0.0052890293 0.0044386238 4278735268
-0.022557698 0.0068828929 0.0030138595 4278604199
-0.020647597 0.0069200862 0.0029130485 4278472874
-0.018613055 0.0061791521 0.0034738248 4278602923
-0.01478811 0.0062541962 0.0032723714 4278598588
-0.013141368 0.0078480318 0.0018496457 4279386284
-0.0067172498 0.0040717609 0.0048524775 4279061669
-0.0047974735 0.0041100141 0.0047517996 4279521689
-0.0025851205 0.0025927424 0.005971903 4279259294
-0.00036203861 0.0010757707 0.0071915817 4282534769
-0.044141702 -0.0075819693 0.013691932 4279849108
-0.042632382 -0.0036398293 0.010278825 4279324319
-0.041058581 -0.00047912356 0.0075288881 4279062433
-0.039506663 0.0026812535 0.0047802515 4278604708
-0.037879366 0.0050604455 0.0026941653 4279062688
-0.035968494 0.0050967056 0.0025926111 4279127203
-0.034057721 0.0051331203 0.0024911799 4279061923
-0.032041591 0.0043888278 0.0030507073 4278603944
-0.030236483 0.0052062422 0.0022885529 4278538154
-0.028436933 0.0060236789 0.001526786 4278407084
-0.023190808 0.009256592 -0.0014164485 4278340018
-0.020929042 0.0069520455 0.00046358816 4278735015
-0.018900137 0.0062088333 0.0010230551 4278735014
-0.014956381 0.005503362 0.0014818013 4278270659
-0.013179693 0.0063212663 0.00072191656 4278401728
-0.0088142082 0.0032760743 0.0031582937 4278930344
-0.0066153631 0.0017539738 0.0043757288 4279258528
-0.0045494065 0.0010122573 0.0049338164 4278405299
-0.044264749 -0.0083622653 0.011876509 4280438669
-0.042669009 -0.0051925583 0.0091317613 4279127459
-0.041003373 -0.0028063897 0.0070483331 4279127968
-0.039448682 0.0003628144 0.0043059727 4278866084
-0.037818655 0.0027485853 0.0022245701 4278867104
-0.035905212 0.0027849162 0.0021228967 4278931108
-0.034094535 0.0036043804 0.0013618879 4278472618
-0.032184009 0.0036408994 0.0012605479 4278668969
-0.030381728 0.0044604428 0.00050016027 4278603434
-0.021210268 0.0069930442 -0.0019792737 4278931109
-0.019311488 0.0070301425 -0.0020793937 4278669479
-0.017158434 0.0055022091 -0.00086312369 4278735014
-0.015124548 0.0047571454 -0.00030536298 4278734760
-0.013218015 0.004794728 -0.00040564407 4278735013
-0.011176258 0.0040500052 0.0001518447 4279586714
-0.0089911148 0.0025232052 0.0013667215 4280110229
-0.0067952275 0.00099665765 0.0025811372 4282003348
-0.044387691 -0.0091379154 0.01006452 4279848854
-0.042616628 -0.0075305002 0.0086434931 4278668714
-0.040856548 -0.0059231138 0.0072231106 4279456154
-0.039296348 -0.0027450891 0.0044869101 4279063708
-0.03766086 -0.00035271607 0.0024101026 4278866848
-0.035941929 0.0012542726 0.00099218916 4279259294
-0.034233976 0.0028611291 -0.00042500999 4278735268
-0.032326333 0.0028975829 -0.00052620377 4278930089
-0.030526862 0.0037192553 -0.0012848238 4278602669
-0.028732952 0.0045409855 -0.0020431057 4278799528
-0.027285188 0.0077177025 -0.0047727218 4278603434
-0.025394328 0.007754324 -0.004872662 4278538409
-0.023503598 0.0077910274 -0.0049725324 4278668204
-0.021369591 0.0062581562 -0.0037586405 4278668459
-0.019598082 0.0070799664 -0.0045152828 4278537898
-0.01732358 0.0047628935 -0.0026454534 4278472364
-0.015292604 0.0040155351 -0.0020891167 4278734760
-0.01312374 0.0024838233 -0.00087678432 4279062689
-0.011214763 0.0025215698 -0.00097710826 4278403769
-0.046373285 -0.010732996 0.0090170577 4282733158
-0.044510536 -0.0099089257 0.0082559586 4279783573
-0.042653296 -0.0090848478 0.0074952357 4279062179
-0.040893272 -0.0074730888 0.0060780924 4279587224
-0.039238624 -0.0050738812 0.0040049832 4279521689
-0.037600406 -0.0026749307 0.0019328613 4279456153
-0.035878785 -0.0010635341 0.00051803235 4278669224
-0.034270734 0.0013351198 -0.0015522838 4279127968
-0.032468535 0.0021589026 -0.0023095272 4278995880
-0.030671887 0.0029827431 -0.0030664308 4278799528
-0.027095269 0.0046303757 -0.004579003 4278275759
-0.025431495 0.0062413644 -0.0059902463 4279062944
-0.023540907 0.0062780902 -0.0060900925 4278406318
-0.019760102 0.0063518584 -0.006289524 4278996643
-0.01748861 0.0040281322 -0.0044243434 4278603434
-0.015460555 0.0032785907 -0.0038695037 4278734759
-0.044460922 -0.012255075 0.0077617262 4279587733
-0.042689964 -0.01063893 0.006347172 4279259803
-0.040929992 -0.0090228245 0.0049332511 4279850129
-0.039180994 -0.007406842 0.0035200501 4279915408
-0.037442978 -0.0057909009 0.0021074833 4279522199
-0.035715953 -0.004175107 0.00069562066 4279325849
-0.034102444 -0.0017697811 -0.0013701953 4278931874
-0.032610636 0.0014248714 -0.004089491 4279062689
-0.030924775 0.0030402448 -0.0054989005 4279323808
-0.021566279 0.0040129777 -0.0066536046 4278602413
-0.019673355 0.0040499605 -0.0067534167 4279127203
-0.017399441 0.0017197952 -0.0048932387 4279193504
-0.044497527 -0.013813253 0.0066106264 4281554548
-0.04263778 -0.012984757 0.0058530048 4279456663
-0.040875129 -0.011364243 0.0044421675 4279915918
-0.039217751 -0.0089519555 0.0023786332 4280177294
-0.03738277 -0.008123517 0.0016225586 4279849618
-0.035553325 -0.007295093 0.00086691976 4279521943
-0.033934351 -0.0048831655 -0.0011943011 4279391384
-0.032437034 -0.0016797073 -0.0039074481 4278800803
-0.030853692 0.00073182769 -0.0059666415 4278996643
-0.029176146 0.0023515197 -0.0073722941 4278932638
-0.027396251 0.0031796359 -0.0081249066 4278801313
-0.025854092 0.0055906754 -0.010181624 4278865319
-0.023853131 0.0048357882 -0.009628919 4279127458
-0.021725312 0.0032897741 -0.0084244162 4279586459
-0.019462459 0.00095269363 -0.0065685408 4279257509
-0.017437372 0.00019862968 -0.0060168481 4281677714
-0.044878405 -0.012194218 0.0028506927 4282405739
-0.04294087 -0.012157926 0.0027473709 4281684854
-0.041003413 -0.012121505 0.0026441514 4280439689
-0.039160267 -0.011290885 0.0018892176 4279980688
-0.037419632 -0.0096662007 0.00048294663 4279980179
-0.035490595 -0.0096295569 0.00038045645 4279914388
-0.033971306 -0.0064171543 -0.0023274692 4279783573
-0.03226364 -0.0047927098 -0.0037317025 4278997153
-0.0307827 -0.0015807264 -0.0064374371 4278603943
-0.029102474 4.3374486e-05 -0.0078400066 4278473128
-0.02754657 0.0024611391 -0.009892744 4279128478
-0.025775038 0.0032913461 -0.01064317 4279194014
-0.023652792 0.0017407294 -0.0094416998 4279259039
-0.041223045 -0.012077855 0.00019919127 4282471274
-0.039385464 -0.011245131 -0.00055388547 4279914898
-0.037456483 -0.011208632 -0.00065647811 4280045713
-0.035627238 -0.010375852 -0.0014088787 4280111249
-0.033803523 -0.0095430622 -0.0021609012 4279783574
-0.032090444 -0.0079142079 -0.003562158 4279521434
-0.03049618 -0.0054894248 -0.005612276 4278800803
-0.028918367 -0.0030648019 -0.0076614073 4279063198
-0.02735699 -0.00064044725 -0.0097095584 4278866593
-0.025580108 0.0001920592 -0.010458718 4278930854
-0.023452658 -0.0013628388 -0.0092606908 4282201739
-0.037687052 -0.011154073 -0.0030926275 4281027974
-0.035763767 -0.011117544 -0.0031948155 4280896904
-0.033942882 -0.010282637 -0.0039450796 4280045458
-0.032022499 -0.010245943 -0.0040469514 4279587223
-0.030425504 -0.007814547 -0.006092357 4279390364
-0.028623972 -0.0069796615 -0.0068413359 4279653268
-0.027054425 -0.0045485739 -0.0088851266 4279783828
-0.0378206 -0.011891089 -0.0048753023 4282405738
-0.03590019 -0.011854636 -0.0049773529 4281093508
-0.034082122 -0.011017598 -0.0057258504 4280241808
-0.032164615 -0.010980944 -0.0058275582 4278866338
-0.03035491 -0.010143804 -0.0065754922 4279849363
-0.028440319 -0.010106975 -0.0066768741 4279456408
-0.026639 -0.0092697935 -0.0074241394 4280111504
-0.024959095 -0.0076324143 -0.0088168569 4280830348
-0.034221254 -0.011747934 -0.0075032795 4279848599
-0.032306615 -0.011711343 -0.0076048407 4279521433
-0.03060738 -0.010069597 -0.0089956224 4279652249
-0.028588008 -0.010835355 -0.008452205 4279456153
-0.026676394 -0.010798471 -0.0085533457 4280242319
-0.024649054 -0.011563849 -0.0080101816 4281615239
-0.036073253 -0.014119912 -0.0078887828 4282077809
