# .PCD v0.7 - Point Cloud Data file format
VERSION 0.7
FIELDS x y z rgba
SIZE 4 4 4 4
TYPE F F F U
COUNT 1 1 1 1
WIDTH 958
HEIGHT 1
VIEWPOINT 0 0 0 1 0 0 0
POINTS 958
DATA ascii
-0.0095074661 0.0027847588 0.027518582 4288622639
-0.030745011 -0.0022976445 0.030169334 4289929514
-0.028971799 -0.00071323756 0.028731365 4290322724
-0.027106408 9.7835436e-05 0.02796012 4289407529
-0.025034714 -0.00063761044 0.028521255 4289474594
-0.023066349 -0.00059960689 0.028416354 4289343524
-0.020986725 -0.0013346011 0.028977215 4289670434
-0.01924409 0.00024984591 0.027541267 4290978838
-0.017746121 0.0033802288 0.024775254 4289866529
-0.015911445 0.0041913828 0.024006223 4289931808
-0.013715524 0.0026837867 0.025232872 4290389789
-0.011508852 0.0011765864 0.026459014 4290324253
-0.0096746013 0.0019880813 0.025690263 4289669924
-0.036705568 -0.0039881086 0.029316418 4287836984
-0.034915768 -0.0023994306 0.027880497 4289472299
-0.033136964 -0.00081075681 0.026445245 4288426799
-0.031173777 -0.00077335117 0.02634025 4290389279
-0.029311106 3.9704144e-05 0.025570739 4290455324
-0.027247697 -0.00069815107 0.026130572 4290782233
-0.025284819 -0.00066036545 0.026025878 4290128414
-0.023104861 -0.0021732012 0.027249712 4289997343
-0.021025438 -0.0029103747 0.02780897 4289604899
-0.019282844 -0.001321563 0.026376268 4289997343
-0.017784812 0.0018175431 0.023616727 4290716698
-0.016069718 0.0034060031 0.022185704 4290978328
-0.01412122 0.0034442227 0.022082306 4290716698
-0.011673063 0.00038239174 0.024632344 4290193693
-0.0098416358 0.0011960119 0.023865364 4290193694
-0.0081462003 0.0027846005 0.022435689 4289211943
-0.038977496 -0.0032691876 0.026261235 4286985794
-0.037279855 -0.00089841662 0.024165019 4289212198
-0.03541429 -8.3478168e-05 0.023396637 4289408039
-0.033459343 -4.6340749e-05 0.023292001 4289015848
-0.031602126 0.00076866709 0.022524308 4288950569
-0.029549733 2.8304756e-05 0.023083022 4289015848
-0.027595077 6.583333e-05 0.022978695 4290062878
-0.025534708 -0.00067417044 0.023537211 4289604898
-0.023469001 -0.0014138981 0.024095496 4290193694
-0.021397959 -0.002153411 0.02465358 4289932319
-0.019549582 -0.0013378463 0.023886899 4289801248
-0.017823488 0.00025513023 0.022458408 4289801249
-0.016108438 0.0018479694 0.021030637 4289604898
-0.014160085 0.0018861871 0.020927247 4289931553
-0.011962086 0.00037011132 0.02214738 4289866274
-0.01000857 0.00040866062 0.022043889 4290062623
-0.0083158873 0.0020015035 0.020617634 4289473573
-0.0067673177 0.0043713329 0.018530732 4287835708
-0.037406489 -0.0016826452 0.022343142 4288688938
-0.035635881 -8.5601583e-05 0.020914737 4289670689
-0.033876259 0.0015113754 0.019487025 4290651673
-0.032030057 0.0023283968 0.0187215 4290128414
-0.029988766 0.0015856093 0.019279238 4289735969
-0.027839091 6.3283369e-05 0.020497994 4290062878
-0.025784384 -0.00067893974 0.021055169 4290913559
-0.023724332 -0.0014209566 0.021612134 4289866784
-0.021770161 -0.0013830909 0.02150809 4290128668
-0.01993005 -0.0005654972 0.020743478 4289997854
-0.017978843 -0.00052744523 0.020639773 4289932064
-0.016027775 -0.00048930012 0.020536149 4289735714
-0.01407684 -0.00045102462 0.020432629 4290128159
-0.012001209 -0.0011920221 0.020989299 4290062623
-0.010175392 -0.00037414767 0.02022586 4289931553
-0.0084854662 0.0012230137 0.018803 4291044119
-0.0068065748 0.0028201072 0.017380763 4290520603
-0.0050030276 0.003637881 0.016618757 4289146153
-0.039051943 -0.0064106467 0.023932036 4286201668
-0.037354302 -0.004026813 0.021845531 4288034099
-0.035765186 -0.0008609267 0.019099727 4289604644
-0.03400835 0.00074040052 0.017675363 4289997599
-0.032262493 0.0023415918 0.016251717 4290782488
-0.030026346 3.2442622e-05 0.01812771 4291044374
-0.027979918 -0.00071222614 0.018683627 4291044374
-0.025822423 -0.002238648 0.019898813 4290390043
-0.02408788 -0.00063718017 0.018476136 4289801504
-0.02214203 -0.00059946161 0.018372545 4289867038
-0.020196307 -0.00056162756 0.018269051 4290063389
-0.018134087 -0.0013054144 0.018824555 4289997854
-0.016066547 -0.002048986 0.019379862 4289866528
-0.014115762 -0.0020107012 0.019276358 4290062879
-0.012165107 -0.0019723121 0.01917294 4290062623
-0.010469612 -0.00037080329 0.017752934 4290258718
-0.0087851658 0.0012306487 0.016333558 4290259483
-0.0069788024 0.0020505665 0.015572954 4290259228
-0.0051780418 0.0028704675 0.014812717 4290324509
-0.038829423 -0.010334446 0.024744483 4286398274
-0.037212919 -0.0071594561 0.022003595 4287380023
-0.035710327 -0.0032003587 0.018605379 4288885034
-0.034140322 -2.5988556e-05 0.015867174 4289604643
-0.03239724 0.001579484 0.014446896 4289604898
-0.030264344 4.8027374e-05 0.015660003 4290520859
-0.028120626 -0.0014831387 0.016872671 4289735714
-0.026177432 -0.001445733 0.016769029 4289670178
-0.024342738 -0.00062408671 0.016007718 4289801249
-0.022513587 0.00019751955 0.015246827 4289801504
-0.020462357 -0.00054875948 0.015801221 4289801759
-0.018405776 -0.0012948709 0.016355455 4289474339
-0.016343892 -0.0020406973 0.016909465 4289997599
-0.01439869 -0.0020025363 0.016806249 4290259228
-0.012453631 -0.0019642599 0.016703129 4290913558
-0.010891072 0.00042524841 0.014629899 4290455579
-0.0092148148 0.0020308495 0.013214234 4288950824
-0.0072838068 0.0020691985 0.013112117 4289212453
-0.0052173138 0.0013241107 0.013666365 4289736224
-0.0032838956 0.0013627307 0.013564285 4289670435
-0.0014917031 0.0021848483 0.012806274 4289015593
-0.038866796 -0.011911009 0.023575559 4286528833
-0.037160989 -0.0095139174 0.021498276 4287053114
-0.035563592 -0.0063304417 0.018764984 4287707953
-0.034082782 -0.0023607663 0.015376102 4288819753
-0.032337029 -0.00075086765 0.013958931 4290062623
-0.030301813 -0.001500234 0.014512114 4289997089
-0.028364114 -0.0014630463 0.014408682 4289866529
-0.026426524 -0.0014257282 0.014305353 4290062623
-0.024814025 0.00097046793 0.012233716 4289604898
-0.02288482 0.0010078494 0.012131002 4291044374
-0.020841952 0.00025919452 0.012684273 4290848023
-0.018677257 -0.0012752805 0.013892988 4290193949
-0.016740251 -0.0012373868 0.013790127 4289801504
-0.014803365 -0.0011993647 0.013687368 4290128413
-0.012866613 -0.0011612605 0.013584681 4290128413
-0.0111848 0.00044871122 0.012171887 4290848023
-0.0093839057 0.0012727901 0.011414669 4290913814
-0.0074557513 0.0013110861 0.011312706 4290914069
-0.0053921714 0.000563737 0.011865547 4290782999
-0.0031850189 -0.00096901972 0.013072666 4290521368
-0.0013901889 -0.00014465488 0.012316147 4289670433
-0.03890416 -0.013487298 0.022406839 4286921278
-0.037109155 -0.011872496 0.020989979 4287053113
-0.03550899 -0.0086802617 0.018263008 4287249718
-0.034120001 -0.0039109248 0.014226787 4288689448
-0.032569047 -0.00071939453 0.011502624 4289604643
-0.030639581 -0.00068247318 0.011399549 4289735458
-0.028607387 -0.0014339895 0.011951417 4289866529
-0.026780948 -0.00060826726 0.011193693 4289997089
-0.025068332 0.0010058219 0.0097818747 4290324254
-0.023144729 0.0010431157 0.0096794739 4291174679
-0.021221247 0.0010805149 0.0095771607 4291240468
-0.019064967 -0.00045847706 0.010783089 4291044374
-0.017017096 -0.0012089801 0.011334648 4290324764
-0.014963903 -0.0019592335 0.011885958 4289866784
-0.013030022 -0.0019211564 0.011783443 4289932319
-0.011350967 -0.00030685589 0.01037398 4290455578
-0.0094228052 -0.00026867911 0.010271925 4290848023
-0.0074947886 -0.00023038499 0.010169972 4291306259
-0.0054313987 -0.00097991666 0.010721203 4290521114
-0.0033627227 -0.0017291969 0.011272188 4289997599
-0.0015706718 -0.000902717 0.010517428 4289801504
-7.160008e-05 0.001499217 0.0084577259 4289539109
0.0014109686 0.0039009405 0.0063989819 4288949039
-0.03920079 -0.012690272 0.019276083 4286463043
-0.037235726 -0.012653167 0.019170739 4287052859
-0.035454478 -0.011034138 0.01775795 4287707443
-0.033873413 -0.0078334427 0.015038557 4287969583
-0.032411549 -0.0038422393 0.011666954 4288035119
-0.030776937 -0.0014329427 0.0096035544 4289147429
-0.028953217 -0.00060526095 0.0088475458 4289539364
-0.027135044 0.00022244174 0.0080919266 4290389788
-0.025214199 0.00025954284 0.0079895686 4289473573
-0.023404412 0.001087321 0.0072345748 4289408549
-0.021486517 0.0011246093 0.0071325558 4289408549
-0.019452348 0.00037159864 0.0076831044 4290258718
-0.017293725 -0.0011715856 0.008885758 4290063134
-0.015246183 -0.0019241166 0.0094357561 4289866784
-0.013567016 -0.00030562747 0.0080294721 4289997598
-0.011389717 -0.0018480946 0.009231396 4289867038
-0.0094616972 -0.0018099206 0.009129351 4289670433
-0.0074010752 -0.0025617732 0.0096790455 4289735969
-0.0054706186 -0.0025233403 0.0095770285 4289997598
-0.0035403073 -0.0024847891 0.0094751082 4289932063
-0.0018919706 -0.00086619565 0.0080709103 4289931808
-0.0002546683 0.00075222366 0.0066674058 4289408549
0.0012252182 0.0031604161 0.0046136514 4288950314
-0.039237991 -0.0142595 0.0181126 4286463299
-0.037183981 -0.015015587 0.018659594 4287052859
-0.035400067 -0.013392108 0.017249858 4287772979
-0.033816222 -0.010182642 0.014536794 4287512114
-0.032254264 -0.0069735092 0.011824964 4287642929
-0.030814182 -0.0029717139 0.0084627029 4288231213
-0.029093277 -0.0013489714 0.0070567555 4289212453
-0.027383383 0.00027370639 0.0056514298 4289997599
-0.025468141 0.00031071901 0.0055493847 4290455068
-0.02377478 0.0019332664 0.0041451552 4289800993
-0.021865204 0.0019703917 0.0040435786 4289866273
-0.019723058 0.00042242557 0.0052437955 4290389533
-0.017570127 -0.0011252761 0.0064435522 4290520859
-0.015528228 -0.0018800851 0.0069922409 4289670433
-0.013730027 -0.0010497989 0.0062398934 4289736223
-0.011555705 -0.0025966731 0.007438744 4289343523
-0.0095005929 -0.003350887 0.0079869796 4289147429
-0.0074401535 -0.0041049449 0.008535048 4289539619
-0.005509831 -0.0040664887 0.008433057 4289997598
-0.0038559064 -0.0024435609 0.0070317029 4289866784
-0.0020721853 -0.0016128886 0.006280622 4290127903
-0.0004376322 9.8254532e-06 0.0048804912 4290913304
0.0011858717 0.0016324818 0.0034809946 4290782233
0.0026493445 0.0040469011 0.0014330507 4288948784
-0.037310436 -0.015791388 0.016843963 4287640634
-0.035437532 -0.014958912 0.016088191 4287837494
-0.03366464 -0.013331204 0.014682416 4287053113
-0.031999957 -0.010908401 0.012627019 4287249719
-0.03055159 -0.0068955715 0.0092723966 4287511604
-0.029027898 -0.0036782129 0.0065692659 4288362029
-0.027420703 -0.0012561413 0.004517213 4289408549
-0.025721841 0.00037076231 0.0031158491 4290258718
-0.023923136 0.0012026625 0.0023646653 4290847513
-0.022129986 0.0020345813 0.0016138717 4290978328
-0.019877248 -0.00031263847 0.0034603854 4290847513
-0.017965328 -0.00027523097 0.0033588591 4289931553
-0.015931789 -0.0010323911 0.0039063664 4289604899
-0.01414185 -0.00020007696 0.003156085 4289735969
-0.011975933 -0.0017515272 0.0043521775 4289212453
-0.0097992755 -0.0033026077 0.0055477447 4289474339
-0.0077444836 -0.0040588952 0.0060944627 4289474339
-0.0058197305 -0.0040205768 0.0059927464 4290324764
-0.0043093488 -0.0015990706 0.0039468957 4290324764
-0.0028154477 0.00082223397 0.0019019367 4289931809
-0.00090749562 0.00086053833 0.0018013464 4290716953
0.00085408241 0.0016931351 0.0010531917 4290651674
0.0027590021 0.0017315773 0.0009529083 4290847768
0.0043604001 0.003358311 -0.00044206483 4288884778
-0.037614755 -0.014967645 0.013733657 4287704894
-0.035474982 -0.016525451 0.01492672 4286986814
-0.03370215 -0.014893414 0.013524167 4287052604
-0.032037463 -0.01246408 0.011473622 4287314744
-0.030389212 -0.010034932 0.0094240494 4287184183
-0.028860006 -0.0068087536 0.0067271008 4287707954
-0.027352683 -0.0035829199 0.0040314505 4288558123
-0.025867261 -0.00035735872 0.0013370034 4289539364
-0.024071373 0.0004766779 0.00058759889 4289735713
-0.02216753 0.00051370077 0.00048633385 4289735713
-0.020147569 -0.00024614297 0.0010327648 4289866529
-0.018360186 0.00058806315 0.00028406223 4289735459
-0.01645669 0.00062542688 0.00018307357 4289670178
-0.01455332 0.00066287257 8.2154293e-05 4289474084
-0.012522954 -9.6295029e-05 0.00062838453 4289343524
-0.010357432 -0.0016519302 0.0018213219 4289474339
-0.0083137192 -0.0024106423 0.0023669871 4289539873
-0.0063999966 -0.0023725205 0.0022658706 4289997598
-0.0049004629 5.5261888e-05 0.00022541755 4290586394
-0.003135927 0.00088988431 -0.00052143028 4289408549
-0.0013770163 0.0017245496 -0.0012679423 4289212198
0.00052250922 0.0017627748 -0.0013680217 4289473828
0.0025707781 0.0010047546 -0.00082207541 4289605409
0.0044726953 0.0010432266 -0.00092213345 4290324509
0.0060657635 0.0026742266 -0.0023133748 4288032314
-0.033834033 -0.015655771 0.011718892 4286921533
-0.03197784 -0.014819025 0.010967422 4287248698
-0.030326854 -0.012383344 0.0089225955 4287249208
-0.028692309 -0.009947815 0.0068786922 4287511348
-0.027284767 -0.0059138024 0.0035425699 4287642674
-0.02590457 -0.0018801624 0.00020802184 4289212198
-0.024108768 -0.0010439847 -0.00053978642 4289408803
-0.022318535 -0.00020774081 -0.001287243 4289801249
-0.020185303 -0.0017689783 -9.621121e-05 4289932064
-0.018516909 -0.00013347995 -0.0014892038 4290193694
-0.016737908 0.00070283841 -0.0022357716 4290324764
-0.015088815 0.0023381449 -0.0036275259 4290978838
-0.013069525 0.0015765652 -0.003082339 4291109653
-0.010915138 1.6340986e-05 -0.0018920591 4290651928
-0.0088825002 -0.00074479496 -0.0013473708 4289736479
-0.0069797933 -0.00070691947 -0.0014479252 4289867294
-0.0054911152 0.0017272234 -0.0034829923 4290193949
-0.0037375465 0.0025638025 -0.0042276448 4290979094
-0.0018461719 0.0026017623 -0.0043273708 4290586393
0.00019117445 0.0018412843 -0.0037825869 4290848279
0.0026803613 -0.0013145064 -0.0013051386 4290913559
0.0045848787 -0.0012759757 -0.0014053293 4290063389
0.006334953 -0.00043899287 -0.0021494459 4289670179
0.0076083913 0.002793001 -0.0048247729 4289276969
-0.03424881 -0.014008369 0.0079804119 4286659904
-0.03201538 -0.01637638 0.0098127834 4287052603
-0.030065037 -0.016339071 0.0097085834 4287314489
-0.028524823 -0.013095278 0.0070239794 4287380279
-0.027216952 -0.0082487548 0.0030506728 4287642419
-0.025833901 -0.0042042243 -0.00027597649 4288950823
-0.024256833 -0.001762921 -0.0023117012 4289081638
-0.022356004 -0.0017259759 -0.0024128202 4289735969
-0.020455275 -0.0016889255 -0.0025138538 4289997599
-0.018673513 -0.00085047586 -0.0032590248 4289866784
-0.017018884 0.00078915339 -0.0046479423 4290716699
-0.015250981 0.0016275924 -0.0053922571 4291043864
-0.013361622 0.0016648816 -0.0054923445 4291044373
-0.011212915 0.00010013022 -0.0043049711 4291240723
-0.0091859177 -0.00066323671 -0.0037616338 4289801504
-0.0072887875 -0.00062547345 -0.0038618941 4289736479
-0.0055297017 0.00021327473 -0.0046053091 4289735969
-0.0037762001 0.001051994 -0.0053483672 4289866784
-0.001741603 0.00028918218 -0.0048051309 4290848023
0.00044435263 -0.0012741364 -0.0036192855 4290848023
0.0024922639 -0.0020365529 -0.0030765824 4290651673
0.0042424351 -0.0011974392 -0.0038191965 4289736479
0.0058327764 0.0004421724 -0.0052037789 4290063134
0.0074120611 0.0020816689 -0.0065877736 4289342758
-0.032246921 -0.016325794 0.0073707192 4286594624
-0.030202452 -0.017092377 0.0079104863 4287118138
-0.028459981 -0.015447509 0.0065195183 4287511094
-0.026938863 -0.01219529 0.0038424665 4288165679
-0.025655434 -0.0073360475 -0.00011980976 4288231469
-0.024072904 -0.0048881611 -0.0021509384 4288231469
-0.022393469 -0.0032439958 -0.0035382374 4289604899
-0.020492878 -0.0032069357 -0.0036392547 4290062623
-0.018829998 -0.001562912 -0.005025465 4290324764
-0.017056603 -0.00072235148 -0.0057685012 4289081384
-0.015288785 0.00011825096 -0.006511203 4289146663
-0.013399556 0.00015552621 -0.0066112923 4289866783
-0.011380773 -0.00061035622 -0.0060691936 4290390299
-0.0093566775 -0.0013759886 -0.0055273431 4290063134
-0.0074624084 -0.0013382756 -0.0056274482 4289932319
-0.0055682659 -0.0013004704 -0.0057274755 4290128413
-0.0036742762 -0.0012625833 -0.005827432 4290062623
-0.001780428 -0.0012245909 -0.0059273015 4289866529
0.0002592802 -0.0019893693 -0.005385872 4289800993
0.0020068362 -0.0011483044 -0.0061267847 4289801504
0.0037487894 -0.00030724425 -0.0068673226 4290128413
0.0053309575 0.0013365634 -0.0082483087 4289931808
0.007058993 0.002177529 -0.0089879762 4289931809
0.0087814257 0.0030184658 -0.0097272852 4289408039
-0.030339748 -0.017841134 0.0061157593 4286987324
-0.028292846 -0.018609742 0.006653857 4287510583
-0.026766211 -0.015348714 0.0039829761 4288034354
-0.025369313 -0.011282187 0.0006717341 4287576629
-0.023889173 -0.0080218269 -0.0019964972 4287511604
-0.022430915 -0.0047618002 -0.0046634958 4288492844
-0.02087852 -0.0023077675 -0.0066880193 4289800738
-0.019223839 -0.00065951329 -0.0080706058 4290389533
-0.0174587 0.00018305331 -0.0088115931 4290062623
-0.015574936 0.00022012182 -0.0089114662 4289015848
-0.013691295 0.0002572732 -0.0090112705 4289670434
-0.011678156 -0.00051084068 -0.0084705222 4290128413
-0.0096596815 -0.0012787757 -0.0079300012 4290651928
-0.0076359026 -0.002046519 -0.0073896227 4289997599
-0.0057446063 -0.0020087883 -0.0074895136 4290128668
-0.0037129521 -0.0027761268 -0.0069494415 4290128158
-0.0018192232 -0.0027381615 -0.0070493221 4289866529
7.4349344e-05 -0.0027000667 -0.0071490966 4290193694
0.0016704351 -0.0010518348 -0.0085277362 4289931808
0.0034068823 -0.00020871963 -0.0092663746 4289997343
0.0049836114 0.0014392845 -0.010643801 4290586394
0.006862998 0.0014774473 -0.010742564 4291044118
0.0085826516 0.0023205001 -0.011480113 4290782233
0.010296695 0.0031635705 -0.012217345 4289472298
-0.030875437 -0.015352665 0.0017626747 4287706423
-0.028637651 -0.017739927 0.0035804445 4287641399
-0.026908979 -0.016086504 0.0021967692 4287380279
-0.025299098 -0.013625147 0.00017372495 4287314743
-0.023705635 -0.011164025 -0.0018483086 4287314999
-0.022241868 -0.0078951903 -0.0045091361 4287772979
-0.02091594 -0.0038188361 -0.0078082746 4289343014
-0.019379973 -0.0013584602 -0.0098270476 4290193439
-0.017739043 0.00029392727 -0.01120556 4290586139
-0.015736733 -0.00047679804 -0.010666018 4290847769
-0.013729099 -0.0012473194 -0.010126688 4291371539
-0.011845704 -0.0012100772 -0.010226406 4291175189
-0.009830147 -0.0019802293 -0.0096873362 4290521113
-0.0082143284 -0.00032779016 -0.01106411 4290063134
-0.0060585812 -0.0019050972 -0.0098866168 4290063389
-0.0041729957 -0.0018673972 -0.0099861426 4290128158
-0.0022875518 -0.001829592 -0.010085583 4290128158
-0.00054815412 -0.00098444987 -0.010822915 4290259229
0.0011856705 -0.00013931282 -0.011559874 4290258973
0.0029138997 0.00070578326 -0.012296485 4289997344
0.0047905967 0.00074380264 -0.012395173 4290128414
0.0066671297 0.00078189 -0.0124938 4290520603
0.0085435137 0.00082008354 -0.012592338 4290586139
0.010257505 0.0016652942 -0.013327975 4290847768
0.011965908 0.0025104536 -0.014063198 4289277223
-0.029084429 -0.016046541 -0.00012177764 4286790718
-0.027261671 -0.015199222 -0.00086312986 4286987324
-0.025336705 -0.015162058 -0.00096571969 4287183928
-0.023743235 -0.012694429 -0.0029829184 4287314999
-0.022166211 -0.010226975 -0.0049992101 4287315254
-0.020837434 -0.0061396956 -0.008290424 4287773233
-0.019417353 -0.0028627925 -0.010942301 4288754474
-0.017897811 -0.00039611943 -0.012955284 4289800738
-0.016022485 -0.0003592493 -0.013054734 4290323998
-0.014147267 -0.00032227393 -0.013154097 4290389788
-0.012142655 -0.0010949904 -0.012616118 4290128158
-0.010132726 -0.001867421 -0.012078362 4290324764
-0.0085223652 -0.00021072663 -0.013451677 4290193949
-0.0066476539 -0.0001733657 -0.013550721 4289801503
-0.0049134791 0.00067365542 -0.014286304 4289997854
-0.0026123896 -0.0017172908 -0.012475478 4289932574
-0.00073265284 -0.0016795285 -0.012574563 4290128668
0.0011469498 -0.0016416488 -0.012673551 4290063388
0.002572529 0.00082428288 -0.01468073 4290520859
0.0042896792 0.0016714167 -0.015415078 4290128413
0.006157957 0.0017093215 -0.015513282 4289212198
0.0080260634 0.0017473297 -0.015611399 4289604899
0.009731859 0.0025944756 -0.016344968 4290324509
0.011596948 0.0026325854 -0.016442806 4289539363
0.013461873 0.0026707761 -0.01654057 4288883758
-0.027614024 -0.014298726 -0.0039131604 4286987068
-0.025697373 -0.014261737 -0.0040153163 4287445814
-0.02389124 -0.013412287 -0.0047540362 4287118648
-0.022203773 -0.011750655 -0.0061288262 4287250228
-0.02064316 -0.0092768809 -0.0081393104 4287511858
-0.019336134 -0.005179082 -0.011421237 4287969839
-0.017813839 -0.0027058753 -0.013429476 4289342758
-0.016183969 -0.0010448713 -0.014800912 4289669668
-0.014438357 -0.000195981 -0.01553588 4290324509
-0.012568831 -0.00015903637 -0.015634881 4290324764
-0.010567248 -0.00093384134 -0.015098324 4290390298
-0.0088301599 -8.4829517e-05 -0.015832623 4290259483
-0.0069610104 -4.7556125e-05 -0.015931357 4291110164
-0.005232349 0.00080147199 -0.016665075 4290979349
-0.0030800626 -0.00078441389 -0.015493721 4290194204
-0.0013543889 6.4775348e-05 -0.016227117 4289997853
0.00066271424 -0.00070912857 -0.01569094 4289998110
0.0023826659 0.00014012586 -0.016423902 4289735713
0.0042509809 0.00017792266 -0.016522188 4290978838
0.0058058053 0.0018385854 -0.017888727 4290455579
0.0075089857 0.0026877886 -0.018620664 4289801503
0.0093686879 0.0027256822 -0.018718297 4290390043
0.011557877 0.0011412138 -0.017548313 4290782744
0.013590246 0.00036822911 -0.017012484 4289539364
0.015287369 0.0012176121 -0.017743807 4288557104
-0.025842443 -0.01497715 -0.0057848156 4286987579
-0.023928754 -0.014940105 -0.0058867312 4287118394
-0.022128247 -0.014088543 -0.0066234265 4287707699
-0.020564876 -0.011608272 -0.0086291954 4287707699
-0.019255012 -0.0074994876 -0.011903225 4288035118
-0.017851207 -0.0042055068 -0.014541239 4289081638
-0.016469296 -0.00091176294 -0.01717802 4289081384
-0.014729202 -6.0843304e-05 -0.017911106 4290128158
-0.012865257 -2.4010427e-05 -0.018009814 4290520603
-0.010869291 -0.00080111669 -0.017474586 4289997599
-0.0091377124 4.9948692e-05 -0.018206988 4290717464
-0.0071365647 -0.00072683766 -0.017671872 4291371539
-0.0054106861 0.00012430456 -0.018403832 4290978838
-0.0032613426 -0.0014659879 -0.017235553 4291109909
-0.0013927221 -0.0014284723 -0.01733407 4290193949
0.00047576427 -0.0013908637 -0.017432509 4289932573
0.0021929294 -0.00053951889 -0.018163728 4289801758
0.0040584058 -0.0005017845 -0.018261869 4290390299
0.0056105182 0.0011631716 -0.019625109 4290717208
0.0073109344 0.0020144442 -0.020355251 4291175188
0.0093298554 0.0012388378 -0.019820459 4291175445
0.011518836 -0.00035001431 -0.018653717 4289800993
0.013551049 -0.001125202 -0.018119514 4289866783
0.015418343 -0.0010869335 -0.018217381 4288950823
-0.026094966 -0.014871362 -0.0081844432 4286267713
-0.023855947 -0.017284393 -0.0063858288 4287445048
-0.02205281 -0.016430572 -0.0071210968 4288230704
-0.020486701 -0.013943732 -0.0091221705 4288362029
-0.019173965 -0.0098241176 -0.012388272 4287773234
-0.018009756 -0.0048884433 -0.016285693 4287839279
-0.01650656 -0.0024025044 -0.018283181 4288623914
-0.014893174 -0.00073306356 -0.019647233 4289800993
-0.013032079 -0.00069630519 -0.019745804 4289997343
-0.011171095 -0.00065944158 -0.019844288 4290259484
-0.0094450302 0.0001936676 -0.020574799 4289343269
-0.0075870119 0.00023068115 -0.020672971 4290390043
-0.0055888817 -0.00054827798 -0.020139266 4290193949
-0.0035854504 -0.001327069 -0.01960572 4291109653
-0.0018680617 -0.00047369767 -0.020335523 4289735713
-7.8529119e-06 -0.00043626223 -0.02043353 4290128923
0.002003327 -0.0012146146 -0.019900184 4289932573
0.0038659796 -0.0011769556 -0.019998189 4289605154
0.0054153726 0.00049225893 -0.021358082 4290063133
0.0072722882 0.00052998308 -0.021455653 4289997598
0.0092910528 -0.00024785195 -0.020922508 4289670178
0.011644535 -0.0026566167 -0.019128464 4289539364
0.013679311 -0.0034339358 -0.01859602 4289146663
0.015549213 -0.0033956324 -0.018694038 4287642419
-0.02231637 -0.016320497 -0.0095167914 4287248954
-0.020524293 -0.015464661 -0.01024974 4287445558
-0.019093014 -0.01215284 -0.012876431 4287576628
-0.017925888 -0.0072041461 -0.0167643 4287577394
-0.016543798 -0.0038930778 -0.019388221 4287708464
-0.014930442 -0.0022192951 -0.020749044 4288623658
-0.013328068 -0.00054568425 -0.022109177 4289800993
-0.01160467 0.00030942168 -0.022838023 4290913304
-0.0098868422 0.0011645826 -0.023566525 4290390043
-0.0083120242 0.0028379494 -0.024924975 4289147174
-0.0063276887 0.0020565307 -0.024392169 4289343268
-0.0043380186 0.0012753271 -0.023859557 4289408803
-0.0019061789 -0.0019600759 -0.021437386 4290521114
-0.0001944229 -0.0011046035 -0.022165174 4290063644
0.0018138811 -0.0018851627 -0.021633346 4290063389
0.003519915 -0.0010296376 -0.022360705 4289801248
0.0055333748 -0.0018099244 -0.021829024 4289932064
0.0073928982 -0.0017721779 -0.021926753 4289539108
0.0097381026 -0.0041877539 -0.020137213 4288296749
0.011770159 -0.0049673952 -0.019606309 4287380788
0.013807498 -0.0057468698 -0.019075638 4287053624
0.015169777 -0.0032557086 -0.021059714 4286660414
-0.022805542 -0.014559649 -0.01316602 4286725693
-0.020677514 -0.016164524 -0.012007061 4286922043
-0.019248866 -0.012844102 -0.014627181 4287184184
-0.01772102 -0.010344742 -0.016616438 4287511604
-0.016209614 -0.0078455927 -0.018604739 4287512114
-0.01484115 -0.0045260601 -0.021221375 4287904303
-0.013623819 -0.00038614776 -0.024466015 4289539619
-0.012037896 0.001291546 -0.025822002 4290128158
-0.010328285 0.0021486534 -0.026548428 4290848023
-0.0086242408 0.003005744 -0.027274489 4290979094
-0.0066455007 0.0022220118 -0.026743021 4291175444
-0.0045186207 0.00061816908 -0.025583293 4291044629
-0.0022353902 -0.0018057087 -0.02379573 4290521114
-0.00038085133 -0.0017684344 -0.023893472 4290194203
0.0016245544 -0.0025512334 -0.023363113 4290128414
0.0034815446 -0.0025137356 -0.023460858 4289539619
0.0058077276 -0.0049363887 -0.021675287 4289474084
0.0078317672 -0.0057185777 -0.021145735 4287904303
0.010184854 -0.0081405211 -0.019361455 4287446323
0.012060307 -0.0081023201 -0.019459926 4287053368
0.013935611 -0.0080640269 -0.019558318 4286922809
0.015300661 -0.005566285 -0.021537766 4286267204
-0.021061778 -0.015213773 -0.015017664 4287249209
-0.019167986 -0.015176835 -0.015118312 4287118648
-0.017395329 -0.014316848 -0.015846865 4287511349
-0.015875719 -0.011811044 -0.017830776 4287249718
-0.014625482 -0.0076598106 -0.021069156 4287642929
-0.013660938 -0.0018634051 -0.025561169 4288885289
-0.012206934 0.00064136554 -0.027541336 4289539109
-0.010500118 0.0015005525 -0.028266028 4289997598
-0.0087988637 0.0023597954 -0.028990379 4291044629
-0.0068230033 0.001573774 -0.028460339 4290390299
-0.0048418492 0.00078801531 -0.027930539 4289997599
-0.0024188533 -0.0024649762 -0.025520839 4289670433
-0.00027067214 -0.0040725637 -0.024365332 4289212198
0.0018882453 -0.0056799348 -0.023210317 4288623914
0.0037505627 -0.0056423414 -0.02330835 4287839279
0.0062382892 -0.0088936212 -0.020901829 4287970094
0.0082703233 -0.0096778926 -0.020374291 4288362283
0.010631278 -0.012106177 -0.01859533 4287249973
0.012350246 -0.011245755 -0.019319929 4286725948
0.014063641 -0.010385398 -0.020044196 4286791738
-0.021445695 -0.014249785 -0.018018456 4286202434
-0.01920544 -0.016688561 -0.016239055 4287379769
-0.017190911 -0.017476629 -0.015713226 4287445304
-0.015665829 -0.014964242 -0.017692618 4287772724
-0.014283579 -0.011627115 -0.02029711 4287773489
-0.01331063 -0.0058153542 -0.024778284 4287904304
-0.012112141 -0.0016540913 -0.028005712 4288558123
-0.010537233 3.2148324e-05 -0.029354602 4289932063
-0.0085614435 -0.000756111 -0.0288263 4289670433
-0.0067203492 -0.00071942527 -0.028923571 4289670434
-0.0045939088 -0.0023319968 -0.027770296 4289408549
-0.0024567023 -0.0039443392 -0.026617507 4289081383
-0.00030875206 -0.0055563208 -0.02546525 4287708464
0.0018499494 -0.007168063 -0.024313467 4287381554
0.003865771 -0.0079549458 -0.023786847 4287250484
0.0061995536 -0.010390489 -0.022011444 4287315508
0.0085495189 -0.012825672 -0.020236792 4287381044
0.010430358 -0.012787493 -0.020335644 4287839024
0.012475528 -0.013573479 -0.019810341 4286856763
0.014024407 -0.011886725 -0.02115709 4286857019
-0.019479267 -0.016545404 -0.018609544 4286987069
-0.017349441 -0.018163119 -0.017460249 4287706678
-0.015579753 -0.017298795 -0.018185377 4288492589
-0.014194708 -0.013952898 -0.020783618 4288623658
-0.012960605 -0.0097801937 -0.024004955 4288820264
-0.011753809 -0.005607944 -0.027224783 4288951078
-0.010439798 -0.0022631423 -0.029819034 4288754475
-0.0085987002 -0.0022265879 -0.029916404 4289408804
-0.0064778104 -0.003843721 -0.028766144 4289277478
-0.0044888332 -0.0046337298 -0.028240029 4288623914
-0.0022037327 -0.0070771687 -0.026467126 4287708208
-5.0552189e-05 -0.0086934716 -0.02531836 4287315763
0.0021133572 -0.010309415 -0.024170125 4287185204
0.0039809197 -0.010271788 -0.024268487 4286923318
0.0061608702 -0.011887226 -0.023120962 4287053879
0.0081925765 -0.012675893 -0.022596668 4287381044
0.010229588 -0.013464346 -0.022072649 4287773233
0.012271889 -0.014252583 -0.021548826 4287576119
0.013818078 -0.012561595 -0.022892246 4287183928
-0.017991304 -0.015527273 -0.021696646 4286856764
-0.015988123 -0.016319837 -0.021173391 4287445559
-0.014358528 -0.014624169 -0.022518978 4287773234
-0.012868945 -0.012099287 -0.02448668 4288231469
-0.011659265 -0.0079161571 -0.027698621 4288100398
-0.010207977 -0.0053918292 -0.029664148 4288100398
-0.0083615556 -0.0053551788 -0.029761804 4288493098
-0.0060955361 -0.0078057316 -0.027992897 4288820263
-0.0040985718 -0.0085977623 -0.027468827 4287773488
-0.0020962656 -0.0093896016 -0.026944973 4287119158
5.9388578e-05 -0.011010214 -0.025799576 4286988598
0.0020750314 -0.011801623 -0.025276305 4287053878
0.0039424822 -0.01176402 -0.025374679 4286988598
0.0059660003 -0.012555084 -0.024851684 4286988344
0.0079948381 -0.01334598 -0.024328925 4287184439
0.009867318 -0.013308024 -0.024427377 4287380533
0.011904038 -0.014098659 -0.023904884 4286464319
-0.016519662 -0.014496133 -0.02477305 4286791229
-0.014522206 -0.015290929 -0.024251066 4287511093
-0.012777355 -0.014422579 -0.024971522 4287707698
-0.011433117 -0.011059972 -0.027554588 4287773234
-0.0099763349 -0.0085291089 -0.029515557 4287773234
-0.0081245862 -0.0084923627 -0.029613504 4287577139
-0.0058534071 -0.010949284 -0.027849749 4287446323
-0.0039937347 -0.01091224 -0.027948011 4288362283
-0.0018436164 -0.012537412 -0.02680563 4288427818
0.00031728297 -0.014162252 -0.025663801 4287446579
0.0023381934 -0.014955742 -0.025142435 4287250484
0.0040575191 -0.014087096 -0.025860943 4287381299
0.0056151226 -0.012387551 -0.02719878 4287446069
0.0074795038 -0.012349898 -0.027296908 4286464318
-0.014811944 -0.015119549 -0.026599437 4287118139
-0.013072595 -0.014249178 -0.027318021 4287641398
-0.011602059 -0.011711586 -0.029274993 4287576628
-0.010013595 -0.010007815 -0.030611776 4287772979
-0.0080248863 -0.010804588 -0.030090671 4287380534
-0.0057512596 -0.013268067 -0.028331881 4287118903
-0.003888987 -0.013230978 -0.028430283 4286988344
-0.0017363578 -0.014860424 -0.027291322 4287315253
0.0002790764 -0.015656335 -0.026771383 4288362284
0.001998499 -0.014785617 -0.02748836 4287838513
-0.015227571 -0.01410347 -0.029559378 4286071108
-0.013238717 -0.014902763 -0.02904008 4287445048
-0.011639271 -0.013194526 -0.030374363 4287576628
-0.0099165142 -0.012322121 -0.031090312 4287838258
-0.0080622733 -0.012285402 -0.031188447 4287642164
-0.0057889372 -0.014755407 -0.029434487 4287119159
-0.0039267614 -0.014718354 -0.029532913 4287184439
-0.0020646974 -0.014681231 -0.029631278 4287446069
-0.00035065413 -0.01380853 -0.03034649 4287118903
-0.013791129 -0.013037923 -0.03260776 4286790974
-0.011807982 -0.013839375 -0.032089759 4287314233
-0.010088 -0.012964928 -0.032804001 4288034609
-0.0080996267 -0.013766107 -0.032286145 4288035120
-0.0061059222 -0.014567111 -0.031768523 4287707698
-0.01210802 -0.013639688 -0.034416471 4286856254
-0.010259341 -0.013603211 -0.034514412 4287772214
-0.0084107593 -0.013566677 -0.034612302 4287903794
-0.0065622926 -0.013530028 -0.034710098 4287512114
-0.012670625 -0.01174669 -0.037962463 4286790718
0.0087571293 0.0043721162 0.046177708 4279652249
0.011984356 0.0082159759 0.042577211 4278270403
0.0028496832 0.0018922202 0.045982346 4282798438
0.0045662448 0.003442402 0.044522703 4280504459
0.0061244741 0.0057474477 0.042387009 4278799783
0.0078161284 0.0072972672 0.040928856 4279061923
0.010855287 0.011906224 0.036661923 4278665399
0.016080305 0.0059485091 0.041863002 4279847324
-0.0033423603 0.00092365313 0.044433758 4282732648
-0.00030899793 0.0063044792 0.039493091 4280504203
0.0012496635 0.0086158728 0.037362084 4279259549
0.0030807108 0.0094125969 0.036582574 4278800293
0.0070256963 0.0094918115 0.036374599 4278273718
0.0085399747 0.011802728 0.034246244 4279258273
0.010193057 0.013356379 0.032793548 4279191974
0.012467384 0.011882204 0.034039646 4278929323
0.015074 0.0088945394 0.036634076 4279126438
0.018029228 0.0043937853 0.040575951 4280701573
-0.006301634 0.0045977468 0.038630258 4281815668
-0.0014609769 0.010791929 0.032923978 4278794938
0.00050095469 0.010831092 0.032820374 4278865829
0.0024627149 0.010870364 0.032716863 4278538409
0.0081942379 0.011747955 0.031733617 4278270403
0.0099971816 0.012546723 0.030957527 4278664123
0.014550589 0.0095898313 0.033443142 4278602413
0.017006785 0.0073528728 0.035357825 4278865829
0.019645303 0.004357337 0.037944246 4279193503
-0.010310367 0.0029311581 0.037663061 4282404209
-0.0087098889 0.005255946 0.03553918 4279259038
-0.0071259402 0.0075804992 0.033416316 4279061924
-0.0038714185 0.01146727 0.029845782 4278860729
-0.0020565018 0.012267855 0.029070232 4278401219
3.6045909e-05 0.011545188 0.029639378 4278471088
0.0021338463 0.010822699 0.030208379 4278669479
0.0042369142 0.010100462 0.030777134 4278603434
0.0061954334 0.010139878 0.030673943 4278930343
0.0098013878 0.011741758 0.029124916 4278401729
0.011753857 0.011781351 0.029022273 4278601394
0.014027514 0.01029851 0.03026206 4278668459
0.016311832 0.0088160438 0.03150133 4278603688
0.018440709 0.0080949655 0.03206927 4278735014
0.020743653 0.0066130487 0.033307686 4280111758
-0.011101361 0.0059278971 0.032457255 4279783064
-0.0093892813 0.0074948547 0.031010382 4278800039
-0.006265074 0.01215631 0.026776707 4279913879
-0.0044555143 0.012958893 0.026003005 4279390108
-0.0023738816 0.012233735 0.026571037 4278865064
-0.00014540553 0.010745001 0.027809428 4278798508
0.002093792 0.0092565333 0.029047363 4278734249
0.0041966662 0.0085321376 0.029614523 4278537899
0.0063048154 0.0078079337 0.030181475 4278603434
0.0079608038 0.0093746772 0.028738305 4278734760
0.009916082 0.0094142603 0.028635465 4278603434
0.011713244 0.010217433 0.027862966 4278472364
0.013826028 0.0094936835 0.028430013 4278669224
0.015617326 0.010296931 0.027657965 4278668714
0.017569043 0.01033681 0.027555587 4278402748
0.019689359 0.0096134832 0.028122438 4278795448
0.022844024 0.0043111965 0.032702904 4280370838
-0.011140715 0.0043532001 0.031289853 4281810059
-0.0095565505 0.0066908058 0.0291766 4279782554
0.0017652288 0.0092225606 0.026548954 4278865319
0.0038624778 0.0084958868 0.027114805 4278734504
0.0059650019 0.0077693565 0.027680483 4278734760
0.0079203546 0.0078088464 0.027577566 4278603434
0.0098754987 0.0078484425 0.027474744 4278668714
0.011672601 0.0086538168 0.026703881 4278799784
0.013624623 0.0086935209 0.02660135 4278537388
0.017029986 0.011069694 0.024393642 4278532544
0.024949282 0.0020054728 0.032094914 4280372879
-0.0080282167 0.0074668573 0.025906818 4279782809
-0.00050800294 0.0091585321 0.024159828 4278406318
0.0014368817 0.0091975359 0.02405726 4278669224
0.0033816025 0.0092366217 0.023954762 4278472874
0.0054757521 0.0085078115 0.024519233 4278603944
0.0075751692 0.0077792155 0.02508351 4278472874
0.0095247626 0.0078186849 0.024980972 4278472619
0.011474147 0.0078582736 0.02487853 4278341549
0.013423331 0.0078979516 0.024776172 4278733738
0.015045837 0.0094731608 0.023341557 4278470833
0.016657226 0.011048275 0.021907555 4279455390
0.018426225 0.011855596 0.021140117 4279127713
0.02386266 0.0050276015 0.026927972 4278996134
0.026882544 0.00046331622 0.030818265 4279783574
-0.0079370253 0.0051352782 0.025415847 4281026699
-0.0065163299 0.0082560452 0.022647986 4278865574
-0.0045737624 0.0082946708 0.022545293 4278931364
-0.0029087514 0.0098742666 0.021110991 4278734758
-0.00097196549 0.0099129798 0.021008756 4278472619
0.00082049519 0.010722111 0.020241076 4278669224
0.0090192258 0.0085679507 0.021828933 4278865829
0.011118054 0.007837384 0.022391783 4278603688
0.013222158 0.0071069943 0.022954406 4278602669
0.018216826 0.011075412 0.019326916 4278339253
0.02277673 0.0080761341 0.021780597 4278536369
0.025426254 0.0050377026 0.024334403 4279127204
0.02845636 0.00046064612 0.028214512 4280898179
-0.0065556318 0.0067018392 0.021495806 4278865829
-0.0048850104 0.0082857823 0.020064354 4278800293
-0.0032254457 0.0098695727 0.018633613 4278472364
-0.0011529028 0.0091356868 0.019195776 4278537644
0.0007808432 0.0091744652 0.019093795 4278471853
0.0046477914 0.0092523517 0.018890107 4278727618
0.0085139945 0.0093306182 0.018686758 4279583144
0.010604493 0.0085977009 0.019248422 4278669479
0.012700252 0.0078649716 0.019809876 4278341804
0.022387505 0.0080636414 0.019302256 4278602923
0.024501063 0.0073317951 0.019863237 4278472364
0.026978761 0.0050566699 0.021748101 4278603688
0.029472537 0.0027819304 0.023632241 4279193758
0.032721974 -0.0025789198 0.028162781 4278669223
-0.0050601885 0.0075110318 0.018252878 4280502673
-0.0034033805 0.0090991771 0.016825484 4278865318
-0.0013337359 0.0083630132 0.017386224 4278340784
0.00045312941 0.0091764452 0.016622042 4279125929
0.0020876601 0.010764417 0.015196102 4279060394
0.003860563 0.011577728 0.014432853 4278600883
0.0081640109 0.0093321847 0.016216205 4278535859
0.010406531 0.0078225536 0.017438194 4278669224
0.012499385 0.0070876079 0.017998192 4278603944
0.014271341 0.0079013919 0.017235359 4278472619
0.01762981 0.010303053 0.015049685 4278864808
0.019553334 0.010342619 0.014948977 4278865574
0.021650612 0.0096082082 0.015509078 4278603688
0.023753136 0.0088739404 0.016069001 4278668969
0.025860868 0.0081399279 0.016628692 4278341038
0.027791724 0.0081799598 0.016527837 4279259039
0.030831344 0.0035771634 0.02038818 4281291388
-0.0034426749 0.0075564208 0.015681809 4278996388
-0.0016556978 0.0083718887 0.014919208 4278406064
0.0016080216 0.011556397 0.012073977 4279715744
0.0033726916 0.012371727 0.011312781 4279061669
0.0054359883 0.011633725 0.011872513 4279060394
0.0078142658 0.0093426658 0.013752339 4278339254
0.010051094 0.0078286389 0.014971368 4278800039
0.011978038 0.007867896 0.0148702 4278538409
0.01357875 0.009460141 0.013449721 4278603944
0.015334137 0.010275842 0.012689432 4278800548
0.017083853 0.011091537 0.011929519 4278603944
0.019341476 0.0095783854 0.013147794 4278538409
0.021435887 0.0088417446 0.013706431 4278538154
0.023358896 0.0088814562 0.013605867 4278603689
0.032923773 0.0012816656 0.019788655 4280502928
-0.0034819767 0.0060139177 0.014538324 4283185528
-0.001695089 0.0068315836 0.013777362 4280568464
0.0073099285 0.010140949 0.010636568 4278275249
0.0095383748 0.0086223455 0.011852838 4278669224
0.011457033 0.0086614648 0.011752129 4278407339
0.013375506 0.008700653 0.011651482 4278276269
0.015128098 0.0095184809 0.010892961 4278603944
0.017043464 0.009557792 0.010792617 4278865573
0.018958613 0.0095972074 0.010692365 4278603944
0.021047413 0.0088582775 0.01124968 4278668203
0.022788323 0.009676219 0.010492034 4278274229
0.03175728 0.0043883594 0.014689948 4279323044
0.035211243 -0.0017958498 0.019842597 4282470508
-0.0017344654 0.0052915309 0.012635702 4282727293
-9.7095966e-05 0.0068925451 0.011219259 4279323808
0.0015291944 0.0084934803 0.009803433 4278930088
0.0032937378 0.0093131708 0.009045491 4278339253
0.005052641 0.010132861 0.0082879271 4278732974
0.0069606677 0.010171539 0.0081876069 4278733994
0.0088685155 0.010210357 0.0080874041 4278800294
0.010776177 0.01024923 0.0079872571 4278669223
0.012520745 0.011068997 0.0072307182 4278669479
0.014590926 0.01032728 0.0077872234 4278603944
0.016498022 0.010366407 0.0076873009 4278538409
0.018575981 0.0096250074 0.0082435142 4278276269
0.020311609 0.010444951 0.0074877129 4278471343
0.023945168 0.011304258 0.0066327876 4279127713
0.025848508 0.01134375 0.0065333894 4279453603
0.027936324 0.010602958 0.007089389 4278798764
0.030404113 0.0083017303 0.0089556072 4279127458
0.0334583 0.0036602076 0.012786189 4279520924
0.036930531 -0.0025409693 0.017924994 4282471019
7.2941184e-06 0.0045737289 0.010736879 4281548938
0.0016363114 0.006179031 0.0093241874 4279389599
0.003105022 0.0085675148 0.0072565428 4278537644
0.0048611388 0.0093893176 0.0065007382 4278537133
0.0067663342 0.0094279675 0.0064005922 4278537898
0.0086713359 0.0094666993 0.0063005169 4278537899
0.016289502 0.0096225431 0.0059010289 4278930854
0.017851554 0.011227387 0.0044924505 4278537898
0.019923709 0.010483732 0.005047455 4278668203
0.023367085 0.012127667 0.0035406738 4278467774
0.024898417 0.013732153 0.0021339818 4278991289
0.026972488 0.0129889 0.0026890826 4278401729
0.029239081 0.011463386 0.0038975626 4279059883
0.032276541 0.0068083908 0.0077193412 4279061413
0.035153627 0.0029365746 0.010886172 4278931363
0.038448609 -0.0024992204 0.015357947 4282340204
0.0013039187 0.0062170168 0.0068795071 4281418633
0.003065601 0.0070410119 0.0061249561 4278799784
0.0045178384 0.0094357906 0.0040631038 4278537133
0.006572105 0.0086889667 0.0046169655 4278406318
0.0081595704 0.010298225 0.003209949 4278537134
0.011626914 0.011945943 0.0017044297 4278662084
0.015576422 0.01123844 0.0021592402 4279322278
0.017640449 0.0104924 0.0027129496 4278341294
0.019709714 0.0097465636 0.0032664537 4278603433
0.021607846 0.0097857816 0.0031672055 4278471343
0.024858035 0.01221872 0.0010121712 4278269128
0.026562855 0.013042738 0.00026140548 4279386028
0.028636567 0.012297328 0.00081500132 4279322788
0.03109546 0.0099829743 0.002671991 4278603434
0.033570476 0.0076689841 0.0045282333 4278669223
0.036256984 0.0045709237 0.0070352335 4279128479
0.039361298 -9.5466152e-05 0.010843948 4280046989
0.002877064 0.0063023781 0.0043412172 4281092234
0.0044784769 0.0079160733 0.0029365541 4279192483
0.0062234104 0.0087421136 0.0021846546 4278799273
0.0095364228 0.011181551 3.0124793e-05 4279651484
0.011424512 0.011220123 -6.8924157e-05 4279127714
0.013312414 0.011258797 -0.00016788463 4278339253
0.01536832 0.01051028 0.00038460712 4279191208
0.01725857 0.010549176 0.00028565316 4278537388
0.019495837 0.0090139462 0.0014888989 4278537898
0.021391161 0.0090531027 0.001389795 4278668969
0.023107231 0.0098793292 0.00063998695 4278603434
0.024635874 0.011492486 -0.00076015573 4278603179
0.026522435 0.01153171 -0.00085861527 4278406574
0.02878321 0.009997298 0.00034372159 4278734248
0.031054638 0.0084632309 0.001545521 4278668714
0.032758832 0.0092895804 0.0007966063 4278930598
0.034848087 0.0085425852 0.0013478971 4278929834
0.0375368 0.0054359166 0.0038483506 4280503438
0.041250981 -0.0016029845 0.0095959827 4282602344
0.0044391081 0.0063965963 0.0018101824 4280829583
0.0061839819 0.0072248122 0.001059904 4279192994
0.017047755 0.0098255733 -0.0014854844 4278668459
0.018934987 0.0098644989 -0.0015842121 4278930598
0.020998321 0.0091142012 -0.0010335463 4278537643
0.022708908 0.0099425456 -0.0017814867 4278603434
0.024413861 0.010770787 -0.0025290458 4278734249
0.026482038 0.010020875 -0.0019784963 4278733994
0.028555445 0.0092711179 -0.0014281109 4278537644
0.030634105 0.0085215615 -0.00087800471 4278602669
0.033635318 0.011756041 -0.0036683516 4278531524
0.039603211 0.0031589605 0.0032643629 4278993329
0.0431403 -0.0031102342 0.0083482414 4282471273
0.0056811869 0.0080833221 -0.0020112218 4279389344
0.0088178813 0.01132716 -0.0048037041 4278270658
0.012737006 0.010612315 -0.0043522939 4278466243
0.014784411 0.0098593151 -0.0038026327 4278863533
0.016495526 0.010689558 -0.0045491224 4278472619
0.018201016 0.011519737 -0.0052952799 4278472619
0.020253293 0.010767098 -0.0047456794 4278603434
0.022131905 0.010805978 -0.004843859 4278603434
0.023828663 0.011636226 -0.0055893743 4278603434
0.026072919 0.010092723 -0.0043927478 4278472364
0.028140731 0.0093407119 -0.0038437336 4278471854
0.030213803 0.0085888794 -0.0032949424 4278666928
0.031329527 0.011792502 -0.0059806081 4278535604
0.033204235 0.011831741 -0.0060782554 4278796979
0.041674621 0.0008779671 0.0026771114 4279652503
0.044823192 -0.0038264967 0.0064545437 4282537063
0.0073729381 0.0074053565 -0.0038770637 4279127203
0.0086187869 0.010619472 -0.0065638078 4278405808
0.012201652 0.011489942 -0.0074070115 4278274739
0.014408745 0.0099407984 -0.0062119905 4278669224
0.016285084 0.0099793961 -0.0063102236 4278538154
0.017987803 0.010811749 -0.0070546521 4278669223
0.01986105 0.010850447 -0.0071526025 4278800294
0.021913022 0.010095627 -0.0066045299 4278603433
0.023607016 0.010928026 -0.0073483326 4278537899
0.025848337 0.0093800826 -0.0061547346 4278472364
0.027539238 0.010212523 -0.0068982253 4278340018
0.030904181 0.01187729 -0.008384224 4279389343
0.032968558 0.01112322 -0.0078365058 4278996898
0.034840293 0.01116244 -0.007933965 4279192739
0.037514277 0.0080293948 -0.0054521165 4278602669
0.039803132 0.0064829029 -0.0042606555 4278930853
0.043132879 0.00097188912 0.00015287823 4279325084
0.045874164 -0.0021595662 0.0026313569 4282537064
0.0073336437 0.0058974121 -0.0049948711 4279388069
0.0087394118 0.0083240969 -0.007029796 4279127204
0.010291159 0.0099545559 -0.008418642 4278799528
0.011997096 0.010788846 -0.0091617741 4278668714
0.014033303 0.010031256 -0.0086147692 4278603433
0.015904099 0.010069731 -0.0087127201 4278406828
0.023567036 0.00942872 -0.0084596761 4278472363
0.025623903 0.0086719906 -0.0079133529 4278603688
0.027312048 0.0095065823 -0.0086551327 4278733484
0.032733038 0.010419223 -0.0095913298 4278536369
0.038542539 0.0097416388 -0.0092400974 4279061669
0.04164952 0.0050101113 -0.0054798881 4278734759
0.044788875 0.00027940515 -0.0017213332 4280374154
0.0091793612 0.0044281017 -0.0062114708 4282136969
0.010414392 0.0076594679 -0.0088846684 4278800039
0.011957839 0.0092941215 -0.010269762 4278537643
0.013826005 0.0093324417 -0.01036765 4278602923
0.015864581 0.0085728122 -0.0098223183 4278602413
0.018901274 0.011841721 -0.012589481 4278400199
0.020939335 0.011082274 -0.012043905 4278399178
0.025399588 0.0079684695 -0.0096686557 4278864808
0.027084999 0.0088051287 -0.01040864 4278734759
0.038298734 0.0090397289 -0.01099281 4278800039
0.04099071 0.0058897696 -0.0085247476 4279127969
0.044121511 0.0011457847 -0.0047754785 4279913878
0.010375142 0.0061606281 -0.0099957129 4279061413
0.011753477 0.0085999677 -0.012019381 4278668969
0.013450988 0.0094384952 -0.012758793 4278536878
0.017175697 0.00951513 -0.012953786 4279323808
0.01868581 0.011153807 -0.014333716 4279584673
0.020721018 0.010392153 -0.013789658 4278665399
0.022761457 0.0096306158 -0.013245793 4278535349
0.024991281 0.0080693895 -0.012061361 4278471599
0.026858084 0.0081082126 -0.012158783 4278472363
0.02853515 0.0089469003 -0.012896696 4278734758
0.030206591 0.0097855711 -0.01363424 4278800804
0.032067396 0.009824465 -0.013731204 4279062433
0.033928044 0.0098634036 -0.013828125 4278997153
0.03618937 0.0083031962 -0.012645064 4278735013
0.041361623 0.0027851611 -0.0083613768 4278603689
0.044288889 -0.0011723898 -0.0052615697 4281029504
0.01187937 0.0063053425 -0.012485242 4281746818
0.013411783 0.0079485225 -0.013863254 4279191974
0.01829458 0.011272726 -0.0167142 4279126183
0.020145543 0.011310966 -0.016810985 4278732718
0.024767309 0.0073770871 -0.01380828 4279126439
0.026631303 0.0074158469 -0.013905559 4278864808
0.028305627 0.0082566487 -0.014641713 4278930088
0.030166566 0.0082954513 -0.014738755 4278800039
0.032027304 0.0083343321 -0.014835725 4278866084
0.034480862 0.0059677605 -0.013017174 4278668968
0.039030097 0.0028392002 -0.010658832 4279653013
0.041732341 -0.00032799412 -0.0082042683 4280177549
0.044247612 -0.0026930855 -0.0063887183 4281947758
0.0133726 0.00645875 -0.014967566 4279782553
0.014893964 0.0081061805 -0.01634175 4278864553
0.016404301 0.0097534219 -0.017715249 4278271423
