# .PCD v0.7 - Point Cloud Data file format
VERSION 0.7
FIELDS x y z rgba
SIZE 4 4 4 4
TYPE F F F U
COUNT 1 1 1 1
WIDTH 970
HEIGHT 1
VIEWPOINT 0 0 0 1 0 0 0
POINTS 970
DATA ascii
0.018344708 -0.010630657 -0.00575261 4289539618
0.01986479 -0.0089785093 -0.0071226209 4289735968
0.021739699 -0.0089404685 -0.0072185192 4290194204
0.023800112 -0.0097093191 -0.0066777784 4289997853
0.026054144 -0.011284873 -0.0055007935 4289212454
0.028509967 -0.013667045 -0.0036879722 4288688938
0.030981913 -0.016048804 -0.001875909 4288296238
0.033469968 -0.018430125 -6.4663589e-05 4288427819
0.035774916 -0.020004462 0.0011099256 4287446068
0.037888564 -0.020771854 0.0016482247 4286333758
0.040212154 -0.022345651 0.0028219065 4286071874
-0.002684921 -0.010931881 -0.007074465 4289347348
-0.001108706 -0.0092751207 -0.0084448531 4289606174
0.0010684058 -0.010857678 -0.007267883 4289998110
0.0031005517 -0.011630116 -0.0067279227 4289866783
0.0049795657 -0.01159277 -0.0068246052 4290063389
0.0065361336 -0.0099360291 -0.0081937099 4289997853
0.0084093809 -0.0098985918 -0.0082899453 4290390554
0.010449074 -0.010670621 -0.007750107 4290194204
0.012324743 -0.010632986 -0.0078463554 4291437074
0.014200233 -0.01059527 -0.0079425331 4290193949
0.016250305 -0.011366807 -0.0074030925 4290324509
0.018305637 -0.01213818 -0.006863879 4289997344
0.020366237 -0.012909353 -0.0063248659 4289932063
0.022066355 -0.012062036 -0.0070563518 4289539618
0.023946442 -0.012023856 -0.0071524903 4289081383
0.025826365 -0.011985619 -0.0072485749 4286988853
0.028661288 -0.01599239 -0.0041709999 4286661688
0.033822715 -0.02157745 7.682154e-05 4286988088
0.035535336 -0.020729449 -0.00065505924 4288034864
0.037444279 -0.020690342 -0.00075242249 4286595389
0.039762266 -0.022268683 0.00041834638 4286463808
-0.0048890188 -0.01084731 -0.0093564559 4290522643
-0.003165178 -0.0099984147 -0.010088347 4289803034
-0.0014469102 -0.0091495365 -0.010819878 4289409313
0.00072452426 -0.010736508 -0.0096458672 4289670689
0.0027510598 -0.011511286 -0.0091072656 4289801248
0.0046245307 -0.011474049 -0.0092036631 4291044373
0.0061756745 -0.0098131346 -0.01056925 4289931808
0.0077157989 -0.0081523666 -0.011934218 4288950568
0.0099109635 -0.0097384565 -0.010761123 4289408549
0.011778377 -0.0097010015 -0.01085696 4289343013
0.013817579 -0.010475029 -0.010318641 4289997344
0.015862055 -0.011248894 -0.0097805504 4289866784
0.018089212 -0.012834064 -0.0086088199 4290062623
0.020327054 -0.014418915 -0.0074376343 4289800993
0.022575617 -0.016003542 -0.006266918 4289146919
0.02446378 -0.015965231 -0.0063634934 4287446579
0.032064199 -0.023961347 -0.00032315217 4286334013
0.033978842 -0.023922237 -0.00042088982 4286661178
0.035893321 -0.023883095 -0.00051859114 4288230958
0.037202105 -0.021410998 -0.0025139633 4286987834
-0.008808665 -0.011604497 -0.010901762 4290459659
-0.0072238818 -0.009939231 -0.012266361 4290391064
-0.0055054203 -0.0090883225 -0.012996481 4289540639
-0.0036450848 -0.0090516983 -0.013092463 4289605409
-0.0016347393 -0.0098292176 -0.01255474 4289343523
0.00053376704 -0.011420615 -0.011383806 4289539873
0.0025574267 -0.012197673 -0.010846695 4289539873
0.0042697564 -0.011346463 -0.011576113 4290717719
0.0058154762 -0.0096813543 -0.012938243 4291175443
0.0075139031 -0.0088302204 -0.013666873 4290913304
0.0097061619 -0.010420784 -0.012496817 4290979349
0.011739932 -0.011197196 -0.011959902 4290652184
0.013778985 -0.011973446 -0.011423212 4290324764
0.015823327 -0.012749518 -0.010886746 4289408293
0.018050291 -0.01433909 -0.0097182533 4289604644
0.020648032 -0.017555529 -0.0072861342 4288885289
0.022719055 -0.018330846 -0.0067508724 4287119414
0.024795339 -0.019105988 -0.0062158285 4286661435
0.032023989 -0.025497034 -0.0014551533 4286333758
0.033742219 -0.024644725 -0.0021841493 4286791738
0.035255767 -0.022979233 -0.0035439432 4288884523
-0.012717333 -0.012356471 -0.012443942 4289609999
-0.010714665 -0.013136761 -0.011907834 4290326294
-0.0089851096 -0.012283716 -0.012637035 4290587158
-0.0076869428 -0.0089810835 -0.015263143 4289998364
-0.0061213523 -0.0073117185 -0.016623516 4291306514
-0.0042720065 -0.0072753355 -0.01671895 4291240979
-0.0019725114 -0.0096879816 -0.014918302 4290913814
0.00034316629 -0.012100225 -0.013118428 4290520858
0.0023639426 -0.012879527 -0.012582787 4289866783
0.0037569702 -0.010393789 -0.014573653 4289670689
0.0054555312 -0.0095406519 -0.015300735 4289736223
0.0071484894 -0.0086875157 -0.016027447 4290782999
0.0095014945 -0.011098614 -0.014229196 4290848534
0.011701532 -0.012693273 -0.013062756 4290520603
0.013912275 -0.014287648 -0.011896816 4289343013
0.015959188 -0.015065892 -0.011362047 4288688938
0.018188655 -0.016659772 -0.010196979 4288427563
0.020788811 -0.019884882 -0.0077714259 4288623914
0.023045123 -0.021478064 -0.0066076163 4286530108
0.025497578 -0.023886655 -0.0048140911 4286464828
0.027589865 -0.024663612 -0.0042814482 4286464828
0.029878296 -0.026256004 -0.0031191055 4286464318
0.03140308 -0.024586083 -0.0044763703 4286791483
-0.014620416 -0.013886094 -0.013448254 4289935888
-0.013021693 -0.012212122 -0.014807415 4290262034
-0.011161085 -0.012175901 -0.014903714 4290260759
-0.0097180754 -0.009683378 -0.016892795 4289671454
-0.0080077574 -0.0088284053 -0.017619371 4289474594
-0.0065921992 -0.0063362196 -0.019606888 4290128668
-0.0044564903 -0.0079371938 -0.018440861 4289997853
-0.0023100302 -0.0095379204 -0.017275289 4291044629
0.0001526922 -0.012775302 -0.014849712 4290455579
0.0018596128 -0.011919945 -0.015575781 4289866783
0.003402777 -0.010246309 -0.016931441 4289605154
0.005095847 -0.0093911216 -0.017656647 4289081894
0.0072742254 -0.010990751 -0.016492445 4289408803
0.0094633326 -0.012590131 -0.015328699 4289408549
0.012170374 -0.016643696 -0.012277237 4289081384
0.014217295 -0.017424194 -0.01174421 4288688683
0.01661849 -0.019840587 -0.009953131 4287903794
0.018681407 -0.020620685 -0.0094207907 4287053879
0.021109462 -0.023036402 -0.0076309917 4287576884
0.023371033 -0.024633925 -0.0064706663 4288427564
0.025643274 -0.026231084 -0.0053108484 4286661178
0.027361974 -0.025374658 -0.006036832 4287119414
0.029265895 -0.025336012 -0.0061342027 4286725949
-0.01465717 -0.015379325 -0.014549117 4289017888
-0.013325799 -0.012058958 -0.017164316 4289671964
-0.011607133 -0.011201897 -0.017889831 4289605919
-0.010033138 -0.0095238872 -0.019244369 4290456598
-0.0081864893 -0.0094877779 -0.019339826 4290259738
-0.0066290647 -0.0078099724 -0.020693351 4288427563
-0.0046408325 -0.0085945558 -0.020159461 4288623913
-0.002647303 -0.0093789734 -0.019625798 4289343779
-0.00034305453 -0.011804542 -0.017835014 4289343268
0.0015111044 -0.011767858 -0.017930541 4289801248
0.0032069758 -0.010910548 -0.018654365 4289539618
0.0050581396 -0.010873761 -0.018749617 4289539619
0.0073998645 -0.013298195 -0.016960546 4289473829
0.0097578019 -0.015722319 -0.015172248 4288296493
0.012131877 -0.018146006 -0.013384691 4287184694
0.014522098 -0.020569269 -0.011597962 4286726204
0.016754039 -0.022171961 -0.010439497 4286660413
0.018819533 -0.022954147 -0.0099089444 4286530109
0.021250069 -0.025376439 -0.0081240917 4286660923
0.023514144 -0.026978236 -0.0069671609 4287118904
0.0256036 -0.027759738 -0.0064376891 4287707698
-0.015662733 -0.022671666 -0.011154932 4288887584
-0.014693905 -0.016872363 -0.015649837 4288755494
-0.013496049 -0.012720113 -0.018886652 4289344033
-0.011916511 -0.011037761 -0.020238351 4289212708
-0.010208905 -0.010178687 -0.020961646 4290128924
-0.0083650947 -0.010142641 -0.021056961 4290783254
-0.0066658854 -0.0092835464 -0.021779686 4289539874
-0.0046778247 -0.010070349 -0.02124742 4289670688
-0.0026844442 -0.010856975 -0.020715382 4289801503
-0.00068578124 -0.011643364 -0.020183515 4290063134
0.0011628345 -0.011606826 -0.020278782 4289866784
0.0031694025 -0.01239298 -0.019747194 4289931808
0.0051812679 -0.013178887 -0.019215841 4289539108
0.0076890066 -0.016432526 -0.016805254 4288623403
0.0098858476 -0.018040461 -0.015648413 4287642419
0.012431346 -0.021293199 -0.013239658 4286464828
0.014655076 -0.02290046 -0.012084098 4286399039
0.017238311 -0.026152285 -0.0096771643 4286464318
0.0191347 -0.026114155 -0.0097744185 4286464318
0.021030925 -0.026076004 -0.0098716449 4286791483
0.022744462 -0.025215555 -0.010594317 4287184694
0.024637669 -0.025177311 -0.010691278 4287184439
-0.018979203 -0.027554736 -0.0095630614 4288758554
-0.016957741 -0.028343853 -0.0090347193 4289215514
-0.015443429 -0.025830796 -0.011013344 4289214749
-0.014468919 -0.020016149 -0.015497359 4289148703
-0.013399035 -0.015027554 -0.019352857 4289279519
-0.011816792 -0.013340817 -0.020701498 4289605664
-0.010384522 -0.010828957 -0.022675581 4289147429
-0.0086852685 -0.0099677984 -0.023396786 4290586904
-0.0069915652 -0.0091066072 -0.024117671 4291044629
-0.0048619285 -0.010720886 -0.022960994 4291044883
-0.0028714389 -0.011509768 -0.022430427 4291110164
-0.00087564439 -0.012298437 -0.021900058 4289605409
0.0011254624 -0.013086928 -0.021369904 4289735969
0.0031318665 -0.013875281 -0.020839926 4289604644
0.0054650754 -0.016313108 -0.019060191 4288820009
0.0079779327 -0.019575359 -0.016656302 4287315509
0.010346204 -0.022012381 -0.014878216 4286857528
0.012561724 -0.023624256 -0.013725522 4286399294
0.014787979 -0.025235919 -0.012573306 4286595134
0.017024942 -0.026847228 -0.011421611 4286725693
0.018918537 -0.026809206 -0.011518761 4286725949
-0.017120153 -0.029034957 -0.010779699 4289149214
-0.015608527 -0.026515413 -0.01275343 4289410078
-0.014113318 -0.023996159 -0.014726211 4289410078
-0.013035078 -0.018994365 -0.018572509 4289017633
-0.011580918 -0.016475637 -0.020543043 4289343778
-0.01042106 -0.012302237 -0.023761716 4288885544
-0.0090051889 -0.0097840708 -0.025730133 4289212709
-0.0073169768 -0.0089208903 -0.02644911 4290193693
-0.0051930174 -0.010539606 -0.025295414 4289866784
-0.0029084608 -0.012985323 -0.023518212 4289670178
-0.00091281533 -0.013776211 -0.022989471 4289016104
0.00108812 -0.014566889 -0.022460923 4288558123
0.0032523572 -0.016184552 -0.021309037 4287446069
0.0059094205 -0.020282971 -0.018287413 4287511604
0.0082666874 -0.022726849 -0.016513664 4287315254
0.010640137 -0.025170278 -0.014740727 4286660924
0.012523197 -0.025132705 -0.01483751 4286660413
0.014577672 -0.025921892 -0.014311402 4286725693
0.016463175 -0.025884155 -0.014408228 4287052859
-0.015901502 -0.026365735 -0.015113642 4289148704
-0.014150221 -0.02549964 -0.015834637 4289082914
-0.012671415 -0.022974044 -0.017801724 4288755494
-0.011345219 -0.019618958 -0.020390932 4288689703
-0.010318667 -0.014604968 -0.024224799 4289081893
-0.0089000165 -0.01208027 -0.026188575 4288558379
-0.007209152 -0.011214885 -0.026906095 4289146664
-0.0050826669 -0.012837992 -0.025755737 4289277478
-0.002945438 -0.014460744 -0.0246059 4289212198
-0.00094996393 -0.01525383 -0.024078771 4287773489
0.0013612285 -0.017705407 -0.022307664 4287119158
0.0036886334 -0.020156605 -0.020537347 4286661179
0.0061928183 -0.023436522 -0.018146016 4286530108
0.0082285553 -0.024228567 -0.017620705 4286726459
0.010269605 -0.025020374 -0.017095644 4288100143
0.012147136 -0.024982946 -0.01719217 4287576118
0.014024548 -0.024945483 -0.017288662 4286987579
-0.016322188 -0.025375154 -0.018089265 4287511858
-0.01431777 -0.026171044 -0.017564721 4288362284
-0.012574844 -0.025302805 -0.018283654 4288624170
-0.010973584 -0.023602787 -0.019623667 4288820518
-0.0097998232 -0.019407414 -0.022827026 4288689703
-0.0085118115 -0.016044248 -0.025407735 4288689704
-0.0069570988 -0.014344855 -0.026745129 4288558123
-0.0049723983 -0.01514055 -0.026219215 4288035119
-0.0028326735 -0.016767634 -0.025072742 4287184694
-0.00068219006 -0.018394468 -0.023926727 4286595644
0.0016341731 -0.020852454 -0.022160769 4286399038
0.0039667413 -0.02331008 -0.020395543 4286202944
0.005994305 -0.024104523 -0.019871537 4286333503
0.0078638792 -0.024067461 -0.019967806 4286791483
0.0095672905 -0.023199063 -0.020683937 4286922554
-0.014615804 -0.026003797 -0.019911695 4288427564
-0.012611687 -0.02680173 -0.019388717 4288492589
-0.01101042 -0.025097385 -0.020725533 4288623914
-0.0096977279 -0.021725146 -0.023301173 4288493353
-0.0082653835 -0.019187178 -0.025256045 4287970094
-0.0064167902 -0.019151131 -0.025351677 4288165933
-0.0044213757 -0.019948857 -0.024827898 4287315509
-0.0025703013 -0.019912574 -0.024923518 4286857273
-0.00041459501 -0.021543657 -0.023781061 4286660924
0.0019069612 -0.024008131 -0.022020165 4286202688
0.0040868744 -0.025638573 -0.020878833 4286464318
0.005956471 -0.025601633 -0.020975195 4286726204
0.0071729571 -0.02223056 -0.023545332 4286399039
-0.012915067 -0.026628032 -0.021730497 4287249463
-0.01118324 -0.025755674 -0.022445578 4288165423
-0.009734422 -0.023211004 -0.024396591 4287708210
-0.0081605688 -0.021502681 -0.02572865 4287577138
-0.0063093677 -0.021466613 -0.025824439 4287707443
-0.0043114051 -0.022266425 -0.025302444 4287380533
-0.0023081005 -0.023066089 -0.024780691 4287446069
-0.00029949844 -0.023865549 -0.024259139 4287118649
0.0017144382 -0.024664905 -0.023737788 4286660669
0.0038914382 -0.026299771 -0.022599533 4286725948
-0.011491869 -0.025571074 -0.024779029 4287969074
-0.0097710788 -0.024696693 -0.025491886 4287707443
-0.0081972182 -0.02298408 -0.026820775 4287903794
-0.0063461438 -0.022948049 -0.026916582 4287642164
-0.0043483227 -0.023750082 -0.026396222 4286726203
-0.0026442707 -0.022875715 -0.02710798 4287249718
-0.00079352409 -0.022839442 -0.027203586 4287641909
0.0013670996 -0.024479125 -0.026067808 4287445558
-0.011936147 -0.024537157 -0.027720995 4287707444
-0.010084949 -0.024501313 -0.027816951 4287903538
-0.0083751902 -0.023624897 -0.028527647 4287969073
-0.0065269247 -0.023588926 -0.028623313 4287445813
-0.004825525 -0.022712566 -0.029333424 4286922298
-0.003129676 -0.021836225 -0.030043181 4287052859
-0.0086942837 -0.023418689 -0.030844364 4288295984
-0.0068515316 -0.0233829 -0.030939799 4287314489
-0.0053023472 -0.021661969 -0.032260913 4286267968
-0.0092955679 -0.021514064 -0.03437778 4286856763
-0.0074638054 -0.021478504 -0.034472659 4286006083
0.018024936 0.011328137 0.041620735 4280069174
0.019976765 0.011367297 0.041520573 4280916284
0.012453467 0.0081414469 0.042124964 4281890639
0.013253741 0.013434991 0.037267447 4281371203
0.017333418 0.021056218 0.030177597 4279222063
0.020125359 0.017342569 0.033474591 4280264248
0.0078687295 0.0095031466 0.038453866 4281103964
0.0090166852 0.013306497 0.034962554 4281174089
0.010462373 0.015603648 0.032828875 4281371968
0.011891507 0.01790051 0.030696142 4280589884
0.013304077 0.020197177 0.028564289 4281763649
0.0147001 0.022493592 0.026433345 4281763649
0.016599998 0.022531761 0.026335884 4280200243
0.019028269 0.020312166 0.028270658 4280981054
0.023082934 0.011320006 0.036299828 4281306434
0.0044924617 0.014698209 0.031309634 4280844374
0.0059440657 0.017001865 0.029180367 4280848198
0.0078585595 0.017039908 0.029081848 4281111613
0.0096103176 0.017833086 0.028306946 4281046333
0.011191152 0.019381257 0.026856091 4279743029
0.012928873 0.020174334 0.026082043 4281241663
0.014148794 0.023232142 0.023280215 4281958723
0.016040429 0.023270162 0.023183197 4280459833
0.018284112 0.021798698 0.024437774 4279743283
0.021790527 0.015044319 0.030421272 4281110848
0.025708839 0.0067816544 0.037753303 4281306689
0.00075619668 0.012321208 0.031045564 4281433168
0.001469411 0.018418944 0.025542974 4278764084
0.0032189861 0.019214062 0.024769574 4280264503
0.0052770004 0.018494362 0.025346864 4280655164
0.0078195035 0.015503017 0.027948882 4281110339
0.0094087198 0.017055647 0.026500769 4281176384
0.011152029 0.01785096 0.025727998 4280003894
0.014451034 0.020198641 0.023509067 4279095584
0.018596932 0.018761033 0.024662923 4279482163
0.021035314 0.016528694 0.026587535 4281242429
0.023852848 0.012783021 0.029859174 4281111613
0.027250119 0.0067674853 0.035150703 4281045823
-0.0015007704 0.012257364 0.028657477 4280452438
-0.00047308207 0.016853413 0.024514738 4280457794
0.0071416274 0.017004313 0.024122596 4280459834
0.0092072114 0.016282836 0.024698 4281176128
0.010947756 0.017080301 0.023927007 4281176129
0.012682632 0.017877778 0.023156323 4280784958
0.014070675 0.020193735 0.021040417 4280199224
0.015962094 0.0202318 0.020943444 4280395319
0.018029332 0.019510789 0.02151908 4281111104
0.02028054 0.01803085 0.022766899 4281112379
0.022542395 0.016551169 0.024014276 4281111869
0.024999097 0.014312832 0.025933243 4281437249
0.028219528 0.009039076 0.030539449 4281501508
0.032425985 -2.8286129e-05 0.038503021 4282413643
-0.0049589947 0.0083550345 0.029738195 4281233504
-0.0041764751 0.014488803 0.024257649 4280325193
-0.002853632 0.017574085 0.021469317 4280850239
-0.0012552664 0.019135242 0.020026827 4280719679
0.00048351288 0.019934407 0.019257203 4281763138
0.0023708194 0.01997179 0.019159999 4281502784
0.0044148639 0.019247515 0.019734759 4279547698
0.006464161 0.018523412 0.02030937 4281176639
0.0083563253 0.018561156 0.02021211 4281176894
0.010413378 0.017837422 0.020786408 4281046334
0.012475669 0.017113889 0.021360513 4281111104
0.01420211 0.017913455 0.020592004 4280849984
0.015749641 0.019474434 0.019152742 4280719423
0.017814003 0.018751157 0.019726966 4280915263
0.019704886 0.018789368 0.019630138 4281045823
0.021776959 0.01806646 0.020204056 4281175874
0.025936738 0.016621178 0.021351244 4279156274
0.029730618 0.0090491027 0.027956661 4278764083
0.034347832 -0.0015659146 0.037239816 4278635054
-0.0055596232 0.0098648332 0.02591309 4279863134
-0.0047876984 0.016015941 0.02044598 4280782919
-0.003475666 0.019109746 0.01766466 4280197948
-0.0012934133 0.017618759 0.018908875 4278894898
0.0005967021 0.017656097 0.018811449 4279808819
0.0023324862 0.018457508 0.018043686 4280981818
0.0039057732 0.020022796 0.016605981 4280264503
0.0056275502 0.020824103 0.015839066 4280199989
0.0078306124 0.019333983 0.017082546 4281176638
0.0098793209 0.018607935 0.017655687 4281111359
0.011933282 0.017882062 0.018228611 4280915264
0.013651513 0.018683655 0.017462142 4281045314
0.015364096 0.019485222 0.016696027 4280915008
0.017246939 0.019523235 0.016599584 4280849984
0.019129552 0.019561315 0.016503206 4280915518
0.021011941 0.019599477 0.016406899 4281046079
0.024962872 0.018912716 0.016883258 4280198714
0.027794905 0.015134851 0.020130154 4279415608
0.036074266 -0.0023399862 0.035308529 4279219769
-0.0055979639 0.0083267111 0.024779163 4279667038
-0.0046825409 0.013728948 0.019994341 4281239879
-0.003513597 0.017597882 0.016550107 4281370694
-0.0016288608 0.017635031 0.016452897 4279871803
0.00010433793 0.01843849 0.015686821 4279291933
0.0019859746 0.018475762 0.01558991 4279876904
0.0054295957 0.020082744 0.014059229 4280720698
0.0073052049 0.020120187 0.013962841 4280523839
0.009345606 0.019391751 0.014534842 4280849984
0.011391237 0.018663539 0.015106589 4281045824
0.013271667 0.018701354 0.015010158 4280849984
0.014978759 0.019505003 0.014245946 4280718913
0.016856059 0.019542908 0.014149789 4280915263
0.018911727 0.018815244 0.014721276 4280981564
0.020791307 0.018853368 0.014625128 4279483183
0.022486649 0.0196571 0.013861755 4281502273
0.024363056 0.019695314 0.013765885 4281762629
0.026618175 0.018202713 0.015004089 4281177149
0.02946049 0.014414227 0.018242458 4281371714
0.032719545 0.0090956632 0.022813007 4281175363
0.036609285 0.001482144 0.029381458 4281174343
-0.0053554848 0.0052516628 0.024981271 4279864408
-0.004291214 0.0099007227 0.020875275 4280260169
-0.0029680803 0.013012236 0.018106304 4279874099
-0.0016669184 0.016123427 0.015338548 4281894463
-0.00038772821 0.019234275 0.012571994 4281372989
0.0013315976 0.020039735 0.011808312 4280915774
0.0030452833 0.020845203 0.011045007 4280915773
0.0050722882 0.020114185 0.011615911 4280588609
0.0072667375 0.018615188 0.0128534 4280523584
0.0089771226 0.019420853 0.012090459 4280653888
0.010849506 0.019458419 0.011994377 4280263993
0.012380958 0.021032082 0.010565627 4280720698
0.01424747 0.021069704 0.010469973 4281045824
0.016465388 0.019571623 0.011706587 4281176894
0.018693998 0.018073788 0.01294275 4281177149
0.020570755 0.01811186 0.012846755 4278833699
0.022263333 0.01891779 0.01208511 4278376483
0.024136931 0.01895594 0.011989381 4278373933
0.026199758 0.018226506 0.012559159 4279351093
0.02865199 0.015962182 0.014459221 4279024693
0.031120323 0.013698198 0.016358543 4280718913
0.034592554 0.0075972863 0.021582033 4281241408
0.039309651 -0.0031070784 0.030792493 4281306689
-0.0051132292 0.0021681376 0.025177129 4279210588
-0.0037571415 0.0052888934 0.022412881 4280454734
-0.0024230182 0.0084093809 0.019649819 4279868233
-0.0014079362 0.013070825 0.015556151 4281175109
-0.00027444959 0.0169611 0.012130029 4281175618
0.0012935549 0.018539326 0.010702232 4280524094
0.0030071959 0.019346977 0.0099405404 4280394554
0.0050340369 0.018613772 0.010509843 4280785214
0.0070661157 0.017880792 0.011078961 4280523839
0.0089385808 0.017918287 0.010982823 4280264758
0.010308102 0.020266609 0.0088920519 4279034639
0.012001686 0.021074349 0.0081316847 4279160099
0.016250677 0.018839186 0.0099345259 4281178424
0.018297881 0.018106999 0.010503231 4281244724
0.020350292 0.017374998 0.011071729 4280916793
0.022040121 0.018183021 0.01031189 4278636838
0.028420135 0.015218539 0.012680012 4280588609
0.030885503 0.012947958 0.014574656 4281045569
0.034354448 0.0068295822 0.019785387 4281502019
0.038667522 -0.0023662411 0.027646989 4281370183
-0.005292125 0.0013950579 0.023372669 4279797089
-0.0037956312 0.0037515815 0.021279566 4280126549
-0.0023156628 0.0061079487 0.019187365 4279932239
-0.0010006875 0.009236889 0.016431812 4280196164
0.00029231608 0.012365509 0.01367747 4280654654
0.0015633553 0.015493779 0.010924325 4281241919
0.0032823756 0.016303713 0.010163971 4280590649
0.0048363954 0.017886223 0.0087402649 4280785213
0.0068655834 0.017151 0.0093079172 4280981564
0.0085704178 0.017960941 0.0085485037 4280786489
0.0099345595 0.020315746 0.0064628101 4280656183
0.011792906 0.020353151 0.0063675358 4279549483
0.016036093 0.018111343 0.0081658494 4281047098
0.018080413 0.017376931 0.0087331049 4281046843
0.019948833 0.017414862 0.0086375531 4281046843
0.021817029 0.017452857 0.0085420627 4280719933
0.023685031 0.017490922 0.0084466394 4280850494
0.026120678 0.015213063 0.010337871 4280915263
0.028764412 0.012163693 0.012890315 4280915264
0.031429678 0.0091148093 0.015441771 4281568319
0.035301119 0.0014354754 0.021962803 4282089028
0.039627001 -0.0077862665 0.029804405 4282088773
-0.005330652 -0.00014855899 0.022234697 4279993948
-0.0039771125 0.002989687 0.019483469 4280125783
-0.0023541227 0.0045774467 0.018059075 4279997009
-0.00089063495 0.0069401395 0.015972642 4280521543
0.00085862726 0.0077526923 0.015212219 4280459069
0.0019868016 0.011664797 0.011802576 4280589373
0.0034007356 0.014026804 0.0097189089 4280850238
0.0049574822 0.01561374 0.0082982918 4280588863
0.0066651776 0.016425835 0.0075402837 4280525368
0.008367233 0.0172379 0.0067826211 4280004149
0.0098961741 0.018824609 0.0053636017 4281568064
0.011754423 0.018862015 0.0052683349 4281307709
0.013612486 0.018899495 0.0051731369 4280851514
0.015821606 0.017388115 0.0064005768 4280917049
0.017684691 0.017425863 0.0063052457 4281047099
0.019909717 0.015915019 0.0075319633 4280655163
0.022145413 0.014404463 0.0087581808 4280655674
0.024205282 0.01366836 0.00932323 4281046334
0.026648812 0.011384165 0.011209183 4280849218
0.029300407 0.008326197 0.013754829 4281892424
0.032168172 0.0044946894 0.016959731 4282348108
0.035852447 -0.0024322476 0.02280397 4282543694
0.039785519 -0.01013208 0.029305778 4282412368
-0.0043013915 0.0030096397 0.017029475 4279799893
-0.0025382265 0.003824424 0.016269781 4280127568
-0.00078068674 0.0046392418 0.015510488 4280586568
0.0011223331 0.0046768896 0.015412439 4280849983
0.0022560954 0.0086000711 0.012010537 4281176639
0.0036755428 0.010968694 0.0099314693 4279807799
0.0049191862 0.01411408 0.0071927831 4281109319
0.006626837 0.014928361 0.0064363908 4280718404
0.00799945 0.017296357 0.0043598819 4278375973
0.0095229596 0.018887265 0.0029443973 4279418668
0.011375666 0.018924581 0.0028494312 4279093034
0.013401031 0.018185275 0.0034143203 4278702629
0.015607223 0.016669514 0.0046386449 4279288873
0.017824106 0.015154021 0.0058625396 4280917814
0.020051643 0.01363886 0.007085897 4280916538
0.022473596 0.011347491 0.0089680497 4281047863
0.024911627 0.0090565588 0.01084939 4282091323
0.027554967 0.0059896484 0.013388976 4282415938
0.030027941 0.0036995187 0.015268671 4282479433
0.032906212 -0.00014267303 0.018464983 4282608974
0.036403425 -0.0063128248 0.023635663 4282477649
0.040143929 -0.013258196 0.029462561 4282345814
-0.0044826046 0.002259111 0.015241832 4280060758
-0.0024310574 0.0015172325 0.015803088 4280062034
-0.00037423521 0.00077554956 0.016364142 4280522819
0.0012347549 0.0023719836 0.014947084 4280653634
0.0028326809 0.0039683301 0.013530622 4280982074
0.0041065663 0.0071229711 0.010796773 4280658479
0.0053585097 0.010277204 0.0080641499 4280590648
0.0067504123 0.012652045 0.0059914235 4281305158
0.007796526 0.016584719 0.0026024098 4280656184
0.011167213 0.018217223 0.0010954116 4278376483
0.015744008 0.014397817 0.0041962937 4280915774
0.017963395 0.012878053 0.00541679 4280915773
0.02055537 0.0098011326 0.0079523753 4281111104
0.023168884 0.006724745 0.010486931 4281180973
0.025617532 0.0044275019 0.012362905 4281768493
0.028271422 0.0013520774 0.014895498 4282485044
0.030755006 -0.00094437599 0.016769823 4282873664
0.033643775 -0.0047972566 0.019957541 4282478413
0.036756784 -0.0094278846 0.023800872 4282738768
-0.00041287392 -0.00075636804 0.015234819 4280781898
0.0011961088 0.00084442832 0.013820986 4280915519
0.0029477179 0.0016636737 0.013065355 4281046843
0.0045372844 0.003264321 0.011652621 4281242684
0.0059566349 0.0056461766 0.0095832627 4281634109
0.0071976185 0.0088090021 0.0068577128 4280724269
0.0080874711 0.013534026 0.0028193044 4281438778
0.0092791095 0.016696082 9.6376054e-05 4280981818
0.011298917 0.015952187 0.00065831491 4280981053
0.01384221 0.012865314 0.0031897686 4280980543
0.016231596 0.010560011 0.0050637065 4281372734
0.018637121 0.0082550626 0.0069369129 4280460344
0.021058723 0.0059505869 0.0088093318 4282552618
0.023680106 0.0028656218 0.011337031 4282943534
0.026136644 0.0005619619 0.013207816 4282941239
0.028420255 -0.00096057169 0.014422017 4283268659
0.030906297 -0.0032634772 0.01629141 4283725109
0.033797421 -0.0071272356 0.019470934 4283789369
0.037109919 -0.012551507 0.023959845 4283655749
-0.040291805 0.010318562 0.0048884717 4284573238
-0.00030331314 -0.0030717868 0.014761886 4280716109
0.0014592931 -0.0022502281 0.014007236 4281044548
0.0030626431 -0.00064508431 0.012596989 4281569084
0.004654929 0.00095999613 0.011187352 4281243193
0.0063952208 0.0017813928 0.010434058 4281635383
0.007644482 0.0049531627 0.0077144955 4281636914
0.0083782151 0.010474758 0.0030299532 4281117479
0.0097426474 0.012862328 0.00096844765 4281372223
0.011770457 0.012116449 0.0015283178 4281307199
0.014494255 0.0082378089 0.0047079152 4280134453
0.017069682 0.0051429551 0.0072313463 4280334629
0.019488528 0.002831731 0.0090990355 4281638188
0.021923482 0.00052093156 0.010965973 4282355504
0.024190977 -0.00100643 0.012177676 4283008303
0.026469141 -0.0025334824 0.013388899 4283401514
0.028757975 -0.0040602889 0.014599673 4283859239
0.031249188 -0.0063696085 0.016463907 4284247859
0.0012696758 -0.002995817 0.012223797 4281106259
0.0030238703 -0.0021721516 0.01147126 4281831223
0.0046161488 -0.00056270696 0.010064848 4282484534
0.0065154284 -0.00052482635 0.0099672191 4282093364
0.0077675134 0.0026557185 0.0072539542 4282028339
0.008997649 0.0058358684 0.004541921 4282094129
0.010205857 0.0090157185 0.001831043 4281505078
0.012411565 0.007482361 0.0030424013 4281571379
0.015145876 0.003593022 0.0062133982 4282224434
0.017731838 0.00048966147 0.0087298471 4283007538
0.019983225 -0.0010425709 0.0099390894 4283922478
0.022245288 -0.0025744848 0.011147786 4283988524
0.024701521 -0.0048913229 0.013008853 4283791663
0.026801392 -0.0056374399 0.013563782 4284314669
0.028906524 -0.0063833809 0.014118494 4284705839
0.0012309775 -0.0045248372 0.01109662 4282150994
0.0032921657 -0.0052749403 0.011651163 4282941239
0.004889898 -0.0036610849 0.010247724 4282615348
0.0064765587 -0.0020473162 0.0088448785 4282616879
0.0080521479 -0.00043371692 0.0074427156 4282354993
0.0092878267 0.0027553272 0.0047368142 4281898798
0.010835856 0.0043685269 0.0033361781 4281701939
0.012882389 0.0036186725 0.0038918732 4282355249
0.015279308 0.0012938306 0.0057508769 4282943278
0.017867669 -0.0018182136 0.0082607502 4283269169
0.020121567 -0.0033547655 0.0094666351 4284118318
0.022386119 -0.0048909755 0.010671992 4284119083
0.024661377 -0.0064269491 0.011876891 4284576298
0.0050072148 -0.0059777955 0.0097733242 4283791153
0.0067555085 -0.0051497016 0.0090244487 4282943279
0.0080132633 -0.0019516163 0.0063237678 4282616879
0.0094134361 0.00045618974 0.0042748512 4282095149
0.011131264 0.0012839418 0.0035277379 4282875958
0.01318308 0.00053201988 0.004081557 4283203378
0.015412666 -0.0010095704 0.0052853255 4283857708
0.017828152 -0.0033404995 0.0071386034 4284118318
0.0068754107 -0.0074683446 0.0085484516 4283923498
0.0081359819 -0.0042614844 0.0058540674 4283139118
0.0097032413 -0.0026392331 0.0044588479 4282485553
0.011259437 -0.0010171048 0.0030641942 4282485553
0.013483547 -0.002563227 0.0042649778 4283662889
0.01554589 -0.0033170488 0.0048166956 4283792428
0.017963856 -0.0056545269 0.0066650454 4284381223
0.0082586035 -0.0065754652 0.0053813341 4283792428
0.0096643344 -0.0041545322 0.0033418227 4282550068
0.01155448 -0.0041165715 0.0032448571 4282615349
0.013953499 -0.0064610941 0.0050891796 4283533349
0.016023852 -0.007217017 0.0056388909 4284708644
-0.045163233 -0.0075253909 0.0057225879 4284573239
0.0097896382 -0.0064661168 0.0028706819 4284052528
0.011682391 -0.0064281216 0.0027735692 4283920694
0.0028798282 0.0032921955 0.041665409 4278994603
0.0033275783 0.010883769 0.034793861 4279263118
-0.0041900277 -0.0029846169 0.044966001 4279718039
-0.0029123202 0.00084247999 0.041483663 4278997664
-0.0015186295 0.003911525 0.03867865 4278342314
-0.0080595613 -0.0054109413 0.0446743 4282405228
-0.0066161975 -0.0023324806 0.041872952 4278799019
-0.0053327084 0.0015055668 0.038398325 4278733993
-0.0040766522 0.0053431727 0.034925181 4278474149
-0.010860991 -0.0024669254 0.039564189 4279192993
-0.0057852715 0.0022204518 0.035221111 4278337469
-0.014711373 -0.0048851939 0.03927717 4279979414
-0.013375174 -0.0010246821 0.035815652 4279127204
-0.0099909082 0.0021086652 0.032926492 4278993839
-0.0079101548 0.0013821498 0.033497166 4279453093
-0.0063753277 0.0037130099 0.03138249 4279131793
-0.018928848 -0.0050068041 0.036976006 4281159298
-0.017327614 -0.0026687859 0.034862299 4279651738
-0.015618779 -0.0010976586 0.03341987 4278734504
-0.014047828 0.0012399983 0.031307895 4278406319
-0.01029399 0.002081858 0.030436475 4278992054
-0.0083539039 0.0021195896 0.030336037 4279781533
-0.021627758 -0.0020048944 0.031901885 4280043928
-0.020153165 0.0011084676 0.029124264 4278730933
-0.018336497 0.0019145776 0.028354622 4279453859
-0.016277298 0.0011828765 0.028922893 4278996388
-0.014593169 0.0027579553 0.027485088 4278734504
-0.008662343 0.002101643 0.027852993 4278336704
-0.025122143 -0.0067262175 0.033625033 4280503948
-0.02418007 0.00025288574 0.027513351 4279586203
-0.019344538 0.0065331571 0.021872908 4278667693
-0.016935296 0.0034855083 0.024442211 4278735014
-0.015011348 0.0035226122 0.024342373 4278734503
-0.012828629 0.002017824 0.025576361 4278668968
-0.010767337 0.0012842547 0.026143186 4279322533
-0.027765475 -0.0036918204 0.028571241 4278473384
-0.026373446 0.00021279417 0.025138542 4278866338
-0.025347963 0.0064374413 0.019709073 4280439178
-0.015429206 0.004300613 0.021209501 4279980178
-0.0132549 0.0027912688 0.02244075 4278668969
-0.011201981 0.0020554196 0.023006368 4278931364
-0.0090089217 0.00054670125 0.024236768 4279324829
-0.030480113 0.00014565326 0.022870362 4279390618
-0.028985746 0.0032851398 0.020110738 4278538918
-0.027623583 0.0072000567 0.016687701 4282078574
-0.013551507 0.0028027855 0.01997862 4278603688
-0.011372134 0.0012892876 0.021206468 4278931364
-0.0093168393 0.00055141561 0.021770436 4278931874
-0.03145976 0.0056066699 0.015764128 4282080358
-0.011938274 0.0028603077 0.017424237 4280440710
-0.0077070817 0.00060255826 0.019211572 4278608788
-0.035593603 0.0063549336 0.012855054 4278927284
-0.012899898 0.0067881532 0.011674192 4280833154
-0.01047086 0.0037064161 0.014216994 4279194015
-0.0082950145 0.0021843538 0.015438748 4279194523
-0.039225366 0.0032046437 0.013257883 4278603433
-0.038003553 0.0087177977 0.0085347481 4281487994
-0.0088825002 0.0037838407 0.011678964 4280833664
-0.0067070574 0.0022575539 0.012897548 4279456663
-0.042878881 4.5977533e-05 0.013655889 4279980178
-0.04161308 0.0055749454 0.008941602 4279981453
-0.0096068606 0.0061849561 0.0072754351 4281555314
-0.0073052421 0.0038701799 0.0091481805 4279849364
-0.0049874336 0.0015557613 0.011020192 4278342569
-0.044987865 6.2419102e-05 0.011317339 4280898179
-0.0051682442 0.00082123093 0.0092443433 4280964478
-0.0028372779 -0.0014993586 0.011110926 4279194523
-0.0031663701 -0.0014476907 0.0086806081 4280572033
-0.00052878261 -0.0053506996 0.011847903 4281293938
0.0016934574 -0.021299662 -0.034946177 4282798183
-0.02498138 0.01502871 0.0098461788 4285689373
-0.023227524 0.015840078 0.0090845823 4286278679
-0.021115713 0.014324894 0.010315577 4285622308
-0.029989865 0.0087544229 0.013012226 4284901933
-0.028431658 0.011123931 0.010924635 4285230373
-0.026889931 0.013493305 0.0088379597 4285557793
-0.025364663 0.015862463 0.0067522125 4286411279
-0.023500673 0.015898095 0.0066552572 4286212634
-0.021515671 0.015156096 0.0072208969 4286212889
-0.019153811 0.01208139 0.0097732665 4285426213
-0.032438472 0.011107236 0.0086870529 4284901933
-0.030885596 0.013483088 0.0066045001 4285361954
-0.029018655 0.013518451 0.0065071471 4285689629
-0.027377643 0.015114063 0.0050872946 4285754909
-0.025747627 0.01670952 0.0036681278 4285556773
-0.023891944 0.016744995 0.0035716055 4285622819
-0.021794248 0.015220815 0.0047968831 4285819933
-0.019685771 0.013696915 0.0060217353 4285557538
-0.017566543 0.01217336 0.0072460556 4285295654
-0.0153073 0.0098703559 0.0091303755 4284901168
-0.034961067 0.014265204 0.0037165778 4285491493
-0.033206906 0.015082555 0.0029593753 4285558303
-0.031243511 0.014335269 0.0035224687 4285624094
-0.029384885 0.014370473 0.0034255506 4285689629
-0.027639229 0.015188022 0.0026690578 4286083349
-0.025899138 0.016005615 0.0019128921 4286016538
-0.02392802 0.015258888 0.0024759583 4285819678
-0.022072598 0.015294479 0.0023795394 4285885724
-0.020217314 0.015330175 0.0022832062 4286083349
-0.018488638 0.016147999 0.0015279672 4285558303
-0.016248759 0.013838088 0.0034084627 4285427233
-0.013992682 0.011528593 0.0052881958 4285295653
-0.038906887 0.014277017 0.0014960226 4285753378
-0.037350971 0.016665662 -0.0005772775 4286146844
-0.035505813 0.01670027 -0.00067374483 4285950748
-0.033556141 0.015950436 -0.00011163019 4285688609
-0.031601109 0.015200811 0.00045028795 4285689373
-0.029860873 0.016020315 -0.00030440278 4285689628
-0.028126203 0.016839838 -0.0010587098 4286346509
-0.026166059 0.016090648 -0.00049680658 4286016794
-0.024200585 0.015341679 6.4901076e-05 4286082328
-0.022229787 0.014592929 0.00062642153 4286017049
-0.020377353 0.014628561 0.00053023174 4285558048
-0.018777892 0.016232619 -0.00088056177 4285558813
-0.016802035 0.015484272 -0.00031907856 4285558814
-0.014820877 0.014736148 0.00024221931 4285427233
-0.012161475 0.010068201 0.0040880512 4285164074
0.033562057 -0.0078957779 0.017673563 4285033004
0.036279909 -0.010987144 0.02019015 4285754398
-0.042466696 0.01115063 0.0019117536 4284967214
-0.040982462 0.014332974 -0.00081553683 4285295398
-0.039230939 0.015154293 -0.0015696324 4286475539
-0.037484951 0.015975619 -0.0023233537 4286408983
-0.035642665 0.016010189 -0.0024196589 4286408983
-0.033695914 0.01525812 -0.0018590018 4285951003
-0.031743802 0.014506252 -0.0012985487 4285755164
-0.030006379 0.015327903 -0.0020514689 4285624093
-0.028161783 0.01536295 -0.0021475703 4285689628
-0.026317287 0.015398113 -0.0022435859 4285886234
-0.024354734 0.014646919 -0.0016833255 4285885724
-0.022507761 0.014682351 -0.0017793057 4285754909
-0.02053728 0.013931522 -0.0012192987 4285623838
-0.018940564 0.015539879 -0.002626732 4285558813
-0.017096706 0.015575582 -0.0027223071 4285558558
-0.015384793 0.016397612 -0.0034732586 4285492514
-0.013140347 0.014074968 -0.0016025454 4285622309
-0.010467932 0.009394275 0.0022330103 4285163054
-0.044712856 0.012785656 -0.0017120652 4285296164
-0.043137606 0.015187444 -0.0037770122 4285493024
-0.041391551 0.016010726 -0.0045292908 4285755164
-0.039554685 0.016044946 -0.0046254946 4285688353
-0.037816968 0.016868303 -0.0053771725 4285556773
-0.03577942 0.015324751 -0.0041622268 4285885724
-0.033835575 0.014570402 -0.0036029872 4285820188
-0.031993628 0.01460517 -0.0036991239 4285623584
-0.030041818 0.013851246 -0.0031401701 4285558048
-0.028422739 0.015463891 -0.0045459894 4285492768
-0.026583839 0.015498968 -0.0046416987 4285493024
-0.024863191 0.016322801 -0.0053918911 4285493024
-0.022785518 0.014780754 -0.0041784113 4285624604
-0.020820674 0.014027623 -0.0036197342 4285624348
-0.019103117 0.014851725 -0.0043695252 4285689373
-0.017649218 0.01725279 -0.0064269779 4285951769
-0.015816525 0.017288389 -0.0065218881 4286409238
-0.013849489 0.016535731 -0.0059630089 4286343449
-0.011191145 0.011841739 -0.0021364223 4285884448
-0.0086401999 0.0079366863 0.0010351664 4285294123
0.026947267 -0.0079625566 0.013081284 4285426469
-0.044747174 0.011307104 -0.0028022421 4285426978
-0.043171924 0.013715411 -0.0048623709 4285558559
-0.041425962 0.014540887 -0.0056130253 4286149648
-0.039589241 0.014575096 -0.005709229 4285951003
-0.037950635 0.016191849 -0.0071132313 4285491238
-0.036017794 0.015435049 -0.0065551456 4285622564
-0.034184068 0.015469553 -0.006650934 4285885978
-0.032136064 0.01392209 -0.0054395739 4285623583
-0.030077249 0.012374867 -0.0042286664 4285558303
-0.028345566 0.013200874 -0.0049779881 4285558559
-0.026734803 0.014817821 -0.0063800775 4285427489
-0.025135044 0.016434627 -0.0077814721 4285361698
-0.023183875 0.015678963 -0.0072237598 4285493023
-0.021103855 0.014132751 -0.006013589 4285558559
-0.019391835 0.014958927 -0.0067614801 4285689374
-0.017814368 0.016575748 -0.0081613883 4286214418
-0.016116228 0.017401906 -0.0089084497 4286212379
-0.014289245 0.017437505 -0.0090029854 4286278169
-0.011913806 0.014311207 -0.00648956 4285951003
-0.0093768835 0.010395037 -0.0033253306 4285360424
0.0029463619 -0.0052255895 0.0092203133 4284967468
0.020259798 -0.0056710858 0.0089911399 4285033004
0.022526868 -0.0072116153 0.010193142 4285360679
-0.044693433 0.0090351999 -0.0032393304 4285557029
-0.043297026 0.01303719 -0.0066003008 4285492259
-0.041647397 0.014658267 -0.0080018342 4286083348
-0.039912514 0.015485862 -0.0087502664 4286082584
-0.038282122 0.017106822 -0.010150615 4286082329
-0.036459338 0.017141001 -0.010245918 4286082329
-0.034427825 0.01558874 -0.0090370104 4286017304
-0.032492645 0.01482998 -0.0084804529 4285624093
-0.030442256 0.013278302 -0.0072723618 4285624349
-0.028718829 0.01410632 -0.0080196485 4285558559
-0.027000953 0.014934359 -0.0087665515 4285558814
-0.025524721 0.017348485 -0.010815831 4285493279
-0.023340393 0.015004469 -0.008956858 4285493023
-0.021386821 0.014246786 -0.008400796 4285492513
-0.01955412 0.01428215 -0.0084958831 4285754908
-0.017979406 0.015903318 -0.0098924702 4285754398
-0.016284052 0.016731577 -0.010637724 4285556518
-0.014459912 0.01676709 -0.010732133 4285557283
-0.012498833 0.016010055 -0.010176091 4285754908
-0.010392621 0.014460573 -0.0089699905 4285558049
-0.0078480691 0.010533739 -0.0058141472 4285426978
-0.0051311925 0.0058150385 -0.0020096907 4285295143
-0.0022338107 0.00030459277 0.0024430042 4286674183
-0.044111699 0.0019844566 0.00022844877 4285557538
-0.042877588 0.0075891856 -0.0044278363 4285754908
-0.041588239 0.01239761 -0.0084309736 4285426213
-0.039946906 0.014023049 -0.0098288106 4285754398
-0.038415473 0.016443929 -0.011876673 4285885469
-0.036595553 0.016478071 -0.011971815 4285688864
-0.03467137 0.015716856 -0.011416421 4285623838
-0.032634746 0.014160426 -0.010210931 4285689628
-0.030697133 0.013399653 -0.009656026 4285624094
-0.029091775 0.015025111 -0.011051471 4285558048
-0.027382161 0.01585515 -0.011796347 4285623839
-0.025678109 0.016685205 -0.01254085 4285558303
-0.023858912 0.016720125 -0.012635368 4285558559
-0.021792985 0.015164902 -0.011430922 4285492258
-0.019842438 0.014405074 -0.01087625 4285754908
-0.017886564 0.013645409 -0.010321733 4286149139
-0.016451757 0.016065808 -0.012363636 4285951259
-0.014630478 0.016101291 -0.012457875 4285819933
-0.012809329 0.016136834 -0.012552065 4286083094
-0.010848567 0.01537771 -0.011997548 4285885979
-0.0088824928 0.014618797 -0.011443221 4285492769
-0.0063303038 0.01068126 -0.0082957167 4285492258
0.006836392 -0.0089966999 0.0074217878 4285558048
0.018274568 -0.0087667499 0.006835172 4285557794
-0.043794565 -0.0027026609 0.0017247768 4285360423
-0.04264003 0.0037154071 -0.0035703909 4285623074
-0.041529167 0.010132797 -0.0088631725 4285492004
-0.040077429 0.013358239 -0.011556474 4285493023
-0.038548701 0.015785618 -0.013599356 4285559068
-0.036731657 0.015819697 -0.013694354 4285558813
-0.034914695 0.015853884 -0.013789267 4285624348
-0.032990802 0.015090602 -0.013235382 4285624093
-0.031171307 0.01512506 -0.013330263 4285755163
-0.029576883 0.016754666 -0.01472192 4286279699
-0.027647831 0.015991764 -0.014168021 4286147608
-0.025949307 0.016823934 -0.014910665 4286017303
-0.023894396 0.015264003 -0.013708896 4285623074
-0.022075448 0.015299002 -0.01380334 4285689884
-0.020130526 0.014536867 -0.013249998 4285689883
-0.018180292 0.013774948 -0.012696852 4286084114
-0.016487814 0.014607491 -0.013438744 4286082583
-0.014800917 0.015440011 -0.014180287 4286147864
-0.012982611 0.015475517 -0.014274315 4286279953
-0.010885037 0.013917206 -0.013074248 4285623583
-0.0087767169 0.012359135 -0.011874636 4285623583
-0.0062222108 0.0084108002 -0.0087353345 4285556773
0.01408387 -0.0087791821 0.0046129739 4285230628
-0.043565735 -0.0066068247 0.0025602756 4285098028
-0.042040229 -0.00337152 -0.00013061473 4285557283
-0.041096751 0.0046637245 -0.0067071365 4285623329
-0.039727423 0.008698117 -0.010042373 4285492769
-0.03838541 0.012732115 -0.013376095 4285493278
-0.03656305 0.0127663 -0.013471368 4285493533
-0.034949299 0.014400246 -0.01486102 4285558814
-0.033132568 0.014434537 -0.014955838 4285689884
-0.031315938 0.014468947 -0.015050567 4285754909
-0.029724266 0.016102845 -0.016438872 4286082073
-0.027798131 0.015337741 -0.015886478 4286081819
-0.026102412 0.016172001 -0.016627323 4286016539
-0.024171062 0.015407192 -0.016075056 4285820188
-0.022234369 0.014642591 -0.015522919 4285689884
-0.020418398 0.014677623 -0.015617144 4285689629
-0.018473785 0.01391341 -0.015065317 4285558303
-0.016786825 0.014748028 -0.015805312 4285623073
-0.014971234 0.014783366 -0.015899286 4285623328
-0.01301885 0.01401961 -0.015347636 4285623329
-0.010642193 0.010858566 -0.012859968 4285623328
-0.0081015453 0.0068989731 -0.0097280685 4286083094
-0.0053887367 0.002140956 -0.0059523908 4286804999
-0.0027912185 -0.00181734 -0.0028232951 4286868239
0.011810213 -0.0087437751 0.0022992569 4286408983
-0.043512922 -0.0089191748 0.0020933645 4285228588
-0.041894052 -0.0064774407 5.5124983e-05 4285426213
-0.040571526 -0.0016291738 -0.0039207647 4285557284
-0.039281774 0.0032186061 -0.007894922 4285557794
-0.038123544 0.008867979 -0.012513132 4285492769
-0.036699086 0.012110574 -0.015191951 4285493279
-0.0351923 0.014550863 -0.017223921 4285558813
-0.033381157 0.014585042 -0.017318454 4285755163
-0.031570114 0.014619356 -0.017412886 4285754654
-0.029983915 0.016257448 -0.018797651 4285688098
-0.028063413 0.015490068 -0.018246569 4285688098
-0.026255399 0.015524613 -0.018340625 4286148629
-0.024085861 0.013154171 -0.016500205 4285754399
-0.022393178 0.013990795 -0.017239172 4285689629
-0.020580053 0.014025768 -0.017333254 4285624349
-0.018767055 0.014060857 -0.01742724 4285624348
-0.016691312 0.012493014 -0.016232688 4285624094
-0.014873128 0.012528421 -0.016326781 4285689373
-0.012644447 0.010159772 -0.014489018 4285687588
-0.010259978 0.0069901589 -0.012008197 4286277659
-0.041748073 -0.0095917806 0.00023458293 4285228844
-0.040233433 -0.0063391523 -0.0024427902 4285294634
-0.038740646 -0.0030868491 -0.0051188823 4285359659
-0.037763271 0.0041866861 -0.011015353 4285294123
-0.036632147 0.009850936 -0.015620849 4285229353
-0.035226777 0.013101999 -0.018292155 4285493024
-0.033522647 0.01394031 -0.019030556 4285886998
-0.031714462 0.013974549 -0.019124854 4286082839
-0.030131016 0.015616933 -0.020506267 4285622819
-0.028443523 0.016455313 -0.021243595 4285491239
-0.02652603 0.015685735 -0.020693865 4285556773
-0.024482731 0.014112568 -0.019501179 4285885979
-0.022551857 0.013343509 -0.018952027 4285689628
-0.020741586 0.01337843 -0.019045953 4285624348
-0.018674124 0.011805974 -0.017854266 4285689374
-0.016464517 0.0094302073 -0.016020503 4285623329
-0.014372807 0.0078584272 -0.014829916 4286476814
-0.012270346 0.0062869936 -0.013639863 4286803724
-0.041873734 -0.010294776 -0.0015216158 4285228588
-0.040175345 -0.0086466642 -0.0029063998 4285229099
-0.036261167 0.0051678531 -0.0141251 4285557029
-0.03505303 0.01004055 -0.018075377 4285492513
-0.033664022 0.013300121 -0.020739309 4285623838
-0.032077789 0.014946872 -0.022117756 4286279698
-0.030502543 0.016593462 -0.023495518 4286016794
-0.028823301 0.017433798 -0.024230786 4286082329
-0.027031876 0.017468026 -0.024323978 4286279699
-0.024879262 0.015084213 -0.022492386 4285755163
-0.022833571 0.013506774 -0.021302942 4285689629
-0.020651244 0.011123743 -0.019472741 4285624093
-0.018452685 0.0087410584 -0.01764328 4285689373
-0.015843943 0.003941305 -0.013891558 4286410514
-0.013604812 0.00155963 -0.012064035 4286671634
-0.011349484 -0.0008216314 -0.010237277 4286604824
-0.034463294 0.0037364606 -0.015301614 4285359659
-0.033378195 0.0094305426 -0.019882027 4285294888
-0.032112308 0.013507115 -0.023179259 4285558049
-0.030537091 0.015158044 -0.024553809 4286018323
-0.028972864 0.01680894 -0.025927741 4286214928
-0.027066641 0.016034788 -0.025380645 4285952279
-0.024914309 0.013644423 -0.023553878 4285623583
-0.022499543 0.0096380748 -0.0204482 4285557539
-0.020309322 0.0072486028 -0.018623203 4285753378
-0.017845791 0.0032433942 -0.015519907 4286409493
-0.01548643 4.6864152e-05 -0.013057311 4286474008
-0.038749985 -0.0083736898 -0.0077794222 4285031984
-0.037079073 -0.0067171175 -0.0091562131 4285228589
-0.035419129 -0.0050606634 -0.010532292 4285359659
-0.034082156 -0.00097211823 -0.013825377 4285359659
-0.032985937 0.0047374051 -0.018395115 4285491493
-0.032037362 0.011256883 -0.023601659 4285360933
-0.030459464 0.012912272 -0.024973176 4285492769
-0.028777644 0.013757 -0.02570536 4285558303
-0.026748553 0.012170341 -0.024521708 4285558048
-0.024468016 0.0089631528 -0.022061773 4285820444
-0.022042751 0.0049461145 -0.018964685 4286477323
-0.019841935 0.0025503077 -0.017145071 4286342938
-0.017624896 0.00015490502 -0.015326231 4286473753
-0.037114203 -0.0082065072 -0.010254344 4285163308
-0.035353076 -0.007358674 -0.010989484 4285294633
-0.03380537 -0.0048849955 -0.012999487 4285425448
-0.032487419 -0.00078581646 -0.01628346 4285359913
-0.031524949 0.0057513323 -0.021477867 4285490984
-0.030045576 0.0082240552 -0.023484059 4285163054
-0.028467786 0.0098838396 -0.024852242 4285359913
-0.026195657 0.0066677183 -0.022398427 4285950493
-0.023901843 0.0034520347 -0.019945648 4286212378
-0.021586366 0.00023689866 -0.017493892 4286342939
-0.019374948 -0.0021652561 -0.015679672 4286342939
-0.035287101 -0.0096608456 -0.011449746 4285359913
-0.033632763 -0.0079957033 -0.012819034 4285360423
