# .PCD v0.7 - Point Cloud Data file format
VERSION 0.7
FIELDS x y z rgba
SIZE 4 4 4 4
TYPE F F F U
COUNT 1 1 1 1
WIDTH 957
HEIGHT 1
VIEWPOINT 0 0 0 1 0 0 0
POINTS 957
DATA ascii
-0.01272691 -0.00022110529 0.03742395 4290520859
-0.01073968 -0.00017988682 0.037311371 4290455069
-0.0086268112 -0.00090163387 0.037870239 4289866529
-0.0063801371 -0.0023861974 0.039100152 4289866529
-0.0042539537 -0.003107436 0.039658438 4289866529
-0.002390407 -0.002302656 0.038874716 4290193438
-0.00066915154 -0.00073501468 0.037420589 4290651163
0.0010410249 0.00083248504 0.035967235 4289931553
0.0030243769 0.00087440573 0.035855461 4288885289
0.0052972808 -0.00060890242 0.037084345 4289408549
0.0075808838 -0.0020919256 0.038312744 4289473828
0.0098751858 -0.0035745502 0.039540593 4290258718
0.011874139 -0.0035318863 0.039428245 4289866019
0.013872884 -0.0034891106 0.039315995 4289604898
0.015712954 -0.0026838705 0.03853431 4289211433
0.017869756 -0.0034032818 0.039091751 4289472554
0.019867875 -0.0033602417 0.038979743 4289668393
0.022032417 -0.0040792879 0.039536901 4290911263
0.02420219 -0.0047981739 0.040093873 4287444539
0.027065501 -0.0085651837 0.043325648 4286855488
-0.020499602 -0.0035042223 0.038034815 4288425778
-0.018730711 -0.0019322969 0.036580522 4289080618
-0.01685803 -0.0011259448 0.035797317 4289604644
-0.014755849 -0.0018504281 0.036354914 4289081638
-0.013009153 -0.00027860701 0.034902152 4289866784
-0.010904521 -0.0010027792 0.035459798 4289932063
-0.0087945908 -0.0017267577 0.036017217 4289801249
-0.0066793449 -0.0024504866 0.036574434 4290062879
-0.0046899915 -0.0024088696 0.036461998 4289997343
-0.0028346926 -0.0016020723 0.035680376 4289997344
-0.0012582615 0.00073478185 0.033560846 4290651674
0.00044099241 0.0023064241 0.032111369 4291044374
0.0025554076 0.001583213 0.032669034 4290913559
0.004964672 -0.000669498 0.034563866 4290913049
0.0073900968 -0.0029217191 0.036457822 4290847513
0.0095311925 -0.0036440678 0.03701428 4290455324
0.011524573 -0.0036015026 0.03690226 4290128159
0.01336205 -0.0027941745 0.036122244 4290389788
0.015193887 -0.0019869078 0.03534266 4290324509
0.017020091 -0.0011796895 0.034563448 4290455068
0.019004464 -0.001136899 0.034452248 4290455324
0.021321796 -0.0026227869 0.035675999 4290520094
0.023819104 -0.0048727095 0.037566561 4290323489
0.026160501 -0.0063579287 0.038789149 4288949804
0.028337806 -0.0070785861 0.039344188 4289799208
0.030342862 -0.0070348866 0.039232172 4288687153
0.032708049 -0.0085192677 0.040453598 4287052348
-0.022214122 -0.0074407756 0.038971025 4286528834
-0.020759456 -0.0035609934 0.035511937 4288491058
-0.018996052 -0.0019848272 0.034061212 4290193183
-0.017128922 -0.0011763582 0.033279907 4291109143
-0.015149884 -0.0011355104 0.033167638 4291044374
-0.013170972 -0.0010945713 0.033055451 4289997598
-0.011069264 -0.0018210225 0.033611689 4289932063
-0.0090879165 -0.0017797844 0.03349955 4289605409
-0.0071067177 -0.0017384561 0.033387486 4289670689
-0.0051256791 -0.0016969861 0.033275541 4289735713
-0.0031447932 -0.0016554231 0.033163678 4289801249
-0.001437217 -7.9324469e-05 0.03171685 4289932064
0.00025931001 0.0014966121 0.030270776 4290128158
0.0022287741 0.0015382664 0.030159799 4290586394
0.0046322867 -0.00072103087 0.032050055 4290390043
0.0070519671 -0.0029799324 0.033939514 4290128158
0.0091874227 -0.0037045307 0.034494631 4290128158
0.011022322 -0.0028952099 0.033716362 4290128158
0.012851566 -0.0020859232 0.032938469 4289997344
0.014516816 -0.00050985906 0.031494666 4290782233
0.016493112 -0.00046734605 0.031383842 4289997088
0.018141642 0.0011084825 0.029941147 4289015848
0.020611651 -0.001148629 0.031828318 4289277734
0.022928521 -0.0026387544 0.033048943 4289408549
0.025256082 -0.0041285674 0.034269031 4289800739
0.027070247 -0.0033189259 0.033492494 4289735204
0.029056147 -0.0032756417 0.033381552 4289276714
0.031402081 -0.0047648265 0.034600858 4288949549
0.033392958 -0.0047212555 0.034489769 4288949039
0.035383604 -0.0046776081 0.034378756 4291957528
0.037374035 -0.00463389 0.034267809 4291564574
0.039937191 -0.0068881302 0.036150325 4289929514
-0.02268149 -0.0059592999 0.035111211 4288491059
-0.021346863 -0.00129891 0.030993437 4288621873
-0.019485146 -0.00048853736 0.030214017 4290258974
-0.017514296 -0.0004479913 0.030102117 4290586139
-0.015543588 -0.00040730368 0.029990332 4290782744
-0.013572991 -0.00036653597 0.029878618 4290521113
-0.011479668 -0.0010952875 0.030433668 4289998110
-0.0092554167 -0.0025934121 0.031655006 4289670688
-0.0072770938 -0.0025521023 0.031543139 4289605409
-0.005429972 -0.0017412193 0.030765152 4289604898
-0.0035884678 -0.00093032606 0.029987579 4289474339
-0.0018890724 0.00064992812 0.028544517 4289408804
7.7709556e-05 0.00069143716 0.028433627 4289474339
0.002044335 0.00073303562 0.028322818 4289474339
0.0043001398 -0.00076364726 0.029542958 4289801504
0.0065666437 -0.002259993 0.030762574 4289408804
0.008543618 -0.0022178376 0.030651433 4288950569
0.010673255 -0.0029446585 0.031205384 4288885289
0.012496985 -0.0021332474 0.030429402 4289474084
0.014315084 -0.0013219081 0.029653853 4290324254
0.015966535 0.00025826599 0.028214185 4290847513
0.017770611 0.0010695038 0.02743957 4290716699
0.020068422 -0.0004254654 0.028657956 4290781978
0.022546083 -0.0026888335 0.030539902 4290978328
0.02469606 -0.0034145038 0.031093167 4289866783
0.026327386 -0.0018342389 0.029654948 4289997598
0.028124958 -0.0010226835 0.028881038 4289474083
0.030276991 -0.0017480394 0.029434389 4290062624
0.032251455 -0.0017048074 0.029324232 4290062368
0.03422568 -0.0016614972 0.029214149 4290782233
0.036387913 -0.0023864163 0.029767169 4290520094
0.038746268 -0.0038792933 0.030982746 4290388514
0.041502595 -0.006908176 0.033523202 4289079598
-0.023148417 -0.0044601127 0.031264577 4289602349
-0.021606099 -0.0013311571 0.028488813 4289538344
-0.019861862 0.00025339704 0.027045649 4289015849
-0.017899346 0.00029378291 0.026934233 4288688939
-0.015819576 -0.00043765269 0.02748826 4289212198
-0.013734482 -0.001168902 0.028042117 4289735969
-0.011766907 -0.0011280486 0.027930683 4290063134
-0.0096739195 -0.0018588593 0.028484223 4289605154
-0.0078321807 -0.0010460028 0.027708096 4289539619
-0.0058650449 -0.0010048123 0.027596945 4289866784
-0.0038980581 -0.00096352678 0.027485875 4290390043
-0.0022041351 0.0006210329 0.026046343 4290978838
-0.00010376424 -0.00010906719 0.026599886 4291109909
0.0018599853 -6.7496672e-05 0.026489262 4289997598
0.0041128248 -0.0015686443 0.027706357 4289277988
0.0062290281 -0.0022980664 0.028259261 4289605154
0.0082004219 -0.0022560284 0.028148433 4289539618
0.010477208 -0.0037562894 0.02936439 4289408549
0.012453668 -0.0037139272 0.029253436 4289539364
0.013955243 -0.0013582455 0.027153431 4289931553
0.015601225 0.00022624247 0.025717305 4290258718
0.017236143 0.0018105162 0.024281891 4290847513
0.019525543 0.00031101517 0.025497505 4290782488
0.021825626 -0.0011882121 0.026712624 4290324764
0.023964547 -0.001916267 0.027264908 4289801504
0.025934137 -0.0018733926 0.027154837 4289997599
0.027903497 -0.0018304382 0.02704484 4289931808
0.029872641 -0.0017873924 0.026934929 4290717209
0.03147614 -0.00020317081 0.025501745 4289408549
0.033253931 0.00061045587 0.024730729 4288754218
0.03540241 -0.00011692476 0.025282901 4289669924
0.037746958 -0.0016144533 0.02649601 4289996579
0.040489353 -0.0046523334 0.029030753 4289341994
0.043449543 -0.0084599061 0.032225288 4289930024
-0.025375679 -0.0045322198 0.028872164 4287574334
-0.023721311 -0.0021688659 0.026766783 4289013553
-0.021974262 -0.0005800752 0.025326649 4289996324
-0.020238239 0.0010086605 0.023887198 4290062114
-0.018284045 0.0010488974 0.02377627 4290128158
-0.016212657 0.00031506829 0.024329193 4290716953
-0.014015906 -0.0011925427 0.025545435 4290651418
-0.012053918 -0.0011517843 0.025434334 4289801504
-0.0099665821 -0.0018848926 0.025986573 4289801504
-0.0081303865 -0.0010699546 0.025212396 4289474084
-0.0061688386 -0.0010288684 0.025101569 4290324509
-0.0043411069 -0.00021390524 0.024328027 4290978838
-0.0023825914 -0.00017266255 0.024217535 4291174934
-0.00028513372 -0.00090498943 0.024769621 4291175188
0.0018175989 -0.0016370844 0.025321502 4290978838
0.003925629 -0.0023690173 0.025873197 4289866783
0.0060389116 -0.0031006811 0.026424637 4289408804
0.0081574619 -0.0038321149 0.026975868 4289474083
0.010281272 -0.0045633391 0.02752688 4289474339
0.011943989 -0.0029743975 0.026092943 4289604899
0.013595611 -0.001385536 0.024659669 4289735713
0.015236169 0.00020312425 0.023227122 4289277479
0.01719287 0.00024534483 0.023117492 4289866529
0.01931569 -0.00048539508 0.023668932 4289735714
0.021612823 -0.0019890266 0.024880981 4289735969
0.023748845 -0.0027193008 0.025431821 4290128669
0.025890104 -0.0034493785 0.025982426 4290128669
0.02768214 -0.00263358 0.025212079 4289932063
0.029468514 -0.0018177824 0.02444214 4290521114
0.030883923 0.00054345094 0.022352414 4291044374
0.032468155 0.0021317359 0.020923574 4290717208
0.03479369 0.00062935427 0.022134505 4290193438
0.037129864 -0.00087270699 0.023344835 4290651164
0.039863758 -0.0039194468 0.025873588 4289799974
-0.024293646 0.00014441088 0.022285379 4287835453
-0.022560269 0.0017373003 0.020849291 4288884269
-0.020726088 0.002553666 0.020076329 4289211178
-0.018668409 0.0018173158 0.020628285 4289800739
-0.016488142 0.00030489638 0.021842131 4290128413
-0.014297094 -0.0012072194 0.023055501 4289735969
-0.012463421 -0.00039035827 0.022282869 4289604899
-0.010384455 -0.001125847 0.022834005 4289931554
-0.0085565075 -0.00030887127 0.022061877 4289735713
-0.0066032819 -0.00026794709 0.02195153 4290782744
-0.0046501979 -0.00022691675 0.021841271 4289212198
-0.0028335974 0.00059011579 0.021070074 4288885289
-0.00074450672 -0.00014454313 0.021621024 4289277734
0.0013498813 -0.00087903347 0.022171794 4289800994
0.0035940334 -0.0023889849 0.023382874 4290062878
0.00555446 -0.0023472654 0.023272604 4289735714
0.0076646507 -0.0030810442 0.023822689 4289735714
0.0097801238 -0.0038146754 0.02437258 4289539364
0.011434644 -0.0022214809 0.022942329 4289801249
0.013236232 -0.0014039241 0.022172606 4290913559
0.015032172 -0.00058640074 0.021403264 4290586394
0.01714959 -0.0013195388 0.021953305 4289931808
0.019438513 -0.0028277133 0.023162486 4290062623
0.021400124 -0.0027851705 0.023052743 4290193694
0.02353327 -0.0035177437 0.023602145 4290324764
0.025497198 -0.0034749531 0.02349242 4289866528
0.027460895 -0.0034320955 0.023382759 4290128414
0.029244505 -0.0026141638 0.022614537 4290128158
0.030657284 -0.00024647173 0.020529892 4290586394
0.032424137 0.00057126768 0.019762736 4290978838
0.034561418 -0.0001606876 0.020312302 4290913304
0.036894657 -0.0016671401 0.021519568 4289735203
0.039432026 -0.0039479774 0.023384178 4289080619
-0.019166917 0.0033776369 0.016829528 4287444538
-0.017115019 0.0026391335 0.017380295 4288034610
-0.014817912 0.00034395233 0.019251535 4289539363
-0.01262727 -0.0011723526 0.020461733 4289277989
-0.01080199 -0.00035340805 0.019691337 4289539618
-0.0088541955 -0.00031270739 0.019581217 4289800993
-0.0070373788 0.0005062893 0.018811468 4290586139
-0.0050926059 0.00054715015 0.018701684 4290586138
-0.0032842532 0.0013661757 0.017932568 4290062879
-0.0012035146 0.00062917918 0.018482378 4289997343
0.001024209 -0.0008855667 0.019691067 4290847768
0.0029737875 -0.000844175 0.019581331 4289997599
0.0052175298 -0.0023584114 0.020789323 4290128158
0.0071722046 -0.002316705 0.020679453 4289997344
0.0092793107 -0.0030526221 0.021228166 4290128158
0.010770336 -0.00067757629 0.019143289 4290390043
0.01271902 -0.0006356854 0.019033989 4291109653
0.014667511 -0.0005937051 0.018924775 4291240468
0.016942807 -0.0021066805 0.02013143 4290913559
0.019062556 -0.0028418172 0.020679811 4289801249
0.021187559 -0.0035767709 0.021227956 4289604898
0.023317784 -0.0043115146 0.021775877 4290390298
0.025278881 -0.0042687892 0.021666305 4290128158
0.027062669 -0.0034487904 0.020899687 4289866528
0.028660998 -0.0018516919 0.019476475 4289932063
0.030430749 -0.0010317694 0.018710738 4289539619
0.032380104 -0.00098896027 0.018602079 4290193693
0.034517229 -0.0017230818 0.019150039 4289997344
0.036850259 -0.0032338989 0.020354066 4289734693
0.03938733 -0.0055212514 0.022213837 4289538089
-0.0092797056 0.00047286507 0.016448919 4287508543
-0.0074711367 0.001293879 0.015681271 4289210923
-0.005534675 0.0013345666 0.015571956 4289538089
-0.0037345663 0.0021556187 0.014804944 4289800229
-0.0015232712 0.00063607749 0.016011246 4290782233
0.00055712461 -0.00010304898 0.016559564 4290128159
0.0026427731 -0.00084189884 0.017107638 4289931553
0.0045866072 -0.00080050901 0.016998315 4289931553
0.0066800937 -0.0015390059 0.017546086 4289866274
0.0087788478 -0.0022772457 0.01809367 4290651163
0.010572314 -0.0014556115 0.017327571 4289670179
0.012360163 -0.00063399225 0.016561868 4289081383
0.014463805 -0.0013718521 0.017109383 4289278244
0.016409256 -0.0013298104 0.017000431 4290455579
0.018686831 -0.0028469339 0.018203752 4289997598
0.020806231 -0.0035842275 0.018750628 4289801248
0.022759259 -0.0035417648 0.018641442 4289866784
0.024712078 -0.0034991996 0.018532349 4290128159
0.026487648 -0.0026771463 0.017767781 4289997344
0.028257594 -0.001855189 0.017003622 4290389788
0.030204356 -0.0018125139 0.016895048 4290586394
0.031965688 -0.00099057797 0.016131494 4289997599
0.034285136 -0.0025060847 0.017332999 4289669668
0.036615223 -0.0040213428 0.018534001 4289734694
0.039536007 -0.0078733228 0.02169825 4290388259
-0.0039122216 0.0013934793 0.012999617 4286789698
-0.0017038807 -0.00013047829 0.014202833 4288818478
0.00037357211 -0.00087177847 0.01474967 4289277734
0.0023119971 -0.00083062332 0.014640562 4289735459
0.0042502508 -0.00078932848 0.01453157 4289866019
0.0063381195 -0.0015301555 0.015078086 4289735459
0.0084312409 -0.0022707116 0.015624346 4290455068
0.010063984 -0.000664928 0.014205059 4290978840
0.011843607 0.00015868433 0.01344144 4289670178
0.013778247 0.00020040013 0.013333024 4289670688
0.015876077 -0.00053966139 0.013879312 4290782999
0.018145263 -0.0020613521 0.015079906 4289866783
0.020256303 -0.0028009219 0.015625611 4289801249
0.022372611 -0.0035403185 0.016171066 4290258973
0.024145626 -0.0027162815 0.015408235 4290062623
0.026089974 -0.0026738206 0.015299676 4290389788
0.027854428 -0.0018497929 0.014537457 4291371539
0.029795662 -0.0018072352 0.014429195 4290978838
0.031736657 -0.0017646085 0.014320999 4291175189
0.034053154 -0.0032845233 0.015519431 4289931554
0.036570869 -0.0055854358 0.017370483 4289669923
0.039684542 -0.010229482 0.021179626 4290519328
0.0039141476 -0.00076927897 0.0120715 4287966779
0.0058466643 -0.0007280102 0.011962904 4289145643
0.0076265708 9.7602606e-05 0.011200754 4289407784
0.0095560178 0.00013900362 0.011092477 4289669413
0.011327393 0.00096467976 0.010330914 4290258974
0.013735563 -0.0013461104 0.012182498 4290848279
0.015996538 -0.0028724056 0.013380252 4291044628
0.017936125 -0.0028304048 0.013271691 4289735968
0.019875526 -0.0027883109 0.013163215 4290193694
0.021643251 -0.001962251 0.012402201 4290193694
0.02375374 -0.0027038846 0.012946481 4290258719
0.025515623 -0.001877781 0.012185922 4289800738
0.027092241 -0.00026808959 0.01077367 4289604899
0.029204853 -0.0010093832 0.011317978 4289408548
0.031507745 -0.0025340747 0.012513902 4290651674
0.034009099 -0.0048418972 0.014360907 4289735203
0.036526516 -0.0071493136 0.016207127 4289472808
0.039253309 -0.0102397 0.018703837 4289668393
0.010811582 0.0017838823 0.0072302888 4287836983
0.01305072 0.00025272463 0.0084259138 4289669668
0.015463829 -0.0020643501 0.010272454 4289604643
0.017395146 -0.002022543 0.010164347 4289931808
0.019157581 -0.0011945646 0.0094052199 4289997344
0.021085806 -0.0011526272 0.0092974342 4289866529
0.0233621 -0.002682534 0.010491313 4290258719
0.024941646 -0.0010684989 0.009082092 4290716954
0.026689693 -0.00024043862 0.0083239879 4289670435
0.028614417 -0.00019824412 0.0082166456 4289343269
0.031093933 -0.0025131861 0.010059988 4289539363
0.033589579 -0.0048277103 0.011902478 4289866018
0.036101304 -0.0071417484 0.013744099 4289342249
0.03862913 -0.0094553931 0.015584923 4288360498
0.016854554 -0.0012013922 0.0070668892 4287900733
0.018440135 0.00041684415 0.0056603667 4288949038
0.020528726 -0.0003296528 0.0062025241 4289604388
0.022622555 -0.0010759551 0.0067444486 4289604133
0.02436804 -0.00024588872 0.005988101 4289931554
0.025928393 0.001372139 0.0045832437 4290782488
0.028024361 0.0006261291 0.0051252325 4290520858
0.03049545 -0.0016954849 0.0069641308 4290847768
0.033170313 -0.0048045367 0.0094506629 4290324509
0.035866715 -0.0079130437 0.011936046 4288950568
0.038391553 -0.010233281 0.013772169 4287248954
0.021535486 0.0021288451 0.0017155553 4287770428
0.023264617 0.0029607257 0.00096174143 4287771959
0.025347017 0.0022121612 0.0015028031 4289080874
0.027616844 0.00067367125 0.0026907451 4289539364
0.030267097 -0.0024447041 0.0051720967 4289604899
0.032751314 -0.0047725169 0.0070054983 4289212198
0.035441928 -0.0078898314 0.0094847307 4289604899
0.032520123 -0.0055237608 0.0052121594 4288032058
0.035017416 -0.0078576673 0.0070399982 4288033079
-0.028237015 -0.0014933255 0.021348137 4282600049
-0.026803304 0.0024401955 0.017930653 4282336378
-0.028680149 7.2739087e-05 0.017549679 4279652249
-0.027257212 0.0040169228 0.014140923 4279127968
-0.023839556 0.0072190221 0.011284385 4278728383
-0.021812137 0.0064775404 0.011834769 4278663359
-0.019779392 0.005736351 0.012384912 4280960654
-0.01762417 0.0042147432 0.013593715 4282335868
-0.029324319 0.003222798 0.012448009 4279259293
-0.027814139 0.0063944198 0.0097063091 4278733994
-0.02431488 0.0088216234 0.0075155725 4279255979
-0.020391293 0.0081170928 0.0079566874 4279323554
-0.018367048 0.0073736738 0.0085057821 4279455390
-0.016217645 0.0058477018 0.0097117461 4279389599
-0.013934933 0.0035393089 0.011574168 4281288329
-0.012011811 0.0035793819 0.011465356 4282859639
-0.029665761 0.0040432066 0.0093356296 4278734758
-0.028060269 0.006438043 0.0072573354 4278733483
-0.02636509 0.0080474894 0.0058362749 4279519648
-0.024572052 0.0088715963 0.0050720549 4278996643
-0.022784565 0.0096957199 0.0043082437 4279258529
-0.020774018 0.0089497175 0.0048564007 4278471088
-0.018875174 0.008988956 0.0047487183 4278996133
-0.016856682 0.0082433596 0.0052966033 4278537899
-0.014710393 0.0067130644 0.006499642 4278603434
-0.012553334 0.0051831268 0.0077020987 4278800039
-0.007084623 0.0068726726 0.0060687033 4278990014
-0.0046341456 0.0037743831 0.0085794441 4281155729
-0.0024396777 0.0022457875 0.0097802021 4281876613
-0.031718537 0.0032630581 0.0076521081 4279258783
-0.030409381 0.0080269892 0.0036134049 4278602669
-0.026616484 0.0081043094 0.0033975225 4278730678
-0.024720181 0.0081431493 0.0032897294 4278666928
-0.018914931 0.007473154 0.0036208918 4278668969
-0.017016347 0.0075125173 0.0035133222 4278865319
-0.015117887 0.0075519737 0.0034058308 4278668969
-0.01309441 0.0068045389 0.0039519835 4278799274
-0.0096844696 0.0092447959 0.0017774259 4279058099
-0.0076586716 0.008497728 0.0023236852 4278400708
-0.0053554811 0.0061773043 0.0041756551 4279451054
-0.0031748787 0.004644081 0.0053739608 4279585439
-0.00098353624 0.0031111706 0.0065717264 4279847579
0.001074329 0.0023651822 0.0071165538 4280633999
-0.033194792 -0.0022510542 0.0098936409 4282994024
-0.032051086 0.004105892 0.0045558936 4278931364
-0.030548774 0.0073033217 0.0018340135 4278603688
-0.020739052 0.0051289778 0.0032534795 4278865319
-0.018954691 0.0059576165 0.0024932632 4278668714
-0.017175887 0.0067862552 0.0017334479 4278537899
-0.015402656 0.007614905 0.0009740442 4278406573
-0.013509907 0.0076543465 0.00086695375 4278667439
-0.011745121 0.008483097 0.00010815985 4279257508
-0.0099858865 0.0093117803 -0.00065021031 4279323554
-0.0080989785 0.0093514454 -0.00075671356 4278272443
-0.0059402511 0.0078132506 0.00043953629 4278994094
-0.0039094985 0.0070643555 0.00098407408 4278602924
-0.0018734336 0.0063156541 0.0015283767 4278734248
0.0004562214 0.0039895717 0.0033742194 4278865318
0.0025082901 0.0032414179 0.0039177733 4278930854
0.0041168779 0.0048594885 0.0025094678 4278995368
0.0058667138 0.005688848 0.0017522061 4278531013
0.0079210252 0.0049410127 0.0022959113 4279710643
0.010296099 0.0026164446 0.0041395319 4281876869
-0.033804324 0.00096378569 0.0048377966 4282273903
-0.032481097 0.0057539698 0.00081766117 4278603944
-0.03088909 0.0081680231 -0.0012454034 4278669479
-0.028900549 0.0074145775 -0.00070121349 4278735013
-0.027012616 0.0074531268 -0.00080862199 4278538664
-0.025124781 0.0074917953 -0.0009159355 4278341804
-0.023125634 0.0067389216 -0.00037208316 4278472874
-0.021006998 0.0051946677 0.00082253804 4278472364
-0.019111309 0.0052338447 0.00071503734 4278472619
-0.017335314 0.0060646143 -4.2984029e-05 4278734504
-0.015687205 0.0076868217 -0.0014511289 4278407084
-0.012168512 0.0093482025 -0.0029648901 4278273464
-0.010156579 0.0085963998 -0.0024211626 4279454113
-0.0082725324 0.0086360089 -0.0025274991 4278601394
-0.0045048706 0.0087155327 -0.002739917 4278799528
-0.002479881 0.007964436 -0.0021966046 4278734248
-0.00044962019 0.007213546 -0.0016535188 4278537899
0.0017327592 0.0056719352 -0.00046152249 4278733739
0.011682533 0.0035032146 0.00095211295 4280305813
0.013747014 0.0027537467 0.0014937916 4280240279
0.015982606 0.0012140023 0.002683267 4281025679
0.017723173 0.0020458736 0.0019286224 4283120248
-0.033938117 0.00023421645 0.003053599 4281485954
-0.032519702 0.004243304 -0.000306417 4278472874
-0.025381133 0.0075731892 -0.0033359982 4278603944
-0.023387641 0.0068180449 -0.0027934324 4278538154
-0.021502871 0.0068568811 -0.0029004 4278603434
-0.019618221 0.0068958234 -0.0030072795 4278406829
-0.0178532 0.0077285338 -0.0037630626 4278472364
-0.016093753 0.00856122 -0.0045184609 4278538154
-0.0067007802 0.0087581277 -0.005049035 4278601649
-0.0048225932 0.0087978281 -0.0051548816 4278865063
-0.0026619285 0.0072512254 -0.003965118 4278668714
-0.0006345734 0.00649813 -0.0034234656 4278733994
0.0031370744 0.0065785553 -0.0036354994 4279388069
0.0048704818 0.0074118525 -0.0043885643 4279060139
0.0070630088 0.0058664586 -0.0032001971 4279058098
0.0091086179 0.0051141903 -0.0026591707 4278992819
0.011480212 0.0027765958 -0.00082501606 4279585184
0.013215654 0.0036103409 -0.0015778956 4278995878
0.015111268 0.0036513675 -0.0016840103 4278930853
0.0168382 0.0044850912 -0.00243629 4279520414
0.018730752 0.0045262501 -0.0025420845 4279192483
0.020275183 0.0061525032 -0.0039397352 4280894354
0.022161923 0.0061936826 -0.0040450962 4280695708
0.024407245 0.0046501961 -0.0028590388 4282204799
-0.034546606 0.0034909248 -0.0019711643 4278669224
-0.029390655 0.0075868182 -0.0055359937 4278399943
-0.025637258 0.0076635592 -0.0057494575 4279519649
-0.02376071 0.0077021178 -0.005856039 4278603688
-0.021884259 0.0077407807 -0.0059625339 4278668968
-0.02012467 0.008575419 -0.0067164879 4278537899
-0.018131685 0.0078184381 -0.0061752554 4278603434
-0.016499963 0.0094489455 -0.007575952 4278472874
-0.014254659 0.0071007833 -0.0057404982 4278931364
-0.01237607 0.0071400609 -0.0058466895 4278603434
-0.0087523647 0.0080144871 -0.0067054853 4278537898
-0.0066052713 0.0064630378 -0.0055182837 4278276269
-0.005001545 0.0080936514 -0.0069169551 4278407339
-0.0029851049 0.00733798 -0.0063763624 4278472619
-0.00096337497 0.0065825675 -0.0058360342 4278406574
0.0027971417 0.0066627432 -0.0060474509 4278730168
0.0045250431 0.0074981097 -0.0067985747 4280108698
0.0065570399 0.0067432988 -0.0062585371 4279453603
0.0084367394 0.0067837331 -0.006363946 4278469814
0.010636859 0.0052343402 -0.0051791109 4278405808
0.012358651 0.0060699359 -0.0059296233 4278865574
0.014572024 0.0045209993 -0.0047454024 4278603688
0.016122296 0.0061515085 -0.0061402223 4278537388
0.017832682 0.0069871265 -0.0068898965 4278602924
0.021413207 0.0078636631 -0.0077439281 4278268873
0.023647435 0.006315615 -0.0065605482 4278662593
0.026074409 0.0039733499 -0.0047337986 4280895119
0.029071771 -0.00075174868 -0.00097673084 4280241043
0.032101542 -0.0054760356 0.002778606 4280369563
0.034783356 -0.0086109489 0.0052453442 4283123819
-0.03756104 -0.0052806777 0.0029500322 4282470253
-0.036475524 0.0019448046 -0.0029853533 4281747839
-0.034869689 0.0043784045 -0.0050347592 4278734503
-0.033182658 0.0060133878 -0.0064361808 4278603178
-0.031305883 0.0060514603 -0.0065431399 4279126438
-0.029532284 0.006887991 -0.0072966926 4279519903
-0.025784627 0.0069646221 -0.0075098248 4279257254
-0.024022188 0.0078012496 -0.0082625011 4278538154
-0.022151332 0.0078398176 -0.0083686635 4278734504
-0.020397272 0.0086765252 -0.0091206767 4278668968
-0.018529344 0.0087152161 -0.0092265354 4278472619
-0.01267112 0.0072363634 -0.0082529159 4278733994
-0.010667939 0.006477857 -0.0077135563 4278538154
-0.00879246 0.0065172911 -0.0078194067 4278735014
-0.0069171116 0.0065568071 -0.0079251872 4278603944
-0.0050419122 0.0065964386 -0.0080308709 4278669733
-0.0031668469 0.006636152 -0.0081364838 4278735015
-0.0011480153 0.0058784597 -0.0075975712 4278472619
0.00058282912 0.0067159031 -0.008347434 4278731698
0.01011458 0.0061197318 -0.0082298964 4278668459
0.011828162 0.0069573689 -0.0089783687 4278668714
0.014033154 0.0054038744 -0.0077968673 4278667948
0.017619684 0.0062823668 -0.0086498745 4278471343
0.019147858 0.0079169329 -0.010040149 4278927283
0.020841531 0.0087545123 -0.010787155 4279123379
0.025121957 0.0064462516 -0.0090687172 4279518883
0.027920581 0.0025044102 -0.0059626875 4279389089
0.031495862 -0.004622933 -0.00029024924 4279651483
0.034549437 -0.0093596894 0.0034540682 4280962694
-0.037066493 0.0052414034 -0.0079815499 4278996898
-0.031544872 0.0061556362 -0.0089474637 4279585693
-0.029673785 0.006193731 -0.0090539958 4279782555
-0.026148796 0.0078710001 -0.010556358 4278602669
-0.024172246 0.0071090106 -0.010017678 4278734248
-0.022418164 0.0079477467 -0.010768177 4278996390
-0.020436369 0.0071860738 -0.01022964 4278668969
-0.018687941 0.0080249514 -0.010979624 4278602923
-0.014958166 0.008102566 -0.011190733 4278530504
-0.0089655183 0.005820157 -0.0095765777 4278734504
-0.0070930235 0.0058596283 -0.0096821841 4278603434
-0.0050822571 0.0050994176 -0.0091446452 4278472619
-0.0034895837 0.0067385398 -0.010536098 4278538154
-0.0016202405 0.0067782514 -0.0106413 4278538664
-4.4189394e-05 0.0084172226 -0.012031665 4278669479
0.0018194243 0.008456992 -0.012136413 4278275759
0.0072519034 0.0093762763 -0.013092201 4278537644
0.0094325095 0.0078177266 -0.011912713 4278603434
0.011460938 0.0070587732 -0.011375508 4278341294
0.013494648 0.0063000191 -0.010838537 4278799784
0.018758535 0.0080199689 -0.012434477 4279455133
0.020446733 0.0088595934 -0.013179563 4278996643
0.022487722 0.0081014186 -0.012642683 4278930599
0.0247159 0.0065446068 -0.011465406 4278864809
0.027508684 0.0025917571 -0.0083671659 4278930853
0.03070318 -0.0029578675 -0.0039896532 4280110483
0.034125581 -0.0093051959 0.0010259454 4282798694
-0.038442269 -0.0011084788 -0.0051210625 4282798184
-0.037288509 0.0053526778 -0.010381801 4278603944
-0.031783633 0.0062687732 -0.011345115 4278665654
-0.030021105 0.007109452 -0.01209485 4278664888
-0.026512638 0.0087907426 -0.013593024 4278603434
-0.024544451 0.0080263689 -0.013055516 4278472364
-0.022570912 0.007262243 -0.012518212 4278668459
-0.020708613 0.0073007084 -0.012623835 4278602923
-0.018846411 0.0073392894 -0.012729364 4278602924
-0.017106351 0.0081802662 -0.01347718 4278667183
-0.015371844 0.0090212189 -0.014224613 4279257253
-0.011528965 0.0082968157 -0.013792502 4278863278
-0.0094042569 0.0067317244 -0.012613863 4278406828
-0.0075400621 0.0067710131 -0.012719007 4278800294
-0.0053992942 0.0052065141 -0.011541158 4278603434
-0.0038120821 0.0068498701 -0.01292906 4278472874
-0.001948297 0.0068894271 -0.013033975 4278603944
-0.00023117661 0.0077309199 -0.013779828 4278603944
0.0014803559 0.0085723307 -0.014525265 4278800038
0.0034902319 0.0078104157 -0.013988929 4278865829
0.0051960126 0.0086518954 -0.014733901 4278669224
0.0072109997 0.0078903064 -0.014197692 4278537643
0.0093913972 0.0063273814 -0.013021452 4278472364
0.011419661 0.0055662394 -0.012485869 4278734504
0.013287649 0.0056066513 -0.012590447 4278472364
0.014987193 0.0064484533 -0.013334729 4278537134
0.027097069 0.0026879637 -0.010764983 4279061923
0.030285604 -0.0028769607 -0.006398526 4280635274
-0.038658902 -0.0010055006 -0.0075278901 4281815413
-0.03732628 0.0038627665 -0.011490459 4278931618
-0.035647459 0.0055104941 -0.01288178 4278800548
-0.033882137 0.006353138 -0.013630176 4278799783
-0.030265164 0.0072335526 -0.014483944 4278468539
-0.0285137 0.0080762412 -0.015231308 4278995368
-0.02665941 0.0081142057 -0.015336726 4278669223
-0.024805222 0.0081522781 -0.015442058 4278407084
-0.02283733 0.0073858555 -0.014906058 4278930598
-0.017267495 0.0075012315 -0.015221709 4279193249
-0.015411101 0.0075399186 -0.015326742 4279324574
-0.01355483 0.0075787213 -0.015431678 4279126948
-0.011698674 0.0076175947 -0.015536554 4278339763
-0.0097097941 0.0068523642 -0.01500118 4278734249
-0.007715594 0.0060873423 -0.014466032 4278472619
-0.0057160854 0.0053225178 -0.013931045 4278799783
-0.0039933138 0.00616608 -0.014675763 4278734759
-0.00041802973 0.0070491228 -0.015524564 4278268618
0.0014398992 0.0070887711 -0.01562899 4278399944
0.0051553175 0.0071683079 -0.015837628 4278800039
0.0070127994 0.0072082225 -0.015941825 4278407084
0.0088701174 0.0072482154 -0.016045948 4278603434
0.010890059 0.0064847153 -0.015511522 4278668968
0.012749784 0.0065249447 -0.015615642 4278735015
0.014609352 0.0065652449 -0.015719699 4278669223
0.016468741 0.006605627 -0.015823685 4278275759
0.024450012 0.0043583801 -0.014326653 4278799273
0.027054764 0.0011868188 -0.011881692 4279061923
0.030242778 -0.0043933345 -0.0075265574 4282208624
-0.038607605 -0.0033155107 -0.0080050798 4281160063
-0.037180122 0.00075863022 -0.011317223 4278800293
-0.035495888 0.0024107518 -0.012705585 4279062433
-0.033920031 0.0048699267 -0.014733827 4280373643
-0.032160319 0.0057147313 -0.015480204 4280242318
-0.030508995 0.0073665921 -0.01686646 4279587734
-0.028657489 0.0074043833 -0.016971808 4278867103
-0.026806068 0.0074422807 -0.01707707 4278997153
-0.02495474 0.0074802972 -0.017182237 4278996644
-0.022989765 0.0067115873 -0.016647659 4278669734
-0.021368843 0.0083633773 -0.018031776 4278275504
-0.013721555 0.0069041196 -0.017172499 4278665399
-0.0098822899 0.0061754771 -0.016743287 4278668969
-0.0081620216 0.0070208777 -0.017486379 4278538154
-0.0063091032 0.00706001 -0.017590826 4278669224
-0.002891019 0.0087509267 -0.019075373 4278271168
-0.00075114518 0.0071779657 -0.017903697 4278991799
0.0011012182 0.0072174836 -0.018007819 4279450798
0.0049600825 0.0064908396 -0.017578529 4279192483
0.0068147331 0.0065306872 -0.017682569 4278538409
0.0085092336 0.0073764175 -0.018423555 4278669223
0.010360852 0.0074163731 -0.018527295 4278735014
0.012377739 0.0066507123 -0.017994262 4278472874
0.014399901 0.0058852378 -0.017461471 4278472874
0.016427368 0.0051199701 -0.016928906 4278865829
0.018286481 0.0051604155 -0.017032823 4278931108
0.020321742 0.0043954412 -0.016500527 4278865829
0.022004217 0.0052415375 -0.017240446 4278603179
0.024226315 0.0036714682 -0.016072545 4278603179
0.027012467 -0.00031412113 -0.012998249 4278734249
0.030387178 -0.0067147855 -0.0080189202 4282470508
-0.038823947 -0.0032012737 -0.01040353 4280373389
-0.037126079 -0.0015446031 -0.011789555 4279324829
-0.035344537 -0.00069744326 -0.012535751 4278341803
-0.033665858 0.00095903967 -0.01392046 4278538154
-0.032098219 0.0034246631 -0.015943298 4279323298
-0.030341398 0.0042716945 -0.016687807 4278537644
-0.02848459 0.0043095769 -0.016793469 4279324828
-0.026627872 0.0043475879 -0.016899027 4280308364
-0.024882205 0.0051947292 -0.017642651 4280045969
-0.023028389 0.0052329004 -0.017747881 4279260314
-0.021407492 0.0068890378 -0.019128751 4278866849
-0.019559324 0.006927304 -0.019233504 4278930854
-0.017711256 0.0069656875 -0.019338163 4278272953
-0.014142744 0.0078514572 -0.020184442 4278468028
-0.012297746 0.0078901034 -0.020288682 4278929578
-0.01032012 0.007120261 -0.019755933 4278603688
-0.0084726401 0.0071591698 -0.019860158 4278538409
-0.0067634583 0.0080066267 -0.020600915 4278800294
-0.0030745864 0.0080847833 -0.020808669 4278865573
-0.0010840148 0.0073157381 -0.020276261 4278996898
0.00076279044 0.0073551238 -0.02038008 4278733484
0.0044559911 0.0074341632 -0.020587487 4278537133
0.0063023716 0.0074738041 -0.020691086 4278603688
0.0081486031 0.0075135361 -0.020794604 4278799783
0.0099946707 0.0075533632 -0.02089804 4278603688
0.011675201 0.008401107 -0.021636518 4278537898
0.017724432 0.0060979817 -0.020041822 4278596293
0.020103879 0.0037154024 -0.018241789 4278537388
0.021962561 0.0037559951 -0.018345563 4278668969
0.024002776 0.0029890854 -0.01781507 4278931363
0.026970215 -0.0018149195 -0.014114702 4280111758
0.030718543 -0.0098477574 -0.0078805536 4281160574
-0.038861807 -0.0047013653 -0.011519773 4280503949
-0.037255831 -0.0022287825 -0.013540186 4279717784
-0.035382535 -0.0021910388 -0.013647139 4279127713
-0.033606593 -0.0013417052 -0.014391311 4278931108
-0.032036211 0.0011305064 -0.016409433 4279127713
-0.030276768 0.0019797394 -0.01715249 4278800293
-0.028417379 0.0020176703 -0.017258301 4278800548
-0.026558083 0.0020557195 -0.017364018 4278931109
-0.022953372 0.0029433044 -0.018211553 4278996643
-0.021213427 0.0037926892 -0.018953091 4279980178
-0.019598093 0.0054531544 -0.02033033 4280242319
-0.017750163 0.0054915454 -0.020434972 4279915153
-0.01590234 0.0055300202 -0.020539545 4279063198
-0.014181867 0.0063794386 -0.021279654 4278539173
-0.012336988 0.0064180698 -0.021383895 4278539174
-0.010492228 0.006456783 -0.021488067 4278603944
-0.008782994 0.0073063206 -0.022227276 4278669223
-0.0070793219 0.0081558097 -0.022966117 4278669479
-0.0015629008 0.0082728155 -0.023276702 4278995623
0.00042463094 0.0075015984 -0.022745699 4279520159
0.0061047003 0.0068096835 -0.022421857 4278537898
0.0079481006 0.0068493262 -0.022525238 4278865319
0.0096287578 0.0076991748 -0.023262152 4278603433
0.011634447 0.0069288779 -0.022731768 4278406063
0.014978677 0.0086286068 -0.024204342 4278268109
0.016989321 0.0078586806 -0.023674041 4278399433
0.021563143 0.0038901381 -0.020715959 4278865574
0.023961008 0.001501522 -0.018921686 4278538409
0.026927993 -0.0033155363 -0.015231023 4280766343
0.030488573 -0.010560535 -0.0096452869 4282798694
-0.03889966 -0.0062012416 -0.012635857 4280242063
-0.037201874 -0.0045359237 -0.014015427 4279652249
-0.035420518 -0.0036844187 -0.014758367 4279258783
-0.033547435 -0.0036465717 -0.014865229 4278603434
-0.031974308 -0.0011678571 -0.016878624 4279193248
-0.03010954 -0.0011299308 -0.016984826 4279259294
-0.028244846 -0.0010918854 -0.017090935 4279128224
-0.026272122 -0.00186715 -0.016561881 4279193248
-0.024626587 -0.00020208117 -0.017937867 4278734758
-0.022764884 -0.000163747 -0.018043546 4278996644
-0.021019574 0.0006879149 -0.018783771 4278276014
-0.014220964 0.004907636 -0.022374704 4278866084
-0.012246322 0.0041332915 -0.0218451 4279062689
-0.010531582 0.0049849655 -0.022583114 4279127968
-0.0086870752 0.0050237812 -0.022687191 4279062689
-0.0071188062 0.0066882651 -0.024057966 4278604454
-0.0054207854 0.0075399522 -0.024794836 4278473129
-0.0017489791 0.0076179001 -0.025001517 4278271678
0.0040664747 0.0061105695 -0.02404598 4278668969
0.0055929869 0.0077748764 -0.025413949 4278603434
0.0074281171 0.0078143608 -0.025516853 4278668714
0.0094256476 0.0070415661 -0.02498767 4278471854
0.011263199 0.0070812535 -0.025090598 4278405553
0.012932621 0.0079332273 -0.025825189 4278732463
0.014425769 0.0095971916 -0.027190937 4279650463
0.018787988 0.0064287782 -0.024870383 4279060649
0.021163993 0.0040331492 -0.023079835 4278996388
0.023556143 0.0016378788 -0.021290112 4278866083
0.026701525 -0.0040041748 -0.016978005 4281422458
0.029697791 -0.008833563 -0.013298649 4282733414
-0.038937498 -0.0077009266 -0.013751799 4279783573
-0.037148006 -0.0068472233 -0.014493689 4279128224
-0.035364024 -0.0059934827 -0.015235227 4279390363
-0.033585552 -0.0051397635 -0.015976308 4278800038
-0.031912494 -0.0034703068 -0.017350933 4278996898
-0.030147776 -0.0026166374 -0.018091058 4279193504
-0.028283238 -0.0025786078 -0.01819717 4278997154
-0.026418783 -0.002540472 -0.018303193 4278866084
-0.024443608 -0.0033177552 -0.017775821 4279193248
-0.0225766 -0.0032793316 -0.017881814 4279259039
-0.020825922 -0.002425394 -0.018620728 4279127714
-0.019080799 -0.0015714066 -0.019359281 4278603434
-0.017462887 9.7841024e-05 -0.020730082 4278865829
-0.015731566 0.00095170736 -0.021467654 4278669224
-0.013878677 0.00099038612 -0.021572439 4278276269
-0.012155745 0.0018443298 -0.022309422 4278472619
-0.0085912608 0.0027370704 -0.023150209 4278341548
-0.0067442805 0.0027760174 -0.023254368 4279258783
-0.0053195842 0.0052597951 -0.025253281 4279651993
-0.0037679076 0.0069284998 -0.026619786 4278866593
-0.0020810738 0.0077822544 -0.027354233 4278342314
0.0001957193 0.0053769816 -0.02556365 4278407849
0.0020339042 0.0054162163 -0.02566696 4278407594
0.0040262416 0.0046409331 -0.025139336 4278473129
0.0053957328 0.0071241297 -0.027134772 4278538154
0.0072280318 0.0071635116 -0.027237548 4278668714
0.012556173 0.0080964584 -0.028175548 4278995113
0.014385179 0.008136088 -0.0282779 4279913114
0.016387351 0.007361602 -0.027750386 4279782555
0.018394805 0.0065873042 -0.027223116 4278733994
0.02094391 0.003370868 -0.024807617 4278603433
0.023514554 0.00015500188 -0.022393247 4279127713
0.026475199 -0.0046882704 -0.018721681 4282471018
-0.038975324 -0.0092004091 -0.014867591 4280045204
-0.03718593 -0.0083445329 -0.015607852 4279324574
-0.035496444 -0.0066705933 -0.016980391 4279520158
-0.03372078 -0.0058147893 -0.017719716 4279061924
-0.031950638 -0.0049589593 -0.018458623 4279127713
-0.030083437 -0.0049209981 -0.018564975 4279193503
-0.028321601 -0.0040651378 -0.01930326 4279324573
-0.026457287 -0.0040270048 -0.019409277 4279259039
-0.024593055 -0.0039887535 -0.0195152 4279390108
-0.022501994 -0.0055856952 -0.018357964 4279258783
-0.020748679 -0.0047295429 -0.019095417 4278931364
-0.018882003 -0.0046909223 -0.01920124 4278406573
-0.01738029 -0.0021997187 -0.021200243 4279127969
-0.015521988 -0.0021610558 -0.021305431 4278866084
-0.013790846 -0.0013049245 -0.022041298 4278997153
-0.011935472 -0.0012661265 -0.022146173 4278931364
-0.010080226 -0.0012272112 -0.022250952 4278668714
-0.0083603039 -0.00037101842 -0.022985967 4278276269
-0.0019745976 0.0055045653 -0.027811293 4278865573
6.981194e-06 0.0047266874 -0.027284825 4278735523
0.0019938722 0.0039489586 -0.026758555 4278735779
0.0038317814 0.0039882697 -0.026861787 4278930854
0.0055125728 0.0048444532 -0.027594062 4278865063
0.0071877986 0.0057005156 -0.028325949 4278669223
0.0088574439 0.0065565929 -0.029057425 4278538154
0.012179986 0.0082686041 -0.030519346 4278599354
0.020723969 0.0027131177 -0.026532028 4279193248
0.023654453 -0.0021439334 -0.022868566 4280307344
-0.039190955 -0.0090589924 -0.017245892 4281555059
-0.037315466 -0.0090213614 -0.01735309 4280833409
-0.035534389 -0.008163387 -0.018091185 4278800039
-0.033661749 -0.0081255836 -0.018198049 4279127458
-0.031888966 -0.0072675301 -0.018935487 4278733739
-0.030121699 -0.0064094979 -0.019672543 4279389598
-0.028359957 -0.0055514527 -0.020409191 4279455389
-0.026495777 -0.0055133463 -0.020515217 4279521179
-0.024631687 -0.005475122 -0.020621149 4279390363
-0.022654276 -0.0062566032 -0.020097071 4279652758
-0.020787645 -0.0062180916 -0.02020297 4279259294
-0.0189211 -0.0061794859 -0.020308794 4278604199
-0.017297793 -0.0045014396 -0.021673499 4278996899
-0.015436899 -0.004462739 -0.021778844 4279062944
-0.013576105 -0.0044239331 -0.021884104 4279325083
-0.011845149 -0.0035655568 -0.022618286 4279062944
-0.0099873058 -0.0035266043 -0.022723224 4279259549
-0.0082647242 -0.0026681991 -0.02345678 4278996898
-0.0064098313 -0.0026291003 -0.023561394 4278996898
-0.0046956725 -0.0017706761 -0.02429433 4278275503
-0.0029870793 -0.0009122286 -0.025026919 4278996133
-0.0015761182 0.0015844265 -0.027015235 4278537898
0.00011591613 0.0024426533 -0.02774672 4278471343
0.00180237 0.0033009276 -0.028477842 4278603179
0.0056293458 0.0025605205 -0.028056446 4278734758
0.0074668825 0.0025999686 -0.028159549 4278931619
0.0089795366 0.004277112 -0.029516947 4278931109
0.010481223 0.0059540458 -0.030873632 4278669478
0.011971861 0.0076308865 -0.032229666 4278406573
0.018137142 0.0044753132 -0.030029578 4278733994
0.020682842 0.0012414316 -0.02762685 4278603433
0.023794264 -0.0044471105 -0.023346968 4278866084
-0.031927127 -0.0087579992 -0.02004453 4281751919
-0.03015995 -0.0078978054 -0.020779969 4279719314
-0.02839829 -0.0070376 -0.021514999 4279586458
-0.026426353 -0.0078215878 -0.020992396 4279389853
-0.024559677 -0.0077833375 -0.021098495 4279586460
-0.022579741 -0.0085669458 -0.020576183 4279587734
-0.020826589 -0.0077064727 -0.021310402 4279586969
-0.01907897 -0.006845999 -0.022044219 4278930598
-0.017458398 -0.005163691 -0.023405546 4279128223
-0.01560035 -0.0051250686 -0.023510747 4279455388
-0.013742417 -0.0050863293 -0.02361585 4279062944
-0.011884581 -0.0050474964 -0.023720877 4278604199
-0.010159239 -0.0041869837 -0.024453057 4279259038
-0.0084394589 -0.0033264928 -0.025184857 4279127968
-0.0064495802 -0.004108943 -0.024662398 4278865828
-0.0030269399 -0.0023877621 -0.026124699 4279192993
-0.0014699474 -0.00070593134 -0.027481724 4278865063
0.00037346035 -0.00066673011 -0.027585436 4278406573
0.0020653084 0.00019373745 -0.028315235 4278472109
0.003905721 0.00023307279 -0.02841863 4278538919
0.0057459995 0.00027247705 -0.028521962 4278342824
0.0075861514 0.00031196326 -0.028625228 4278276269
0.0092638731 0.0011724718 -0.029353978 4278275759
0.010605976 0.0036747716 -0.031333193 4278537899
0.012267105 0.004535093 -0.032060888 4278473383
0.014263541 0.0037538325 -0.031538017 4278866593
0.015918925 0.0046141632 -0.032265287 4278865829
0.017920509 0.0038331328 -0.031742617 4278734759
0.020463169 0.00059047062 -0.029346215 4278800294
0.023571357 -0.0051133051 -0.025077539 4278669478
-0.026357017 -0.010134025 -0.021472694 4281881969
-0.024377193 -0.010919929 -0.020952089 4280766599
-0.022618588 -0.010057309 -0.021685099 4280307853
-0.020749506 -0.010018773 -0.021791158 4279586458
-0.019117966 -0.0083320756 -0.023149926 4278603688
-0.017375965 -0.0074694143 -0.023881784 4279128223
-0.015639506 -0.0066068238 -0.024613218 4279325084
-0.013781697 -0.0065681105 -0.024718333 4279062688
-0.012053594 -0.0057054902 -0.02544914 4278997153
-0.010331042 -0.0048428797 -0.026179558 4279324829
-0.0084789917 -0.00480399 -0.026284127 4279324829
-0.0064892955 -0.0055886423 -0.025763297 4278800549
-0.0046347678 -0.00554949 -0.025867848 4278406574
-0.0029235631 -0.0046867384 -0.026597342 4278996644
-0.0013638511 -0.0030004736 -0.027951324 4278799784
0.00048214942 -0.0029612584 -0.028055213 4278406319
0.0021766648 -0.0020985641 -0.028783547 4278800039
0.0040197 -0.0020592259 -0.028887128 4279193503
0.0058625937 -0.0020197835 -0.028990624 4279194014
0.0078648701 -0.0028034542 -0.028469969 4279062944
0.0095479786 -0.0019406918 -0.029197428 4279127204
0.010895602 0.00056821387 -0.031172112 4278602414
0.016397744 0.00068715494 -0.031480223 4278472618
0.018231496 0.00072694849 -0.031582795 4278996389
0.020422183 -0.00087879878 -0.030439245 4279455644
0.023167357 -0.0049523595 -0.027427612 4282668134
-0.033679012 -0.013429525 -0.020903574 4280371349
-0.019038267 -0.010644157 -0.02363071 4281880949
-0.017415013 -0.0089531504 -0.02498574 4280766853
-0.015554514 -0.0089144818 -0.025091082 4280635273
-0.013947777 -0.0072236704 -0.026444992 4280045204
-0.012092914 -0.0071849423 -0.026549885 4279259293
-0.010370437 -0.0063201832 -0.027278693 4279848599
-0.0083835162 -0.0071071694 -0.026759405 4279651994
-0.0065289885 -0.0070681493 -0.026864054 4278865574
-0.0046745762 -0.0070290472 -0.026968634 4279062179
-0.0031065717 -0.0053383945 -0.028319942 4279324573
-0.0012578517 -0.0052991984 -0.028424041 4278537644
0.00059076399 -0.0052599325 -0.028528081 4278800039
0.0025905669 -0.0060461578 -0.028009081 4279062688
0.004133597 -0.004355697 -0.029358732 4279128478
0.0059790984 -0.0043162163 -0.029462386 4279128478
0.0076650083 -0.0034513213 -0.030188458 4279128478
0.0095075369 -0.0034117782 -0.03029185 4278800294
0.011020146 -0.0017216615 -0.03163949 4278800039
0.01285696 -0.0016820608 -0.031742427 4278996133
0.014693633 -0.0016423911 -0.031845305 4278734249
0.016703203 -0.002427713 -0.031326413 4278669224
0.018542297 -0.0023878533 -0.031429321 4279127459
0.020738207 -0.0039977897 -0.030289339 4279127714
-0.035686016 -0.014132745 -0.022533014 4281880948
-0.019195892 -0.011303688 -0.025360944 4281293174
-0.013860166 -0.009531158 -0.026922921 4281554293
-0.012002714 -0.0094923917 -0.027027968 4279980433
-0.010145366 -0.0094535202 -0.02713293 4279521689
-0.008423049 -0.0085865306 -0.027860064 4279127968
-0.0065686367 -0.0085475361 -0.027964724 4278537643
-0.0048547089 -0.0076805269 -0.028691238 4278865064
-0.0031463578 -0.0068134712 -0.029417388 4278406319
-0.0012977421 -0.0067743254 -0.029521516 4278275758
0.00055076182 -0.0067350739 -0.029625559 4279259038
0.0025504082 -0.0075234994 -0.029108187 4279194015
0.0042474046 -0.0066563506 -0.029833449 4279325084
0.0060955212 -0.006616856 -0.02993728 4279194015
0.0076247081 -0.0049222508 -0.031282775 4278931619
0.0094671249 -0.0048827101 -0.031386159 4278997154
0.010979764 -0.0031883158 -0.032730613 4278865828
0.012984022 -0.003976082 -0.032213155 4279193248
0.014823325 -0.0039363969 -0.032316212 4279061924
0.017008446 -0.0055510793 -0.031178992 4279127713
0.018677197 -0.0046839681 -0.031902175 4279390363
0.020697199 -0.005471122 -0.031385396 4280243849
-0.039733797 -0.0132064 -0.025298981 4281880948
-0.0064706691 -0.010856927 -0.028444817 4282144873
-0.0047540888 -0.0099877054 -0.029169871 4281356158
-0.0031860992 -0.0082884394 -0.030514756 4280438924
-0.0013375878 -0.0082493071 -0.030618887 4279193758
0.00036234409 -0.0073801787 -0.031342812 4278997663
0.0025102645 -0.0090007093 -0.0302072 4279129754
0.0042072237 -0.0081314351 -0.030930873 4279653014
0.0060552433 -0.0080919787 -0.031034725 4278997153
0.0075844452 -0.0063930373 -0.032376982 4278407339
0.0095888376 -0.0071831876 -0.031861316 4279062688
0.011104189 -0.005484405 -0.033202693 4279259548
0.013111018 -0.0062743318 -0.032687031 4279127968
0.014782749 -0.0054051811 -0.033408906 4278996899
0.016967669 -0.0070242281 -0.032274928 4279390363
0.018460743 -0.0053256452 -0.033614848 4279455898
0.020656258 -0.006944357 -0.032481384 4281029248
-0.0030828044 -0.010595482 -0.030993408 4281556334
-0.0013773963 -0.0097241579 -0.031716164 4282078063
0.00032247603 -0.0088528786 -0.032438479 4280898433
0.0023190603 -0.0096457135 -0.031924251 4279587734
0.0043209493 -0.010438384 -0.03141021 4279390874
0.0061715767 -0.010398902 -0.031514231 4278995624
0.0077035055 -0.0086955726 -0.032853484 4278996898
0.0095484629 -0.0086560668 -0.032957077 4279325594
0.011063851 -0.0069529824 -0.03429525 4279194015
0.013070516 -0.0077451207 -0.033781227 4279324829
0.014912359 -0.0077054473 -0.033884473 4279324829
0.016754061 -0.0076656817 -0.033987641 4279389854
0.018420056 -0.0067943837 -0.034707498 4279718039
0.020437054 -0.0075860145 -0.034193844 4281815923
-0.023264483 -0.014166661 -0.029702442 4281749878
-0.0032654628 -0.011237932 -0.03270917 4281686128
0.0041269884 -0.011081183 -0.033125415 4281226619
0.0061313286 -0.011875923 -0.032613095 4281948524
0.0075040609 -0.0093342699 -0.034565162 4280964989
0.0095081329 -0.010128801 -0.034052737 4280439688
0.011023536 -0.0084214276 -0.03538771 4279718039
0.013197444 -0.010049634 -0.03425977 4279652249
0.014871813 -0.0091761434 -0.034978598 4279259038
0.016713426 -0.0091364263 -0.035081793 4279652249
0.018554911 -0.0090966877 -0.035184968 4280438668
0.020396255 -0.0090568457 -0.035288051 4282602854
-0.025491141 -0.013173779 -0.032550197 4282208879
-0.0088502653 -0.012829094 -0.03349328 4281160574
