# .PCD v0.7 - Point Cloud Data file format
VERSION 0.7
FIELDS x y z rgba
SIZE 4 4 4 4
TYPE F F F U
COUNT 1 1 1 1
WIDTH 958
HEIGHT 1
VIEWPOINT 0 0 0 1 0 0 0
POINTS 958
DATA ascii
0.027647577 -0.001314668 0.026362818 4290193183
0.030329071 -0.0043584136 0.028904121 4288949804
0.033032112 -0.0074015902 0.031444255 4286856253
-0.00063537806 0.00040281471 0.023390811 4288621618
0.0016012937 -0.0011055758 0.024608389 4289539363
0.0034187362 -0.00029057544 0.023838151 4289800738
0.0050845295 0.0012987591 0.022405986 4290586139
0.0071855336 0.00056514796 0.022960979 4290913304
0.0091403201 0.00060597342 0.022853736 4291109909
0.011403322 -0.00090133678 0.024070259 4291109653
0.013363175 -0.00086019095 0.023962896 4289604899
0.015482485 -0.0015929802 0.024517138 4289997599
0.01744467 -0.0015515983 0.024409786 4289866784
0.018911377 0.00081158523 0.022318806 4290979094
0.020697169 0.0016268771 0.021550942 4290390299
0.022477336 0.0024420666 0.020783473 4289801503
0.024598345 0.0017098095 0.02133799 4289800993
0.027076542 -0.00056965835 0.023213599 4290323998
0.02957084 -0.0028487085 0.025088385 4289669158
0.032444082 -0.0066744061 0.028283067 4289212199
0.0014193952 -0.0018983404 0.022785015 4288819243
0.003090784 -0.00030462816 0.0213557 4290389788
0.004751116 0.0012889244 0.019927122 4289212198
0.0065490827 0.0021059178 0.019159738 4288950569
0.0086442679 0.0013701618 0.01971348 4289473828
0.010898866 -0.00014168397 0.020927228 4290455068
0.013164178 -0.0016532629 0.022140495 4290193693
0.015120991 -0.0016120742 0.022033378 4289866784
0.016752988 -1.8488616e-05 0.020606741 4289605154
0.018373899 0.001574941 0.019180845 4290193949
0.020151488 0.0023921859 0.018415086 4291175189
0.022093907 0.0024334397 0.018309027 4290978838
0.024382502 0.00092298072 0.019521412 4290913048
0.026681796 -0.00058723148 0.020733304 4290847768
0.029170364 -0.0028728857 0.022603516 4289997089
0.031675041 -0.0051581278 0.024472971 4289145389
0.0027630553 -0.00030972622 0.018879957 4289800993
0.0044179261 0.0012880685 0.017454911 4290978583
0.0062103644 0.0021071583 0.016689401 4290520858
0.0081485584 0.0021476764 0.016583093 4290586393
0.01054886 -0.00014724769 0.018452704 4291044374
0.01265166 -0.00088480767 0.019004565 4290586394
0.014759727 -0.0016221646 0.019556209 4290193949
0.016386278 -2.4348497e-05 0.018133175 4289604899
0.018331707 1.678057e-05 0.018026814 4289474084
0.020109236 0.00083621591 0.017262682 4289931808
0.02222196 9.9329278e-05 0.017814346 4290390043
0.024339922 -0.00063734036 0.018365804 4290586394
0.026463114 -0.0013738275 0.018917028 4290324764
0.028591551 -0.0021101804 0.019468058 4289866274
0.031087786 -0.0044020801 0.021333087 4289735969
0.033416107 -0.0059157694 0.022540357 4289930533
0.0024355724 -0.00030586962 0.016410843 4289212198
0.004376702 -0.00026550237 0.016304221 4290324764
0.0060204789 0.0013365727 0.014883061 4290913558
0.0079558417 0.0013770126 0.014776894 4291109909
0.010045029 0.00063689798 0.015327816 4290913559
0.012139507 -0.00010306668 0.015878551 4289801504
0.014239222 -0.00084275939 0.016429052 4289997599
0.016344197 -0.0015822649 0.016979314 4289408549
0.018454425 -0.0023215571 0.017529368 4289146919
0.020234615 -0.0014998689 0.01676672 4289146919
0.022349901 -0.0022388855 0.017316625 4290258973
0.024297342 -0.0021974323 0.017210361 4289997343
0.026068769 -0.0013756696 0.016448386 4289931808
0.027834557 -0.00055395253 0.015686776 4289408294
0.029957183 -0.0012924485 0.016236547 4289277223
0.032452926 -0.003590879 0.018096842 4288884013
0.035338111 -0.0074488046 0.021266755 4287052348
0.0019652024 0.0004900787 0.013292362 4288686899
0.0040438548 -0.00025274791 0.013842016 4289604644
0.0059792548 -0.00021238998 0.013735785 4289866784
0.0079144761 -0.0001719296 0.013629646 4289931808
0.0096955523 0.00065146293 0.012868201 4289866784
0.011471003 0.0014748322 0.012107138 4289932319
0.013878487 -0.00083274953 0.01396677 4289474339
0.016139992 -0.0023572589 0.015170706 4289605154
0.018412173 -0.0038814032 0.016374085 4289408803
0.020192318 -0.003057539 0.01561306 4289539874
0.02196683 -0.0022337227 0.014852394 4289801249
0.023908712 -0.0021923701 0.014746445 4290063134
0.025498912 -0.000586126 0.01333215 4290521114
0.02743496 -0.00054472778 0.013226648 4290978838
0.029370807 -0.00050326157 0.013121209 4290586139
0.031490341 -0.0012439704 0.013669631 4289472298
0.034548156 -0.0058952495 0.017485809 4288426034
0.0038569942 -0.0010162508 0.012040719 4289145899
0.0057895407 -0.00097595993 0.01193464 4289866529
0.0078731179 -0.0017206538 0.012482559 4290128159
0.009346284 0.00067502726 0.010415182 4290193949
0.011272863 0.00071548298 0.010309644 4290651928
0.013517998 -0.00081380736 0.011511182 4290324763
0.01593589 -0.0031276443 0.013365512 4290128668
0.018040329 -0.0038714106 0.013912651 4289474594
0.019814976 -0.0030455063 0.013153524 4289736224
0.021413758 -0.0014348784 0.011741883 4289867038
0.023347378 -0.0013937177 0.011636376 4290390299
0.024929442 0.00021668151 0.010225814 4289997599
0.026857235 0.00025788881 0.010120751 4290455068
0.028603703 0.0010836851 0.0093634529 4290520603
0.030712195 0.00034056883 0.0099108648 4290322724
0.033758678 -0.0043240241 0.01371795 4288883759
0.037026837 -0.0097721647 0.018175207 4286071364
0.0035245642 -0.00098774116 0.0095901852 4289146153
0.0055999532 -0.0017349208 0.010136909 4289800738
0.0075294897 -0.0016945899 0.010031071 4289604898
0.008997269 0.00070749875 0.0079688309 4290651673
0.010761708 0.0015350068 0.0072116144 4291109909
0.012998432 1.2265518e-06 0.0084103355 4291175444
0.015245862 -0.0015322939 0.0096085705 4291044883
0.017503984 -0.0030654473 0.010806251 4289867038
0.019437879 -0.0030244486 0.010700604 4290194204
0.021031238 -0.0014096377 0.0092925224 4290194204
0.022613496 0.0002050614 0.0078850649 4290782743
0.024535932 0.00024608616 0.0077802418 4290520859
0.026458181 0.00028718915 0.0076754922 4288688939
0.028561279 -0.00045825262 0.008221481 4289343013
0.030485854 -0.0004169615 0.0081167072 4289473318
0.033342674 -0.0043082028 0.011263953 4289145643
0.036037251 -0.0074122655 0.013759472 4289472299
0.0030467287 -0.00016077515 0.0064953361 4288359988
0.0052621141 -0.0016997517 0.0076917 4289473828
0.0070350096 -0.00087010022 0.0069354801 4289867038
0.0084946826 0.0015383465 0.0048785317 4289670433
0.010250904 0.0023678541 0.0041233785 4289670433
0.012319997 0.0016187979 0.0046690772 4290586648
0.014718264 -0.00070851762 0.0065147802 4290717464
0.016803309 -0.0014570383 0.0070597548 4289997598
0.019061014 -0.0029944945 0.0082543436 4290128413
0.020648934 -0.0013754172 0.0068497378 4290063134
0.022398628 -0.00054550637 0.0060953442 4290521114
0.024142675 0.00028438494 0.0053413324 4291175189
0.025881119 0.0011142176 0.0045876727 4290979094
0.027794905 0.0011552125 0.0044834358 4290651674
0.030075915 -0.00038119871 0.0056770872 4290716443
0.032740496 -0.0034947465 0.0081677493 4289865763
0.035237439 -0.0058190953 0.01000871 4289145643
0.0047762394 -0.00086399727 0.0046039429 4289277478
0.0063898787 0.00075930357 0.0032006656 4290782999
0.0079924688 0.002382461 0.0017981306 4289997853
0.0097404644 0.0032139681 0.001045042 4288820264
0.011960387 0.0016711159 0.0022382089 4289539619
0.014191024 0.00012859236 0.0034308676 4289735968
0.01643236 -0.0014136797 0.0046230308 4290063134
0.018517062 -0.0021642987 0.005166471 4290521369
0.020096838 -0.00054109097 0.0037655807 4290455834
0.022011094 -0.00050032791 0.0036611403 4289997854
0.023749672 0.00033163745 0.0029089795 4290259228
0.025660828 0.00037251133 0.0028048391 4291175444
0.027390882 0.0012044152 0.002053306 4291109909
0.029666252 -0.00033652969 0.0032440629 4290717209
0.031952307 -0.00187713 0.0044342466 4289735459
0.034627192 -0.0049990653 0.0069179563 4289146153
0.037131831 -0.0073297201 0.0087536937 4289799208
0.0061981007 2.4939887e-05 0.0014213515 4289670689
0.0077979788 0.0016523646 2.2177584e-05 4290847768
0.0095431805 0.0024860436 -0.00072917528 4291175445
0.01176016 0.00093873404 0.0004609623 4290913558
0.013826005 0.00018533319 0.0010036631 4290979094
0.016061664 -0.0013613533 0.0021928749 4290455833
0.017973468 -0.0013208147 0.0020884397 4290128668
0.019715108 -0.00048684236 0.0013376293 4290586649
0.021796539 -0.0012395214 0.0018797694 4290194204
0.023532353 -0.00040547736 0.0011294212 4289801249
0.0254407 -0.00036469195 0.0010254125 4289866784
0.027167998 0.00046932511 0.00027564308 4289801504
0.029073246 0.00051019527 0.00017191656 4289866784
0.031164609 -0.00024187937 0.0007138059 4289670178
0.033828288 -0.003372781 0.0031916434 4289604644
0.036513545 -0.0065031499 0.0056683607 4289276459
0.039414786 -0.010425846 0.0087890495 4286332228
0.0058555678 9.1133639e-05 -0.0010004148 4289539364
0.0077572241 0.00013096817 -0.0011046592 4289604643
0.0095023811 0.00096677616 -0.0018544281 4290455324
0.011719115 -0.00058488175 -0.00066750241 4290782744
0.013623007 -0.00054471847 -0.00077165919 4290063134
0.015691213 -0.0013001338 -0.00023061945 4290194204
0.017430253 -0.00046410225 -0.00097971933 4290063389
0.019503564 -0.0012192428 -0.00043883524 4290194204
0.021409467 -0.0011786828 -0.00054283882 4290193694
0.023315169 -0.0011380548 -0.00064677815 4289932064
0.025220715 -0.0010973215 -0.00075062853 4290259229
0.027126051 -0.0010565333 -0.00085442304 4289801248
0.028847672 -0.00022039656 -0.0016022186 4290259228
0.030563682 0.00061571877 -0.0023496351 4289997089
0.032840945 -0.00093372166 -0.0011653958 4289996833
0.035512269 -0.0040730969 0.0013056132 4288687918
0.038593948 -0.008802007 0.0050624674 4288556593
0.0055132583 0.00016626716 -0.0034156316 4289079343
0.0077164918 -0.0013902374 -0.0022313551 4289735459
0.00961788 -0.0013503246 -0.0023355212 4289669923
0.011678092 -0.0021082698 -0.0017957983 4290128158
0.013258412 -0.00047222525 -0.003187268 4289866784
0.014827684 0.0011636019 -0.0045780484 4290063134
0.016887411 0.00040589832 -0.0040381113 4289866784
0.019292161 -0.0019471413 -0.0022119668 4289735714
0.021367826 -0.00270432 -0.0016727619 4290259229
0.023273453 -0.0026636939 -0.001776697 4290193438
0.025000833 -0.0018254155 -0.0025233079 4290062623
0.026903376 -0.0017846907 -0.0026269529 4290324509
0.028438762 -0.00014894642 -0.0040154839 4290847768
0.029963121 0.0014865929 -0.0054033175 4291175189
0.032043114 0.00072996225 -0.0048640105 4290978840
0.034703255 -0.0024183802 -0.0023988744 4290520603
0.037579268 -0.0063633975 0.00070701656 4289472808
0.0073687583 -0.0013106577 -0.0046428889 4289473319
0.0092645809 -0.0012708362 -0.0047467314 4289801249
0.011160247 -0.0012309579 -0.0048505208 4290062623
0.012732424 0.0004091952 -0.0062382929 4289866784
0.014457919 0.0012492202 -0.0069835489 4290913559
0.016679138 -0.0003108019 -0.0058031483 4290782233
0.019080885 -0.002670432 -0.0039816853 4290520603
0.020981148 -0.0026300251 -0.0040854057 4289866529
0.02305647 -0.0033893152 -0.0035477455 4289931808
0.024603128 -0.0017491491 -0.0049337856 4290258974
0.026680842 -0.0025082869 -0.0043961066 4290389788
0.028030127 -6.863568e-05 -0.0064221164 4289931808
0.029549055 0.0015711691 -0.0078064743 4290324764
0.031434625 0.0016117319 -0.0079090446 4290521114
0.03389474 -0.00074605364 -0.0060903197 4290912793
0.036759496 -0.0047021811 -0.0029918873 4289997344
0.039848216 -0.009457021 0.00074521638 4289015083
0.0068678111 -0.00041969959 -0.0076886686 4289146663
0.00891155 -0.0011825114 -0.0071513252 4289670433
0.010642752 -0.00034038071 -0.0078954194 4289736734
0.012529984 -0.00030060019 -0.0079986881 4290586648
0.01425273 0.00054149237 -0.0087421406 4291044373
0.016471013 -0.0010229535 -0.0075648171 4291109909
0.018360466 -0.00098286755 -0.0076680155 4291109653
0.020249747 -0.0009426903 -0.0077711334 4290455324
0.022489242 -0.0025063916 -0.0065948265 4290128158
0.024383605 -0.0024659391 -0.006698098 4290062879
0.026097171 -0.0016235756 -0.0074407035 4290455069
0.027438395 0.00082241092 -0.009461442 4290520348
0.029135279 0.0016645836 -0.010203015 4288950569
0.031015329 0.0017050309 -0.010305283 4289474083
0.033278212 0.00014226791 -0.0091299247 4289604644
0.035940252 -0.0030234018 -0.0066777864 4289866783
0.039017677 -0.0077915909 -0.0029497256 4290456089
0.041927867 -0.011757532 0.00013822387 4286267969
0.0062138662 0.0012890659 -0.011363861 4288621873
0.0082465261 0.00052389316 -0.010827566 4289605154
0.010125652 0.00056340266 -0.010930466 4290783509
0.011843063 0.0014074538 -0.011672088 4289343523
0.013719149 0.0014470862 -0.011774682 4289474338
0.015762046 0.00068245176 -0.011238707 4289735968
0.017810233 -8.1963837e-05 -0.010702943 4290586393
0.019691259 -4.1976571e-05 -0.010805621 4289801504
0.021922395 -0.0016102153 -0.0096320938 4289866529
0.023808502 -0.0015699761 -0.0097349435 4289800993
0.025875024 -0.0023337388 -0.0091999099 4290128158
0.027213626 0.00011872035 -0.011215657 4291044374
0.029093787 0.00015905034 -0.011318021 4290978838
0.030785024 0.0010033073 -0.012057649 4290978838
0.032853551 0.00023992918 -0.011522545 4291044373
0.035509832 -0.0029345714 -0.0090765599 4290455578
0.038384505 -0.0069122314 -0.0059948126 4289997854
0.041086562 -0.010085613 -0.0035512191 4290126884
0.0078941062 0.00063441321 -0.013215795 4288490803
0.0096089095 0.0014804741 -0.013955742 4290652184
0.011318125 0.0023265136 -0.014695312 4290782489
0.013350144 0.0015593786 -0.014160429 4289605409
0.015220515 0.0015989644 -0.014262656 4289212964
0.017260388 0.00083216745 -0.013728074 4289932574
0.019133151 0.00087196473 -0.013830312 4290717464
0.021180838 0.0001054462 -0.013296 4289866783
0.023055978 0.00014545582 -0.013398248 4289801248
0.025111489 -0.00062069017 -0.012864283 4289932064
0.026988998 -0.00058049243 -0.012966558 4289604898
0.028866366 -0.00054023881 -0.01306878 4290782488
0.030743532 -0.00049989205 -0.01317092 4290913049
0.032620542 -0.00045951176 -0.013273025 4290520348
0.03488557 -0.0020309109 -0.012104228 4289735459
0.037161283 -0.0036020731 -0.010935934 4289603113
0.040245801 -0.0083961319 -0.0072276574 4290387749
0.0095686838 -1.5809201e-05 -0.015063969 4289735714
0.010954984 0.0024499716 -0.017073106 4290913304
0.012817256 0.0024892632 -0.017174982 4290782999
0.01467938 0.002528646 -0.017276779 4290782999
0.016880512 0.00095087383 -0.016108219 4290913813
0.018747739 0.00099053327 -0.01621017 4289866783
0.020789839 0.00022175536 -0.015677216 4289735969
0.022837199 -0.00054681581 -0.015144479 4289866529
0.024889827 -0.001315265 -0.014611948 4290324509
0.026947729 -0.0020834962 -0.014079699 4289604389
0.028824978 -0.002043244 -0.014181916 4289669923
0.030890681 -0.0028111497 -0.013649976 4289604644
0.032770321 -0.002770721 -0.013752229 4289473829
0.034843825 -0.0035383501 -0.013220632 4289669924
0.036922581 -0.0043057967 -0.01268927 4288622128
0.039605021 -0.0074970513 -0.010257565 4288098868
0.0092111826 0.00011015963 -0.017440295 4289473828
0.011076234 0.00014939439 -0.017542407 4289539618
0.01277703 0.0009996444 -0.018278258 4289997853
0.014805846 0.00022816565 -0.017746374 4290325019
0.016670421 0.0002676677 -0.017848257 4289670688
0.018879332 -0.0013142312 -0.016683308 4289408803
0.020749025 -0.0012744665 -0.016785355 4289474339
0.022796236 -0.0020452547 -0.016254254 4289931808
0.02448792 -0.0011947444 -0.01698927 4289538853
0.026723348 -0.0027758121 -0.015825497 4289473573
0.028783657 -0.0035461164 -0.015294957 4289408293
0.031037748 -0.0051265974 -0.014132136 4288034864
0.032728754 -0.0042758118 -0.014866901 4288296749
0.0349961 -0.0058559021 -0.013704722 4288950569
0.036880739 -0.0058152843 -0.013807187 4287576119
0.039562874 -0.0090152677 -0.011381942 4287248954
0.0094883144 -0.0030078469 -0.017280033 4288753199
0.011197381 -0.0021553603 -0.018014805 4289343013
0.01273682 -0.00048980489 -0.019381411 4289605154
0.014598735 -0.00045046117 -0.019483224 4289147174
0.016629964 -0.0012240242 -0.018953059 4288558633
0.019010842 -0.0036232085 -0.01715957 4288492843
0.02088315 -0.0035833949 -0.017261764 4288493098
0.022932939 -0.0043563838 -0.016732406 4287904304
0.024807647 -0.00431637 -0.01683462 4287708208
0.027231336 -0.0067143482 -0.01504325 4287577139
0.029299647 -0.007486681 -0.014514781 4287511603
0.031561702 -0.0090714283 -0.013355612 4287773234
0.033260852 -0.0082183247 -0.014089228 4288362029
0.035342239 -0.0089901742 -0.013561319 4288688684
0.037428878 -0.0097618653 -0.013033662 4288099633
0.039720125 -0.011345733 -0.011875897 4287052349
0.0092896447 -0.0036882199 -0.019018769 4287836984
0.011479691 -0.0052795648 -0.017859511 4288688938
0.013024583 -0.0036096 -0.019223224 4289670434
0.015058525 -0.004385374 -0.018694893 4288492843
0.017097756 -0.0051609422 -0.01816678 4288100653
0.019314386 -0.0067514554 -0.017008696 4287773743
0.021192037 -0.006711578 -0.017111219 4287577393
0.023247108 -0.0074865986 -0.016583815 4287904048
0.025127172 -0.0074465098 -0.01668635 4287577139
0.027922034 -0.011480678 -0.013640946 4287380534
0.030001059 -0.012254976 -0.01311469 4287642164
0.032085352 -0.013029139 -0.01258863 4287838769
0.033601485 -0.011359006 -0.013950272 4287838258
0.035494305 -0.011318308 -0.014053251 4288557614
0.037190363 -0.010463012 -0.014785022 4287641398
0.039478704 -0.01205129 -0.0136304 4285940804
0.0095665455 -0.0068167252 -0.018866289 4287117884
0.011600614 -0.0075949016 -0.018339675 4287904303
0.013639994 -0.0083728358 -0.017813329 4288427053
0.015851274 -0.0099679483 -0.016658358 4288362029
0.017734587 -0.0099281222 -0.016761318 4287838769
0.019789807 -0.010705484 -0.016235661 4287773489
0.02167552 -0.010665469 -0.01633865 4287445814
0.023561075 -0.010625349 -0.016441546 4287511349
0.025806941 -0.012219421 -0.015288164 4287445814
0.028429329 -0.015447214 -0.012879368 4287576628
0.030516371 -0.016223541 -0.01235518 4287511859
0.032231934 -0.015365872 -0.013086561 4287773488
0.033750825 -0.013691343 -0.014445133 4287773489
0.035646275 -0.013650643 -0.014548297 4288361008
0.037541561 -0.013609886 -0.014651407 4287641399
0.0096848309 -0.0091340728 -0.019347761 4287183674
0.011882596 -0.010734033 -0.018195439 4287773488
0.014091104 -0.012333649 -0.01704362 4288034608
0.016310334 -0.013933017 -0.015892293 4288427819
0.018201694 -0.01389304 -0.015995707 4287838768
0.019920893 -0.013033579 -0.016726013 4287511349
0.021809235 -0.012993527 -0.016829159 4287511349
0.023697428 -0.012953392 -0.016932232 4287314998
0.025945768 -0.014551738 -0.015782271 4287642674
0.028021947 -0.015330553 -0.015259169 4287511859
0.030289009 -0.016928416 -0.014110094 4287577139
0.032001838 -0.016068645 -0.014839721 4287838769
0.033709057 -0.015208893 -0.015569042 4288296749
0.035410717 -0.014349259 -0.016297985 4288491824
0.03691031 -0.012670781 -0.017652193 4287379769
0.011842228 -0.012238048 -0.019309398 4287969839
0.014214315 -0.014663876 -0.017535001 4288100144
0.016436026 -0.016267505 -0.01638709 4288558634
0.01833003 -0.016227527 -0.016490687 4287707443
0.019879952 -0.014544234 -0.017844861 4287642673
0.021942854 -0.01532576 -0.017322838 4287642163
0.023656286 -0.014464123 -0.018051121 4287511604
0.026084535 -0.016888268 -0.016279504 4287642163
0.027614854 -0.015205126 -0.01763241 4287903794
0.029876269 -0.016807415 -0.016486296 4287838259
0.031395398 -0.015124386 -0.017838499 4288099634
0.033667371 -0.016726334 -0.016692877 4288427564
0.035175316 -0.015043419 -0.018044375 4286006339
0.010079466 -0.014605401 -0.019695703 4286266948
0.012123935 -0.015389917 -0.019174602 4287708209
0.014337435 -0.016998222 -0.018029511 4287969329
0.01622875 -0.016958401 -0.018133037 4289015848
0.017950743 -0.016094653 -0.018860351 4288034864
0.019495264 -0.014407141 -0.020211089 4287773233
0.021552593 -0.015190987 -0.019690394 4287511093
0.023260556 -0.014327321 -0.020416789 4288099888
0.025323018 -0.015110916 -0.019896269 4287314743
0.026659735 -0.012600158 -0.021868523 4286006338
0.0098809674 -0.015285017 -0.02143389 4286856763
0.011761583 -0.015245599 -0.021536961 4288035884
0.013969429 -0.016858365 -0.020394862 4288100399
0.015855208 -0.016818684 -0.020498101 4288754474
0.017402627 -0.015126918 -0.021845806 4287773234
0.019110851 -0.014261249 -0.022570729 4286726204
-0.0085120723 0.0012919232 0.040823102 4282273394
-0.0061372742 -0.00094583817 0.042736955 4282666859
-0.016752213 0.0010592453 0.038735181 4282602344
-0.01488094 0.0018610694 0.037951373 4281421439
-0.009923622 0.0080749597 0.032236367 4279452584
-0.0073244981 0.0043068193 0.035493083 4282337143
-0.030803256 -4.3747947e-05 0.03765744 4282863718
-0.029206708 0.0030529713 0.03485442 4280633744
-0.02556577 0.0054240171 0.032616198 4279912858
-0.023599561 0.0054631196 0.032506868 4279455389
-0.021741644 0.0062664989 0.031725161 4278735014
-0.019556589 0.0047774902 0.032960832 4278603434
-0.017701644 0.0055811144 0.032179441 4278668714
-0.0078744367 0.0057800561 0.031635605 4280175254
-0.005389519 0.0027651964 0.034212194 4279581358
-0.034991793 -0.00017640926 0.035358593 4281290878
-0.033378638 0.0029290793 0.032560989 4279193504
-0.031692915 0.0052676685 0.030436255 4279061413
-0.028370816 0.0099442191 0.026189882 4278271679
-0.026426464 0.0099827722 0.026081681 4278599609
-0.02427144 0.0084886048 0.027315564 4278800294
-0.022321858 0.0085275024 0.027207252 4278735015
-0.020150702 0.0070339125 0.028440431 4278472364
-0.016357534 0.0078787021 0.027553283 4278339508
-0.014762782 0.010216512 0.025434453 4279258274
-0.012697544 0.0094897952 0.025997013 4279519903
-0.01062699 0.0087632984 0.026559357 4279060649
-0.0082967281 0.0065050125 0.028461102 4278995369
-0.005950287 0.00424725 0.030362025 4279782298
-0.03692453 -0.0025677416 0.034966514 4282209134
-0.03547556 0.0020845272 0.030833848 4279062944
-0.033784281 0.0044296216 0.028713632 4278603688
-0.032109451 0.0067745522 0.026594378 4278865318
-0.030451078 0.0091192815 0.024476133 4278601904
-0.028709274 0.010695068 0.023028631 4279058863
-0.024626669 0.0092347823 0.024152026 4278603434
-0.022577345 0.0085049421 0.02471346 4278603944
-0.020522688 0.0077753719 0.025274642 4278472874
-0.018462699 0.0070460085 0.025835603 4278537134
-0.014802612 0.008661259 0.024282411 4278273719
-0.012859263 0.0087006278 0.024174888 4278598844
-0.0087187029 0.0072433967 0.025296472 4279126183
-0.0065106042 0.0057470119 0.02652498 4279127203
-0.037135709 -0.0026109419 0.0324542 4281946738
-0.035692018 0.002054261 0.028331585 4279259549
-0.034189492 0.0059479261 0.024879441 4278341549
-0.030586779 0.0083374064 0.022657596 4279323298
-0.028847739 0.0099174846 0.021213472 4279782298
-0.0269146 0.0099558365 0.021105915 4279191973
-0.024876278 0.0092235208 0.021666206 4278340274
-0.022940632 0.0092621464 0.021558672 4278931109
-0.021005087 0.0093009025 0.021451246 4278538409
-0.018842746 0.0077985562 0.022678539 4278341804
-0.009267427 0.0087654851 0.021475188 4278930343
-0.0070704781 0.0072644688 0.022701111 4278799783
-0.0047302395 0.0049936101 0.024592746 4280042654
-0.037002102 -0.0057385573 0.032617506 4281815668
-0.035730533 0.00048644282 0.027170118 4279456153
-0.034319483 0.0051642219 0.023059137 4278669479
-0.028986111 0.009144593 0.019401718 4278468029
-0.025020458 0.0084483065 0.019853212 4278733484
-0.023087677 0.00848688 0.019745842 4278537899
-0.021265693 0.0092984699 0.01897268 4278735015
-0.019222453 0.0085644014 0.019531403 4278735015
-0.01729003 0.008603327 0.019424319 4278735014
-0.015357725 0.0086423829 0.01931734 4278799528
-0.013547149 0.0094542131 0.018545162 4278995878
-0.011742145 0.010265989 0.017773408 4278931109
-0.0099427402 0.011077791 0.017002068 4278669223
-0.0077596679 0.009572193 0.018225491 4278734504
-0.0054333694 0.0072944723 0.020113088 4279061924
-0.037040889 -0.0073235249 0.031443324 4281553784
-0.035769053 -0.0010810997 0.026008859 4280832643
-0.034632459 0.0059360415 0.019911665 4278866083
-0.032979425 0.0083001759 0.017808206 4278407594
-0.02922409 0.0091515314 0.016928595 4278340274
-0.027299434 0.0091897398 0.016821526 4278537898
-0.025374867 0.0092280265 0.016714521 4278538409
-0.023666203 0.010816621 0.015278858 4278472619
-0.021747313 0.010855053 0.015172363 4278472364
-0.019715186 0.010118622 0.015730038 4278472364
-0.017677739 0.0093824249 0.016287509 4278668968
-0.015753753 0.0094213262 0.016181 4278537899
-0.013951425 0.01023512 0.015410938 4278669224
-0.012154683 0.01104892 0.014641267 4278340784
-0.010363538 0.011862757 0.013871946 4278993839
-0.0084482878 0.011901924 0.013766251 4279715999
-0.0061359145 0.0096173976 0.015649769 4279650973
-0.036993641 -0.0096858991 0.030933343 4281488504
-0.03571881 -0.00342596 0.025511675 4281029248
-0.034762133 0.0051660053 0.018101495 4278604199
-0.033394456 0.0098692495 0.014012399 4278603688
-0.031574875 0.010684516 0.013242214 4278669733
-0.029561516 0.0099449605 0.01379889 4278669734
-0.027645182 0.0099829752 0.013692261 4278603944
-0.025728948 0.010021143 0.013585755 4278472874
-0.023920659 0.010836666 0.012816551 4278407084
-0.022007369 0.010874983 0.012710364 4278669223
-0.019980893 0.010136269 0.013266741 4278537899
-0.017949093 0.0093977414 0.013822955 4278734248
-0.016030692 0.0094365124 0.013716745 4278406829
-0.014233913 0.01025244 0.012948581 4278537388
-0.0067055337 0.011185655 0.011864238 4279453604
-0.0038478039 0.0057879351 0.016387817 4281484423
-0.037118457 -0.010492615 0.029095594 4281488504
-0.035491254 -0.0073346011 0.026335929 4281095038
-0.034617402 0.0020613074 0.018280957 4280439179
-0.033338256 0.007557407 0.013539386 4278735268
-0.031806707 0.01071392 0.010785342 4278603944
-0.029699393 0.0091924686 0.012002322 4278669479
-0.022267193 0.010903841 0.010255056 4279191719
-0.020359609 0.01094217 0.010149279 4278537643
-0.018220227 0.0094220825 0.011365014 4278537643
-0.016307428 0.0094607621 0.011259128 4278537643
-0.014394764 0.0094995331 0.011153321 4278274484
-0.012606364 0.010317544 0.010387366 4278536879
-0.010823552 0.011135545 0.0096217981 4278537388
-0.0070100836 0.011213657 0.0094114402 4278601393
-0.0044284016 0.0073584057 0.012604698 4279651228
-0.0016818941 0.0027249809 0.016456041 4279711664
-0.037157238 -0.012076723 0.027922049 4281422713
-0.035441332 -0.0096919816 0.025829468 4281029503
-0.034381501 -0.0018338114 0.019114666 4280832898
-0.033282168 0.00524153 0.013063309 4279063708
-0.031747825 0.0084068067 0.010315576 4278472364
-0.029936712 0.0092264023 0.0095491977 4278276014
-0.028131139 0.010045979 0.008783197 4278271934
-0.026226103 0.010083927 0.008677314 4279516844
-0.02241635 0.010160139 0.008465807 4278467263
-0.020511627 0.010198426 0.0083601996 4278668458
-0.018491134 0.0094553642 0.0089137712 4278864808
-0.016583923 0.0094939284 0.0088081928 4278864809
-0.011116713 0.011172796 0.0071749901 4279061923
-0.0089564286 0.0096492879 0.0083867954 4279127458
-0.0046036206 0.0066033378 0.010808846 4278995369
-0.0021357164 0.003518845 0.013334847 4279388578
-0.037367761 -0.012092053 0.025430385 4281356924
-0.035480104 -0.011269294 0.024660975 4280898179
-0.034145925 -0.0057416912 0.019938845 4280963968
-0.032944031 0.00056930818 0.0145603 4279326359
-0.031689055 0.0060956106 0.0098427832 4278472619
-0.02816933 0.0085231494 0.0076551139 4279127458
-0.026264448 0.0085610934 0.0075492403 4279127969
-0.024467345 0.0093829744 0.0067854738 4279061669
-0.022675797 0.010204839 0.0060221581 4278995368
-0.020776674 0.010242997 0.0059168488 4278471598
-0.018761825 0.0094976537 0.0064691221 4278930343
-0.016741626 0.0087524951 0.0070212297 4278537899
-0.013181388 0.010396823 0.0054965792 4278270403
-0.0050485618 0.0074193943 0.0077035064 4279192484
-0.0027268156 0.005109149 0.0095672701 4279061669
-0.039881147 -0.008990922 0.020424839 4282666348
-0.037835527 -0.0097391736 0.020972792 4281159298
-0.035873063 -0.0097008478 0.020863146 4281422204
-0.034184482 -0.007303467 0.018781871 4281095039
-0.032982312 -0.00097504072 0.013416247 4280373643
-0.031727105 0.0045664981 0.0087100267 4278735013
-0.028514046 0.009358881 0.0045573339 4279189934
-0.026617482 0.0093966462 0.0044519119 4279257509
-0.024828643 0.010220516 0.0036902772 4278601904
-0.020928413 0.0095106475 0.004136215 4278602923
-0.019032281 0.0095488839 0.004031173 4278733993
-0.016899221 0.0080157276 0.0052376529 4278276014
-0.015240368 0.0096256956 0.0038213655 4278735014
-0.013344605 0.009664271 0.003716602 4278799273
-0.011322267 0.0089173447 0.0042671724 4278536623
-0.0092946328 0.0081706606 0.0048175496 4278732719
-0.0073938258 0.0082096551 0.0047127414 4278865318
-0.0053582899 0.0074633099 0.0052628899 4278668969
-0.0033174753 0.0067172069 0.0058127725 4279061923
-0.00085043162 0.0036153486 0.0083260126 4281419144
-0.038302757 -0.0073642433 0.016531531 4282863718
-0.036265589 -0.0081147095 0.017078426 4281095039
-0.034405466 -0.0072880127 0.016313877 4281029503
-0.032926649 -0.0033075344 0.012927859 4280832899
-0.031861831 0.0038260445 0.0069221761 4278931874
-0.030448575 0.0078054555 0.0035399809 4278799783
-0.023194008 0.010321096 0.0011548337 4278733229
-0.020967025 0.007994879 0.0030134055 4278800293
-0.019071043 0.0080331117 0.0029083719 4278669223
-0.016938232 0.0064955838 0.0041116234 4278538665
-0.015158221 0.0073220432 0.0033525317 4278800804
-0.013383776 0.0081484802 0.0025938158 4278735014
-0.011361651 0.007399397 0.0031427993 4278603944
-0.0095929168 0.008225942 0.0023845667 4278734504
-0.0078297667 0.0090524908 0.0016267295 4278800294
-0.0059374012 0.009091422 0.0015224689 4278800039
-0.0039076656 0.0083429348 0.0020713601 4279323554
-0.0014518723 0.0052321423 0.0045787599 4279585948
0.0010255426 0.0021218974 0.0070850439 4279711409
-0.03656923 -0.0073016617 0.013960986 4281619574
-0.034535065 -0.0080542313 0.014506533 4281161083
-0.032871086 -0.0056441342 0.012436432 4280898689
-0.031803213 0.0015091002 0.0064451294 4280177549
-0.030585784 0.0070804376 0.001763768 4278668968
-0.029100403 0.010279825 -0.00095519202 4278538664
-0.027217757 0.010317318 -0.0010598354 4278407339
-0.025335222 0.010354942 -0.0011643764 4278538664
-0.023342539 0.0096023772 -0.00061590667 4278538409
-0.021118592 0.0072695687 0.0012379861 4278603944
-0.019109789 0.0065175798 0.0017857491 4278669479
-0.017095648 0.0057658218 0.0023333081 4278538409
-0.015318438 0.0065943804 0.0015759743 4278603688
-0.013422951 0.006632939 0.0014712173 4278472364
-0.011654168 0.0074615572 0.00071451953 4278472619
-0.0098909624 0.0082902126 -4.1831052e-05 4278800039
-0.0040849783 0.0076171085 0.00029736757 4278467774
-0.0019126534 0.0060769087 0.0014958545 4280174744
0.00055623055 0.002957793 0.0039961529 4279453093
-0.036695786 -0.0080609908 0.012158471 4282405993
-0.03475567 -0.0080229733 0.01205017 4281488759
-0.032815624 -0.0079848282 0.011941971 4280964223
-0.031648122 -0.0016047107 0.0066171698 4280897159
-0.030524313 0.0047746748 0.0012948229 4278603434
-0.029138148 0.0087754522 -0.0020695997 4278537644
-0.027255651 0.0088129546 -0.0021742263 4278603943
-0.025373258 0.0088505503 -0.0022787757 4278669479
-0.023601137 0.0096807387 -0.0030345435 4278407084
-0.019726675 0.0089640692 -0.0025918416 4278669479
-0.017607998 0.0074175559 -0.0013942689 4278538664
-0.01559962 0.0066636093 -0.00084793009 4278538409
-0.013833512 0.0074942335 -0.0016029485 4278669223
-0.011946462 0.0075327307 -0.0017071575 4278407339
-0.010447267 0.0099475533 -0.0037620799 4278799273
-0.0065554716 0.0092328005 -0.0033191757 4278662084
-5.5588782e-05 0.0045987926 0.00026760274 4281942403
-0.034793936 -0.009572803 0.010902046 4282143089
-0.032760259 -0.010329664 0.011444516 4280766598
-0.031493261 -0.0047269394 0.0067828996 4280308618
-0.030363712 0.001669975 0.0014731665 4279653013
-0.028971978 0.0056817327 -0.0018834933 4278603688
-0.02739821 0.0081035346 -0.0039384812 4278472619
-0.025518682 0.0081410781 -0.0040428685 4278275759
-0.021985628 0.0098057296 -0.005550514 4278269128
-0.018119894 0.0090869498 -0.0051087672 4279322789
-0.016122606 0.0083305463 -0.0045633977 4278865574
-0.014243729 0.0083687697 -0.0046672327 4278669223
-0.012364987 0.0084071122 -0.0047709728 4278341549
-0.0087397955 0.0092783198 -0.0056267576 4279585439
-0.0067295209 0.0085227564 -0.0050816778 4279324319
-0.0029732436 0.0086003523 -0.0052883951 4279060649
-0.00080972165 0.0070513729 -0.0040958081 4279388833
0.0019466057 0.0023270734 -0.00031263568 4279906739
-0.038797423 -0.010400995 0.0093212994 4282535788
-0.03686028 -0.010363141 0.0092130862 4282665583
-0.034923196 -0.010325194 0.0091049485 4281222028
-0.032892458 -0.01108424 0.0096459277 4280308363
-0.031435058 -0.0070605464 0.0062935082 4280702083
-0.030401677 0.00015085563 0.00034782477 4280243848
-0.029111717 0.0049704649 -0.00364932 4278735269
-0.027645286 0.0081957038 -0.0063477503 4278668969
-0.02577135 0.008233143 -0.0064518219 4278537388
-0.024117649 0.0098642875 -0.0078520207 4278405043
-0.022362158 0.010698615 -0.008603543 4279060394
-0.018513098 0.0099772979 -0.0081625059 4279060138
-0.016645137 0.010015188 -0.0082658231 4278603688
-0.014777295 0.010053206 -0.008369036 4278472619
-0.012656756 0.008498339 -0.0071777971 4278341804
-0.0071725994 0.0094099361 -0.0081343343 4279060139
-0.0051653981 0.0086522717 -0.0075906748 4279191464
-0.00099232048 0.0063413735 -0.0058576763 4279126438
0.0013244301 0.0039922288 -0.0040225191 4279323298
-0.033399232 -0.0086370101 0.0052611362 4281357433
-0.031569742 -0.0077997684 0.0045065698 4281160574
-0.030340504 -0.0021672831 -0.00013021589 4281029249
-0.029149491 0.0034646187 -0.0047648191 4279260058
-0.024375569 0.009969525 -0.010250824 4279651230
-0.022400122 0.0092079751 -0.0097077386 4279127713
-0.020650275 0.010044506 -0.010457302 4279519904
-0.016925398 0.010119947 -0.010663409 4278602923
-0.015063144 0.010157825 -0.010766332 4278668969
-0.01307464 0.0093971174 -0.01022354 4278603434
-0.0074808113 0.0095118787 -0.010531971 4278269638
-0.005479224 0.0087518934 -0.0099896379 4278400454
-0.0013174638 0.006434286 -0.0082608992 4278668714
0.00070273131 0.0056749601 -0.0077193114 4278930598
-0.033624589 -0.0085722543 0.0028300565 4282012019
-0.031704307 -0.00853437 0.0027230545 4281160063
-0.030279439 -0.0044894698 -0.00061132852 4281029248
-0.029289048 0.0027603526 -0.0065254578 4279784084
-0.028138742 0.0084067881 -0.011146405 4278537134
-0.024853174 0.011685986 -0.013932786 4278271423
-0.017205417 0.01023359 -0.013054341 4278864808
-0.01534874 0.010271341 -0.013156967 4278799018
-0.013365887 0.0095083974 -0.012615511 4278406573
-0.011506721 0.0095464215 -0.012718109 4278537643
-0.0095159523 0.0087838285 -0.01217695 4279061414
-0.0077887774 0.0096227974 -0.012923034 4278995368
-0.0056556351 0.0080598742 -0.011738589 4279126693
-0.0037915558 0.0080984328 -0.011841136 4278733993
-0.0019276142 0.0081370603 -0.011943622 4278537899
-6.3821673e-05 0.0081758164 -0.012046001 4278996644
0.0025401562 0.0042127287 -0.0089343861 4281679498
-0.03375617 -0.0093022296 0.0010497663 4282143854
-0.03183876 -0.0092643863 0.00094293547 4281226619
-0.03011946 -0.0076193209 -0.00045161694 4280964224
-0.02912328 -0.00034981407 -0.006351538 4280046479
-0.028176207 0.0069188233 -0.012248646 4278669479
-0.026849508 0.01097301 -0.01556923 4278274738
-0.020957049 0.0086747557 -0.013947838 4278926518
-0.018982202 0.0079091266 -0.013407813 4279060649
-0.01724362 0.0087499227 -0.014153343 4278603434
-0.015387069 0.0087876823 -0.014255952 4278734249
-0.013656888 0.0096285604 -0.015000829 4278668714
-0.011803299 0.0096664578 -0.01510313 4278472109
-0.0099498369 0.0097044706 -0.015205334 4278865318
-0.0079620965 0.0089397393 -0.01466555 4278472108
-0.0059690475 0.0081752539 -0.014125959 4278603688
-0.0042503849 0.0090163946 -0.014869829 4278406573
-0.0023947284 0.0090548564 -0.014971855 4278864809
-0.00068451464 0.0098960213 -0.015715115 4279389598
0.0019081756 0.0059218304 -0.012610949 4279258528
0.0045279264 0.0019482663 -0.0095082214 4279316669
-0.031973097 -0.0099898055 -0.00083385268 4281291644
-0.030157603 -0.0091461968 -0.0015827062 4280963713
-0.028957717 -0.0034685149 -0.0061838664 4280374919
-0.028109252 0.0046254192 -0.01270873 4279063964
-0.026993956 0.010301689 -0.017305059 4278603689
-0.025147919 0.010338679 -0.017407503 4278407594
-0.023076836 0.0087648556 -0.016226858 4278538409
-0.021110252 0.0079967156 -0.015688043 4278669479
-0.019256338 0.0080341864 -0.015790682 4278669223
-0.017523281 0.008877106 -0.016534321 4278472619
-0.015795786 0.0097199809 -0.017277528 4278537899
-0.013947655 0.0097576678 -0.017379599 4278603690
-0.012099639 0.009795459 -0.017481584 4278537899
-0.0099885017 0.0082231741 -0.016302541 4278668969
-0.0081352852 0.0082612559 -0.016404677 4278472108
-0.0061451495 0.0074945223 -0.015866548 4278733994
0.001424633 0.0068437941 -0.015634932 4279585694
0.0038851425 0.0036638426 -0.013179215 4279912603
-0.032299671 -0.0090947542 -0.0038887896 4281487994
-0.030393541 -0.0090570739 -0.0039949478 4280897923
-0.028893992 -0.0057878159 -0.006663023 4280373644
-0.027938053 0.0015201038 -0.01253159 4278931873
-0.026817072 0.0072117131 -0.01711693 4278603689
-0.025075525 0.0080564767 -0.017859722 4278800294
-0.023114484 0.0072859954 -0.017322328 4278603944
-0.021378577 0.0081308708 -0.01806464 4278538409
-0.015710514 0.0074358303 -0.017732099 4278931364
-0.014112048 0.0090882722 -0.019112594 4278669223
-0.012395747 0.0099332966 -0.019853421 4278734760
-0.010290284 0.0083565619 -0.018677358 4278734504
-0.0083083585 0.0075873658 -0.018140476 4278406829
-0.0065951385 0.0084326304 -0.018880904 4278602413
-0.0029005259 0.0085090753 -0.019084137 4278858944
0.00094144791 0.0077789966 -0.018649105 4278862004
0.0032428354 0.005397032 -0.016837165 4281613708
-0.03252979 -0.008996537 -0.0062947618 4282273648
-0.030629247 -0.0089589488 -0.006400595 4280898434
-0.028830364 -0.0081112348 -0.0071452316 4280112013
-0.027871352 -0.00078368187 -0.012999434 4279785613
-0.026747402 0.0049231304 -0.017573621 4278866083
-0.025112964 0.0065800138 -0.018953428 4278603689
-0.023377035 0.0074269585 -0.019694202 4278603434
-0.017840642 0.007538816 -0.020000748 4278268364
-0.014402386 0.0092329644 -0.021479744 4279258274
-0.012434009 0.0084610879 -0.020943906 4278735014
-0.01059182 0.0084988438 -0.02104551 4278538409
-0.0087497532 0.0085367151 -0.021147016 4278275759
-0.0070447661 0.009383969 -0.021885384 4278273974
-0.005345352 0.010231238 -0.022623427 4278996134
-0.0032243133 0.008650858 -0.021451093 4278865829
0.00060647726 0.0079183336 -0.021017093 4279061414
0.0027515739 0.0063387733 -0.019845918 4279323554
0.0052139536 0.003141555 -0.017403156 4279250623
-0.03086473 -0.0088520003 -0.0087996321 4281619063
-0.028969858 -0.0088144103 -0.0089050652 4280767874
-0.027700506 -0.0039038165 -0.012833199 4280309638
-0.026677832 0.0026304545 -0.018033419 4278800548
-0.025260068 0.005915788 -0.020683803 4278735015
-0.023526955 0.0067648217 -0.021422829 4278472363
-0.021799374 0.0076138619 -0.022161465 4278471598
-0.02007734 0.0084629524 -0.022899743 4278732463
-0.018240273 0.0085001569 -0.023001395 4278535859
-0.014440455 0.007763166 -0.022568457 4279257763
-0.012600999 0.0078007635 -0.022669986 4278341804
-0.010893121 0.0086500682 -0.023407109 4278603944
-0.0056632273 0.010386389 -0.024980873 4278667438
-0.0035478771 0.0088015478 -0.023811527 4279454368
-0.0014217496 0.0072170012 -0.022642642 4278667184
0.0025616661 0.0056713317 -0.021575671 4278996134
0.0048677847 0.003276472 -0.019773636 4279454113
-0.031198714 -0.0079216575 -0.011827917 4281292408
-0.029210702 -0.0086986003 -0.011297219 4280899454
-0.027425684 -0.0078467056 -0.012037775 4280767618
-0.026501462 -0.00048063882 -0.017860932 4280767109
-0.025187794 0.0036276858 -0.021140397 4279063454
-0.023789093 0.006921446 -0.023783181 4278406573
-0.020350523 0.0086236056 -0.02525625 4279650973
-0.018398523 0.0078467317 -0.024722967 4279650718
-0.016564418 0.0078839771 -0.024824381 4279126948
-0.014730424 0.0079213399 -0.024925698 4278667694
-0.012896542 0.0079587847 -0.025026947 4278603433
-0.01119417 0.008810116 -0.025762103 4278341804
-0.0093632303 0.0088477097 -0.025863037 4278472874
0.0022215024 0.0058217589 -0.023935053 4278865319
0.0046750233 0.0026069302 -0.021504745 4278865318
-0.031236306 -0.009427906 -0.012943727 4282274669
-0.029349897 -0.0093904985 -0.0130487 4281356414
-0.027359437 -0.010169478 -0.012519686 4281159809
-0.026218429 -0.0044167093 -0.01706095 4280898179
-0.025225189 0.0021518338 -0.02223365 4279391384
-0.023938701 0.0062705856 -0.025503457 4278733994
-0.022334464 0.0079400428 -0.026871722 4278338233
-0.013191819 0.0081256777 -0.027377263 4278669224
-0.011363626 0.0081630982 -0.027478129 4278341804
-0.009401463 0.0073847529 -0.026946656 4278538409
-0.0077075586 0.0082382485 -0.027679611 4278669734
-0.0057402141 0.0074602012 -0.02714828 4278930853
-0.0039097667 0.0074980594 -0.027248979 4279127459
-0.002079457 0.0075360239 -0.027349591 4279258529
-0.00010160357 0.0067584738 -0.026818629 4279324320
0.0021823198 0.0043499889 -0.025025152 4278800039
0.0044823959 0.0019419864 -0.023232527 4278996388
0.0071103051 -0.0020965436 -0.020178542 4279455388
-0.02959032 -0.0092591364 -0.015429261 4281619319
-0.027501423 -0.01085907 -0.01426926 4281160319
-0.026149306 -0.0067283707 -0.017534815 4280832899
-0.025043525 -0.00096100383 -0.022062756 4280046479
-0.02408817 0.0056242403 -0.027220387 4278735269
-0.022486687 0.0072980374 -0.028585315 4278472108
-0.017255589 0.0090454612 -0.030150916 4278668458
-0.015309609 0.0082642753 -0.029620413 4278800804
-0.013486866 0.0083014891 -0.029721051 4278734758
-0.011532947 0.0075206663 -0.029190835 4278668969
-0.0095736869 0.0067400169 -0.028660793 4278603688
-0.0076091141 0.0059596328 -0.028131001 4278669224
-0.0057786666 0.005997384 -0.028231781 4278864553
-0.0039483458 0.0060352283 -0.028332479 4279061924
-0.0021181405 0.0060731666 -0.028433103 4278930853
-0.0001404658 0.0052934103 -0.027903769 4278931109
0.0021431744 0.0028783875 -0.026115127 4278735268
0.0045960173 -0.00035386346 -0.023697708 4279455643
0.0072262362 -0.0044031912 -0.020651974 4280437394
-0.02972921 -0.0099397935 -0.017172417 4282535533
-0.027851332 -0.0099024605 -0.017276846 4281225599
-0.026080281 -0.0090441871 -0.018011756 4280702084
-0.025190458 -0.0016200817 -0.023789395 4280177549
-0.024125334 0.0041617695 -0.02830372 4278997409
-0.022753682 0.0074811205 -0.030925602 4278801059
-0.021051001 0.0083384179 -0.031656351 4278604709
-0.01923351 0.0083751846 -0.031756949 4278669479
-0.017293055 0.0075915996 -0.031227838 4278932128
-0.015347261 0.0068082456 -0.030698933 4278603943
-0.013524637 0.0068454314 -0.030799579 4278603434
-0.011439666 0.0052420991 -0.029641751 4278602414
-0.0094778687 0.0044593411 -0.029113527 4278341039
-0.0075107552 0.003676815 -0.028585505 4278472109
-0.005538322 0.0028945087 -0.028057694 4278864298
-0.0037026703 0.0029324293 -0.028158713 4279126183
-0.001722306 0.0021504136 -0.027631171 4278668968
0.00026334822 0.0013686288 -0.027103905 4279390619
0.002404578 -0.00023282878 -0.025948718 4279521689
0.0047095343 -0.0026538558 -0.024166033 4279979669
0.0073420852 -0.0067140041 -0.021128498 4280829583
-0.030070476 -0.00896974 -0.020170704 4282666859
-0.028200898 -0.0089325868 -0.02027468 4280701318
-0.026118025 -0.010541237 -0.019120727 4279914899
-0.02479022 -0.0063892249 -0.022368744 4279324574
-0.02393822 0.0010537729 -0.028129693 4279389854
-0.019030187 0.0052783219 -0.031575795 4278537899
-0.017084476 0.0044926675 -0.031048588 4278341039
-0.0093821362 0.0021744771 -0.029569365 4279127204
-0.0075490922 0.0022121584 -0.02967038 4279389853
-0.0057161674 0.002249944 -0.029771309 4279521433
-0.0037413016 0.0014655516 -0.029245216 4279586714
-0.0017611086 0.00068134349 -0.028719291 4278537643
0.00022436678 -0.00010264665 -0.028193649 4279848344
0.0023653731 -0.0017084754 -0.027041692 4280307344
0.004975915 -0.0057800799 -0.024011113 4280438413
0.0073022097 -0.0082071098 -0.022234388 4281548938
-0.033751152 -0.011361508 -0.020440169 4281159044
-0.028446201 -0.0087747406 -0.022635229 4281815413
-0.026155755 -0.012038107 -0.020229563 4281160320
-0.024827808 -0.0078752395 -0.02346953 4280439434
-0.023751292 -0.0020627826 -0.027961932 4279782809
-0.022368584 0.0012741257 -0.03057155 4279521433
-0.020655166 0.0021359436 -0.031299699 4279061924
-0.018706817 0.0013480531 -0.03077434 4278799019
-0.016753133 0.00056038238 -0.030249193 4278668458
-0.014919776 0.00059763715 -0.030350547 4279127713
-0.012958128 -0.00018969271 -0.029825706 4279390363
-0.010991141 -0.00097684003 -0.029301032 4279193504
-0.008884985 -0.0025883219 -0.028150823 4278800293
-0.0073142834 -0.00090140942 -0.02950377 4279455644
-0.0054760315 -0.00086356048 -0.029605027 4279652249
-0.003637895 -0.00082561839 -0.029706202 4279979924
-0.0015104786 -0.0024362612 -0.028556865 4279258784
0.00048028678 -0.0032223295 -0.028033137 4279127204
0.0026265234 -0.0048324768 -0.026884682 4280307344
0.0050892308 -0.0080906898 -0.024487231 4280831623
0.0075735375 -0.011348272 -0.022090912 4282466174
-0.03575344 -0.012065251 -0.022069335 4281289348
-0.028587412 -0.009435338 -0.024363402 4282471273
-0.026513197 -0.01105292 -0.023215398 4281225855
-0.024865381 -0.0093610873 -0.024570193 4280963458
-0.023676593 -0.00436064 -0.028425939 4280308108
-0.022176336 -0.0018421276 -0.030404013 4279521433
-0.020457551 -0.00097806845 -0.031130876 4279390363
-0.018263586 -0.0034221187 -0.029357478 4279259548
-0.016422097 -0.0033848076 -0.029459361 4279128223
-0.012739416 -0.0033099032 -0.029662896 4279325084
-0.010767173 -0.0040990827 -0.029140174 4279586714
-0.0087895915 -0.0048880777 -0.028617695 4279062179
-0.0070796795 -0.0040234909 -0.029343538 4279258784
-0.0052361079 -0.0039855544 -0.029445104 4279848854
-0.0033926666 -0.0039475001 -0.029546574 4279979669
-0.0011153445 -0.0063890014 -0.027777147 4279979668
0.00058864057 -0.0055241054 -0.028502423 4279914134
0.0025872886 -0.0063121691 -0.027980655 4279717529
0.0050496459 -0.0095790867 -0.025589649 4281224324
-0.039704166 -0.011970911 -0.024216287 4281944953
-0.037749935 -0.012764256 -0.023695394 4282798694
-0.026870281 -0.010054504 -0.02619151 4281750389
-0.025121406 -0.0091879824 -0.026918661 4281226109
-0.023601986 -0.006662698 -0.028893057 4279652758
-0.022098966 -0.0041376841 -0.030866425 4279390619
-0.020260125 -0.0041006622 -0.030968338 4279390874
-0.018181141 -0.0057219253 -0.029823475 4279456154
-0.016214222 -0.0065137162 -0.029302321 4279390619
-0.014493078 -0.0056471121 -0.030027457 4279718038
-0.012905758 -0.0039515137 -0.031375125 4278799784
-0.010805406 -0.0055719358 -0.030231144 4279717783
-0.0086942799 -0.0071920599 -0.0290877 4279848344
-0.0069817118 -0.0063252565 -0.029812086 4279259038
-0.0049963854 -0.0071160928 -0.029291518 4279979159
-0.0031476095 -0.0070779757 -0.029393315 4280110229
-0.00086513907 -0.0095259026 -0.027629022 4280044693
0.00084424764 -0.0086588124 -0.028352972 4279782808
0.0029981658 -0.010277478 -0.027211454 4280241298
0.0050101057 -0.011067376 -0.026691988 4282143344
-0.027227033 -0.0090428861 -0.02915784 4281553019
-0.025377203 -0.0090059694 -0.029260602 4281355903
-0.023639366 -0.0081374142 -0.029985469 4279718039
-0.022136305 -0.0056059016 -0.031954017 4279587223
-0.020414956 -0.0047374154 -0.032677844 4279325084
-0.018218856 -0.0071945041 -0.030914277 4279063198
-0.016252112 -0.0079885004 -0.030394748 4279521944
-0.014280021 -0.0087822769 -0.029875427 4279718038
-0.012687277 -0.0070822593 -0.031220194 4279389599
-0.010712668 -0.0078757843 -0.03070087 4278995624
-0.0088663809 -0.0078380369 -0.030802768 4279717274
-0.0070202127 -0.0078001837 -0.030904576 4279652503
-0.0050350539 -0.0085932128 -0.030385625 4279454623
-0.0030445531 -0.009386084 -0.029866852 4279060648
-0.00090419501 -0.011009611 -0.028727993 4280307343
0.00065786391 -0.0093095545 -0.030070573 4281291389
-0.027477 -0.0088519808 -0.031493519 4282471528
-0.025741883 -0.0079814186 -0.032216702 4281617788
-0.023788568 -0.0087782983 -0.031698365 4280438158
-0.022173621 -0.0070739882 -0.033041507 4279848344
-0.02021775 -0.0078705912 -0.032523148 4279587224
-0.018256541 -0.0086669885 -0.032005008 4279325339
-0.016289972 -0.0094631538 -0.031487077 4279718038
-0.014568966 -0.0085923038 -0.032209054 4280701573
-0.012853496 -0.0077214269 -0.03293062 4280898433
-0.010881782 -0.0085172206 -0.032412771 4281359218
-0.003366895 -0.0091990558 -0.032200392 4281751153
0.0044732317 -0.011544887 -0.030751385 4282863718
