# .PCD v0.7 - Point Cloud Data file format
VERSION 0.7
FIELDS x y z rgba
SIZE 4 4 4 4
TYPE F F F U
COUNT 1 1 1 1
WIDTH 972
HEIGHT 1
VIEWPOINT 0 0 0 1 0 0 0
POINTS 972
DATA ascii
0.0064140819 0.0085159894 0.019443711 4289671453
0.0084911771 0.0078148004 0.019996652 4289541148
0.01057354 0.0071138125 0.020549377 4289148703
0.012190443 0.008656187 0.019062096 4288885798
0.014115509 0.0087031145 0.018935068 4289081893
0.016202737 0.0080025699 0.01948764 4289016103
0.019120578 0.0035647433 0.023436738 4288885033
0.023077611 -0.0053566955 0.031458758 4288819243
0.027611319 -0.016518593 0.041513585 4288623149
-0.0092323273 -0.0039528739 0.028975641 4285940803
-0.0085359327 0.0035997424 0.022042459 4287118139
-0.0072461888 0.0073984805 0.01851335 4288688174
-0.005322244 0.0074443687 0.018385639 4289278244
-0.0032634027 0.0067399498 0.01893772 4289605408
-0.0011992604 0.0060357656 0.019489529 4289344034
0.00072966516 0.0060820859 0.019361725 4289540894
0.0026584379 0.0061284956 0.019234 4289868313
0.0045870356 0.0061750244 0.019106379 4289803035
0.0066641308 0.0054715406 0.019657692 4289803035
0.0087464787 0.0047683287 0.020208688 4289868059
0.010679979 0.0048152786 0.020080967 4289409823
0.012613293 0.0048623402 0.019953346 4289409568
0.014386851 0.0056592729 0.019147707 4289409568
0.016479332 0.0049567167 0.019698342 4289474594
0.019237068 0.0012556482 0.02295964 4289343779
0.023028176 -0.0069423132 0.030284541 4289146663
0.026878949 -0.015138743 0.037605643 4288885033
0.030443031 -0.021834658 0.043568455 4288361008
-0.0095275082 -0.0040219054 0.026451709 4287053114
-0.0085824355 0.0020468757 0.020892335 4287641909
-0.0071629807 0.0051038619 0.018049804 4289080874
-0.0053686947 0.0059024524 0.017243657 4289998364
-0.0034450367 0.0059484523 0.017116057 4289736988
-0.0012461208 0.0044895168 0.018344356 4289671964
0.00082311407 0.0037833657 0.018894346 4289802779
0.0027544722 0.0038298573 0.018766468 4289868314
0.004685659 0.0038764793 0.018638695 4290064664
0.0067652874 0.0031709243 0.019188179 4289802778
0.0086988397 0.0032177884 0.019060394 4289736988
0.010632221 0.0032647718 0.018932706 4289932828
0.012722168 0.0025597773 0.019481743 4289343779
0.014657889 0.0026070103 0.019354047 4289409058
0.016917843 0.0011504516 0.020579053 4289343779
0.01968329 -0.0025613029 0.023831753 4289343779
0.022978712 -0.0085276477 0.029110538 4289081893
0.026487853 -0.015244623 0.035062321 4288950824
0.029526461 -0.019705318 0.038984261 4288753709
0.032421667 -0.023413479 0.042228721 4288425778
-0.0095744096 -0.0055919513 0.025288856 4286923064
-0.0083754659 -0.0010156557 0.021096503 4288230704
-0.0069504343 0.0020502023 0.018260097 4289343014
-0.0052829795 0.0036060158 0.016778545 4289671199
-0.003356725 0.0036520828 0.016650781 4290064153
-0.001430627 0.0036982577 0.016523106 4290457108
0.00063567609 0.0029899124 0.01707164 4290195223
0.0025641806 0.0030363519 0.016943963 4290260758
0.0046383254 0.0023283884 0.017492194 4290130199
0.0067177527 0.0016206596 0.018040081 4289933338
0.0086511858 0.001667561 0.017912325 4289606174
0.010738414 0.00096022896 0.018459858 4289802268
0.012987603 -0.00050112605 0.019682204 4289933339
0.014928643 -0.00045373663 0.019554174 4289801758
0.017193783 -0.001914477 0.020775562 4289736479
0.019964214 -0.0056369957 0.02401985 4289409058
0.023264412 -0.011620712 0.029285396 4289539873
0.026267339 -0.016095411 0.033199862 4288754728
0.028956626 -0.019061536 0.035764366 4290062368
0.031667452 -0.022027042 0.038327515 4288818989
0.034756754 -0.026499316 0.042236522 4288426034
-0.0085488148 -0.0018151011 0.019268161 4288819498
-0.0069969743 0.00050230697 0.017113671 4289866784
-0.0053295195 0.0020624846 0.015635367 4289998363
-0.003403414 0.0021085776 0.015507629 4289933084
-0.0016150139 0.0029116422 0.014705302 4290456853
0.00030807033 0.0029578768 0.014577929 4289803035
0.0023740083 0.0022474565 0.015124949 4290064918
0.0045909844 0.0007805489 0.016345873 4289803033
0.0065217428 0.00082729012 0.016218234 4290064409
0.0084523149 0.00087413564 0.01609068 4289736989
0.010536637 0.00016457774 0.0166368 4289802268
0.012626197 -0.00054471754 0.017182667 4289998109
0.014721032 -0.0012538135 0.017728247 4290194969
0.016983185 -0.0027189981 0.018946657 4289867549
0.020080041 -0.0079649184 0.023528805 4289671198
0.023214776 -0.013209853 0.02810858 4289867549
0.026217159 -0.017697629 0.032013372 4289278244
0.028733101 -0.019916456 0.033899091 4290324508
0.031265121 -0.022134745 0.035783775 4289343269
0.034170065 -0.0258644 0.039011523 4289538598
-0.0087220222 -0.0026099738 0.017443281 4289409314
-0.0070435219 -0.0010453016 0.015967462 4289475103
-0.0053760745 0.00051923469 0.014492394 4289934359
-0.0033153184 -0.00019378029 0.015037924 4289476378
-0.001524277 0.00061155483 0.014237063 4289869334
0.0004013963 0.00065785274 0.014109515 4289476889
0.0023269132 0.00070427358 0.013982074 4290131218
0.0043979473 -8.0820173e-06 0.01452723 4290065938
0.0063258447 3.8607046e-05 0.014399787 4289673493
0.0084046982 -0.00067337602 0.014944635 4289346328
0.010181125 0.00013229065 0.014145171 4289215513
0.01226506 -0.00057936832 0.014689837 4288889114
0.014194947 -0.00053222477 0.014562562 4288889879
0.026166972 -0.019299597 0.030827073 4288821539
0.028336775 -0.020008489 0.03136649 4289801759
0.03068744 -0.021475347 0.032576218 4289867294
0.03322709 -0.023699889 0.03445562 4289668648
-0.0091482066 -0.0018770974 0.014277507 4288560928
-0.007477887 -0.0003082566 0.012805477 4289083933
0.025776554 -0.019380359 0.028302433 4288625698
0.027767915 -0.019331198 0.028171489 4290194969
0.029934611 -0.020042229 0.028709581 4289605409
0.032463055 -0.022273606 0.030584922 4288819244
0.035550553 -0.026785022 0.034464985 4288229939
0.025216367 -0.018689472 0.025116725 4289672728
0.027026679 -0.017877916 0.024318865 4290849553
0.029182304 -0.018591397 0.02485607 4290782743
0.031521339 -0.02006709 0.026060129 4290585629
0.034594741 -0.024591971 0.02993145 4289015083
0.02482653 -0.018750053 0.022607034 4289345053
0.026631352 -0.017936405 0.021811115 4289344034
0.028781358 -0.018652234 0.022347117 4290259228
0.030936573 -0.019367795 0.022882814 4290062369
0.033820424 -0.023141354 0.026079627 4289145898
0.036914792 -0.027678626 0.029939899 4286921789
0.022130433 -0.017316155 0.018904412 4289609489
0.024267051 -0.018034615 0.019439513 4291045904
0.026236292 -0.017985936 0.01931007 4289278244
0.028380673 -0.018704038 0.019844787 4289278244
0.030708339 -0.02018873 0.021043191 4289866529
0.033408213 -0.023206487 0.023568356 4289931554
0.036496628 -0.027757006 0.027419364 4288229939
0.021913942 -0.018123526 0.017073883 4288953119
0.023877826 -0.018075038 0.016944751 4290260758
0.025841508 -0.018026495 0.016815675 4290586648
0.028155517 -0.019515932 0.018011628 4290782998
0.03048021 -0.021005012 0.019206947 4290259484
0.033176992 -0.024031581 0.021725895 4289735714
0.036078725 -0.027826358 0.024905438 4289473064
0.020862345 -0.015069057 0.011939771 4288494883
0.023319077 -0.017335098 0.01379538 4289410589
0.02544697 -0.018058037 0.014327884 4290259993
0.027755301 -0.019551992 0.015521029 4290194458
0.030252215 -0.021816704 0.017374171 4290063643
0.032403957 -0.022538751 0.017905334 4289801759
0.035294365 -0.026344694 0.02107753 4289408294
0.038025666 -0.029378941 0.023587873 4286398528
0.02700508 -0.018032227 0.011718567 4290983938
0.029668655 -0.021077115 0.014226699 4289999639
0.031631503 -0.021028291 0.014097905 4289801759
0.034327265 -0.024072148 0.016604019 4289147174
0.037416603 -0.028661728 0.020425918 4289015083
0.031040061 -0.020275513 0.010960821 4290718228
0.033910524 -0.024103705 0.014118157 4289932573
0.036622029 -0.02715585 0.016616866 4289211944
0.030629482 -0.020287054 0.0084892437 4290327058
0.033127751 -0.022571165 0.01032793 4290849299
0.03601386 -0.026409775 0.01347621 4288491824
0.038738359 -0.029470203 0.015967665 4286464064
0.029858459 -0.01873007 0.0047162641 4289215513
0.03252862 -0.021800686 0.0072046481 4289408803
0.035220321 -0.024870701 0.0096917395 4288885543
0.037745032 -0.027160512 0.011523964 4287576118
0.031746883 -0.020235006 0.0034390334 4291045139
0.034427326 -0.023313982 0.0059203394 4290389533
0.037129309 -0.02639238 0.008400334 4289799974
0.031331595 -0.020219829 0.00098770764 4290325784
0.033820573 -0.022523658 0.0028125197 4289604898
0.036514025 -0.025610982 0.0052866042 4289408038
0.03091659 -0.020195719 -0.0014569303 4290655244
0.033585411 -0.023292433 0.0010122452 4289409314
0.036275756 -0.026388487 0.0034800265 4289604899
0.039178681 -0.030270075 0.0065950248 4289275949
0.033350397 -0.024056587 -0.00078468304 4290587923
0.03566118 -0.025584856 0.00038275495 4289473829
0.038173582 -0.027900966 0.0021963995 4289276458
0.034858841 -0.023977395 -0.0033501498 4291044884
0.037550967 -0.027090779 -0.00089532416 4290128158
0.039877396 -0.028622802 0.00026793405 4288099124
0.034245182 -0.023144973 -0.0064261761 4291045139
0.036547158 -0.024682099 -0.0052645802 4290259229
0.03905331 -0.02701135 -0.0034601782 4289538343
0.031349067 -0.020757308 -0.010651901 4290786313
0.033631969 -0.022299334 -0.0094923424 4289737498
0.035925549 -0.023840979 -0.0083334707 4289801758
0.038423251 -0.026177023 -0.0065333331 4289799463
0.03320713 -0.022237416 -0.011908128 4290786059
0.035113689 -0.022189645 -0.012032973 4290455578
0.03760023 -0.024532504 -0.010236961 4289473573
0.032594722 -0.021367414 -0.014956256 4290460424
0.034683648 -0.022119002 -0.014441763 4289540128
0.036971126 -0.023669444 -0.013288917 4289539108
0.039661366 -0.026817551 -0.010859737 4289472298
0.034253884 -0.022039417 -0.016844004 4288885544
0.036342468 -0.022793178 -0.016331023 4288165169
0.039024178 -0.025950171 -0.013907805 4288883759
0.034395833 -0.02436146 -0.017332796 4287249974
0.036486957 -0.025117282 -0.016821632 4287249209
0.039171044 -0.028282991 -0.014405018 4287379259
0.034537684 -0.026687631 -0.017824721 4286792248
0.036631349 -0.027445599 -0.017315365 4286529343
0.036968689 -0.030585838 -0.017179988 4286529343
-0.0106849 -0.010924015 0.030160831 4281690973
-0.010974564 -0.010994526 0.02763533 4281039703
-0.01114282 -0.011815475 0.025790656 4280450144
0.0082060061 -0.0014596451 0.013128217 4284049978
0.0099796467 -0.000651896 0.01233061 4283591999
0.012060661 -0.0013657492 0.012873814 4282742594
0.013828497 -0.00055791065 0.01207676 4282873408
0.016076531 -0.0020321459 0.01328963 4283004223
0.019323248 -0.0080694873 0.018519754 4283657278
0.022780668 -0.01486625 0.024416586 4283657278
-0.010752134 -0.0057591181 0.01527369 4280973659
-0.0091945641 -0.0034219753 0.013133312 4281698114
-0.0075242557 -0.0018487684 0.011664527 4281762884
-0.0056011416 -0.001802817 0.011536937 4281306178
-0.0035435222 -0.0025202557 0.012079444 4281435718
-0.0016179644 -0.0024740323 0.011951849 4281764158
0.00016733631 -0.0016643386 0.011154708 4281634619
0.0020898655 -0.0016179588 0.011027487 4281569338
0.0041577704 -0.0023347251 0.011569628 4281895484
0.0062309466 -0.0030512307 0.012111519 4281700409
0.0083094127 -0.0037675668 0.012653161 4281765434
0.010239426 -0.0037205778 0.012525763 4281634619
0.012169268 -0.0036735088 0.01239844 4281961529
0.013939757 -0.0028633792 0.011602795 4282287418
0.016352136 -0.0051047113 0.013480496 4282026044
0.01943903 -0.010396663 0.018029353 4282090813
-0.01116962 -0.0050124265 0.012117455 4279928413
-0.0094937496 -0.0034348089 0.010651479 4280916284
-0.0076997653 -0.0026231743 0.0098550487 4280327233
-0.0056476593 -0.0033430215 0.010396229 4280327233
-0.0037248209 -0.0032969564 0.010268748 4280718913
-0.0016648211 -0.0040164106 0.010809556 4281309494
0.00026043877 -0.003970053 0.010682087 4281309494
0.0020427965 -0.0031581279 0.0098868515 4281570358
0.0038195588 -0.0023462288 0.0090920664 4281571123
0.0060352944 -0.0038303919 0.0103002 4281701173
0.0081108324 -0.0045489147 0.010840394 4281571123
0.010191631 -0.0052672457 0.01138036 4281636148
0.012121346 -0.0052201562 0.011253063 4281831223
0.014050875 -0.0051729623 0.011125859 4281831479
0.016465638 -0.0074207149 0.012998514 4282091069
0.019554656 -0.012727858 0.017535901 4282090559
-0.011215843 -0.0065567382 0.010973668 4279862878
-0.0095399953 -0.0049747676 0.0095109288 4280393789
-0.0074879453 -0.0056969114 0.010050407 4280393278
-0.0055623911 -0.0056508854 0.0099226683 4280458304
-0.0036369637 -0.0056047514 0.0097950213 4280458304
-0.0017116927 -0.0055584982 0.0096674729 4281046843
0.00021344051 -0.0055121444 0.0095400158 4281111868
0.0021384098 -0.0054656863 0.0094126482 4281048883
0.0039178245 -0.0046515297 0.0086193178 4281636148
0.0061360262 -0.0061399695 0.0098240674 4281897523
0.0082140751 -0.0068606604 0.01036251 4281701429
0.010297421 -0.0075810421 0.010900667 4281701429
0.012229722 -0.0075338706 0.010773212 4281635383
0.014320847 -0.0082538482 0.01131101 4281764413
0.016740736 -0.010508053 0.013178512 4282090303
0.019670118 -0.015063139 0.017039426 4282287673
-0.011262078 -0.0081007537 0.0098301042 4279668823
-0.0097125135 -0.0057441927 0.0077049043 4280129608
-0.0076634027 -0.0064685661 0.0082429685 4280456773
-0.0058724321 -0.0056524985 0.0074500889 4280393279
-0.0038181506 -0.0063765328 0.0079879723 4280459069
-0.0017585605 -0.0071003027 0.0085256062 4281046843
0.00030631945 -0.0078238603 0.0090629533 4281178169
0.0020912699 -0.0070074834 0.0082708057 4281569849
0.0040159561 -0.0069609135 0.0081435479 4281701429
0.0060885362 -0.0076839514 0.0086806323 4281636404
0.0081663989 -0.0084067751 0.0092175081 4281570869
0.010249544 -0.009129351 0.0097540468 4281375283
0.01218171 -0.0090821702 0.0096266121 4281309239
0.014431614 -0.010573778 0.010826342 4281765688
0.01669221 -0.012065064 0.012025483 4282222393
0.01962107 -0.016633211 0.015876735 4283072309
-0.011184812 -0.010417037 0.0093510337 4279734358
-0.0095062703 -0.0088262372 0.0078945551 4280064584
-0.0075808614 -0.0087803081 0.0077667572 4280195398
-0.0057872385 -0.007961981 0.0069753323 4280002364
-0.0037304386 -0.008688122 0.0075114388 4280719933
-0.0016683377 -0.0094140023 0.0080472939 4280916284
0.00053890795 -0.010911779 0.0092460997 4281309494
0.0023292229 -0.010093104 0.0084552094 4281504569
0.0044044964 -0.010818345 0.0089904331 4281635383
0.0063370578 -0.010771466 0.0088627376 4281831733
0.0084201582 -0.011496302 0.0093976036 4281962039
0.010661978 -0.012992708 0.010594521 4281570614
0.012602191 -0.012945322 0.010466557 4281309239
0.014542226 -0.012897823 0.010338698 4282222393
0.016158868 -0.011307091 0.0088873766 4282810678
-0.011354547 -0.011187991 0.0075435638 4279145309
-0.0095525905 -0.010367524 0.0067530237 4279932239
-0.0077561848 -0.0095470548 0.0059629567 4280193868
-0.0059653707 -0.0087266229 0.0051733311 4280327999
-0.0039114989 -0.0094550084 0.0057080165 4280588864
-0.0021263994 -0.0086344779 0.0049189441 4281307199
-0.00020713359 -0.0085882433 0.0047918893 4281439289
0.001711987 -0.0085418895 0.0046649352 4282421804
0.0037761666 -0.0092695672 0.0051992815 4282812974
0.0056977011 -0.0092229452 0.0050723236 4282747439
0.0076190643 -0.0091762096 0.0049454644 4282814248
0.0096936412 -0.0099033192 0.0054793581 4282881059
0.011773493 -0.010630202 0.0060129724 4284515098
-0.009851072 -0.010354992 0.0042899828 4279341149
-0.0081890039 -0.0087557342 0.0028411783 4279146329
-0.0065379702 -0.0071566608 0.0013932372 4279541069
-0.0048979484 -0.0055577382 -5.3889118e-05 4279089209
-0.0034059323 -0.0031824224 -0.002160389 4280657968
-0.0017907061 -0.0015838351 -0.003605756 4282945574
9.8336488e-05 -0.0015382003 -0.0037307143 4283853884
-0.0073729604 -0.0040113665 -0.0036915224 4284507704
-0.009696845 -0.00322772 -0.0066599608 4284180029
-0.01017759 0.038206294 0.041655086 4280103088
-0.0090198591 0.042492494 0.037250623 4278654688
-0.0073714182 0.043950982 0.035698347 4279180244
-0.0056004338 0.044702575 0.034859225 4279311824
-0.0031532608 0.0419209 0.037581168 4279244758
-0.0012408048 0.041966155 0.037453957 4280365994
0.0006714724 0.042011492 0.03732682 4279316923
0.0024390146 0.042763345 0.03648819 4279185599
0.0042009242 0.043515153 0.035649993 4278988483
0.0058071651 0.044973254 0.03410098 4279644854
0.0075550266 0.045724899 0.033263847 4279052999
0.0096081235 0.045064129 0.033848844 4279249094
-0.011100855 0.041622281 0.035530195 4278595783
-0.009577632 0.04379417 0.033269897 4279644598
-0.0080709234 0.045965768 0.031010775 4280169389
-0.0063136183 0.046719253 0.030174213 4279118789
-0.0042893514 0.046055041 0.030759083 4278265558
-0.0022598132 0.045391053 0.031343661 4279316924
-0.00022498146 0.044727236 0.03192801 4279448758
0.0015261583 0.045480959 0.031092076 4279054784
0.0035660677 0.044817433 0.031676203 4278266834
0.0068983473 0.047033332 0.029296463 4279907504
0.0089403652 0.046370141 0.029880604 4280039339
0.010987628 0.045707166 0.030464454 4278660299
-0.011521991 0.042224124 0.032266624 4278397393
-0.0083774924 0.045869268 0.028467378 4278331094
-0.0028610528 0.046713971 0.027382446 4279251643
-0.00069563463 0.045336887 0.028674399 4279317433
0.0010472797 0.046092607 0.027840713 4279120573
0.0029317029 0.046137527 0.02771561 4278463439
0.013315339 0.042100742 0.03133478 4279055293
-0.011441771 0.039985515 0.031844951 4279185089
-0.0030451603 0.045915298 0.025555586 4278923969
-0.001024317 0.045246825 0.026137648 4278924224
0.00085745007 0.04529164 0.026012691 4278859453
0.0025919527 0.046049505 0.025181239 4278793408
0.0044706129 0.046094425 0.025056617 4279054784
0.0061965398 0.046852224 0.024225907 4278528719
0.0082273223 0.046184488 0.024807604 4278726853
0.0099473931 0.046942331 0.023977408 4279317944
0.012465309 0.044136971 0.026675804 4279449013
-0.011236511 0.037027083 0.032126628 4278990014
-0.01060845 0.044227995 0.024937743 4279119299
-0.0091205984 0.046418905 0.022694627 4278922693
-0.007515911 0.047894113 0.021158451 4279054784
-0.0056500994 0.047938295 0.021034369 4279120318
-0.0036456212 0.047267191 0.021615857 4279449013
-0.0016358681 0.046596363 0.022197017 4279056059
0.0003791526 0.045925736 0.022777902 4279122358
0.0022524484 0.045970462 0.022653593 4279122104
0.0041255392 0.046015292 0.022529369 4278792644
0.0061508976 0.045345165 0.023109751 4278922438
0.0078711323 0.046105161 0.022281149 4279579064
0.0095857121 0.046865098 0.021452973 4278529484
0.011615906 0.046195351 0.022033239 4278728638
0.014794875 0.040522546 0.027540037 4278991799
-0.011156663 0.034778036 0.031697236 4279447739
-0.010653194 0.042718731 0.023819873 4279381693
-0.0092958324 0.045633942 0.020877281 4279579064
-0.0076938644 0.047113493 0.019344563 4278988484
-0.0038293265 0.046484374 0.019800736 4279514293
-0.0018224791 0.045811258 0.020380532 4278728128
4.5429915e-05 0.045855805 0.020256544 4278728129
0.0019131601 0.045900442 0.020132633 4278728129
0.0040800311 0.044510625 0.021414993 4278925243
0.0059528165 0.044555575 0.021290889 4278726854
-0.010951921 0.031804875 0.031967923 4280763028
-0.010825746 0.041929722 0.021999294 4279119554
-0.0096014924 0.045573607 0.018360617 4279382969
-0.0062835254 0.047821261 0.016005678 4278328289
-0.0044290125 0.047865331 0.01588246 4278919634
-0.00057635829 0.047234118 0.016338153 4279316923
0.0017209686 0.045119993 0.018319992 4279318198
0.0037352704 0.044445165 0.018897882 4279186619
0.0056024976 0.044490002 0.018774169 4278791624
0.0073144771 0.04525429 0.017949367 4279252154
0.0088630281 0.046737738 0.016424118 4278397648
-0.010742761 0.039701015 0.021584755 4278988738
-0.0097764581 0.04480014 0.016551789 4278595528
-0.0081826411 0.046288304 0.015026163 4279251134
-0.0064639822 0.047054283 0.014202137 4279447994
-0.00076541677 0.04646489 0.014533589 4278595528
0.001235269 0.045787521 0.015110731 4279054783
0.0032412112 0.045110397 0.015687548 4279054783
0.0085020103 0.046687603 0.013919694 4280433059
0.010515358 0.046010964 0.014496315 4280236454
0.012533922 0.045334592 0.015072625 4279580083
0.015718926 0.039609626 0.020540157 4279513529
-0.010404617 0.036019482 0.022566603 4279253684
-0.0067801811 0.047016121 0.011702914 4279776179
-0.0052112117 0.048508286 0.010182347 4279120318
-0.0010983869 0.04642424 0.012033926 4279054784
0.0010434091 0.045020707 0.013308201 4279383479
0.002896972 0.045065209 0.013185382 4279252154
0.0047503598 0.045109779 0.01306263 4278529485
0.014677536 0.042440109 0.015238728 4278267343
0.019068684 0.031634748 0.02557051 4279252154
-0.010066889 0.032325089 0.023538923 4279974569
-0.010126095 0.043267205 0.012944445 4278398159
-0.0012871698 0.045666441 0.010237908 4279055294
0.00070497766 0.044984587 0.010812368 4279186619
0.0025529899 0.045028977 0.010689929 4278989249
0.0044008009 0.04507345 0.010567572 4279251898
0.0064032786 0.044392124 0.011141555 4278989504
0.011953134 0.044526495 0.010774659 4278267343
0.014299918 0.042394541 0.012739167 4278465224
0.017673675 0.035909675 0.01887483 4278793919
-0.0098571107 0.029346598 0.023805236 4281025424
-0.010040242 0.04105033 0.012538526 4279381438
-0.0088480487 0.044737414 0.0089346506 4279250624
-0.0070047565 0.044781253 0.008812204 4278987973
-0.0053000562 0.045553684 0.0079940725 4278922949
-0.0030363388 0.043412395 0.0099586174 4279316923
-0.0010442026 0.042728283 0.010531401 4279382458
0.00080659986 0.042772673 0.010408735 4279513274
0.002657216 0.04281716 0.010286154 4279251133
0.0048117824 0.041405395 0.01155331 4279251133
0.0068222545 0.040722117 0.012125172 4279251134
0.008680474 0.040767044 0.012002278 4279382458
0.010378253 0.041540012 0.011185199 4279448759
0.012559261 0.040129296 0.01245084 4279514293
0.014750954 0.038718887 0.013715882 4279187384
0.017963748 0.032942355 0.019142685 4279056059
-0.0093926862 0.024897771 0.025454959 4282142324
-0.0096941963 0.037367694 0.01351881 4280236454
-0.0084936097 0.041065931 0.0099225137 4279120574
-0.0066422597 0.041109987 0.0097995531 4279316924
-0.0046526976 0.040423475 0.010370761 4279578809
-0.0026578419 0.039737135 0.010941736 4279250113
-0.0006577149 0.039051071 0.011512391 4278988484
0.0010546148 0.03982614 0.010695655 4278530758
0.0032091029 0.038409986 0.011959482 4279056059
0.0052223168 0.037724517 0.012529481 4278859199
0.0070860721 0.037769541 0.0124062 4278861493
0.0091070719 0.037084401 0.012975857 4278664889
0.010973159 0.037129648 0.012852542 4278403003
0.013327707 0.03498479 0.014806727 4278796469
0.01553278 0.033570364 0.016067669 4278993583
0.018758539 0.027776698 0.021480637 4279452074
-0.0089288093 0.020431725 0.027091945 4282208114
-0.0089581758 0.031472988 0.016568713 4279188403
-0.0078738853 0.035915606 0.012286589 4279385009
-0.005873438 0.035227038 0.012855433 4279187638
-0.0040060058 0.0352716 0.012731493 4279254194
-0.0018566921 0.033850692 0.013992224 4279713704
0.00015961006 0.033162855 0.014560202 4280434589
0.0018882342 0.033940524 0.01374403 4280171938
0.0039096214 0.033253007 0.014311815 4280041124
0.0057843588 0.033298224 0.014187751 4280303263
0.0078135468 0.032611087 0.014755167 4280370328
0.0098480023 0.031924114 0.015322339 4280238748
0.011887673 0.03123741 0.015889194 4279976354
0.014258254 0.029086424 0.017837472 4279714213
0.015982773 0.029864652 0.017022062 4279976864
0.019384336 0.023321563 0.023112109 4280369819
-0.0087201335 0.017419098 0.027332978 4282142323
-0.0087431967 0.028493306 0.0168337 4280566423
-0.0075204037 0.032213993 0.013252221 4280565913
-0.0056474768 0.032258607 0.01312786 4280565403
-0.0034982525 0.030833261 0.014385298 4280762773
-0.001620207 0.030878196 0.014260743 4280761753
0.00025767088 0.030923216 0.01413627 4280827288
0.0019889697 0.031703182 0.013321577 4280564638
0.0041620545 0.030278744 0.014577758 4280302754
0.0060421042 0.030324126 0.014453366 4280565403
0.0079219826 0.030369593 0.014329053 4280565914
0.0099589638 0.029680571 0.014894415 4280107424
0.012321252 0.027522763 0.016838327 4280041633
0.0143742 0.026834285 0.017402818 4280041889
0.016432349 0.026146045 0.017966976 4280041889
0.019673157 0.020317813 0.023353076 4280304029
-0.0088935234 0.016610416 0.025497852 4282469744
-0.0086584911 0.026242567 0.016402647 4281025423
-0.0074327625 0.029974276 0.012829104 4280828563
-0.0055572391 0.030018961 0.012704579 4280828563
-0.0034055412 0.028589295 0.01395867 4281155984
-0.001524888 0.028634312 0.013833959 4280893079
0.00035559759 0.028679429 0.013709337 4280630429
0.0022359043 0.028724646 0.013584804 4280564129
0.0044141673 0.027296046 0.014837384 4280826778
0.006299559 0.02734158 0.014712658 4280499613
0.0083392896 0.026650375 0.015276168 4280631704
0.010227013 0.026696144 0.015151419 4280566424
0.012434479 0.025268605 0.016402403 4280107424
0.014652643 0.023841443 0.017652694 4280107424
0.016716067 0.023151187 0.018214909 4280107424
0.020297933 0.015832638 0.024962233 4280434334
-0.0089396127 0.015066752 0.024354538 4282862443
-0.0087038539 0.024727343 0.015280401 4281417614
-0.0073452815 0.027730471 0.012402967 4281221519
-0.0054671615 0.027775249 0.012278289 4281156238
-0.003451094 0.027080687 0.012841366 4281024914
-0.0015705638 0.027125726 0.012716677 4281155729
0.00030979514 0.027170876 0.012592092 4280893079
0.0020437054 0.027955359 0.011780459 4280630429
0.0040700026 0.027261445 0.012343157 4280499613
0.0061015449 0.026567796 0.012905538 4280434079
0.0081383549 0.025874371 0.013467632 4280500379
0.010180432 0.025181158 0.014029451 4280172449
0.012387652 0.02374926 0.015277216 4280238239
0.014280308 0.023795379 0.015152317 4280172448
0.016834129 0.020886565 0.017770803 4280303774
0.020586003 0.012807583 0.025187431 4280565658
-0.0089857131 0.013523376 0.023211436 4283058794
-0.0084895194 0.021728782 0.015531488 4281351824
-0.007125359 0.02474081 0.012660196 4281024914
-0.0052419156 0.024785733 0.012535179 4281090703
-0.0033586249 0.024830772 0.012410259 4281287054
-0.001334738 0.024134377 0.012971239 4280958613
0.00055094436 0.024179669 0.012846315 4280761754
0.0022902526 0.024966458 0.01203602 4280893079
0.0043218024 0.024270548 0.012596713 4280760988
0.0065102689 0.022833599 0.013842231 4280630429
0.0085550733 0.022138169 0.014402241 4280827288
0.010605123 0.021443 0.014961937 4280827288
0.012660425 0.020748062 0.015521357 4280370583
0.014883537 0.019312294 0.016764911 4280238749
0.017117325 0.017876936 0.018007798 4280434588
0.021377768 0.007551441 0.02745839 4280565913
-0.00890477 0.011236234 0.022753639 4283255399
-0.0084052533 0.019465776 0.015091354 4280434844
-0.0069057234 0.021742722 0.012911117 4281221518
-0.0050169602 0.021787798 0.012785764 4281222029
-0.0031283498 0.021832978 0.012660505 4281549449
-0.00095850229 0.020390792 0.013903774 4281614728
0.00093522668 0.020436307 0.013778329 4280958614
0.0026826486 0.021225536 0.01296909 4281089174
0.0047221817 0.020527629 0.013527703 4281613198
0.0069185756 0.019086527 0.01476947 4281810823
0.0091256686 0.017645752 0.016010648 4281876613
0.011029396 0.017691998 0.015884912 4282334594
0.013092671 0.016995108 0.016442211 4282858619
-0.0080616884 0.015706347 0.016014853 4282006663
-0.0064214654 0.017243953 0.014522064 4282466174
-0.0043867491 0.016543278 0.015078953 4283317618
-0.023776244 -0.014936923 0.037020847 4282338929
-0.021777634 -0.01489045 0.036887296 4282272628
-0.019671395 -0.015597065 0.037433758 4282339439
-0.017670259 -0.015550294 0.037300214 4282142579
-0.027916783 -0.015874553 0.035423532 4279062688
-0.024640523 -0.010493252 0.030405926 4278400708
-0.02266388 -0.010447267 0.03027386 4278401983
-0.02036434 -0.012667444 0.03217677 4278668203
-0.01860049 -0.011110321 0.030688094 4279193249
-0.0165083 -0.011819232 0.031234102 4278603943
-0.029864887 -0.018276751 0.035050876 4279128480
-0.028446488 -0.013683524 0.030852659 4278341549
-0.026762623 -0.011364272 0.028688362 4278406828
-0.024993058 -0.0098030362 0.027202332 4279322789
-0.023024749 -0.0097572375 0.02707083 4279060138
-0.020841334 -0.011226507 0.028292747 4278863533
-0.018978078 -0.010422828 0.027484583 4279519138
-0.03009885 -0.018356629 0.032513663 4279456408
-0.025141064 -0.010619177 0.025359454 4279257764
-0.023280438 -0.00981359 0.024552921 4278274483
-0.019355301 -0.009721892 0.024290958 4279585183
-0.017279893 -0.010435512 0.024834806 4278605728
-0.03033255 -0.018427506 0.029983187 4279719313
-0.028924616 -0.013808338 0.025805125 4278801059
-0.019511744 -0.01053139 0.022453794 4279716254
-0.017552201 -0.010485416 0.022323163 4278800293
-0.015592769 -0.010439336 0.022192614 4278543254
-0.030378455 -0.020018276 0.028804848 4280636548
-0.029066795 -0.014621623 0.023963952 4278669734
-0.027495686 -0.011518707 0.021142798 4279062178
-0.025640607 -0.010708962 0.020339752 4278342059
-0.023791064 -0.0098992568 0.019537212 4278537898
-0.021732241 -0.010617865 0.02007875 4278668459
-0.019778199 -0.010572109 0.019948414 4278799784
-0.017824255 -0.010526272 0.019818148 4278865064
-0.030424358 -0.021608746 0.027626732 4281225853
-0.029112415 -0.016196797 0.022797177 4278604453
-0.027541209 -0.01308516 0.019982496 4278538918
-0.025889996 -0.010740327 0.017839959 4278735013
-0.024150603 -0.0091622025 0.016369017 4278866084
-0.022207517 -0.0091168359 0.016239313 4279192739
-0.020154461 -0.0098376051 0.016779728 4279061668
-0.018096056 -0.010558138 0.017319867 4278799019
-0.031820707 -0.028626921 0.031269774 4282208624
-0.030376611 -0.023967741 0.027118331 4281684598
-0.02915803 -0.01777171 0.021630595 4278801568
-0.027685834 -0.013882599 0.01815323 4278604199
-0.018254869 -0.011349373 0.015496479 4279585438
-0.031957746 -0.029460952 0.029412678 4282274668
-0.030422574 -0.025559779 0.025939053 4281946484
-0.029299963 -0.018575322 0.019796515 4279456408
-0.027830325 -0.01467542 0.016327461 4278735269
-0.026286256 -0.011546813 0.013527676 4278603943
-0.02465957 -0.0091894064 0.01139662 4278471343
-0.01863889 -0.010594804 0.012343284 4279650719
-0.01658646 -0.011319693 0.01288069 4278604198
-0.032185461 -0.029517137 0.026892615 4282405483
-0.030562056 -0.02637835 0.024093727 4281946483
-0.029345518 -0.020147458 0.018631997 4280242574
-0.028073665 -0.014690537 0.013839237 4278669734
-0.024913684 -0.0091894642 0.0089204162 4279455899
-0.023094542 -0.0083716176 0.0081264861 4279390364
-0.021061208 -0.0090993717 0.0086633675 4279127459
-0.019022521 -0.009826865 0.0091999937 4278536624
-0.016978472 -0.010554161 0.0097363852 4279062179
-0.032322183 -0.030339727 0.025044071 4282274414
-0.030607952 -0.027967649 0.022916479 4281946994
-0.029391067 -0.021719307 0.017467689 4281160828
-0.028217835 -0.0154719 0.012021951 4278997154
-0.025271881 -0.0084054731 0.005786987 4278468794
-0.023461014 -0.0075855777 0.0049952008 4278402749
-0.019293226 -0.009820519 0.00673002 4278603178
-0.017370105 -0.0097752493 0.0066019222 4279258528
-0.032640122 -0.029602403 0.0218725 4282340203
-0.030747239 -0.028779099 0.021076424 4281946993
-0.029436614 -0.023290854 0.016303604 4281423223
-0.028460732 -0.015471132 0.0095454194 4278866593
-0.02713313 -0.010761987 0.0054409783 4278996643
-0.025316816 -0.0099399704 0.0046503861 4278471599
-0.023399007 -0.0098951682 0.0045223888 4278666163
-0.021371551 -0.010627385 0.0050564501 4278995369
-0.019338738 -0.011359384 0.0055902191 4278603688
-0.017415769 -0.011314083 0.0054621603 4278800548
-0.015492905 -0.011268675 0.0053341873 4278407338
-0.030886397 -0.029585905 0.019239815 4282078319
-0.029578213 -0.024082474 0.014478484 4281553784
-0.028505802 -0.017020609 0.0083976965 4279194268
-0.027177967 -0.012298398 0.0043029487 4278473128
-0.02546598 -0.010694686 0.002853252 4278604453
-0.023551054 -0.010649936 0.0027254596 4278735013
-0.021526534 -0.011384452 0.0032581314 4278669223
-0.019609064 -0.011339406 0.0031303447 4278735013
-0.017691683 -0.011294266 0.0030026361 4278538664
-0.015892271 -0.010469779 0.0022152262 4278603689
-0.0120635 -0.010379011 0.0019606752 4278408614
-0.010275319 -0.0095544867 0.0011743093 4279327124
-0.031118706 -0.029606123 0.016746793 4282143854
-0.029527694 -0.026433114 0.013976054 4281684599
-0.028452145 -0.019351576 0.0079096276 4280243338
-0.027222805 -0.01383452 0.0031651296 4278472874
-0.025615014 -0.011444803 0.0010595992 4278341549
-0.023596067 -0.012181707 0.0015908917 4278471853
-0.01808241 -0.010483978 -0.00010858849 4279388323
-0.015937887 -0.012001554 0.0010807058 4279193248
-0.014023591 -0.011956217 0.00095340144 4278800549
-0.01210941 -0.011910766 0.00082619209 4278801314
-0.010573212 -0.0095218066 -0.0012738081 4278736544
-0.031443954 -0.028833337 0.013602266 4282274669
-0.02966916 -0.027219826 0.012154572 4281619063
-0.028398601 -0.021686692 0.0074185561 4280701574
-0.027267642 -0.015370389 0.0020274995 4278603943
-0.025868014 -0.011406479 -0.0013881 4278341294
-0.020261195 -0.010488855 -0.0024264287 4278467774
-0.016336661 -0.011182543 -0.0020232853 4279258273
-0.014430687 -0.011137405 -0.0021500373 4278274993
-0.012278479 -0.012658899 -0.0009643035 4278800293
-0.0102414 -0.013396703 -0.00043520518 4278931619
-0.031768829 -0.028047144 0.010467598 4282143854
-0.029906366 -0.027215689 0.0096801389 4281750388
-0.028542388 -0.022453524 0.0056119654 4281357434
-0.027312472 -0.016905986 0.00089007337 4278669479
-0.025912683 -0.012931186 -0.0025174487 4278602668
-0.024326675 -0.010528784 -0.0046117194 4278865318
-0.022538111 -0.0096984375 -0.0053937882 4278669478
-0.020530675 -0.010439703 -0.0048647691 4279126948
-0.016617391 -0.011135843 -0.004462502 4278996134
-0.014717005 -0.01109083 -0.0045888769 4278537389
-0.010287445 -0.014927948 -0.0015692953 4279325083
-0.03200024 -0.028036047 0.0079977755 4282471528
-0.030143319 -0.027202537 0.0072123073 4281685109
-0.028587503 -0.024004081 0.0044634435 4281357433
-0.027458549 -0.017653044 -0.00090155657 4278931873
-0.026061315 -0.01366743 -0.0043008253 4278273973
-0.022692241 -0.010426106 -0.0071703312 4278800804
-0.020912033 -0.0095936153 -0.0079501774 4278800548
-0.014882743 -0.011823136 -0.0063678888 4278997153
-0.012616228 -0.014141298 -0.0045350175 4278997408
-0.010459252 -0.015671264 -0.0033559799 4279849364
-0.030188518 -0.028761553 0.0060575083 4282012783
-0.028632604 -0.025554396 0.0033151004 4281553784
-0.027705688 -0.017605048 -0.0033426331 4279587479
-0.026313737 -0.013608674 -0.0067334617 4278538918
-0.017178047 -0.01101557 -0.0093209557 4278603688
-0.015168592 -0.011760855 -0.0087950211 4278603688
-0.012907866 -0.014085643 -0.0069666603 4278932128
-0.010756604 -0.015620139 -0.0057904338 4280374153
-0.030329395 -0.029527567 0.0042513553 4282143853
-0.028677708 -0.027104426 0.0021669706 4281160319
-0.027851434 -0.018340737 -0.0051258393 4278472873
-0.026565883 -0.013541011 -0.009159429 4278603689
-0.024993371 -0.011119315 -0.011238227 4278604198
-0.023109391 -0.011075184 -0.011363876 4279127458
-0.021337513 -0.010238569 -0.012139884 4279192993
-0.019456424 -0.01019424 -0.012265143 4278996898
-0.017575443 -0.010149814 -0.012390323 4278735269
-0.01557437 -0.010897405 -0.01186547 4278866594
-0.013322137 -0.013228972 -0.01004136 4279391129
-0.011053696 -0.015559987 -0.0082182772 4280898434
-0.032507107 -0.029538939 0.0019285968 4281750899
-0.030565752 -0.029494088 0.0017986558 4281225853
-0.028919477 -0.027064538 -0.00028050877 4281095294
-0.027895981 -0.019866563 -0.0062560295 4281226108
-0.026714001 -0.014259036 -0.010929383 4278669733
-0.02514416 -0.011830937 -0.013003125 4278407593
-0.023263048 -0.011786871 -0.01312858 4278669733
-0.021493979 -0.010948142 -0.013902781 4278735269
-0.019730441 -0.010109408 -0.014676587 4278996898
-0.017855041 -0.010065095 -0.01480138 4279194015
-0.015979741 -0.010020668 -0.014926079 4278932384
-0.013736017 -0.012358969 -0.013106258 4278997663
-0.011601638 -0.013902514 -0.01193541 4280963204
-0.028964436 -0.028609695 -0.0014250306 4281750388
-0.027738528 -0.022986054 -0.0060901027 4281357178
-0.0265508 -0.017363204 -0.010752478 4278801059
-0.025188368 -0.013334783 -0.014117007 4278472874
-0.023416571 -0.012493949 -0.014889872 4278407339
-0.016264655 -0.0099271908 -0.017330104 4278537898
-0.014272269 -0.01067921 -0.016807813 4278669989
-0.03113319 -0.028600877 -0.0037336126 4282340714
-0.029304028 -0.02775703 -0.0045090616 4281815923
-0.027682249 -0.025314925 -0.0065767621 4281422203
-0.026595168 -0.0188777 -0.011874262 4279456153
-0.025232568 -0.014838386 -0.015230712 4278604199
-0.023569968 -0.013196407 -0.016647816 4278734503
-0.02004857 -0.011510545 -0.01818856 4278668458
-0.014685269 -0.0097804982 -0.019851375 4279193248
-0.012695923 -0.010534668 -0.019330425 4280832134
-0.029348776 -0.029295184 -0.0056483955 4282208878
-0.027726963 -0.026846571 -0.0077112624 4281684343
-0.026743118 -0.019590683 -0.013640409 4280046734
-0.02559571 -0.013938179 -0.018277431 4278604199
-0.02394129 -0.012292089 -0.019690715 4278275758
-0.022186071 -0.011447186 -0.020459162 4278997409
-0.020207424 -0.012204235 -0.019939452 4278866848
-0.018340629 -0.012160141 -0.020063683 4278604964
-0.016473915 -0.012115939 -0.020187831 4279259038
-0.012866165 -0.011226472 -0.021078959 4279915154
-0.029687777 -0.028422467 -0.0087175006 4282274669
-0.027771669 -0.028377954 -0.0088455677 4281684344
-0.026787404 -0.02110252 -0.014760225 4280897923
-0.025745947 -0.014631414 -0.02002871 4278735268
-0.020480562 -0.012090148 -0.022329226 4278473128
-0.018619344 -0.01204619 -0.022453088 4278735268
-0.014897197 -0.01195793 -0.022700539 4278276014
-0.013036273 -0.011913642 -0.022824135 4279325594
-0.010791387 -0.014277793 -0.021023622 4282210664
-0.029830348 -0.029147867 -0.010493403 4282405994
-0.028118599 -0.02749211 -0.011904325 4281750388
-0.026831679 -0.022614107 -0.015879855 4281291388
-0.025789861 -0.016125634 -0.021135464 4278931873
-0.024356019 -0.012859951 -0.023824111 4278407594
-0.014819261 -0.014250848 -0.023162302 4278604198
-0.012955759 -0.014206514 -0.023286078 4278735523
-0.01109235 -0.014162051 -0.023409754 4278801569
-0.028163094 -0.029016538 -0.013033479 4281750388
-0.026875943 -0.024125487 -0.016999334 4281291643
-0.025833767 -0.017619614 -0.022242041 4278931873
-0.024508655 -0.013537628 -0.025563627 4278604454
-0.02287614 -0.011878841 -0.026965708 4278866083
-0.020911716 -0.012642837 -0.026449889 4278931619
-0.01894195 -0.013406524 -0.025934365 4279587224
-0.016847096 -0.014977354 -0.024780471 4279456153
-0.014863897 -0.015740536 -0.024265628 4278932128
-0.013125706 -0.014888909 -0.025027718 4278997408
-0.011137266 -0.01565177 -0.024513077 4279521689
-0.028408816 -0.028920725 -0.015439068 4282143854
-0.026920188 -0.025636628 -0.018118637 4281487994
-0.025771588 -0.019923255 -0.022710521 4281226109
-0.024552371 -0.015020514 -0.026661973 4278932128
-0.022808362 -0.014167201 -0.027423227 4279259548
-0.021069884 -0.013313856 -0.028184067 4279259804
-0.018869154 -0.015699077 -0.0263955 4279063964
-0.016771846 -0.017274257 -0.025244968 4279194524
-0.014786139 -0.018039513 -0.024731951 4278801059
-0.013045296 -0.017185707 -0.025492571 4279128989
-0.011054344 -0.017950621 -0.02497974 4279850129
-0.0087969787 -0.020333882 -0.023194557 4281161083
-0.028453151 -0.030440364 -0.016564677 4282274923
-0.026964433 -0.027147569 -0.019237788 4281619319
-0.025709536 -0.022231039 -0.023182068 4281553784
-0.024487358 -0.017315216 -0.027124049 4279194268
-0.022629272 -0.017271578 -0.027247887 4278604454
-0.020771269 -0.017227834 -0.027371641 4278735778
-0.018679585 -0.018807599 -0.026224047 4278866849
-0.016816311 -0.018763511 -0.026347987 4279194014
-0.014953125 -0.018719304 -0.026471831 4279783064
-0.013090041 -0.018674992 -0.026595589 4279390620
-0.010971539 -0.020253621 -0.025449481 4279652758
-0.0087117702 -0.022643412 -0.023669273 4280636549
-0.028698467 -0.030331027 -0.018960319 4282667623
-0.027008653 -0.028658316 -0.0203568 4281815923
-0.025435727 -0.026171448 -0.022387199 4281160574
-0.024205144 -0.021242397 -0.026320055 4279718548
-0.022339046 -0.02119858 -0.026444435 4279128989
-0.020473022 -0.021154657 -0.026568729 4279260314
-0.018373452 -0.022738554 -0.025424942 4279391384
-0.016621694 -0.021880377 -0.026183233 4279718293
-0.01487546 -0.021022217 -0.026941072 4279652759
-0.01300979 -0.020977847 -0.027065005 4280110739
-0.011016529 -0.021747086 -0.026555583 4280176274
-0.0086266883 -0.024957035 -0.024147097 4280569738
-0.027259167 -0.028535875 -0.022742268 4281619573
-0.025585759 -0.026859079 -0.024134332 4280701828
-0.024249073 -0.022733374 -0.027424399 4279915154
-0.022383116 -0.022689572 -0.027548779 4279653268
-0.020517237 -0.022645677 -0.027673081 4279587988
-0.018534694 -0.023417786 -0.027164891 4279653524
-0.016785726 -0.022557508 -0.027921386 4279653268
-0.014920104 -0.02251327 -0.028045412 4279390874
-0.013054568 -0.022468917 -0.028169345 4279914134
-0.010933883 -0.024056206 -0.027029857 4280241809
-0.008672066 -0.026459014 -0.025259495 4280045459
-0.027509402 -0.028404597 -0.025121121 4281946994
-0.025841463 -0.026723558 -0.026509646 4280701828
-0.024184465 -0.025042679 -0.027897295 4279915154
-0.022427175 -0.024180397 -0.028652998 4279784083
-0.020561434 -0.024136493 -0.028777283 4279915154
-0.018695775 -0.024092494 -0.028901491 4279849873
-0.016710799 -0.024866607 -0.028394993 4279587479
-0.014842588 -0.024822325 -0.028519206 4279783828
-0.012849636 -0.025596032 -0.028013078 4279849363
-0.010851335 -0.026369514 -0.027507233 4279849109
-0.0085871369 -0.028778765 -0.02574186 4280307343
-0.0073707253 -0.024644068 -0.029015129 4281947504
-0.027862389 -0.027443606 -0.02812352 4282143854
-0.026202627 -0.025758443 -0.029508218 4280111758
-0.024553809 -0.024073392 -0.030892154 4280111503
-0.022582386 -0.024850415 -0.030386606 4279980434
-0.020605613 -0.02562714 -0.02988136 4280111249
-0.018623479 -0.026403613 -0.029376378 4279914388
-0.01675532 -0.026359465 -0.029500684 4279980689
-0.014887251 -0.026315184 -0.029624885 4279390873
-0.0128945 -0.027091075 -0.029120363 4280373133
-0.010896403 -0.027866738 -0.028616123 4280766088
-0.0087627396 -0.029462386 -0.027483862 4280569484
-0.0074159168 -0.026136998 -0.03012082 4281685364
-0.028009068 -0.028115384 -0.029859154 4282143854
-0.026140682 -0.028071804 -0.029983902 4280112524
-0.024380758 -0.027205227 -0.030736636 4280046223
-0.022404119 -0.027984252 -0.030233089 4279849619
-0.020308275 -0.029585758 -0.029102076 4280242064
-0.018434733 -0.029541595 -0.029226825 4279783064
-0.016561281 -0.029497314 -0.029351478 4279783828
-0.014809903 -0.028630402 -0.030103246 4280177548
-0.012814634 -0.029408425 -0.02960052 4280375173
-0.010814011 -0.030186269 -0.029098038 4281619063
-0.0088080429 -0.030963825 -0.028595865 4281553784
-0.0071953647 -0.029274305 -0.02997344 4282537574
0.013223361 -0.0082616284 0.003905084 4285102364
0.0021323897 -0.002268834 -0.0031959591 4286148119
0.0041717179 -0.0029991828 -0.0026615094 4285950239
0.014548238 0.0019338522 -0.0073605943 4285883939
-0.0058834814 -0.0016296748 -0.0057930662 4285033004
-0.004410468 0.00075172447 -0.0078934468 4285294888
-0.0030935407 0.0039114114 -0.010650954 4285950749
-0.0013714917 0.0047350693 -0.011432474 4286146333
0.00063514709 0.0040016007 -0.01089752 4285622308
0.0027948469 0.0024900008 -0.0097050639 4285425958
0.0046642609 0.0025354698 -0.0098284939 4285493279
0.0068399794 0.0010244641 -0.0086369403 4285427743
0.0087145008 0.0010702759 -0.0087605473 4285558813
0.010430183 0.0018943269 -0.0095411623 4285623838
0.011978861 0.0034964662 -0.010978218 4286148629
0.013680603 0.0043203626 -0.011757777 4286017049
0.015877243 0.0028103646 -0.010567237 4286082073
0.017915007 0.0020786058 -0.010033703 4286148119
-0.008469969 0.00072239712 -0.010071285 4285295909
-0.0068680793 0.0023291167 -0.011509409 4285493024
-0.0051403753 0.0031548608 -0.012289853 4285688864
-0.0035578012 0.0047613475 -0.013726532 4285951003
-0.0019862615 0.0063677002 -0.015162448 4286146843
-0.00028073788 0.0071932022 -0.015941134 4286082584
0.0018623918 0.0056767929 -0.014750782 4285623074
0.0040162466 0.0041608009 -0.013561098 4285558303
0.0061808266 0.0026451107 -0.012372016 4285558813
0.008044336 0.0026906636 -0.012494887 4285623838
0.0095904656 0.0042970274 -0.013928663 4285952279
0.011286896 0.0051228981 -0.014706308 4285623073
0.013141748 0.0051685367 -0.01482839 4285557028
0.015329976 0.0036539603 -0.013640544 4285819933
0.01752891 0.0021397136 -0.012453276 4285951004
0.020082947 -0.00093418732 -0.0099574942 4285623073
-0.0086465888 8.9257956e-06 -0.011835382 4285295653
-0.0073155314 0.0031862054 -0.014581081 4285624349
-0.0053225048 0.0024477895 -0.014048733 4285754398
-0.0037426576 0.0040585678 -0.015481991 4285622563
-0.0021738373 0.0056692306 -0.016914479 4285557028
-0.00061603636 0.007279681 -0.018346123 4285820188
0.0015213788 0.0057588276 -0.01715867 4285688863
0.0036695264 0.0042383168 -0.015971787 4285623584
0.0058284067 0.0027181897 -0.014785597 4285558558
0.007530544 0.0035461802 -0.015562151 4285689374
0.009227071 0.0043741334 -0.016338255 4286017559
0.010756727 0.0059845541 -0.017767631 4285754398
0.012603316 0.006029984 -0.017889172 4285622818
0.014616419 0.0052931886 -0.017357308 4285557283
0.016973656 0.0029920395 -0.015519421 4285885979
0.01917487 0.0014735926 -0.014335471 4285492513
0.022435937 -0.0047371965 -0.0092354538 4285360424
-0.0089543387 8.5469335e-05 -0.014250148 4285164073
-0.0076286085 0.0032713506 -0.016989008 4285820698
-0.0057779253 0.0033158381 -0.017111588 4286017558
-0.0042062439 0.0049307775 -0.018541068 4285885468
-0.0026455782 0.0065455381 -0.01996975 4285819934
-0.00080619007 0.0065901 -0.020091331 4285885978
0.0014758259 0.0042798687 -0.018253945 4285951768
0.0034734011 0.003539918 -0.017723121 4285623584
0.0053232349 0.003585035 -0.017845165 4285558303
0.0071729012 0.0036302563 -0.01796712 4285624349
0.0087054633 0.0052449424 -0.019393496 4285886489
0.010226991 0.0068594646 -0.020819062 4286017303
0.011901367 0.0076893065 -0.02159198 4286083349
0.01407006 0.0061655138 -0.020409264 4286082838
0.016249452 0.0046421345 -0.019227214 4286082583
0.018267471 0.0039034653 -0.018697158 4285558049
0.021164712 -0.00075655803 -0.014911453 4285492004
-0.00886821 -0.0021917131 -0.014700904 4285295654
-0.0079413988 0.003365377 -0.019390279 4285492769
-0.0063695908 0.0049845632 -0.020816611 4286017303
-0.0046694353 0.0058162976 -0.021590289 4286017049
-0.0028327554 0.0058606807 -0.021711774 4286017559
-0.00099621713 0.0059051644 -0.021833172 4286083348
0.001282759 0.0035882834 -0.020000394 4285755419
0.0032774173 0.0028460901 -0.01947099 4285623839
0.0049714409 0.0036781449 -0.02024384 4285558559
0.006815549 0.0037232172 -0.020365437 4285558559
0.0085010789 0.0045552719 -0.021137573 4285558048
0.010019902 0.0061741192 -0.022559769 4285689628
0.011691529 0.0070060212 -0.023330849 4285820698
0.013690677 0.0062645245 -0.022801306 4285820444
0.015864376 0.0047366079 -0.021622077 4285755164
0.017704781 0.0047821496 -0.021743014 4285624349
0.020418618 0.00089538284 -0.018616036 4285558558
0.024046648 -0.0069226865 -0.012243818 4285426213
-0.0081200637 0.0026787221 -0.02113428 4285427489
-0.0065509826 0.0043022241 -0.022557247 4285558814
-0.0048536025 0.0051360149 -0.023329088 4285820698
-0.0031618029 0.005969787 -0.024100471 4285952024
-0.0011860989 0.0052247662 -0.023571577 4285754909
0.00079490617 0.0044799689 -0.023042962 4285623839
0.0030815862 0.0021568388 -0.021215476 4285623839
0.0047728159 0.0029910058 -0.021986518 4285558814
0.0066140704 0.0030360147 -0.022107925 4285493023
0.0079801641 0.0054483209 -0.024176341 4285558559
0.0098129623 0.0054933075 -0.024297051 4285558304
0.011645604 0.0055383984 -0.024417669 4285623328
0.013644557 0.0047947187 -0.023889732 4285754909
0.015479583 0.004840048 -0.024010375 4285689373
0.017314453 0.0048854519 -0.024130948 4285623838
0.019847739 0.0017763097 -0.021659609 4285558559
0.023289438 -0.0052751452 -0.015950734 4285426724
-0.0081648044 0.0012048446 -0.022225846 4285427744
-0.0065957233 0.0028327033 -0.023645578 4285493278
-0.004898414 0.0036686677 -0.024415795 4285624094
-0.0029227734 0.0029213596 -0.023888595 4285623328
-0.00123116 0.0037574004 -0.024658278 4285623328
0.00045485795 0.0045934115 -0.025427509 4285689119
0.0025856532 0.0030550882 -0.024252482 4285558303
0.0044214986 0.0030998792 -0.024373595 4285558558
0.0064127631 0.0023533981 -0.023847017 4285558814
0.0080927424 0.0031897072 -0.024615597 4285558814
0.0096061714 0.0048170779 -0.026030935 4285558558
0.011599686 0.0040710066 -0.025504321 4285623839
0.013432037 0.004116172 -0.025624856 4285820699
0.015433367 0.0033704657 -0.025098626 4286149138
