# .PCD v0.7 - Point Cloud Data file format
VERSION 0.7
FIELDS x y z rgba
SIZE 4 4 4 4
TYPE F F F U
COUNT 1 1 1 1
WIDTH 677
HEIGHT 1
VIEWPOINT 0 0 0 1 0 0 0
POINTS 677
DATA ascii
-0.0024746954 0.0016724304 0.041012403 4290844964
-0.00023283437 0.0001884494 0.042238798 4289471533
-0.010638241 0.00066828961 0.039618857 4286986814
-0.0088532194 0.0022412916 0.038160376 4289276204
-0.007079225 0.0038142395 0.036702599 4288754729
-0.0052026659 0.0046215751 0.035915937 4290062623
-0.0032153763 0.0046635126 0.03579988 4290781979
-0.00099014491 0.0031748903 0.037023969 4290323489
0.0013676286 0.0009212927 0.038917437 4290976798
0.0037416071 -0.0013318451 0.040810041 4286529344
-0.013194755 0.0028670123 0.035199657 4288229684
-0.01141784 0.0044440781 0.033744812 4288949039
-0.0093277171 0.0037178011 0.034297839 4289342504
-0.0075646639 0.0052948869 0.032843955 4289670433
-0.0055855699 0.0053365431 0.032728292 4289409058
-0.0037228577 0.0061458857 0.031944159 4289343269
-0.001627773 0.0054202206 0.032497272 4289800739
0.00059434026 0.0039272481 0.033718422 4289342249
0.0030760653 0.00089984061 0.03627523 4289668648
0.005706612 -0.002894334 0.039498791 4288426034
-0.017503016 0.0035072076 0.032247275 4288817714
-0.015623383 0.0043183644 0.031463236 4288425779
-0.013646737 0.0043594842 0.031347357 4288819498
-0.011670187 0.0044007343 0.031231582 4289211944
-0.0096937381 0.0044420999 0.031115897 4289408293
-0.0079388991 0.0060233339 0.029665798 4290586139
-0.0061950795 0.0076044933 0.028216384 4289474084
-0.0042298883 0.0076459725 0.028101619 4288885289
-0.0021459088 0.0069178534 0.0286538 4289015848
0.0001866892 0.0046507143 0.03053895 4289866019
0.0026598573 0.00161443 0.033089772 4289539108
0.0050275996 -0.00065176864 0.0349731 4289668903
-0.023393832 0.0010313401 0.032086976 4287445049
-0.021686349 0.0033894568 0.029970068 4288752943
-0.01990097 0.0049749357 0.028520867 4289865508
-0.017932475 0.0050156438 0.028405286 4290193184
-0.015964068 0.0050564934 0.028289817 4290717208
-0.013893239 0.0043252273 0.028840546 4290193694
-0.0119223 0.0043663657 0.028725103 4289147174
-0.0099514574 0.0044076215 0.028609753 4289408804
-0.0082021095 0.0059931302 0.027163174 4290063134
-0.0064637698 0.0075784936 0.02571738 4291175445
-0.0046203174 0.008391805 0.024937632 4290913814
-0.0023070015 0.0061176312 0.026818966 4290978840
-9.9033117e-05 0.0046156938 0.028034478 4290586139
0.0021196865 0.0031141383 0.029249407 4289539364
0.0040950924 0.0031563328 0.029134423 4289342504
0.006459631 0.00088367891 0.031013168 4288426289
0.0088403597 -0.0013884874 0.032891005 4286594879
-0.025675142 0.0017321776 0.029029544 4287904559
-0.023878753 0.0033219834 0.027582757 4289213218
-0.02209335 0.0049117259 0.026136663 4289016104
-0.020224646 0.0057267561 0.025356324 4289212199
-0.018264487 0.0057673114 0.025241245 4289866784
-0.016204689 0.0050335317 0.025790922 4290455324
-0.014139529 0.0042999913 0.026340377 4289931808
-0.012174197 0.004341031 0.026225276 4289408804
-0.010208961 0.0043821749 0.02611026 4289474083
-0.0084650852 0.0059718802 0.024667287 4289408804
-0.006618876 0.0067873099 0.023888921 4289866783
-0.0046621561 0.0068286476 0.023774678 4289932063
-0.0025867671 0.0060960366 0.024324069 4290062878
-0.00038453192 0.0045896866 0.025536641 4289997599
0.0015799738 0.0046315347 0.025422204 4289408293
0.003544338 0.0046734982 0.025307864 4289604644
0.0057679638 0.0031679175 0.0265195 4288622383
0.0082671791 0.00011513522 0.02905608 4288622128
-0.027522944 -0.0014380559 0.029301204 4286071108
-0.025887709 0.0017100074 0.026529234 4288688174
-0.02409683 0.0033041127 0.025085989 4289343014
-0.022316914 0.0048980494 0.023643501 4290390043
-0.020642206 0.0072686975 0.021538375 4289605409
-0.018596161 0.0065323287 0.02208714 4289081894
-0.016644422 0.0065728375 0.021972651 4289539874
-0.014283191 0.003507135 0.024509821 4289997853
-0.012320738 0.0035481169 0.024394892 4289670433
-0.010466218 0.0043656616 0.02361748 4289539618
-0.008617267 0.005183226 0.0228405 4289343269
-0.0066605806 0.0052244426 0.022726171 4289408549
-0.0047040097 0.0052657765 0.022611938 4289604898
-0.0026288293 0.0045309993 0.023159729 4289735713
-0.00079125166 0.0053488067 0.022383772 4289801248
0.0010407344 0.0061666346 0.021608172 4289735969
0.0029940531 0.0062083709 0.02149448 4290455578
0.0050768889 0.0054741721 0.022042209 4290324508
0.0075621046 0.0024124039 0.024573125 4288949803
0.010068953 -0.00064873369 0.027102835 4286921788
-0.027480135 -0.0037972652 0.028787993 4286528578
-0.025756132 -0.0014194702 0.026684541 4287118139
-0.024048554 0.00095811952 0.024582155 4289211944
-0.022448832 0.004114469 0.021818921 4289997344
-0.020776827 0.0064915377 0.019718857 4291044374
-0.018927488 0.0073106526 0.018943004 4290652184
-0.016784858 0.0057933782 0.020151846 4291110163
-0.014426738 0.0027189273 0.022682726 4290651929
-0.012467157 0.0027598422 0.022567958 4289997598
-0.010615464 0.0035795285 0.021792356 4289866783
-0.0086588189 0.0036206241 0.021677941 4289801249
-0.0065890476 0.0028833281 0.022224251 4289800993
-0.0045139417 0.0021462552 0.022770336 4289735714
-0.0027895719 0.003744639 0.021335285 4289866529
-0.0010762215 0.0053429385 0.019900916 4290193693
0.00062610209 0.0069410908 0.018467331 4290128414
0.0026979595 0.0062044342 0.019013966 4290717208
0.0049047172 0.0046898327 0.020220047 4290782998
0.0071222223 0.0031755306 0.021425629 4290520858
0.0096205361 0.00010545366 0.023949377 4289865254
-0.02727104 -0.0077231266 0.029593248 4287183164
-0.025538849 -0.0053386833 0.027494222 4286594624
-0.023911733 -0.0021732042 0.024735769 4287576629
-0.022306489 0.00099196285 0.021978706 4289539109
-0.020817228 0.0049378923 0.018562892 4289866274
-0.018967986 0.0057592052 0.017788684 4290193949
-0.016825628 0.004237589 0.018994309 4289997853
-0.014570173 0.001935347 0.020859074 4289736224
-0.01271848 0.0027571237 0.020084955 4289539618
-0.010980055 0.0043596555 0.018651959 4289408803
-0.0089212842 0.0036198483 0.019197213 4289474083
-0.0068571642 0.0028802524 0.01974223 4289343014
-0.0046718158 0.0013602246 0.020945925 4289408293
-0.0029502027 0.0029629539 0.019514248 4290127903
-0.0012396052 0.0045655095 0.018083332 4289866273
0.00033588707 0.0069484529 0.015994733 4290258974
0.002275303 0.0069899154 0.015881866 4289277734
0.0042145737 0.0070314673 0.015769081 4289147174
0.0064182132 0.0055125183 0.016972225 4290193949
0.0087675489 0.0032137386 0.018832535 4289015848
0.011133097 0.00091536157 0.020692021 4289080619
0.013655216 -0.002162654 0.023208078 4286333249
-0.02722856 -0.010094777 0.029070705 4287640633
-0.025407771 -0.0084871911 0.027635369 4286856254
-0.023863733 -0.0045295143 0.024224259 4287576374
-0.022347016 -0.00057225581 0.020814862 4288557613
-0.020669539 0.0018180129 0.018724166 4289408294
-0.018911719 0.0034248098 0.017292913 4289866529
-0.016866397 0.0026820512 0.01783696 4289605154
-0.014917932 0.0027226382 0.017722772 4289277988
-0.012864612 0.0019802735 0.018266525 4289736224
-0.011128955 0.0035871356 0.016836964 4290455833
-0.0091835037 0.0036279871 0.016723195 4291109909
-0.0071250573 0.0028861188 0.017266937 4290258973
-0.004945416 0.0013616788 0.018467691 4289931553
-0.0031107143 0.0021858444 0.017696688 4290062369
-0.0012815706 0.0030099959 0.016926089 4289997344
0.00029395148 0.0053994604 0.014842352 4290913304
0.0019797422 0.0070060804 0.013416309 4290258973
0.0037839636 0.0078300536 0.012647422 4289670434
0.0059791654 0.0063066245 0.013847778 4290128158
0.0081851147 0.0047835032 0.015047638 4290128159
0.010539435 0.0024784305 0.016902884 4289473829
0.012769587 0.00095603755 0.018101495 4288099124
-0.027352361 -0.010899175 0.027230065 4286855999
-0.025448533 -0.010072894 0.026455518 4286921788
-0.023815837 -0.0068898993 0.023709718 4287510838
-0.022296276 -0.0029217263 0.020308252 4287511349
-0.020710051 0.00026056776 0.017565375 4288950313
-0.018855564 0.0010863547 0.016794115 4289604644
-0.016907163 0.0011268095 0.016679835 4289408804
-0.015061013 0.0019526458 0.015909232 4289801504
-0.013220411 0.0027784943 0.015139047 4290063389
-0.011277735 0.0028192061 0.015025381 4290913304
-0.0094455108 0.0036451626 0.014255825 4291240469
-0.0075057745 0.0036860448 0.014142504 4290848023
-0.0054503493 0.002942014 0.01468493 4290258974
-0.0032711029 0.0014133253 0.015882544 4289473828
-0.0014447719 0.0022396077 0.015113745 4289539364
0.00012805685 0.0046355561 0.01303504 4289997344
0.0016844198 0.0070312633 0.010957381 4290782489
0.0036125146 0.0070725973 0.010845259 4291110164
0.0056726038 0.0063293609 0.011387933 4291044374
0.0078728497 0.0048018158 0.012584843 4289735968
0.0099462569 0.0040591308 0.013126865 4289277734
0.012165271 0.0025321562 0.014322884 4289080874
0.014681041 -0.00056325877 0.016826436 4287968053
-0.027642109 -0.010123247 0.024081063 4286659904
-0.025746565 -0.0092949206 0.023308581 4286856509
-0.023945021 -0.007678899 0.021880966 4286922298
-0.022428058 -0.0036998927 0.018487774 4287314999
-0.02075056 -0.0012965905 0.016406797 4287642419
-0.019089483 0.0011064857 0.014326943 4289016104
-0.017146688 0.0011468185 0.014212985 4289343268
-0.015408199 0.0027622175 0.012789506 4289408803
-0.013575867 0.0035900869 0.012021447 4289605409
-0.011749066 0.0044179442 0.011253785 4289866529
-0.0098175555 0.0044585331 0.011140854 4289866529
-0.0077731311 0.0037120278 0.011682175 4291044118
-0.0057233684 0.0029657339 0.01222326 4289800993
-0.0035498217 0.0014325492 0.013418019 4289670434
-0.0017290413 0.0022609439 0.012651129 4289801248
8.617714e-05 0.0030892645 0.011884673 4289408804
0.0016425662 0.0054915077 0.0098118857 4289408803
0.0035705343 0.0055328268 0.0096997628 4290128413
0.0057624951 0.0040006139 0.010893879 4289670434
0.0078304112 0.0032555261 0.011434518 4289670944
0.0096286014 0.0040840614 0.010669482 4289604644
0.011421196 0.0049125827 0.0099048531 4289212453
0.013922989 0.0018081469 0.012402713 4288885799
-0.028097467 -0.0077539189 0.019633347 4286267458
-0.025958555 -0.00929364 0.020825721 4286856508
-0.023985658 -0.0092531675 0.020709636 4286987834
-0.022377426 -0.006053153 0.017978346 4287053113
-0.020697188 -0.0036432496 0.015902091 4287184438
-0.019129973 -0.00044386275 0.013173446 4288231469
-0.017286666 0.00038619339 0.012406126 4289277734
-0.015652977 0.0027954546 0.010332917 4289801503
-0.013930969 0.0044149733 0.0089137359 4290194204
-0.012112442 0.0052448534 0.0081481962 4289343269
-0.010079019 0.004495814 0.0086884433 4288950568
-0.0079272985 0.0029575615 0.0098810392 4290062879
-0.0059961453 0.0029983954 0.0097683175 4289997344
-0.0039467141 0.002250053 0.010307898 4290259484
-0.0020130575 0.0022911737 0.010195205 4289539618
-0.00020337105 0.0031215711 0.0094307084 4289081639
0.0016007349 0.0039519914 0.0086665675 4288427308
0.0035285465 0.003993331 0.0085544717 4289212453
0.0055882484 0.0032457411 0.0090939254 4289408803
0.0076532476 0.0024984218 0.0096331155 4289735968
0.0093111806 0.0041179922 0.0082187224 4289801248
0.011098251 0.0049485671 0.0074560335 4290978583
0.013022624 0.0049903761 0.0073445421 4290389534
0.015674956 0.0010887636 0.010486345 4289538599
0.018354326 -0.002812136 0.013626672 4286529344
-0.024203023 -0.009243032 0.01823378 4286987324
-0.022417989 -0.0076184836 0.016813677 4286987834
-0.020737741 -0.0052020447 0.014742294 4287053879
-0.019073911 -0.002785882 0.012672 4287446579
-0.017426517 -0.0003698892 0.010602721 4288166189
-0.015795544 0.0020458899 0.0085345004 4289081383
-0.014181003 0.0044613904 0.0064673666 4290782998
-0.012582898 0.0068767243 0.0044012507 4291044628
-0.010560583 0.0061252913 0.0049405349 4291044629
-0.0083071403 0.0037908969 0.0067814635 4291044374
-0.0061530769 0.0022485345 0.0079707447 4290324764
-0.0042249039 0.0022894037 0.0078582708 4289736224
-0.0022968464 0.0023304145 0.0077459114 4289081638
-0.00036890805 0.0023715184 0.0076336302 4289016103
0.0015588999 0.0024127387 0.0075214449 4289016359
0.0033573508 0.0032452811 0.0067593819 4289277988
0.0054141283 0.0024955054 0.0072973492 4289605154
0.0073415302 0.0025370535 0.0071854377 4289801504
0.0089940131 0.0041608051 0.0057746414 4290521368
0.010635458 0.0057844236 0.0043645641 4291306258
0.012551539 0.0058260453 0.0042535495 4290586394
0.014904134 0.0034951824 0.0060896855 4290258209
0.017717756 -0.0012077538 0.0098716114 4289080108
-0.02450848 -0.0084296279 0.015113823 4286856253
-0.02245855 -0.0091835158 0.015649229 4286987324
-0.020684522 -0.0075547751 0.014233142 4287053368
-0.018824983 -0.0067201573 0.013468023 4287184694
-0.017367821 -0.0027094064 0.010102944 4289016869
-0.015836041 0.00050690072 0.0073894765 4288885289
-0.01432614 0.0037228498 0.0046774372 4289212708
-0.012515977 0.0045569367 0.0039155828 4289670688
-0.010601249 0.0045971829 0.0038036415 4290259739
-0.0084609576 0.0030500107 0.0049904296 4289605409
-0.0064254366 0.0022969139 0.0055274945 4289605409
-0.0045028552 0.0023376723 0.005415353 4289670944
-0.0027013868 0.0031721145 0.004654482 4289147429
-0.00065803528 0.0024195299 0.0051913494 4289212708
0.0012641922 0.0024606404 0.0050794967 4289212708
0.003186278 0.002501844 0.004967724 4289343524
0.0049763508 0.0033365148 0.0042078681 4289474338
0.0068954527 0.003377873 0.0040964326 4290194204
0.008677084 0.0042125708 0.0033372222 4289474338
0.01045312 0.0050473097 0.0025783847 4289735714
0.012366347 0.0050888523 0.0024675215 4289866784
0.014715917 0.0027513714 0.0042990195 4290323998
0.017229885 -0.00037866412 0.0067768786 4289016359
0.0199164 -0.0043010227 0.0099006705 4287183418
-0.022590082 -0.0099519417 0.013836 4286529344
-0.020725124 -0.009115221 0.013072122 4286856763
-0.018672824 -0.0098709855 0.013605952 4287511093
-0.017210077 -0.0058492655 0.010248643 4288034608
-0.015672781 -0.0026241518 0.0075413333 4287838768
-0.014471166 0.0029889452 0.0028908849 4289081384
-0.012663808 0.0038250792 0.0021308404 4289539619
-0.010751955 0.0038652685 0.0020190696 4289801758
-0.0086146519 0.0023137014 0.0032027997 4289736479
-0.0066975504 0.0023542205 0.0030908859 4289344034
-0.0047805645 0.0023948699 0.0029790774 4289605409
-0.0029846244 0.0032314123 0.0022201086 4290586904
-0.0010705926 0.0032722172 0.0021086358 4290194203
0.00084332377 0.0033131405 0.0019972594 4289474594
0.0026279986 0.0041497475 0.0012392495 4289670944
0.0045389347 0.0041908263 0.0011282102 4289670944
0.0063151792 0.0050274595 0.00037084334 4290782998
0.0082231238 0.0050687059 0.00026015146 4290652184
0.009990938 0.0059053763 -0.00049656257 4289409059
0.011895865 0.0059467671 -0.0006069236 4289932574
0.0143824 0.0028073378 0.001865963 4290193694
0.016742386 0.00046369387 0.0036920179 4290455834
0.019118547 -0.0018795351 0.0055172555 4289342503
0.021357268 -0.0034272284 0.006696282 4287706423
-0.022812432 -0.0099171633 0.01137882 4286791484
-0.020672068 -0.011473892 0.012558475 4286725693
-0.018617254 -0.012231782 0.013090536 4287707189
-0.017052565 -0.008997527 0.010388015 4287380278
-0.015509743 -0.0057636076 0.0076868646 4287380533
-0.014302429 -0.00013522571 0.0030474695 4287904304
-0.012704257 0.0022996524 0.00099592842 4289670434
-0.010792546 0.002339839 0.00088416645 4289867038
-0.0087682232 0.0015820176 0.001418537 4289736479
-0.0069694333 0.0024205288 0.00066090049 4289932829
-0.0051761903 0.0032590241 -9.6336473e-05 4290456089
-0.0033885054 0.0040975078 -0.00085317134 4291502864
-0.0013591796 0.0033402867 -0.0003187228 4291175443
0.00054915249 0.0033810991 -0.00042976742 4290913814
0.0023283102 0.0042197243 -0.0011858637 4289474594
0.0041018948 0.005058371 -0.0019415305 4289801504
0.0058698915 0.0058970633 -0.0026968243 4290063389
0.0076323301 0.006735669 -0.0034516947 4291175443
0.0095290989 0.0067767794 -0.0035616604 4290521623
0.011568397 0.0060205203 -0.0030272342 4290978583
0.01404912 0.002872292 -0.00056048087 4290913304
0.016107164 0.0021166638 -2.6972499e-05 4290258974
0.018170506 0.0013611894 0.00050633075 4289604133
0.020392664 -0.00019120332 0.0016830806 4289539364
0.022781797 -0.0025404843 0.0035028425 4288817968
-0.020806298 -0.012235347 0.010750645 4286659904
-0.018850744 -0.012194894 0.01063583 4287576119
-0.017093342 -0.01055315 0.0092306025 4287248953
-0.015448682 -0.008111082 0.0071810521 4287184184
-0.014238395 -0.0024673867 0.002552785 4287314999
-0.012744699 0.00077443989 -0.00013882294 4288296493
-0.010943066 0.0016149175 -0.00089520379 4289866529
-0.0089216717 0.00085490011 -0.00036225305 4290128158
-0.0071256869 0.0016954937 -0.0011181287 4290520859
-0.0055714697 0.0041364352 -0.0031618881 4289736224
-0.0036712065 0.0041768379 -0.0032726403 4289997853
-0.0017710626 0.0042173467 -0.0033833049 4290390554
0.00012895465 0.0042579588 -0.0034938825 4291044629
0.0018998682 0.0050986079 -0.0042478577 4289866783
0.0039286315 0.0043395241 -0.0037147573 4289735968
0.0056938417 0.0051802513 -0.004468251 4289997598
0.0073163174 0.0068207229 -0.0058643501 4289866783
0.0092075355 0.0068616881 -0.005974012 4290193949
0.011241205 0.0061031436 -0.0054408731 4289932063
0.013425462 0.0045452728 -0.0042654006 4289800993
0.015472449 0.0037871697 -0.003732845 4290127903
0.017223187 0.0046282574 -0.0044850721 4289800738
0.019275315 0.00387047 -0.003952662 4289407784
0.021645099 0.0015142974 -0.0021366808 4288295730
0.024666719 -0.0040385611 0.0022455803 4286332993
-0.019083999 -0.012148982 0.0081877662 4286529343
-0.017134119 -0.012108497 0.008073396 4287118139
-0.015387729 -0.010462574 0.0066721775 4287052858
-0.013965614 -0.0064089093 0.0033417093 4287249463
-0.012570813 -0.0023556633 1.2954697e-05 4287511604
-0.011093456 0.00089462241 -0.0026711319 4289016104
-0.0091875829 0.00093477732 -0.002782485 4289539108
-0.0075124614 0.0025798697 -0.0041791149 4290455834
-0.0058483258 0.0042247693 -0.0055749998 4289605409
-0.0040744171 0.0050672931 -0.0063277986 4288820264
-0.0021825805 0.005107637 -0.0064379694 4289474594
-3.8448721e-05 0.0035437788 -0.0052639875 4289867039
0.0018585883 0.0035844413 -0.0053743073 4290651928
0.0037555061 0.003625208 -0.00548454 4290128923
0.0055179223 0.0044680429 -0.0062362552 4290063389
0.0072747655 0.005310887 -0.0069875484 4289736224
0.0091658421 0.0053518494 -0.0070972028 4290128414
0.011056781 0.005392917 -0.0072067687 4290062623
0.013092831 0.0046323403 -0.0066753216 4289997089
0.01498621 0.0046736584 -0.0067848805 4290258719
0.016879432 0.0047150808 -0.0068943491 4289670179
0.018772505 0.0047565852 -0.0070037479 4290520604
0.021133825 0.0023936508 -0.005192108 4289473573
0.023670159 -0.00077019469 -0.0027412013 4288622638
-0.019605625 -0.0096793305 0.0038198009 4285875268
-0.01747166 -0.011248942 0.0049903179 4286791229
-0.015428536 -0.01201337 0.0055183675 4286856763
-0.014006287 -0.0079488195 0.0021960102 4287053369
-0.012611344 -0.003884736 -0.0011246698 4287249973
-0.011133906 -0.00062577589 -0.0038022916 4288492844
-0.0094532669 0.0010236306 -0.0051961127 4289408549
-0.0077836104 0.0026728916 -0.0065891529 4289801503
-0.0061249547 0.0043220674 -0.0079815164 4290848534
-0.0042358562 0.004362226 -0.008091622 4290782998
-0.0023468882 0.0044024666 -0.0082016587 4290782998
-0.00033187494 0.0036384887 -0.007671115 4291503119
0.0014307052 0.0044833333 -0.0084214173 4290194459
0.0034509264 0.0037196619 -0.007891031 4290063644
0.0053421371 0.0037604119 -0.0080008535 4290194204
0.0072332211 0.003801255 -0.0081105959 4289997854
0.0089844055 0.0046462924 -0.0088599091 4289997344
0.011014983 0.0038832673 -0.0083298087 4289931808
0.012760445 0.0047283717 -0.0090786479 4289931553
0.014648244 0.0047695567 -0.0091878939 4290258718
0.016385265 0.0056146388 -0.0099360496 4291306259
0.018576786 0.0040484411 -0.00876725 4291109909
0.020622939 0.0032863198 -0.0082377065 4290717208
0.022833169 0.0017207786 -0.0070698801 4290258209
0.025377147 -0.0014515533 -0.0046257963 4288426033
0.027778476 -0.0038198512 -0.0028211246 4287706678
-0.017709982 -0.011183169 0.0025574458 4286398528
-0.015672516 -0.011949858 0.0030842274 4287183929
-0.013942625 -0.010295479 0.0016905391 4287184184
-0.012544826 -0.0062204795 -0.0016222103 4287184183
-0.01117434 -0.002145947 -0.0049332827 4287381043
-0.0096062087 0.00031457422 -0.0069634682 4288362283
-0.0080545135 0.0027748663 -0.0089926049 4289539619
-0.0061654672 0.0028148927 -0.0091028064 4290717208
-0.0045178123 0.0044682487 -0.010491162 4291044629
-0.0025110543 0.003701827 -0.009961904 4290979348
-0.00062506273 0.0037421393 -0.010071665 4290717974
0.0012608208 0.0037825578 -0.010181339 4290063644
0.0030150563 0.0046294355 -0.010929432 4289867294
0.0048979633 0.0046699983 -0.011038777 4289801759
0.006780766 0.0047106543 -0.011148047 4289801248
0.0086634159 0.0047514266 -0.011257217 4289866529
0.010830767 0.0031800102 -0.010090595 4289932064
0.012573466 0.0040271753 -0.010837617 4289997599
0.014310569 0.0048743016 -0.011584254 4290586394
0.016042076 0.005721414 -0.012330486 4289408803
0.018074617 0.004956706 -0.011801861 4289867039
0.02026844 0.0033863611 -0.010636404 4289931808
0.022155523 0.0034279139 -0.01074532 4290389788
0.024688274 0.00024662772 -0.0083070835 4288688173
0.027078435 -0.0021284253 -0.0065066218 4288491058
-0.016017787 -0.011068332 1.8112827e-05 4287118394
-0.014087588 -0.01102802 -9.492645e-05 4287249209
-0.012478411 -0.0085603707 -0.0021228374 4287249973
-0.010995366 -0.0052839299 -0.0047878353 4287577138
-0.0095341876 -0.0020078246 -0.0074514626 4288100908
-0.0082100257 0.0020768102 -0.010751566 4289081383
-0.0063238367 0.0021167677 -0.010861605 4289539618
-0.0045583472 0.0029656123 -0.011609064 4289605154
-0.0025517829 0.0021970244 -0.011081409 4289801503
-0.00091798231 0.0038546226 -0.012465571 4289670943
0.00096232444 0.0038949191 -0.012574923 4289867293
0.0027110279 0.0047438513 -0.013321073 4289670943
0.0045883805 0.0047842679 -0.013430116 4289932573
0.0066025145 0.0040163784 -0.012902499 4289408803
0.0086219572 0.003248713 -0.01237511 4289539619
0.010646708 0.0024812594 -0.011847956 4289997599
0.012241527 0.0041387468 -0.013229311 4290128414
0.013973132 0.0049879267 -0.013974008 4290848023
0.015548639 0.0066452478 -0.015354129 4290128669
0.017419599 0.0066862558 -0.015462258 4288754729
0.019602321 0.0051112599 -0.01429937 4289408548
0.021637082 0.0043446138 -0.013772357 4289735714
0.023838528 0.0027702614 -0.012610452 4289997089
0.026050687 0.0011962038 -0.011449048 4288752944
0.028607219 -0.0019930832 -0.0090185441 4286332993
-0.014336627 -0.010944644 -0.0025138748 4286922044
-0.012519021 -0.010093112 -0.0032631927 4287642163
-0.01092625 -0.0076191803 -0.0052852007 4287903793
-0.0092375241 -0.0059566526 -0.0066697588 4287315508
-0.0081352256 -0.00023880834 -0.011234706 4287707953
-0.0064820796 0.0014231973 -0.012617015 4288493098
-0.005080983 0.0047070305 -0.015270424 4289473829
-0.0029622465 0.003125099 -0.014107966 4289604898
-0.0010846816 0.0031652101 -0.014217253 4289605154
0.00092145801 0.0023946422 -0.013691043 4289670689
0.002538681 0.0040564886 -0.015070881 4290914069
0.0044131689 0.0040968372 -0.015179763 4291372049
0.006424401 0.0033266689 -0.014653557 4290979348
0.0083013587 0.0033672932 -0.014762416 4289670688
0.0098936036 0.0050289943 -0.016140513 4289736224
0.011909857 0.0042592823 -0.015614412 4289735968
0.013488233 0.005920853 -0.0169915 4290717208
0.015356503 0.0059616654 -0.017099578 4291044374
0.017071433 0.0068128216 -0.017841563 4290586648
0.019248478 0.0052334252 -0.016681612 4290521113
0.021277629 0.0044644582 -0.016155913 4290324509
0.023312092 0.003695644 -0.01563042 4289669669
0.025351807 0.0029270998 -0.015105189 4289080364
0.027897112 -0.00027114106 -0.012680531 4289341483
0.030633494 -0.0042786738 -0.0096239746 4287182653
-0.014689554 -0.01003897 -0.0055614077 4287706678
-0.012559611 -0.011625651 -0.0044033979 4287576118
-0.010747641 -0.01077196 -0.0051506888 4287053369
-0.0090535022 -0.0091049299 -0.0065323636 4287118904
-0.0078304708 -0.0041850875 -0.010451702 4287184694
-0.0064046904 -0.00089217862 -0.01310017 4287969839
-0.0050007701 0.0024004071 -0.015747257 4289016104
-0.0031259581 0.0024403199 -0.015856486 4289408293
-0.0012512542 0.0024803625 -0.015965614 4289539618
0.00062333792 0.0025204984 -0.016074661 4289539618
0.0022351034 0.0041865264 -0.017450903 4290848533
0.0042381063 0.0034139133 -0.016925983 4291110419
0.0062464252 0.0026415368 -0.016401283 4291175698
0.0081205368 0.0026820698 -0.01651 4290848533
0.0097100474 0.0043480298 -0.017884642 4289539873
0.01157847 0.004388629 -0.017992888 4289408803
0.013594419 0.0036168206 -0.01746833 4289277988
0.015314884 0.0044701663 -0.018209092 4290062878
0.01687666 0.0061358898 -0.019581854 4290782999
0.018894911 0.0053644017 -0.019057227 4291110164
0.02075991 0.0054053995 -0.01916492 4289800993
0.022786029 0.0046343054 -0.018640582 4289342758
0.024981409 0.0030511734 -0.01748478 4288818989
0.027687624 -0.00096798013 -0.014434656 4288426034
0.030420892 -0.004986505 -0.011385992 4286529089
-0.012920622 -0.010711225 -0.0074438779 4286333249
-0.01078831 -0.012302147 -0.0062891347 4286856508
-0.0088697001 -0.012261753 -0.0064012529 4287053114
-0.0075260401 -0.0081441803 -0.0096782316 4287118648
-0.0062096976 -0.0040270742 -0.012953532 4287249719
-0.0050410777 0.00090488372 -0.01685987 4288034608
-0.0035358034 0.0033904952 -0.018866604 4289800738
-0.0016693883 0.0034303381 -0.018975265 4290062368
0.00019690394 0.0034702984 -0.019083828 4290389788
0.0020630956 0.0035103406 -0.019192323 4288951079
0.0039291643 0.0035504871 -0.019300733 4288885543
0.0057951212 0.0035907398 -0.019409053 4289474594
0.0076609477 0.0036310847 -0.019517295 4289343778
0.0093844756 0.0044863676 -0.020256843 4289670688
0.011537112 0.0028973264 -0.019102275 4289801248
0.013552882 0.0021233405 -0.018579327 4289670433
0.015273303 0.0029788231 -0.019318495 4289539108
0.016835086 0.0046488601 -0.020688038 4289408293
0.018853165 0.0038751815 -0.020165034 4289539363
0.020876534 0.0031017163 -0.01964226 4289343013
0.023066401 0.0015140548 -0.018489426 4288165423
0.025267005 -7.3347706e-05 -0.017337121 4287511094
0.027978256 -0.0041032489 -0.014295386 4286790973
-0.011157379 -0.011379003 -0.0093225129 4286071619
-0.0091348849 -0.012156416 -0.0088026216 4287053114
-0.0073368661 -0.011298472 -0.0095457053 4287184184
-0.0060149282 -0.007170409 -0.012813246 4287314998
-0.0047202967 -0.0030428241 -0.01607912 4287577139
-0.0034529753 0.0010842946 -0.019343317 4288754474
-0.0017097704 0.0019415161 -0.020082876 4289473828
-0.00010064244 0.003616082 -0.021452628 4290455833
0.0016287416 0.0044732108 -0.02219123 4290325018
0.0033525638 0.0053303367 -0.022929423 4289997853
0.0052075163 0.0053703361 -0.023037115 4290063388
0.0072017349 0.0045933821 -0.022514787 4290652183
0.0093433931 0.0029996093 -0.02136286 4289670433
0.01135096 0.0022231434 -0.020841155 4289670434
0.013658933 -0.00018685916 -0.019060746 4289604644
0.015382007 0.00067083817 -0.019798458 4289539108
0.017099515 0.0015285211 -0.020535765 4289539108
0.018967144 0.0015694634 -0.020643696 4289343269
0.021151491 -2.2763386e-05 -0.019493857 4288231214
0.023507729 -0.0024313012 -0.017715858 4287642418
0.02571623 -0.0040228125 -0.016567279 4286922043
0.027935483 -0.0056140879 -0.015419243 4286333248
-0.011635497 -0.0096227899 -0.012976136 4286725948
-0.0095119476 -0.011222474 -0.011827279 4286987323
-0.007492464 -0.012002038 -0.011308768 4286857274
-0.0059379525 -0.0095025655 -0.013308886 4287184694
-0.0046404377 -0.0053640758 -0.016566841 4287642419
-0.0033702366 -0.0012260659 -0.019823126 4288296748
-0.0018758662 0.0012724004 -0.021819461 4288950824
-0.00026946515 0.0029512011 -0.023185853 4289670178
0.0013259463 0.0046298332 -0.024551477 4290520603
0.002910357 0.0063083791 -0.025916426 4290978583
0.0048936456 0.0055289022 -0.025395166 4290978583
0.0068822466 0.0047496152 -0.024874086 4289735714
0.00901822 0.0031514056 -0.023725124 4289408549
0.011020161 0.0023726192 -0.023204733 4289342759
0.013174929 0.00077497121 -0.022056669 4288688684
0.015190214 -3.3359975e-06 -0.021536909 4288230959
0.017210804 -0.00078140828 -0.021017369 4287707443
0.019392341 -0.0023782053 -0.019870657 4287772979
0.021742977 -0.0047934246 -0.018097302 4287772979
0.024109796 -0.0072082649 -0.016324788 4286856764
0.026165143 -0.0079852222 -0.015806992 4286463808
-0.009888649 -0.010275276 -0.014842151 4286529854
-0.0077627227 -0.011879155 -0.013696598 4286987579
-0.0059785806 -0.011017006 -0.014435589 4287511859
-0.004440438 -0.0085113337 -0.016429795 4287904559
-0.0031646341 -0.004362389 -0.019678339 4288296748
-0.0017904565 -0.0010355904 -0.022297699 4288754984
-0.00043815374 0.0022908617 -0.024915699 4289146919
0.0011545233 0.0039738123 -0.026277974 4289408549
0.0027362183 0.0056565697 -0.027639508 4289408548
0.0047166012 0.0048748259 -0.027119722 4289408549
0.006980855 0.0024505095 -0.025346674 4289277734
0.0091193095 0.00084801251 -0.024201095 4289081384
0.011123799 6.7043584e-05 -0.023682445 4288492333
0.013428457 -0.0023560703 -0.021911573 4287772724
0.015449017 -0.0031364486 -0.021393748 4287511093
0.017627738 -0.0047377576 -0.020250192 4287445814
0.019661605 -0.0055176467 -0.019732991 4287249463
0.022017397 -0.0079393229 -0.01796476 4287249208
0.024067305 -0.0087186918 -0.017448358 4287576118
0.025958754 -0.0086770291 -0.017557519 4286398274
-0.0081474856 -0.010923289 -0.016704403 4287576374
-0.0061366484 -0.011707265 -0.016188543 4287576884
-0.0044810101 -0.010019143 -0.017551556 4287184694
-0.0030821413 -0.0066832551 -0.020165967 4287512114
-0.0018307716 -0.0025238858 -0.023404922 4287577393
-0.00047835708 0.00081121735 -0.026016476 4288623404
0.00098325312 0.0033222032 -0.028001118 4289277734
0.0026960075 0.0041855383 -0.028733859 4289343013
0.0049492046 0.0017543505 -0.026965117 4289146408
0.0072185881 -0.00067635207 -0.025197286 4288754218
0.0093622543 -0.002283131 -0.024055213 4288558123
0.011371993 -0.0030661225 -0.023538537 4287969074
0.013387054 -0.003848891 -0.023022089 4287380278
0.015707612 -0.006278167 -0.021256914 4287053114
0.01773873 -0.0070603918 -0.020741252 4287118394
0.019619629 -0.0070192358 -0.020850006 4286857274
0.021658622 -0.0078011146 -0.020334668 4286987579
0.023702912 -0.0085828044 -0.019819584 4287510583
0.025588825 -0.0085412757 -0.019928431 4287117118
-0.0065293871 -0.010740563 -0.019187674 4286660669
-0.0045215525 -0.011526748 -0.018673165 4286857274
-0.0029997528 -0.009008294 -0.020656697 4287184439
-0.0017454959 -0.0048380191 -0.023887735 4287184694
-0.00051853433 -0.0006682591 -0.027117129 4287446324
0.0010741316 0.0010233158 -0.028472971 4287904049
0.0031906888 -0.00058871531 -0.027332805 4288230959
0.0053180195 -0.0022003674 -0.026193231 4287380788
0.0075952709 -0.0046374602 -0.024430677 4287314998
0.0096049681 -0.0054227361 -0.023915701 4287445813
0.011619978 -0.0062077995 -0.02340096 4287707444
0.013787612 -0.0078182388 -0.022263395 4287903538
0.015965998 -0.0094283232 -0.021126436 4287183673
0.018002369 -0.010212642 -0.020612724 4287118904
0.019733131 -0.0093460251 -0.021344351 4287053624
0.021616489 -0.0093047256 -0.021453181 4287118649
0.023338825 -0.0084381066 -0.022184182 4287118393
-0.0049222633 -0.010549251 -0.021663651 4286660413
-0.0030402318 -0.010509243 -0.021773348 4287184184
-0.001785811 -0.006328166 -0.024996337 4287053879
-0.00030224398 -0.0038038339 -0.026972651 4287446323
0.0012958571 -0.0021078747 -0.028325552 4288492844
0.003684938 -0.0053801811 -0.025944561 4289081384
0.0058229044 -0.0069959713 -0.024808861 4287707443
0.0078325383 -0.0077835298 -0.024295583 4287315254
0.0095638558 -0.0069152052 -0.025025979 4287249463
0.011578679 -0.007702434 -0.024512839 4287184183
0.01359883 -0.0084895333 -0.023999924 4287707443
0.015774265 -0.010104037 -0.022866042 4288296238
0.017807759 -0.010890624 -0.022353809 4288427308
0.019535743 -0.010021921 -0.023083676 4287118649
-0.0052025951 -0.010389092 -0.024022928 4286660158
-0.0033261292 -0.010349253 -0.024132336 4286987323
-0.0018261038 -0.0078181811 -0.026104845 4287119414
-0.0002143085 -0.006117688 -0.027455378 4287315508
0.0015173703 -0.0052475529 -0.028184522 4287839024
0.0037779361 -0.0076982589 -0.026430886 4288035118
0.0059183873 -0.0093183611 -0.025298588 4288231725
0.0077915154 -0.009277992 -0.025407352 4289016359
0.0098062828 -0.010067575 -0.024895892 4287903794
0.011681899 -0.010026965 -0.025004663 4287118903
0.013557404 -0.0099862618 -0.025113355 4287576883
0.015282869 -0.0091155916 -0.02584164 4287249718
-0.003611777 -0.010180335 -0.026484758 4286856763
-0.0018663593 -0.0093080178 -0.02721322 4287446069
-0.00012646616 -0.0084356889 -0.027941264 4287249973
0.0016078763 -0.0075634094 -0.028668933 4288362283
0.0037373006 -0.0091881845 -0.027539302 4288035118
0.0058775172 -0.010812642 -0.026410233 4287838769
0.0078895092 -0.011604585 -0.025900327 4287904048
0.0099068135 -0.012396257 -0.025390686 4288492844
0.011785038 -0.012355607 -0.02549962 4288492844
0.013221748 -0.0098186638 -0.027463052 4286726458
-0.0020319112 -0.0099630263 -0.028939322 4287772468
-0.00029481202 -0.0090886373 -0.029665623 4288099889
0.0015675202 -0.0090488279 -0.029774003 4287772978
0.0034297481 -0.0090089347 -0.029882316 4288296493
0.0054280795 -0.0098034069 -0.029373359 4288492333
0.0075706504 -0.011432068 -0.028247602 4287119413
-0.0025731213 -0.0081029413 -0.032510784 4286856763
-0.00046300516 -0.0097370567 -0.031386688 4287248953
0.0012657829 -0.0088605871 -0.032110818 4287641654
0.0031224489 -0.0088208281 -0.032218818 4287838004
-0.0011427626 -0.0070251185 -0.035562195 4287576118
0.00070301816 -0.00698573 -0.035669662 4286202689
0.030185945 -0.0073014619 0.024397993 4281553783
0.027157411 -0.0057990453 0.018244609 4281879929
0.024520151 -0.0042606764 0.01458857 4282993004
0.034638666 -0.0056204782 0.015323525 4281750388
0.032466076 -0.0064412579 0.013622573 4280700298
0.029969983 -0.005671924 0.010632159 4280173978
-0.02070858 -0.0065493337 -0.026257861 4282273138
-0.018744119 -0.007341498 -0.025744669 4281813629
-0.022706291 -0.0072400346 -0.027874822 4282141813
0.018520311 -0.0080327373 -0.029023204 4283190374
0.030784905 -0.0073787002 -0.034443788 4282798439
0.01154767 -0.0088490136 -0.039113425 4282731629
-0.012893531 -0.0074456688 -0.041253574 4282798439
0.0057033114 -0.0087474799 -0.041103896 4282536808
