# .PCD v0.7 - Point Cloud Data file format
VERSION 0.7
FIELDS x y z rgba
SIZE 4 4 4 4
TYPE F F F U
COUNT 1 1 1 1
WIDTH 963
HEIGHT 1
VIEWPOINT 0 0 0 1 0 0 0
POINTS 963
DATA ascii
-0.025661107 -0.0047102096 0.039424352 4290126884
-0.0236849 -0.0046679052 0.039306413 4290127138
-0.021708816 -0.0046254927 0.03918856 4290454304
-0.019732874 -0.0045829425 0.039070822 4289734948
-0.017634202 -0.0053065969 0.039622538 4289538853
-0.015781377 -0.0044975271 0.038835615 4289604644
-0.013934147 -0.0036884742 0.038049106 4290455068
-0.012092508 -0.0028794371 0.037263006 4289473828
-0.010256488 -0.0020703822 0.036477342 4289016104
-0.0081531182 -0.0027933549 0.037029207 4289670178
-0.0059052631 -0.0042820489 0.038249236 4289539363
-0.0037886053 -0.0050045038 0.038800482 4289277478
-0.031321447 -0.0087240562 0.040613353 4288950568
-0.029549766 -0.0071442267 0.039157152 4289474339
-0.027898252 -0.0047958121 0.037033152 4289081384
-0.026039429 -0.0039850175 0.03624706 4289604388
-0.024186164 -0.0031741811 0.035461344 4290586139
-0.02210379 -0.0039006509 0.03601227 4290520348
-0.020136166 -0.0038582664 0.035895038 4289735714
-0.017923076 -0.0053527514 0.037113387 4289408549
-0.01607579 -0.0045416169 0.03632842 4289801248
-0.014234088 -0.0037304852 0.035543874 4290520859
-0.012397997 -0.0029193247 0.034759697 4290848023
-0.010567494 -0.0021082135 0.033975981 4290259228
-0.0083333515 -0.0036016908 0.035193563 4290128159
-0.0059493408 -0.0058629094 0.037077326 4290782999
-0.0039747432 -0.0058194762 0.036960348 4289736224
-0.00243406 -0.0034719463 0.034844071 4287967034
-0.031571124 -0.0087690894 0.038102001 4288624168
-0.029911313 -0.0064140465 0.035982296 4290259484
-0.028267954 -0.0040592039 0.033863619 4290063389
-0.026417397 -0.0032464126 0.033079639 4288819754
-0.024457846 -0.0032044416 0.03296271 4289539363
-0.022263847 -0.0047039026 0.034178801 4290520859
-0.020299088 -0.004661602 0.03406173 4290128413
-0.018457197 -0.0038485052 0.033278629 4290324764
-0.016495429 -0.0038060369 0.033161901 4289866784
-0.014405619 -0.0045339717 0.033711106 4289932319
-0.012572329 -0.003720711 0.032928772 4291109909
-0.010611009 -0.0036779037 0.032812335 4291044373
-0.0086498298 -0.003634979 0.032695994 4290913813
-0.0064106509 -0.0051325895 0.033910118 4290521369
-0.0045861676 -0.004319041 0.033128597 4289277734
-0.0030563399 -0.0019651838 0.031017842 4289081129
-0.031716969 -0.0095783966 0.03626303 4288689448
-0.030059859 -0.0072168671 0.034148358 4289539618
-0.028419204 -0.004855535 0.032034706 4291175444
-0.026571464 -0.0040406231 0.031252515 4290913559
-0.024500288 -0.0047717309 0.031800766 4290782488
-0.022423774 -0.0055025993 0.032348789 4290716953
-0.020221993 -0.007006187 0.0335613 4289866784
-0.018500142 -0.0054179681 0.032115102 4289997344
-0.016538519 -0.0053754663 0.031998411 4289932064
-0.014577039 -0.0053328713 0.031881802 4290193694
-0.01261571 -0.0052901478 0.031765301 4289932319
-0.010921661 -0.0037021153 0.030321142 4290194458
-0.009102378 -0.0028867237 0.029541383 4289736733
-0.0071496665 -0.0028438605 0.029425634 4289409568
-0.0056223497 -0.00048362929 0.027319806 4289474594
-0.0042559952 0.0026487447 0.024551766 4287508798
-0.031862702 -0.010383063 0.034427505 4286530109
-0.030208297 -0.0080150077 0.032317813 4289604389
-0.028461348 -0.006422556 0.030872941 4289866529
-0.026613705 -0.0056054443 0.030092388 4289997598
-0.024771623 -0.0047882879 0.029312216 4289539619
-0.022700761 -0.0055215061 0.029858995 4289670178
-0.020504702 -0.0070295157 0.031068578 4289800993
-0.018665701 -0.0062121106 0.030288899 4289604898
-0.016706951 -0.0061696796 0.030172376 4289539363
-0.014748339 -0.0061271293 0.030055949 4289932574
-0.012920648 -0.0053096386 0.029277185 4289932573
-0.011365592 -0.0029425379 0.027174296 4289475103
-0.010099486 0.00097374059 0.023748266 4288755748
-0.030250408 -0.0095861051 0.031153012 4289538853
-0.0285035 -0.0079892632 0.029711407 4289408549
-0.026767604 -0.0063925097 0.02827049 4289604899
-0.024928331 -0.005573282 0.027492143 4289539363
-0.023094621 -0.0047540572 0.026714217 4289604898
-0.021146663 -0.0047120824 0.02659817 4289146918
-0.019198809 -0.0046699997 0.02648221 4289408804
-0.017000549 -0.0061820662 0.027688609 4289932319
-0.014919519 -0.0069167437 0.028233536 4289932574
-0.013225373 -0.0053200629 0.026795723 4289802013
-0.012209512 0.00016129017 0.022055438 4289345054
-0.030398671 -0.010377185 0.029327776 4288558124
-0.028763395 -0.0079963598 0.027229026 4289146663
-0.027032979 -0.0063953847 0.025791738 4289605154
-0.025199242 -0.0055741025 0.025015337 4290324764
-0.02348813 -0.0039732661 0.023579335 4290717208
-0.021668255 -0.003152024 0.022803953 4290520603
-0.019608963 -0.0038895421 0.023348337 4290128414
-0.017293904 -0.0061855149 0.025211547 4289408803
-0.015090592 -0.0077017033 0.026414502 4289736479
-0.013268523 -0.0068799499 0.025639335 4289474848
-0.012519158 0.00017496757 0.019592263 4289018143
-0.030440718 -0.011945542 0.028165009 4288230704
-0.028914239 -0.0087763052 0.025412263 4289277478
-0.027298115 -0.0063892836 0.023319639 4289474083
-0.025469933 -0.005565878 0.022545166 4290193438
-0.023647293 -0.0047425106 0.021771155 4289866529
-0.021830235 -0.003919147 0.020997567 4290978840
-0.019896299 -0.0038773548 0.020882441 4290913559
-0.017837338 -0.0046169367 0.021425314 4289408804
-0.015389413 -0.0077006426 0.023941204 4289736479
-0.013442263 -0.0076582059 0.02382556 4289671199
-0.012561895 -0.0013650423 0.01845062 4289411353
-0.031927913 -0.01747603 0.030407723 4286267969
-0.030482765 -0.013513612 0.027002454 4287576374
-0.029064961 -0.0095516602 0.023598906 4288427053
-0.027563024 -0.0063741375 0.020854179 4290258973
-0.025854573 -0.0047648139 0.019424755 4289408548
-0.02392327 -0.004723303 0.019309621 4288230959
-0.021992095 -0.0046816748 0.019194584 4288885289
-0.019938651 -0.0054236632 0.019736087 4289670435
-0.018004995 -0.0053817444 0.019621078 4289931808
-0.015815824 -0.0069069359 0.020818407 4289932063
-0.013746429 -0.0076482822 0.021359256 4289735968
-0.012338091 -0.0044718357 0.018620802 4288692254
-0.034146387 -0.01752382 0.028043222 4286659394
-0.029215563 -0.010322382 0.021788985 4288034608
-0.027716264 -0.0071362052 0.019050889 4290128158
-0.026238866 -0.0039503695 0.016314192 4290782999
-0.024315882 -0.0039090374 0.016199555 4290128158
-0.022273429 -0.0046535553 0.016740005 4290258973
-0.020225644 -0.0053978218 0.017280243 4290847769
-0.018297575 -0.0053560277 0.017165564 4290193438
-0.016241871 -0.006099957 0.017705526 4289735969
-0.014050368 -0.0076293475 0.018899556 4289081894
-0.029257406 -0.011876848 0.020636527 4287118905
-0.027758025 -0.0086819604 0.0179049 4289081128
-0.026280537 -0.005487429 0.015174662 4290455324
-0.024708137 -0.0030814409 0.01309937 4290913304
-0.02267405 -0.0038283626 0.013638742 4290193438
-0.020634633 -0.0045749983 0.014177849 4290324509
-0.018589906 -0.0053213956 0.014716731 4289343013
-0.016667556 -0.0052796211 0.014602469 4289015848
-0.014354054 -0.0076014744 0.016446561 4288689449
-0.029407822 -0.012640519 0.01883183 4287510838
-0.027911078 -0.009436979 0.016106836 4289146408
-0.026322201 -0.007024237 0.014035319 4289670178
-0.024866518 -0.0038213395 0.011312949 4289866529
-0.02295484 -0.0037801266 0.011199078 4289473573
-0.021165472 -0.0029485282 0.010433702 4289343014
-0.018881984 -0.0052778115 0.012274537 4289212198
-0.016965222 -0.0052361498 0.012160614 4289081383
-0.014657497 -0.0075646252 0.014000145 4288885543
-0.028064024 -0.010187331 0.014312159 4289473574
-0.026363868 -0.0085607702 0.01289618 4289866529
-0.024791405 -0.0061417315 0.010830585 4289539363
-0.02299656 -0.005307965 0.010066406 4289604899
-0.02132941 -0.0036817687 0.0086526517 4289866273
-0.019298691 -0.0044328375 0.0091891214 4289735714
-0.017390233 -0.0043913536 0.0090756938 4289016104
-0.015090987 -0.0067265881 0.010910913 4288755494
-0.030904416 -0.019760059 0.019893922 4287837238
-0.029599831 -0.014948883 0.015881851 4287249463
-0.028328013 -0.010138303 0.011871887 4288230704
-0.026747253 -0.0077126627 0.0098105744 4289343014
-0.024949659 -0.0068767834 0.0090477578 4289539108
-0.023038268 -0.0068355883 0.0089338953 4290128158
-0.021371137 -0.0052050371 0.0075233779 4290978840
-0.019465428 -0.0051637292 0.007410028 4290717208
-0.017687347 -0.0043278104 0.0066487161 4290259739
-0.015654366 -0.0050807595 0.007183617 4289082148
-0.013483096 -0.0066278763 0.0083660018 4289738774
-0.028369512 -0.01167433 0.010733113 4286661178
-0.027016416 -0.0076482729 0.007382114 4289735459
-0.025224358 -0.0068103159 0.0066212611 4289604643
-0.023318555 -0.0067692334 0.0065077376 4289212198
-0.021534879 -0.0059312647 0.005747526 4288230959
-0.01963203 -0.0058900127 0.0056343502 4290062878
-0.01798423 -0.0042552575 0.004228346 4290651928
-0.015956882 -0.0050105331 0.0047619436 4289344033
-0.013924211 -0.005765616 0.0052953549 4289869334
-0.027171552 -0.0083740521 0.0056059454 4289211689
-0.025498815 -0.0067348974 0.0042013265 4290455324
-0.023837082 -0.0050958917 0.0027975042 4289670178
-0.021820463 -0.0058538923 0.0033298852 4288100143
-0.019923188 -0.0058127763 0.0032170294 4289016359
-0.018153451 -0.0049726963 0.0024594425 4290324763
-0.016389269 -0.004132621 0.0017022733 4289474849
-0.014364962 -0.0048900247 0.0022345169 4289606173
-0.027212825 -0.009896595 0.0044771768 4288623148
-0.025773026 -0.0066505503 0.0017880851 4289997344
-0.024235934 -0.0042060865 -0.00025593443 4290978840
-0.022349581 -0.0041653216 -0.00036822539 4290716953
-0.020338729 -0.0049255081 0.00016296655 4290717208
-0.018449884 -0.0048844665 5.0693518e-05 4290521368
-0.016561162 -0.0048433067 -6.1483588e-05 4289344033
-0.014672559 -0.0048020426 -0.00017357292 4289214494
-0.027367756 -0.010615397 0.0027061794 4288295983
-0.025814198 -0.0081641562 0.00066595362 4289212198
-0.024396192 -0.0049097929 -0.0020153075 4290193438
-0.022390857 -0.005672399 -0.0014854958 4290652184
-0.02062932 -0.0048282854 -0.0022394639 4290063643
-0.018746056 -0.0047873557 -0.0023513986 4289539873
-0.016862914 -0.0047463197 -0.0024632458 4289605408
-0.014979888 -0.0047051907 -0.0025750147 4289671454
-0.0128261 -0.0062699895 -0.001404454 4289672728
-0.030024573 -0.021080399 0.0088589955 4286006084
-0.028535403 -0.017816164 0.0061796932 4286071618
-0.027522568 -0.01132958 0.00093853252 4287315254
-0.026088037 -0.0080662854 -0.001737338 4289342758
-0.024437249 -0.0064144973 -0.0031308299 4289408294
-0.022553898 -0.0063737929 -0.0032429388 4289735969
-0.020919658 -0.0047221454 -0.0046352856 4289670433
-0.019169211 -0.0038759094 -0.0053869123 4289409059
-0.017164413 -0.0046404274 -0.0048584081 4289474594
-0.015419636 -0.0037941262 -0.0056095561 4289933083
-0.01327426 -0.0053635063 -0.0044416925 4290391828
-0.030174207 -0.021816032 0.0070750844 4286463809
-0.027450122 -0.013654977 0.00045272312 4286268479
-0.026129059 -0.0095751043 -0.0028559216 4289342759
-0.024478298 -0.0079189744 -0.0042461851 4289866018
-0.022595089 -0.0078782979 -0.0043583028 4289866784
-0.020960871 -0.0062222956 -0.0057474114 4289605154
-0.019337647 -0.0045663835 -0.0071358299 4289932318
-0.017595541 -0.0037181145 -0.0078852391 4289801759
-0.015858997 -0.0028698612 -0.0086342404 4289670943
-0.013722036 -0.0044437526 -0.0074691679 4289802268
-0.026286285 -0.010273751 -0.0046117608 4288492333
-0.02475721 -0.0078034559 -0.0066358969 4289865763
-0.023001246 -0.0069530187 -0.0073848171 4290062624
-0.021250829 -0.0061026206 -0.0081332736 4289800994
-0.019505959 -0.0052522505 -0.0088813305 4290913304
-0.017766647 -0.0044019083 -0.0096289879 4291240978
-0.016165439 -0.002741917 -0.01101271 4290325529
-0.014169428 -0.0035107853 -0.010486774 4289540384
-0.012030121 -0.0050888406 -0.0093249744 4289019928
-0.026327223 -0.011779984 -0.0057284292 4287314744
-0.024917003 -0.0084910542 -0.0083834035 4289866274
-0.023285426 -0.0068265414 -0.0097659854 4289473828
-0.021416202 -0.0067860726 -0.0098772012 4289539363
-0.019547086 -0.0067454865 -0.0099883219 4287707698
-0.017937612 -0.0050811302 -0.011369349 4290520858
-0.016074166 -0.0050404547 -0.011479974 4290652694
-0.014346045 -0.0041879332 -0.01222524 4289213474
-0.01207177 -0.0065821344 -0.01043197 4289149469
-0.025076635 -0.0091741513 -0.010127502 4289146919
-0.023569345 -0.0066912081 -0.012140588 4289997343
-0.021705706 -0.0066508511 -0.012251466 4289277734
-0.019842163 -0.0066104131 -0.012362274 4288623403
-0.01810845 -0.0057557933 -0.013106406 4288623658
-0.016247854 -0.0057151988 -0.013216875 4289278243
-0.014387369 -0.0056745093 -0.013327267 4289997853
-0.012251269 -0.0072614206 -0.012171732 4289541148
-0.010385588 -0.0072204126 -0.012282279 4289281559
-0.026525088 -0.013975359 -0.0085938964 4286071874
-0.025236145 -0.009852713 -0.011868238 4288819498
-0.023731545 -0.0073632579 -0.013876354 4289604899
-0.022119153 -0.0056903986 -0.015251281 4290782489
-0.020390835 -0.0048339022 -0.015993532 4290586138
-0.018668063 -0.0039773602 -0.016735403 4289932574
-0.016553741 -0.0055693248 -0.015581982 4290521369
-0.01469883 -0.0055287601 -0.015692044 4289605663
-0.012568429 -0.0071201036 -0.01453945 4289344799
-0.010848835 -0.0062632915 -0.015280807 4289738518
-0.029668167 -0.020472139 -0.0056960303 4286724164
-0.027655777 -0.021250248 -0.0051782047 4287444284
-0.026449922 -0.016297486 -0.0090775527 4287575863
-0.025276806 -0.011345329 -0.012974804 4288230193
-0.024015006 -0.0072123175 -0.01623939 4289211944
-0.022408083 -0.0055351797 -0.017610796 4289800993
-0.020812139 -0.0038582366 -0.018981442 4290389788
-0.018968008 -0.0038181394 -0.019091038 4289866529
-0.016859386 -0.005414525 -0.017940545 4290194204
-0.01487501 -0.0061923824 -0.017420415 4289278244
-0.013023049 -0.0061518047 -0.017530244 4289213219
-0.011030756 -0.0069292281 -0.017010463 4289082658
-0.026606709 -0.016982116 -0.010823006 4287314488
-0.025436096 -0.012017008 -0.014710441 4288099633
-0.024176855 -0.0078731887 -0.017966798 4289276969
-0.022696748 -0.0053711627 -0.019963719 4289277479
-0.020979442 -0.0045106057 -0.020702116 4288950568
-0.019138165 -0.0044705654 -0.020811537 4288558123
-0.017164756 -0.0052509028 -0.020292498 4288492588
-0.015186004 -0.0060310159 -0.019773692 4288754474
-0.013339613 -0.0059905974 -0.019883219 4288623913
-0.011212535 -0.0075906664 -0.018736787 4287904559
-0.0092178211 -0.0083701229 -0.018218698 4287316274
-0.025358081 -0.014330033 -0.015187548 4286529854
-0.024217259 -0.0093524633 -0.019063465 4287968563
-0.022613078 -0.0076667438 -0.020428283 4288230959
-0.020893134 -0.0068039671 -0.021165233 4288296750
-0.018790334 -0.0084092841 -0.020020939 4288492843
-0.016808938 -0.0091916872 -0.019503962 4288296748
-0.014822219 -0.0099738277 -0.018987268 4288231468
-0.012830168 -0.010755742 -0.018470805 4288689449
-0.010692459 -0.012359951 -0.017328255 4288166188
-0.0088301189 -0.012318973 -0.017438572 4287315763
-0.0068221092 -0.013100257 -0.016922846 4287119158
-0.0051057786 -0.012236764 -0.017658992 4286660924
-0.0029413849 -0.013839971 -0.016517788 4286464318
-0.0009201616 -0.014620678 -0.016002633 4286922044
0.0011063442 -0.015401196 -0.015487738 4286202435
-0.025517207 -0.014997021 -0.01691971 4286137153
-0.024136387 -0.011656592 -0.019534174 4287838003
-0.022529509 -0.0099664759 -0.020895928 4288230958
-0.020680226 -0.0099263955 -0.021005925 4288362029
-0.018572226 -0.011536033 -0.019865163 4288362029
-0.016585588 -0.01232046 -0.019350162 4287838513
-0.014458772 -0.013929469 -0.018210355 4287707698
-0.012596305 -0.013888704 -0.01832084 4287904559
-0.010593683 -0.014672488 -0.017806567 4288362538
-0.0085857399 -0.015456056 -0.017292539 4287315509
-0.006718196 -0.015414915 -0.017403129 4287315508
-0.0045539141 -0.01702255 -0.016265206 4287118903
-0.0026811734 -0.016981103 -0.016375959 4286791739
-0.00065468252 -0.017763939 -0.015862714 4287052858
0.0010639206 -0.01689795 -0.016597249 4286333248
0.0027769506 -0.01603201 -0.017331325 4286333758
-0.02555773 -0.016486775 -0.018024158 4286398783
-0.024055615 -0.013964908 -0.02000799 4287838003
-0.022322115 -0.013097602 -0.020742597 4287772979
-0.020340905 -0.013884543 -0.020229053 4287773234
-0.018224992 -0.01549835 -0.01909199 4287969584
-0.016230378 -0.016284807 -0.018579099 4288231469
-0.014095657 -0.01789795 -0.017443039 4287773488
-0.012225155 -0.017857051 -0.01755403 4287839279
-0.010494988 -0.016989237 -0.018288007 4288297513
-0.0084845051 -0.017774954 -0.017775768 4287970094
-0.0066143721 -0.017733738 -0.017886497 4287773743
-0.0044475943 -0.01934576 -0.016751951 4287708209
-0.0024211556 -0.020130835 -0.01624044 4287446068
-0.00069703162 -0.019262712 -0.01697373 4287249974
0.0011780635 -0.019221062 -0.017084513 4287249208
0.0025752708 -0.016700126 -0.019061107 4286792504
-0.025716629 -0.017146952 -0.019751271 4286790973
-0.024096064 -0.015448011 -0.021107499 4287641908
-0.022238784 -0.015407925 -0.021218099 4287642674
-0.020255037 -0.01619699 -0.020706326 4287773488
-0.01826594 -0.016985876 -0.02019475 4287511859
-0.016271517 -0.017774526 -0.019683475 4288100909
-0.01454119 -0.016904758 -0.020416012 4288297258
-0.01267897 -0.016864071 -0.020526536 4288035884
-0.010816865 -0.016823266 -0.020636965 4288166698
-0.0085262433 -0.019269124 -0.018883407 4288297768
-0.0065106228 -0.020056821 -0.018373027 4287905069
-0.0043413565 -0.021673147 -0.017241867 4287708718
-0.0027654767 -0.019974109 -0.018594645 4287773744
-0.00073933601 -0.020761343 -0.018084642 4287642928
0.00082270801 -0.019062452 -0.019436486 4287772468
0.002373755 -0.017363755 -0.020787567 4287118904
-0.025757033 -0.018634241 -0.020853896 4286790973
-0.024015419 -0.017762538 -0.021585923 4287838259
-0.022155549 -0.017722389 -0.021696668 4287904303
-0.020042758 -0.019345099 -0.020565987 4287577138
-0.018306859 -0.018473258 -0.021297406 4287642673
-0.016444556 -0.018432785 -0.021408094 4287773743
-0.014582362 -0.018392194 -0.021518689 4288624424
-0.012582876 -0.019182727 -0.021009196 4288559398
-0.010578074 -0.019973043 -0.020499948 4288035884
-0.0085679442 -0.020763136 -0.019990932 4287970604
-0.0065525025 -0.021553025 -0.019482169 4288493608
-0.0046799853 -0.02151176 -0.019593041 4287773999
-0.0032604933 -0.018977676 -0.02156147 4287381044
-0.0015500337 -0.018105568 -0.022290768 4287315764
0.00046765804 -0.018895065 -0.021781884 4287380279
0.0023315325 -0.018853627 -0.021891974 4286530108
-0.025915708 -0.01928756 -0.022576004 4286922044
-0.024176873 -0.018413808 -0.023306221 4287706678
-0.022319853 -0.018373763 -0.02341683 4287838004
-0.020336475 -0.019167202 -0.022908282 4287969074
-0.018606082 -0.018293368 -0.023637801 4287707699
-0.016749337 -0.018253006 -0.023748152 4287380533
-0.015027296 -0.017379135 -0.024477014 4286857528
-0.012761503 -0.019838838 -0.022731798 4287119414
-0.010899637 -0.019798096 -0.022842254 4286727224
-0.026428927 -0.017428501 -0.026148573 4286398528
-0.024580091 -0.017388752 -0.026258782 4286595134
0.0058930144 0.0098548345 0.017906524 4279600994
0.0078005716 0.0098976288 0.017794136 4279863643
0.0092092082 0.01225616 0.015695943 4280125783
0.012663662 0.013885323 0.014149283 4279739203
0.015080035 0.011613032 0.016022444 4280586568
0.017866746 0.0077979434 0.019217337 4281172814
0.019961096 0.0070698503 0.019766076 4280580193
-0.0072244033 0.0064810459 0.01888665 4283854649
-0.0061767101 0.011170581 0.014803641 4283134274
-0.0047204494 0.013536036 0.012706996 4281434698
-0.002981022 0.014352353 0.011934033 4281499724
-0.00078947842 0.012845522 0.01314491 4281107534
0.00094688684 0.013662014 0.012372236 4280846413
0.0026776269 0.014478454 0.011600021 4280194123
0.004081279 0.016843203 0.0095069008 4280259914
0.0059587881 0.016885322 0.0093962839 4280456773
0.0075037554 0.018475682 0.0079650506 4279152959
0.0093754381 0.018517863 0.0078549227 4278569518
0.011075303 0.019334052 0.0070848577 4278960689
0.016405776 0.012454335 0.012802578 4280849219
0.019197308 0.008628564 0.015989169 4280909143
-0.011504278 0.0071957521 0.015996497 4283461438
-0.010431521 0.011898734 0.011921515 4281698114
-0.0089667253 0.014270676 0.0098291207 4281436483
-0.0076627806 0.017419118 0.0070777396 4279223593
-0.0063807741 0.020567182 0.0043277363 4279677494
-0.0045215562 0.020608433 0.004217857 4279480888
-0.0025099963 0.019873209 0.0047675529 4279217728
-0.00033792853 0.018361706 0.0059764273 4280456518
0.0015289336 0.018403422 0.0058663152 4280130629
0.0032349601 0.019221567 0.0050972383 4280392513
0.0047719479 0.020816028 0.0036696545 4279741498
0.0064640045 0.021634046 0.0029015415 4280849473
0.0081504211 0.022452038 0.00213383 4281176128
0.015299805 0.015593823 0.0077300388 4281435973
0.018434025 0.010204934 0.012225343 4280912204
-0.012363415 0.01034528 0.010912685 4283068739
-0.011445582 0.015839942 0.0061897049 4280914753
-0.010141373 0.018997014 0.0034447194 4281110848
-0.0087147988 0.021374792 0.001359478 4281110848
-0.0071577206 0.022973444 -6.6432636e-05 4280785213
-0.0033144653 0.022276685 0.00037339469 4280589373
-0.0011562556 0.020760536 0.0015798624 4280783938
0.00085477531 0.020023342 0.0021281347 4280915009
0.0030316859 0.018507823 0.0033335818 4280850494
0.0045659766 0.020106547 0.0019094462 4279354664
0.0062552392 0.020926699 0.001143128 4280396594
0.0077701136 0.022525188 -0.00027978839 4281633089
0.0097884089 0.021788619 0.00026840018 4281697859
0.011811949 0.021052204 0.00081637723 4280785213
0.014548458 0.017203357 0.003989974 4280590139
0.017671242 0.011798976 0.0084746238 4280979268
0.020467177 0.0079516117 0.011644826 4280780114
-0.012677599 0.010396089 0.0084775323 4283004989
-0.011903718 0.016687147 0.003109077 4280915518
-0.010607552 0.019852743 0.00037103728 4279612724
-0.0089006498 0.020674687 -0.00039528194 4280849984
-0.0073462874 0.022277616 -0.0018178099 4281632069
-0.0055036619 0.022318508 -0.001926702 4281306179
-0.0036611781 0.022359479 -0.0020355214 4280067133
-0.0015086532 0.02083889 -0.00083199935 4280718914
0.00033891946 0.020880181 -0.00094096782 4280785213
0.0025074407 0.019360077 0.00026178011 4281045824
0.004033573 0.020963028 -0.0011586701 4280525114
0.005548656 0.022565756 -0.0025783782 4279487518
0.0068839565 0.024948888 -0.0046527358 4280008738
0.0090598986 0.02342933 -0.0034501445 4279029028
0.011246547 0.021910127 -0.0022481703 4279025203
0.01397448 0.01805019 0.00091782596 4280459323
0.016908973 0.013410673 0.0047369888 4280716108
-0.012311589 0.0065386631 0.0093272664 4283594038
-0.01194533 0.015197478 0.0020047752 4281567808
-0.010931909 0.019938406 -0.0020374362 4279481909
-0.0076816231 0.022369634 -0.0042208 4278571049
-0.00186079 0.020926144 -0.0032371883 4280915008
-1.8768013e-05 0.020967316 -0.003345829 4280850494
0.0019835681 0.020225678 -0.0028002015 4280849983
0.0036647618 0.021049898 -0.003562883 4280392514
0.0051744059 0.02265691 -0.0049790689 4280524093
0.0066730082 0.024263721 -0.0063944953 4279809073
0.0086746365 0.02352244 -0.0058485512 4279938868
0.010855608 0.021998711 -0.0046494375 4280720189
0.013224058 0.019692853 -0.002797686 4280849984
0.015967689 0.015822478 0.00035936292 4280718913
0.018920556 0.011170339 0.0041678282 4279866958
-0.012353737 0.0050252881 0.0082053803 4283985718
-0.011986937 0.013708062 0.00090065761 4281633344
-0.011114661 0.019247547 -0.003785558 4280522563
-0.0094160512 0.020073663 -0.0045481459 4279806524
-0.0078698769 0.021685187 -0.0059637399 4278763574
-0.0060356483 0.021725886 -0.0060721394 4279741498
-0.0042015687 0.021766692 -0.0061804494 4280719934
-0.0020576864 0.020237144 -0.0049828556 4280915518
-0.00021851063 0.020278256 -0.0050913254 4280850238
0.0016205087 0.020319447 -0.0051997202 4281110849
0.0029699206 0.022715807 -0.0072653163 4280979779
0.004800424 0.022756994 -0.0073730713 4280523073
0.0066307634 0.022798251 -0.007480762 4281045824
0.0084609166 0.022839595 -0.0075883716 4280653888
0.010464929 0.02209628 -0.0070441188 4280850238
0.012474172 0.021353155 -0.0065001221 4280915518
0.015027046 0.018256281 -0.0040019555 4280457538
0.01814802 0.012806194 0.00044892984 4280064328
0.021121956 0.008141607 0.0042464742 4279668058
-0.011751354 0.010643382 0.0011012567 4281830203
-0.011297286 0.018561296 -0.0055302605 4280916539
-0.0098895468 0.020964783 -0.0075949663 4280326978
-0.0082047582 0.02179287 -0.0083550448 4280326978
-0.0063760877 0.021833446 -0.0084631154 4280849984
-0.0045475885 0.021874126 -0.0085710958 4281176384
-0.002564311 0.021127526 -0.0080277212 4281306689
-0.00057577342 0.020381149 -0.0074845748 4281045824
0.0012576878 0.020422217 -0.0075926417 4281045569
0.0030909777 0.020463388 -0.0077006193 4280915264
0.0052557066 0.018930342 -0.0065072095 4280914753
0.0070941001 0.018971782 -0.0066153705 4280785214
0.0085898191 0.020587362 -0.0080241337 4280981564
0.01024846 0.021415789 -0.0087819872 4278900763
0.012078144 0.021457303 -0.0088894339 4278446099
0.014266424 0.019925267 -0.007697125 4280461874
0.017375998 0.014459701 -0.0032568839 4281240898
0.020523407 0.008995112 0.0011811454 4281043275
-0.011654541 0.008360194 0.00064490992 4283466028
-0.011338525 0.017089758 -0.006621114 4281111613
-0.010074697 0.020289566 -0.0093312738 4280654144
-0.0082460046 0.020330053 -0.0094394172 4280654143
-0.0065668896 0.021160334 -0.010197512 4281176638
-0.0047412291 0.021200959 -0.010305319 4280265014
-0.0030705705 0.022031192 -0.011062735 4280981309
-0.00093276799 0.020492923 -0.0098711653 4280851003
0.00089512765 0.020533871 -0.0099789063 4281306688
0.0028858855 0.019785542 -0.0094373813 4281045313
0.0048819259 0.019037411 -0.0088961022 4280980799
0.0068832263 0.01828951 -0.008355055 4280720188
0.0087185875 0.018330984 -0.0084629627 4280785979
0.011859 0.020781316 -0.010623748 4279220535
0.013865001 0.020033855 -0.010082731 4278569263
0.016604483 0.016130816 -0.0069496511 4278959669
0.019740492 0.010650698 -0.0025222269 4280716363
-0.011003964 0.0029045083 0.0027816303 4283924519
-0.010956187 0.013242416 -0.0057651894 4281502528
-0.010259733 0.019618977 -0.011064231 4280851768
-0.0084339008 0.019659411 -0.011172192 4280851004
-0.0052388683 0.022115875 -0.013332546 4279096859
-0.0016045496 0.022196993 -0.01354697 4278765868
0.00069306046 0.019862909 -0.011710848 4281306689
0.0028438866 0.018320754 -0.010523156 4281241664
0.0046740696 0.018361937 -0.010630892 4280916029
0.0065040812 0.018403184 -0.010738563 4280851259
0.0081628039 0.019235868 -0.011493254 4280785723
0.0098159164 0.020068575 -0.012247583 4281827399
0.011463404 0.020901192 -0.013001475 4281306689
0.016015463 0.017028466 -0.0099828811 4280134709
0.018958077 0.012323959 -0.0062125707 4280848708
0.021370836 0.0099932961 -0.0043826061 4280650318
-0.010769226 -0.00018987432 0.0029601357 4284182833
-0.010715324 0.010176361 -0.0055660158 4281697859
-0.010013074 0.01657049 -0.010852433 4280588354
-0.0086216368 0.018993285 -0.012901548 4280785469
-0.007097356 0.020621773 -0.014302801 4280785469
-0.0054321066 0.021456141 -0.015056733 4281111104
-0.0037724525 0.022290546 -0.015810292 4278374699
0.00049111992 0.019196447 -0.013439378 4281176639
0.0021503121 0.020031072 -0.014192667 4280849984
0.0039695129 0.020071987 -0.014299771 4280981053
0.0056202114 0.020906579 -0.015052436 4280459579
0.00743635 0.020947609 -0.015159221 4278374444
0.0090785623 0.021782178 -0.015911268 4281110594
0.011068113 0.021029901 -0.015372586 4281567044
0.01324214 0.019484475 -0.01418915 4281371714
0.015426867 0.017939318 -0.013006251 4280915518
0.017806925 0.015601316 -0.011179275 4281241408
0.020577811 0.011677375 -0.008064107 4281305414
-0.010534704 -0.0032927897 0.0031323885 4284183344
-0.010474719 0.007101927 -0.0053731222 4281504569
-0.010054234 0.015106151 -0.01193794 4280848454
-0.0088092461 0.018331744 -0.014627509 4279025204
-0.0072876886 0.019964516 -0.016025366 4280654399
-0.0056252182 0.020801041 -0.01677756 4281827909
-0.0039683357 0.021637507 -0.017529303 4281436739
-0.0020022616 0.020881902 -0.016991321 4281110848
-3.0882657e-05 0.020126451 -0.016453551 4280198204
0.0017829239 0.020167168 -0.016560391 4280916284
0.0034310147 0.021003839 -0.01731139 4280784703
0.005241774 0.021044653 -0.01741793 4280524093
0.0085153878 0.022717826 -0.018918209 4279289384
0.010496646 0.02196316 -0.018380666 4279612724
0.012662299 0.020413123 -0.017199956 4279025204
0.017025687 0.01731414 -0.014840294 4280849984
0.0201599 0.011788361 -0.010446684 4280914243
0.023331963 0.0062635243 -0.0060552284 4280388434
-0.01037534 0.0048174988 -0.005830586 4283138608
-0.0099516585 0.012843555 -0.012379413 4281239368
-0.0091431662 0.018473189 -0.016993785 4280392004
-0.0061219707 0.021747068 -0.019781733 4279286069
-0.0044732913 0.022585504 -0.020531386 4279351348
-0.002515547 0.021827545 -0.019994527 4278504493
-0.00087261945 0.022666022 -0.020743717 4280393278
0.0010902435 0.021908369 -0.020207016 4280849729
0.0030583963 0.021150913 -0.019670565 4279935043
0.0050318241 0.020393636 -0.01913438 4279999814
0.006668672 0.021232344 -0.019882943 4280849219
0.0081262961 0.022868808 -0.021273226 4280197693
0.010278292 0.021314092 -0.020095034 4278633523
0.012261935 0.020557389 -0.019559192 4279219769
0.014614426 0.018205564 -0.017740326 4280915263
0.016614012 0.017449375 -0.017205313 4280391238
0.019742243 0.011908224 -0.012822678 4280586059
0.022908337 0.0063680671 -0.008442238 4280254048
-0.010135118 0.0017282125 -0.0056486297 4283463479
-0.0099928491 0.011377517 -0.013466181 4281370183
-0.0093304552 0.017822996 -0.018711409 4280979268
-0.0082643852 0.021865945 -0.022028152 4279740989
-0.0045142174 0.0211455 -0.02159882 4278763828
-0.0025566593 0.020385347 -0.021063577 4280263229
-0.00075379759 0.020425729 -0.021169841 4280980034
0.0012116134 0.019665923 -0.020634932 4280848963
0.0031823292 0.018906329 -0.020100262 4280195399
0.0053264499 0.01734677 -0.018925004 4280195654
0.0071395636 0.017387714 -0.019031623 4280392514
0.0087789223 0.018228777 -0.019778697 4281241664
0.010588989 0.018269785 -0.019885043 4281045059
0.012577906 0.017510973 -0.019351093 4280521544
0.014753811 0.015952587 -0.018177439 4280391748
0.017124884 0.013594726 -0.016364468 4280980034
0.019886389 0.0096379351 -0.013273016 4280914243
0.022674888 0.005681837 -0.010183084 4280582999
-0.0098951347 -0.001369522 -0.005473014 4284640559
-0.010034036 0.0099116582 -0.014552815 4282482749
-0.009371262 0.016374547 -0.019785129 4281893954
-0.0081559569 0.019625586 -0.022453465 4280847688
-0.0063554794 0.019665621 -0.022559807 4280585804
-0.0044006556 0.018903114 -0.022026103 4280651084
-0.0024405494 0.018140845 -0.021492623 4280651083
-0.00031521916 0.016576301 -0.020319721 4281503294
0.0018208399 0.015012031 -0.019147353 4281305158
0.0038022399 0.0142505 -0.018614935 4281566279
0.0054527745 0.015093749 -0.019361151 4281696074
0.0074392855 0.014332512 -0.018828902 4282151503
0.0090840608 0.01517578 -0.019574672 4282347088
0.011251926 0.01361271 -0.01840389 4281694543
0.013251543 0.012852 -0.017872239 4281435463
0.015438102 0.011289462 -0.016702401 4281762628
0.01763536 0.0097272582 -0.015533196 4281827908
0.020030417 0.0073634684 -0.013726449 4281303883
-0.0095010065 0.005225908 -0.013083162 4283855669
-0.0088269897 0.011706421 -0.018303221 4281957958
-0.0076006949 0.014966423 -0.020965798 4281435719
-0.0057894588 0.015006686 -0.021072784 4281305159
-0.0039783493 0.015047019 -0.02117971 4281173834
-0.0020102486 0.014282698 -0.020648284 4281108808
0.00028286129 0.011909327 -0.018841026 4281304649
0.0024295673 0.010340942 -0.017672522 4281956428
0.0042563751 0.010381995 -0.017780097 4281956684
0.0059149936 0.011227643 -0.018525219 4281760844
0.0079095289 0.010464331 -0.017995041 4281956428
0.010082774 0.0088969339 -0.016827885 4282020178
0.012090549 0.0081341378 -0.016298398 4282282064
0.014103606 0.0073714964 -0.015769124 4281891148
0.015940316 0.0074132383 -0.015876936 4281760333
0.018145487 0.0058468748 -0.014711423 4281761099
0.020174332 0.0050848741 -0.01418294 4281564748
-0.0091119446 0.001330154 -0.012263664 4283789369
-0.0082832091 0.0070210788 -0.01683408 4281892423
-0.0068969578 0.0094829556 -0.018853752 4281956428
-0.0052238926 0.010330509 -0.019598475 4281956939
-0.0035563782 0.011178026 -0.020342806 4281826123
-0.0015803054 0.010411734 -0.019813523 4281891404
0.00072066486 0.008031968 -0.01801154 4281890383
0.0028752834 0.0064594466 -0.016846782 4281955664
0.0047101453 0.0065006614 -0.016954845 4281955663
0.0062089339 0.0081552248 -0.018334785 4282085968
0.0083793923 0.0065833461 -0.017170748 4282216274
0.012752458 0.0034404341 -0.014844401 4282607698
0.014597394 0.0034822691 -0.014952766 4282477649
0.016079061 0.0051368717 -0.016331382 4282085968
0.018286765 0.0035662055 -0.015169259 4281825103
0.020131178 0.0036082584 -0.015277421 4281628499
-0.0088666603 -0.0017690537 -0.012089542 4283005244
-0.008032158 0.0039371755 -0.016648941 4282282319
-0.0066404119 0.0064056851 -0.018664099 4282412878
-0.0051135421 0.0080647226 -0.020042909 4282020689
-0.0032890737 0.0081053339 -0.020150637 4282085969
-0.0013077259 0.0073369369 -0.01962324 4282020943
0.00083865225 0.0057597887 -0.018461302 4282020433
0.0029957592 0.004182918 -0.017299892 4282020434
0.0048332289 0.0042241849 -0.017408114 4282150738
0.0066705495 0.0042655077 -0.017516283 4282150994
0.0086783171 0.0034981798 -0.01699017 4282150738
0.010864705 0.0019223485 -0.015830273 4282541908
0.0127097 0.0019641016 -0.015938703 4282738258
0.014733315 0.001197366 -0.015413344 4282542674
0.016036257 0.0036648586 -0.017422471 4282151249
0.01824373 0.0020898096 -0.016263587 4282150738
0.019901164 0.0029402077 -0.017005013 4282019670
-0.0089083165 -0.0032536527 -0.013190072 4282612543
-0.0079274252 0.0016562659 -0.017104195 4282412623
-0.0065328926 0.0041313469 -0.019114675 4282608208
-0.0047002584 0.0041720271 -0.019222969 4282281299
-0.0027135089 0.0034015123 -0.018697631 4282216274
-0.000878416 0.0034424346 -0.01880593 4282085458
0.0012758821 0.0018610433 -0.017647671 4282020179
0.0031161159 0.0019022841 -0.017756121 4282020179
0.0051213205 0.0011325106 -0.017231628 4282150229
0.0069639683 0.0011739526 -0.017340112 4282215509
0.0089769959 0.00040455349 -0.016815934 4282411349
0.010822065 0.00044622272 -0.01692443 4282541908
0.012666978 0.00048793852 -0.01703288 4282607699
0.014690414 -0.00028100051 -0.016509147 4282411603
0.016356297 0.00057162344 -0.017249558 4282216018
0.018200718 0.00061355717 -0.017357811 4282085459
0.019858137 0.0014661308 -0.018097619 4281561944
-0.0089499503 -0.0047381176 -0.014290508 4283266363
-0.0078227967 -0.0006287992 -0.017562527 4282542928
-0.006425485 0.0018528327 -0.019568348 4282673744
-0.0045902431 0.0018935651 -0.019676799 4282346578
-0.0024467483 0.00030738954 -0.018521279 4282281298
-0.00044945627 -0.00046499353 -0.017998129 4282216018
0.001553148 -0.0012371633 -0.017475219 4281758039
0.0033987164 -0.0011958415 -0.017584015 4282214999
0.0050790757 -0.00034122728 -0.018324042 4282345814
0.0070893839 -0.0011129547 -0.017801387 4282280279
0.014290303 -0.00013337098 -0.018865826 4282476118
0.015950724 0.00072127394 -0.019604323 4282149974
0.017973691 -4.972145e-05 -0.019082081 4281952858
-0.0091348067 -0.0054064943 -0.016021755 4283788603
-0.0077182651 -0.0029180404 -0.018023957 4282282063
-0.0060207993 -0.0020614211 -0.018763786 4282281808
-0.0038747191 -0.0036519347 -0.017611759 4282412624
-0.0018719956 -0.0044265185 -0.017090579 4282215763
-2.0831823e-05 -0.0043852627 -0.017199848 4282150229
0.0018301979 -0.0043439269 -0.017309044 4282149719
0.0036810935 -0.0043025222 -0.017418178 4282411094
-0.0059136972 -0.0043526078 -0.019226857 4283131469
0.017682292 -0.0050388612 0.048387062 4282667624
0.018994093 -0.001967825 0.045577541 4282339183
0.020458728 0.0003463272 0.043442197 4278334919
0.027132325 -0.0025440864 0.04578235 4279127459
0.00088956952 -0.0032034572 0.044779196 4281093763
0.002276659 -0.00012279116 0.041971147 4280569229
0.0034887716 0.0037165843 0.03849202 4278272189
0.0075736567 0.0030449592 0.038932338 4279057588
0.010183945 5.3210184e-05 0.041504249 4280305814
0.012160264 9.7433105e-05 0.041387726 4278800294
0.014302976 -0.00061706081 0.041942991 4278866084
0.016112231 0.00018619187 0.041154969 4278668714
0.017743789 0.0017480198 0.039696049 4278668203
0.02617123 -0.00034891255 0.041245177 4278995114
0.029633738 -0.0063708704 0.046493366 4280438668
-0.0015777498 -0.0025555473 0.041702367 4280371603
-0.00018762797 0.00053381547 0.038900554 4278865573
0.0011804998 0.0036227964 0.036100112 4278930343
0.0028325543 0.0051888507 0.034642715 4278795448
0.0047848597 0.0052322578 0.034527399 4278663359
0.0093332753 0.0022749677 0.036978487 4278471853
0.011459693 0.0015578382 0.03753303 4278603688
0.013424791 0.0016019307 0.037417255 4278538409
0.018969335 0.0032563768 0.035731323 4279586458
0.021105558 0.002539983 0.036285594 4279390363
0.023246981 0.0018237531 0.036839671 4278732974
0.025393628 0.0011077486 0.037393443 4279192484
0.028473459 -0.0034107976 0.04129155 4279127459
-0.0020563304 -0.001850347 0.038517717 4281614473
-0.00067427009 0.0012475755 0.035722874 4278995878
0.0023296922 0.0059153121 0.031475782 4279848599
0.0041181073 0.0067219529 0.030691924 4278996643
0.0062175095 0.0060019027 0.03124626 4278667948
0.0088053122 0.0029922035 0.033806592 4278865064
0.010759607 0.0030359719 0.033691399 4278865573
0.012713693 0.0030798558 0.033576306 4278538409
0.020527907 0.0032562111 0.033116706 4278926518
0.022661008 0.0025376752 0.033669624 4278664633
0.024799317 0.0018193368 0.03422229 4278796468
0.027313925 -0.0004243087 0.036109321 4278537133
0.030785821 -0.0064807814 0.041331142 4281358199
-0.0022452548 -0.0026634615 0.036679178 4282858364
-0.00086580962 0.00044314004 0.033890985 4279389344
0.0081166998 0.0044883061 0.029977454 4278470833
0.010059983 0.0045318622 0.029862935 4278538154
0.012003079 0.0045754891 0.029748483 4278538409
0.014284238 0.0030886717 0.030967386 4278735013
0.016404219 0.0023674052 0.031519268 4278537133
0.02012793 0.0032207593 0.030623838 4278598079
0.0220754 0.0032649375 0.030509466 4279124144
0.024205379 0.0025442559 0.031061023 4278668714
0.026526056 0.0010588188 0.032278039 4278734248
0.029798292 -0.0042505013 0.036822066 4278997408
-0.001057215 -0.00035667606 0.032062516 4279848598
0.00059771538 0.0012224615 0.030614624 4278602923
0.0077504292 0.0044668391 0.027492434 4278668969
0.0096881464 0.0045102742 0.027378244 4278669223
0.011459313 0.0053213164 0.026598966 4278472619
0.013562992 0.0045974292 0.027150124 4278538664
0.015843727 0.0031063091 0.028365938 4278407594
0.017786078 0.0031502191 0.02825175 4278669734
0.019728199 0.0031942334 0.028137658 4278408103
0.021490157 0.0040055085 0.027359249 4278669989
0.023246437 0.0048167948 0.026581196 4278800039
0.025553294 0.0033267122 0.027795808 4278734759
0.028623268 -0.001231146 0.031665437 4278472363
0.032107353 -0.007322154 0.036860738 4281160319
-0.0015430301 0.00038843788 0.028908087 4280306324
-4.6238303e-05 0.002741823 0.026799403 4278931619
0.0017394423 0.0035548918 0.026020529 4278866339
0.0035194829 0.0043679308 0.025242062 4278604454
0.0054520369 0.0044110809 0.025128054 4278604199
0.0070626661 0.0059939828 0.023686308 4278538664
0.0089893937 0.0060372073 0.023572795 4278538918
0.010583311 0.0076198932 0.022132227 4278474149
0.012504198 0.0076631457 0.022019176 4278802078
0.014768355 0.0061673503 0.023232693 4278933403
0.017043203 0.0046718437 0.024445688 4278868634
0.018974356 0.0047156122 0.024332246 4279130773
0.027637064 0.0010454133 0.027190665 4278799529
0.031106934 -0.0050633196 0.03237386 4280044694
0.034620039 -0.011170946 0.03755454 4280241298
-0.0026172325 0.0042361449 0.023111237 4282141814
-0.0011394247 0.0065955985 0.021008575 4278866848
0.00077974796 0.0066382661 0.020895217 4278670499
0.0023880303 0.0082252938 0.019456718 4278801313
0.029916413 -0.002011084 0.027242776 4279390109
0.033606067 -0.0089078145 0.033071883 4282471785
0.023935236 0.0048472546 0.019061672 4278928814
0.026230298 0.0033439826 0.020267295 4278470324
0.02910798 -0.00047954265 0.023449114 4278930854
0.032399349 -0.0058492161 0.027946822 4281029248
0.023334831 0.0056364406 0.01594867 4279455389
0.025433652 0.0049043335 0.016494162 4278536369
0.02791886 0.0026211161 0.018353919 4278864554
0.03119339 -0.0027642297 0.022841329 4278996134
0.034897782 -0.009699706 0.028640516 4281684853
0.027492628 0.0026366152 0.015900988 4278995624
0.030181445 -0.00043065567 0.018410886 4278669223
0.033871576 -0.0073860576 0.024196338 4282536808
0.022320203 0.0064745396 0.010406662 4278280604
0.024405114 0.0057377629 0.010949736 4278997153
0.026495248 0.0050012358 0.011492523 4278538154
0.029363304 0.0011449698 0.014650658 4278734759
0.032846011 -0.005050377 0.019768493 4280702338
0.026069693 0.0050412081 0.0090576597 4278800293
0.02854567 0.0027382374 0.010903506 4279128224
0.031821102 -0.0026926752 0.015356896 4279193759
0.035729967 -0.010468765 0.021764113 4282340203
0.030796804 -0.00031301193 0.010961651 4279520414
0.034492895 -0.0073269652 0.016703129 4279455643
0.029968902 0.0013021752 0.0072316462 4279192229
0.033455029 -0.0049452065 0.012310469 4280897158
0.024604432 0.006003337 0.0011452525 4278801568
0.026867621 0.0044690594 0.0023302308 4278668203
0.029141515 0.0029350165 0.0035146531 4278865319
0.032616161 -0.0033300472 0.0085811969 4278996389
0.036134072 -0.0095940735 0.013645316 4282208879
0.026244693 0.0053332187 -0.00072525721 4278403769
0.031579554 -0.00090652984 0.0042194845 4278996388
0.035083279 -0.0071882932 0.0092714895 4280111758
0.02846583 0.0022886526 -0.00065987627 4278537643
0.030741811 0.00074605271 0.00051795086 4278734504
0.033832207 -0.0039677117 0.0042702057 4278275759
0.037565976 -0.01105899 0.0099513493 4281226619
0.025963657 0.003125336 -0.0035938076 4278801314
0.028030597 0.0023731068 -0.0030608671 4278735014
0.029904611 0.0024162084 -0.0031704884 4278734759
0.0327828 -0.0015157945 -6.9424976e-05 4278931364
0.036298729 -0.0078320233 0.0049559609 4282667879
0.027400255 0.0032638051 -0.0060961414 4279259804
0.02926603 0.0033067036 -0.0062052906 4279259295
0.031533234 0.0017552339 -0.0050333948 4278997154
0.035235815 -0.0053759152 0.00062046666 4279193503
0.03919331 -0.013303004 0.0069116764 4281227129
0.025105163 0.0033255499 -0.0083734207 4278935698
0.03048522 0.0042532068 -0.009338893 4278864044
0.033970118 -0.0020985836 -0.0043375241 4279324319
0.038116768 -0.010847062 0.0025770895 4282144363
0.024483807 0.0042407792 -0.011391137 4278999193
0.033315398 -0.0011994168 -0.0073646596 4279519394
0.036834791 -0.0075677498 -0.0023781979 4280242318
0.040188633 -0.013133694 0.0019689538 4282602599
0.024440266 0.0027574245 -0.012490602 4279981453
0.026097231 0.0036037322 -0.013235033 4279127458
0.027946487 0.0036461931 -0.013343258 4279126439
0.02979555 0.0036887098 -0.013451429 4278929323
0.032661118 -0.00028708298 -0.010381967 4278997153
0.035759673 -0.0050657773 -0.0066786716 4280569228
0.027902871 0.0021651443 -0.014441004 4278536879
0.029751875 0.0022076238 -0.014549196 4278404024
0.03200724 0.00063849986 -0.013389528 4278865828
0.03447926 -0.0017361501 -0.011596671 4278276779
0.038219601 -0.0089446809 -0.0060031917 4281094274
0.021932237 0.0021739434 -0.016479867 4280178314
0.025425032 0.0030665249 -0.017328678 4278271423
0.027463749 0.0023006052 -0.016803853 4278402748
0.031353779 0.0015773084 -0.016387289 4278865829
0.033817396 -0.00080407597 -0.014598804 4278604199
0.03713166 -0.0064166263 -0.010283309 4279260059
0.021509953 0.00231863 -0.018837061 4278933404
0.023156166 0.0031710882 -0.019576106 4278604454
0.025186762 0.0024027321 -0.019052479 4278736033
0.027420349 0.00082424842 -0.017898124 4278932639
0.0294642 5.6292862e-05 -0.017375203 4278800803
0.031310171 9.871088e-05 -0.01748321 4278931363
0.033773512 -0.0022892216 -0.015699573 4278931619
0.036670156 -0.0062968656 -0.012656138 4278407848
0.040016308 -0.011923894 -0.0083538173 4281815924
0.021656446 3.4177676e-05 -0.019298101 4279129753
0.023305349 0.00088883005 -0.020035721 4279390109
0.025728397 -0.0015067644 -0.018254807 4279325083
0.027969941 -0.0030895015 -0.01710414 4279325339
0.029821433 -0.0030470435 -0.017212538 4278866849
0.03146968 -0.0021921657 -0.017949941 4279128734
0.033729702 -0.0037742462 -0.016800256 4279325849
0.03641744 -0.0069805849 -0.014393665 4279915663
0.039549135 -0.011810681 -0.010731088 4280898433
0.042499311 -0.015827896 -0.0076988144 4282536553
0.044609882 -0.016596248 -0.0071811564 4282863974
0.016270593 -0.0023803376 -0.019437624 4281163633
0.018114835 -0.0023384439 -0.019545892 4281095804
0.020332374 -0.0039263517 -0.018397257 4280964224
0.021992281 -0.0030693132 -0.019134009 4280112523
0.024030916 -0.0038420148 -0.018614147 4280047244
0.026074849 -0.0046144798 -0.018094584 4279654543
0.028321594 -0.0062014069 -0.0169475 4279391383
0.030178428 -0.0061588548 -0.01705623 4279784594
0.032035127 -0.0061162561 -0.017164918 4280112013
0.033891648 -0.0060735904 -0.017273542 4280177293
0.03637334 -0.0084741674 -0.015500691 4280636293
0.046022616 -0.016443895 -0.0096714385 4282340204
0.0054894686 -0.005740935 -0.018624227 4281426539
0.0088496059 -0.0040228209 -0.020097699 4281488250
0.011040531 -0.0056160595 -0.018951016 4281291644
0.013066389 -0.0063916128 -0.018432382 4280898434
0.014561966 -0.0047151297 -0.019795857 4280898944
0.016227774 -0.0038560592 -0.020531468 4280833408
0.018071942 -0.0038142148 -0.020639768 4281095294
0.02010259 -0.0045893621 -0.020121196 4281226619
0.022138536 -0.005364391 -0.019602861 4280767619
0.024371833 -0.006956134 -0.01845834 4280833154
0.02642104 -0.0077306689 -0.017940715 4280570758
0.028277986 -0.0076882094 -0.018049523 4280767620
0.030134767 -0.0076456936 -0.018158276 4280767619
0.031788446 -0.0067864116 -0.018892815 4280570758
0.033847854 -0.0075605037 -0.018375631 4280177293
0.036329292 -0.0099676643 -0.016607655 4281751154
0.0088072121 -0.0054982956 -0.021191392 4281881203
0.010651879 -0.0054567289 -0.021299936 4281487993
0.013199329 -0.0086931549 -0.018905103 4281029504
0.014876135 -0.0078317933 -0.019639846 4281357434
0.016728513 -0.0077898325 -0.019748678 4281226109
0.018029094 -0.0052898433 -0.021733541 4281160828
0.019873008 -0.0052479431 -0.021841779 4281029759
0.022284724 -0.0076636327 -0.020074874 4280832898
0.024520531 -0.0092596905 -0.018933751 4280898433
0.026182815 -0.0083982395 -0.019667327 4280767620
0.028036989 -0.0083558708 -0.019775994 4280898689
0.029890984 -0.0083134715 -0.019884624 4280701828
0.032150619 -0.0099088224 -0.018744703 4280963204
0.034215316 -0.010684997 -0.018229466 4280766088
0.036493607 -0.01227976 -0.017090594 4282602343
-0.035958208 -0.01950923 -0.01074646 4283058284
0.0070876479 -0.0078369547 -0.021551672 4282012019
0.0087648407 -0.0069736391 -0.022284988 4281290878
0.010955341 -0.0085756406 -0.021144785 4280767109
0.012980871 -0.0093555907 -0.020629395 4280897923
0.015011683 -0.010135352 -0.020114264 4281225854
0.016685598 -0.0092718368 -0.020847185 4281291389
0.018353917 -0.0084083732 -0.021579724 4281225854
0.020016663 -0.0075449273 -0.022311926 4281029248
0.022241578 -0.0091457255 -0.021173429 4280963458
0.024477169 -0.010746165 -0.020035546 4280963968
0.026139461 -0.0098825963 -0.020767551 4280701828
0.027993537 -0.0098402668 -0.020876238 4281095040
0.02984748 -0.0097978907 -0.020984882 4280898689
0.032106914 -0.011397612 -0.019848194 4281028483
0.03396596 -0.011355027 -0.019957069 4279783573
0.0056920946 -0.011827996 -0.020668108 4283059049
0.0072128177 -0.010138353 -0.022023626 4281225598
0.0090628788 -0.010096822 -0.022132605 4281160573
0.010912798 -0.010055209 -0.02224151 4280702083
0.013113789 -0.011661223 -0.021105159 4281029249
0.014968857 -0.01161934 -0.021214252 4281291644
0.017004795 -0.012401125 -0.020701014 4281488249
0.018862292 -0.01235905 -0.02081015 4281357179
0.020533152 -0.011493349 -0.021541214 4281160063
0.022576831 -0.012274777 -0.021028295 4280897923
0.024433851 -0.012232519 -0.021137256 4280963204
0.026096128 -0.01136681 -0.021867666 4280962948
0.027950168 -0.011324516 -0.02197638 4280964734
0.029804029 -0.01128219 -0.022085054 4280637569
0.032266028 -0.013709537 -0.020330615 4280309894
0.03412772 -0.013666922 -0.020439666 4280702339
0.0058144405 -0.014137932 -0.021146268 4282535023
0.0075052977 -0.013270129 -0.021877283 4281291133
0.0090204701 -0.011576207 -0.023229204 4281160318
0.011215962 -0.013186806 -0.022095842 4281225853
