# .PCD v0.7 - Point Cloud Data file format
VERSION 0.7
FIELDS x y z rgba
SIZE 4 4 4 4
TYPE F F F U
COUNT 1 1 1 1
WIDTH 965
HEIGHT 1
VIEWPOINT 0 0 0 1 0 0 0
POINTS 965
DATA ascii
0.0062356181 -0.0096015986 0.0070933904 4282941239
0.0086005516 -0.01186844 0.0089558568 4282679608
0.010691937 -0.012592592 0.0094912145 4283073329
0.01308376 -0.014858547 0.011352092 4284444463
-0.017402597 -0.0093799531 0.005483089 4279146838
-0.01568966 -0.0077867135 0.0040276777 4279671118
-0.013763499 -0.0077416562 0.0039003063 4280128334
-0.011952266 -0.0069225542 0.0031096116 4279736653
-0.010146588 -0.0061034672 0.0023193695 4279997774
-0.0083464719 -0.0052843876 0.0015295893 4280258893
-0.0063059032 -0.0060128346 0.002065992 4280324938
-0.004511483 -0.0051936656 0.001276752 4280782408
-0.0027226321 -0.0043744389 0.00048794597 4281043528
-0.00067699328 -0.0051024649 0.0010243151 4282283848
0.0016417466 -0.007377211 0.0028846692 4282286398
0.0039766803 -0.0096514784 0.0047440995 4282874684
0.006188456 -0.011151848 0.0059407074 4282548283
0.0085530505 -0.013425206 0.0077983383 4282809914
0.010933828 -0.015698062 0.0096549932 4283725619
-0.014032979 -0.0077284202 0.0014318302 4279407958
-0.012112506 -0.0076834038 0.001304904 4279997009
-0.010309644 -0.0068621822 0.00051649101 4279998793
-0.0083921216 -0.0068169814 0.00038995035 4279998539
-0.006597653 -0.0059956852 -0.00039777718 4280064329
-0.0046830848 -0.0059503354 -0.00052396022 4280325958
-0.0028970242 -0.0051290449 -0.0013109185 4280652614
-0.00072320551 -0.0066350494 -0.00011526607 4281238859
0.0014613569 -0.0081406459 0.0010797177 4280717893
0.0037932433 -0.010421529 0.0029344652 4281109318
0.005723469 -0.010375209 0.0028076973 4282154819
0.0080795474 -0.012655243 0.0046609845 4283070013
-0.012272626 -0.00843958 -0.00049632601 4279406683
-0.010472573 -0.0076162126 -0.0012829769 4279083598
-0.0086780675 -0.0067929067 -0.0020691361 4279998793
-0.0067662448 -0.0067477264 -0.0021952149 4279868744
-0.0051057488 -0.0051463209 -0.0036400808 4280194634
-0.0030712858 -0.005879024 -0.0031063445 4280456008
-0.00090047717 -0.0073893964 -0.0019137729 4280977993
0.0014148653 -0.0096772891 -6.2869862e-05 4280130373
0.0036099143 -0.011186857 0.0011282731 4280651593
0.005398076 -0.010362893 0.00034313463 4281368144
0.0074645095 -0.011094268 0.00087519363 4282151248
-0.0088436641 -0.0075402688 -0.0038633328 4279211098
-0.0069347098 -0.0074951388 -0.0039892104 4279672904
-0.0051514171 -0.0066696685 -0.0047728177 4279935299
-0.0032454245 -0.0066243783 -0.0048983274 4280651594
-0.0010776035 -0.0081391782 -0.0037088105 4280453968
0.0011009797 -0.0096536297 -0.0025198581 4278819930
-0.0072257891 -0.0074554533 -0.0064361496 4279342679
-0.0053225569 -0.0074103437 -0.0065615634 4279343953
-0.0032912306 -0.0081474576 -0.006030851 4279998283
-0.0015164241 -0.0073197857 -0.0068121087 4278950998
0.012739841 -0.0037702564 -0.012858134 4284638774
0.012540732 -0.0044914968 -0.01463004 4284704308
0.012003954 -0.010419814 -0.021509107 4284704818
-0.0058553964 0.043592311 0.030285008 4279118788
-0.0043333396 0.045768023 0.028029762 4279906993
-0.002436772 0.04581248 0.02790441 4279513274
-0.011615559 0.041931473 0.029527299 4281090193
-0.010068424 0.044114076 0.027275093 4278990014
-0.0050159395 0.047809891 0.023357958 4278790859
-0.0030028597 0.047141545 0.023941491 4279185088
-0.0012504905 0.047898293 0.023109198 4278528973
0.0013106503 0.044380657 0.026522938 4278528974
-0.012592718 0.046124227 0.022733554 4279448758
-0.010709453 0.046168044 0.022608839 4278793409
-0.0088263303 0.04621195 0.022484213 4278857159
0.00045139715 0.047147468 0.021156263 4278792644
0.0027460568 0.045048296 0.023149692 4278988739
0.0050569065 0.042949565 0.025142111 4278923968
-0.015848268 0.040940411 0.025390331 4280954788
-0.014975216 0.047439903 0.018912468 4278854863
-0.0092365816 0.04685358 0.019245829 4279579064
-0.0072372109 0.046180405 0.019826908 4279120318
-0.0057422034 0.048375249 0.017588194 4278595018
-0.0018716268 0.047746301 0.018045884 4278791114
0.00027091801 0.046356909 0.019331079 4278990014
0.002009213 0.047117941 0.018503159 4278857924
0.0038829409 0.047162309 0.018379662 4279119809
-0.017681278 0.038656533 0.025089983 4280693669
-0.016669378 0.044456758 0.019329239 4278856648
-0.015360128 0.048097633 0.015683971 4278460633
-0.013728958 0.04957974 0.014152553 4278327524
-0.009646479 0.04750862 0.016017418 4279383479
-0.0076554678 0.046833038 0.01659748 4279055293
-0.0059138611 0.047596045 0.015770674 4279055548
-0.0039176829 0.046920769 0.016350534 4278990269
-0.0020490326 0.046964787 0.016227193 4278923968
-0.00018053129 0.047008879 0.016103927 4278727364
0.0015495196 0.047771983 0.015278164 4278530503
0.0034149438 0.047816187 0.015155233 4278529485
0.0051364712 0.048579238 0.014330219 4278398669
0.0069988146 0.048623554 0.014207628 4278463184
-0.019941587 0.039255902 0.02197469 4279972784
-0.018699165 0.04363025 0.01763181 4278266324
-0.017267771 0.046560541 0.014696602 4279318453
-0.01563102 0.048047073 0.013168011 4279974058
-0.014005311 0.049533494 0.011640199 4279448758
-0.011914212 0.048133589 0.012921926 4279120064
-0.010177843 0.048898496 0.012096973 4278988994
-0.0080733635 0.047499113 0.013377972 4279252154
-0.0062127039 0.047542773 0.01325503 4278794174
-0.0042221732 0.046865255 0.013833616 4278990779
-0.0024918318 0.047630347 0.013009384 4279122104
-0.00049616769 0.046953149 0.01358778 4278925243
0.0012283958 0.047718301 0.012764074 4279186873
0.0066610649 0.048571765 0.01169635 4280499104
0.0083685406 0.049336903 0.010873986 4280237219
0.010981385 0.045777425 0.014252257 4279252409
0.013621289 0.042218715 0.017628767 4278727619
-0.021568988 0.035524502 0.023078129 4280561833
-0.020512447 0.041360535 0.017340384 4278859198
-0.010465167 0.048858821 0.0095905066 4278923713
-0.0086154006 0.048902154 0.0094682351 4279121338
-0.0066385455 0.04822205 0.010046039 4278925243
-0.0047863275 0.048265629 0.0099237449 4278925243
-0.0029342733 0.048309311 0.0098015442 4278925243
-0.0010823719 0.048353069 0.0096794143 4279186619
0.00090749189 0.047673665 0.010256644 4279382714
0.0029026531 0.04699444 0.010833642 4278595784
0.012957487 0.043601729 0.013714276 4279055293
-0.021612942 0.034002706 0.021946412 4280236198
-0.020450689 0.039130047 0.01692152 4278925243
-0.019002553 0.0420781 0.013998237 4279514294
-0.017687153 0.045751899 0.010376949 4278267343
-0.01050885 0.047376506 0.0084882211 4279055293
-0.0086592063 0.047419854 0.0083659682 4278990013
-0.0068096966 0.047463298 0.0082438048 4279186619
0.00072489679 0.046912573 0.0084536243 4278726853
0.0027171411 0.046231158 0.0090291612 4279381438
0.0042840987 0.047725916 0.0075125378 4279053254
0.0061324798 0.047769986 0.0073909331 4278726854
0.0079806671 0.047814168 0.0072694328 4278399178
0.010283772 0.045683026 0.0092383083 4279186108
0.013220746 0.040652163 0.013992503 4279187639
-0.021144204 0.028838864 0.024306808 4282398853
-0.019862719 0.033253394 0.019990642 4279976098
-0.01850608 0.036938943 0.016374741 4278925243
-0.017287571 0.041352287 0.012062872 4279316159
-0.016101919 0.045764923 0.0077532958 4279579064
-0.014484368 0.04726427 0.0062358752 4279186108
-0.012640044 0.047307327 0.006113857 4278988738
-0.01067419 0.046622455 0.0066890158 4279251899
-0.0088273957 0.046665773 0.006566979 4278923969
-0.0071078353 0.047437064 0.0057482757 4278792644
0.0023910105 0.046200037 0.006532317 4278857159
0.0040959939 0.046971552 0.0057150014 4279250879
0.0059415326 0.047015592 0.0055936165 4279251899
0.0080846995 0.045604996 0.0068629328 4279383479
0.010845128 0.041285448 0.01091223 4279383224
-0.020778582 0.024384098 0.025954425 4282005644
-0.019275527 0.027350852 0.02304044 4280369309
-0.017794397 0.030317208 0.020127993 4279845029
-0.016667191 0.035474531 0.01512846 4278795449
-0.015464913 0.03990072 0.010827532 4278990778
-0.014063247 0.042865545 0.0079205893 4279120064
-0.012445822 0.044369392 0.0064065289 4278792133
-0.010717858 0.045142874 0.0055887625 4279054784
-0.0088711828 0.045186214 0.0054667555 4278988228
-0.0054377727 0.046733208 0.0038330406 4279514039
-0.0037294663 0.04750663 0.0030168705 4279581869
-0.0017563477 0.046820275 0.0035903119 4279317433
8.4131956e-05 0.046863951 0.003469076 4278726853
0.0020651147 0.046177924 0.0040421821 4279186109
0.0040513761 0.04549215 0.0046149679 4279251389
0.0064812712 0.042617716 0.0072691161 4279120828
0.0090816282 0.039014339 0.010615604 4279317434
-0.020515908 0.020644994 0.026894081 4281221009
-0.018899392 0.022887887 0.024681058 4280304029
-0.017191488 0.024397841 0.023163926 4279976354
-0.0157158 0.027372891 0.020258494 4279320494
-0.014488708 0.031812772 0.015965704 4279189424
-0.01329447 0.036251962 0.011675226 4278860983
-0.011895519 0.039225571 0.0087750573 4279318454
-0.010518525 0.0421988 0.005876435 4279448759
-0.0090392269 0.044439234 0.0036730506 4279382203
-0.0039058626 0.04676608 0.0012286585 4278660809
-0.0020708032 0.046809562 0.0011077281 4278528973
0.0017394461 0.046164855 0.0015586987 4278792134
0.0042933784 0.04254929 0.004899973 4279120318
0.0073125549 0.036739007 0.010316307 4279383223
0.013784174 0.023658505 0.022524364 4280106914
0.01693904 0.017851783 0.027932003 4280962439
0.020137291 0.012046227 0.033336814 4281421948
-0.020355958 0.017628038 0.027130742 4280762264
-0.018733941 0.01987767 0.024922214 4280106659
-0.016912777 0.020657225 0.024101187 4279910308
-0.015318252 0.022906417 0.02189463 4279516588
-0.013626933 0.024420554 0.020382077 4279648168
-0.012410618 0.028873375 0.016099919 4279386028
-0.010989718 0.031856261 0.013204839 4278728383
-0.00983366 0.036307879 0.0089268181 4278597314
-0.0084621161 0.039289825 0.0060351621 4279382458
-0.0072394237 0.043005794 0.0024531484 4279055294
0.0021166913 0.042490117 0.002536878 4278858178
0.0049648695 0.037395746 0.0072511155 4279579573
0.008580979 0.028632341 0.015416082 4279712938
0.011964869 0.021338498 0.022195924 4280830603
0.014948782 0.016247628 0.026901506 4281487229
0.017662313 0.012625394 0.030224469 4281749113
-0.020298567 0.015339894 0.026669227 4281220243
-0.018568754 0.016858971 0.025157139 4280237218
-0.01684995 0.018377954 0.023645829 4279975588
-0.015142169 0.019896748 0.022135377 4279976354
-0.013445407 0.021415437 0.020625696 4279911073
-0.011991523 0.02440769 0.017734919 4279319983
-0.010440931 0.026662769 0.015536424 4279451309
-0.0091495998 0.030391084 0.011957897 4279058608
-0.0078856722 0.034118846 0.0083812345 4279189679
-0.0067759939 0.038582757 0.0041161887 4278989504
-0.0056991652 0.043045923 -0.0001465939 4279448503
-0.0041260496 0.044562407 -0.0016475096 4278790859
-0.0025639944 0.046078771 -0.0031476738 4278988484
-0.00018653274 0.043176681 -0.00050976872 4279316414
0.0026339814 0.038066253 0.0041948725 4279251134
0.0060652643 0.030011879 0.011653779 4279778219
0.0097022615 0.021222839 0.019797862 4280171939
0.012809884 0.015379945 0.025182385 4281158533
0.015204061 0.013218416 0.027120981 4281815159
0.017614413 0.011057368 0.029058579 4281945974
-0.020241316 0.013047671 0.026204668 4282006664
-0.018508781 0.014571199 0.02469568 4280630683
-0.016679585 0.015355313 0.023877382 4279910308
-0.015076764 0.017617853 0.021680091 4279386794
-0.013151009 0.017662684 0.021552589 4280042399
-0.011804692 0.02140299 0.017978404 4279583143
-0.010129984 0.022925721 0.016473651 4279321004
-0.0085876472 0.025187286 0.014280688 4279255723
-0.0070618019 0.027448563 0.012088891 4278993329
-0.0059327669 0.031925991 0.0078323837 4279189424
-0.0050955936 0.037880279 0.0022011939 4278859964
-0.0039055124 0.04161755 -0.0013621971 4279317178
-0.0020680837 0.041661143 -0.001483243 4279054529
0.00059523806 0.037273519 0.002523303 4279644854
0.0038527399 0.029932709 0.0092787482 4279579574
0.0073077045 0.021854935 0.016718209 4280434078
0.010530744 0.015255393 0.022779074 4281289603
0.013059754 0.012348624 0.025400817 4281749624
0.015459057 0.010180732 0.027334165 4281946229
0.017874528 0.0080132987 0.02926657 4281946483
-0.016617101 0.013065735 0.02341437 4280630683
-0.015011497 0.015334887 0.021221776 4279909799
-0.013196234 0.016121125 0.020406228 4279583654
-0.011733923 0.019131111 0.017527901 4279321004
-0.010175027 0.02139947 0.015338697 4279714214
-0.0083901286 0.022185361 0.01452535 4279714214
-0.0067347735 0.023712231 0.013025304 4279451819
-0.0053438954 0.026720984 0.010152033 4279321003
-0.00436325 0.031952105 0.0052198153 4279321004
-0.0031566247 0.035700746 0.0016634464 4279386539
-0.0013029724 0.035744756 0.0015413612 4279123379
0.0015138164 0.030603642 0.0062234234 4280041379
0.0049299411 0.022500856 0.013647471 4281092744
0.008262787 0.01514023 0.020381752 4281749113
0.010921057 0.011483664 0.023683794 4281880694
0.013309326 0.0093088988 0.025612928 4282208114
0.015562531 0.0078749824 0.026855733 4282404719
0.018134367 0.0049607437 0.029468324 4282535789
-0.014836095 0.012304252 0.021446943 4281350803
-0.013015445 0.013092833 0.020632617 4280500634
-0.011547562 0.016111666 0.017760497 4279845028
-0.0099831671 0.018386764 0.015575785 4279385264
-0.0083140582 0.019918224 0.014078017 4279845028
-0.0064081587 0.01996308 0.013952196 4279779493
-0.004755687 0.021494424 0.01245565 4279517609
-0.003502354 0.025254929 0.0089043118 4279320748
-0.0021443479 0.028271878 0.006039897 4279450798
-0.00013418868 0.027573431 0.0066012312 4279778729
0.0024314448 0.023903532 0.0099009834 4280370328
0.0054449923 0.018005764 0.015252504 4281355138
0.0082159676 0.013594778 0.019232623 4281880694
0.010873761 0.0099273268 0.022526581 4282077554
0.013261717 0.0077460278 0.024450861 4282273649
0.015816998 0.0048225839 0.027057976 4282535534
0.018547777 0.0011572484 0.030347336 4282666348
-0.011361483 0.01308381 0.017986771 4282465664
-0.009673167 0.014620008 0.016490933 4280826778
-0.007995896 0.016156098 0.014995858 4280499358
-0.0063296482 0.017691998 0.013501637 4279910308
-0.0046744607 0.019227782 0.012008181 4279910308
-0.0032889023 0.022254007 0.0091483854 4279910308
-0.0016612411 0.023789311 0.0076569505 4279976608
0.00022486225 0.023834137 0.0075327568 4280107424
0.0026607439 0.020898635 0.010140847 4280762263
0.0053986683 0.016473668 0.014113296 4281746818
0.0081691146 0.012049595 0.018083699 4282403699
0.010826457 0.0083712544 0.021369565 4282469744
0.013510842 0.0046937186 0.024653699 4282731629
-0.009363573 0.010840503 0.017396521 4281613709
-0.007920254 0.0138765 0.014539193 4281024149
-0.006251283 0.015416844 0.013048058 4280106403
-0.0047198795 0.017704615 0.01087556 4279648168
-0.0032049567 0.019992059 0.0087042693 4279910564
-0.0015745908 0.021531871 0.0072158929 4280566678
0.00031412393 0.021576764 0.0070915315 4280566678
0.0026149154 0.019379893 0.0090115611 4280369563
0.0053523108 0.014941869 0.012974311 4282267529
0.0079793856 0.011251861 0.016253933 4282531708
0.010779124 0.0068154838 0.020212777 4282664053
-0.0061730668 0.013137596 0.012591435 4281679754
-0.004765328 0.016181728 0.0097431485 4280500635
-0.0033795163 0.01922542 0.0068963654 4280435099
-0.0016199648 0.020019909 0.0060916301 4280369054
0.00040322915 0.019315304 0.0066472702 4280499868
0.0027064234 0.01711197 0.0085622799 4280956573
0.0054460242 0.01266093 0.012515131 4282396814
-0.003037516 0.015456008 0.0078068525 4280828309
-0.0014016852 0.017004652 0.0063246805 4280434333
0.00076131523 0.015546309 0.0075567234 4280499868
0.0030723587 0.013336631 0.0094663426 4280562089
0.0056795925 0.0096242968 0.012730964 4282528649
-0.0025668964 0.010919774 0.0093849096 4283317108
-0.00092016533 0.012473041 0.0079052784 4281548428
0.0011189841 0.011764502 0.0084566511 4281155218
0.0035750829 0.0087946672 0.011037439 4281611413
-0.025993859 -0.016554726 0.014603075 4280110483
-0.024510743 -0.012648473 0.011141272 4279324064
-0.022759289 -0.01105924 0.0096797217 4278673559
-0.028091455 -0.017392959 0.012902554 4281814394
-0.025034532 -0.010333313 0.0066601019 4278273973
-0.023198251 -0.0095143616 0.0058672037 4278930599
-0.021063864 -0.011018228 0.0070676673 4279457174
-0.030008165 -0.019779805 0.012532389 4279259293
-0.028677862 -0.014298017 0.0077579692 4278800293
-0.021513496 -0.0094602443 0.0032658186 4279389598
-0.019691087 -0.0086391866 0.002475651 4279259549
-0.032438602 -0.017496679 0.0081866719 4279455388
-0.030840134 -0.014336457 0.00540906 4278472108
-0.029263519 -0.0111766 0.0026329998 4278538153
-0.027615841 -0.0087959934 0.00052012131 4279062944
-0.025697669 -0.0087518636 0.00039272755 4279454624
-0.023779564 -0.0087076183 0.00026542507 4279126693
-0.021861527 -0.0086632427 0.0001382269 4279192994
-0.019943573 -0.0086187627 1.1114404e-05 4279390873
-0.018025693 -0.0085741524 -0.00011589564 4279587989
-0.015998654 -0.0093078353 0.0004177317 4279065749
-0.034185283 -0.021440744 0.0091414228 4281683579
-0.032906316 -0.015146764 0.0037267487 4278735013
-0.031233981 -0.012759254 0.0016168859 4278603688
-0.027845668 -0.0087660234 -0.0019392576 4278275249
-0.025933098 -0.0087220315 -0.0020662881 4278340784
-0.020092066 -0.0093700457 -0.0017875116 4278341548
-0.018177066 -0.0093254875 -0.0019143205 4278472874
-0.016262159 -0.0092808101 -0.0020410325 4279193248
-0.01468309 -0.006894391 -0.0041438388 4279455388
-0.012776535 -0.0068496969 -0.0042698393 4278671009
0.0050729513 -0.01034167 -0.0021147318 4279785868
0.0068500005 -0.0095156711 -0.0028974237 4279847834
0.0087660626 -0.0094694756 -0.0030230992 4280568208
0.011123877 -0.011762277 -0.0011794847 4281549703
-0.034639083 -0.019085862 0.0046840385 4280503694
-0.033204172 -0.014341493 0.00060105883 4278997663
-0.031627327 -0.011164384 -0.0021621492 4279194015
-0.024163134 -0.0094222985 -0.0039871186 4278406318
-0.022051666 -0.01094407 -0.0027980953 4279324319
-0.020240422 -0.010116739 -0.0035826489 4278603434
-0.018328302 -0.010072256 -0.0037092734 4278472109
-0.01663452 -0.0084620714 -0.0051503694 4279258528
-0.014951736 -0.006852001 -0.0065907082 4278667183
-0.013050787 -0.0068073943 -0.0067163073 4278798764
0.0026982464 -0.0095752105 -0.0050957985 4278934679
0.0047480799 -0.010311421 -0.0045659626 4278997153
0.0065196268 -0.009483384 -0.0053466717 4278732463
0.0085746162 -0.010219239 -0.0048170015 4278337979
0.01048765 -0.010173004 -0.0049423939 4279319983
-0.034601301 -0.021422554 0.0041879378 4280504458
-0.033078901 -0.017450642 0.00077183545 4278736033
-0.031496517 -0.014264674 -0.001985224 4279062689
-0.029935971 -0.011079095 -0.0047407532 4279062944
-0.028211819 -0.009464616 -0.0061811842 4279193249
-0.026212288 -0.010206092 -0.0056510689 4278996388
-0.0241092 -0.011732516 -0.0044648191 4279258784
-0.022096187 -0.012473427 -0.0039354116 4278670243
-0.020181414 -0.012428993 -0.0040622931 4278996899
-0.018479403 -0.010814397 -0.0055007869 4278799528
-0.015108328 -0.0075855758 -0.0083753727 4278730169
-0.013210244 -0.0075410474 -0.0085007884 4278270658
-0.0092944354 -0.0082363579 -0.0080963913 4279389853
-0.0073939376 -0.0081914291 -0.008221711 4278346649
0.00034042075 -0.008794982 -0.0080679301 4279327124
0.0041454658 -0.0087037664 -0.0083178952 4279061668
0.011753839 -0.0085200481 -0.0088167228 4279125673
-0.034645401 -0.02297553 0.0030329637 4280570249
-0.033122852 -0.018992756 -0.00037504733 4279784084
-0.031453162 -0.016585734 -0.002470131 4279456918
-0.029799866 -0.014178971 -0.0045640366 4278735779
-0.028070299 -0.012560012 -0.0060015777 4278996388
-0.026256308 -0.011728627 -0.0067833401 4279127458
-0.024447821 -0.010897245 -0.0075646434 4278669479
-0.02244319 -0.011640531 -0.007036305 4278931363
-0.020536739 -0.011596293 -0.0071626389 4278800039
-0.018736649 -0.010764739 -0.0079431124 4278537388
-0.015376512 -0.0075274538 -0.010810468 4278273719
-0.0094595701 -0.0089676902 -0.0098786652 4278930343
-0.0078071691 -0.0073492005 -0.01131011 4279456663
-0.0021313317 -0.007214291 -0.011683831 4279130518
-0.0001061298 -0.007955648 -0.011155776 4279062688
0.0055763386 -0.0078192633 -0.011528954 4279258274
0.0079033896 -0.010132495 -0.0096979346 4279389088
0.010099504 -0.01165897 -0.008519494 4279519393
0.011707019 -0.010040451 -0.0099471631 4280240533
-0.03460779 -0.025318187 0.0025324263 4280373644
-0.032997943 -0.022114335 -0.00021358766 4279784338
-0.031235626 -0.02049055 -0.0016502663 4279653779
-0.029574128 -0.018077068 -0.0037398459 4279128989
-0.02783642 -0.016453579 -0.0051746881 4278604199
-0.026109677 -0.014830155 -0.0066087367 4278604198
-0.024393881 -0.013206915 -0.0080419332 4278931364
-0.02268905 -0.011583762 -0.0094743529 4278800294
-0.020788204 -0.011539649 -0.0096003115 4278734504
-0.017204612 -0.0098724682 -0.011156831 4278930854
-0.015644446 -0.0074603409 -0.013238952 4279258784
-0.013643168 -0.0082052536 -0.012711549 4279847323
-0.011753649 -0.0081608072 -0.012836311 4279060649
-0.0079749152 -0.0080715735 -0.013085555 4279127969
-0.0060857199 -0.008026788 -0.013210038 4279128479
-0.0041966289 -0.0079818964 -0.013334431 4278800548
-0.0021769442 -0.0087257158 -0.012807679 4278668968
-0.00028538331 -0.0086805429 -0.01293207 4278668968
0.0014698766 -0.0078465231 -0.013707029 4278799529
0.0032195747 -0.0070125889 -0.014481515 4278271678
0.005105298 -0.0069672111 -0.014605265 4278666673
0.0074238516 -0.0092871897 -0.012778571 4278471344
0.011510421 -0.010772197 -0.011727192 4280240279
-0.036520451 -0.027709147 0.0021588504 4282076533
-0.034815215 -0.025288578 7.0977956e-05 4280242319
-0.033042006 -0.023660274 -0.0013633147 4280111758
-0.03127972 -0.022032119 -0.0027967291 4279718803
-0.029348757 -0.021987947 -0.0029251594 4279259803
-0.027602918 -0.020359881 -0.0043573398 4279063198
-0.025868027 -0.018731985 -0.0057886606 4279194014
-0.024340056 -0.015520696 -0.0085222805 4278800549
-0.022733238 -0.013101441 -0.010602983 4279193759
-0.020935971 -0.012265722 -0.011380112 4278996644
-0.01580051 -0.0081757382 -0.015010097 4278535348
-0.012032557 -0.0080872234 -0.015258976 4278403769
-0.0082650073 -0.0079982635 -0.015507489 4278275248
-0.0063813962 -0.0079535991 -0.015631597 4278275758
-0.0044978969 -0.0079088211 -0.015755609 4278799783
-0.0024838634 -0.0086549185 -0.015230155 4278930853
-0.0004645139 -0.0094007794 -0.01470497 4278734503
0.0012879632 -0.0085647162 -0.0154781 4278931873
0.011164282 -0.010708898 -0.01415191 4281094273
-0.036643349 -0.028471319 0.00035003759 4280962438
-0.034859236 -0.026838591 -0.0010817908 4280111248
-0.033001758 -0.026000163 -0.0018620044 4279915408
-0.03114976 -0.025161758 -0.0026417049 4279522199
-0.02930326 -0.024323355 -0.0034209471 4279456664
-0.027554728 -0.022690892 -0.0048500746 4279587479
-0.025626758 -0.022646535 -0.0049781166 4279259803
-0.023992596 -0.020220306 -0.0070558256 4279128479
-0.02247549 -0.017000465 -0.0097821588 4278800549
-0.020876873 -0.014574762 -0.011857364 4278931108
-0.019294664 -0.012149363 -0.013931353 4278997663
-0.017511256 -0.011311525 -0.014705818 4279193249
-0.012077257 -0.0095916167 -0.016377652 4279127969
-0.010193575 -0.0095471926 -0.016501943 4279258783
-0.0084324144 -0.0087093115 -0.017274441 4278341038
-0.0065516643 -0.0086647253 -0.017398367 4279324318
0.0012422167 -0.010071307 -0.016598327 4278931364
0.0029890537 -0.0092330892 -0.017369376 4278669224
0.0050132498 -0.0099806674 -0.01684588 4278603943
0.0071869567 -0.011520865 -0.015675729 4278799783
0.0092244707 -0.01226791 -0.015152946 4279324829
0.010968033 -0.011429369 -0.015923483 4281685873
-0.034984767 -0.027591838 -0.0028838003 4281816179
-0.033045866 -0.027547739 -0.0030129496 4280046224
-0.031280927 -0.025910839 -0.0044400617 4279456409
-0.029437246 -0.025070338 -0.0052175038 4279194268
-0.027691472 -0.023433577 -0.006643191 4279259803
-0.025956646 -0.021796999 -0.0080680279 4279391129
-0.024134913 -0.020956617 -0.0088437209 4279587479
-0.022419276 -0.019320164 -0.010267124 4279521689
-0.020714596 -0.017683899 -0.011689671 4279259549
-0.019126903 -0.01525182 -0.013759208 4278931619
-0.017446879 -0.013615886 -0.015179944 4279324829
-0.015777841 -0.01198004 -0.016599903 4279390364
-0.013891384 -0.011935793 -0.016724559 4279062433
-0.012121938 -0.011095794 -0.017496169 4278931363
-0.010238402 -0.011051349 -0.017620433 4279062434
-0.0084773228 -0.010211309 -0.018391313 4278472874
-0.006846875 -0.008575784 -0.019808285 4279062179
0.0007885918 -0.0091920961 -0.019655759 4278665144
0.0028045624 -0.0099421646 -0.01913343 4278603434
0.0048258416 -0.010691984 -0.018611358 4278735269
0.0088843144 -0.012190921 -0.017568026 4279128479
0.010622356 -0.011350317 -0.018336562 4281621104
-0.033342496 -0.026699351 -0.0061064977 4280898944
-0.031498872 -0.025856761 -0.0068824477 4279980944
-0.029660732 -0.025014209 -0.0076578958 4279456664
-0.027828088 -0.024171658 -0.0084328856 4279391129
-0.026000941 -0.023329122 -0.0092074275 4279653014
-0.024179302 -0.022486554 -0.0099814832 4279653269
-0.02236318 -0.021643978 -0.010755146 4279194268
-0.020552564 -0.020801427 -0.011528295 4279390873
-0.01885343 -0.019160828 -0.012947147 4278997409
-0.017382625 -0.015924308 -0.015657168 4278472873
-0.015822291 -0.013486113 -0.017719854 4278669733
-0.014164232 -0.011846105 -0.019135714 4278735269
-0.012283467 -0.011801863 -0.019259898 4278866083
-0.010402795 -0.01175753 -0.019384004 4278996898
-0.0086445138 -0.010915365 -0.020153066 4278341549
-0.0068917908 -0.010073183 -0.020921724 4278472108
-0.00527234 -0.0084335282 -0.022334622 4279259293
-0.0035334416 -0.0075914953 -0.023102162 4278931618
-0.001400575 -0.0091417506 -0.021936178 4278406063
0.00047126412 -0.0090969447 -0.022059195 4279061159
0.0023429729 -0.0090520103 -0.022182103 4278537643
0.0043558925 -0.0098042004 -0.021661103 4279062179
0.0063741282 -0.010556225 -0.021140348 4278735014
0.0082508773 -0.010510843 -0.021263346 4278604709
-0.031629719 -0.026594475 -0.008672351 4282012784
-0.029794397 -0.02574981 -0.0094459876 4280110994
-0.027964564 -0.024905173 -0.010219185 4280176528
-0.026045235 -0.024860995 -0.010346639 4279588244
-0.02432142 -0.02321581 -0.011764207 4279653269
-0.022407651 -0.023171518 -0.01189111 4279718804
-0.020597126 -0.022326831 -0.012662657 4279456409
-0.018686224 -0.022282364 -0.012789192 4278997919
-0.017101254 -0.019837253 -0.014848702 4279194524
-0.01564404 -0.016592231 -0.017551243 4278735268
-0.013980575 -0.014947718 -0.018964268 4278276269
-0.012328066 -0.013303399 -0.020376449 4278997664
-0.01056705 -0.012459109 -0.021144154 4278735779
-0.0086893402 -0.01241472 -0.021267973 4278735524
-0.003839206 -0.0074827913 -0.025496453 4278602669
-0.0017120466 -0.0090375915 -0.024333309 4278340529
0.0021589026 -0.009747589 -0.023936119 4278668714
0.0040276311 -0.0097026359 -0.024058767 4278538409
0.0060402155 -0.010456901 -0.023539286 4278669479
0.0076179877 -0.0088131446 -0.024945641 4278603944
0.0093341507 -0.0079687368 -0.02570951 4279326359
-0.027916467 -0.02723952 -0.010714399 4281226363
-0.025994571 -0.02719531 -0.010842043 4279849874
-0.024072727 -0.02715097 -0.010969586 4279653013
-0.022351725 -0.025501426 -0.012383593 4279653013
-0.020538572 -0.024654435 -0.013153715 4279390873
-0.018625099 -0.02460991 -0.013280421 4279194268
-0.016928814 -0.022960572 -0.014692513 4279194524
-0.015243497 -0.021311378 -0.0161038 4278997663
-0.013797153 -0.018057806 -0.018799054 4278866593
-0.012255948 -0.015606798 -0.020850582 4278342059
-0.010611717 -0.013958221 -0.022258893 4278800803
-0.0089784823 -0.01230972 -0.023666415 4278866849
-0.0073562302 -0.010661427 -0.025073102 4278866084
-2.6796013e-05 -0.0096816588 -0.02620513 4278602413
0.0018364824 -0.0096369479 -0.0263275 4278669479
0.0039820522 -0.011195281 -0.025168605 4278603944
0.0058505237 -0.011150216 -0.025291145 4278407339
0.0077188574 -0.011105069 -0.025413614 4278669224
0.0094376914 -0.010258429 -0.026176039 4279258528
0.011303026 -0.010213159 -0.026298165 4280439688
-0.026228663 -0.027119203 -0.01326657 4281554294
-0.024312422 -0.027074974 -0.013393728 4280438669
-0.022496568 -0.026225893 -0.014162516 4279521944
-0.020686224 -0.025376862 -0.014930806 4279325338
-0.018669859 -0.026136979 -0.014416009 4279194268
-0.016865108 -0.025287833 -0.015183747 4278997918
-0.015177093 -0.023634221 -0.016591961 4279128989
-0.013841845 -0.019567529 -0.019921705 4279260059
-0.012183942 -0.017914345 -0.021327797 4278276779
-0.010417633 -0.017065624 -0.022092639 4278407338
-0.0087789632 -0.0154127 -0.023497242 4278866084
-0.0074009225 -0.012151615 -0.026181182 4278735778
-0.0057896599 -0.010499075 -0.027583856 4278931363
-0.0041893944 -0.0088467523 -0.028985698 4278537643
-0.00233417 -0.0088024475 -0.029107701 4278407594
-0.00034337118 -0.0095619056 -0.028590273 4278604199
0.0017911904 -0.01112501 -0.027433943 4278604199
0.0037953518 -0.011883955 -0.026917249 4278341804
0.0055171214 -0.011035303 -0.027678421 4278864808
0.009242516 -0.010945177 -0.027922541 4278402238
0.012967359 -0.010854667 -0.028166329 4279389854
0.014829565 -0.010809263 -0.028288092 4278540703
-0.022440745 -0.028559651 -0.014657862 4280964224
-0.020627778 -0.027708339 -0.015424744 4280177804
-0.018926017 -0.026050324 -0.016830822 4279129498
-0.017018367 -0.026005821 -0.016957058 4278932893
-0.015444245 -0.023541264 -0.019001227 4279391129
-0.014000401 -0.020270413 -0.02168338 4278997918
-0.012228638 -0.019419502 -0.022447044 4279063454
-0.010343105 -0.019375062 -0.022571478 4278997663
-0.0085796975 -0.018524123 -0.023334421 4278669989
-0.0071960911 -0.015254228 -0.026012253 4278473128
-0.0057068653 -0.012791031 -0.028050268 4279194014
-0.0041038916 -0.011134254 -0.029449087 4279062178
-0.0023789927 -0.010283764 -0.030209148 4278799784
-0.00052401423 -0.010239366 -0.03033106 4278866084
0.0014691912 -0.01100086 -0.029815353 4278800293
0.0034677163 -0.011762104 -0.029299907 4278602923
0.0051839836 -0.010911435 -0.03005911 4278668203
0.0070411786 -0.010866547 -0.030180844 4278798508
0.008898247 -0.010821592 -0.030302513 4279191719
0.010755185 -0.010776531 -0.030424092 4278730933
0.012611981 -0.010731377 -0.030545592 4278340018
0.014468629 -0.010686118 -0.030667001 4278735524
0.01648524 -0.011446245 -0.030152231 4279917193
-0.020775281 -0.028425971 -0.017198272 4281685108
-0.018970627 -0.027572598 -0.017962847 4279457429
-0.017063126 -0.027528135 -0.018089099 4279326358
-0.015488964 -0.025057066 -0.020128414 4279391129
-0.013931196 -0.022586325 -0.02216653 4279390873
-0.012156803 -0.021733146 -0.022928797 4279128733
-0.010268692 -0.021688636 -0.023053393 4278997919
-0.0085026398 -0.020835463 -0.023814891 4278997919
-0.0068668127 -0.019173836 -0.025212763 4278866593
-0.0053693876 -0.016703896 -0.027246509 4278669479
-0.0040185079 -0.013425878 -0.029915543 4278604198
-0.0024237968 -0.011764901 -0.031310465 4279128479
-0.00070451945 -0.010912288 -0.032068472 4278866085
0.0011474788 -0.010867864 -0.032190114 4278931363
0.0029993728 -0.010823356 -0.032311685 4278340784
0.0064098872 -0.0091180298 -0.033825353 4279128224
0.008405108 -0.0098812208 -0.033311084 4278866339
0.010253761 -0.0098363925 -0.033432145 4278471343
0.01210228 -0.0097914468 -0.033553109 4278931109
0.013950657 -0.00974641 -0.033673991 4279062944
0.015958946 -0.010508951 -0.033160254 4278933148
0.01862352 -0.014501535 -0.030109514 4279391894
0.021149646 -0.017685857 -0.027694609 4280373643
-0.017216168 -0.028239153 -0.019857228 4281029504
-0.015422639 -0.02738365 -0.020619284 4279653778
-0.013634637 -0.026528103 -0.021380922 4279587734
-0.012085076 -0.024050938 -0.023413558 4279128223
-0.010313578 -0.023195554 -0.024173936 4279259803
-0.0085475966 -0.02234021 -0.024933808 4279325338
-0.0067871623 -0.021484917 -0.025693255 4279259803
-0.0052869543 -0.019008406 -0.027722329 4278932129
-0.0036731027 -0.017342728 -0.029115342 4279128479
-0.0022030286 -0.014866718 -0.031142272 4278473128
-0.00047838315 -0.014011837 -0.031899035 4279062943
0.0011024997 -0.012346639 -0.033289652 4279259294
0.0029542558 -0.012302135 -0.033411216 4278931109
0.0080614984 -0.0097377691 -0.035676211 4278667948
0.014062133 -0.012033032 -0.034138821 4278669988
0.016232911 -0.01360745 -0.032994032 4278801569
0.018902455 -0.017610759 -0.02995171 4279129753
0.021433633 -0.020803664 -0.02754363 4280438923
0.023986418 -0.023995947 -0.025136892 4282012019
-0.01546739 -0.028901186 -0.021747762 4280506243
-0.01356579 -0.028856602 -0.021873431 4279391894
-0.011897072 -0.027185822 -0.023267299 4279259293
-0.010358434 -0.024702257 -0.025294323 4279194268
-0.0087143704 -0.023031881 -0.026686355 4279325338
-0.0069567338 -0.022174474 -0.027443994 4279259803
-0.0053319111 -0.020504275 -0.028834624 4279194268
-0.0035880767 -0.019646998 -0.029591203 4279456154
-0.001849778 -0.018789712 -0.030347312 4279062943
-0.0001170449 -0.017932463 -0.031102987 4278735013
0.0013338327 -0.015450193 -0.033123638 4278735014
0.0027682818 -0.012968225 -0.035143144 4278604709
0.0043298937 -0.011298953 -0.036529113 4279193503
0.011856508 -0.011932508 -0.036380425 4279127458
0.014173474 -0.014323734 -0.034606755 4279128733
0.01666652 -0.017526448 -0.032202806 4278670244
0.019181173 -0.020728538 -0.029800197 4279522198
0.022048067 -0.025553707 -0.026137115 4281356669
0.024275217 -0.027130801 -0.024999034 4282142069
0.026513088 -0.028707657 -0.023861598 4282274159
-0.012058303 -0.027883653 -0.025024906 4280243339
-0.010403283 -0.026208756 -0.026414556 4279587988
-0.0087592304 -0.024534056 -0.027803363 4279391384
-0.0070016645 -0.023674501 -0.02855939 4279587734
-0.0052496344 -0.022814963 -0.029314969 4279390873
-0.0035031587 -0.02195538 -0.030070122 4279194268
-0.0017622188 -0.021095898 -0.030824814 4279194268
-2.682209e-05 -0.020236418 -0.031579044 4278997664
0.0014268421 -0.017747596 -0.033595044 4278735523
0.0028640814 -0.015259116 -0.035609849 4278604199
0.0042848885 -0.012770871 -0.037623532 4279259549
0.0058355108 -0.011097445 -0.039005481 4278867105
0.007524088 -0.010238539 -0.039756302 4278539429
0.0096621476 -0.011822809 -0.038616054 4278603688
0.011965346 -0.014220923 -0.036846448 4278800549
0.014441837 -0.017432831 -0.034447975 4278669223
0.017099764 -0.021458272 -0.031421199 4279782809
0.019459624 -0.023854794 -0.029655062 4281028993
0.021835644 -0.026250824 -0.027889911 4281553273
0.024227817 -0.028646329 -0.026125792 4281618553
0.026465435 -0.030227514 -0.024991566 4282077808
-0.010686085 -0.026080463 -0.028796077 4280898944
-0.0088040754 -0.026036028 -0.02892022 4279326359
-0.0070465878 -0.025174312 -0.029674631 4279194779
-0.0051674843 -0.025129715 -0.029798409 4279128733
-0.0036780834 -0.022633864 -0.031812154 4279456664
-0.0019399263 -0.02177228 -0.032565042 4278997664
-0.00020731613 -0.020910712 -0.03331748 4279063199
0.0013817213 -0.019232299 -0.034698997 4278932384
0.003100507 -0.018370871 -0.035450384 4278669989
0.0046702921 -0.016692767 -0.036830444 4278604454
0.0059367232 -0.01338149 -0.039467603 4278604198
0.0074790567 -0.011703781 -0.040845737 4278670244
0.009465266 -0.012475894 -0.040337298 4278735013
0.012074094 -0.016513569 -0.037315547 4278735014
0.014867011 -0.021366868 -0.033667266 4279848343
0.017532635 -0.025402971 -0.030649085 4280766343
0.019900318 -0.027805829 -0.028888334 4281028739
0.02195378 -0.02857578 -0.02838397 4281815414
0.024348352 -0.030977812 -0.026624851 4281946483
0.026417818 -0.031747181 -0.026121393 4282667879
-0.0068427622 -0.02831262 -0.029532246 4281553274
-0.0052125119 -0.026629373 -0.030913524 4279980688
-0.0037230514 -0.02412701 -0.032922413 4279391129
-0.0021174848 -0.022444133 -0.034301903 4279062688
-0.00038764998 -0.021580501 -0.035052568 4279128734
0.0014745854 -0.021535883 -0.035174925 4278998173
0.003196016 -0.020672187 -0.035924915 4278866593
0.0049119219 -0.019808576 -0.036674436 4278801314
0.0063300356 -0.017307308 -0.038678177 4278866849
0.0078805536 -0.015625142 -0.040053591 4278932384
0.0098747052 -0.016399205 -0.039547347 4279391383
0.012182716 -0.018810317 -0.037787765 4280504969
0.015134815 -0.024495164 -0.033522762 4280898178
0.017645728 -0.02772351 -0.03113943 4280898178
0.019853409 -0.029314417 -0.030009953 4281094783
0.021906685 -0.030086569 -0.02950722 4281881714
-0.0055115558 -0.026485898 -0.033282436 4280439434
-0.0038977265 -0.02479862 -0.034659334 4280438669
-0.0021624267 -0.023932798 -0.035408825 4279194269
-0.00016232207 -0.024709478 -0.034905024 4279128223
0.0017052181 -0.024664767 -0.03502775 4278931873
0.0034320392 -0.023798835 -0.035776451 4279194778
0.005153317 -0.022932956 -0.036524728 4278998173
0.0067229867 -0.021246037 -0.037898276 4278932638
0.0082816705 -0.01955935 -0.039271004 4279325594
0.010283794 -0.02033541 -0.038766913 4279849618
0.012599643 -0.022752861 -0.037012711 4280766853
0.015245486 -0.026811277 -0.034009524 4281029249
0.017599087 -0.029227564 -0.032257691 4281094784
0.01964416 -0.030002194 -0.031756118 4281554038
-0.0039425902 -0.026289267 -0.035767738 4281226874
-0.0022073537 -0.025421284 -0.036515612 4279456919
-0.00020744652 -0.026200166 -0.036013439 4279128734
0.0015221387 -0.02533213 -0.0367608 4278736034
0.0033867322 -0.025287401 -0.036883269 4279259803
0.0049646907 -0.023596082 -0.038254227 4279194779
0.0068236068 -0.0235513 -0.038376182 4279194779
0.0085337125 -0.022683302 -0.039121941 4279587734
0.010843921 -0.02510752 -0.037372321 4280177038
0.013170306 -0.027531184 -0.035623714 4280570248
0.015512865 -0.029954432 -0.033876073 4281291643
0.017392915 -0.029908655 -0.033999052 4281946994
-0.0022522584 -0.026909592 -0.037622269 4282471019
-0.00025254488 -0.027690675 -0.037121721 4281029249
0.0013392307 -0.025994962 -0.038490482 4279195033
0.0033414476 -0.026775775 -0.037989944 4279129244
0.0050626136 -0.025905574 -0.038734987 4279194269
0.0067782141 -0.025035363 -0.039479632 4279260059
0.0086368956 -0.024990514 -0.039601516 4279456663
0.010798167 -0.026595999 -0.038479038 4280570248
0.013278302 -0.029851371 -0.036113296 4281094273
0.015309703 -0.030630914 -0.035614248 4281684598
0.017186921 -0.030585235 -0.03573706 4282406249
0.0010187812 -0.025825573 -0.040838271 4280767363
0.0028749667 -0.025781078 -0.040960211 4279653268
0.0045879222 -0.024908945 -0.041703127 4279063964
0.0064411759 -0.024864336 -0.041824736 4279325849
0.0082943067 -0.024819635 -0.041946266 4279194779
0.010752443 -0.028084325 -0.039585635 4280701575
0.013078187 -0.030521072 -0.03784674 4281225344
0.015263427 -0.032130148 -0.036728941 4282341224
0.0025492571 -0.025603075 -0.043301057 4281684853
0.0046859123 -0.027218124 -0.042183731 4281029759
0.0063959807 -0.026343809 -0.042924777 4279784848
0.0083974861 -0.027128723 -0.042427238 4280242573
0.010253105 -0.027083894 -0.04254888 4281225598
0.0043548159 -0.027035784 -0.044520892 4281751154
0.0060593896 -0.026159417 -0.04526002 4279784083
0.0082037151 -0.027778465 -0.044146247 4280243084
0.010207657 -0.028565427 -0.043650437 4282275688
0.0064513385 -0.030136311 -0.044508509 4282537574
0.0059694424 -0.029108997 -0.047453154 4282341479
0.015582826 -0.0084998086 0.018388286 4285097774
0.015534569 -0.010071002 0.017220072 4285098284
0.015335802 -0.01087754 0.015384495 4285032494
0.018013272 -0.016231053 0.017418779 4285359658
0.029946145 0.0010069497 0.001772536 4285556773
0.031147461 0.0041178148 -0.0010086354 4285951258
0.033048283 0.0041648652 -0.001132397 4286082074
0.035498116 0.0019146763 0.00073532201 4286016029
0.015540119 -0.015551742 0.014380995 4284901934
0.027641717 0.00096517242 -0.00056690536 4285623583
0.028848846 0.0040848516 -0.0033420594 4285820443
0.030566733 0.0048997793 -0.0041280696 4285885724
0.032278996 0.0057146382 -0.004913657 4285754398
0.034534629 0.0042256229 -0.0037122415 4286148119
0.037358124 0.00043324195 -0.00052541867 4286082329
0.025348458 0.00093270093 -0.0029003425 4285557284
0.026733462 0.0032907482 -0.0050081694 4285558304
0.028101932 0.0056484807 -0.0071148546 4286148628
0.029808912 0.006465314 -0.0078985291 4285754144
0.031690467 0.0065119248 -0.0080210101 4285557029
0.03375477 0.0057884697 -0.0074828649 4285623074
0.036195625 0.0035250597 -0.0056241853 4285754399
0.038275812 0.0028021876 -0.0050869333 4285558049
0.040934529 -0.00023031235 -0.0025698394 4285361444
0.022899825 0.001682261 -0.0058878362 4285558049
0.024285097 0.0040467698 -0.0079908697 4285493023
0.025997873 0.0048657525 -0.0087734237 4285624094
0.027705003 0.0056847017 -0.0095555307 4286083093
0.029406499 0.0065035988 -0.010337206 4286017048
0.031462673 0.0057777073 -0.0098002004 4286017559
0.033524062 0.0050520282 -0.0092634745 4286083094
0.035776306 0.0035543106 -0.0080682663 4286148884
0.037662555 0.0036013015 -0.0081908582 4285623838
0.039739665 0.0028761979 -0.0076549398 4285558558
0.042015728 0.0013793204 -0.0064610941 4285558814
0.044498887 -0.00088920444 -0.0046097701 4285361443
0.020959277 0.00012073666 -0.0068906834 4285557284
0.021853518 0.0048165414 -0.010964637 4285754399
0.023560975 0.0056375284 -0.011745323 4285688864
0.025262829 0.0064584408 -0.012525525 4285623328
0.027482983 0.0049552117 -0.011331677 4285689118
0.029181708 0.0057762694 -0.012111585 4286149138
0.031235006 0.0050480794 -0.011575977 4286149139
0.032927882 0.0058691744 -0.012355368 4286083349
0.034986209 0.0051412899 -0.011819954 4285689373
0.036861513 0.0051879901 -0.011941847 4285623839
0.039309483 0.0029119682 -0.010093248 4285624348
0.040805157 0.0045074429 -0.011528762 4285624348
0.04287893 0.0037803147 -0.010994149 4285755419
0.044957932 0.0030533783 -0.01045983 4286016283
0.048253108 -0.002317477 -0.0059891613 4285753379
0.018535826 0.00089115649 -0.0098647233 4285556774
0.0199298 0.0032687094 -0.011958675 4286016794
0.021140855 0.0064230468 -0.014708298 4286083349
0.023175675 0.0056919288 -0.01417341 4286083093
0.025043901 0.0057379548 -0.014295212 4285885978
0.027435679 0.0034534484 -0.012448174 4285689118
0.029311683 0.0034998506 -0.012570345 4285623328
0.031187471 0.0035463348 -0.012692439 4285689119
0.032880325 0.0043696165 -0.013470196 4285623839
0.034567576 0.0051927734 -0.014247503 4285623839
0.036625501 0.0044628363 -0.013713664 4285623839
0.03887957 0.0029566195 -0.012524877 4285624094
0.040563453 0.0037799515 -0.013301772 4285755164
0.041849066 0.0061558988 -0.015387939 4286083349
0.043914322 0.0054264348 -0.014854359 4286212889
0.045984786 0.0046972018 -0.014321039 4286212889
0.049287338 -0.00068862177 -0.0098621557 4286212889
0.016761947 -0.001442438 -0.010207098 4285557539
0.017845225 0.002500616 -0.013608027 4285689629
0.019392047 0.0041051116 -0.015041088 4285885978
0.020761449 0.0064887237 -0.017128538 4285885468
0.022790659 0.005755255 -0.016594857 4286148628
0.024653319 0.0058011729 -0.016716277 4285952023
0.027039345 0.0035100505 -0.014873767 4285689374
0.028909791 0.0035563055 -0.014995584 4285623839
0.030600097 0.0043815635 -0.015771579 4285558558
0.032102104 0.005985612 -0.01720123 4285558558
0.034149203 0.0052531641 -0.016668357 4285558813
0.036013436 0.0052996073 -0.016789515 4285624094
0.038259108 0.0037888773 -0.015603468 4285754654
0.039934818 0.00461418 -0.016378211 4286017559
0.041801166 0.0046609174 -0.016499326 4285754398
0.04366729 0.0047077257 -0.016620371 4285688353
0.045734886 0.0039762445 -0.016088489 4285819933
0.048012126 0.0024666246 -0.014904179 4286016794
0.050714221 -0.00059905648 -0.012415537 4285557794
0.014050115 0.00090998411 -0.014477594 4285492258
0.015450049 0.0033005346 -0.016562345 4285624093
0.017155189 0.0041276868 -0.017338166 4286148884
0.018691126 0.0057363342 -0.018767292 4285622819
0.020216044 0.0073447395 -0.020195603 4285491493
0.022067893 0.0073902961 -0.020316388 4285557283
0.024434727 0.0050920937 -0.018477559 4285754398
0.02664328 0.0035755467 -0.017292675 4285754908
0.028508183 0.0036216937 -0.017414112 4285624094
0.030193027 0.0044489782 -0.018188136 4285624349
0.03205483 0.0044952109 -0.01830925 4285624604
0.034101751 0.0037605949 -0.017777979 4285558814
0.035777848 0.0045879241 -0.018551242 4285624094
0.037448313 0.0054152366 -0.01932412 4285689118
0.039306607 0.0054616984 -0.019444767 4286214928
0.0411647 0.0055082422 -0.019565338 4285951514
0.043221485 0.0047742072 -0.019034386 4285622564
0.04508188 0.0048209559 -0.019154994 4285622819
0.047146406 0.0040872823 -0.018624494 4285754399
0.049423177 0.0025734343 -0.017443372 4285689118
0.052130159 -0.00050079823 -0.014961446 4285427234
0.013537694 0.0017626453 -0.017549915 4285361443
0.015245657 0.002591962 -0.018324358 4285492769
0.016787227 0.0042050015 -0.019750679 4285952278
0.018481258 0.0050341617 -0.020524073 4285951769
0.020003449 0.0066469144 -0.021948988 4286017304
0.021683548 0.0074758958 -0.02272135 4286017558
0.023701329 0.0067379456 -0.022190131 4286018324
0.025724377 0.0060001742 -0.021659149 4285623838
0.027752664 0.005262671 -0.021128476 4285558559
0.029786218 0.0045253579 -0.020598099 4285558558
0.031642485 0.0045714658 -0.020718843 4285558558
0.033498559 0.0046176445 -0.020839518 4285623839
0.035354432 0.0046638977 -0.020960119 4285689629
0.037019458 0.005493192 -0.021730989 4285689374
0.038678814 0.0063224565 -0.022501409 4285820443
0.040332545 0.0071516763 -0.023271464 4286017048
0.042378303 0.0064151976 -0.022741415 4285951258
0.044429313 0.0056789424 -0.022211708 4286082584
0.04628126 0.0057255607 -0.022331707 4286148883
0.048546966 0.0042070616 -0.021153133 4285688863
0.051662099 -0.00044120103 -0.017378736 4285426724
0.013646755 -0.00051547773 -0.018008277 4285755419
0.015199389 0.0011020247 -0.019432118 4285295143
0.016580265 0.0035052914 -0.021505864 4285360933
0.01794466 0.0059082787 -0.023578443 4285951259
0.01945873 0.0075251292 -0.024999548 4285885723
0.021299485 0.0075704139 -0.025119606 4286083349
0.023311649 0.006830154 -0.024589643 4285755163
0.025154766 0.0068756621 -0.024709739 4285623838
0.027528796 0.0045647267 -0.02288093 4285558558
0.029559437 0.0038251858 -0.022351975 4285624094
0.031595353 0.0030858591 -0.0218233 4285689629
0.033080962 0.004702637 -0.023242079 4286017813
0.03474341 0.00553401 -0.024011254 4285952023
0.03640024 0.0063652974 -0.024779955 4285689119
0.03824475 0.0064114314 -0.024899697 4285623328
0.039893057 0.007242633 -0.025667746 4285688863
0.042131979 0.005718926 -0.024490817 4285820443
0.04397862 0.0057653245 -0.02461054 4285820443
0.046233464 0.0042421017 -0.023434507 4285623584
0.048912752 0.001149727 -0.020963799 4285492513
0.052452061 -0.0050807726 -0.015904544 4285623839
0.014221307 -0.005162403 -0.016521493 4285294123
0.015784819 -0.0035402272 -0.017942833 4285491239
0.016694743 0.0012340508 -0.021959543 4285623329
0.017898571 0.0044316184 -0.024676312 4285492513
0.019246582 0.0068407636 -0.026742853 4285492768
0.021084499 0.0068859886 -0.026862722 4285624349
0.023093764 0.0061434638 -0.026334204 4285690139
0.024934065 0.0061889086 -0.026454106 4285690139
0.027128074 0.0046591032 -0.025277976 4285689629
0.029153127 0.0039172526 -0.024750277 4285689373
0.031001028 0.0039631519 -0.024870476 4286149138
0.032478537 0.0055840593 -0.026285496 4286082838
0.034320641 0.0056299735 -0.0264052 4286016794
0.036162544 0.0056759547 -0.026524838 4286147863
0.038004261 0.0057219919 -0.026644416 4285688863
0.039649811 0.0065553244 -0.027410649 4285623583
0.041687105 0.0058143158 -0.026883341 4285624094
0.043931041 0.0042864662 -0.025709923 4285558814
0.046593908 0.0011849012 -0.023244701 4285427488
0.049691949 -0.0034899376 -0.019488705 4285361443
0.014640171 -0.0090360455 -0.015695274 4285359914
0.016211864 -0.007409377 -0.017113868 4285490984
0.01713023 -0.0026218537 -0.021121403 4285688863
0.018179085 0.0013747923 -0.024479473 4285885978
0.01953261 0.00379063 -0.026541553 4285426723
0.021038394 0.0054160636 -0.027955562 4285624349
0.022876028 0.0054613519 -0.02807536 4285624348
0.024539325 0.006296685 -0.028841652 4285624348
0.026904557 0.0039725136 -0.027021989 4285689884
0.028567512 0.0048079472 -0.027788103 4285886743
0.03058948 0.0040639285 -0.027261766 4285623073
0.032246616 0.0048994105 -0.028027358 4285688608
0.034085911 0.004945254 -0.028146882 4285754398
0.035925012 0.0049911607 -0.02826634 4285951514
0.037763912 0.0050371457 -0.028385725 4285754653
0.039798532 0.0042938087 -0.02785993 4285689628
0.041838374 0.003550699 -0.027334407 4285624348
0.044487495 0.00044003688 -0.024874825 4285493279
0.047566231 -0.004248349 -0.021127395 4285361444
0.01285835 -0.011383437 -0.0160472 4285097518
0.014438372 -0.0097522922 -0.017463228 4285294378
0.016165148 -0.0089138262 -0.018232416 4285556519
0.017565321 -0.0064905379 -0.020292837 4285557028
