# .PCD v0.7 - Point Cloud Data file format
VERSION 0.7
FIELDS x y z rgba
SIZE 4 4 4 4
TYPE F F F U
COUNT 1 1 1 1
WIDTH 958
HEIGHT 1
VIEWPOINT 0 0 0 1 0 0 0
POINTS 958
DATA ascii
-0.014554072 -0.0017952109 0.026615156 4288423994
-0.023636151 -0.0082589565 0.03009554 4288818988
-0.022169914 -0.0051055327 0.027316561 4289080618
-0.020596594 -0.0027285647 0.025199438 4289473574
-0.018776271 -0.001903831 0.024403704 4289538854
-0.016692657 -0.0026309155 0.024928162 4290520094
-0.014740895 -0.0025819223 0.024792669 4288949549
-0.012649376 -0.0033086184 0.025316793 4288752944
-0.026260603 -0.0059911595 0.025764473 4289211433
-0.024302911 -0.0059426115 0.025628123 4289276969
-0.022597749 -0.0043373629 0.024174206 4290454813
-0.021161459 -0.0011758991 0.021403948 4289342758
-0.019352112 -0.00034922548 0.020610558 4288819499
-0.017145216 -0.0018568533 0.021792466 4289342758
-0.014927577 -0.0033640349 0.022973679 4289734948
-0.012839001 -0.0040929243 0.023496352 4289146154
-0.011030208 -0.0032658475 0.022703387 4288884269
-0.0093722641 -0.001661011 0.021253401 4288097593
-0.03022486 -0.0076521528 0.024873344 4287509818
-0.02862101 -0.005261871 0.022763472 4288621874
-0.026671529 -0.0052136118 0.022627629 4289408039
-0.024598736 -0.0059457738 0.023149252 4289473574
-0.02302517 -0.0035559023 0.021041816 4290324509
-0.021468058 -0.0011662636 0.018935585 4291043864
-0.019664224 -0.00033759233 0.018144248 4290781978
-0.017463069 -0.0018496625 0.019323265 4290913049
-0.015251141 -0.0033613881 0.020501668 4290127903
-0.01302848 -0.0048726788 0.021679372 4289669924
-0.011080008 -0.0048235347 0.021544281 4289996833
-0.0094220676 -0.0032143416 0.02009755 4289539873
-0.0080709681 -4.5477413e-05 0.017340256 4289015339
-0.0064405575 0.0015632845 0.015895553 4287312960
-0.030964471 -0.004518738 0.019771392 4289079854
-0.029141113 -0.0036879387 0.018979846 4289800228
-0.027202666 -0.0036399867 0.01884475 4289211943
-0.02501763 -0.0051573096 0.020021342 4289735459
-0.023200031 -0.0043263454 0.019230502 4289539363
-0.021388009 -0.0034953468 0.018440105 4290128158
-0.019581534 -0.0026644412 0.017650204 4290128414
-0.017512161 -0.0033983793 0.0181708 4289997599
-0.015300523 -0.004914456 0.019345976 4289604644
-0.013217814 -0.0056478186 0.019865826 4289343269
-0.011272203 -0.0055987323 0.019730944 4289474339
-0.0096169785 -0.0039852541 0.018287651 4289867294
-0.0079727918 -0.0023718923 0.016845172 4290978583
-0.0061890706 -0.0015407568 0.016057448 4290258719
-0.0048708022 0.0016361875 0.013309081 4288750394
-0.032841425 -0.0069022877 0.019407779 4288360243
-0.03135794 -0.0037141284 0.016653225 4290453793
-0.029424988 -0.0036664112 0.016518436 4290847769
-0.027371585 -0.0044035073 0.017038083 4290978328
-0.025312848 -0.0051403455 0.01755745 4290586394
-0.023500763 -0.004307352 0.016768612 4289735969
-0.021565534 -0.0042590927 0.016634028 4289474083
-0.019761853 -0.0034260666 0.015845956 4289866528
-0.017695419 -0.004162237 0.016365144 4289277989
-0.015760563 -0.0041136518 0.016230837 4289343013
-0.013546616 -0.0056338888 0.017402701 4289408803
-0.011748929 -0.0048005041 0.016615352 4289735713
-0.010101855 -0.0031828824 0.015175873 4289539618
-0.0081702843 -0.003133921 0.015042136 4290651674
-0.0060883611 -0.0038690474 0.015560739 4289147174
-0.0049204454 0.00010078307 0.012166609 4290389789
-0.03667042 -0.0093376311 0.019177593 4286659904
-0.035052542 -0.0069277813 0.017081099 4288687409
-0.033451077 -0.0045182556 0.014985885 4288949803
-0.031751003 -0.0028962037 0.013544968 4290128158
-0.029826365 -0.002848695 0.013410757 4289670178
-0.027660854 -0.0043753106 0.01458213 4290848023
-0.025607772 -0.0051144557 0.015100273 4290193949
-0.023675282 -0.0050663929 0.014965785 4289801248
-0.021742918 -0.0050181998 0.014831403 4289474083
-0.019942041 -0.0041830689 0.014045152 4289735713
-0.018012643 -0.0041347314 0.01391114 4289800993
-0.015946548 -0.0048729619 0.01442882 4289735714
-0.013875142 -0.0056109605 0.014946203 4289474083
-0.012082957 -0.0047755782 0.014160904 4290128414
-0.010441341 -0.0031537144 0.012724999 4290585884
-0.0085153356 -0.0031048832 0.012591657 4288688939
-0.00643906 -0.0038423501 0.013109081 4288819753
-0.0051232204 -0.00064808875 0.010373866 4289343779
-0.037359074 -0.0061543225 0.014108415 4289146408
-0.035647951 -0.0045279032 0.012669786 4289146918
-0.033947799 -0.0029016929 0.011232041 4289604644
-0.032258626 -0.0012755627 0.0097951321 4288688939
-0.03022733 -0.002017701 0.010313034 4288427053
-0.027949847 -0.0043381043 0.012132808 4289343268
-0.025902428 -0.0050795684 0.01264972 4289997598
-0.024101399 -0.0042424854 0.011864911 4289343524
-0.022177342 -0.004194512 0.011731098 4289408548
-0.020253394 -0.0041464223 0.011597383 4289474084
-0.018463608 -0.0033092694 0.010813619 4289604899
-0.016405892 -0.0040498935 0.011330248 4289735713
-0.014203385 -0.0055791046 0.012496419 4289604898
-0.012274519 -0.0055304347 0.012362705 4289931808
-0.010635622 -0.0039042756 0.010930248 4290913049
-0.0088601038 -0.0030669319 0.010147884 4290128158
-0.0067894906 -0.0038066674 0.010664038 4290520858
-0.0053258464 -0.0013923496 0.0085845571 4290850573
-0.03933657 -0.0077426233 0.013096412 4287837239
-0.037726693 -0.0053200638 0.011010117 4288818990
-0.035914287 -0.0044812569 0.010225591 4289735459
-0.034219604 -0.00285077 0.0087914513 4290717209
-0.032420974 -0.0020120712 0.00800806 4290390043
-0.030392617 -0.0027564177 0.008524498 4290390043
-0.028118208 -0.0050834483 0.010339669 4290913559
-0.0261968 -0.0050357757 0.010205864 4290979094
-0.024275493 -0.0049879747 0.010072167 4289605154
-0.022482824 -0.0041488316 0.0092896344 4289343268
-0.020433232 -0.0048920354 0.0098050544 4289604898
-0.018646233 -0.0040527973 0.0090230918 4289408549
-0.016591445 -0.004795664 0.009538305 4289408549
-0.014531344 -0.0055382866 0.010053231 4289408549
-0.012465931 -0.0062806536 0.01056788 4289539108
-0.010684907 -0.0054411022 0.0097866803 4290193439
-0.0089094602 -0.0046015857 0.0090059442 4290455324
-0.0069893226 -0.0045527974 0.0088730874 4290913558
-0.0053753257 -0.0029226607 0.0074458732 4291112203
-0.039279833 -0.01007752 0.012598645 4286725439
-0.037667189 -0.0076483758 0.010517024 4288295728
-0.035852145 -0.0068073221 0.0097339461 4289081128
-0.034154754 -0.0051724836 0.0083028907 4289670434
-0.032468338 -0.0035377359 0.0068726614 4290324764
-0.0304402 -0.0042842487 0.0073875003 4290913559
-0.028406713 -0.0050305631 0.0079020895 4290717209
-0.026490893 -0.0049830107 0.0077686901 4289670178
-0.024575174 -0.0049353642 0.0076353694 4289670178
-0.022659574 -0.0048876014 0.0075021456 4289670178
-0.020744085 -0.00483971 0.0073690279 4289343269
-0.019096501 -0.0032051075 0.0059421123 4290717209
-0.017050084 -0.0039503565 0.0064562839 4290913559
-0.014859017 -0.0054885531 0.0076167523 4290258719
-0.01265721 -0.0070263073 0.0087765297 4289539108
-0.010878969 -0.0061846604 0.0079971394 4289996833
-0.0089588128 -0.0061359904 0.0078641912 4289604644
-0.0070388094 -0.0060871928 0.0077313534 4289997853
-0.0055777282 -0.0036598826 0.0056617265 4288821539
-0.039223231 -0.012416492 0.012097847 4287117629
-0.037394591 -0.011573078 0.011315334 4287968563
-0.035571467 -0.010729662 0.010533308 4288754219
-0.033977985 -0.0082942322 0.0084580714 4288950824
-0.032286137 -0.0066550574 0.0070307441 4289212199
-0.030487772 -0.0058118515 0.0062506697 4289735203
-0.028334279 -0.0073561477 0.0074098953 4289669924
-0.026661776 -0.0057170214 0.0059841624 4289931298
-0.024874587 -0.0048737787 0.0052051758 4289800993
-0.023092952 -0.0040305583 0.0044266609 4289408549
-0.020923559 -0.005573933 0.0055850991 4289539108
-0.019278701 -0.003935108 0.0041616526 4290847769
-0.017235212 -0.0046825977 0.0046744081 4290651674
-0.01518641 -0.0054298332 0.0051868861 4290978583
-0.012990315 -0.0069721383 0.0063438406 4290389789
-0.011217576 -0.0061284597 0.0055664545 4289408293
-0.0091555752 -0.0068750246 0.0060782679 4289604899
-0.0073885471 -0.0060312883 0.005301428 4289016360
-0.005627133 -0.0051875282 0.0045250268 4287381553
-0.039062917 -0.015557972 0.012239816 4287052093
-0.037228934 -0.014712212 0.01145851 4287706678
-0.035618983 -0.01227003 0.0093869381 4288753964
-0.034025449 -0.0098280897 0.0073165605 4288362283
-0.032563038 -0.0065883095 0.0046024211 4288688938
-0.030652761 -0.0065411492 0.0044692168 4289146663
-0.028862733 -0.0056958934 0.0036914835 4289669668
-0.026955374 -0.0056485869 0.0035586457 4289473574
-0.025173705 -0.0048032878 0.0027816813 4289408293
-0.023269277 -0.0047557997 0.0026492383 4289604899
-0.021233916 -0.0055059167 0.0031607486 4289604644
-0.019594502 -0.0038628718 0.0017409342 4288885544
-0.017693132 -0.003815108 0.001608966 4288885543
-0.015652701 -0.0045647593 0.0021203759 4289997344
-0.013323132 -0.0069089839 0.0039177658 4289343013
-0.011411276 -0.0068606166 0.0037853236 4290128413
-0.0094995424 -0.0068121795 0.0036529445 4289408804
-0.007888101 -0.00516917 0.0022355705 4288885544
-0.0061348826 -0.0043235105 0.0014613834 4288624678
-0.039110381 -0.017106781 0.011087136 4286987069
-0.03727648 -0.016258862 0.01030745 4287903539
-0.035557285 -0.014610578 0.0088845138 4289015593
-0.033960983 -0.012162054 0.0068188109 4288296749
-0.032381091 -0.0097138416 0.0047543948 4288231469
-0.03058289 -0.0088662934 0.0039775791 4288427308
-0.028790217 -0.0080188252 0.0032012633 4288885289
-0.027125888 -0.0063712681 0.0017826237 4289146664
-0.025221489 -0.0063239229 0.0016500758 4289604643
-0.023445453 -0.0054764999 0.00087519491 4290128159
-0.021674965 -0.0046290522 0.00010074725 4290128413
-0.019910019 -0.0037816856 -0.00067319814 4289343268
-0.018150643 -0.0029343423 -0.0014466698 4290063134
-0.016118575 -0.0036863508 -0.00093628326 4290193949
-0.013797496 -0.0060373782 0.00085684832 4290913559
-0.011749368 -0.0067887595 0.0013662876 4289866784
-0.0098432191 -0.0067404425 0.0012343117 4289343269
-0.008237198 -0.0050932597 -0.0001794683 4289343524
-0.006489493 -0.0042455224 -0.00095169072 4290325273
-0.0049027875 -0.0025986023 -0.0023639626 4289476889
-0.041199099 -0.017899785 0.0094276424 4286790209
-0.039054144 -0.019458063 0.010577177 4286987069
-0.037111197 -0.019410577 0.010441334 4287838004
-0.035386588 -0.017757773 0.0090212235 4288885288
-0.033784788 -0.015302659 0.006960032 4288165933
-0.032199405 -0.012847774 0.0049000415 4288165933
-0.030630432 -0.010393155 0.0028412994 4288100398
-0.028837841 -0.0095435046 0.0020666227 4288427563
-0.027050786 -0.0086938888 0.0012924082 4288623658
-0.025143817 -0.0086464472 0.0011597055 4289081384
-0.023365129 -0.0077968123 0.00038624307 4289866529
-0.021984674 -0.0045410171 -0.0023087077 4290259229
-0.020225249 -0.0036916072 -0.00308064 4290782743
-0.018471383 -0.0028421963 -0.0038521558 4290913814
-0.016166851 -0.0052002501 -0.0020628148 4290978838
-0.013987891 -0.0067560109 -0.00091439788 4290717209
-0.011942688 -0.0075096707 -0.00040640208 4289801504
-0.010186594 -0.006659789 -0.0011776886 4289605154
-0.0085860156 -0.0050083529 -0.0025878849 4289932319
-0.0069964379 -0.0033571385 -0.0039972025 4289997598
-0.0052625239 -0.0025074901 -0.0047667818 4289605919
-0.0033760965 -0.0024592765 -0.0048970967 4288821028
-0.039412521 -0.018593827 0.0075004534 4287771703
-0.037158862 -0.020961076 0.0092874113 4287641909
-0.035216141 -0.020913478 0.0091516739 4288754474
-0.033497073 -0.019256361 0.0077352733 4288035118
-0.031903472 -0.016794799 0.0056796195 4287904304
-0.030326284 -0.01433349 0.0036251501 4288034864
-0.028645553 -0.012676998 0.0022117372 4287969839
-0.026975811 -0.011020607 0.00079914264 4288231469
-0.025066268 -0.010973118 0.00066624896 4288493098
-0.023541149 -0.008512672 -0.0013841992 4289277479
-0.02190163 -0.006856693 -0.0027944359 4289343269
-0.020406649 -0.0043967385 -0.0048426683 4289605154
-0.018519297 -0.0043493398 -0.0049736728 4290063134
-0.016354095 -0.0059099006 -0.0038276294 4289932319
-0.014178138 -0.0074700434 -0.0026822954 4289932319
-0.012280274 -0.0074220751 -0.0028138019 4290128668
-0.010676824 -0.0057663918 -0.0042210044 4289997599
-0.0090843961 -0.0041108113 -0.0056273867 4289735713
-0.0071977973 -0.0040628081 -0.0057578739 4291175188
-0.005311355 -0.0040147016 -0.0058882697 4290782744
-0.0034250617 -0.0039665038 -0.0060185851 4290651928
-0.0016996413 -0.0031147376 -0.0067857592 4289147683
0.00018364936 -0.0030664308 -0.0069157281 4290130198
-0.03741907 -0.020897292 0.0068554035 4286725948
-0.035372943 -0.02165683 0.0073590023 4288165424
-0.033433177 -0.021609193 0.0072235535 4287708210
-0.031951237 -0.018334229 0.0045339735 4287642419
-0.030374002 -0.01586641 0.0024843609 4287773234
-0.028693285 -0.014205584 0.0010741876 4287838513
-0.026900955 -0.01335145 0.00030280798 4287773234
-0.024988841 -0.0133039 0.00016973246 4287969328
-0.023332898 -0.011643344 -0.0012384587 4288623658
-0.021557182 -0.010789324 -0.0020083843 4289539619
-0.020187452 -0.0075163334 -0.0046895454 4288885289
-0.018431004 -0.006662563 -0.0054579582 4289408549
-0.016402267 -0.007421182 -0.0049522147 4289735714
-0.014509857 -0.007373461 -0.005083425 4289801249
-0.012761928 -0.0065195798 -0.0058510038 4289736224
-0.011166625 -0.0048597399 -0.0072544585 4289605154
-0.0094325431 -0.0040059919 -0.008020916 4289604898
-0.0075515136 -0.0039581442 -0.0081510283 4290586393
-0.0058258548 -0.0031044139 -0.0089167571 4289016104
-0.0037898794 -0.003862136 -0.0084109809 4290324763
-0.0019092858 -0.0038139867 -0.0085408306 4289147683
-2.8826296e-05 -0.003765746 -0.0086705983 4290456344
0.0018514767 -0.0037174253 -0.0088002924 4289345563
-0.036074258 -0.018350018 0.0023831148 4286791738
-0.034039311 -0.019111848 0.0028859128 4287903793
-0.032227751 -0.01825547 0.0021145868 4287772979
-0.030304618 -0.018208021 0.0019804656 4287838258
-0.028501388 -0.017351612 0.0012098982 4287642164
-0.026826218 -0.015686462 -0.00019655643 4287903538
-0.024911523 -0.015638852 -0.00032981401 4288165168
-0.023124911 -0.014782475 -0.0010990144 4288885033
-0.02121314 -0.014734719 -0.0012319048 4289277479
-0.019968525 -0.010644354 -0.0045427661 4289343269
-0.018342823 -0.0089798961 -0.0059453775 4289146664
-0.016728129 -0.0073155183 -0.0073471526 4289408548
-0.014841292 -0.0072679403 -0.0074779782 4289474084
-0.013243131 -0.0056038415 -0.0088784294 4289539874
-0.011508975 -0.0047480501 -0.0096433675 4290324763
-0.0097803846 -0.0038922932 -0.01040784 4289866783
-0.007752493 -0.0046525924 -0.0099032773 4289016359
-0.006029591 -0.0037967898 -0.010667213 4288754474
-0.0041544139 -0.0037488881 -0.01079677 4289408804
-0.0021187812 -0.0045086946 -0.010292522 4289736224
-0.00024116039 -0.0044605322 -0.010422098 4289670688
0.0018023476 -0.0052199522 -0.0099182548 4290129689
0.003682375 -0.0051715551 -0.010047867 4290195480
0.0053907931 -0.0043155421 -0.010810371 4289674769
-0.032618273 -0.017356714 -0.00093344296 4286268223
-0.030469403 -0.018931594 0.00020327125 4287837749
-0.028429486 -0.019695099 0.00070437999 4287707189
-0.026506685 -0.019647418 0.00057046046 4287903283
-0.024709154 -0.018788744 -0.0001979113 4288622894
-0.022917174 -0.017930128 -0.00096583797 4288949803
-0.021130722 -0.01707151 -0.0017332749 4288230704
-0.019616511 -0.014591555 -0.0037682655 4288100399
-0.018254776 -0.011301318 -0.006435839 4288165933
-0.016776133 -0.0088220425 -0.0084682005 4288296748
-0.015172414 -0.0071535748 -0.0098658781 4289212453
-0.013435476 -0.0062956754 -0.010629486 4289735714
-0.011704091 -0.0054377755 -0.011392605 4289997599
-0.0099782944 -0.0045798877 -0.012155314 4290586393
-0.008258041 -0.0037221042 -0.012917538 4289343268
-0.0063882768 -0.0036744373 -0.013046791 4289474594
-0.0045186505 -0.0036267014 -0.013175981 4290259483
-0.0024886206 -0.0043888493 -0.012672987 4290914069
-0.00045331568 -0.0051507894 -0.01217023 4289671198
0.00142131 -0.005102626 -0.01229954 4289670943
0.0031271279 -0.0042445725 -0.013060366 4290129433
0.0048273653 -0.003386627 -0.013820703 4289999639
0.0065220147 -0.002528728 -0.014580582 4289672984
-0.028477382 -0.021229541 -0.00043752964 4287707189
-0.026554719 -0.021181874 -0.00057144824 4288099379
-0.024757273 -0.020321053 -0.0013382088 4288622383
-0.023093194 -0.018647302 -0.0027372609 4288622383
-0.021309543 -0.01778654 -0.0035029256 4287968819
-0.019664701 -0.016113047 -0.004900476 4287903538
-0.018030852 -0.014439706 -0.0062971697 4288165679
-0.016546696 -0.011953793 -0.008325059 4288231468
-0.015078973 -0.0094681699 -0.010351717 4288885544
-0.013483513 -0.0077954894 -0.011745519 4289147174
-0.012045927 -0.0053104423 -0.013769947 4289081128
-0.010176025 -0.00526301 -0.013899389 4289997599
-0.0084585473 -0.0044031078 -0.014659786 4290651929
-0.0065916106 -0.0043555656 -0.014788883 4290913814
-0.0047248304 -0.0043078968 -0.014917872 4291437074
-0.0025372803 -0.0058844257 -0.013785801 4290259739
-0.00050216168 -0.006648568 -0.013284671 4289867293
0.0012064874 -0.0057883826 -0.014044152 4289932829
0.0027409494 -0.0041163797 -0.015433081 4289802014
0.0044356957 -0.0032563889 -0.01619141 4289474848
0.0061248913 -0.0023965156 -0.016949333 4289933084
0.0079852343 -0.0023483876 -0.017077411 4288624933
0.010204345 -0.003923486 -0.015947053 4288431134
-0.026847396 -0.021085596 -0.0029762466 4287118393
-0.025055457 -0.020222753 -0.003741012 4288557104
-0.023269065 -0.019359885 -0.0045053442 4288099123
-0.021488201 -0.018497111 -0.0052691852 4288034098
-0.01971288 -0.017634336 -0.0060325353 4287968818
-0.01807902 -0.015956683 -0.0074260095 4287969073
-0.016317524 -0.01509398 -0.008188271 4287773234
-0.014844276 -0.012601804 -0.010210445 4287969328
-0.013387464 -0.010109881 -0.012231434 4288885543
-0.012093864 -0.0068036136 -0.014881027 4289408549
-0.0103736 -0.0059416038 -0.015640095 4288623403
-0.0086588971 -0.005079628 -0.0163987 4289343014
-0.0069497526 -0.0042177113 -0.017156856 4289866784
-0.0052461848 -0.0033557694 -0.017914578 4289932319
-0.0030670315 -0.004936914 -0.016785139 4289736479
-0.0008771494 -0.0065176529 -0.015656414 4289801758
0.00099182129 -0.0064696814 -0.01578537 4290063644
0.0025235862 -0.0047934176 -0.017170884 4290194459
0.0042155981 -0.003931378 -0.017927438 4290913814
0.0059020296 -0.0030693486 -0.018683583 4291044884
0.0079362318 -0.0038352562 -0.018183691 4291110673
0.0097963288 -0.0037870742 -0.018311707 4289671453
0.011656262 -0.0037388252 -0.01843966 4289542679
-0.02762882 -0.0177106 -0.0078940671 4286922553
-0.02585328 -0.016845968 -0.0086561246 4287445303
-0.023827866 -0.017616071 -0.0081585916 4288229939
-0.021666706 -0.019203106 -0.0070320391 4287903284
-0.019627899 -0.019972594 -0.0065353033 4287707699
-0.017991327 -0.018290544 -0.0079257321 4287772979
-0.01636574 -0.016608594 -0.0093153417 4288231214
-0.014892418 -0.014109932 -0.011332678 4288231214
-0.013435528 -0.01161151 -0.01334882 4289212198
-0.011848323 -0.0099302819 -0.014735511 4288819498
-0.010272127 -0.0082491804 -0.016121399 4288885289
-0.0085547566 -0.0073849806 -0.016878575 4289211943
-0.0069978163 -0.0057042222 -0.018262949 4289211943
-0.0052943081 -0.0048401449 -0.019019071 4289539619
-0.0032757148 -0.0056091771 -0.018520135 4289670944
-0.0012518391 -0.0063779172 -0.018021524 4289932573
0.00061158836 -0.006330112 -0.018150117 4289932573
0.0021379516 -0.0046496047 -0.019532055 4289997598
0.0038244948 -0.0037855674 -0.020286635 4290193438
0.0058532357 -0.0045538349 -0.019788099 4289800993
0.0080638751 -0.0061380155 -0.018663704 4289867293
0.0095679313 -0.0044577569 -0.020043861 4290325529
0.011425056 -0.0044095973 -0.020171633 4289737499
0.013097271 -0.0035455134 -0.020924916 4289672728
0.015701234 -0.0067604431 -0.018550748 4289150488
-0.022105742 -0.018265732 -0.010047021 4286137154
-0.019942231 -0.019856988 -0.008923756 4287969074
-0.018175311 -0.018990014 -0.0096832309 4288165423
-0.016413935 -0.01812304 -0.01044229 4288623913
-0.014516883 -0.018075259 -0.010573863 4289147429
-0.013195697 -0.01475109 -0.013212517 4288623913
-0.011603046 -0.013065399 -0.014596354 4288623914
-0.010170773 -0.010560904 -0.016605789 4288623914
-0.0084507354 -0.0096944924 -0.01736155 4288754984
-0.0068910718 -0.0080093462 -0.018742885 4288689194
-0.0053423941 -0.0063243285 -0.020123424 4288689448
-0.0038047209 -0.0046395687 -0.021503109 4289212453
-0.0019521266 -0.0045921244 -0.021631015 4289932319
-9.9673867e-05 -0.004544612 -0.021758858 4289866783
0.0015842542 -0.0036785807 -0.022511719 4290258974
0.0034337118 -0.0036309715 -0.022639226 4288623403
0.0051091835 -0.0027649254 -0.023391401 4288427820
0.0073087364 -0.0043537477 -0.022269497 4289474594
0.0091604814 -0.0043058218 -0.022396969 4289212964
0.011012085 -0.0042578401 -0.022524385 4289605408
0.013048202 -0.0050277971 -0.022027763 4289474848
0.015651792 -0.0082514407 -0.019660071 4289867549
0.018467039 -0.012292316 -0.016670205 4286858294
0.023787431 -0.018736305 -0.011942339 4286595898
0.025686949 -0.018686637 -0.012072723 4286399038
-0.020389266 -0.018910978 -0.011931581 4286791484
-0.018494844 -0.018863495 -0.012063148 4287968819
-0.016600534 -0.018815909 -0.012194626 4288754473
-0.014706332 -0.018768219 -0.012326017 4288231724
-0.013099972 -0.017077968 -0.013707656 4288231468
-0.011358019 -0.016209023 -0.014463533 4288231469
-0.0099202171 -0.013697949 -0.016468467 4288623914
-0.0081947893 -0.012829251 -0.017222993 4288558378
-0.0066296831 -0.011139608 -0.018601526 4288362538
-0.0052329972 -0.008629296 -0.020603402 4288820518
-0.0038527474 -0.0061192727 -0.022604121 4288820263
-0.0021631643 -0.0052511152 -0.023355892 4289016103
-0.00047914684 -0.0043829568 -0.024107248 4289539363
0.00119932 -0.0035149055 -0.024858115 4290716953
0.0028722137 -0.0026469231 -0.025608545 4290520603
0.004713282 -0.0025994871 -0.025735442 4290325018
0.0069071278 -0.0041927546 -0.024616428 4290652439
0.008753337 -0.0041450057 -0.024743546 4290652439
0.010963209 -0.0057377545 -0.02362548 4289474338
0.013183765 -0.0073301084 -0.022508139 4289146919
0.015977018 -0.011382523 -0.019524951 4288296749
0.018607214 -0.014614092 -0.017165527 4286923064
-0.018678445 -0.019551793 -0.013812335 4287183928
-0.016510252 -0.021151369 -0.012695771 4287969074
-0.014613461 -0.021103654 -0.01282737 4288297004
-0.013004366 -0.019409016 -0.014205975 4288231468
-0.011259742 -0.018537885 -0.014960377 4288231468
-0.0095206872 -0.017666752 -0.015714362 4288427563
-0.0079391226 -0.015972495 -0.017090825 4288296748
-0.0066778734 -0.012632142 -0.019712105 4288165933
-0.0052810982 -0.010115342 -0.021709144 4288297259
-0.0039007589 -0.0075988444 -0.023705035 4288493353
-0.0022112057 -0.0067285378 -0.024455197 4288885544
-0.00052722543 -0.0058582551 -0.025204964 4288492844
0.0011512041 -0.0049880557 -0.025954224 4289016104
0.0028240606 -0.0041179368 -0.026703056 4289931808
0.0044913515 -0.0032478767 -0.027451441 4290978840
0.0065058544 -0.0040230239 -0.026956789 4290520603
0.0085256398 -0.0047979392 -0.026462426 4289343269
0.010914378 -0.0072175721 -0.024726506 4289016104
0.013503775 -0.010459054 -0.02237089 4287773234
0.01630199 -0.014522196 -0.019396152 4286661435
0.01855731 -0.016117867 -0.018284352 4286464573
-0.015366763 -0.018489327 -0.017064583 4287183929
-0.013340075 -0.019267423 -0.016573207 4288034609
-0.01130804 -0.020045346 -0.016082099 4288231214
-0.0092706978 -0.020822978 -0.015591316 4288558634
-0.0078355595 -0.018298879 -0.01758636 4288165933
-0.0068806261 -0.013299213 -0.021443747 4288165679
-0.0053291693 -0.011601221 -0.022814766 4288427563
-0.0037887096 -0.0099033909 -0.024185009 4288689703
-0.0017709881 -0.010681053 -0.023692517 4288427819
-7.8886747e-05 -0.0098084891 -0.02444122 4289147174
0.0014394671 -0.008110974 -0.025809675 4288558123
0.0029468387 -0.0064136577 -0.027177382 4288754218
0.0047904104 -0.006366198 -0.027304482 4289473829
0.0068101659 -0.0071433936 -0.026811823 4289735459
0.0086561963 -0.0070957216 -0.026938979 4289473573
0.011229083 -0.010346403 -0.024588779 4288231214
0.014008008 -0.014421007 -0.021620899 4286857529
-0.011941809 -0.018241931 -0.019684294 4288034609
-0.0096173398 -0.020677248 -0.017954493 4288100399
-0.0080357268 -0.018974392 -0.019324537 4288362283
-0.0067741796 -0.015616704 -0.021932896 4288427308
-0.0052199662 -0.01391436 -0.023300905 4288362283
-0.0031968728 -0.014694176 -0.022810496 4288754728
-0.0014938191 -0.013819255 -0.023558404 4289016614
0.00020367652 -0.012944392 -0.024305863 4289474594
0.0015593916 -0.010415288 -0.026290167 4289081638
0.0028986856 -0.0078865336 -0.028273283 4288950824
0.0043950975 -0.0061851381 -0.029636905 4289015849
0.006585516 -0.0077915979 -0.028527442 4289212199
0.0089656264 -0.010224582 -0.026800733 4289146664
0.011725247 -0.014310623 -0.023839697 4288230959
-0.010112688 -0.019692972 -0.020929405 4286987834
-0.0082357228 -0.019645412 -0.021059372 4288099634
-0.0065133423 -0.018768128 -0.021807218 4288427053
-0.0047965199 -0.017890841 -0.022554645 4289081638
-0.0029253438 -0.017843151 -0.022684008 4289016614
-0.0012169108 -0.016965942 -0.023430679 4288493609
0.00032066554 -0.015259461 -0.024794132 4288297259
0.0018472448 -0.013553097 -0.026156776 4288428073
0.0031920746 -0.011017762 -0.028135393 4288362538
0.0046939626 -0.009311894 -0.029496228 4288820008
0.0070657581 -0.011751699 -0.027773883 4288492844
0.009453699 -0.01419102 -0.026052596 4287773489
0.012221016 -0.018287748 -0.023100222 4286661433
-0.010756537 -0.017863547 -0.024511281 4286922298
-0.006407164 -0.021096192 -0.022304241 4288361009
-0.0045305416 -0.021048494 -0.022434076 4288295983
-0.0028138757 -0.020169027 -0.023179786 4288231724
-0.001102753 -0.019289581 -0.0239251 4288362538
0.00043756515 -0.017578714 -0.025285516 4288558889
0.0019669086 -0.015868032 -0.026645105 4288558889
0.0034852326 -0.014157501 -0.028003911 4288820518
0.0049926043 -0.012447239 -0.029361876 4288886053
0.0071933866 -0.014062149 -0.028259639 4288296748
0.0095837414 -0.016507946 -0.026543401 4287184693
0.011990257 -0.018953208 -0.024828266 4286923063
0.013491645 -0.017242774 -0.026185576 4286333758
-0.0048929453 -0.020878989 -0.024778103 4286726459
-0.0030220002 -0.020831352 -0.024907485 4288427054
-0.0011511669 -0.020783659 -0.025036814 4288885033
0.00055436045 -0.019902185 -0.025780044 4289147939
0.0020864457 -0.018187126 -0.027136605 4289344290
0.0034369305 -0.015638681 -0.029106002 4288951589
0.0051176697 -0.014757583 -0.029847326 4288755239
0.0071448982 -0.015543392 -0.029361758 4286988088
-0.0054119974 -0.019864675 -0.027728487 4286529853
-0.001686722 -0.019769829 -0.027986102 4288034864
0.00034084916 -0.020558152 -0.027502444 4288493353
0.0018702671 -0.018838881 -0.028855626 4288624424
0.0033886805 -0.017119739 -0.030208007 4288558888
0.0048961341 -0.015400864 -0.031559546 4288297259
0.0069205016 -0.016188975 -0.031075444 4286660923
-0.00036758929 -0.018695548 -0.031053845 4286922299
0.00148651 -0.018648166 -0.031181928 4288165424
0.0031700358 -0.017762847 -0.031920347 4288165423
0.004847981 -0.016877562 -0.032658301 4287838514
0.0011030957 -0.018448748 -0.033501688 4286594878
0.002951555 -0.018401496 -0.033629373 4287707189
0.0046267658 -0.017514102 -0.034365583 4287510838
0.014731616 0.014422309 0.021131163 4280518738
0.016467281 0.015235908 0.020334579 4280914244
0.019502677 0.010703638 0.024189254 4280718658
0.023516513 0.0023541879 0.031362902 4281956683
0.012048244 0.015899478 0.017465999 4280192593
0.013052024 0.019779027 0.014018905 4278893879
0.014763191 0.02059418 0.013225639 4278960943
0.01721435 0.01834581 0.015083982 4279479869
0.02062726 0.012268983 0.0202542 4278371128
0.024658985 0.0038961619 0.027408823 4279218493
0.00938721 0.017394951 0.013812538 4280718403
0.010572337 0.020517126 0.011035004 4280329018
0.012278229 0.021334257 0.010243679 4280589374
0.013978496 0.022151314 0.0094528003 4281242173
0.016232111 0.020664226 0.010645852 4280329783
0.01868546 0.018409468 0.012499229 4278506023
0.021922007 0.013083601 0.016994735 4281502529
0.025001876 0.0085266773 0.020827072 4281436740
0.0070938766 0.017367553 0.011491761 4280717894
0.0084602162 0.019728005 0.0093805445 4280784448
0.009988144 0.021317646 0.0079306727 4278698803
0.011866689 0.021366391 0.0078014522 4280003384
0.01374501 0.021415226 0.007672315 4281567043
0.015436873 0.022234343 0.0068837157 4281633089
0.017501049 0.021513112 0.0074142567 4280720699
0.019953854 0.019251976 0.0092628421 4280524349
0.022422776 0.01699128 0.011110411 4280980034
0.025104888 0.013961166 0.013615732 4280522308
0.028208233 0.0093919896 0.017436849 4281043528
0.031749085 0.003284106 0.022572665 4281369928
0.0051515028 0.015803829 0.010495016 4280389964
0.0061810836 0.019716427 0.0070703337 4280587843
0.0078845695 0.020537671 0.0062822932 4280457538
0.0095824152 0.021358922 0.0054946858 4280720443
0.011455402 0.021407537 0.005365856 4278635309
0.01332818 0.02145623 0.0052371025 4278833188
0.015200771 0.021505017 0.0051084347 4279485223
0.018753663 0.022375047 0.0041937763 4280784449
0.02081728 0.021651793 0.0047228578 4280393789
0.022886097 0.020928718 0.0052516926 4280394299
0.025559448 0.017889827 0.0077511552 4280981309
0.028254345 0.014851499 0.010249214 4281436229
0.031586356 0.0094981249 0.014715755 4282217803
0.035995826 0.00028672069 0.022461887 4282869584
0.0028749779 0.015790608 0.0081832679 4281043275
0.0037433207 0.020489197 0.0041086324 4281045824
0.0054415166 0.021312404 0.0033225263 4281110593
0.0073093474 0.02136071 0.0031939181 4281175364
0.0093549266 0.020634335 0.0037222581 4281176129
0.010863706 0.022232294 0.0022802879 4280394298
0.012728244 0.022280768 0.0021520988 4280262974
0.014220305 0.023878526 0.00071137573 4279481143
0.016267844 0.023152493 0.0012398789 4280196928
0.017937489 0.023975607 0.00045614489 4280196419
0.019990049 0.023249872 0.00098442275 4280588863
0.021850832 0.023298666 0.00085680361 4280524858
0.024110816 0.021799129 0.0020399974 4280331059
0.025774196 0.022622347 0.0012569658 4278767144
0.028662749 0.018801063 0.004404393 4279221044
0.032617524 0.011110513 0.01082408 4278892093
0.037468642 0.00032575149 0.019858662 4280324429
0.0016564056 0.019721255 0.0024677715 4279610174
0.0048749894 0.022148941 0.00024346329 4278446354
0.0067345351 0.022197038 0.00011543158 4279938103
0.0085938945 0.022245236 -1.2506061e-05 4281175874
0.010453075 0.022293504 -0.00014037851 4281045058
0.012495391 0.021565009 0.00038674255 4280980033
0.01417084 0.022390299 -0.00039587569 4280784194
0.016218208 0.021662086 0.00013101441 4280653633
0.017887808 0.022487387 -0.00065108505 4280000578
0.019745983 0.022536058 -0.00077856542 4280523838
0.021210127 0.024137713 -0.0022138415 4280720189
0.023262091 0.023409992 -0.0016870658 4279093799
0.024914593 0.024235092 -0.0024677312 4279223339
0.027381718 0.021955125 -0.00063439767 4278960943
0.034048147 0.011187831 0.0082531748 4279741754
0.037864432 0.0042537637 0.013998781 4281368909
0.041513465 -0.0019030636 0.019088501 4281364829
-0.0016444027 0.01579199 0.0035777397 4280584528
-0.00058910251 0.019737612 0.00017545695 4280851004
0.00093968213 0.021344375 -0.0012617767 4280460089
0.0024574175 0.022950903 -0.0026981386 4279678513
0.0043088943 0.022998713 -0.0028256711 4279287853
0.0083669126 0.02153635 -0.0017732469 4280980544
0.01004272 0.022363607 -0.0025543538 4280914753
0.012079418 0.021632832 -0.002028516 4280849474
0.013749413 0.022460129 -0.0028090777 4280914499
0.015979849 0.020950809 -0.0016305841 4281175619
0.017646722 0.021778166 -0.0024108286 4280784449
0.019502096 0.021826763 -0.0025381199 4280915518
0.021160409 0.022654064 -0.0033176506 4279873079
0.023212224 0.021924168 -0.0027924883 4281307454
0.024864689 0.022751462 -0.0035715087 4281371968
0.027126506 0.021243427 -0.0023948238 4281437758
0.029191278 0.020514041 -0.0018703494 4279483183
0.031682074 0.01822836 -4.3445878e-05 4281371968
0.034615248 0.01438674 0.0030848528 4281175874
0.038438722 0.0074333046 0.0088154338 4280716874
0.042529412 -0.00029682275 0.015193574 4280778839
-0.0038872585 0.015806723 0.0012839065 4280388434
-0.0029848292 0.020545043 -0.0027640616 4280653634
-0.0012943968 0.0213743 -0.0035449616 4278505004
0.00039040297 0.022203572 -0.0043254322 4281371713
0.0022392124 0.022251211 -0.0044528572 4281567553
0.004087843 0.022298969 -0.0045801802 4281437504
0.0059362873 0.022346795 -0.0047074361 4280915774
0.0077845678 0.022394698 -0.0048346175 4280459579
0.009813115 0.021661431 -0.0043098512 4280980033
0.011846937 0.020928398 -0.0037854412 4280784449
0.013700083 0.020976704 -0.003912753 4280653888
0.015364401 0.021806106 -0.0046912478 4281045314
0.01721444 0.021854483 -0.0048182327 4280915008
0.019064285 0.021902934 -0.0049451413 4281045313
0.020913921 0.021951467 -0.0050719725 4280394553
0.022563852 0.022780843 -0.0058492934 4279027753
0.024410367 0.022829443 -0.0059757978 4280981308
0.026461616 0.022097457 -0.0054520713 4281372224
0.028518066 0.021365721 -0.0049286904 4280850494
0.030790083 0.01985376 -0.0037558372 4280394553
0.033285826 0.017561713 -0.0019340522 4280523074
0.036876522 0.011368589 0.0031336981 4280586314
0.040947385 0.0036161933 0.0094969515 4280712794
-0.0045704842 0.01744638 -0.0024362437 4281239878
-0.0033559054 0.020629682 -0.0051707183 4280849219
-0.0016709641 0.02146098 -0.0059496071 4279481143
8.3744526e-06 0.022292238 -0.0067280391 4278765613
0.0016821027 0.023123436 -0.0075060176 4279678259
0.0035224631 0.023170963 -0.0076327845 4279026479
0.0075580254 0.021699332 -0.0065853 4280525114
0.0092228875 0.022530675 -0.007362389 4280850238
0.011248358 0.021795265 -0.0068390202 4281045823
0.012907416 0.02262662 -0.0076155914 4281176384
0.014749393 0.022674713 -0.007742078 4281045824
0.016399913 0.023505997 -0.008517947 4281436994
0.018432789 0.02277112 -0.0079948343 4281306433
0.020470873 0.022036448 -0.007472028 4281241664
0.022314787 0.022084907 -0.0075984113 4278766633
0.024158485 0.022133432 -0.0077247256 4279421219
0.02600202 0.022181999 -0.0078509916 4278506533
0.030319251 0.019931447 -0.0061588143 4280785213
0.033448219 0.015285082 -0.0023976117 4281044804
0.037256651 0.0082921516 0.0033047926 4281368908
-0.0043016598 0.014386749 -0.0022427067 4280918579
-0.0032427758 0.018364951 -0.0056209727 4280848454
-0.0015551746 0.019198537 -0.006398465 4280978504
-0.00020662695 0.021603897 -0.0084744887 4280394043
0.0014643371 0.022437204 -0.0092506511 4278375209
0.0051392242 0.022532217 -0.0095036989 4280330038
0.0069764033 0.022579838 -0.0096301148 4280850749
0.008813411 0.022627547 -0.0097564468 4280850749
0.010467179 0.023460902 -0.01053113 4280980798
0.012301095 0.023508713 -0.010657119 4281111104
0.013946339 0.024341963 -0.011431051 4278375463
0.017801717 0.023652568 -0.011034657 4281176129
0.019831501 0.022915468 -0.010512859 4280980033
0.02166719 0.022963688 -0.010638696 4280588354
0.023704715 0.022226986 -0.010117358 4280784703
0.025542699 0.022275422 -0.010243232 4280523585
0.028002962 0.019969314 -0.0084288986 4280914243
0.030899718 0.016094021 -0.0053224615 4281110593
0.034462139 0.0098653641 -0.0002788328 4280980034
0.037636518 0.0052071791 0.0034696113 4281238859
-0.0045018494 0.0041752961 0.0039116247 4283332409
-0.0037160814 0.0097420178 -0.00075855013 4281701173
-0.0023236424 0.012154883 -0.0028329149 4281766453
-0.0011116043 0.015355583 -0.0055541694 4281047608
0.00024516881 0.017767727 -0.007625924 4281893443
0.0015854836 0.020179491 -0.0096964436 4280913478
0.0030814037 0.021802999 -0.011118271 4280784194
0.0047411099 0.022638373 -0.011891898 4280980289
0.0067502856 0.02189802 -0.011370787 4280850494
0.0084042028 0.02273342 -0.01214388 4280850494
0.010235488 0.022781067 -0.012269755 4280785723
0.012066588 0.022828795 -0.012395552 4280916284
0.019389123 0.023020443 -0.012898036 4281111359
0.021418549 0.022281282 -0.012377822 4281242939
0.023453213 0.021542277 -0.011857876 4280655418
0.026107192 0.018442195 -0.0094024092 4280393534
0.028782718 0.015342679 -0.0069483458 4280654144
0.031899996 0.010669814 -0.0032058321 4281109318
0.035475321 0.0044241212 0.0018239348 4281108554
0.038231641 0.0013269261 0.004272609 4282215253
-0.0045509711 0.0026601944 0.0027842699 4283201338
-0.0032895282 0.0058706626 6.5955945e-05 4282025789
-0.00204999 0.0090806764 -0.0026507648 4281701173
-0.00050459802 0.010709455 -0.0040729446 4281374773
0.00069655478 0.01391869 -0.0067868643 4281179954
0.002045095 0.016337223 -0.0088531254 4280654653
0.0033771917 0.018755373 -0.010918147 4280914498
0.0046928078 0.021173231 -0.012982008 4280718658
0.0063468665 0.022010725 -0.013753552 4280719424
0.0081754997 0.022058226 -0.013879301 4280589119
0.010186866 0.021315932 -0.013359833 4279742009
0.012017861 0.021363646 -0.013485634 4280393278
0.013472006 0.022990894 -0.014900911 4280849983
0.015106149 0.023828316 -0.015670825 4280980288
0.019143529 0.022344798 -0.014632309 4280981053
0.021170072 0.021603368 -0.01411353 4281112379
0.023403771 0.020072762 -0.012951151 4280785979
0.026671268 0.014596049 -0.0085711228 4280916029
0.029976584 0.0091203488 -0.0041935961 4281240898
0.033529706 0.0028566178 0.00082465308 4282021709
0.036487788 -0.0010386705 0.0039106705 4282412113
0.038395368 -0.00098814629 0.0037802167 4281758038
-0.0044444352 0.0003526276 0.0023025279 4283528759
-0.0031801164 0.0035718456 -0.00040950396 4282221883
-0.0016155168 0.0052053742 -0.0018298303 4281831223
-6.1944127e-05 0.0068387054 -0.0032493325 4281636148
0.0013140514 0.0092643797 -0.0053126784 4281244468
0.0026735738 0.011689715 -0.007374825 4281376814
0.0040166304 0.014114665 -0.0094357347 4281373244
0.004993856 0.018123824 -0.012783675 4280914498
0.006475918 0.019755825 -0.014197939 4280326724
0.0079469383 0.021387577 -0.015611341 4280131139
0.0099554136 0.020643041 -0.015093294 4279349563
0.011783592 0.020690702 -0.015218887 4278959158
0.013423331 0.021530308 -0.015987588 4281240643
0.014866471 0.023161728 -0.017398853 4281241154
0.016879655 0.022417624 -0.016880896 4281046078
0.019094497 0.020882014 -0.015720593 4280525369
0.021320015 0.019346796 -0.01456101 4280784703
0.02395986 0.016228842 -0.012117574 4280849474
0.027644008 0.0091541521 -0.0064652753 4280848963
0.031169564 0.0028721839 -0.0014581423 4281695563
0.034318358 -0.0018258644 0.0022627071 4282607954
-0.0046491846 -0.00036927871 0.00053010171 4283921714
-0.0032291263 0.0020637326 -0.001531649 4282810423
-0.0018255264 0.0044963602 -0.0035921615 4282353463
5.2802265e-05 0.0045445859 -0.0037217531 4282092599
0.0014316142 0.0069768243 -0.0057804468 4281766198
0.0029631257 0.0086141378 -0.0071950271 4281440819
0.0044836104 0.010251313 -0.0086088143 4281179443
0.0056438372 0.013477108 -0.011306756 4281441073
0.0067821741 0.016702374 -0.014003088 4281438013
0.0080786198 0.019132953 -0.016055755 4280783174
0.00954137 0.020768955 -0.017465327 4280457793
0.011178538 0.021610592 -0.01823229 4278763574
0.012621909 0.023246221 -0.019640356 4279221044
0.014436059 0.023293659 -0.019764876 4280200753
0.019045494 0.019419424 -0.016808735 4279025714
0.021469809 0.017086046 -0.015011527 4280980033
0.024717279 0.011578323 -0.010652892 4280783683
0.028616033 0.0036907122 -0.0043754596 4281107533
0.031947315 -0.0018147202 -2.2430788e-05 4282411604
-0.0048537925 -0.0010865964 -0.0012389093 4284117808
-0.0031198934 -0.00024120137 -0.0020115881 4282943279
-0.001713492 0.0021980479 -0.0040674773 4282158389
-0.00015988946 0.0038400833 -0.005480479 4281962039
0.0013826787 0.0054819696 -0.0068926946 4281701173
0.0030833259 0.006326871 -0.0076628113 4281767474
0.0047783628 0.0071717389 -0.0084324591 4281440054
0.006293267 0.0088131782 -0.009842569 4281311279
0.0074426308 0.012047483 -0.012533198 4281180973
0.0083901435 0.016077742 -0.015862757 4280134454
0.0094929785 0.019310988 -0.018550072 4280912969
0.010944732 0.020951092 -0.019955538 4280260424
0.012385443 0.022590958 -0.021360205 4278764084
0.016395032 0.021093544 -0.020329691 4279285303
0.019192748 0.017161023 -0.017257346 4280784959
0.022216409 0.012433326 -0.013547609 4281110084
0.025675848 0.0061147325 -0.0085619995 4281042253
0.029382959 -0.00099845231 -0.0029404818 4281627224
-0.0016016066 -0.00010440126 -0.0045458684 4283073329
-4.5247376e-05 0.0015420364 -0.0059558274 4282485553
0.0013337582 0.0039872918 -0.0080048116 4281700664
0.0028653294 0.0056332666 -0.0094129294 4281765688
0.0047293529 0.0056814067 -0.0095413225 4281766708
0.0065932125 0.0057296306 -0.009669641 4282158644
0.0079253688 0.0081740301 -0.011715138 4281569848
0.0090611726 0.01141672 -0.014398305 4281375284
0.0099924728 0.015457479 -0.017718595 4281570358
0.011267066 0.017900657 -0.019759925 4281697349
0.012337185 0.021141835 -0.022438359 4280716874
0.014148414 0.021189168 -0.022562699 4280718659
0.016346432 0.019640051 -0.021411074 4280587588
0.019536085 0.014100201 -0.017071268 4280716109
0.022962458 0.0077633541 -0.012096455 4281235544
0.02643209 0.0014276588 -0.007124519 4281366103
6.9275498e-05 -0.00076013524 -0.0064342441 4283726384
0.0014510825 0.0016916962 -0.0084785661 4282354484
0.0029854029 0.0033421032 -0.0098836124 4282092344
0.0048520342 0.0033902712 -0.010012217 4281897523
0.0065441132 0.0042394772 -0.010778364 4281897778
0.008053489 0.0058895294 -0.012181554 4281702704
0.0093720108 0.0083401389 -0.014221134 4281505078
0.010856606 0.0099897292 -0.015622484 4281569848
0.012330174 0.011639047 -0.01702299 4281243959
0.01360473 0.014088806 -0.019059403 4280590649
0.015053503 0.01573764 -0.020458084 4280718404
0.017264873 0.014184512 -0.019310631 4280849219
0.020467497 0.0086297896 -0.014983077 4280260934
0.023906775 0.0022759009 -0.010022129 4281172814
0.027389303 -0.0040768394 -0.0050640632 4282345814
0.0034431294 -0.00055977236 -0.0090845777 4283595059
0.0049745888 0.0010950118 -0.010486179 4282876468
0.0064950287 0.002749538 -0.011886928 4282615859
0.0080044419 0.0044039376 -0.013286874 4282094384
0.0095028207 0.0060580764 -0.014685966 4282158898
0.011172652 0.0069091003 -0.015448794 4281702704
0.012836859 0.0077601243 -0.016211201 4281505844
0.014307596 0.0094137955 -0.017608205 4281309749
0.015957907 0.010264574 -0.018369492 4281113653
0.018375918 0.0079048108 -0.016591508 4281306688
0.021594249 0.0023353025 -0.012276383 4282282573
0.024651624 -0.0024306299 -0.0085981777 4281957194
0.027741395 -0.0071956594 -0.0049220794 4282543694
0.0054400861 -0.0028151488 -0.0096940184 4283465264
0.0066202059 0.00045454223 -0.012360925 4282810423
0.0079554021 0.0029185377 -0.014392051 4282094129
0.0094538406 0.0045769773 -0.015787935 4281702449
0.011306033 0.0046251174 -0.015915288 4281441329
0.012972943 0.0054783169 -0.016676232 4281506098
0.014822081 0.0055265296 -0.016803261 4281243449
0.016671047 0.0055748057 -0.016930224 4281440054
0.019486129 0.001599188 -0.0138916 4281635383
0.022328198 -0.0023756297 -0.010854757 4282477649
0.025197245 -0.0063496851 -0.0078197224 4282739024
0.027489021 -0.0079092253 -0.0066841501 4282020944
0.029791497 -0.0094684437 -0.0055492064 4282345303
0.008260183 -0.00018152129 -0.014231882 4283857963
0.010123298 -0.00013319775 -0.014360059 4282811699
0.011621609 0.0015297057 -0.015752673 4281441329
0.013293914 0.0023852065 -0.016512373 4281701173
0.014960647 0.0032406244 -0.017271647 4281308984
0.017193168 0.0016749157 -0.016135456 4281374264
0.019822784 -0.001504411 -0.013736959 4281567808
0.022865705 -0.0062968573 -0.010077284 4282346578
0.010074072 -0.0016226145 -0.01546822 4284380714
0.011572421 4.4625252e-05 -0.016857598 4282484533
0.013429679 9.2943199e-05 -0.016985262 4281570358
0.015099093 0.00095058419 -0.017743111 4281177149
0.017334111 -0.00061945803 -0.016610304 4281374264
0.020352267 -0.0054256814 -0.012958736 4282022983
0.023207009 -0.0094219251 -0.009939014 4282476883
0.011887625 -0.0030634757 -0.016704356 4283596334
0.013750225 -0.0030150563 -0.016832417 4282680629
0.015425041 -0.002155127 -0.017589031 4281636148
0.017665245 -0.0037293592 -0.016459886 4281245234
0.020495273 -0.0077371928 -0.01344664 4282478413
0.01556319 -0.0044557061 -0.018068342 4282678334
0.017996132 -0.0068477816 -0.016315807 4282349384
0.018326774 -0.0099747591 -0.016178025 4283852608
0.00081185997 0.00072207209 0.052166071 4279520924
0.002664201 0.0015223091 0.051349219 4280175508
0.0053098202 -0.0014231792 0.053920966 4281290113
-0.0020070598 0.0028195381 0.047724921 4279324573
0.0015134811 0.005175028 0.045420066 4278468028
0.0066249073 1.7574988e-05 0.049876053 4278665143
-0.0042030141 0.0019247457 0.045998927 4279259038
-0.002815716 0.0049900264 0.043161072 4278800039
-0.00098781288 0.0057939328 0.042349111 4278537644
0.00099139661 0.0058442503 0.042212185 4278800038
0.0077532306 0.0022289902 0.045171987 4279258528
0.010248646 2.021715e-05 0.04705593 4280504968
-0.0079542696 -0.0012836307 0.046435736 4282667879
-0.0066852123 0.0025468729 0.042928617 4279128734
-0.005146198 0.0048649274 0.040770512 4278800548
-0.00150121 0.0064767599 0.039150551 4278994858
0.0004696995 0.0065268688 0.039014205 4279586204
0.0024404079 0.0065771043 0.038877968 4279061414
0.0047354996 0.0051162355 0.040086951 4278668203
0.0068762898 0.0044112094 0.04062292 4278866084
0.0091900304 0.0029510148 0.041830759 4278735268
0.012025811 -0.00077501684 0.045053985 4278473129
0.014888592 -0.0045002559 0.048275422 4280374664
-0.010144562 -0.0021752901 0.044711586 4282339183
-0.0091505721 0.0031828694 0.039867189 4279849364
-0.0077571869 0.0062654912 0.037041824 4278604708
-0.0057913214 0.0063151941 0.036905617 4278538919
-0.00201419 0.0071729347 0.035961926 4278271169
0.0041975006 0.0058074221 0.036896884 4278271423
0.006329909 0.0051000752 0.037431784 4278406573
0.0084675699 0.0043929741 0.037966404 4278603688
0.010780841 0.0029285029 0.039171163 4278538663
0.01293169 0.0022219233 0.039705012 4279456409
0.015615225 -0.00075674802 0.042248633 4282144109
-0.011318333 0.0023116469 0.038156312 4279324829
-0.0099164881 0.0054031461 0.035336759 4278732718
-0.0082449429 0.0069734193 0.033859756 4278994858
-0.0061388388 0.0062626265 0.034394398 4278800293
-0.0043299869 0.0070725344 0.033588603 4278604199
0.0038220435 0.0057520643 0.034386043 4278406829
0.005948849 0.0050423741 0.034919765 4278603688
0.0080808476 0.0043329746 0.035453167 4278472364
0.009877488 0.0051432885 0.03464875 4278930598
0.019181788 -0.00072955899 0.039451879 4281880183
-0.013342816 0.00068253744 0.037117969 4279914134
-0.0087323003 0.0076947194 0.030687643 4278400454
-0.0066345632 0.006981533 0.031221233 4278401729
-0.0046827495 0.0070310291 0.031086113 4278669478
-0.0022693649 0.0047935471 0.032955915 4278604198
-0.00015310943 0.0040811636 0.033488479 4278407593
0.0018090606 0.004131224 0.033352863 4278473128
0.003771022 0.0041813962 0.033217352 4278473128
0.0055680051 0.0049937144 0.032414403 4278472618
0.0076943934 0.0042820126 0.032946579 4278472364
0.0093152896 0.0058563165 0.031477053 4278733738
0.013050877 0.0067189764 0.030540781 4279189169
0.016955853 0.0068200883 0.030272001 4280834428
-0.015906334 0.0021138526 0.03340799 4278669224
-0.014493026 0.0052228682 0.030600505 4278602924
-0.01282116 0.006801663 0.02912984 4278865318
-0.011017393 0.0076155085 0.028327437 4279127714
-0.0047329888 0.0054692924 0.029924024 4278538154
-0.002473779 0.0039897878 0.031122319 4278669734
-0.00051700324 0.0040396396 0.030987028 4278407338
0.0015988573 0.0033251774 0.031518072 4278538409
0.0033959821 0.0041396115 0.030716693 4278865829
0.0053521916 0.0041897371 0.030581653 4278538153
0.0073082224 0.0042399652 0.030446706 4278276014
0.01104676 0.0051047355 0.029511748 4279716764
0.012472607 0.0074471142 0.027381787 4278997663
-0.017919399 0.00049448386 0.032375913 4281290113
-0.016629633 0.0043795686 0.028907737 4278931619
-0.011495687 0.0083615165 0.025172973 4278668459
-0.0095601529 0.0084104035 0.025038833 4278602923
-0.0050853416 0.0054413658 0.02743171 4278275504
-0.0031394064 0.0054908302 0.027297085 4278734758
-0.00088066608 0.0040071458 0.028492229 4278472618
0.0010703579 0.0040569548 0.028357413 4278800293
0.0030211806 0.0041068699 0.028222689 4278800038
0.0046425238 0.0056897122 0.0267595 4278538154
0.0067549124 0.0049733203 0.027289409 4278930854
0.011017084 0.012019323 0.020915054 4279064729
-0.018364735 0.0012327963 0.029212875 4280174998
-0.01681364 0.0035898518 0.027082834 4281353609
-0.015004266 0.004407974 0.02628313 4279258273
-0.0055884123 0.006191412 0.024282454 4278603434
-0.0034970567 0.0054717474 0.024811847 4278668968
-0.0015568808 0.005521195 0.024677714 4278735268
