# .PCD v0.7 - Point Cloud Data file format
VERSION 0.7
FIELDS x y z rgba
SIZE 4 4 4 4
TYPE F F F U
COUNT 1 1 1 1
WIDTH 961
HEIGHT 1
VIEWPOINT 0 0 0 1 0 0 0
POINTS 961
DATA ascii
-0.015107419 -0.0048122108 0.044994254 4288885544
-0.013246257 -0.0040050689 0.044198927 4289474083
-0.011262488 -0.0039602928 0.044075452 4290062878
-0.0090169981 -0.0054400302 0.045294549 4290520859
-0.0067607611 -0.0069194417 0.04651311 4289670178
-0.0047665462 -0.0068741124 0.046389226 4289408294
-0.0030507222 -0.005304357 0.04492395 4289800738
-0.0012041107 -0.0044968762 0.044130024 4289539109
0.00063687563 -0.0036893822 0.043336559 4290519838
0.0027667731 -0.0044057816 0.043883964 4290324253
0.0053519458 -0.007407615 0.046441343 4290455323
0.0073478222 -0.0073615685 0.046317857 4289081383
0.0093435049 -0.0073154196 0.046194468 4289080109
-0.020769279 -0.0088295098 0.046197735 4287902774
-0.019125957 -0.0064905286 0.044061754 4289342248
-0.017379131 -0.0049165711 0.042597231 4290389789
-0.015520651 -0.0041073728 0.041803572 4291109909
-0.013542332 -0.0040628295 0.041680358 4290782744
-0.011436004 -0.0047827605 0.042227078 4291240723
-0.009324383 -0.0055024251 0.042773496 4290193949
-0.007207457 -0.0062218457 0.043319684 4289801504
-0.0052215606 -0.0061766654 0.043196347 4289866783
-0.0033748597 -0.0053670928 0.042403974 4289735713
-0.001533784 -0.0045575276 0.04161204 4290128414
0.00030166656 -0.0037479261 0.040820498 4289081383
0.0024259388 -0.0044666789 0.041366678 4289474338
0.0045554638 -0.005185144 0.041912574 4289932064
0.0065376014 -0.0051393975 0.041789956 4289409059
0.0083641633 -0.0043296227 0.040999327 4288950569
-0.021157555 -0.0081238355 0.043005705 4288098868
-0.019522369 -0.0057784999 0.040875103 4289211943
-0.017663836 -0.0049672769 0.040083021 4289473829
-0.015810892 -0.0041560438 0.039291393 4289997599
-0.013838165 -0.0041116178 0.039168533 4290062878
-0.011737496 -0.0048337961 0.039713949 4289801504
-0.0097623393 -0.0047890795 0.039591115 4290259739
-0.0076537877 -0.0055108769 0.040136188 4289540128
-0.0056762062 -0.0054658586 0.040013384 4289540128
-0.0036987811 -0.0054207491 0.039890662 4289866783
-0.002004914 -0.003842704 0.038433377 4290848534
-0.00032212585 -0.0022647958 0.036976855 4290521113
0.0016439036 -0.0022196397 0.036855072 4290521113
0.003909491 -0.0037068073 0.038067047 4290586648
0.0058806017 -0.0036613028 0.037945114 4289736224
0.0078515261 -0.0036156978 0.037823275 4288950314
-0.021431066 -0.008174058 0.040491048 4288556594
-0.019918412 -0.0050531486 0.037698422 4289277479
-0.018068142 -0.0042399354 0.036908474 4289408293
-0.016100891 -0.0041957218 0.036785889 4289277989
-0.013883159 -0.0056893565 0.037996829 4289604898
-0.011910722 -0.0056448057 0.037874084 4289867038
-0.010069169 -0.0048313001 0.037085049 4290325018
-0.0080997422 -0.0047865855 0.036962662 4290129433
-0.006266661 -0.0039730407 0.036174323 4289540893
-0.0045781136 -0.0023908056 0.034720503 4289213984
-0.0029006004 -0.00080876611 0.033267483 4290064154
-0.00094542652 -0.00076393224 0.033146314 4290195223
0.0013037398 -0.0022559501 0.034355972 4290195479
0.0035636276 -0.0037476346 0.035565101 4290392594
0.0056816936 -0.004470584 0.036108568 4289539873
0.0071840137 -0.0021201354 0.033992276 4288623658
-0.021704335 -0.0082152365 0.03798303 4288817713
-0.020079974 -0.0058570988 0.035862889 4289800739
-0.018232524 -0.0050416896 0.035074733 4290848023
-0.016268138 -0.0049975598 0.034952313 4290913559
-0.014053401 -0.0064956294 0.036160257 4290259229
-0.012083828 -0.0064511402 0.036037691 4290128668
-0.010506451 -0.0040934272 0.03392088 4290063389
-0.0090789609 -0.00096499547 0.031140592 4289213728
0.0045681 -0.00065200496 0.030294877 4289476379
-0.022205904 -0.0067002708 0.034153365 4289080363
-0.020475417 -0.0051093483 0.032702774 4290193184
-0.018636219 -0.0042919945 0.03191679 4290390554
-0.016557708 -0.0050214278 0.032458555 4291175699
-0.014348697 -0.0065239212 0.033663578 4290913813
-0.012384716 -0.0064795492 0.03354137 4289867294
-0.011204597 -0.0017958097 0.029440319 4289540128
-0.023991607 -0.009866097 0.034435246 4288099124
-0.022478569 -0.0067191338 0.031661998 4289931809
-0.020753559 -0.005123917 0.030214963 4289212198
-0.018919896 -0.0043045143 0.029430944 4288558378
-0.016847044 -0.0050362293 0.029971454 4289539873
-0.014518633 -0.0073187519 0.031835508 4289736224
-0.012685355 -0.0064990008 0.031051779 4289998109
-0.012032676 0.0012992416 0.024314607 4289409824
-0.024370097 -0.0091065019 0.031282611 4287968054
-0.022750985 -0.0067289565 0.029177271 4289735203
-0.020914569 -0.0059074173 0.028394625 4290716953
-0.019083716 -0.0050858893 0.02761241 4290390554
-0.017013803 -0.0058198394 0.028151488 4290455833
-0.014688443 -0.0081089623 0.030010866 4291044884
-0.013113521 -0.0057317959 0.027908739 4289802014
-0.012729518 0.0036431625 0.019868437 4289409824
-0.024636846 -0.0091138259 0.028799372 4288229684
-0.02290906 -0.0075099459 0.027358573 4289735204
-0.020958647 -0.0074663339 0.027236868 4290324254
-0.019127883 -0.0066426191 0.026456289 4290652184
-0.017180432 -0.0065988209 0.02633496 4290979860
-0.015108105 -0.007334766 0.026872363 4290782999
-0.013669021 -0.0041714748 0.024117125 4289147174
-0.0132953 0.0052293595 0.016096909 4289409313
-0.025125965 -0.0075473925 0.025007065 4288754473
-0.023295064 -0.0067217611 0.0242279 4289735204
-0.021352977 -0.0066783149 0.024106734 4289866019
-0.01941099 -0.0066347625 0.023985654 4289539364
-0.017469134 -0.0065910816 0.023864679 4289604899
-0.01552739 -0.0065473057 0.023743784 4289343779
-0.014224015 -0.0025934679 0.020338645 4288820264
-0.025280859 -0.0083168996 0.023196664 4289408038
-0.023680713 -0.0059201848 0.021107104 4289735459
-0.021863628 -0.0050925389 0.020330535 4290651929
-0.019932684 -0.0050492305 0.020210147 4290455324
-0.017879736 -0.0057900771 0.020745428 4289932064
-0.015946303 -0.0057464764 0.020625059 4289932318
-0.014650926 -0.0017819619 0.017228577 4288558889
-0.025657993 -0.0075083543 0.020080386 4289015083
-0.023952082 -0.0058919145 0.01865067 4289931554
-0.022140536 -0.0050622215 0.017876063 4290978840
-0.020095829 -0.0058055473 0.01841015 4291174934
-0.018167879 -0.0057621812 0.018290041 4290586138
-0.016115241 -0.0065051252 0.018823858 4289539873
-0.015332509 0.00061553158 0.012821106 4288755749
-0.027418274 -0.010674005 0.020360313 4287706423
-0.025812507 -0.008264252 0.018280094 4289212198
-0.024223194 -0.005854723 0.016200934 4289343013
-0.022417177 -0.0050229821 0.01542829 4289343269
-0.020497426 -0.0049799094 0.01530861 4290586138
-0.018577788 -0.0049367296 0.015189019 4290651929
-0.016782999 -0.0041048797 0.014417345 4289605408
-0.016013458 0.0030350573 0.0084299967 4289017635
-0.027786646 -0.0098495586 0.017255262 4288164404
-0.026300084 -0.0066423947 0.014528948 4289670179
-0.024494056 -0.0058085741 0.013757853 4290062879
-0.022693578 -0.0049747387 0.012987133 4289146919
-0.020660181 -0.0057227006 0.013518735 4289016359
-0.018743414 -0.0056795934 0.013399316 4289801503
-0.017076116 -0.0040548341 0.01197885 4289998363
-0.016438995 0.003895225 0.0053559975 4288756259
-0.028046377 -0.0098050404 0.014810009 4288362284
-0.026343163 -0.0081757605 0.013390145 4289408549
-0.02465095 -0.0065465821 0.011971002 4290520603
-0.022969723 -0.0049175732 0.010552675 4290847768
-0.021061156 -0.0048747575 0.010433687 4291175444
-0.019030806 -0.0056248037 0.010963903 4290979604
-0.017368961 -0.0039958786 0.0095470455 4289606174
-0.016609475 0.0031829439 0.0035894578 4288559653
-0.028522287 -0.0081606582 0.011074719 4289409824
-0.026719049 -0.0073227016 0.010306926 4289474339
-0.02480771 -0.0072800545 0.010187592 4290063389
-0.023012843 -0.0064420225 0.0094205178 4290717463
-0.021104421 -0.0063992096 0.0093015395 4291175443
-0.019074284 -0.0071514472 0.0098301396 4289866784
-0.017412454 -0.0055181719 0.0084165232 4289343523
-0.030373745 -0.010529388 0.010706123 4287444794
-0.028889541 -0.0072963005 0.0079993075 4289409058
-0.02698369 -0.0072539141 0.0078802155 4289408803
-0.025191531 -0.0064138938 0.0071148346 4289408803
-0.023172274 -0.0071687857 0.0076423176 4289474593
-0.02138577 -0.0063286461 0.0068774726 4289997853
-0.019239515 -0.0078804968 0.0080506951 4289539873
-0.017953895 -0.0038511306 0.004703294 4289474594
-0.030627184 -0.010460092 0.0082788318 4288033334
-0.029148333 -0.0072184391 0.0055788197 4289538599
-0.027358893 -0.0063764323 0.0048151333 4289604643
-0.02546145 -0.0063341139 0.0046966551 4290914069
-0.023564111 -0.006291654 0.0045782905 4290979348
-0.021547884 -0.0070486777 0.0051044244 4289736224
-0.019526321 -0.0078054941 0.0056303674 4289932573
-0.018245984 -0.0037653139 0.0022913646 4289474594
-0.030775055 -0.011183912 0.0065019107 4288687154
-0.029298831 -0.0079336502 0.00380852 4289276714
-0.0275122 -0.0070895264 0.003046633 4290455324
-0.025731105 -0.0062454119 0.0022851769 4291044628
-0.023839355 -0.0062031168 0.0021671299 4291044628
-0.021828778 -0.0069624111 0.0026920205 4290717719
-0.019812867 -0.0077214977 0.0032166438 4290521624
-0.018413439 -0.0044722501 0.00052856817 4289148193
-0.031238548 -0.009490503 0.0028021596 4288818479
-0.029557172 -0.0078401193 0.0013997429 4289670434
-0.027776081 -0.0069939131 0.00063977018 4289408549
-0.026000515 -0.0061477637 -0.00011973293 4289997853
-0.024114352 -0.0061055869 -0.00023742463 4290455833
-0.02210943 -0.0068671862 0.0002861945 4290717974
-0.020220749 -0.006824729 0.00016851211 4289736734
-0.018705059 -0.0043708002 -0.0018716797 4289345308
-0.031596363 -0.0085858572 -0.00024406263 4289145643
-0.029923175 -0.0069313189 -0.0016427373 4290258464
-0.028150328 -0.0060831821 -0.0024005452 4289735714
-0.026269652 -0.0060412399 -0.0025179784 4288754474
-0.024389077 -0.0059991917 -0.0026353251 4288820009
-0.022389807 -0.0067631099 -0.0021129854 4289539618
-0.020628218 -0.0059147673 -0.0028697501 4290063643
-0.01912066 -0.0034544608 -0.0049046213 4289018144
-0.033732157 -0.0085181855 -0.0025236809 4285875268
-0.032164048 -0.0060508577 -0.0045581087 4289080364
-0.030396651 -0.00520078 -0.00531404 4289604133
-0.028524198 -0.0051591648 -0.0054310672 4290651674
-0.026651841 -0.0051174099 -0.0055479817 4290586139
-0.02466356 -0.005883853 -0.0050266553 4290390299
-0.022669919 -0.0066501126 -0.0045055402 4291109909
-0.020792402 -0.0066079134 -0.0046225321 4290063643
-0.019411698 -0.0033330498 -0.0072900457 4288625698
-0.033978608 -0.0083998553 -0.0049149245 4286267459
-0.032415915 -0.0059261266 -0.0069441572 4288752944
-0.030654043 -0.005074014 -0.0076981345 4289015084
-0.02867667 -0.0058431244 -0.0071779322 4289343014
-0.026807178 -0.0058014533 -0.0072946828 4289866529
-0.024821822 -0.0065701446 -0.0067747999 4289474084
-0.023068454 -0.0057177441 -0.0075278915 4289539618
-0.021199245 -0.0056757554 -0.0076443832 4289344034
-0.019578353 -0.0040130289 -0.0090328241 4288429094
-0.034020241 -0.0098985396 -0.0060280059 4287444539
-0.032562513 -0.0066054082 -0.008688001 4288818479
-0.030695718 -0.0065640323 -0.008804759 4288688174
-0.028718557 -0.0073353117 -0.0082861558 4288427308
-0.026849203 -0.0072936425 -0.008402897 4288362029
-0.024979938 -0.0072518801 -0.008519562 4288558379
-0.023229375 -0.0063973861 -0.0092708729 4289081384
-0.021241691 -0.0071679903 -0.0087525975 4289147428
-0.019620813 -0.0055009248 -0.010137805 4288101673
-0.033755191 -0.013842395 -0.0052384418 4287575354
-0.032394145 -0.009725349 -0.0085264919 4288230195
-0.030629724 -0.0088688433 -0.0092773996 4288295728
-0.028650042 -0.0096422564 -0.0087605845 4288623658
-0.026665002 -0.010415438 -0.0082440218 4288820009
-0.024906259 -0.0095587168 -0.0089943185 4289081893
-0.023153055 -0.0087020155 -0.0097441953 4289409058
-0.021284118 -0.0086600333 -0.0098606702 4288689704
-0.019539263 -0.0078033041 -0.010609864 4288297004
-0.033592634 -0.016981844 -0.0050909305 4287117629
-0.032225996 -0.012853816 -0.0083712442 4288099123
-0.030456219 -0.011994987 -0.0091209179 4288361519
-0.028691955 -0.011136224 -0.0098701334 4288754728
-0.026707117 -0.011911574 -0.0093551679 4288493098
-0.024948463 -0.01105269 -0.010103849 4288820263
-0.023076847 -0.011010783 -0.010220591 4289670944
-0.021084119 -0.01178562 -0.0097058685 4288689958
-0.019457832 -0.010109787 -0.011084973 4288428329
-0.017589223 -0.010067608 -0.011201274 4288232999
-0.015979461 -0.0083919428 -0.012579198 4287971369
-0.014116514 -0.0083496552 -0.012694973 4287971879
-0.012388483 -0.0074906731 -0.013441234 4288037923
-0.033634521 -0.018490789 -0.0062116357 4287313979
-0.032058079 -0.015990727 -0.0082223387 4288034354
-0.030390479 -0.014310321 -0.0096013034 4288296493
-0.028513312 -0.014268631 -0.0097186482 4288493354
-0.026636224 -0.014226812 -0.0098358886 4288558634
-0.024643514 -0.015004063 -0.0093229627 4288493354
-0.022882305 -0.014142879 -0.010070131 4288886053
-0.021005481 -0.014100731 -0.010187107 4288886053
-0.019376487 -0.012420455 -0.011563189 4288494118
-0.017631885 -0.011559296 -0.012309066 4288363303
-0.015892833 -0.01069816 -0.013054517 4288493608
-0.013895258 -0.011474652 -0.012541411 4288428073
-0.012161858 -0.010613431 -0.013286353 4288559144
-0.010296542 -0.010570915 -0.013402144 4288428073
-0.008431334 -0.010528305 -0.013517858 4288166698
-0.0067091547 -0.0096670333 -0.014261876 4289082914
-0.0052837767 -0.007168768 -0.016261976 4287380023
-0.033880487 -0.01835618 -0.0085908668 4287575863
-0.032099921 -0.017492976 -0.0093380613 4288035118
-0.03043234 -0.015808243 -0.010713802 4288035629
-0.028555315 -0.015766557 -0.010831136 4288362538
-0.026678368 -0.015724754 -0.010948378 4288035373
-0.02468586 -0.016504209 -0.010437077 4288297258
-0.022924725 -0.015640851 -0.011182621 4288493609
-0.021048039 -0.015598717 -0.011299596 4288820773
-0.019419063 -0.013914114 -0.012672455 4288428583
-0.01742148 -0.014693009 -0.012161137 4288428583
-0.01567705 -0.013829595 -0.012905319 4288624423
-0.013806205 -0.013787166 -0.013021612 4288755494
-0.012070142 -0.012923737 -0.013765122 4288428329
-0.010339636 -0.01206033 -0.014508207 4288428329
-0.0084745511 -0.012017746 -0.01462393 4288297513
-0.0067524314 -0.011154324 -0.015366343 4289082403
-0.0051814355 -0.0094702085 -0.01673498 4287248443
-0.035807483 -0.019901939 -0.0095899664 4286659394
-0.034024209 -0.019036623 -0.010335802 4287904303
-0.032141738 -0.018995048 -0.010453652 4288297259
-0.030366763 -0.018129677 -0.011198792 4288035373
-0.028377011 -0.018911568 -0.010689088 4288035629
-0.026494764 -0.018869678 -0.010806683 4288100909
-0.024612598 -0.01882768 -0.010924193 4288428073
-0.022848826 -0.017962104 -0.011668293 4288428329
-0.020969555 -0.017919939 -0.011785449 4289017124
-0.01933787 -0.016230965 -0.013155266 4288624933
-0.017464224 -0.016188703 -0.013271906 4288886819
-0.01584905 -0.014499932 -0.014640492 4288689959
-0.013717249 -0.016103879 -0.013504934 4288428329
-0.011978537 -0.015238242 -0.014247009 4288428329
-0.010108031 -0.01519564 -0.014363145 4288428329
-0.0083776861 -0.014329989 -0.015104548 4288559144
-0.0066529065 -0.013464359 -0.015845522 4289082403
-0.03260212 -0.017193185 -0.014072862 4287380023
-0.030730747 -0.017151773 -0.014189954 4288361264
-0.02874935 -0.01793604 -0.013681359 4288296238
-0.026762594 -0.018720144 -0.013172994 4288230703
-0.024886008 -0.018678265 -0.013290149 4287773233
-0.023009505 -0.018636279 -0.01340722 4288100144
-0.021012131 -0.019419756 -0.012899299 4288689448
-0.019380447 -0.017726453 -0.014265892 4289344033
-0.017380536 -0.018509697 -0.013757925 4288755494
-0.015762653 -0.016816482 -0.015123491 4288559144
-0.013628382 -0.018424785 -0.013991299 4288755494
-0.011887021 -0.017556895 -0.014731978 4288821283
-0.010288477 -0.015863871 -0.016096082 4288756004
-0.0085609145 -0.014996126 -0.016835704 4288756259
-0.0069816299 -0.013303291 -0.018198503 4289606683
-0.023170039 -0.019305909 -0.015142848 4287053113
-0.02129649 -0.019263888 -0.01525966 4288100143
-0.019670244 -0.017566469 -0.016622681 4288623914
-0.017675973 -0.018351959 -0.016116016 4288362539
-0.015934471 -0.017482154 -0.016855203 4288624678
-0.013803173 -0.019094834 -0.015726112 4288297513
-0.012199081 -0.017397474 -0.017087426 4288494119
-0.010468762 -0.016527615 -0.017825691 4288755749
-0.008604046 -0.016485089 -0.017941426 4288887329
-0.0070247538 -0.014787951 -0.01930102 4289345564
-0.012242008 -0.018888405 -0.018194631 4287512368
-0.010648891 -0.017186876 -0.01955197 4287250228
-0.0087870136 -0.017144457 -0.019667562 4288295984
-0.0072104335 -0.01544306 -0.021023769 4288164914
-0.0071109124 -0.017756823 -0.02150573 4286071873
-0.0062898062 0.0052906685 0.025584321 4284507705
-0.0096231773 0.011435259 0.017930457 4282679353
-0.0082775801 0.014570745 0.015161896 4281896504
-0.0063878633 0.01461399 0.015044717 4280983094
-0.0042098314 0.013111513 0.016252281 4281701173
-0.0014332458 0.0085180812 0.020107809 4282482494
0.00092681497 0.0062437933 0.021975493 4283656769
0.0049197599 0.0055599399 0.022399863 4281951838
-0.011967726 0.012197664 0.014935412 4283920694
-0.011163164 0.018442897 0.0095282635 4281371713
-0.0077048652 0.020078706 0.0079745175 4279548973
-0.0056957714 0.019346418 0.0085196439 4279094563
-0.0013624877 0.016332621 0.010929909 4281371714
0.00082023442 0.014826262 0.012134135 4280784448
0.0031687245 0.012545396 0.013997833 4280261189
0.0053756014 0.011039807 0.015200724 4280194379
0.007272169 0.011083947 0.015083672 4280389708
0.0088421106 0.012677427 0.013647676 4280520014
0.010732874 0.012721615 0.013531118 4280191319
0.01279211 0.011991382 0.01407381 4280059994
0.015370741 0.0089380238 0.01659332 4280253793
-0.01281067 0.01534931 0.0098529579 4282026299
-0.011750184 0.020056685 0.0057789707 4280264249
-0.010445196 0.023208676 0.0030259136 4281632068
-0.0084551945 0.02247368 0.0035705303 4281762373
-0.0066040158 0.022516174 0.0034558398 4280719679
-0.0044593252 0.021004347 0.004659073 4280524093
-0.0024534613 0.02027004 0.0052029514 4280981564
-0.00044232607 0.019535957 0.0057465737 4280916029
0.0018841028 0.017248048 0.0076067736 4280850238
0.0039112344 0.016514527 0.008149554 4280523583
0.005622752 0.01733497 0.0073759649 4280653378
0.0091948286 0.018198995 0.0064877537 4278763318
0.011566594 0.015912661 0.0083454661 4278891583
0.016358532 0.011341352 0.012058223 4280125529
-0.013120238 0.015408536 0.0074226754 4281503549
-0.012064949 0.020128844 0.0033587324 4279873334
-0.0092048869 0.024890648 -0.00081704999 4280198203
-0.0075114965 0.025712257 -0.0015883388 4280002873
-0.0053833835 0.024195692 -0.00038732332 4279352115
-0.0030950755 0.021900257 0.0014702089 4280263483
-0.00094279647 0.020384463 0.0026698872 4280719423
0.0013751462 0.018089877 0.0045257085 4280784703
0.0030786172 0.018912232 0.0037541785 4280589373
0.0047764927 0.019734519 0.0029830406 4280198713
0.0063056499 0.021335809 0.0015560144 4280784449
0.0084870085 0.019821173 0.0027542585 4280522563
0.015269205 0.014500672 0.0070009623 4280913478
0.018379502 0.0090941116 0.011473916 4280586314
-0.013562642 0.016258633 0.0043425085 4281307453
-0.012379471 0.020210041 0.00094513828 4280916284
-0.010946579 0.022597434 -0.0011380718 4278703139
-0.0091063976 0.022639593 -0.0012521439 4279419689
-0.0074103475 0.023463478 -0.0020220198 4278376739
-0.0052797683 0.021942636 -0.00082438276 4278765103
-0.0029890463 0.019640705 0.0010281145 4280654143
-0.0011385977 0.019683504 0.0009137108 4280784448
0.00086657703 0.018944992 0.001454581 4280915263
0.0025618449 0.019769361 0.00068512885 4279937593
0.0044118017 0.019812429 0.0005709636 4279156528
0.0060985684 0.020636728 -0.00019779545 4281305924
0.0079454556 0.020679934 -0.00031161797 4281632069
0.0099606216 0.019942166 0.00022894563 4281370948
0.012152262 0.0184236 0.0014234488 4280457794
0.014702387 0.01534359 0.003925357 4280457028
0.017627336 0.010702463 0.0077336272 4280520778
-0.014295056 0.007670721 0.0092483219 4284575023
-0.013871629 0.016337959 0.0019271581 4281111613
-0.012557976 0.019516168 -0.00080705737 4280915264
-0.010850806 0.020342244 -0.0015761044 4280326978
-0.0091492236 0.02116829 -0.0023447352 4280718403
-0.0073093101 0.021210512 -0.0024587375 4280718403
-0.0054695569 0.021252876 -0.0025726224 4280326469
-0.0033312291 0.019728011 -0.0013786678 4280587844
-0.0014863312 0.019770665 -0.0014927436 4280783939
0.00035840273 0.019813417 -0.0016067328 4280784448
0.0020454526 0.020639742 -0.0023740057 4280719424
0.014483653 0.014633616 0.0021643527 4280457284
0.017758496 0.0084133521 0.0072675296 4280259148
-0.014989644 0.010094034 0.0048611122 4283853119
-0.014446311 0.017998701 -0.00178814 4280850749
-0.013007738 0.02039923 -0.0038620869 4280523073
-0.011308804 0.021227276 -0.0046290187 4279936064
-0.0091920458 0.019697225 -0.0034371477 4280783939
-0.0072084144 0.018953515 -0.0028985196 4280783174
-0.0053660609 0.01899592 -0.0030125787 4280456518
-0.0036731511 0.019824257 -0.0037788155 4280783683
-0.0018338189 0.019866792 -0.0038925402 4280783683
-0.00014939904 0.020695167 -0.0046581542 4281045314
0.0015294403 0.021523444 -0.0054233214 4280915009
0.0032026693 0.022351718 -0.006188049 4281111104
0.0051960871 0.021608917 -0.0056495192 4280263994
0.007029146 0.021651795 -0.0057624895 4279872824
0.0090303645 0.020909363 -0.0052243005 4279937339
0.011036873 0.020167088 -0.004686337 4280588609
0.014091276 0.014713503 -0.00024406589 4280456264
-0.015423227 0.010962425 0.0017939487 4283657024
-0.014754672 0.018100297 -0.0041869534 4280785724
-0.013321482 0.020507229 -0.0062557049 4279872569
-0.0078265965 0.020633088 -0.0065963492 4280071979
-0.0059952475 0.020675236 -0.0067097284 4281045058
-0.0043132752 0.021505484 -0.0074736783 4281045313
-0.0023330078 0.020759823 -0.0069362354 4280849984
-0.00050212443 0.020802276 -0.0070493529 4280915264
0.0013286248 0.020844793 -0.007162408 4280914498
0.0029990748 0.021675168 -0.0079253521 4280588354
0.0049895793 0.020930132 -0.0073882546 4281111104
0.0068198144 0.020972954 -0.0075010471 4281306688
0.0088181496 0.020228272 -0.0069643054 4280653634
0.010992743 0.018696262 -0.005778471 4280654654
0.014046572 0.013227448 -0.0013474992 4280196673
-0.015856437 0.011844162 -0.0012633775 4283200829
-0.015062779 0.018210856 -0.0065791868 4280915009
-0.01363498 0.020624189 -0.0086427443 4279874099
-0.011947066 0.02145634 -0.0094057452 4279547444
-0.0063310228 0.0207917 -0.0090953726 4281110848
-0.0045053996 0.020833818 -0.0092083272 4281111104
-0.0026799217 0.020876033 -0.0093211913 4280915264
-0.0010092035 0.021708397 -0.010082673 4280915008
0.00097057968 0.020960746 -0.0095466785 4281242174
0.0084378645 0.020341462 -0.0093487967 4280980543
0.010606773 0.018805025 -0.0081658829 4280850494
0.013654605 0.013320824 -0.0037458257 4280587843
-0.016419329 0.013531981 -0.0049594343 4281569084
-0.015237845 0.017537611 -0.008316284 4280263739
-0.013677217 0.019164732 -0.0097265579 4281176128
-0.01198937 0.019999055 -0.010487933 4281632324
-0.010307103 0.020833364 -0.011248885 4280654399
-0.0084867552 0.020875165 -0.011361655 4280459834
-0.0066665336 0.020917041 -0.011474355 4280719933
-0.004846476 0.020959055 -0.011586946 4281045824
-0.0031783804 0.021793419 -0.012346731 4280915008
-0.0013613403 0.021835541 -0.012458998 4280654909
0.00045556575 0.021877734 -0.012571202 4281307454
0.0044142827 0.020378372 -0.011502165 4279163414
0.010562778 0.017338997 -0.0092544556 4281045824
0.013610065 0.011839529 -0.0048457235 4280717384
-0.017111696 0.016032388 -0.0092893904 4281242174
-0.014261186 0.020884847 -0.013396815 4279089973
-0.012446139 0.020926321 -0.01350941 4280459069
-0.010631219 0.020967899 -0.013621916 4280524603
-0.008672826 0.020214906 -0.013088207 4279743284
-0.0067091435 0.019462159 -0.012554732 4280655673
-0.0051872805 0.021093188 -0.013958956 4280720189
-0.00337293 0.02113515 -0.014071134 4280916029
-0.0015587136 0.021177189 -0.014183239 4280786234
0.00025533885 0.021219334 -0.014295253 4280721209
0.0020692497 0.02126156 -0.014407196 4281502019
0.0038829818 0.021303879 -0.014519059 4281175873
0.01000642 0.018255247 -0.012276332 4281045313
0.013044983 0.012740387 -0.0078783836 4280978248
-0.017543577 0.016960518 -0.012312262 4280915008
-0.01625086 0.020190304 -0.015006402 4280914244
-0.012626335 0.02027302 -0.015231318 4278830129
-0.010955069 0.021111401 -0.015988363 4280071468
-0.0090023242 0.020356124 -0.01545591 4279352115
-0.0071905218 0.020397795 -0.015568101 4281046334
-0.0053788684 0.020439601 -0.015680177 4280785213
-0.0035673454 0.020481491 -0.015792184 4280850238
-0.0017559677 0.020523461 -0.015904117 4280786234
0.0020261779 0.019811196 -0.015484174 4280785978
0.0036772415 0.020649923 -0.016239434 4281697349
0.0056532845 0.019895894 -0.015707819 4281502019
0.0076346099 0.019142119 -0.01517651 4280850493
0.010304123 0.015203729 -0.012074008 4280850239
0.012827218 0.012062192 -0.0096157938 4280717129
-0.017325718 0.013905233 -0.012106433 4281829184
-0.01616003 0.01794309 -0.015438029 4281435973
-0.014480423 0.018783672 -0.016194165 4281435973
-0.012668356 0.018825071 -0.016306579 4281305923
-0.010856412 0.018866574 -0.016418906 4281239878
-0.0091880709 0.01970716 -0.017174076 4280588354
-0.0073791109 0.019748783 -0.017286079 4280653634
-0.005719211 0.020589398 -0.018040562 4280981054
-0.0039132535 0.020631144 -0.018152233 4280915518
-0.0022617877 0.021471737 -0.018906066 4280915519
0.0013439804 0.021555571 -0.019128671 4278374699
0.0031466112 0.021597607 -0.019239865 4279810093
0.0052795485 0.020042764 -0.018067818 4278701864
0.0097482428 0.016135624 -0.015084273 4280523329
0.012609594 0.011388518 -0.011349846 4280586824
-0.016848486 0.0092385225 -0.010622589 4280915264
-0.015539203 0.012486067 -0.013304806 4280851514
-0.013981313 0.014130497 -0.014701969 4280068664
-0.012296453 0.014973417 -0.015456709 4280198459
-0.010617163 0.01581635 -0.016210997 4280849729
-0.0089434385 0.016659224 -0.016964883 4281371459
-0.0075675547 0.019104363 -0.019000649 4280979778
-0.0057615824 0.01914599 -0.01911241 4281176384
-0.0041073039 0.019988721 -0.019864872 4280849729
-0.0021500438 0.019229574 -0.019335655 4280589373
-0.00050149858 0.02007235 -0.02008763 4280457284
0.0013011917 0.020114297 -0.020198898 4280393279
0.0029412657 0.020957084 -0.020950191 4279089718
0.0049060956 0.020198459 -0.02042119 4279025714
0.0065404475 0.021041268 -0.021172013 4280588099
0.0095339864 0.015479645 -0.016805414 4280784194
0.012392104 0.010719474 -0.013080536 4280521033
-0.016631238 0.0061620176 -0.010432589 4281437503
-0.015183929 0.0086147822 -0.012468315 4281111103
-0.013617873 0.010263665 -0.013862732 4280394554
-0.011924915 0.011108954 -0.014616347 4280394554
-0.010237537 0.011954255 -0.015369586 4280393788
-0.0085557178 0.0127995 -0.01612235 4280392514
-0.0071716011 0.015251275 -0.018153744 4280524858
-0.0055063777 0.016096374 -0.018905383 4281177659
-0.0036952198 0.01613822 -0.019017393 4281241408
-0.0020384267 0.016983287 -0.019768309 4281306434
-0.00038720667 0.017828273 -0.020518851 4280717639
0.0014180914 0.017870279 -0.020630276 4280912713
0.0030608624 0.018715268 -0.021380147 4280979269
0.0048631206 0.018757382 -0.021491254 4281240134
0.0066652447 0.01879956 -0.021602299 4281111359
0.0089788064 0.016433695 -0.019799232 4280980288
0.011828281 0.011660229 -0.016083499 4280129099
-0.017883457 0.00061735138 -0.0082165785 4283395904
-0.016673584 0.0046886802 -0.011526732 4281502274
-0.01496141 0.0055363551 -0.012280087 4281175873
-0.013525046 0.0079954788 -0.014310214 4280915264
-0.011967286 0.0096486323 -0.015700793 4280719678
-0.010139383 0.0096904598 -0.015814139 4280850239
-0.0081683546 0.0089268796 -0.015289315 4280850239
-0.0064840019 0.009774426 -0.016040567 4280980544
-0.0048052408 0.01062201 -0.016791424 4280981054
-0.0031320527 0.011469487 -0.017541846 4280784959
-0.001156114 0.010706419 -0.017017027 4280785213
0.0005113706 0.011553956 -0.017766954 4280263484
0.0020136684 0.013206614 -0.019153519 4280262208
0.0036672577 0.014054017 -0.019902447 4280131648
0.0054802969 0.014096368 -0.020014228 4280066878
0.0074609295 0.01333385 -0.019489372 4280197949
0.009446837 0.01257154 -0.018964777 4280130628
0.011784419 0.010199722 -0.017167965 4280062034
-0.018052869 -5.8563426e-05 -0.0099561103 4283265089
-0.016715907 0.0032155253 -0.012620742 4281371203
-0.015136149 0.0048733242 -0.014009603 4281241664
-0.013432339 0.00572313 -0.014760784 4281306689
-0.011871841 0.0073806569 -0.016148321 4281045058
-0.01004136 0.0074225627 -0.016261814 4281240898
-0.0080677904 0.0066568609 -0.015738772 4281176130
-0.0060889162 0.0058913678 -0.015215996 4281045569
-0.0044020414 0.0067412257 -0.015965724 4280979778
-0.0028721169 0.0083985757 -0.017350977 4280718914
-0.0010450259 0.0084408745 -0.017463909 4280783939
0.00062512606 0.0092907045 -0.018212412 4280653634
0.0022896975 0.010140426 -0.018960478 4280718658
0.0042731687 0.0093756169 -0.018437555 4280914244
0.0062619448 0.0086109638 -0.01791486 4280979524
0.0082560033 0.0078465659 -0.017392464 4280718404
0.0099145249 0.0086964965 -0.018139897 4280192848
-0.017968457 -0.0023503881 -0.010420535 4282610758
-0.016628671 0.00093244947 -0.013078873 4281696584
-0.015046198 0.0025946088 -0.0144647 4281568064
-0.013339717 0.0034465864 -0.015214401 4281371969
-0.011776522 0.0051085688 -0.016598908 4281175873
-0.0099434443 0.0051505268 -0.016712567 4280915008
-0.0078241788 0.0035727806 -0.015556426 4281110849
-0.0059859194 0.003615018 -0.015670286 4281176130
-0.0042963922 0.0044671763 -0.016418586 4280849219
-0.0027637482 0.0061289109 -0.017800787 4280849219
-0.00093403459 0.0061712414 -0.017913902 4280783939
0.00089552999 0.0062136762 -0.018026927 4280719168
0.0028844103 0.0054467209 -0.017506031 4281110849
0.004878588 0.0046799704 -0.0169854 4281110849
0.006878078 0.0039133802 -0.016464993 4281175618
0.0087152049 0.0039563552 -0.016578214 4280849218
0.01055219 0.0039993878 -0.016691379 4280783428
-0.017884158 -0.0046463879 -0.010888059 4282677060
-0.016541537 -0.0013548005 -0.013540105 4281762118
-0.014824133 -0.00050052535 -0.014288957 4281370948
-0.013112292 0.00035374053 -0.015037376 4281501764
-0.01140599 0.0012079738 -0.015785381 4281502784
-0.0097052529 0.0020621736 -0.016532972 4281568064
-0.0078669824 0.002104314 -0.016646907 4280785469
-0.0058830455 0.0013345871 -0.016127681 4281045569
-0.0041908398 0.0021888837 -0.016874526 4281110339
-0.0026554689 0.0038550738 -0.018253701 4280979778
-0.00082316995 0.0038974583 -0.018366979 4280849729
0.0011656806 0.0031282175 -0.01784778 4280784449
0.0031598434 0.0023591369 -0.017328808 4280915264
0.004997164 0.0024019033 -0.017442202 4280980288
0.0068343356 0.0024447963 -0.017555486 4280980288
0.0085037947 0.0032992475 -0.018300492 4280980544
0.010337956 0.0033422094 -0.018413488 4280913989
-0.012750208 -0.0035620807 -0.014234525 4283199554
-0.010898232 -0.0035198443 -0.014349469 4282219334
-0.0091866814 -0.0026631812 -0.015096155 4282350404
-0.0074806958 -0.0018065991 -0.015842386 4281699388
-0.0057802685 -0.00095002726 -0.016588185 4281829184
-0.0040854067 -9.3512237e-05 -0.017333588 4281306178
-0.0023961142 0.00076299347 -0.018078556 4281372224
-0.00040458143 -8.4619969e-06 -0.017561218 4280851514
0.0015922561 -0.00077972189 -0.017044155 4280916794
0.0035943687 -0.0015507508 -0.016527338 4281242174
0.0052776709 -0.00069403648 -0.017271677 4281175873
0.006790638 0.00097635761 -0.018645877 4281240898
0.0084600598 0.0018329583 -0.019389275 4280979778
0.010464326 0.0010622852 -0.018872289 4280782920
-0.0070947409 -0.0057303943 -0.015047363 4284706093
-0.0055319183 -0.0040551154 -0.016421936 4282482494
-0.0039800629 -0.0023800693 -0.017795742 4281370693
-0.0022881106 -0.0015213564 -0.018539276 4281306689
-0.00029404461 -0.0022949455 -0.018023727 4280850239
0.0017053336 -0.0030683149 -0.017508438 4281175873
0.0033914372 -0.0022094743 -0.018251415 4281241154
0.0049099997 -0.00053470861 -0.019622799 4281045568
0.0065822378 0.00032402202 -0.020364838 4281241154
0.0082489103 0.001182694 -0.021106403 4280782409
0.010080144 0.0012255348 -0.021219259 4280322898
0.012690723 -0.0041763168 0.043270361 4280502674
0.01451131 -0.0033685695 0.042478692 4280897159
0.016326249 -0.0025608707 0.041687436 4281158023
0.018304586 -0.0025146306 0.041565485 4279320748
0.020626254 -0.0039910078 0.042781059 4282537064
0.0097107738 -0.0012282664 0.038205262 4281027464
0.011517897 -0.00041874498 0.037415978 4279061669
0.013155825 0.0011545364 0.03595949 4278930344
0.016905382 0.0020096768 0.035050631 4278401728
0.021515369 -0.00095250737 0.037477467 4279716254
0.023659207 -0.0016696546 0.038023215 4278931108
0.026168004 -0.003913329 0.039901946 4278734758
0.028327711 -0.0046299053 0.040446866 4279783828
0.030677937 -0.0061095115 0.041657787 4282076534
0.032474741 -0.0052993083 0.040869825 4282928999
0.034647338 -0.0060153399 0.041414134 4282339183
0.036825158 -0.0067311767 0.041958176 4282732649
0.0095061958 -0.0020379033 0.036368899 4280699534
0.011149764 -0.00046024472 0.034915224 4278405808
0.012782253 0.0011172406 0.033462368 4278732973
0.014403656 0.0026945882 0.032010213 4280044184
0.016182907 0.0035059489 0.031224508 4279454114
0.020596266 0.0013002232 0.032980941 4278602924
0.022726335 0.00058058836 0.033525925 4278865318
0.024861619 -0.00013881922 0.034070667 4278800039
0.026819594 -9.2564151e-05 0.033950336 4278668969
0.028777346 -4.6217814e-05 0.033830091 4279061669
0.032882847 -0.00071857404 0.03425413 4278664379
0.037782751 -0.004450989 0.037333738 4280175764
0.040352166 -0.0066991514 0.039204333 4281815669
0.0089857578 -0.0013064491 0.033206522 4280109973
0.010781877 -0.00049279816 0.032421187 4278471599
0.014024906 0.0026705079 0.029523348 4279060139
0.015629776 0.004251942 0.028075544 4279323043
0.019852117 0.0028071553 0.029164471 4278405809
0.02214814 0.0013173185 0.030372046 4278602923
0.024275072 0.00059556216 0.030915698 4278734504
0.026042335 0.0014092773 0.030132692 4278405808
0.027618766 0.0029905327 0.028687079 4278864299
0.029184081 0.0045716614 0.027242174 4278470324
0.036362097 -0.00066147279 0.031522743 4279257254
0.038912192 -0.0029166266 0.033389654 4279062689
0.042284288 -0.0082400693 0.037903752 4281095039
0.0083078071 0.00020873547 0.029390967 4279914643
0.010092966 0.0010243319 0.028607946 4278931618
0.014908276 0.0057814158 0.024274075 4278272188
0.019282706 0.0035617612 0.026023211 4278864808
0.021393374 0.0028373562 0.026566178 4278865319
0.023509286 0.0021131095 0.027108921 4278800293
0.028573506 0.0053296704 0.02410678 4279191464
0.030500688 0.0053754821 0.023988552 4279455389
0.03281419 0.0038822461 0.025192214 4279257764
0.035138346 0.0023892801 0.026395312 4278865574
0.038069256 -0.0014116494 0.029579541 4278801059
0.041429892 -0.0067505958 0.034082994 4281946993
0.0069989637 0.0048319697 0.022942662 4278933914
0.012272097 0.0072836764 0.020603774 4279001744
0.014187269 0.0073285066 0.020485764 4279066769
0.016273692 0.0066011902 0.021028478 4278933914
0.018713683 0.0043296888 0.022891847 4278408613
0.020639129 0.0043750592 0.022773424 4278734759
0.022743978 0.0036483929 0.023315242 4278603688
0.024671726 0.0036939643 0.023196792 4278341804
0.030072711 0.0053748582 0.021522976 4278270403
0.037822701 -0.0022038426 0.027759412 4278997154
0.041180111 -0.0075581446 0.03225176 4281881968
0.017622724 0.0074340533 0.017793851 4278804628
0.019885406 0.0059303679 0.018993821 4278737818
0.022158735 0.0044270828 0.020193176 4278671009
0.024260476 0.0036983192 0.0207336 4278472874
0.026367463 0.0029697381 0.021273747 4278669224
0.028104261 0.0037894808 0.020497639 4278274484
0.030025825 0.0038351752 0.020379769 4278405299
0.031947166 0.003880959 0.020261982 4278667694
0.034260005 0.00237903 0.021459298 4278799273
0.037377737 -0.0022176951 0.025285402 4278800038
0.04072915 -0.0075873854 0.029766757 4281816433
0.02384951 0.0037115607 0.018277083 4278604199
0.026135787 0.0022043884 0.019472517 4278603688
0.027869835 0.0030262507 0.018698204 4278931108
0.029788569 0.0030719098 0.01858053 4278931619
0.031707115 0.0031176228 0.018462911 4278735014
0.034017004 0.0016113184 0.019657126 4278537133
0.037131533 -0.0029985877 0.023473741 4278733993
0.040882118 -0.0099353604 0.029255088 4281816434
0.02398517 0.0013981592 0.017792536 4278473128
0.027635545 0.0022676159 0.01690218 4278268108
0.029361188 0.0030915365 0.016130066 4279187129
0.031467207 0.0023588464 0.016667228 4279257254
0.033969849 6.9942325e-05 0.018512679 4278669223
0.037083901 -0.0045530247 0.022319602 4278734759
0.040833786 -0.011509404 0.0280864 4281881968
0.023392446 0.0022035297 0.014690932 4278407338
0.027026385 0.0030747782 0.013803213 4278858944
0.03372705 -0.00069080759 0.01671575 4278996644
0.037036255 -0.0061072363 0.02116563 4278734759
0.040584363 -0.012302936 0.026265576 4281947759
0.020718098 0.0037600566 0.011064069 4278606749
0.024702698 0.003067242 0.011482426 4280240789
0.026605062 0.0031124149 0.011365683 4279455899
0.030602023 0.002420377 0.01178364 4278339763
0.033288799 -0.00066444185 0.014271167 4278996134
0.036592022 -0.0060961861 0.018710034 4278931109
0.039933056 -0.011526983 0.023146695 4282078318
0.02031371 0.0038092341 0.0086337253 4278934679
0.025809258 0.0047288965 0.0076349005 4278273208
0.027890518 0.0039890409 0.0081686815 4278732463
0.029784232 0.0040341616 0.0080525866 4278273208
0.032459795 0.00094036013 0.010534307 4278996134
0.035751589 -0.0045068767 0.014962539 4278865318
0.039684065 -0.01230705 0.02133587 4281357688
0.02008874 0.0030800048 0.0068588704 4278540958
0.027464278 0.0040465686 0.0057463604 4278401219
0.03202223 0.00098893791 0.0081062131 4278864808
0.035506204 -0.0052605001 0.013171126 4279520923
0.039435193 -0.013082463 0.019528426 4282406249
0.019863918 0.0023553334 0.005087398 4278737309
0.021752767 0.0024000537 0.0049713878 4278538409
0.023641445 0.0024448168 0.0048554242 4278866084
0.025155447 0.0040682815 0.0034461133 4278669223
0.027038299 0.00411308 0.0033306349 4278603688
0.028920949 0.0041579325 0.0032152133 4278668969
0.031584933 0.0010464732 0.0056846957 4278734249
0.035062864 -0.0052205659 0.01073705 4279324318
0.038985677 -0.013064425 0.017078528 4282471528
0.019460209 0.0024269726 0.0026737317 4278474913
0.021343537 0.0024715178 0.0025580283 4278669989
0.023042217 0.0033076964 0.0017971769 4279255978
0.024548121 0.004935259 0.00039163162 4278666929
0.026612602 0.0041884519 0.00092156278 4278865828
0.028874941 0.0026505142 0.0020959708 4278603433
0.031538554 -0.00046966597 0.0045589865 4278800294
0.034817837 -0.0059629083 0.0089540118 4279455898
0.038134933 -0.011455155 0.013346715 4282537064
0.018877842 0.0033012647 -0.00037727389 4278540704
0.020934574 0.0025518555 0.00015133107 4278537388
0.026187174 0.0042727608 -0.0014809498 4278924988
0.028636388 0.0019368026 0.00033374876 4279389344
0.031296939 -0.0011921553 0.0027904669 4278734503
0.034572944 -0.0067006601 0.0071743084 4279455898
0.038087457 -0.013001557 0.012198549 4282537063
0.020344287 0.0034370832 -0.0028909754 4278928048
0.022213638 0.0034813955 -0.0030057498 4279451054
0.02389577 0.0043215659 -0.0037623204 4278859709
0.028590463 0.00043195486 -0.00078358478 4279585184
0.031445861 -0.0035013333 0.0023080178 4279258528
0.034724027 -0.0090250559 0.0066804271 4279980179
0.03783939 -0.01375226 0.010409524 4282602599
0.020117484 0.0027392879 -0.0046422714 4279191974
0.021799766 0.0035815556 -0.0053972928 4279390364
0.023476444 0.0044237766 -0.0061519062 4278799528
0.025716551 0.0028721616 -0.0049859257 4278340529
0.02815976 0.00052298978 -0.0031805958 4278930344
0.031009294 -0.0034212992 -9.6723437e-05 4279127713
0.034281477 -0.0089603504 0.0042646648 4278603689
0.037591495 -0.014498465 0.0086238366 4279849363
0.040126257 -0.016845154 0.010423704 4282339439
0.027536988 0.0014230032 -0.0062093223 4278602159
0.030377969 -0.0025323788 -0.0031330364 4279193248
0.033641472 -0.0080869123 0.0012175806 4282536808
0.017088495 0.0045234878 -0.010570451 4278539683
0.025056988 0.0022920389 -0.0091143027 4278470579
0.027299203 0.0007317923 -0.0079548452 4278865318
0.030332029 -0.0040366631 -0.0042499499 4278865574
0.033594966 -0.0096064117 8.9377165e-05 4280111504
0.01632937 0.0062622279 -0.014213062 4278734758
0.01834996 0.0055010654 -0.013690355 4278734758
0.0200077 0.0063492116 -0.014439057 4278865828
0.022406928 0.0039793104 -0.012645765 4278735014
0.024632789 0.0024142489 -0.011488602 4278800804
0.027061574 4.5122579e-05 -0.0096969977 4278537898
0.029896282 -0.0039321808 -0.0066365441 4278800038
0.033153236 -0.0095172478 -0.0023082283 4282536808
0.013918169 0.0071684811 -0.017095758 4279130264
0.01628501 0.0047910027 -0.015305475 4278865319
0.018124163 0.0048344284 -0.015418521 4278339763
0.019963153 0.0048779454 -0.015531485 4279319984
0.02198869 0.0041148551 -0.015010606 4279782044
0.024208896 0.0025453363 -0.01385639 4278931619
0.026631944 0.00016953982 -0.012069299 4278996644
0.029655658 -0.0046252469 -0.0083832983 4278931364
0.032909378 -0.010225669 -0.0040660901 4282602343
0.014049895 0.0048948731 -0.017550351 4279063709
0.015705191 0.0057471395 -0.018295791 4278798764
0.01973471 0.0042157825 -0.017256109 4278661574
0.023595951 0.0034940355 -0.016849551 4278469559
0.025818475 0.0019202884 -0.015698669 4278734249
0.028830871 -0.002887872 -0.012021664 4278537898
0.03207317 -0.0085037379 -0.0077151302 4281815923
0.013830103 0.004239656 -0.019270483 4278472874
0.015482672 0.0050939936 -0.020014163 4279192229
0.017673045 0.0035148244 -0.018864779 4278862769
0.01969029 0.0027470291 -0.018346675 4279318709
0.025581621 0.0012558214 -0.017424343 4278931109
0.028590791 -0.0035654102 -0.013756893 4279325339
0.012128018 0.0019189231 -0.019615211 4279065493
0.015260302 0.0044453461 -0.021729199 4278599608
0.017266668 0.0036750734 -0.021212153 4279979413
0.019094527 0.0037182495 -0.021324491 4278800039
0.022938974 0.0029916931 -0.020920193 4278865319
0.025344901 0.00059586205 -0.019146672 4278799784
0.028156228 -0.0034254994 -0.016117189 4279324829
0.011738375 0.002084149 -0.021960201 4278801824
0.013566606 0.0021270942 -0.02207274 4278995623
0.017222598 0.0022132006 -0.022297623 4278992563
0.018866643 0.0030717701 -0.023037478 4278666674
0.025300227 -0.0008748211 -0.020238655 4279061924
0.028111152 -0.00490708 -0.01721726 4279324829
-0.0040231869 -0.0038523572 -0.018889043 4280439944
-0.0024823248 -0.0021731304 -0.020258868 4279980944
-0.00064492971 -0.0021306863 -0.020372504 4279391893
0.0013488233 -0.0029063746 -0.019858496 4279851149
0.0030294731 -0.0020454954 -0.020599524 4279722119
0.011349022 0.0022582747 -0.02429866 4278800548
0.013171725 0.0023010559 -0.024410885 4278603688
0.022282943 0.0025160238 -0.024971038 4278472108
0.02487196 -0.00071048923 -0.022581333 4278800039
0.027871594 -0.0055711735 -0.018942442 4280898179
-0.0040662512 -0.0053244885 -0.019982234 4280045459
-0.0023744032 -0.0044614747 -0.020722555 4278669224
-0.00068810582 -0.0035985168 -0.021462481 4278866084
0.0011490434 -0.0035559945 -0.021576041 4279260059
0.0028269067 -0.0026929751 -0.022315329 4279325593
0.0044992119 -0.00183006 -0.023054181 4279260059
0.0061659515 -0.0009671906 -0.023792626 4279261079
0.0079944134 -0.00092455186 -0.023905411 4278606494
0.0098227337 -0.00088181999 -0.024018118 4278474913
0.011478193 -1.8971972e-05 -0.024755688 4279127714
0.013128042 0.00084387697 -0.025492888 4278538408
0.014772333 0.0017066076 -0.026229661 4278997153
0.016591929 0.0017494317 -0.02634161 4278997153
0.018227786 0.0026121195 -0.027077749 4279585183
0.020044364 0.0026549995 -0.027189417 4279453859
0.021860793 0.0026979707 -0.027301004 4278734759
0.024444044 -0.00053741224 -0.02491745 4278865829
0.027632214 -0.0062307455 -0.020664345 4280963458
-0.0041093007 -0.0067964764 -0.021075318 4279914644
-0.0024174973 -0.0059313113 -0.021814035 4279062944
-0.00057761371 -0.0058888514 -0.021927858 4278931364
0.0012621507 -0.0058462853 -0.022041593 4279062688
0.0029427037 -0.0049811415 -0.022779437 4279324829
0.0046176687 -0.0041159587 -0.023516882 4279259549
0.0062870905 -0.0032508941 -0.024253905 4278997154
0.0081181526 -0.0032082004 -0.024366857 4278276268
0.0097791553 -0.0023431685 -0.025103236 4278275758
0.011434563 -0.00147817 -0.0258392 4278735014
0.013259798 -0.0014353963 -0.02595163 4278407084
0.014906764 -0.00057039596 -0.026686998 4278342824
0.016728982 -0.00052752905 -0.026799122 4278276269
0.018367529 0.00033735298 -0.02753384 4278276778
0.020372987 -0.00044160243 -0.027023191 4278931619
0.022194773 -0.00039855298 -0.027135145 4278865063
0.024399765 -0.0019990029 -0.026002692 4279520669
0.027198613 -0.0060642064 -0.023004882 4278864554
0.030615799 -0.01259364 -0.018143184 4281619064
-0.0040041655 -0.0090932325 -0.021545053 4279783574
-0.002158843 -0.0090507288 -0.021659274 4279062434
-0.00046720356 -0.0081833573 -0.022396334 4279062179
0.0013751611 -0.0081407614 -0.022510253 4279193504
0.0030583963 -0.0072734086 -0.023246663 4278931619
0.0050595105 -0.0080553256 -0.022737876 4278997154
0.0065725818 -0.0063633667 -0.02409602 4279259294
0.0084090009 -0.0063205836 -0.024209328 4278406574
0.010075375 -0.0054532168 -0.024944467 4278865573
0.011908792 -0.0054103537 -0.02505748 4279127968
0.013917409 -0.0061917538 -0.024548825 4279062179
0.015753269 -0.0061486848 -0.024661876 4278931363
0.017408215 -0.0052812938 -0.025396096 4278472619
0.018874139 -0.0035899067 -0.026750933 4278472619
0.020515233 -0.0027227476 -0.02748416 4278473894
0.022528537 -0.0035036784 -0.026975598 4278930598
0.024738744 -0.0051083434 -0.025846777 4279127204
0.027348302 -0.0083604343 -0.023477746 4282471528
-0.0054564402 -0.013091019 -0.020659827 4282860404
-0.0038991347 -0.011394175 -0.0220179 4280241299
-0.0022019967 -0.010524608 -0.022753758 4278799528
-0.00035689771 -0.010482073 -0.022867939 4278930854
0.0013318583 -0.0096125267 -0.023603149 4279062179
0.003173992 -0.009569888 -0.023717016 4279193504
0.0051776618 -0.010353948 -0.02321003 4278997154
0.0068578646 -0.0094843432 -0.023944521 4278538154
0.0085325018 -0.0086147813 -0.024678607 4278735014
0.010031745 -0.0069186306 -0.026032608 4279128223
0.011865065 -0.0068757702 -0.026145615 4278996644
0.013873525 -0.0076594078 -0.025638616 4279324319
0.015709281 -0.0076163411 -0.02575166 4278800039
0.01754491 -0.0075732404 -0.02586467 4278865573
0.01919698 -0.0067037232 -0.026597077 4279127969
0.021215752 -0.0074868221 -0.026090492 4279194014
0.023050934 -0.0074435165 -0.026203314 4278866849
0.025269076 -0.0090523548 -0.025078222 4278735014
-0.040544789 -0.017021511 -0.018314894 4282732393
-0.0054995269 -0.014571208 -0.021759015 4281814649
-0.0037941784 -0.013699399 -0.022493854 4280503949
-0.0020943806 -0.012827575 -0.023228317 4278799783
-0.00040011853 -0.011955846 -0.023962338 4279455389
0.0012885705 -0.011084149 -0.024695942 4279389088
0.0031305999 -0.011041548 -0.02480983 4279520668
0.0052957237 -0.012656793 -0.023685321 4279324318
0.0069785938 -0.011784966 -0.024418373 4278734759
0.0089900047 -0.01257091 -0.023913398 4278996898
0.010497436 -0.010870285 -0.025264639 4278931619
0.012166344 -0.0099985851 -0.025996678 4279128223
0.014004879 -0.0099555906 -0.026109995 4279258784
0.015843265 -0.0099125048 -0.026223235 4278603434
0.0175009 -0.0090408381 -0.026954407 4278865573
0.019152962 -0.0081692049 -0.027685236 4279194014
0.020985514 -0.0081260735 -0.027797978 4279194013
0.023006685 -0.0089112613 -0.027293142 4279194269
0.025416091 -0.011352737 -0.025553972 4279195798
-0.0055425838 -0.016051251 -0.022858098 4282536554
-0.0036893263 -0.016008748 -0.022972949 4280308109
-0.0022882074 -0.013471955 -0.02494243 4280305813
-0.00044332445 -0.013429473 -0.02505663 4280502929
0.0010892302 -0.011724388 -0.026406538 4279325339
0.0030872747 -0.012513074 -0.025902549 4279194268
0.0050906092 -0.013301541 -0.025398817 4279126949
0.0069349855 -0.013258735 -0.025512736 4278995368
0.0087792575 -0.013215872 -0.025626607 4279062179
0.010453694 -0.012341964 -0.026357438 4279128734
0.012294985 -0.012299008 -0.026471004 4279194015
0.013961025 -0.011425157 -0.027201213 4278931619
0.015799329 -0.011382109 -0.027314471 4279258784
0.017456949 -0.010508326 -0.028044067 4278865573
0.019108981 -0.0096345413 -0.028773297 4279062178
0.021127455 -0.01042207 -0.028269988 4279194013
0.022962488 -0.010378862 -0.028382868 4278997409
0.025371633 -0.012826906 -0.026648568 4281555314
-0.0074388571 -0.017573556 -0.02384216 4283059814
