# .PCD v0.7 - Point Cloud Data file format
VERSION 0.7
FIELDS x y z rgba
SIZE 4 4 4 4
TYPE F F F U
COUNT 1 1 1 1
WIDTH 661
HEIGHT 1
VIEWPOINT 0 0 0 1 0 0 0
POINTS 661
DATA ascii
0.028990351 -0.0008450537 0.033570874 4287967544
0.018465281 -0.0012224293 0.031754822 4287444283
0.019939281 0.0011068922 0.029603709 4289733673
0.021212868 0.0041941935 0.026785292 4291303708
0.022837691 0.0057644239 0.025305271 4290322978
0.025208704 0.0043016607 0.02649875 4289864489
0.028166503 0.00056485878 0.029695462 4288752688
0.011335507 0.0015632836 0.026982151 4287377728
0.013164282 0.0023774849 0.026170492 4288881463
0.015163079 0.0024308274 0.026026849 4289013808
0.017340057 0.0017235475 0.026550654 4289407274
0.018978946 0.0032983972 0.025072716 4289407529
0.020422928 0.0056335507 0.0229287 4289800739
0.022223458 0.0064474223 0.022119455 4289996835
0.024396822 0.0057404703 0.022643767 4290322978
0.027343266 0.0019924557 0.025833242 4290976288
0.030316643 -0.0017547153 0.029020805 4288033078
0.0031136721 0.0005095182 0.025701184 4287640888
0.0047893748 0.0020889482 0.02422335 4289145388
0.0064539909 0.0036682645 0.022746377 4291565849
0.0084424019 0.0037210556 0.022603277 4290257698
0.01026047 0.0045370059 0.021793976 4290258463
0.012418613 0.0038269209 0.02231735 4289735203
0.014582008 0.0031170258 0.022840451 4289997344
0.016750611 0.0024074106 0.023363214 4289604898
0.018381372 0.0039864155 0.021889113 4290913559
0.019817322 0.0063278787 0.019750603 4289735969
0.021609649 0.0071437135 0.018943578 4289604388
0.023963839 0.0056718253 0.020131804 4289539108
0.026712477 0.0026753 0.022648834 4289342759
0.029482618 -0.00032055657 0.025164384 4289407529
-0.0033926964 0.0010463758 0.02294714 4288294964
-0.0012470335 0.00033305725 0.023469254 4289407018
0.0005909577 0.0011511906 0.022659749 4288949293
0.0022641122 0.002734886 0.021185253 4289865253
0.0039262399 0.0043183379 0.019711658 4289669413
0.005741924 0.0051362254 0.018904023 4289865764
0.0077193156 0.0051887352 0.018761724 4290651163
0.0098665878 0.0044760909 0.019284185 4291174679
0.01201909 0.0037637036 0.019806359 4289735714
0.014001325 0.0038166437 0.019663937 4289736224
0.015983358 0.0038696732 0.019521601 4289801503
0.017784245 0.0046877526 0.018715464 4291044628
0.019395791 0.0062707104 0.017246071 4290782744
0.021182649 0.0070886025 0.016441077 4290716953
0.023531161 0.0056121778 0.01762652 4290913304
0.026273943 0.002606831 0.020137437 4290585884
0.028649174 0.0011313087 0.021321099 4289210923
0.031429552 -0.0018728848 0.023829505 4289341228
-0.011834621 0.0015470735 0.020343669 4287902518
-0.010278754 0.0039032921 0.018205076 4290977053
-0.0083028115 0.003954906 0.018062249 4290192674
-0.0061787888 0.0032385886 0.018584177 4290258464
-0.0040494949 0.002522565 0.019105773 4289800738
-0.0019149333 0.0018067895 0.019627072 4289669924
6.8508089e-05 0.0018590405 0.019484028 4289800993
0.0018926561 0.0026791315 0.01867725 4290455324
0.0035493374 0.0042668618 0.017207272 4290324254
0.0051949546 0.0058543691 0.015738212 4289146663
0.0071640611 0.0059066648 0.015596516 4289670178
0.0094729736 0.0044242181 0.016781032 4290062623
0.011619866 0.0037094504 0.017302021 4290193949
0.01359655 0.0037622675 0.017160017 4289801503
0.015751168 0.0030479599 0.017680567 4290128413
0.017730162 0.0031010229 0.017538536 4290063134
0.019341744 0.0046883468 0.016072392 4290128413
0.021314874 0.0047414359 0.015930917 4290586138
0.023476809 0.0040276665 0.016451269 4290586138
0.025835693 0.0025472958 0.017632745 4289931808
0.027816318 0.0026008543 0.017490935 4289735204
0.030388243 0.00035436405 0.019332565 4289538343
0.032976225 -0.0018915557 0.021173075 4289276204
-0.017840028 -0.00019621709 0.019596115 4286986814
-0.015990045 0.00062572351 0.018788345 4288883504
-0.014282923 0.0022181254 0.017317221 4289668903
-0.012726817 0.0045807175 0.015183426 4288949548
-0.011044484 0.0061727194 0.013714274 4290651164
-0.0090822987 0.0062239869 0.013572447 4290258973
-0.0069720894 0.0055051316 0.014093757 4290913559
-0.0047057346 0.004016473 0.01527755 4290978583
-0.0024286509 0.0025282074 0.01646065 4289932064
-0.00045350939 0.0025802664 0.016318224 4289800993
0.0015214607 0.0026324186 0.016175885 4289866528
0.003010951 0.0049941558 0.014047565 4290978583
0.0048129261 0.005816048 0.013244165 4290847768
0.006776467 0.0058682207 0.013102889 4290651418
0.0092495903 0.0036116736 0.014946019 4291174933
0.011566214 0.0021251235 0.016126849 4290913303
0.013367392 0.0029474739 0.015323788 4290128413
0.015341036 0.0030003004 0.01518207 4289932574
0.017314456 0.0030532274 0.015040446 4290063389
0.019287691 0.0031062458 0.014898909 4289932319
0.021260701 0.0031593535 0.01475746 4290063134
0.023422465 0.0024433937 0.015276197 4290128158
0.025397763 0.002496738 0.015134715 4289866018
0.026984051 0.0040881215 0.013673911 4289866018
0.029150583 0.0033725984 0.014192466 4289800484
0.031721942 0.001119649 0.016029339 4288949038
-0.024834484 0.0042458614 0.013544157 4289600819
-0.022871502 0.0042963354 0.013401665 4289209649
-0.02052151 0.0020283246 0.015247632 4289275949
-0.018550608 0.0020792419 0.015104743 4288818478
-0.016848788 0.0036757216 0.013637215 4289146154
-0.014883585 0.0037267394 0.013494924 4289408039
-0.013338309 0.006095631 0.011366744 4290193439
-0.01166686 0.0076917186 0.0099016335 4289277479
-0.0098610707 0.0085151391 0.0090990234 4289408293
-0.007616587 0.0070214039 0.010281116 4290324509
-0.0052105784 0.004755809 0.012123663 4289801248
-0.0029419363 0.0032629259 0.013304174 4290258973
-0.00097508729 0.0033147745 0.01316235 4290062879
0.0011505634 0.002594647 0.013681224 4289735713
0.0029580891 0.003418766 0.012878973 4290128414
0.0047599971 0.0042428691 0.012077227 4290913559
0.0067234263 0.0042950381 0.011935957 4291109654
0.0088564977 0.0035755336 0.012454612 4290848279
0.010994814 0.0028562634 0.01297296 4290390554
0.012963101 0.0029088757 0.012831574 4290194203
0.015287198 0.0014184322 0.01400874 4290063389
0.017260514 0.0014713798 0.013867144 4289997854
0.019233614 0.0015244074 0.013725625 4290194204
0.02120652 0.0015775245 0.013584193 4290390299
0.02336809 0.00085940957 0.014101341 4290324509
0.024768502 0.0032263966 0.011985034 4289997344
0.026346691 0.0048218854 0.010528108 4291109398
0.028110832 0.0056461208 0.0097298473 4290585628
0.030868031 0.0026153042 0.01222055 4290388769
0.033849187 -0.0011857543 0.015367258 4289341484
-0.032287125 -0.00062755775 0.01559905 4287443773
-0.030543689 0.00097348541 0.014131103 4289602348
-0.028693166 0.0017990693 0.013326 4288752945
-0.027331393 0.0057256985 0.0098743215 4289211179
-0.025502864 0.0065509649 0.0090709981 4290323743
-0.023553647 0.0066011036 0.008929519 4290389534
-0.021217626 0.0043261983 0.01077163 4290782743
-0.018997103 0.0028268392 0.011951655 4289735714
-0.017169036 0.0036525819 0.011148732 4289735714
-0.015346557 0.004478273 0.010346282 4289800994
-0.013809375 0.0068534957 0.0082235578 4290913304
-0.012003493 0.0076789865 0.0074224826 4290389533
-0.010203216 0.0085044596 0.0066219028 4289997344
-0.0079644695 0.0070062717 0.0078011323 4290324509
-0.0057149902 0.0055084368 0.0089797135 4290847768
-0.003454797 0.0040110359 0.010157557 4289932318
-0.0014962479 0.0040626796 0.010016344 4289735969
0.00062104315 0.0033401595 0.010534201 4289408804
0.0027435943 0.0026178532 0.011051808 4288951078
0.0048714131 0.0018958286 0.01156907 4289605409
0.0068374202 0.0019480851 0.011427628 4289997599
0.0088032335 0.0020004571 0.011286288 4290390299
0.01059638 0.0028267954 0.010487013 4290586904
0.012383878 0.0036531314 0.0096881744 4289867038
0.014521636 0.0029318281 0.010205135 4289736224
0.016664602 0.0022108187 0.010721762 4289867038
0.018629439 0.0022636321 0.010580841 4290063389
0.020780161 0.0015429906 0.011097033 4290193949
0.022747301 0.0015960648 0.010956096 4290586393
0.024331205 0.0031959703 0.0095019359 4290062623
0.025904007 0.0047956919 0.0080485828 4290062623
0.027662687 0.0056219446 0.0072524045 4289670178
0.029815055 0.0049017882 0.0077688023 4290454559
0.032579787 0.001862559 0.010252547 4289668903
-0.032675233 0.0001260736 0.012445178 4288228918
-0.031170554 0.0032864613 0.0096599963 4288883504
-0.029451743 0.0048913984 0.0081971325 4289538344
-0.027864639 0.0072735865 0.0060750972 4289015849
-0.025923625 0.0073233936 0.0059341248 4289408293
-0.023856543 0.0065960307 0.0064529777 4289604644
-0.021655239 0.0050917054 0.0076310672 4290520603
-0.019443158 0.0035877498 0.0088085197 4289866528
-0.01748899 0.0036383653 0.0086669438 4289735713
-0.015672039 0.0044661593 0.0078664906 4289801249
-0.014000438 0.0060708085 0.0064078216 4290193438
-0.012054849 0.0061215619 0.006267136 4290716954
-0.010109413 0.0061724233 0.0061265398 4290978583
-0.007720273 0.0038931845 0.0079605468 4290913304
-0.0056163073 0.0031678183 0.0084775053 4290586138
-0.0035070628 0.0024427255 0.0089941844 4289998110
-0.0017047524 0.0032708654 0.0081954077 4289801503
0.00025078654 0.0033225445 0.0080544949 4289605664
0.0026907921 0.0010451996 0.0098852515 4289540128
0.0044898614 0.0018736231 0.009086905 4289474594
0.0064503029 0.0019257437 0.008945873 4290128413
0.0080711618 0.0035302555 0.0074917562 4290324764
0.0098533854 0.0043584807 0.0066948868 4289932318
0.011629954 0.0051867124 0.0058984645 4291240978
0.013934493 0.0036870195 0.0070706084 4291175699
0.016069129 0.0029636202 0.0075862184 4290194204
0.018025704 0.0030162195 0.0074458998 4290063389
0.019796066 0.0038446104 0.0066502411 4290128413
0.021938242 0.0031216806 0.0071655102 4290390299
0.02351132 0.0047256509 0.0057153702 4290978583
0.025267459 0.0055539589 0.0049208812 4289146919
0.027017973 0.0063821645 0.0041269064 4288950569
0.029162005 0.0056596268 0.0046422966 4289997089
0.031715877 0.0033867331 0.0064659156 4289015593
0.034490861 0.0003391481 0.008942496 4289079853
0.037495054 -0.0034828666 0.012071479 4288033333
0.040105298 -0.0057540052 0.013891239 4288163384
-0.032950439 0.00011330703 0.00996029 4286529343
-0.031566292 0.0040619979 0.0065230653 4289080618
-0.029855654 0.0056710541 0.0050640944 4289931553
-0.028035346 0.0065003717 0.0042644721 4290258719
-0.026097201 0.0065501342 0.0041237287 4289408294
-0.024159167 0.0065999748 0.0039830562 4289539364
-0.022092406 0.0058705118 0.0045004506 4290193438
-0.019888796 0.0043620458 0.0056752451 4290062623
-0.017942943 0.004412462 0.0055342801 4289997343
-0.015997231 0.0044629807 0.0053934045 4289735714
-0.014191356 0.0052927397 0.0045955069 4289670179
-0.012106203 0.0045643812 0.0051119626 4289866273
-0.010015748 0.0038362695 0.0056281202 4290062623
-0.0077721216 0.0023294864 0.0068005696 4289670179
-0.0059695542 0.0031596422 0.0060031973 4289932064
-0.0040192753 0.0032109767 0.0058625117 4289539874
-0.002381213 0.0048197573 0.0044099949 4289474594
-0.00011919439 0.0033139475 0.0055814087 4289670943
0.0021535605 0.001808471 0.0067521632 4289539873
0.0039444268 0.0026387936 0.005956063 4289867038
0.0057296604 0.0034691617 0.005160436 4290128413
0.0075093061 0.004299392 0.0043652952 4290520603
0.0092833042 0.0051295934 0.0035706516 4290455578
0.011226766 0.0051815631 0.003431065 4290390299
0.013347812 0.0044555375 0.0039459672 4291044373
0.015654609 0.0029516546 0.0051147845 4291240979
0.01760564 0.0030041067 0.0049748644 4290128669
0.019556463 0.0030566519 0.0048350282 4290063134
0.021318421 0.003887156 0.004041642 4289932064
0.023266122 0.0039397925 0.0039021615 4290913304
0.024631366 0.0063254815 0.0018030833 4290455069
0.026570499 0.0063780639 0.0016643517 4289735459
0.028509423 0.0064307116 0.0015256871 4289800738
0.031257071 0.0033736182 0.0039976873 4290323488
0.033616304 0.0018719686 0.005163284 4289472553
0.03640151 -0.0011839366 0.0076327249 4289734693
-0.032775652 -0.0030185157 0.010112118 4286267714
-0.031501025 0.0017231693 0.0060252585 4287183418
-0.029905539 0.0041184835 0.0039122272 4289277224
-0.028205909 0.0057317903 0.0024573579 4290651163
-0.026147321 0.0049997354 0.0029734969 4290847514
-0.024335466 0.0058312407 0.0021763518 4290847258
-0.022142891 0.0043179635 0.0033486523 4290912794
-0.020334005 0.0051496839 0.0025518648 4289866273
-0.018262256 0.0044184048 0.0030674487 4289866528
-0.016459055 0.0052501904 0.0022712313 4289539363
-0.014242496 0.0037379991 0.0034421384 4289408549
-0.012157552 0.0030074706 0.0039569996 4289604899
-0.010067314 0.0022771927 0.0044715591 4289932064
-0.0079717748 0.0015471634 0.0049858168 4289997343
-0.0063225105 0.0031604012 0.0035355911 4290193694
-0.0045310408 0.0039925091 0.002740765 4290325019
-0.0027451664 0.0048245899 0.0019464325 4290913813
-0.00064753741 0.0040950533 0.0024608634 4290194203
0.0014553666 0.0033657746 0.0029750094 4289736224
0.0032352954 0.004197998 0.0021813251 4290324764
0.0053433031 0.0034690471 0.0026952438 4290586393
0.0069478825 0.0050818417 0.00124879 4290847768
0.0087136924 0.0059140315 0.00045630522 4289670178
0.010473885 0.0067461543 -0.00033563934 4289408803
0.012761585 0.0052373242 0.00083124265 4289735969
0.015240379 0.0029487098 0.0026499666 4290848534
0.017185852 0.0030010277 0.0025104545 4290063389
0.018945277 0.0038334792 0.0017188229 4289932318
0.020887651 0.0038858904 0.0015796646 4290062879
0.022638515 0.0047183111 0.00078879856 4290128159
0.024189726 0.0063305367 -0.00065325946 4290585628
0.025926612 0.0071627256 -0.0014430182 4290781978
0.02825617 0.0056557162 -0.00027861819 4290455069
0.030798532 0.0033695223 0.0015360769 4289800228
0.033152103 0.0018633241 0.0026988797 4289603624
0.035723902 -0.00042192452 0.0045115799 4289406763
-0.032488797 -0.0069428901 0.010913529 4286136899
-0.031320807 -0.0014039073 0.0061801225 4286529343
-0.029955424 0.0025661895 0.0027605649 4289276969
-0.028255809 0.0041838447 0.0013089366 4289931554
-0.026197437 0.0034496235 0.0018234812 4289604389
-0.024259705 0.0034994809 0.0016828477 4289539109
-0.022322066 0.0035494575 0.0015423112 4290062623
-0.020515975 0.0043832241 0.00074737892 4289866273
-0.018715415 0.0052169645 -4.7065318e-05 4289473828
-0.016646754 0.004483615 0.00046718493 4289539620
-0.014293626 0.0021835365 0.0022889748 4289474084
-0.012351189 0.0022342135 0.0021485183 4289735969
-0.01040889 0.0022850097 0.0020081643 4289997599
-0.0086144544 0.0031191744 0.0012145974 4290651929
-0.0069760755 0.0047365222 -0.00023164228 4290062879
-0.0050423741 0.004787406 -0.00037114136 4290455578
-0.0031088367 0.0048384294 -0.00051052123 4290063389
-0.0010168552 0.0041065672 2.6971102e-06 4291044119
0.0010804236 0.0033748932 0.00051564723 4290128414
0.0030189157 0.0034263488 0.00037613139 4289932064
0.0047904551 0.0042606965 -0.00041527115 4289997343
0.0065563917 0.0050949454 -0.0012061605 4290847768
0.0081445128 0.0067117391 -0.0026481291 4291109398
0.010071427 0.0067632692 -0.0027865237 4289997599
0.012353428 0.0052499846 -0.0016225083 4289605154
0.015006803 0.0021722796 0.00084278733 4290193949
0.016766384 0.0030068383 5.2712858e-05 4290128668
0.018334553 0.0046236124 -0.0013875114 4289736224
0.020457163 0.0038935943 -0.00087565184 4289735714
0.022584997 0.0031638509 -0.00036414713 4289800738
0.024524137 0.0032163495 -0.00050294213 4289996833
0.026266441 0.0040508574 -0.0012914678 4289473574
0.028401799 0.0033215703 -0.00078031048 4289931554
0.030744486 0.0018106955 0.00037993118 4289277479
0.032892987 0.0010819309 0.0008902736 4288687918
0.035461776 -0.001209988 0.0026983563 4287902518
-0.031140871 -0.0045393463 0.0063287094 4286137154
-0.029887583 0.00022797519 0.002262976 4288099888
-0.028185245 0.001850036 0.00081438199 4289473574
-0.02624755 0.0018997733 0.00067366287 4289735204
-0.024309959 0.00194964 0.00053304806 4289473828
-0.02237248 0.0019996008 0.00039251149 4289735458
-0.02069778 0.0036214087 -0.001053663 4289800994
-0.018900033 0.0044572558 -0.0018462799 4289604643
-0.016834304 0.003721647 -0.0013334425 4290128158
-0.014763262 0.0029863087 -0.00082089007 4289801249
-0.012686901 0.0022511976 -0.00030865707 4289735969
-0.010750182 0.002301855 -0.00044860132 4290063389
-0.0091089122 0.003923459 -0.0018918635 4290455578
-0.0071779154 0.0039741918 -0.0020312266 4289997344
-0.0054001734 0.0048103062 -0.0028218096 4288950568
-0.003316395 0.004075937 -0.0023097051 4289015849
-0.0013858601 0.0041269828 -0.0024487926 4290390043
0.00070577115 0.0033930568 -0.0019370792 4289932064
0.0028026551 0.0026593646 -0.0014256714 4290389788
0.0045714527 0.00349575 -0.0022152299 4289932064
0.0061652139 0.005116961 -0.0036544269 4290128158
0.0077479184 0.0067380071 -0.0050928025 4290782489
0.0096692741 0.0067894049 -0.0052307891 4291044119
0.01212313 0.0044869501 -0.0034200093 4291044373
0.014412828 0.0029696086 -0.002259722 4290717464
0.016164213 0.0038061077 -0.0030476013 4289670433
0.017724276 0.0054269759 -0.0044839596 4289539618
0.019838557 0.0046946034 -0.0039731646 4289997344
0.022149213 0.0031782035 -0.0028140992 4289800994
0.02447053 0.0016621114 -0.0016557099 4289539109
0.026212804 0.002498806 -0.0024426049 4288950313
0.02854728 0.00098329736 -0.0012850622 4288557868
0.031094454 -0.0013158801 0.00051959604 4287903283
0.033248231 -0.0020467029 0.0010279212 4287510584
0.035407238 -0.0027772912 0.0015359409 4287248698
-0.031076148 -0.0068947803 0.0058185831 4286071618
-0.029937521 -0.0013259589 0.0011100993 4287118649
-0.028475959 0.0018770797 -0.001639354 4289342759
-0.026543856 0.001926682 -0.0017796624 4289669668
-0.024486035 0.0011882144 -0.0012682294 4289932064
-0.022808511 0.0028143213 -0.0027114609 4289735713
-0.021010727 0.0036522746 -0.0035025878 4291044119
-0.019218486 0.0044901511 -0.0042931875 4290978838
-0.017158411 0.0037522409 -0.003781545 4290978839
-0.015232444 0.003802374 -0.003920895 4290717209
-0.013164461 0.0030648466 -0.0034096176 4289801248
-0.011236038 0.0031152787 -0.0035489714 4290194203
-0.0093077533 0.0031658281 -0.0036882237 4290390298
-0.0075299218 0.0040040594 -0.0044773119 4290847768
-0.005604662 0.0040547494 -0.0046161814 4290062623
-0.0036795437 0.0041055325 -0.0047549708 4289408293
-0.0015961081 0.003369052 -0.0042443322 4289474084
0.000653781 0.0018456113 -0.0030849362 4290586139
0.002422668 0.0026840917 -0.003872945 4290390298
0.0040193424 0.0043096635 -0.0053092325 4290193948
0.0057743192 0.0051479712 -0.0060960921 4289801248
0.0076957196 0.0051992731 -0.0062341532 4289539620
0.0096169561 0.0052506784 -0.0063721221 4289800993
0.011715502 0.0045153424 -0.0058620907 4289539363
0.013999507 0.0029934519 -0.0047045974 4289670178
0.015928343 0.003045328 -0.00484291 4289212453
0.017671369 0.0038838843 -0.0056284899 4288885543
0.019785456 0.0031493325 -0.0051193023 4289474083
0.022286937 0.00084208511 -0.0033164611 4288296748
0.024610721 -0.00067823986 -0.0021615252 4288100654
0.026748672 -0.0014118862 -0.001653851 4288034608
0.028891847 -0.0021453346 -0.0011465093 4287511604
0.03144411 -0.0044508898 0.00065293163 4287445304
0.033398509 -0.004397661 0.00051327981 4287379514
0.035560071 -0.0051303511 0.0010195002 4287706169
-0.032752145 -0.010885798 0.0067505036 4286266948
-0.031126417 -0.0084636761 0.00465459 4286463553
-0.029869869 -0.0036701919 0.00060804933 4287511094
-0.028405454 -0.00045838067 -0.0021351343 4287969328
-0.026839882 0.0019625877 -0.0042263865 4289211943
-0.025039226 0.0028024865 -0.0050162533 4289801249
-0.023372587 0.004432668 -0.0064554522 4289867038
-0.021454565 0.0044822497 -0.0065944837 4290194458
-0.019670561 0.0053221136 -0.0073828483 4289801758
-0.017482229 0.0037917234 -0.006222981 4290848023
-0.015561841 0.0038417205 -0.0063619195 4290193949
-0.013641585 0.003891822 -0.0065007685 4290128158
-0.011721462 0.0039420426 -0.0066395188 4289932064
-0.0099489801 0.0047821626 -0.0074266344 4290128158
-0.0080318563 0.0048325239 -0.0075650038 4291043863
-0.0062678307 0.0056726299 -0.0083513539 4291109909
-0.004353717 0.0057231206 -0.0084893499 4290586393
-0.0022813752 0.0049842298 -0.0079795653 4290848023
-4.2639673e-05 0.0034561548 -0.0068225963 4290913813
0.0017153323 0.0042965189 -0.0076081986 4290259228
0.0038007945 0.0035582716 -0.0070991386 4290063134
0.0057222545 0.0036094785 -0.0072372751 4289670689
0.0079874992 0.0020824689 -0.0060818717 4289604899
0.010088757 0.0013449392 -0.0055737244 4289212199
0.012195267 0.00060764607 -0.0050658816 4289212453
0.014307022 -0.00012941333 -0.0045583472 4288820264
0.016424023 -0.00086627156 -0.0040510707 4288493098
0.018360734 -0.00081411842 -0.0041899011 4288820264
0.020485505 -0.0015505489 -0.0036830921 4288231468
0.0226155 -0.0022867455 -0.0031765886 4287969839
0.024750769 -0.0030227399 -0.0026704175 4287904304
0.026891261 -0.0037585024 -0.002164552 4287773234
0.029036984 -0.0044940873 -0.0016589602 4287641908
0.031389773 -0.006017745 -0.00050916709 4287510328
0.033548661 -0.0067527597 -4.4330955e-06 4287379258
0.035505481 -0.0066993996 -0.00014420971 4287182398
-0.031061877 -0.010825175 0.0041400399 4286594368
-0.029684834 -0.0068112337 0.00075199455 4287641398
-0.028335091 -0.0027979098 -0.0026339302 4287119159
-0.027012654 0.0012148088 -0.0060178014 4288688939
-0.025214799 0.0020568385 -0.0068058232 4289212198
-0.023807693 0.005276232 -0.009538101 4290455578
-0.022029094 0.0061179837 -0.010324563 4289082149
-0.020256046 0.0069597214 -0.011110527 4288951334
-0.017942309 0.0046324544 -0.0093054483 4289539618
-0.015890937 0.0038900301 -0.008796297 4289605154
-0.013976265 0.0039399844 -0.0089347437 4290389788
-0.012206443 0.004782143 -0.0097201709 4289866528
-0.010294754 0.0048322519 -0.0098582292 4289997344
-0.0085333586 0.0056743501 -0.010642854 4290193438
-0.0063189119 0.0041409396 -0.00948756 4290586394
-0.0044049323 0.0041914033 -0.0096255643 4290193949
-0.0023327917 0.0034503555 -0.0091173667 4290390299
-0.00041639805 0.0035011042 -0.0092553794 4289670178
0.0014998391 0.0035519684 -0.0093932897 4289735969
0.0037488565 0.0020200093 -0.0082401605 4289670434
0.0061777607 -0.00030296808 -0.0064423811 4289147174
0.0084508955 -0.0018340661 -0.0052908193 4289212453
0.010385476 -0.0017823237 -0.0054297615 4288820008
0.012497239 -0.002521689 -0.0049238699 4288100654
0.01479429 -0.0040518809 -0.0037738308 4287969838
0.016736493 -0.0039996533 -0.0039131101 4288885798
0.018678509 -0.0039473474 -0.0040523149 4287969583
0.020620331 -0.0038949391 -0.0041914228 4287773489
0.02294381 -0.0054240692 -0.0030430164 4287707698
0.025084317 -0.0061621256 -0.0025387853 4287576883
0.027230062 -0.0068999203 -0.0020349193 4287446069
0.029381029 -0.0076375054 -0.0015313737 4287576628
0.031335473 -0.0075843716 -0.0016711 4287642164
0.033494167 -0.0083215795 -0.0011679828 4287314234
-0.03122694 -0.011600701 0.0023271739 4287444794
-0.029617514 -0.0091658626 0.00024230406 4286594879
-0.028385025 -0.0043467502 -0.0037830165 4286464574
-0.027062379 -0.00032313727 -0.0071587916 4286922553
-0.025515828 0.0021104584 -0.0092388205 4289081128
-0.023985699 0.0045437831 -0.011317617 4290062624
-0.022340942 0.0061821928 -0.012748678 4290782744
-0.020573407 0.0070259962 -0.013532674 4290193949
-0.018538449 0.0062808497 -0.013024041 4290324764
-0.01635896 0.0047416501 -0.011869926 4290979094
-0.014736447 0.006379961 -0.013299021 4289997344
-0.012835637 0.0064296611 -0.013436385 4289670178
-0.010787588 0.0056853611 -0.012928398 4289669923
-0.0085841492 0.0041472465 -0.011775672 4289866273
-0.0065227896 0.0034034848 -0.011268506 4289408549
-0.0046116561 0.0034539029 -0.011406282 4289408549
-0.0025424287 0.0027105245 -0.010899479 4289016359
-0.00046793371 0.0019674427 -0.010393012 4288885543
0.0016118661 0.0012245961 -0.0098868553 4289212453
0.0038633198 -0.00031163171 -0.0087371282 4289670433
0.0061255023 -0.0018475384 -0.0075880717 4288297004
0.008398369 -0.0033829934 -0.0064397324 4288166188
0.010681935 -0.0049181152 -0.0052920533 4288231468
0.012976192 -0.0064528221 -0.0041451193 4288100398
0.015461117 -0.008780472 -0.0023559574 4288820263
0.017231375 -0.007934751 -0.0031386977 4288820263
0.019181438 -0.0078822374 -0.0032784846 4287838513
0.020943157 -0.0070365323 -0.0040605292 4287707699
0.023080967 -0.0077769374 -0.0035578012 4287642419
0.025224015 -0.0085170586 -0.0030554179 4287642419
0.02717603 -0.0084641622 -0.0031950995 4287707698
0.029127836 -0.0084111756 -0.0033346955 4287511349
0.031079456 -0.0083581097 -0.0034742132 4287510328
0.033235274 -0.0090975733 -0.0029725116 4287379258
-0.031621154 -0.010777371 -0.00077422243 4286659904
-0.029785093 -0.0099303462 -0.0015621027 4286333248
-0.028314844 -0.0066923443 -0.004286238 4286202434
-0.027112108 -0.0018608079 -0.0082995761 4286726204
-0.025691025 0.001376187 -0.011020024 4288492333
-0.024163548 0.0038159396 -0.013093716 4289604644
-0.022521518 0.0054586707 -0.014521385 4289997599
-0.020756777 0.0063045193 -0.015303522 4290716954
-0.018861175 0.0063537592 -0.015440754 4290586138
-0.016826544 0.0056065973 -0.014933668 4289866529
-0.014786597 0.0048596133 -0.014426863 4289604643
-0.012741342 0.0041129505 -0.013920381 4289408549
-0.010396201 0.0017739325 -0.012126938 4289408549
-0.00833489 0.0010278397 -0.011621429 4289800993
-0.0061155632 -0.00051409565 -0.010473004 4289343014
-0.0041964129 -0.00046349503 -0.01061138 4288558633
-0.0021192357 -0.0012087827 -0.010106803 4289736478
-3.6776066e-05 -0.0019538235 -0.0096025243 4288820519
0.0022145808 -0.00349456 -0.0084560737 4289147428
0.0044766366 -0.0050348565 -0.0073103495 4288820263
0.0065803751 -0.0057790913 -0.0068073478 4288297259
0.0086893737 -0.0065230541 -0.0063047037 4287970094
0.010803618 -0.0072667589 -0.0058023464 4288362283
0.012923144 -0.0080102384 -0.0053003058 4289343779
0.015227832 -0.0095489593 -0.0041572433 4288362283
0.016995326 -0.0087011177 -0.0049382262 4287904049
0.019127898 -0.009444016 -0.0044368766 4287838769
0.020889603 -0.0085961483 -0.0052173082 4287445813
0.023027234 -0.009338757 -0.0047162054 4287773234
0.025170095 -0.01008107 -0.0042154379 4287707443
0.027318202 -0.010823172 -0.0037149945 4287772979
0.028874815 -0.0091802748 -0.0051346272 4287969074
0.030823618 -0.0091272891 -0.0052739475 4287379769
0.032772236 -0.0090742493 -0.00541321 4286398529
-0.030069821 -0.009891022 -0.0040072426 4286071363
-0.028244801 -0.0090420293 -0.0047925711 4286202433
-0.026916318 -0.0049965661 -0.008152606 4286464319
-0.025615133 -0.00095164753 -0.011510544 4287183929
-0.024341248 0.003092654 -0.014866435 4289669668
-0.022571042 0.0039407527 -0.015647475 4289604389
-0.020672739 0.0039899498 -0.015784984 4289342758
-0.018774547 0.0040392512 -0.015922405 4289539109
-0.016737416 0.0032899156 -0.015417093 4289735459
-0.014836751 0.003339516 -0.015554518 4289473828
-0.012502689 0.00099354796 -0.013765235 4289474084
-0.010299675 -0.00055343518 -0.012619001 4289539618
-0.0080859214 -0.0020999769 -0.011473497 4289082149
-0.0060140938 -0.0028478224 -0.010970334 4288362538
-0.0039369762 -0.0035953955 -0.010467452 4288100908
-0.0016964599 -0.0051409625 -0.0093236025 4289147939
0.0003939569 -0.0058879843 -0.0088215303 4288362538
0.0024896413 -0.0066347588 -0.0083197579 4289147429
0.004590638 -0.0073813554 -0.0078182649 4288362283
0.006527923 -0.0073297387 -0.0079575479 4288165933
0.008636713 -0.0080758817 -0.0074565085 4288624169
0.010925174 -0.0096195284 -0.0063157016 4289082148
0.013047218 -0.010365111 -0.0058154594 4288100908
0.01517453 -0.011110529 -0.0053155031 4287904048
0.017124549 -0.011058112 -0.0054553589 4287838769
0.019259647 -0.011803089 -0.0049558626 4287707444
0.021212012 -0.011750422 -0.0050957473 4287772723
0.023164198 -0.01169769 -0.0052355668 4287576374
0.024922788 -0.010847627 -0.0060140016 4287314744
-0.028294846 -0.010594446 -0.0059443116 4286333248
-0.026720803 -0.0081406748 -0.0080119055 4286594878
-0.025664769 -0.0024823463 -0.012646143 4288230704
-0.024518799 0.0023740344 -0.016635766 4288623148
-0.022751376 0.0032241689 -0.017414959 4289212199
-0.020722378 0.0024722684 -0.016910886 4288885289
-0.018415499 0.00011871615 -0.015124684 4288819753
-0.016370419 -0.00063254219 -0.014621609 4288820008
-0.014036592 -0.0029851864 -0.012837202 4289997598
-0.012119874 -0.0029350626 -0.012975711 4289147429
-0.0099089816 -0.0044861692 -0.011833345 4289409058
-0.0079870895 -0.0044356808 -0.011972056 4288951589
-0.0056075752 -0.0067866854 -0.01019062 4289016868
-0.0035224855 -0.0075362283 -0.0096899364 4288035373
-0.0014321357 -0.0082855476 -0.0091895703 4289016613
0.00050277263 -0.0082343109 -0.0093289185 4289147428
0.002764456 -0.0097834738 -0.0081896903 4288689194
0.0048706681 -0.010532061 -0.0076902332 4288296748
0.0068132505 -0.010480326 -0.0078299157 4288297259
0.0090989023 -0.012028487 -0.006692213 4289212453
0.011046603 -0.011976426 -0.00683212 4288493353
0.012994133 -0.011924272 -0.0069719441 4288100653
0.014941499 -0.011872028 -0.0071116835 4287969329
0.016888686 -0.011819692 -0.007251339 4287969329
0.018835694 -0.011767276 -0.0073909191 4288688429
0.020218812 -0.0093160868 -0.0094428491 4288493353
-0.02822499 -0.012950162 -0.0064551178 4286267714
-0.02652555 -0.011293338 -0.0078774793 4287248953
-0.025589067 -0.0048162108 -0.013141209 4288361519
-0.024440099 5.3236727e-05 -0.0171213 4288623403
-0.022670034 0.00090565952 -0.017899107 4289016359
-0.020505033 -0.0006515733 -0.016757019 4288754728
-0.018056866 -0.0038146554 -0.014336487 4288100908
-0.01600384 -0.0045678718 -0.0138356 4288100654
-0.013803855 -0.0061237989 -0.012695823 4288100654
-0.012026198 -0.0052706646 -0.013473721 4288689449
-0.0099599473 -0.0060232123 -0.012973549 4289998109
-0.0078883879 -0.0067755235 -0.012473686 4289801759
-0.0056590214 -0.00833028 -0.01133566 4289409569
-0.0037293881 -0.0082794111 -0.011474798 4288362538
-0.0014839843 -0.0098335147 -0.010337828 4289278243
0.00061146915 -0.010584812 -0.0098393299 4289735968
0.0028755739 -0.012138208 -0.0087035522 4288558124
0.0048182234 -0.012086593 -0.0088433269 4288361773
0.0065918714 -0.011232611 -0.0096202269 4289408549
0.0085314587 -0.011180867 -0.0097596264 4288296238
0.010296658 -0.010326926 -0.010535778 4287969073
0.01258713 -0.011879141 -0.0094015393 4287382574
-0.028634537 -0.012087123 -0.0095256045 4286202178
-0.026698191 -0.012037443 -0.0096662436 4287968308
-0.025764007 -0.0055430387 -0.01491682 4286791483
-0.0244895 -0.0014661481 -0.018248495 4287773234
-0.022588801 -0.0014170364 -0.018386288 4288034864
-0.020287964 -0.0037838609 -0.016609492 4288296748
-0.017970916 -0.0061502187 -0.01483376 4288951078
-0.015915386 -0.006905538 -0.014334667 4288885288
-0.013712961 -0.0084657678 -0.013198321 4288820009
-0.012076937 -0.0068053119 -0.014612161 4288558123
-0.0098638944 -0.0083650444 -0.013476416 4289016613
-0.0079395436 -0.0083145434 -0.013615345 4289801759
-0.0057104528 -0.0098736696 -0.012480548 4289802014
-0.0039361045 -0.0090180356 -0.013256278 4289016868
-0.001851581 -0.0097718462 -0.012758724 4289146919
0.00023823231 -0.010525433 -0.012261488 4288885544
0.0023333356 -0.011278762 -0.011764541 4289081639
0.0042677 -0.011227371 -0.011903725 4289277989
-0.029163398 -0.010402963 -0.013223804 4286201923
-0.027115609 -0.011161411 -0.012726258 4286267969
-0.025813606 -0.0070730681 -0.016051924 4286464574
-0.024283078 -0.0046006553 -0.018101644 4287772979
-0.022507709 -0.0037438003 -0.01887656 4288296493
-0.02007116 -0.0069246776 -0.016468218 4288165679
-0.017885093 -0.0084899087 -0.015334095 4288296493
-0.015827052 -0.0092473663 -0.014836826 4288558123
-0.01390519 -0.009197237 -0.014975802 4288558123
-0.011983451 -0.0091470145 -0.015114698 4288820009
-0.0099148937 -0.0099038817 -0.014617953 4289735968
-0.0078410245 -0.010660511 -0.014121445 4289866783
-0.0057618618 -0.011416856 -0.013625286 4289670944
-0.0038324967 -0.011366006 -0.013764413 4290325273
-0.0020610541 -0.010508182 -0.014538247 4289670689
2.5838614e-05 -0.011264017 -0.014042417 4289605154
0.0016283095 -0.0095993336 -0.015450103 4291698704
-0.025738072 -0.0094127934 -0.016551342 4286594879
-0.024076916 -0.0077436324 -0.017961077 4287968818
-0.022165637 -0.007694263 -0.018099649 4288623658
-0.020121172 -0.0084545128 -0.01760314 4288558123
-0.017935388 -0.010024091 -0.016472228 4288492843
-0.015877556 -0.010783729 -0.015976565 4288623403
-0.014097266 -0.0099241482 -0.016749902 4288885033
-0.012322515 -0.0090645943 -0.017522752 4288492333
-0.010259606 -0.009823774 -0.017027212 4288492334
-0.025787704 -0.010944556 -0.017687734 4286594879
-0.023871023 -0.010895152 -0.017826775 4287641399
-0.022084929 -0.010033695 -0.018599248 4287903283
-0.020304367 -0.0091722067 -0.019371264 4287838258
-0.018257502 -0.0099344905 -0.018876491 4287642164
-0.016343955 -0.0098847076 -0.019014962 4288427308
-0.014571883 -0.009023115 -0.019786121 4287446068
-0.02417618 -0.010798302 -0.020227266 4287313979
-0.013625741 -0.0071319751 -0.02596602 4283122544
-0.017740466 -0.0071081333 -0.028071322 4283124584
-0.019814193 -0.0078460127 -0.029681038 4281943423
-0.012418024 -0.0068291947 -0.030852469 4282666859
-0.0063063949 -0.0091409478 -0.029384185 4282339183
-0.022014994 -0.0077564078 -0.031912941 4282205818
-0.014494158 -0.0075608697 -0.03245727 4282732904
-0.0066659153 -0.0090080537 -0.031752843 4280177038
-0.023944333 -0.0093074609 -0.032891255 4282338674
-0.014974628 -0.0065894756 -0.035440542 4282798183
-0.0070250928 -0.008866353 -0.034114897 4281617279
-0.017036416 -0.0073072454 -0.037036303 4282470508
-0.0076928325 -0.0070627611 -0.037711393 4279189423
-0.0077425055 -0.0085564153 -0.038819399 4282862954
-0.011073422 -0.0040943539 -0.046442844 4282862954
-0.0067583844 -0.0073294044 -0.044247188 4282337398
-0.0068076849 -0.0088118501 -0.045346878 4281680774
