# .PCD v0.7 - Point Cloud Data file format
VERSION 0.7
FIELDS x y z rgba
SIZE 4 4 4 4
TYPE F F F U
COUNT 1 1 1 1
WIDTH 964
HEIGHT 1
VIEWPOINT 0 0 0 1 0 0 0
POINTS 964
DATA ascii
-0.04536505 0.0070161652 0.025582334 4288492589
-0.043475542 0.0077957306 0.024805518 4288622893
-0.041591521 0.008575337 0.024029059 4288688429
-0.039829489 0.010853486 0.021879548 4288623149
-0.038083881 0.013131497 0.019730886 4288295983
-0.036163561 0.01316187 0.019642366 4288361518
-0.034243289 0.01319238 0.019553954 4288230703
-0.03232307 0.013222998 0.01946562 4288623148
-0.030474816 0.01400275 0.01869134 4289539109
-0.028482813 0.013284588 0.019289238 4289800738
-0.026640151 0.01406447 0.018515376 4289800739
-0.024963224 0.016342165 0.016370529 4287377219
-0.052733831 -0.0029235538 0.032333314 4287574843
-0.050803453 -0.0021416191 0.031555831 4287902520
-0.048878524 -0.0013596937 0.030778727 4287837749
-0.047100902 0.0016770866 0.027945274 4288165168
-0.045245111 0.0032105166 0.026483824 4288295983
-0.043347523 0.0039923824 0.025708256 4288426798
-0.041455418 0.0047743265 0.024932994 4288361263
-0.039627001 0.0063077006 0.023473086 4288492078
-0.037931424 0.0093437973 0.020643877 4288427054
-0.035939392 0.0086229872 0.021239793 4288623148
-0.034074739 0.009404948 0.02046621 4288688684
-0.032146476 0.0094357003 0.020377519 4288688684
-0.03036199 0.010968966 0.01892007 4288492333
-0.028364716 0.010248726 0.019516112 4288361518
-0.026671346 0.012533164 0.017375266 4288557869
-0.05272473 -0.0052521154 0.031845108 4287444028
-0.050749954 -0.0052218512 0.031753354 4287771448
-0.048819676 -0.0044376571 0.030977635 4287903028
-0.046989337 -0.0021458585 0.028834349 4287903283
-0.045125429 -0.00060790405 0.02737573 4288099634
-0.043219753 0.00017629378 0.026601432 4288099633
-0.041319564 0.00096051395 0.025827473 4288165425
-0.039541185 0.0032520033 0.023686966 4288361519
-0.037779227 0.0055433307 0.02154736 4288296238
-0.035779197 0.0048204642 0.022141287 4288492589
-0.03390646 0.0056047384 0.02136896 4288623404
-0.031970151 0.0056356397 0.021279907 4288558124
-0.030105717 0.0064200517 0.020508086 4288558124
-0.028172258 0.0064511467 0.020419346 4288558124
-0.02647071 0.0087422226 0.018283052 4288230704
-0.024705611 0.010279948 0.016829977 4287706679
-0.022951514 0.011817584 0.015377549 4287312193
-0.05073835 -0.0075544287 0.031262003 4287705913
-0.048849922 -0.0060120206 0.02980536 4287902518
-0.046972416 -0.0044696406 0.028349256 4287837494
-0.045105845 -0.002927307 0.026893822 4288099634
-0.043144893 -0.0028967671 0.026803074 4288099633
-0.041294742 -0.0013544131 0.025348527 4288230704
-0.039397418 -0.00056793168 0.024576424 4288034354
-0.037505589 0.00021859817 0.02380467 4288165168
-0.035619259 0.0010051504 0.023033252 4288295983
-0.033672124 0.0010360964 0.02294361 4288427054
-0.03179409 0.0018228181 0.022172725 4288427054
-0.029921571 0.0026095156 0.021402216 4288165168
-0.028054573 0.0033962615 0.02063206 4288295983
-0.026193107 0.0041830111 0.019862233 4288295983
-0.02433718 0.0049698632 0.019092718 4288361518
-0.022486795 0.0057566967 0.018323595 4287706678
-0.020727377 0.0072988849 0.016874256 4287706679
0.019010205 -0.020787999 0.041082516 4287509564
-0.046814118 -0.0090718921 0.029903242 4287509819
-0.04493669 -0.0075250436 0.028450543 4287575608
-0.043070205 -0.0059781857 0.026998414 4287902518
-0.041159309 -0.0051894356 0.026227212 4287968819
-0.03937006 -0.0028846841 0.024095966 4287903538
-0.037414804 -0.0028538648 0.024005761 4288034864
-0.035523124 -0.0020650327 0.023235733 4288230958
-0.033504415 -0.0027918238 0.023825647 4288230958
-0.031618297 -0.0020028278 0.023056066 4288034610
-0.02973769 -0.0012138095 0.022286819 4288099889
-0.027937073 0.00033298135 0.020838453 4287969073
-0.026070254 0.0011220258 0.020070022 4288034609
-0.024208967 0.0019110963 0.019301934 4288099888
-0.022435874 0.00345782 0.017855106 4287968819
-0.020588417 0.0042469129 0.017087838 4288099634
-0.01883461 0.0057934988 0.015642097 4287903539
-0.017000981 0.0065825973 0.014875626 4287838003
-0.015266493 0.0081291553 0.013430914 4287641399
-0.013543028 0.009675594 0.011986822 4287641143
-0.011731561 0.01046467 0.011221625 4287116353
0.018301647 -0.018624045 0.036493354 4289016359
0.020587999 -0.020102259 0.037756197 4289343523
0.022465248 -0.019310385 0.036989264 4289277224
0.024479512 -0.019275095 0.036898978 4289341738
0.026493553 -0.019239664 0.036808804 4291107359
0.02880362 -0.020717107 0.038070917 4291172129
-0.042837963 -0.01134875 0.029223939 4287575865
-0.041024137 -0.0090372469 0.027096378 4288033589
-0.039168689 -0.0074859746 0.025648179 4287837748
-0.037263431 -0.0066948626 0.024879063 4287969073
-0.035300177 -0.0066637751 0.02478859 4288034610
-0.033403188 -0.0058725588 0.02402004 4288230704
-0.031580675 -0.0043212976 0.022573737 4287969074
-0.029769136 -0.002770124 0.021128079 4287969074
-0.027894164 -0.0019788817 0.020360814 4288099889
-0.02610187 -0.00042774342 0.018916173 4288034609
-0.024240687 0.00036352128 0.018149724 4287969073
-0.022467658 0.0019146092 0.016706152 4288099888
-0.020620301 0.0027058888 0.015940517 4287903794
-0.018866546 0.0042568278 0.014498029 4287838259
-0.017033026 0.0050481204 0.013733206 4288165169
-0.01520507 0.0058394838 0.012968684 4287969329
-0.013286423 0.005871309 0.012881344 4287903539
-0.011565849 0.0074221846 0.011440726 4287575864
-0.0098563097 0.0089730043 0.010000711 4287510583
-0.0080533847 0.0097644124 0.0092376694 4287640888
-0.0063632056 0.011315132 0.0077986959 4287050563
0.017996874 -0.018714663 0.033945903 4289081893
0.020003226 -0.018679664 0.033855855 4289605409
0.021589685 -0.016368208 0.031741351 4289997089
0.023444843 -0.015574433 0.030977124 4290192929
0.025439691 -0.015539333 0.030887814 4290454049
0.027878519 -0.017780017 0.032821998 4290323234
0.030182708 -0.019261789 0.034081228 4290455579
0.03172997 -0.016950533 0.031968832 4288621874
-0.035014123 -0.012041889 0.027005376 4287510328
-0.03316978 -0.010486076 0.025561275 4287641144
-0.031336412 -0.0089302771 0.024117729 4287771959
-0.029657301 -0.0058503468 0.021322159 4287641144
-0.027925722 -0.0035327189 0.019203929 4287968309
-0.026210593 -0.0012151971 0.017086493 4288034099
-0.024352249 -0.00042179972 0.016321799 4288099633
-0.022416886 -0.00039028004 0.016233264 4287903794
-0.020396322 -0.0011205226 0.0168205 4287838514
-0.018634446 0.00043497607 0.015380867 4288034608
-0.016883586 0.0019903779 0.013941875 4288165933
-0.015143741 0.0035457201 0.012503473 4287838768
-0.013318721 0.0043393299 0.011740796 4287969583
-0.011400331 0.0043712705 0.011653557 4287969328
-0.0095837265 0.0051649418 0.010891486 4287969328
-0.0076683052 0.0051970612 0.010804554 4287903539
-0.0058601387 0.0059908088 0.010043029 4287838259
-0.0040575527 0.0067846011 0.0092818588 4287838259
-0.002373144 0.0083398391 0.0078465156 4287903539
-0.00081510842 0.010656355 0.0057374984 4287641143
0.0009624809 0.011450088 0.0049776528 4287902774
0.0033382736 0.0084373001 0.0075885598 4287181889
0.015691321 -0.018831035 0.031495005 4288099123
0.017961066 -0.020318367 0.032752082 4289277734
0.019967284 -0.020283356 0.032662049 4289867038
0.021413919 -0.017204385 0.029879214 4290455324
0.023123715 -0.015647523 0.028443614 4289735714
0.025112975 -0.015612487 0.028354583 4289408548
0.027546089 -0.017859843 0.030284198 4289474084
0.02939238 -0.017063728 0.029522231 4289735968
0.030158695 -0.010942537 0.024052294 4289605664
-0.02940245 -0.010467561 0.0228594 4287640633
-0.027734302 -0.0073789451 0.020070938 4288098358
-0.02616512 -0.0035263635 0.016609153 4287837494
-0.024304155 -0.0027307402 0.015845966 4287772214
-0.022366215 -0.0026991703 0.015757322 4287838259
-0.020428356 -0.0026674923 0.015668761 4287903793
-0.018666536 -0.0011076331 0.014232382 4288034608
-0.016915735 0.00045214221 0.012796652 4287969583
-0.01517595 0.0020118505 0.011361515 4288035119
-0.013254862 0.0020437129 0.011274062 4287904304
-0.011333883 0.002075728 0.01118673 4288035118
-0.00941303 0.0021078363 0.011099475 4287969583
-0.007596653 0.0029038601 0.010339096 4287838259
-0.0056787729 0.0029361509 0.010252148 4287772724
-0.0039806291 0.0044958405 0.008819405 4287772468
-0.0021810159 0.0052918699 0.0080600753 4287838003
-0.00050225481 0.0068514999 0.0066283364 4288034353
0.0015194155 0.0061204489 0.0072149821 4287706678
0.003908515 0.003099259 0.00981877 4287706678
0.0068130307 -0.0029751919 0.015111051 4287771958
0.010139529 -0.011338945 0.022418091 4288164659
0.01301026 -0.016648181 0.027034128 4288426798
0.015392486 -0.018903548 0.028960714 4288035118
0.017522205 -0.019632051 0.029542929 4288623913
0.019520108 -0.019597167 0.029453279 4289539364
0.021098439 -0.017272744 0.027348915 4289932064
0.022945266 -0.016474722 0.026588337 4291044119
0.02493168 -0.016439728 0.026499437 4290128158
0.027361806 -0.018693643 0.028424336 4289997343
0.028602514 -0.014843583 0.024979679 4290586904
-0.025888694 -0.0081407633 0.018147247 4287182908
-0.024176406 -0.0058100838 0.016039785 4287510328
-0.022398099 -0.0042458735 0.014605772 4287576883
-0.020460397 -0.004214175 0.014517237 4287708464
-0.01869864 -0.0026499573 0.013084114 4287773743
-0.017038547 -0.00031966344 0.010979462 4287839024
-0.015208166 0.000478236 0.010219745 4287969839
-0.01338334 0.0012762286 0.0094603449 4287969328
-0.01136639 0.0005421415 0.010044999 4287773234
-0.0094456784 0.00057426095 0.0099577587 4287904049
-0.0075250901 0.00060650893 0.0098706242 4287772724
-0.0057116635 0.0014047697 0.0091120824 4287838003
-0.0039038099 0.0022030137 0.00835393 4287903538
-0.0021015555 0.0030012801 0.0075961165 4287707444
-0.00030490011 0.0037995502 0.0068386234 4287903538
0.0018399693 0.0023007877 0.0080943294 4287903539
0.004116267 3.6619604e-05 0.010020487 4287969073
0.0070257224 -0.006055152 0.015299566 4288165423
0.010104764 -0.01291163 0.021247333 4288296748
0.012975004 -0.01823608 0.025852052 4288754984
0.015225392 -0.019732494 0.0271034 4288623913
0.017217908 -0.0196978 0.027013922 4288820264
0.019073214 -0.01889764 0.026254447 4289343268
0.02078313 -0.017332165 0.02482534 4289801503
0.022624429 -0.016532043 0.024066648 4291044629
0.024895672 -0.018027557 0.025317458 4291175443
0.027029675 -0.018757608 0.025898272 4291241234
0.027662475 -0.011836248 0.019784005 4289867038
-0.018994402 -0.0018868651 0.0099240057 4287316784
-0.017251901 -0.00031846389 0.0084951185 4287512879
-0.015333731 -0.00028672814 0.0084077381 4287904558
-0.013415664 -0.00025489181 0.0083204433 4287904304
-0.011398904 -0.00099114329 0.0089034922 4288034864
-0.0095798671 -0.00019082427 0.0081461631 4288100144
-0.0076621473 -0.00015863404 0.0080591477 4287838259
-0.0058515444 0.00064174831 0.0073024258 4287838259
-0.0040465035 0.0014421232 0.0065460242 4287838259
-0.0022470765 0.0022425205 0.0057899635 4287838259
-0.00045323744 0.0030429438 0.0050342418 4288034353
0.0018065646 0.00077190623 0.0069561582 4287838259
0.0040825792 -0.0014987625 0.0088774823 4288100144
0.0068681613 -0.0068401303 0.013474485 4288100398
0.0099439062 -0.013716242 0.019407803 4288558378
0.012682181 -0.018288359 0.023332501 4288689449
0.014663834 -0.018253952 0.02324344 4289082404
0.016645316 -0.018219417 0.023154484 4288951333
0.018352661 -0.01664969 0.021728618 4289539873
0.020188611 -0.015847571 0.020971725 4289539874
0.022161353 -0.015812885 0.020883391 4289409059
0.024714496 -0.018847713 0.023467587 4289736224
0.026549865 -0.018045293 0.022710951 4289540384
0.026873622 -0.0095698182 0.01527591 4289671454
-0.013640031 -0.00024491176 0.0058433563 4287381809
-0.011530183 -0.0017537475 0.0070935749 4288166443
-0.0097139701 -0.00095133483 0.006338045 4288100654
-0.0077991225 -0.00091918558 0.0062511675 4287904049
-0.0059913322 -0.00011666492 0.0054962058 4287576628
-0.0041891262 0.00068584457 0.0047415569 4287511349
-0.0023925118 0.0014883839 0.0039872564 4287904049
-0.0004863739 0.0015208535 0.0039011203 4287968818
0.001773145 -0.00075668842 0.0058182031 4287772724
0.0040488802 -0.0030338932 0.0077346712 4288034864
0.0068339966 -0.00839049 0.012320342 4288362284
0.0097831525 -0.014516287 0.017571749 4289016613
0.012260761 -0.017561737 0.020152396 4288297513
0.01436558 -0.018297281 0.020730803 4289213473
0.016207282 -0.017493077 0.019975131 4289082148
0.01804335 -0.016688865 0.019219795 4290324763
0.020013433 -0.016654316 0.019131513 4290782743
0.021983322 -0.016619671 0.019043306 4290782998
0.02453341 -0.019663233 0.02162117 4290456089
0.025922511 -0.016550098 0.018867152 4289802014
0.025934715 -0.006511895 0.01011797 4290526978
-0.0044412762 0.00070662796 0.0022740606 4287643183
-0.0024255216 -3.3415854e-05 0.0028543435 4287839278
-0.00051952526 -9.3877316e-07 0.0027682222 4287838769
0.0016219243 -0.0015127771 0.0040143747 4287707698
0.0037741251 -0.0030243434 0.0052601062 4288035118
0.006553337 -0.0083963219 0.0098347254 4288296748
0.0094965138 -0.014539617 0.015073432 4288755238
0.011710938 -0.016049769 0.016316609 4289476378
0.01367325 -0.016015649 0.016228458 4289017378
0.015635382 -0.015981451 0.016140373 4290063388
0.017597336 -0.01594713 0.016052386 4290194204
0.019698713 -0.016684566 0.016629582 4290324763
0.021805365 -0.017421834 0.017206671 4291175699
0.024207342 -0.019702353 0.019113282 4290913813
0.02514777 -0.014265503 0.014371783 4289867804
-0.00055267289 -0.0015224777 0.0016355123 4287577904
0.0015885383 -0.003038656 0.0028784405 4287577139
0.0039814524 -0.0061032977 0.0054496825 4287707189
0.0066424273 -0.010716077 0.0093484558 4288100908
0.0094618984 -0.016102467 0.013909997 4288297768
0.011418801 -0.016068548 0.013822006 4288953373
0.013375524 -0.01603454 0.013734091 4289083169
0.015197974 -0.015226259 0.012982503 4290914323
0.01728845 -0.015966192 0.01355854 4288885799
0.019384202 -0.016705863 0.01413439 4288951079
0.021769766 -0.018993348 0.016036833 4289866784
0.023736496 -0.018958624 0.015948875 4289997598
0.024521228 -0.012732746 0.010555942 4289868569
0.010741021 -0.013749169 0.0093469657 4289408803
0.012815315 -0.014491715 0.0099219158 4288950058
0.014894899 -0.015234061 0.010496713 4290454304
0.016842965 -0.015199967 0.010409361 4290193184
0.018930372 -0.015941978 0.010983953 4289343013
0.02130748 -0.018236119 0.012881922 4290063389
0.022976007 -0.016649287 0.011471059 4290586393
0.023452062 -0.0088541266 0.0047687124 4290457618
0.0085118599 -0.013777034 0.0069576427 4287906344
0.010320846 -0.012964876 0.0062097982 4287969328
0.01238678 -0.013709737 0.0067835078 4289211179
0.014592011 -0.015232898 0.0080175959 4289996323
0.016671229 -0.015977304 0.0085908752 4290323743
0.01875573 -0.016721534 0.0091639794 4290651164
0.020987671 -0.018243877 0.010397056 4290847769
0.022071119 -0.013539696 0.0063496791 4290063643
0.018441785 -0.016715955 0.0066887978 4286920769
0.020525921 -0.01746222 0.0072604064 4288753964
0.021021973 -0.0096233133 0.00058952346 4288952609
0.020263117 -0.0072414465 -0.0038342234 4288296748
-0.024319721 -0.0081406292 0.013061412 4283000908
-0.022791419 -0.0042557865 0.0096260402 4282480708
-0.020950042 -0.0034536812 0.0088688247 4282675273
-0.019114207 -0.0026515387 0.0081119575 4283197513
-0.024510724 -0.0081429183 0.010573244 4282217803
-0.022987809 -0.0042472631 0.0071462505 4280847433
-0.021152001 -0.0034430325 0.0063908659 4280651849
-0.019233938 -0.0034115054 0.0063033402 4280651083
-0.017497007 -0.0018345378 0.0048812348 4280912204
-0.015584588 -0.0018028691 0.0047941394 4281564493
-0.013672274 -0.0017711073 0.0047071204 4282152268
-0.011661373 -0.0025117509 0.0052871611 4282805323
-0.0097465552 -0.0024796985 0.0052002128 4283460164
-0.024462864 -0.010461312 0.010090373 4281695819
-0.022937145 -0.0065547451 0.0066713616 4280455244
-0.021098714 -0.0057483092 0.0059175417 4280521033
-0.019265823 -0.0049418174 0.0051640123 4280456264
-0.017528955 -0.0033604689 0.0037451796 4280325193
-0.015616689 -0.0033288002 0.0036580916 4280324428
-0.013704523 -0.0032970197 0.0035710968 4280846158
-0.011792462 -0.0032651275 0.0034841876 4281368908
-0.0099819005 -0.0024584532 0.0027321614 4281695308
-0.0081769116 -0.0016517453 0.0019804835 4282217803
-0.0062706582 -0.0016195998 0.0018941034 4283590213
-0.024494611 -0.01200657 0.0089398958 4281695819
-0.022968825 -0.0080891065 0.0055290014 4280978504
-0.021130498 -0.0072805099 0.0047768019 4280456519
-0.01938542 -0.0056947432 0.003360711 4279934534
-0.017470479 -0.0056631565 0.0032734107 4279999558
-0.015555635 -0.0056314394 0.003186211 4280259658
-0.013640888 -0.005599618 0.0030990969 4280064329
-0.011923473 -0.0040138811 0.0016846601 4280520523
-0.010115739 -0.0032050535 0.00093440525 4280585548
-0.0083135851 -0.0023961775 0.00018443167 4280585039
-0.0065169968 -0.0015873052 -0.0005651461 4280520268
-0.0047259815 -0.00077842362 -0.0013143942 4281239114
-0.0028282963 -0.00074618123 -0.0014002072 4281501508
-0.00070080906 -0.0022670757 -0.00016000122 4282416448
0.0014374517 -0.0037877075 0.0010798518 4282481473
0.0039477386 -0.0076376311 0.0043074638 4283266364
-0.024605831 -0.01277215 0.0071266741 4281369164
-0.023000501 -0.0096231904 0.0043868497 4280586314
-0.021162283 -0.0088124219 0.0036362782 4280065859
-0.01941726 -0.0072223097 0.0022234321 4279999814
-0.017592862 -0.0064114928 0.001473695 4279999814
-0.015774 -0.0056006871 0.00072426908 4279411783
-0.013864867 -0.0055689253 0.00063743256 4280324938
-0.011955824 -0.0055370703 0.00055067055 4279997518
-0.01014819 -0.0047260672 -0.00019795634 4279867213
-0.0083461292 -0.0039150082 -0.00094629359 4280324938
-0.0065496489 -0.003103951 -0.0016942369 4280129353
-0.0047587156 -0.0022928957 -0.0024418579 4280260679
-0.0029733777 -0.001481805 -0.0031891316 4280195399
-0.00084885582 -0.0030070823 -0.0019520214 4280977993
0.001286447 -0.0045321099 -0.00071527436 4281370439
0.0037936345 -0.0083929524 0.0025043748 4281761863
0.0062048323 -0.011474516 0.005061863 4282351679
-0.024796393 -0.012751507 0.0046555102 4280646494
-0.023114337 -0.010375502 0.0025836751 4279866703
-0.021278959 -0.0095625445 0.0018348228 4279541578
-0.019449115 -0.0087495893 0.0010863654 4279673668
-0.01762481 -0.007936608 0.00033824705 4279870018
-0.015899129 -0.0063422658 -0.0010702498 4280065094
-0.013992861 -0.006310571 -0.0011569709 4280259658
-0.012086697 -0.0062787496 -0.0012435876 4279867979
-0.010281891 -0.0054655802 -0.001990512 4280128843
-0.0084826536 -0.0046524256 -0.0027370499 4280064583
-0.0065822825 -0.0046203472 -0.0028231414 4279933769
-0.004682038 -0.0045881588 -0.0029091462 4279738183
-0.0027819127 -0.004555868 -0.0029950645 4279738183
-0.0008819215 -0.0045234598 -0.0030808877 4280782919
0.0011355244 -0.0052718744 -0.0025070226 4280521033
0.0035192929 -0.0083627626 4.5178458e-05 4280715854
0.0059247054 -0.011453159 0.0025964901 4279668314
-0.021565214 -0.0087407902 -0.0012820885 4279341658
-0.019480966 -0.010276604 -5.0502829e-05 4279149134
-0.017747056 -0.0086778775 -0.0014562095 4279606349
-0.015931137 -0.0078627616 -0.0022022463 4279672903
-0.014025018 -0.0078310445 -0.0022889432 4280325449
-0.012119003 -0.007799238 -0.0023755636 4280129099
-0.010314304 -0.0069838837 -0.0031208526 4279868744
-0.0085151605 -0.0061685424 -0.0038657552 4279868744
-0.0067215897 -0.0053531807 -0.0046103196 4279933769
-0.0048242062 -0.0053210389 -0.0046961922 4279934533
-0.0028148443 -0.0060719922 -0.0041237501 4280130374
-0.00091500208 -0.0060395859 -0.0042095669 4280130374
0.0011022724 -0.0067901686 -0.0036373055 4280325194
0.0032451451 -0.0083236434 -0.0024072966 4280453714
-0.015777204 -0.010954354 -0.0020190813 4279472474
-0.012151312 -0.0093194619 -0.0035073422 4279538518
-0.010447867 -0.007716367 -0.0049081026 4279343699
-0.0085476637 -0.0076844208 -0.0049942834 4279409998
-0.0067541972 -0.0068668872 -0.0057372209 4279280714
-0.0048569478 -0.0068347342 -0.0058230776 4279478084
-0.0028477833 -0.0075878408 -0.00525223 4280130374
-0.00094806775 -0.0075554494 -0.0053380504 4279870529
0.001069013 -0.0083081946 -0.0047673918 4280194634
0.0030914098 -0.0090608001 -0.0041968618 4279276124
-0.010783549 -0.0068687573 -0.0080029452 4279535459
-0.0087878369 -0.0076246746 -0.0074333423 4279472218
-0.0068933517 -0.0075926837 -0.007519159 4278755669
-0.0048896931 -0.0083481688 -0.0069497675 4278822733
-0.0032167546 -0.0067407917 -0.0083455648 4279476044
-0.0010958873 -0.0082835425 -0.0071211997 4279803463
0.00091829151 -0.0090385303 -0.0065520462 4280193869
0.0028175861 -0.009005893 -0.0066376599 4278882914
-0.0033615008 -0.0074598901 -0.010122182 4279209058
-0.001243595 -0.0090070702 -0.0089009507 4279474513
0.00088508055 -0.010553872 -0.0076801302 4279865174
0.019188527 -0.011584938 -0.014503709 4284246074
0.019009802 -0.012292851 -0.016270019 4283328838
0.02104051 -0.013057284 -0.015708867 4284312374
-0.014229488 0.046522439 0.023269614 4279053254
-0.012551844 0.047989331 0.021768847 4279973294
-0.010680076 0.048020221 0.021683538 4279316414
-0.015949424 0.043548651 0.02364911 4278791368
-0.012782738 0.047931679 0.019241633 4279381949
-0.0110191 0.048682652 0.018450791 4279644853
-0.0048759207 0.045175523 0.021723719 4279382458
-0.0026590079 0.043047026 0.023754483 4278792898
-0.00054205582 0.041638829 0.025079338 4278465478
0.0012288466 0.042390473 0.024288574 4279186619
-0.017955054 0.042733774 0.021908784 4279251898
-0.016357843 0.044931911 0.019709224 4278530248
-0.0073241442 0.047253363 0.017171053 4279120573
-0.0053505599 0.046562262 0.0177902 4278989249
-0.0032582358 0.04514917 0.019112902 4278857924
-0.0013874695 0.045180582 0.019028032 4278988994
0.00024536252 0.046656221 0.01753631 4279054783
0.0019887276 0.047409721 0.016748527 4279052999
0.0038507879 0.047441252 0.016664246 4279250113
-0.019866228 0.041198924 0.020874875 4280104364
-0.018352229 0.044128425 0.017976681 4278530758
-0.016765945 0.04633297 0.015782535 4279382458
-0.014905211 0.046363555 0.015697625 4279580083
-0.013244048 0.047843389 0.014207397 4279316924
-0.011286594 0.047149591 0.01482546 4278792133
-0.0093237981 0.046455912 0.015443385 4279186618
-0.0074636005 0.046486892 0.015358794 4278792643
-0.0056035519 0.046517953 0.015274286 4278990014
-0.0036302917 0.045824803 0.015891921 4278793154
-0.0017678253 0.045856096 0.015807439 4278726344
0.0017134473 0.047367394 0.014235303 4279250624
0.0035699457 0.047398873 0.014151301 4280301478
0.0055532865 0.046706311 0.014768869 4279645109
0.0078014024 0.044565871 0.01678885 4278726598
-0.020429667 0.044056617 0.015545879 4279973549
-0.013374791 0.047086023 0.01240143 4279186363
-0.011420239 0.046390004 0.013018008 4279317943
-0.0094603486 0.045694165 0.01363441 4279187128
-0.0077108741 0.046451725 0.012849297 4279515823
-0.0057458095 0.045756176 0.013465621 4279450288
-0.0038887784 0.04578732 0.013381336 4278858689
-0.0020318888 0.04581856 0.013297137 4279383223
-0.020903893 0.046211682 0.010936521 4279055294
-0.011860885 0.047821723 0.0091160554 4279187129
-0.0097019076 0.045665845 0.011129757 4279187128
-0.0077423379 0.044967949 0.011744648 4278859453
-0.0058879927 0.044998966 0.011660434 4278925243
-0.0040337928 0.045030087 0.011576299 4279187383
-0.0022957809 0.045789957 0.010793569 4279185598
-0.00056337193 0.046549819 0.010011159 4279252154
0.0012848563 0.046581142 0.0099275224 4279119808
0.003381338 0.045155518 0.011240568 4278528973
0.0052346885 0.045187093 0.011156827 4278727619
0.0076065101 0.042305067 0.01386546 4279383478
-0.022268642 0.040314242 0.014110364 4280562344
-0.021111719 0.046195038 0.0084385518 4278267343
-0.019541692 0.048418947 0.0062597841 4279710898
-0.017705806 0.048449084 0.0061759837 4280038828
-0.015966903 0.049210526 0.0053942986 4278791114
-0.014034402 0.048509672 0.0060086213 4278529994
-0.012096561 0.047809042 0.0066227317 4279251643
-0.0099433213 0.045646541 0.0086318236 4279449268
-0.0079893693 0.04494638 0.0092453472 4278924734
-0.0061406046 0.044977345 0.009161409 4278794428
-0.0044052377 0.045739271 0.0083803739 4279317689
-0.0010700375 0.047993973 0.0061223153 4278660809
0.0010100119 0.046563655 0.0074328054 4279448248
0.0031008236 0.045133553 0.0087429099 4279646129
0.0052023754 0.043703772 0.010052569 4279251134
0.0079627261 0.038621202 0.01484409 4278990269
-0.022728696 0.042489737 0.0095154252 4278988738
-0.019480787 0.046217456 0.0058633424 4278791624
-0.017736372 0.046981044 0.0050830115 4279973294
-0.015997544 0.047744684 0.0043029767 4279251389
-0.012332097 0.047805414 0.004136065 4279251644
-0.010289565 0.046369486 0.0054446273 4279186619
-0.0083439797 0.045667022 0.0060569197 4278727108
-0.0065035336 0.045697875 0.0059733838 4278857923
0.0029445738 0.044387713 0.0069470163 4279185598
0.0051700175 0.042220727 0.0089485124 4278727363
-0.02301665 0.04321596 0.0063272994 4278990014
-0.021438319 0.045453034 0.0041578654 4278267343
-0.012260787 0.045604408 0.0037394557 4278988994
-0.010425646 0.045634992 0.0036560241 4278857414
-0.0085906461 0.045665666 0.0035726745 4278857923
-0.0067557804 0.045696445 0.0034894031 4278595018
-0.0048079267 0.044992067 0.0041001365 4278857158
-0.0032023825 0.046493515 0.0026292484 4278397648
0.0027883835 0.043646559 0.005154537 4279252154
0.0052644312 0.040002912 0.0085379556 4278859199
-0.02397739 0.033594534 0.012944672 4282726019
-0.022703856 0.0387903 0.0080040321 4279385008
-0.021203101 0.041772008 0.0051455367 4279449779
-0.019541811 0.043277815 0.0036747493 4279514293
-0.017797559 0.044045798 0.0028977115 4278792643
-0.016058896 0.044813834 0.0021209549 4278792643
-0.014226358 0.04484418 0.002037501 4278791624
-0.012496114 0.045612253 0.0012613423 4278791114
-0.010666568 0.045642756 0.0011781715 4278922948
-0.0089447908 0.046410881 0.00040254276 4279054529
-0.0032339431 0.045028374 0.0015385021 4280038828
-0.0015209466 0.045796759 0.00076357275 4280170663
0.00030772015 0.045827843 0.00068088993 4279580084
0.0023842379 0.044384487 0.0019819383 4278725833
0.0053587146 0.037780985 0.0081244148 4279186619
-0.023676069 0.02913622 0.014597718 4282987904
-0.022219937 0.032867283 0.011051858 4279189424
-0.020702749 0.035857998 0.0081991181 4278728893
-0.019116312 0.038108468 0.0060391407 4279122103
-0.017358501 0.03887888 0.0052631199 4279581358
-0.015702926 0.040389225 0.0037959758 4279448504
-0.013859592 0.04041978 0.003712045 4279316924
-0.012322772 0.042669818 0.0015546884 4278923459
-0.010592751 0.043440223 0.00078020059 4278726598
-0.008975897 0.044950306 -0.00068482477 4279054783
-0.0071494803 0.04498098 -0.0007676864 4278266834
0.0021043271 0.044396386 -0.00049057137 4278397648
0.0057062544 0.034076214 0.0090878792 4279316924
-0.023458084 0.025403069 0.01554752 4282007174
-0.021907978 0.028402934 0.012699712 4280500124
-0.020202965 0.029918121 0.011233382 4279713449
-0.018508971 0.031433225 0.0097676311 4279321004
-0.016732134 0.0322062 0.0089923516 4279386794
-0.015154097 0.034463264 0.0068378448 4278795958
-0.013493221 0.035978198 0.0053738058 4278795703
-0.012047548 0.038977005 0.0025312547 4278991289
-0.010414224 0.040491633 0.0010686591 4279778218
-0.0087919645 0.042006232 -0.00039338507 4279711663
-0.0071807355 0.043520711 -0.0018548155 4279777964
-0.0054675862 0.044293292 -0.0026266212 4279318453
-0.00036180019 0.04661113 -0.0049401084 4278594764
0.0020723976 0.042934038 -0.001579213 4278464713
0.0063067861 0.028875465 0.011418719 4278727363
-0.02332329 0.022401528 0.015799019 4281482384
-0.021767687 0.025410229 0.012957484 4280369309
-0.019968875 0.026185496 0.012182714 4279975079
-0.018357851 0.028449504 0.010031402 4279910054
-0.016481787 0.028480409 0.0099458434 4279647659
-0.01470241 0.029255683 0.0091722086 4279385774
-0.012928613 0.03003096 0.0083988961 4279582378
-0.011466514 0.03303878 0.005562108 4278664123
-0.0098168477 0.034558132 0.0041020177 4278402238
-0.0082857311 0.03682141 0.0019548554 4279056569
-0.0065506771 0.037596501 0.0011835825 4278859709
-0.0048212297 0.038371578 0.00041268766 4279515823
-0.0032130629 0.03989058 -0.0010451917 4279842988
-0.0014975704 0.040665656 -0.0018153507 4280039084
0.0002123192 0.041440688 -0.0025851391 4279121084
0.0030314177 0.035521522 0.0028278809 4278662084
-0.023354443 0.020884918 0.014669869 4281089428
-0.021627586 0.022409135 0.013208939 4280236708
-0.019911736 0.023933234 0.011748634 4280368543
-0.018115856 0.024710754 0.010975713 4280106403
-0.016513139 0.026981311 0.008829765 4280040613
-0.014637314 0.027012331 0.0087443031 4279844263
-0.012960143 0.02853624 0.0072860923 4279910308
-0.01119202 0.029313779 0.0065147243 4279778983
-0.0095341988 0.030837601 0.0050575621 4279713449
-0.0077799819 0.031615071 0.0042870231 4279123123
-0.0060313605 0.032392599 0.0035167672 4279319983
-0.0040625222 0.031677738 0.0041185431 4279189168
-0.0025509447 0.033947609 0.0019773599 4278861748
-0.00070077926 0.033979043 0.001893701 4278861493
0.00090703741 0.035502642 0.00043926574 4279056568
0.0038658231 0.028820334 0.006523883 4279516078
-0.023385609 0.019368606 0.013540938 4281023638
-0.021573242 0.020148402 0.012768693 4280433824
-0.019854713 0.02167693 0.011311533 4280302499
-0.018147212 0.02320539 0.0098549593 4279975079
-0.016450744 0.024733828 0.0083989352 4279646894
-0.01457233 0.024764912 0.0083133727 4279778983
-0.012694042 0.024796093 0.0082278848 4279911329
-0.010917813 0.02557593 0.0074578393 4279517609
-0.0090424977 0.02560729 0.0073726606 4279451308
-0.0072747208 0.026387202 0.0066031571 4279582634
-0.0055125393 0.027167113 0.0058339704 4278926263
-0.0036430992 0.027198704 0.0057493094 4279123123
-0.0017738119 0.02723038 0.0056647155 4279057589
-2.2996217e-05 0.028010475 0.0048962496 4279319474
0.0018432476 0.028042326 0.0048119649 4279319474
0.0048233159 0.021340767 0.01088099 4279385009
-0.021433476 0.01713256 0.013009246 4280827289
-0.019709542 0.018665591 0.011555055 4280368034
-0.017905653 0.019447623 0.010785041 4280172194
-0.01629474 0.021731367 0.0086485203 4279975589
-0.014507454 0.022513406 0.0078794006 4279778983
-0.012824897 0.024046158 0.0064274725 4279844774
-0.010847699 0.023326712 0.0070252717 4279910308
-0.0089697912 0.023358138 0.0069399923 4279385774
-0.0071993768 0.024140289 0.0061720032 4279320748
-0.0054345466 0.024922451 0.0054043438 4279254958
-0.0034496896 0.024203582 0.00600213 4279254449
-0.0015750825 0.024235388 0.0059173238 4279320748
0.00018111616 0.025017714 0.0051502865 4279254448
0.002052702 0.025049662 0.0050657634 4279713449
0.0050376542 0.018328605 0.011119969 4279647148
-0.019388154 0.014139561 0.013156442 4282006664
-0.017664373 0.015677033 0.011705646 4280892568
-0.015951619 0.017214479 0.010255395 4280499613
-0.014249891 0.018751835 0.0088057909 4280172193
-0.012460075 0.019536169 0.0080383085 4279975589
-0.010573983 0.019567622 0.0079525784 4279778729
-0.0086880252 0.019599197 0.0078669414 4279778983
-0.0070168227 0.021136517 0.0064190011 4279385774
-0.0052466244 0.021920962 0.0056527313 4279254958
-0.0034820214 0.022705423 0.0048868041 4279254958
-0.0014920458 0.021984583 0.0054828189 4279254958
0.00038502738 0.022016546 0.0053979959 4279582634
0.0023828745 0.021296052 0.0059938151 4279319729
0.0052517876 0.015308036 0.011352614 4279712939
0.013702709 -0.011714081 0.035668567 4279909543
-0.015608866 0.012680391 0.011849536 4282923643
-0.013992615 0.014977442 0.0097226351 4281024403
-0.012293782 0.016519269 0.008276457 4280827544
-0.010504175 0.017305898 0.0075106975 4280236709
-0.0086156279 0.017337544 0.0074249674 4280039848
-0.0069417283 0.018879237 0.0059802029 4279516588
-0.0051688962 0.019665973 0.0052154195 4279124399
-0.0035143718 0.021207539 0.0037716869 4279451563
-0.0017554685 0.021994224 0.0030077416 4279713958
0.00011601299 0.022026105 0.0029231776 4280041889
0.0022291318 0.02054861 0.0041965786 4279910308
0.0052184314 0.013788426 0.010221355 4279909799
0.013538282 -0.012557537 0.033800349 4279909033
-0.0066523217 0.015103595 0.006894188 4281482894
-0.0047614388 0.015135506 0.0068085194 4280760988
-0.0032087229 0.017438726 0.0046898928 4280565658
-0.0015571192 0.018984778 0.0032495987 4280500635
0.00020155311 0.019773738 0.002487367 4280369309
0.0023171827 0.018291956 0.0037574247 4280106913
0.0054322444 0.010755287 0.010444723 4280237983
0.013244893 -0.012639511 0.031258613 4281351314
-0.0029033646 0.013657128 0.0055985078 4282071434
-0.0012436211 0.015207661 0.0041611623 4281154453
0.00040506944 0.016758149 0.002724342 4280433823
0.0026467443 0.014512958 0.0046666544 4280893589
0.0058928989 0.0061956365 0.012012901 4281089428
0.013080675 -0.013471508 0.029398935 4282072198
0.0078486614 -0.011419905 0.0025099106 4279848854
0.0096439384 -0.010605793 0.0017643124 4281485953
0.011564847 -0.010572385 0.0016780272 4283255654
0.0055217668 -0.010639783 -0.00051998999 4278673814
0.0075631365 -0.011389645 5.1484443e-05 4278931364
0.0093528815 -0.010573424 -0.00069228932 4280241043
0.013183374 -0.010506667 -0.0008642571 4278464969
0.015371624 -0.012038705 0.00036419556 4282202504
-0.02686451 -0.015072394 0.0017957613 4279391638
-0.025494326 -0.0095396861 -0.0028991345 4279261079
-0.023752065 -0.0079368073 -0.0043023014 4279260824
-0.021766406 -0.0086914934 -0.0037312722 4279788419
0.0072778091 -0.011350425 -0.0024003414 4279259039
0.0093188547 -0.012102338 -0.0018304484 4279519904
0.012613643 -0.0088956039 -0.00462492 4278401219
0.017257247 -0.013538227 -0.00086317584 4279845283
0.019177224 -0.013504389 -0.00094908942 4279389598
0.019939017 -0.007191984 -0.0062761698 4280504714
-0.027355328 -0.011878738 -0.0032869037 4279259294
-0.021967415 -0.0086332802 -0.0061737439 4278273208
-0.019894551 -0.010177977 -0.0049481243 4279192994
-0.017991275 -0.010146558 -0.0050348751 4279390619
-0.015995156 -0.010902926 -0.0044656293 4279325593
-0.014184993 -0.010083364 -0.0052080974 4278737053
0.0047167502 -0.0089731645 -0.0067231953 4278539174
0.0068670474 -0.010514973 -0.0054998305 4279061924
0.0090280883 -0.012056449 -0.0042769145 4278273463
0.010675531 -0.010448804 -0.0056709629 4279652249
0.012579534 -0.010415548 -0.0057563856 4279127459
0.014483374 -0.010382207 -0.0058417376 4278797488
0.016665574 -0.011922905 -0.0046194652 4279059373
0.01857454 -0.01188927 -0.0047048954 4279258273
-0.029000221 -0.016592942 -0.0017120112 4281160320
-0.027616033 -0.011029638 -0.0063849781 4279062689
-0.025794575 -0.010208497 -0.0071268436 4278340783
-0.023978639 -0.009387318 -0.0078683654 4278734249
-0.020188507 -0.0093251131 -0.0080413921 4278864808
-0.018383712 -0.0085037015 -0.008782167 4278866338
-0.016398698 -0.0092624351 -0.0082140453 4279194523
-0.014408328 -0.010020897 -0.0076461029 4279194523
-0.012609266 -0.0091992747 -0.0083863158 4279390363
-0.010916829 -0.0075876899 -0.0097801052 4279718038
-0.0089240409 -0.0083457548 -0.0092120077 4279328144
0.0026641078 -0.0097316727 -0.0084187537 4279262098
0.004560411 -0.009698987 -0.0085041579 4279324319
0.0064565688 -0.0096661951 -0.0085894745 4279651229
0.010248449 -0.0096002836 -0.0087598357 4278664888
0.01227792 -0.010356531 -0.0081925066 4278666163
0.013903219 -0.0087446999 -0.0095821517 4278400964
0.018256109 -0.011834933 -0.0071434574 4279192229
0.019870017 -0.010222955 -0.0085324068 4281160319
-0.030809088 -0.019739309 -0.0014560604 4282534768
-0.029400134 -0.014160583 -0.0061188852 4278931363
-0.026063299 -0.009344073 -0.010213027 4278996643
-0.024173725 -0.0093132351 -0.010299418 4279324829
-0.022284225 -0.0092822779 -0.010385716 4279783319
-0.020394795 -0.0092512034 -0.010471923 4278668714
-0.018685672 -0.0076355021 -0.011863534 4278537898
-0.016616192 -0.009188721 -0.010644075 4278800548
-0.014631465 -0.009949455 -0.010077503 4278472874
-0.012837961 -0.0091257449 -0.010815836 4278931108
-0.0052827522 -0.0089984126 -0.011158256 4279258529
-0.0035061538 -0.0081744231 -0.011895403 4279521434
0.0025107265 -0.010452876 -0.010196443 4278799529
0.0041585341 -0.0088367816 -0.011584285 4279585949
0.005920846 -0.0080124624 -0.01232036 4278929579
0.011709053 -0.0087055545 -0.011923529 4278532033
0.015900876 -0.011013638 -0.010141011 4278405808
0.017937873 -0.011771622 -0.0095754117 4279455388
-0.031124095 -0.018094676 -0.0052065095 4280111504
-0.029652188 -0.013295617 -0.0092056273 4278800548
-0.027907329 -0.011675553 -0.01059613 4278275504
-0.02617343 -0.01005559 -0.011985995 4278273718
-0.018717155 -0.0091373157 -0.012981633 4278275248
-0.016833499 -0.0091060903 -0.013067393 4278472363
-0.0147589 -0.010663424 -0.011851299 4278407594
-0.012869988 -0.010631891 -0.011937132 4279324574
-0.0092998371 -0.0089800581 -0.013409534 4279321004
-0.0074166805 -0.0089482665 -0.013494844 4278403003
-0.00365071 -0.0088843554 -0.013665197 4278931619
-0.0018825009 -0.0080582015 -0.014400246 4278997918
0.00023207814 -0.0096139628 -0.013185294 4278866848
0.0023574308 -0.011169406 -0.011970726 4278538154
0.0041252449 -0.010342948 -0.012705524 4278997153
0.0058874823 -0.0095164683 -0.013439983 4278865574
0.0076441169 -0.0086899791 -0.014174111 4278538154
0.009657044 -0.0094509721 -0.013609364 4278931109
0.011541594 -0.009418048 -0.013693909 4278929834
0.013425995 -0.0093850568 -0.013778394 4278930088
0.015727576 -0.011732758 -0.011915993 4278537388
0.017761666 -0.012492971 -0.011351889 4279783573
-0.031296864 -0.018026305 -0.0076430398 4280045969
-0.029756639 -0.014011142 -0.010981916 4278932383
-0.027938183 -0.013183618 -0.011718925 4278801823
-0.026204349 -0.011559306 -0.013105545 4278932128
-0.024399647 -0.010731792 -0.01384169 4278276014
-0.020544931 -0.0114666 -0.013364037 4278735524
-0.018748637 -0.010638867 -0.014099535 4278407084
-0.016865131 -0.010607645 -0.014185288 4278408104
-0.011316091 -0.0097168852 -0.015091032 4279193503
-0.0095393397 -0.0088888314 -0.015825232 4278276269
-0.0075554028 -0.0096535198 -0.015261487 4278799273
-0.0055661239 -0.010417936 -0.014697923 4279324318
-0.0039069913 -0.0087934118 -0.016080135 4278275248
-0.0020297803 -0.0087613892 -0.016164927 4278472619
-3.5416335e-05 -0.0095254276 -0.015601302 4278538154
0.0020842589 -0.01108533 -0.014389732 4278865318
0.0039692558 -0.011052841 -0.014474628 4279193248
0.0056032352 -0.0094282255 -0.01585524 4278861749
0.0073543452 -0.0085996352 -0.016587555 4279191464
0.0092307515 -0.0085669681 -0.016671821 4278865318
0.011107009 -0.008534221 -0.016756019 4278668968
0.013119463 -0.0092972163 -0.016192662 4278603943
0.015276249 -0.010855746 -0.014982217 4278668714
0.017302003 -0.01161826 -0.014419347 4279390874
-0.031398557 -0.018748049 -0.0094241248 4280110739
-0.029713763 -0.016320165 -0.011457506 4279652249
-0.027892685 -0.015490462 -0.012192967 4279194269
-0.026235266 -0.01306276 -0.014224899 4278867358
-0.02443067 -0.012233084 -0.014959427 4279195288
-0.02254707 -0.012202218 -0.015045451 4279063709
-0.020750802 -0.011372432 -0.015779413 4278736034
-0.019050024 -0.0097438004 -0.017160974 4278408614
-0.017082155 -0.010511449 -0.016598582 4278604964
-0.015108906 -0.011278942 -0.016036309 4279194015
-0.011348095 -0.011216043 -0.016207118 4278274483
-0.0095714517 -0.010385806 -0.016939685 4278800039
-0.0076940283 -0.010354115 -0.017024737 4279061924
-0.0039395243 -0.010290403 -0.017194577 4278537898
-0.0021769442 -0.0094600115 -0.017926138 4278276014
-0.00018549338 -0.010226257 -0.017364064 4278275758
0.0018112808 -0.010992326 -0.016802091 4278864809
0.011206996 -0.010829329 -0.017224465 4278864808
0.012949403 -0.0099983998 -0.017954532 4278406574
0.014964264 -0.010763437 -0.017392837 4278931109
-0.031358469 -0.021067735 -0.0099075045 4280438668
-0.029744539 -0.017832085 -0.012583182 4279718293
-0.027847273 -0.017801356 -0.0126701 4278997663
-0.026187146 -0.015367126 -0.014697319 4278997664
-0.024461687 -0.013734138 -0.016076984 4278736289
-0.022831671 -0.011300144 -0.018102638 4278866849
-0.021043681 -0.010468321 -0.018834604 4279194269
-0.019351143 -0.0088355299 -0.020212509 4279456409
-0.017298982 -0.010406388 -0.0190052 4279390873
-0.015331384 -0.011176093 -0.018444326 4278670499
-0.013260312 -0.012746479 -0.017237686 4278342824
-0.0058491044 -0.01181908 -0.018223982 4278406573
-0.004083775 -0.010986591 -0.018954139 4278800549
-0.0022095628 -0.010954628 -0.019038802 4278341294
0.0016583949 -0.011690808 -0.018562941 4278668458
0.0034123361 -0.010858078 -0.019292258 4279061158
0.0051606968 -0.010025324 -0.020021236 4278603943
0.0071596131 -0.010793187 -0.019460799 4278537898
0.010772813 -0.0099276695 -0.0202733 4278799019
0.012643222 -0.009894928 -0.020357164 4278669224
0.014652442 -0.010662191 -0.019796876 4278669223
0.020564754 -0.012162942 -0.018760679 4279521434
0.021993 -0.0097297858 -0.020775275 4280962948
0.024015021 -0.010496348 -0.02021521 4281423224
-0.031389263 -0.022588069 -0.011039453 4280111758
-0.02977531 -0.019343734 -0.013708654 4279522199
-0.027878197 -0.019313041 -0.013795591 4279521944
-0.02613911 -0.017675579 -0.015172783 4279129499
-0.024410984 -0.016038213 -0.016549338 4279325594
-0.022693828 -0.014400909 -0.017925303 4278932383
-0.020900492 -0.013566771 -0.018655926 4278801568
-0.019202564 -0.011929547 -0.020030839 4278735779
-0.017330408 -0.011898534 -0.020116093 4279063198
-0.015362997 -0.012670419 -0.019556832 4279521944
-0.013390232 -0.013442101 -0.018997731 4279063964
-0.011412099 -0.014213641 -0.018438758 4279063963
-0.0096356422 -0.013379082 -0.01916809 4279325339
-0.0077585094 -0.013347407 -0.019253138 4279324829
-0.0060993843 -0.011710015 -0.020625679 4278866849
-0.0042279176 -0.011678201 -0.020710295 4278539429
-0.0023565665 -0.011646293 -0.020794835 4278670244
-0.00048533827 -0.011614255 -0.020879269 4279193249
0.0013857707 -0.011582124 -0.020963628 4278406318
0.0051276088 -0.011517544 -0.021132085 4279259293
0.0069983266 -0.011485108 -0.021216195 4278800293
0.0087381639 -0.010650134 -0.021943022 4278929833
0.010605875 -0.010617552 -0.02202685 4278405554
0.012473453 -0.010584867 -0.022110589 4278603433
0.014479775 -0.011354347 -0.021551788 4278537899
0.016633045 -0.012925894 -0.020350847 4278603433
0.018652689 -0.013695015 -0.019792475 4278931109
0.023523141 -0.0095847417 -0.02325321 4278861748
0.025697369 -0.011155451 -0.022052858 4281028993
0.027724359 -0.011923932 -0.02149451 4281359218
-0.033191938 -0.025750084 -0.010795532 4281291389
-0.031490806 -0.023302594 -0.012815163 4279915153
-0.029806076 -0.020855166 -0.014833965 4279587734
-0.027985327 -0.020018969 -0.015564566 4279456409
-0.026091153 -0.019988168 -0.01565125 4279260059
-0.024197038 -0.019957282 -0.015737871 4279391129
-0.022556163 -0.017510088 -0.017754309 4279391129
-0.020757478 -0.016673729 -0.01848351 4279194524
-0.018964313 -0.015837383 -0.019212402 4278866849
-0.016991567 -0.016611466 -0.018655092 4278670243
-0.015108738 -0.016580159 -0.018740742 4278866338
-0.013225995 -0.016548732 -0.018826298 4278342314
-0.011444088 -0.015712094 -0.019554321 4278997153
-0.0095642656 -0.015680473 -0.019639565 4279391639
-0.0078969225 -0.014038677 -0.021009374 4279522453
-0.0061316565 -0.013201973 -0.021736382 4279260314
-0.0043719634 -0.012365258 -0.022463061 4279194013
-0.0025034659 -0.012333382 -0.022547459 4279128734
-0.00063510239 -0.012301401 -0.02263177 4278669223
0.0012331605 -0.012269337 -0.022716016 4278931109
0.0065811947 -0.010563152 -0.024250884 4278338233
0.010305624 -0.01049828 -0.024418114 4278930089
0.012303773 -0.011270239 -0.023860615 4278407339
0.014168348 -0.011237503 -0.023944147 4278669224
0.016457539 -0.013617903 -0.022105485 4278537898
0.018329989 -0.013584844 -0.02218923 4278734248
0.025352616 -0.011039263 -0.024443775 4278339253
0.027531911 -0.012614136 -0.023246821 4278406573
0.032902766 -0.020587288 -0.017015683 4279653524
-0.03329064 -0.026466513 -0.012572827 4280767109
-0.031592261 -0.024012472 -0.014587487 4280177804
-0.029836833 -0.022366347 -0.015959091 4279456918
-0.028016195 -0.021527978 -0.016688064 4279456409
-0.02612217 -0.021497212 -0.01677477 4279521944
-0.024309831 -0.020658685 -0.017503219 4279390873
-0.022418663 -0.020627715 -0.017589603 4279390873
-0.020527568 -0.020596638 -0.017675905 4279521944
-0.018636543 -0.02056543 -0.017762106 4279390873
-0.016838118 -0.019726686 -0.018489514 4279456409
-0.015045226 -0.018887918 -0.019216584 4279325338
-0.013159912 -0.018856453 -0.019302262 4279260059
-0.011274688 -0.018824881 -0.019387854 4279325084
-0.0093895607 -0.018793192 -0.019473353 4278997663
-0.0078229457 -0.01633979 -0.021480866 4278735779
-0.0060550533 -0.015500859 -0.022206366 4279128989
-0.0044043101 -0.01385484 -0.023571989 4280504968
-0.0026502684 -0.013015918 -0.024296695 4280504968
-0.00066771731 -0.013790998 -0.023740694 4279326104
0.0010806546 -0.012951985 -0.024465002 4278670753
0.0081490241 -0.010402545 -0.026719395 4278930853
0.010005597 -0.010370161 -0.026802722 4278669224
0.01213422 -0.011951036 -0.02560731 4278538409
0.013857137 -0.011111733 -0.026329931 4278603944
0.016140621 -0.013498803 -0.02449584 4278471599
0.019874241 -0.01343282 -0.024662778 4279061923
0.021441419 -0.011786786 -0.026023626 4279062944
0.022997562 -0.010140896 -0.027383866 4278340529
0.0251632 -0.01172046 -0.026189622 4278668714
0.027339589 -0.013299822 -0.02499577 4278997153
0.030169006 -0.018103834 -0.021249352 4279259803
0.033030894 -0.022907183 -0.017504316 4279325594
-0.033389248 -0.027178342 -0.014346696 4279980434
-0.031622946 -0.025527785 -0.015715698 4279784849
-0.029794188 -0.024687236 -0.016443517 4279325594
-0.028047053 -0.023036795 -0.017811421 4279063454
-0.026232034 -0.022196192 -0.018538479 4279521689
-0.024259372 -0.022975152 -0.017984726 4279652758
-0.022365633 -0.022944154 -0.018071238 4279783829
-0.020384938 -0.023722691 -0.017517708 4279456409
-0.018578362 -0.022881791 -0.01824398 4279325338
-0.016592376 -0.023660008 -0.017690515 4279260059
-0.014981799 -0.021199826 -0.019695515 4279063198
-0.013093907 -0.021168321 -0.019781312 4279194268
-0.011407387 -0.019517798 -0.021145646 4278997664
-0.0094217584 -0.020295553 -0.020591818 4278997664
-0.0077490546 -0.01864505 -0.021955369 4279063198
-0.0057609044 -0.019422553 -0.021401498 4278670243
-0.0041020289 -0.017772011 -0.022764295 4278866849
-0.0024541654 -0.016121592 -0.02412647 4278473639
-0.00070032105 -0.015280404 -0.024849474 4278735013
0.0011676587 -0.015248345 -0.024933705 4279850130
0.0029131025 -0.014407131 -0.025656205 4281094783
0.0046529546 -0.013565824 -0.026378386 4280701574
0.0063872486 -0.012724566 -0.027100205 4279391639
0.0082465596 -0.012692246 -0.027183741 4278539174
0.0098390914 -0.01104207 -0.028542893 4278669479
0.011828732 -0.011818486 -0.027988298 4278538664
0.013546143 -0.010977142 -0.028709078 4278604199
0.015540946 -0.011753275 -0.028154571 4278537643
0.019252565 -0.011687703 -0.02832054 4278470834
0.020958502 -0.010846188 -0.02904053 4278471089
0.022658836 -0.010004628 -0.029760234 4278340783
0.024818841 -0.011588724 -0.028568964 4278537389
0.027305197 -0.014789423 -0.026104592 4279324829
0.03013422 -0.019606501 -0.022367895 4278997408
-0.029751619 -0.027012223 -0.016930994 4281030014
-0.028001824 -0.025357416 -0.018295797 4280111759
-0.026184183 -0.024514638 -0.019021308 4280372368
-0.024290528 -0.024483748 -0.019107899 4279913623
-0.022312686 -0.025264647 -0.018555963 4279718549
-0.020416435 -0.025233477 -0.018642494 4279456154
-0.018520258 -0.025202204 -0.018728944 4279456409
-0.016901448 -0.022735491 -0.020729549 4279456409
-0.015108753 -0.021892402 -0.021453386 4279259803
-0.01322373 -0.021860966 -0.021539068 4278997664
-0.011338789 -0.02182941 -0.021624656 4279325338
-0.0093506165 -0.02260929 -0.021072559 4278997664
-0.0075692013 -0.021765944 -0.021795552 4279194268
-0.0056845509 -0.021734048 -0.021880869 4279194268
-0.0039115064 -0.020890592 -0.022603296 4279194268
-0.0022582449 -0.019235704 -0.023962524 4279456154
-0.00061597675 -0.017580952 -0.025321145 4278931873
0.0011349469 -0.016737562 -0.026042338 4279128223
0.0028802976 -0.015894175 -0.026763212 4278866083
0.0063542835 -0.014207288 -0.028203979 4278800803
0.0080829263 -0.013363895 -0.028923882 4279325084
0.0098059811 -0.012520469 -0.029643435 4279390874
0.01179545 -0.013299074 -0.029090464 4279128478
0.013512801 -0.012455592 -0.029809646 4278735779
0.015365999 -0.012422996 -0.02989262 4278800548
0.020625498 -0.010703107 -0.031412143 4278272188
0.024474692 -0.011448037 -0.030941719 4278995623
0.027113076 -0.015468225 -0.027848419 4279128224
0.030420404 -0.02273012 -0.022216264 4278866339
-0.026057657 -0.027651297 -0.018870162 4282340458
-0.024158703 -0.027620362 -0.018957023 4281684088
