# .PCD v0.7 - Point Cloud Data file format
VERSION 0.7
FIELDS x y z rgba
SIZE 4 4 4 4
TYPE F F F U
COUNT 1 1 1 1
WIDTH 970
HEIGHT 1
VIEWPOINT 0 0 0 1 0 0 0
POINTS 970
DATA ascii
0.039896369 0.018338971 0.034011059 4289473574
0.042281494 0.016939275 0.035265431 4289473574
0.044889957 0.014815301 0.037211366 4289538853
0.047945306 0.011242818 0.040540308 4289473574
0.051463872 0.0062222052 0.045251139 4288754474
0.056566298 -0.0038679559 0.054801129 4288230959
0.0023043901 0.01655712 0.034635969 4288884014
0.0036385357 0.019517668 0.031727552 4289080364
0.0049506649 0.022477787 0.028820688 4289866274
0.0065681636 0.023981515 0.027303012 4288884778
0.0086737797 0.023301251 0.027867137 4289015849
0.010953739 0.021893419 0.029124407 4289408294
0.013072498 0.021213707 0.029687753 4289473574
0.015196487 0.02053421 0.030250816 4289211944
0.017148368 0.020582572 0.030120688 4289342759
0.018919989 0.021358568 0.029297894 4289473574
0.021234162 0.019951966 0.030553238 4289408038
0.023188025 0.020000622 0.030423159 4289277223
0.025329821 0.019321986 0.030985346 4289211944
0.026713163 0.021552786 0.028779173 4290323998
0.028660811 0.021601539 0.028649693 4289669923
0.030608192 0.021650344 0.02852028 4289211943
0.033152513 0.019517899 0.03046537 4289408294
0.035309307 0.018840019 0.03102685 4289997089
0.037266754 0.018889304 0.03089693 4289277479
0.03963837 0.017484844 0.03214898 4289342759
0.042440437 0.01462711 0.034781814 4289866019
0.045689307 0.010316394 0.038794488 4289342503
0.048970476 0.0060066041 0.042805016 4288753708
0.052502051 0.0009710528 0.047503717 4287249209
-0.0021289736 0.017073311 0.03164994 4287836983
-0.00062793493 0.019312378 0.029439894 4288687664
0.0011674613 0.020090379 0.028616572 4288949804
0.0029571876 0.020868335 0.027793696 4289473574
0.0042586029 0.023836959 0.024894068 4290389278
0.0060288385 0.024614621 0.02407263 4290455324
0.0079597607 0.024662152 0.023943668 4290520603
0.010397643 0.022519674 0.025890285 4290651418
0.012679853 0.021107614 0.027144296 4290193438
0.014623702 0.021155726 0.027014667 4289670178
0.016390093 0.021933734 0.026193811 4289211944
0.018330745 0.02198194 0.026064521 4289277223
0.020271152 0.022030212 0.025935305 4289146408
0.022396706 0.02134895 0.026496919 4289277223
0.024715565 0.019938346 0.027748821 4289538853
0.026281707 0.021446023 0.026238522 4289866018
0.02822382 0.021494679 0.02610944 4290651164
0.03016568 0.021543395 0.025980426 4290716953
0.032505259 0.020133611 0.027231177 4289932064
0.034855448 0.018724132 0.028481314 4289866274
0.037216216 0.017315049 0.029730776 4289800738
0.039587617 0.015906241 0.030979617 4289211944
0.042809062 0.011581752 0.034984306 4289015338
0.046488039 0.0058002248 0.040364824 4288819244
0.050210156 1.9932166e-05 0.045742512 4288099633
0.053539447 -0.0043016747 0.049740233 4286333249
-0.00457827 0.017651357 0.028541068 4289799463
-0.0033768043 0.021362282 0.024952849 4290192163
-0.0014395043 0.021409523 0.024823124 4290520093
0.00034220517 0.022189416 0.024002371 4289735204
0.0024344772 0.021504287 0.024563944 4289015594
0.0038886592 0.02374908 0.022362145 4289342759
0.0056534261 0.024528831 0.02154273 4289604389
0.0077450573 0.023843966 0.022104556 4289735203
0.010348901 0.020962652 0.024736794 4290062623
0.012459151 0.02027839 0.025297558 4289474084
0.014400177 0.020326469 0.025168141 4289408548
0.015809469 0.022570696 0.022969743 4289539364
0.017561972 0.023350678 0.022151539 4290062369
0.019491397 0.023398731 0.022023091 4290651164
0.021605887 0.022715043 0.022583848 4290454814
0.024101689 0.02056805 0.024522258 4289604389
0.02604124 0.020616595 0.024393311 4289408295
0.027980544 0.020665221 0.024264449 4290127648
0.02991958 0.020713896 0.024135647 4290062368
0.032455124 0.018568266 0.026071614 4290585628
0.034805082 0.017154451 0.027318554 4290389534
0.037574381 0.014278334 0.029940581 4289343014
0.040158063 0.012134116 0.031873502 4288557869
0.04338716 0.0077967513 0.035867967 4287576374
0.047073618 0.0019980092 0.041235045 4286595133
0.050588034 -0.0030685309 0.045912161 4286202689
-0.0071552023 0.018978264 0.024750838 4288752944
-0.0056563318 0.021230213 0.022550629 4289866019
-0.0038742796 0.022012159 0.0217313 4290650908
-0.0020978674 0.022794038 0.020912478 4290585629
-1.6488135e-05 0.022106394 0.021473104 4290650908
0.0020701513 0.021418933 0.022033496 4289081129
0.0036797523 0.022935588 0.020526106 4289146409
0.0054417402 0.023717489 0.01970852 4289146408
0.0073642656 0.023764864 0.019580157 4289342759
0.0097933486 0.021609105 0.021517722 4288885033
0.011895254 0.020922516 0.022077391 4289016103
0.013827994 0.020970426 0.021948555 4289016103
0.015406311 0.022486869 0.020443661 4289343013
0.017153338 0.023268927 0.019627469 4290128159
0.019077219 0.023316883 0.019499423 4290585884
0.021186106 0.022630908 0.02005895 4290585884
0.02367615 0.020477258 0.021992901 4290520093
0.025800861 0.019791853 0.022551505 4289473574
0.028124183 0.018372823 0.023796836 4289604389
0.02986972 0.019155335 0.022981105 4289604389
0.032603808 0.016269524 0.025598856 4289473574
0.035157837 0.01411787 0.027528839 4289604133
0.038340777 0.0097661428 0.031516552 4289080873
0.041349061 0.0061487667 0.034816124 4287445559
0.044803679 0.001065338 0.039485767 4286791484
0.048083618 -0.0032837223 0.043467209 4286333504
0.051395886 -0.007631924 0.047446609 4286137154
-0.0094265044 0.018848967 0.022349985 4288687408
-0.0082133375 0.022581875 0.018777115 4289800483
-0.0064393282 0.023365699 0.017959936 4289277224
-0.0045211688 0.023412444 0.017831473 4289277734
-0.0022981614 0.021985285 0.019079221 4290193438
-0.00037492812 0.022032347 0.018950565 4290455324
0.0017060712 0.021342628 0.019509682 4289473574
0.0034709349 0.022126734 0.018693494 4289211944
0.0057203844 0.020700626 0.019939775 4289146409
0.0074821189 0.021484818 0.019123914 4289146409
0.009744741 0.02005918 0.020369494 4289343269
0.011503294 0.020843536 0.019553961 4289081383
0.013430491 0.020891335 0.019425509 4289277989
0.015003406 0.022411991 0.017924285 4290455324
0.016744956 0.023196142 0.017110115 4289277479
0.018663295 0.023243994 0.016982464 4289081128
0.021136932 0.02108337 0.018912544 4289211943
0.023438767 0.019659322 0.020155976 4289539108
0.025369972 0.019707724 0.020027632 4289342758
0.027687594 0.018284269 0.021270083 4289211944
0.030015863 0.016861118 0.022511924 4289604389
0.032951109 0.013230778 0.025808068 4289080618
0.036114775 0.0088654421 0.029787304 4288557103
0.039515011 0.0037652478 0.034449108 4287510839
0.042539164 0.00013738312 0.03773953 4286921788
0.045590192 -0.0034897197 0.041028224 4286333249
0.048668131 -0.00711607 0.044315197 4286202179
-0.011270113 0.016510505 0.022017216 4288425779
-0.00989867 0.019515216 0.019138457 4288949549
-0.0085492022 0.022519521 0.01626127 4289931554
-0.0067806914 0.02330542 0.015446102 4290324509
-0.0048681125 0.023352049 0.01531803 4289670434
-0.0028032511 0.022659596 0.015876492 4289931808
-0.00088830292 0.022706483 0.01574841 4290323999
0.0013422444 0.021275323 0.016992612 4289996833
0.0032622367 0.02132253 0.016864339 4289342759
0.0055086985 0.019892011 0.018107591 4289473574
0.0072676539 0.020678367 0.017293582 4289604389
0.0091897249 0.020725902 0.017165376 4289408549
0.01094009 0.021512218 0.016352063 4289081384
0.012859002 0.021559853 0.016224196 4289539363
0.014600746 0.022346143 0.015411599 4290716954
0.016157113 0.023870908 0.013914762 4290258718
0.018431999 0.02244167 0.015156625 4289735714
0.020717494 0.021012835 0.01639781 4289408549
0.023201473 0.018846013 0.018322481 4289408293
0.025320418 0.018156156 0.018878268 4289669923
0.027831115 0.015990164 0.020801285 4289539109
0.030553825 0.013086602 0.023406798 4289146154
0.033695512 0.0087075308 0.027377764 4288361009
0.036869518 0.0043293945 0.031346597 4287248698
0.04048422 -0.0015236717 0.036679402 4286790974
0.043521516 -0.005162077 0.039960861 4286333249
0.047004856 -0.010275228 0.044605888 4286136643
-0.011178821 0.014214791 0.021551585 4288425779
-0.0099459961 0.017969958 0.017993594 4289145898
-0.0085963905 0.020983029 0.015122911 4289473574
-0.0069748759 0.022512641 0.013624208 4289735458
-0.0050651208 0.022559207 0.013496326 4290651674
-0.0031555742 0.022605889 0.013368553 4290520604
-0.0012461916 0.022652663 0.013240857 4290258463
0.00097864121 0.021217078 0.014482187 4289800739
0.0028930604 0.021264166 0.014354302 4289604389
0.0051338524 0.019829124 0.015594745 4289538853
0.0067213029 0.021358624 0.01409878 4289800483
0.008803837 0.020664994 0.014654933 4289866019
0.010548681 0.021453429 0.013843598 4289211944
0.012636222 0.020760089 0.014399542 4289343013
0.014198311 0.022289325 0.012905542 4289931808
0.015749291 0.023818329 0.011412386 4290651418
0.017836139 0.02312528 0.011968533 4290782489
0.020298302 0.020951305 0.013889743 4290651674
0.022964284 0.018037371 0.016492372 4290585884
0.025651798 0.015124034 0.019093687 4289866274
0.028554015 0.011470962 0.022375742 4289408293
0.031483203 0.007818602 0.025656098 4289080873
0.03463795 0.0034268349 0.029616443 4288164658
0.037825048 -0.00096403435 0.0335747 4286660159
0.041044489 -0.0053540077 0.037530869 4286464064
0.044709891 -0.011223139 0.04284741 4286202179
-0.01221488 0.0074042678 0.025319258 4287311938
-0.011087675 0.011914954 0.021082984 4288622129
-0.0098519325 0.015681177 0.017532887 4289080618
-0.0083553158 0.017959286 0.015352318 4288885034
-0.0068752095 0.020237122 0.013172885 4288950313
-0.004962869 0.020283811 0.013044871 4289604644
-0.0033553243 0.021817666 0.011550512 4289800484
-0.0016038418 0.022607863 0.010739999 4289669925
0.0004575327 0.021911208 0.011295628 4289473318
0.0025241449 0.021214787 0.011850987 4289538853
0.0044328123 0.021261856 0.011723576 4289866018
0.0060094073 0.022795439 0.010231648 4290520093
0.0079122111 0.022842545 0.010104759 4290651418
0.0098147914 0.022889763 0.0099779759 4290520603
0.012065358 0.021451026 0.01121477 4290258974
0.013972946 0.021498535 0.011087775 4289343013
0.015700765 0.022289008 0.010279471 4289473828
0.017969705 0.020850986 0.011515234 4290127903
0.020249285 0.0194133 0.012750415 4290062624
0.023290299 0.015005294 0.016708357 4289408294
0.026173294 0.011340775 0.019983539 4288950314
0.029469505 0.0061919205 0.024618017 4288427054
0.032607682 0.0017865971 0.028569689 4287183928
0.035579644 -0.0018754452 0.031839132 4286333504
0.038981102 -0.0070213545 0.036466777 4286202434
0.042012364 -0.010681785 0.039732449 4286071619
-0.012126893 0.0050871819 0.024838025 4287443008
-0.010858074 0.0088650174 0.021293821 4289080109
-0.009475328 0.011896301 0.01843386 4289276969
-0.0079704598 0.014181208 0.016257571 4289212198
-0.0064821094 0.016465787 0.014082523 4289211943
-0.0050102845 0.018750101 0.011908602 4289015593
-0.0035549924 0.021034077 0.0097359158 4289473574
-0.0019612461 0.022572141 0.0082457867 4289342759
9.4488263e-05 0.021873176 0.0088001806 4289538853
0.0021554753 0.02117442 0.0093543585 4289866018
0.0038954318 0.021966882 0.0085464306 4289800483
0.0054638907 0.023504663 0.007058315 4290062113
0.0075269938 0.022806276 0.0076125097 4290062623
0.0095953196 0.022108112 0.0081664287 4291044119
0.012016952 0.019919749 0.01008039 4290520603
0.013924435 0.019967269 0.009953415 4289408549
0.016011141 0.019269843 0.010506317 4289800995
0.018103085 0.018572617 0.011058921 4289800738
0.020754971 0.01564081 0.01364954 4289669668
0.023991257 0.010475039 0.018276541 4289473574
0.027455732 0.0045655109 0.023580143 4288819499
0.030384257 0.00089135207 0.026844276 4286987833
0.033339709 -0.002782058 0.030106677 4286333758
0.036322095 -0.0064547025 0.033367351 4286071618
0.039733842 -0.011615605 0.03798297 4286006084
-0.012310721 0.0042626671 0.022991652 4288294199
-0.010905877 0.0073031224 0.020136626 4289014829
-0.0092404075 0.0088467523 0.018644603 4289146663
-0.0074420199 0.0096421503 0.01783389 4289146918
-0.006089434 0.012681637 0.014982594 4289605154
-0.0047588125 0.015720684 0.012132911 4289605154
-0.0034501627 0.01875931 0.0092847142 4289081128
-0.001853697 0.020301837 0.0077976696 4289015594
-0.00011067092 0.021096349 0.0069910754 4289538853
0.001787059 0.021143105 0.0068643671 4289538853
0.003358461 0.022685248 0.0053792391 4290323999
0.0052503571 0.022732046 0.0052530523 4289604389
0.0071420446 0.022778943 0.0051269569 4288950569
0.009375982 0.021331042 0.0063583497 4288885289
0.011446625 0.020630874 0.0069105811 4289212198
0.013875879 0.018436275 0.0088192578 4289408549
0.015962429 0.017736666 0.0093705542 4289343013
0.018782683 0.014048576 0.012633543 4289538853
0.021445058 0.01110832 0.015216986 4288819498
0.024879187 0.0051805377 0.020509595 4288100144
0.027976006 0.00074789673 0.024444474 4287380279
0.031298257 -0.0044308007 0.02905455 4286857019
0.034266844 -0.0081147524 0.032307997 4286464319
0.037460811 -0.012544696 0.036236614 4286136644
-0.012494426 0.003442809 0.021148724 4288229173
-0.010953683 0.0057415105 0.018979644 4288949549
-0.0090057962 0.0057888068 0.018849062 4289343014
-0.0072020106 0.0065864958 0.018039661 4289604898
-0.0058438405 0.0096348897 0.015194515 4289605154
-0.0046570152 0.013433017 0.011672372 4289539618
-0.0031934083 0.015730385 0.0095088594 4289147174
-0.0017462969 0.018027391 0.0073465612 4289473829
-0.00015816092 0.019574191 0.0058634039 4288885034
0.0014188886 0.021120753 0.004381083 4289342759
0.0029848665 0.022667199 0.0028995443 4290454813
0.0048711896 0.022713892 0.0027737543 4290585629
0.0070942193 0.021261241 0.0040026233 4290586139
0.0093279034 0.019809008 0.0052308161 4290651674
0.011572279 0.018357057 0.0064583868 4290520859
0.014003918 0.016156048 0.0083620213 4289343014
0.016630992 0.01320605 0.010941222 4289408294
0.019461669 0.0095073245 0.014195418 4288492333
0.022504084 0.0050600804 0.018124072 4287773234
0.025391407 0.0013629124 0.021374675 4287380279
0.028686091 -0.0038317554 0.025975151 4287314744
0.032018617 -0.0090254238 0.030573225 4286987579
0.035193264 -0.013469 0.034493349 4286856508
-0.012678042 0.0026276484 0.019309217 4288622384
-0.01100152 0.0041801967 0.017822886 4289276969
-0.0091949105 0.0049800575 0.017014859 4289343014
-0.0073939152 0.0057798699 0.016207276 4289409058
-0.0060383305 0.0088369623 0.013368813 4289736224
-0.0045553893 0.011141248 0.011208801 4289997598
-0.0027848706 0.011940639 0.010403497 4289670433
-0.0011747554 0.01349226 0.0089220572 4289474084
0.00010930002 0.016547956 0.006088715 4289604899
0.001371406 0.019603249 0.0032568686 4288950313
0.0031003132 0.020402074 0.0024546068 4288885034
0.004989244 0.020448849 0.0023286566 4289277734
0.0068779811 0.02049572 0.0022027921 4289866529
0.0091087073 0.019039012 0.0034279861 4289931554
0.011523932 0.016830936 0.0053278375 4289604389
0.014484882 0.012368325 0.009251995 4289080873
0.01747825 0.0079066157 0.013174066 4288623148
0.020504043 0.0034458004 0.017094044 4287445814
0.022823438 0.0019917674 0.018313682 4286726204
0.025528334 -0.00096472725 0.020881431 4286529598
0.02863501 -0.0054232478 0.024796231 4286464063
0.032352634 -0.012134683 0.030731069 4286464063
-0.011187714 0.0033739507 0.015990296 4287905323
-0.009101741 0.0026664883 0.016535798 4289409824
-0.0072980896 0.0034685731 0.015729679 4289344290
-0.0059396476 0.006534474 0.012897518 4289605408
-0.0044538975 0.0088454038 0.010742212 4289736479
-0.0025287494 0.0088926181 0.010613501 4289474339
-0.00091317296 0.010448698 0.0091349836 4289932063
0.0005338937 0.012758996 0.0069824904 4290128158
0.0016441643 0.016577505 0.0034820195 4289604643
0.0033784881 0.017378606 0.0026810654 4289081128
0.0049415752 0.018933844 0.0012063142 4288819499
0.0071668103 0.017472565 0.0024285745 4289343013
0.009231694 0.016765688 0.0029763076 4289408038
0.011996806 0.013043303 0.0062184948 4288884523
0.014965385 0.0085678138 0.010132428 4288165169
0.018324777 0.0025856197 0.015390942 4287380279
0.020999819 -0.00038048625 0.017954087 4286660669
0.023327149 -0.0018386617 0.019169973 4286529598
0.025665104 -0.0032964386 0.02038517 4286333504
0.028773971 -0.0077679604 0.02429012 4286267969
0.032493576 -0.014498957 0.030210247 4286202435
-0.0094317645 0.0026195757 0.014031013 4289083424
-0.0076336339 0.0034237709 0.013226861 4289213474
-0.0061340258 0.0057414565 0.011075459 4289344290
-0.0043525696 0.0065454673 0.010272585 4289474848
-0.0024248362 0.0065927524 0.010143708 4289801503
-0.0006518811 0.0073967036 0.009341592 4289997598
0.0008007139 0.0097136684 0.0071936641 4290063134
0.002236791 0.012030341 0.0050468501 4290258973
0.0036563501 0.014346719 0.0029012151 4290128158
0.0055559352 0.01439381 0.0027745906 4289408293
0.0074553192 0.014441002 0.0026480611 4288754219
0.0096964315 0.012975872 0.0038661081 4289080873
0.012469262 0.009242788 0.0070996862 4288165169
0.015621856 0.0039983857 0.01167527 4287314489
0.018633239 -0.00048904121 0.015576763 4286791483
0.021131493 -0.0027077794 0.017461544 4286529598
0.023276716 -0.003414385 0.018002717 4286398528
0.025614433 -0.0048764981 0.019214718 4286071873
-0.0061818957 0.0041941274 0.0099290982 4289214749
-0.0044005066 0.0050003361 0.0091278665 4289410334
-0.002472885 0.0050476287 0.0089990087 4289670944
-0.0007000044 0.0058537927 0.0081985407 4289867038
0.0010672435 0.0066599157 0.0073985178 4289866783
0.002508834 0.0089832991 0.0052562281 4290455578
0.0039339438 0.011306327 0.003115138 4290128158
0.0058388487 0.011353571 0.0029881783 4289735713
0.0080798864 0.0098840557 0.0042029005 4289408548
0.010502532 0.0076564979 0.006087631 4288296494
0.013288476 0.0039128792 0.0093122534 4287641908
0.016101442 0.00017000921 0.012535138 4286987578
0.01894138 -0.0035721064 0.015756285 4286594879
0.021262996 -0.005039189 0.016966028 4286725694
0.023595251 -0.0065058731 0.018175093 4286398783
-0.0047465488 0.0049776416 0.0066424515 4289280538
-0.0026727319 0.0042638239 0.0071842652 4289998874
-0.00059365481 0.003550211 0.0077257827 4290128924
0.0011762604 0.0043586064 0.0069272239 4290063389
0.0027806014 0.0059277657 0.0054593869 4290063134
0.0042112172 0.0082575344 0.0033227745 4290062878
0.0062868372 0.0075442623 0.0038648359 4289997598
0.0085357949 0.0060705524 0.0050758384 4289670433
0.011137076 0.0030761342 0.0076242071 4288492844
0.013759926 8.2345679e-05 0.010171209 4287772979
0.01622805 -0.0021503624 0.012048174 4287183928
0.01871229 -0.0043826234 0.013924165 4286595134
0.021030933 -0.0058540776 0.015130846 4286464574
-0.0007962957 0.0027687978 0.0059130546 4289869589
0.0011279806 0.0028162412 0.0057845917 4290325528
0.002732344 0.0043897834 0.0043200105 4290325529
0.0043256208 0.0059631895 0.002856195 4290325529
0.006238468 0.0060106497 0.0027287211 4289997598
0.0088232309 0.003007045 0.0052716639 4289474339
0.011429571 4.0307641e-06 0.0078132115 4288558634
0.014057457 -0.0029983185 0.010353424 4288427818
0.016354509 -0.0044748429 0.011558168 4288558889
0.018662229 -0.0059510395 0.012762316 4287250738
0.0009226203 0.0020394064 0.0039754994 4289803034
0.0026840717 0.0028520841 0.0031808466 4290456853
0.0044398978 0.0036647152 0.002386637 4290456344
0.0065205693 0.002947228 0.0029251352 4290390809
0.0089424103 0.00070004351 0.0047952719 4289539618
0.011380397 -0.0015466902 0.0066644438 4288820263
0.013661087 -0.0030281041 0.0078670159 4289016613
0.015776321 -0.003744347 0.0084035024 4288821029
0.004391551 0.0021294672 0.0012493003 4290195988
0.0064720362 0.0014098212 0.0017862115 4290326294
0.0088935494 -0.0008439105 0.0036515072 4289606429
0.011160597 -0.0023300946 0.0048516952 4289082913
0.013438299 -0.0038158726 0.0060512051 4288299044
0.0064235106 -0.00012733229 0.00064747408 4290066704
0.0085090399 -0.00084894709 0.0011824947 4288691489
0.024512075 -0.012845427 0.0083876047 4289150233
0.026658319 -0.013566927 0.0089175422 4290064408
0.028809823 -0.014288271 0.0094472244 4289539619
0.031551309 -0.017321821 0.011954496 4288492334
0.034314327 -0.020354778 0.01446045 4286071874
0.022136703 -0.01291752 0.0060381349 4289084953
0.024088129 -0.012868277 0.0059086997 4290065174
0.026228771 -0.013592102 0.0064373855 4289212964
0.02837465 -0.01431568 0.0069658104 4290586394
0.030720614 -0.015812127 0.0081516542 4290389789
0.033274785 -0.018081095 0.0099943336 4290192929
0.036245652 -0.021895371 0.01315069 4286660413
0.021902502 -0.013706679 0.0042222608 4289803289
0.024037771 -0.014432936 0.0047496688 4290587924
0.025988884 -0.014383617 0.0046203174 4289343779
0.027939774 -0.014334197 0.004491061 4290193949
0.030085236 -0.015059875 0.0050179567 4290586394
0.03243345 -0.016560482 0.0062004421 4290389024
0.035192773 -0.019610876 0.0086937472 4289866018
0.037567697 -0.021110676 0.0098746307 4288034099
0.017776266 -0.01458931 0.0026681367 4289672983
0.019541323 -0.01376264 0.0018835794 4289802779
0.022036172 -0.016046617 0.003720222 4290587668
0.02398739 -0.015997369 0.0035908092 4290587159
0.025938407 -0.015948042 0.0034614727 4290652438
0.027505167 -0.014343699 0.0020229146 4289604643
0.029450305 -0.014294347 0.001894094 4289932064
0.031790145 -0.01579956 0.0030739438 4290324509
0.034340762 -0.018081596 0.0049072113 4289474084
0.0367046 -0.019586023 0.006085597 4289473318
0.039490268 -0.022644304 0.0085707977 4288425778
0.017191298 -0.013809255 -0.00044910423 4290129688
0.019129232 -0.013760521 -0.00057777017 4290587669
0.021618329 -0.016051138 0.0012543537 4289540384
0.023563996 -0.016002001 0.0011253282 4290521624
0.025509462 -0.015952798 0.00099637173 4291306769
0.027070858 -0.014344298 -0.00043856166 4290586904
0.02901046 -0.014295083 -0.00056701154 4290259483
0.031147234 -0.015025251 -4.2714179e-05 4289867039
0.033489317 -0.016534634 0.0011337698 4290389788
0.036044866 -0.018823029 0.0029619616 4289604388
0.038822003 -0.021890234 0.0054412521 4289145389
0.041412391 -0.024177594 0.0072672497 4288033334
0.013265401 -0.015459581 -0.0013420582 4289869078
0.014676906 -0.013064348 -0.0034283744 4289540384
0.016606756 -0.01301588 -0.0035565505 4290325529
0.018717423 -0.013749403 -0.0030325223 4290063643
0.021017045 -0.015264732 -0.0018567741 4289081893
0.022954464 -0.015215817 -0.0019852631 4289344033
0.025080822 -0.015948674 -0.0014620777 4290325529
0.027020559 -0.015899539 -0.0015905984 4290782743
0.028960064 -0.015850317 -0.0017190333 4290913813
0.031096689 -0.016582677 -0.0011963509 4291175188
0.033638544 -0.01887802 0.00062783994 4289670179
0.03599377 -0.020391352 0.001800267 4289342503
0.038770527 -0.023467237 0.0042731371 4286725694
-0.00081692636 -0.014995051 -0.0035454715 4288889878
0.001270704 -0.015732178 -0.003022165 4289345819
0.011107609 -0.016276315 -0.0030147573 4290130454
0.0126976 -0.014658998 -0.0044455705 4290260503
0.014101043 -0.012257454 -0.0065265065 4290390809
0.016200833 -0.012993518 -0.006003445 4290848788
0.018305898 -0.013729392 -0.0054806145 4291110419
0.020416185 -0.014465001 -0.004958109 4291175699
0.022345334 -0.014416275 -0.0050860317 4290129179
0.024652459 -0.015935572 -0.0039139474 4289998108
0.026778467 -0.016670577 -0.003392254 4290063644
0.028909676 -0.017405322 -0.0028708838 4289801504
0.030848898 -0.017356046 -0.0029992545 4289800738
0.033587702 -0.020441758 -0.00053046457 4289474083
0.036145337 -0.022743123 0.0012878347 4287838259
-0.0011726767 -0.014966841 -0.0059922906 4290131218
0.00090932101 -0.015706334 -0.0054701865 4289998364
0.0029965863 -0.016445551 -0.0049484037 4289868823
0.004765451 -0.015610746 -0.0057272362 4289085209
0.0068578199 -0.016349632 -0.0052056415 4289411864
0.0089554563 -0.017088281 -0.004684316 4289410333
0.010888338 -0.017040009 -0.0048128953 4290587669
0.012475647 -0.015418422 -0.0062403055 4290979859
0.013876453 -0.013010418 -0.0083162161 4289801503
0.015795209 -0.012962225 -0.0084436508 4289539874
0.017894655 -0.013700378 -0.007922112 4290521368
0.020182908 -0.015224694 -0.0067520803 4291306514
0.02210924 -0.015176054 -0.0068798279 4289866783
0.024602421 -0.017485976 -0.0050624097 4290128413
0.02672825 -0.018223165 -0.0045423219 4290128414
0.02885931 -0.018960113 -0.0040225787 4290193184
0.031192742 -0.020482823 -0.0028552711 4289016614
0.03393659 -0.023577131 -0.00039329752 4288361264
0.036499374 -0.025884932 0.0014198516 4286071364
-0.0015281364 -0.014929726 -0.0084324358 4290392849
0.00054822117 -0.015671488 -0.0079116141 4289541148
0.0027888939 -0.017202199 -0.0067422893 4290064664
0.004716754 -0.017154364 -0.0068707643 4290391829
0.0064799562 -0.016317379 -0.0076475693 4290260504
0.00857196 -0.017058391 -0.007127448 4289998618
0.010499306 -0.017010279 -0.0072556743 4289605664
0.012253828 -0.016173225 -0.0080316914 4290652183
0.013652027 -0.013758785 -0.01010252 4290913559
0.015746027 -0.014499323 -0.0095822895 4289409059
0.01784528 -0.015239668 -0.0090623656 4289539873
0.020316809 -0.017556887 -0.0072484538 4289474594
0.02224575 -0.017508164 -0.0073763626 4289801503
0.024363451 -0.018247783 -0.0068574669 4290063134
0.026678056 -0.019775547 -0.0056922399 4289800993
0.029003307 -0.021302914 -0.0045276992 4288950314
0.031536333 -0.023618171 -0.0027175602 4286660669
0.034085415 -0.025932873 -0.00090845115 4287903029
-0.0039487481 -0.014139308 -0.011385848 4290003463
-0.0017297789 -0.01567509 -0.010218446 4289934359
0.00018740445 -0.015627734 -0.01034637 4289475359
0.00242237 -0.017162895 -0.0091799404 4289605918
0.0041829795 -0.016323959 -0.0099549992 4290652949
0.0059379786 -0.015485042 -0.010729595 4290259993
0.0080216229 -0.016228383 -0.01021057 4290194714
0.010110542 -0.016971523 -0.0096918428 4289409058
0.011859588 -0.016132478 -0.010465836 4289997854
0.013603024 -0.015293487 -0.011239393 4290913813
0.015340842 -0.014454539 -0.012012504 4290782998
0.017434485 -0.015197189 -0.011493815 4290913814
0.019349933 -0.015148903 -0.0116209 4290652183
0.021823652 -0.017472472 -0.0098119704 4289735968
0.024313495 -0.019795567 -0.0080039864 4289473828
0.027011037 -0.022908695 -0.0055520665 4288295983
0.029147178 -0.023649858 -0.0050358884 4286333759
0.034433857 -0.029083099 -0.00078221597 4286398019
-0.0039965212 -0.015669363 -0.012519373 4290195733
-0.0017778054 -0.01720953 -0.011355208 4289736478
0.0001392439 -0.017162167 -0.011483114 4290063644
0.0020561367 -0.017114708 -0.011610938 4290194459
0.0038112551 -0.016273718 -0.012384004 4290129179
0.0055607483 -0.015432737 -0.013156671 4290390554
0.0074717179 -0.015385114 -0.013283867 4290063389
0.0095523074 -0.016130678 -0.01276616 4289801504
0.011293143 -0.015289629 -0.013538039 4289801504
0.013203591 -0.015241754 -0.013665006 4290063134
0.014935926 -0.014400765 -0.014436132 4290848789
0.017023966 -0.015145743 -0.013918697 4290455578
0.019117251 -0.015890542 -0.013401501 4290063133
0.021774024 -0.019013513 -0.010953506 4289474083
0.024263561 -0.021343159 -0.0091503644 4288295983
0.026960731 -0.024465004 -0.006704893 4286399038
0.035940804 -0.02902198 -0.0033630626 4287966013
-0.00419496 -0.016403342 -0.01429719 4289933848
-0.0019792244 -0.017947918 -0.013136051 4289605154
-0.00022115558 -0.01710484 -0.013907889 4290325273
0.0015313476 -0.016261866 -0.014679255 4290194458
0.0031166822 -0.014623303 -0.016093876 4291175954
0.0051838234 -0.015371527 -0.015577075 4291175444
0.0070892423 -0.015324077 -0.01570393 4291437073
0.0091641843 -0.01607191 -0.015187503 4290782744
0.011071987 -0.016024204 -0.015314368 4289801504
0.012804464 -0.01518113 -0.016083956 4289932574
0.014531322 -0.014338112 -0.016853109 4290259483
0.016613752 -0.015085404 -0.016336918 4289474083
0.018884718 -0.016627539 -0.015178736 4289408549
0.02172441 -0.02055434 -0.012094881 4288819498
0.024591111 -0.024480412 -0.0090127075 4286530109
0.035282798 -0.028207455 -0.0064484579 4287835199
-0.0065952465 -0.015583384 -0.017230297 4289410843
-0.0045438558 -0.016334679 -0.016714441 4290455833
-0.0023338422 -0.017883714 -0.015556205 4290193949
-0.00042520463 -0.017836563 -0.015683554 4290193694
0.0013245195 -0.016991485 -0.016453119 4290979094
0.0025841743 -0.013753051 -0.019148592 4289604898
0.0044787601 -0.013705954 -0.019274786 4289801248
0.0065401047 -0.014456425 -0.018759165 4290520859
0.0087763667 -0.016004259 -0.017602192 4290520859
0.010678627 -0.015956689 -0.017728688 4290128414
0.012405619 -0.01511161 -0.01849632 4290194204
0.014482602 -0.01586131 -0.017981455 4290324763
0.016925886 -0.018205399 -0.016185191 4289866529
0.019751728 -0.022143494 -0.013108553 4288885289
0.022232682 -0.024486516 -0.011314627 4286726713
-0.0067904145 -0.016303713 -0.018998319 4290260249
-0.0048924759 -0.016257029 -0.019125106 4290128158
-0.0028414205 -0.017010473 -0.018610744 4289997088
-0.00094106048 -0.016963532 -0.018737545 4290128414
0.00080043077 -0.016116427 -0.019504979 4290979094
0.0022135228 -0.013669523 -0.021552937 4290324764
0.003774263 -0.012022762 -0.022959443 4289474083
0.0059914216 -0.013575523 -0.02180451 4289539618
0.0083888471 -0.015927656 -0.020010326 4289866784
0.010457851 -0.016679963 -0.019496646 4290455323
0.012532108 -0.01743201 -0.018983293 4289997343
0.014611632 -0.018183818 -0.018470213 4290127903
0.017237753 -0.021333903 -0.016039694 4288230958
0.019885428 -0.024483358 -0.01361054 4288754728
0.028945372 -0.029882582 -0.0096527161 4286136899
-0.011202957 -0.014704569 -0.022429949 4288822558
-0.0091707148 -0.015460961 -0.021916179 4290653458
-0.0072809383 -0.015414594 -0.022042505 4289604644
-0.0052408203 -0.01617052 -0.021529134 4289669924
-0.0031953827 -0.016926233 -0.021016056 4289539364
-0.0013005883 -0.016879441 -0.021142494 4289735714
0.00043542683 -0.016030356 -0.021907913 4290390299
0.0016817898 -0.012774901 -0.024589602 4291044373
0.0033984855 -0.011926095 -0.025353584 4290848534
0.0057767332 -0.014285322 -0.023563042 4290848279
0.0083406419 -0.017446022 -0.021135123 4290651929
0.0107539 -0.019804245 -0.019346738 4289997344
0.013008364 -0.021360124 -0.018197371 4289539109
0.015451171 -0.023717415 -0.016410809 4287576884
0.017910115 -0.026074234 -0.014625269 4286399549
0.022504747 -0.029183291 -0.012331747 4288230449
0.024818093 -0.030737255 -0.011185966 4286595134
-0.013276383 -0.015455142 -0.024060562 4288756768
-0.011534169 -0.014604361 -0.024825249 4290522388
-0.009507563 -0.015363034 -0.02431277 4290129179
-0.0076233484 -0.015316804 -0.024438726 4290716699
-0.0055888668 -0.016075073 -0.023926616 4290978328
-0.0033959225 -0.017637638 -0.022776911 4290585884
-0.0016598105 -0.016786505 -0.023540817 4289932064
-8.7864697e-05 -0.015130973 -0.024941755 4290128158
0.0014730766 -0.013475678 -0.026341859 4289800993
0.0033510029 -0.013429028 -0.026466969 4289997599
0.0057289228 -0.015794782 -0.024681251 4290063134
0.0082924441 -0.018964199 -0.022259779 4289408804
0.011049695 -0.022937011 -0.019203117 4289277478
0.013484202 -0.025301129 -0.017420923 4287380789
0.015934855 -0.027664773 -0.015639752 4286333759
0.020335466 -0.029979197 -0.013987984 4285940803
0.022269137 -0.029930439 -0.014116269 4286791229
0.024391077 -0.030685296 -0.013608988 4287706423
-0.013462335 -0.016155083 -0.025814136 4290064409
-0.0117229 -0.015302223 -0.026577042 4289736223
-0.0096992068 -0.016063128 -0.026065972 4290193949
-0.0078178421 -0.016016986 -0.026191752 4291109909
-0.0057862625 -0.016777497 -0.02568106 4290913559
-0.0039024502 -0.016731108 -0.025806867 4290978328
-0.0023303255 -0.015071398 -0.027204636 4290324509
-0.00045222789 -0.015024936 -0.027329901 4290520604
0.0014257357 -0.014978381 -0.027455084 4289800994
0.0033035502 -0.014931747 -0.027580194 4289539363
0.0058478042 -0.018110437 -0.025163976 4289866019
0.008244276 -0.020482183 -0.023384294 4289081129
0.011345245 -0.026078347 -0.019065773 4288557869
0.013784856 -0.028448844 -0.017288832 4286987578
0.016418152 -0.031624939 -0.01487826 4285940803
-0.017272059 -0.017751172 -0.026676651 4289150744
-0.015390333 -0.017705467 -0.026802786 4290653713
-0.013508718 -0.017659653 -0.026928831 4289736734
-0.011911474 -0.015995501 -0.028325438 4290456344
-0.0097458623 -0.017567705 -0.027180649 4289801504
-0.008012183 -0.016712595 -0.027941391 4289277989
-0.0062840655 -0.015857551 -0.028701708 4289408293
-0.0047145188 -0.014193594 -0.030096177 4290847513
-0.0028445646 -0.014147459 -0.030220993 4289931808
-0.00049942732 -0.016527444 -0.028442994 4290128159
0.0015395507 -0.017289557 -0.027934123 4289800483
0.0034199581 -0.017242864 -0.028059412 4289669668
0.005799979 -0.01962168 -0.02628351 4289342759
0.0083654374 -0.022808468 -0.023875117 4287314999
0.011296511 -0.027611367 -0.020201419 4286987833
0.013735808 -0.029988416 -0.018429322 4287707189
0.016191266 -0.032365002 -0.016658179 4286267969
-0.017318167 -0.019255511 -0.027791198 4289476379
-0.015709806 -0.017586956 -0.029185478 4289736988
-0.013694435 -0.018352641 -0.028677255 4289540128
-0.012241952 -0.015872886 -0.030704215 4290390553
-0.010371592 -0.015827149 -0.030829359 4290783253
-0.0085013509 -0.015781319 -0.030954424 4288885544
-0.006781444 -0.014924272 -0.031712554 4289081639
-0.0050671026 -0.014067302 -0.032470267 4289670434
-0.0030470565 -0.014832259 -0.031961903 4290455579
-0.00070498139 -0.017218832 -0.03018854 4290062623
0.0016532615 -0.019604862 -0.028416224 4290062113
0.0037000701 -0.020368893 -0.027909447 4289866019
0.0062517077 -0.023564832 -0.025506681 4287314999
0.008655712 -0.025949469 -0.023737147 4286202688
0.013686784 -0.031527795 -0.019569671 4285875268
0.015787154 -0.032290086 -0.019066084 4287771959
0.017352521 -0.030621009 -0.02045639 4286594368
-0.018852487 -0.023246473 -0.026880849 4288495139
-0.017096594 -0.022387 -0.027640311 4288887074
-0.015482794 -0.020713968 -0.029031726 4289148193
-0.014019258 -0.018227542 -0.031054666 4290128924
-0.012430158 -0.016554924 -0.032444287 4289736224
-0.010852043 -0.014882471 -0.033833094 4290586903
-0.0088426657 -0.015650192 -0.033325877 4290717718
-0.0071282499 -0.014791128 -0.03408204 4290782743
-0.0051136911 -0.015558518 -0.033575013 4290913304
-0.0032493994 -0.015512535 -0.03369946 4290455324
-0.00075206161 -0.01871879 -0.031299748 4289931298
0.0014448538 -0.020298373 -0.030163106 4288950314
0.0041436702 -0.024316438 -0.027135117 4287053369
0.0065366253 -0.026708011 -0.025369802 4286006338
0.0091148913 -0.029911891 -0.022975206 4285940803
-0.018505488 -0.027204646 -0.026106276 4288363048
-0.016875267 -0.02552701 -0.027495664 4288886819
-0.015392516 -0.023033701 -0.029515125 4289868313
-0.013926182 -0.020540765 -0.03153339 4289736733
-0.01247628 -0.018048055 -0.033550501 4289409314
-0.010898162 -0.016371273 -0.034936089 4289670688
-0.0090363249 -0.016325679 -0.035060614 4290193949
-0.0071746148 -0.016279969 -0.035185043 4290324764
-0.0051602349 -0.017049553 -0.034679633 4290520603
-0.0031405687 -0.01781892 -0.034174517 4289735203
-0.00079911947 -0.02021857 -0.032410819 4288819499
0.0015584752 -0.022617687 -0.030648179 4286987833
0.004423216 -0.027461724 -0.026999347 4286202688
0.008728236 -0.029812181 -0.025366234 4286006339
0.010463223 -0.02894971 -0.026121616 4286202435
-0.022096246 -0.030449452 -0.025715174 4288495903
-0.02006473 -0.031221744 -0.025213238 4289345564
-0.018158853 -0.031175707 -0.025341181 4289606429
-0.016654179 -0.028675482 -0.027357362 4289016868
-0.015029505 -0.026993558 -0.02874309 4288886308
-0.013833221 -0.022858093 -0.032015227 4289017123
-0.012380529 -0.020358814 -0.034027688 4289082404
-0.010944247 -0.017859891 -0.03603895 4289343779
-0.0090825446 -0.017814303 -0.036163464 4289146918
-0.0075209588 -0.016133348 -0.037544623 4289931554
-0.0053594857 -0.017722856 -0.036412269 4289865763
-0.003187269 -0.019311955 -0.035280608 4287707188
-0.00052984059 -0.023352999 -0.032266177 4288099889
0.001993753 -0.026575912 -0.029881082 4287576118
0.0047025383 -0.030615484 -0.026869934 4286071618
-0.024413873 -0.029554714 -0.028599789 4288758044
-0.022267863 -0.031149989 -0.027470412 4288952864
-0.020367466 -0.031104196 -0.02759807 4289344799
-0.018336248 -0.031878591 -0.027097668 4289082403
-0.016566958 -0.031012353 -0.027853169 4288689703
-0.015075926 -0.028505845 -0.02986352 4288755239
-0.013740368 -0.025179587 -0.032500155 4289147684
-0.012143094 -0.023493784 -0.033880666 4288820263
-0.010701306 -0.020988194 -0.03588751 4288820008
-0.009128727 -0.019302782 -0.03726621 4288754473
-0.0074172057 -0.018437276 -0.038017415 4288623148
-0.0051006004 -0.020850822 -0.036261939 4287707188
-0.0026124567 -0.024083506 -0.033881091 4286725948
-0.0001026988 -0.02731557 -0.031501621 4286268223
0.0024286509 -0.030547014 -0.02912353 4286071618
0.0046545565 -0.032138858 -0.027998473 4286725948
0.0065587014 -0.032091595 -0.028125353 4287575608
-0.024582356 -0.030246306 -0.030348644 4287513389
-0.020798046 -0.030155294 -0.030602984 4288558888
-0.01851349 -0.032576945 -0.028850807 4288493353
-0.016746998 -0.031708572 -0.029604554 4288689448
-0.014986034 -0.030840274 -0.030357812 4288689703
-0.013925631 -0.02586084 -0.034239896 4288885799
-0.01218934 -0.024992933 -0.034991343 4288754984
-0.010747477 -0.022480836 -0.036993355 4288493098
-0.0090277344 -0.021613136 -0.037743546 4288493098
-0.0073135383 -0.020745464 -0.038493294 4288296239
-0.004841961 -0.023987325 -0.036117934 4286399039
0.0041162372 -0.031197198 -0.030999605 4286202178
-0.018952139 -0.031621538 -0.031850196 4287380278
-0.016926859 -0.032400303 -0.031352542 4288034609
-0.015032474 -0.032354392 -0.031479601 4288689448
-0.013693918 -0.029010748 -0.034103565 4288558888
-0.011952262 -0.028140554 -0.034853771 4288166444
-0.010360517 -0.026446145 -0.036227413 4287969839
-0.0089268461 -0.023927642 -0.038223967 4287904049
-0.0069103837 -0.02470604 -0.037725285 4287183928
-0.0047360733 -0.026308332 -0.036603533 4286071874
0.0016906187 -0.030289061 -0.03386499 4285940804
-0.015487328 -0.031388409 -0.034469746 4288165423
-0.013740186 -0.030516045 -0.035218805 4287904558
-0.011998586 -0.029643713 -0.035967417 4287970093
-0.01055114 -0.0271185 -0.037960157 4288035373
-0.0088260546 -0.026246373 -0.03870751 4287707698
-0.0069567934 -0.0262006 -0.038832538 4286791483
-0.00463029 -0.028633468 -0.037092268 4286071874
-0.0022876188 -0.031065829 -0.035353072 4286137154
-0.0002445206 -0.031845529 -0.034857556 4286137409
-0.013786424 -0.032021198 -0.036333948 4286987834
-0.01190336 -0.031975403 -0.036460131 4287772979
-0.010453105 -0.029443692 -0.0384482 4288035374
-0.0088723227 -0.027740762 -0.039814647 4287903538
-0.0071528479 -0.026866524 -0.040559962 4287903794
-0.0048293844 -0.029306028 -0.038824365 4287641654
-0.0026448444 -0.030916654 -0.037709754 4287183673
-0.014387563 -0.030202521 -0.03992667 4288034864
-0.01237404 -0.0309879 -0.039432853 4287576118
-0.010931857 -0.028449839 -0.041415591 4288688684
-0.0090654381 -0.028404275 -0.041540526 4288557868
-0.0073487312 -0.027527958 -0.042284057 4286922043
-0.0053329319 -0.028312854 -0.041790158 4286268224
-0.01112197 -0.029108787 -0.043138333 4286988089
-0.0094051957 -0.028230423 -0.043880343 4286922044
-0.0097446553 -0.028047727 -0.04621369 4286202689
-0.013044868 0.0010111928 0.015640615 4282153033
-0.013363596 0.00096916594 0.013138501 4280912713
-0.011697993 0.0025346484 0.01166264 4281043528
-0.009620592 0.0018226374 0.012205489 4282873664
-0.015087869 -0.0021566097 0.013459204 4279666529
-0.013140347 -0.0021094661 0.013328539 4280717128
-0.011607453 0.0002218578 0.011184381 4280586824
-0.0099501647 0.0017915722 0.0097124465 4281240388
-0.0084475502 0.0041223895 0.0075704902 4282089538
-0.015135475 -0.0037165172 0.012303472 4279732319
-0.013188101 -0.0036693644 0.012172829 4280650319
-0.011655144 -0.0013314839 0.010033537 4280259658
-0.0097162426 -0.0012843069 0.0099036302 4279999814
-0.0083516389 0.0018165763 0.0070969574 4280390983
-0.0065701976 0.0026270133 0.0062989388 4281370949
-0.0047943741 0.0034374427 0.0055013914 4281828163
0.025649354 -0.010377404 0.016370839 4282869839
0.028758839 -0.014901146 0.020236911 4282543184
-0.015183095 -0.0052761398 0.011147954 4279731298
-0.013371162 -0.0044632088 0.010349194 4280062799
-0.011702843 -0.0028845537 0.008882897 4279867469
-0.0097640753 -0.0028373543 0.0087530185 4280261188
-0.0082558729 -0.00049334578 0.006620463 4279999814
-0.0064717829 0.0003193859 0.0058238506 4280391749
-0.0048422068 0.0018975027 0.0043605231 4281044803
-0.0027687848 0.0011793245 0.0048991274 4283069758
0.022890531 -0.0089500034 0.012670806 4283393863
0.025411546 -0.011194109 0.014534866 4282740043
0.028707489 -0.016495408 0.019055953 4282086733
-0.013689324 -0.0044844244 0.0078624301 4280322643
-0.011888508 -0.0036694463 0.0070661362 4280193613
-0.0099526048 -0.0036223251 0.006936444 4280717384
-0.0083036497 -0.0020395834 0.0054749064 4280653123
-0.0063734949 -0.0019923765 0.0053457692 4281044803
-0.0047412068 -0.00040977634 0.0038854741 4280653123
-0.0026652738 -0.0011300612 0.0044222958 4280849219
-0.0010469183 0.00045235641 0.002963122 4281371459
0.00056037307 0.0020346101 0.0015047695 4283201339
0.01820454 -0.0075532701 0.009111952 4283658809
0.020879976 -0.010571578 0.011636252 4283332153
0.023208506 -0.012055751 0.012832703 4283528759
0.025360778 -0.012772855 0.013365394 4283003713
0.028276838 -0.016556216 0.016549399 4283329349
-0.013872076 -0.0052667987 0.0060472935 4280060759
-0.011936154 -0.0052197631 0.005917538 4280521035
-0.010000393 -0.0051726457 0.0057878569 4279936319
-0.0082080998 -0.0043554679 0.004993923 4280652869
-0.006421417 -0.0035383198 0.0042004436 4280653889
-0.0044915602 -0.0034910012 0.0040714163 4281045568
-0.0027133897 -0.0026737992 0.003278628 4280784959
-0.0010950267 -0.0010870118 0.0018227026 4281045313
0.00019837171 0.0020388644 -0.00095932558 4281765688
0.002108492 0.0020861086 -0.0010867324 4283070268
0.015325099 -0.0053197797 0.0047725085 4283332408
0.017975882 -0.0083474834 0.0072919205 4282940474
0.020648204 -0.011374558 0.0098099671 4283072054
0.023157924 -0.013632078 0.011665015 4283400238
0.025123149 -0.013582511 0.011534644 4284247859
-0.036798514 0.0042688977 -0.0036472781 4284442169
-0.012121633 -0.0059975702 0.0041060299 4279930709
-0.010188725 -0.0059504937 0.0039765611 4280718658
-0.0081127025 -0.0066754427 0.0045099072 4280522054
-0.0063233599 -0.0058560371 0.0037178844 4280981309
-0.0045396239 -0.0050366614 0.0029263142 4280981309
-0.0027614981 -0.0042172801 0.0021351501 4281437759
-0.00114315 -0.0026261304 0.00068247132 4281307709
0.00015040487 0.0005084686 -0.0020930879 4281766454
0.0020603985 0.00055573508 -0.0022204667 4282091579
0.0038079023 0.0013747346 -0.0030092318 4283789879
0.0060448647 -0.00012104027 -0.0018136911 4283137588
0.0082925558 -0.0016164985 -0.00061875023 4284116023
0.010721378 -0.0038829762 0.0012364499 4283985208
0.013339542 -0.0069203991 0.0037514083 4284052274
0.015451521 -0.0076432545 0.0042833276 4283596334
0.01810462 -0.010679553 0.0067960769 4283465009
0.020416565 -0.01217293 0.007987095 4283858728
-0.040436525 0.0011118613 -0.0031869756 4284114493
-0.015317429 -0.00062163733 -0.0028661517 4284117554
-0.012857985 -0.0036730152 -0.00034806132 4280189788
-0.010517403 -0.0059493501 0.0015073158 4280780113
-0.008447025 -0.006676631 0.0020394847 4281174599
-0.0066632107 -0.0058551226 0.0012494195 4281174853
-0.0047363415 -0.0058078598 0.0011206008 4281372223
-0.0029610023 -0.0049863905 0.00033130497 4281308218
-0.0010371804 -0.0049389917 0.00020284578 4281439289
0.00041604787 -0.0025696214 -0.0019061733 4281636404
0.0020122901 -0.00097438879 -0.003354013 4281767474
0.0037597418 -0.0001532007 -0.0041411463 4281178678
0.0059964508 -0.001653323 -0.0029488141 4282026553
0.0084115565 -0.0039268062 -0.0010975841 4282678844
0.0108428 -0.0061998162 0.00075262412 4283986483
0.013290145 -0.0084722703 0.0026018005 4284052783
0.015577786 -0.0099707777 0.0037910771 4283987758
0.018054642 -0.012242303 0.0056384336 4283922479
-0.014006749 0.0010034963 -0.0067654466 4283132743
-0.011267051 -0.0036095586 -0.0029343152 4281173578
-0.0089242235 -0.0058923047 -0.0010838211 4280976974
-0.0067110658 -0.0073980894 0.00010630488 4281175109
-0.0047843382 -0.0073508155 -2.2493303e-05 4281111613
-0.0028577745 -0.0073034372 -0.00015120208 4281766198
-0.0012393966 -0.0057035554 -0.0015973896 4281897014
0.00052466244 -0.0048799589 -0.0023841467 4281506354
0.0019641817 -0.002504237 -0.0044873543 4281831479
0.0038737506 -0.0024568737 -0.0046146251 4281310003
0.0061129406 -0.0039613154 -0.003425641 4282027064
0.0085304379 -0.0062412415 -0.0015794765 4282942004
0.010964058 -0.0085207038 0.00026573241 4284249134
0.013413817 -0.010799672 0.0021099355 4284576298
0.015703902 -0.012302417 0.0032957755 4284445993
0.018004678 -0.013804813 0.0044809636 4284708899
-0.0046838373 -0.0096720653 -0.00050781481 4283988013
-0.0026034415 -0.010403076 2.0653009e-05 4282681139
-0.00097963959 -0.0087986449 -0.0014226884 4282224178
0.00047647953 -0.0064161122 -0.0035221698 4281701939
0.0019160807 -0.0040338468 -0.0056205168 4282093363
0.0038255155 -0.0039864611 -0.0057477616 4282680884
0.0062292814 -0.0062734038 -0.0039055729 4282352953
0.0088167116 -0.0093378713 -0.0014081057 4282876468
0.011255451 -0.011623678 0.00043187663 4284250409
-0.047096111 0.0034544356 -0.01211971 4284639029
-0.00072012842 -0.011902243 -0.0012542196 4282681139
0.00058487803 -0.0087324819 -0.0040046116 4281963059
0.0018679649 -0.0055631828 -0.0067534763 4281898799
0.0037772879 -0.0055158101 -0.0068807211 4282093619
0.0061807185 -0.0078092674 -0.0050433483 4282288183
0.0089352429 -0.011662686 -0.0018976852 4282943024
0.011376366 -0.013954992 -6.2664971e-05 4284510253
-0.049458958 0.0058316048 -0.016396284 4284638774
0.0024568811 -0.010222766 -0.0052719181 4282811954
0.0042149797 -0.0093925698 -0.0060532624 4282679608
0.0064615458 -0.01090984 -0.0048745153 4283137079
0.0090536252 -0.013991605 -0.0023903046 4283791663
0.0028860494 -0.014114732 -0.0044550383 4284380204
0.0046522468 -0.013282128 -0.0052353563 4283267128
0.006577462 -0.013234245 -0.0053635705 4283725363
-0.012757245 -0.00242218 0.031798571 4281813373
-0.012938876 -0.0032684989 0.029935798 4280306068
-0.01432227 -0.0086617963 0.032288663 4278866083
-0.013386481 -0.0026090033 0.026717162 4281484679
-0.018620975 -0.0088548856 0.030012889 4280700554
-0.016881205 -0.0073012263 0.028521927 4278931109
-0.015282705 -0.004994927 0.026353655 4278931363
-0.01370072 -0.0026888922 0.024186512 4281812609
-0.020908099 -0.0089904591 0.027608639 4279389088
-0.017694246 -0.0043646656 0.023280395 4278401473
-0.014147624 -0.0020047501 0.020986145 4281229168
-0.024468966 -0.013709059 0.02939943 4282207603
-0.023064677 -0.009874139 0.025886139 4279717019
-0.021565825 -0.0067971237 0.023050299 4278995878
-0.019964222 -0.0044778697 0.020891389 4279451054
-0.018124331 -0.0036733262 0.02008394 4278665143
-0.016420126 -0.0021116957 0.018602008 4278931363
-0.026972104 -0.012319604 0.025649427 4280438924
-0.025448371 -0.0092335008 0.022818228 4278538154
-0.023827396 -0.0069074705 0.020662708 4278471343
-0.020261068 -0.004534658 0.018376371 4279847323
-0.018299367 -0.0044875257 0.018244488 4280306579
-0.016467847 -0.0036809109 0.017439364 4279852423
-0.029563643 -0.010149766 0.021238161 4280503439
-0.028042421 -0.0070551094 0.018413534 4278931364
-0.026194006 -0.0062465183 0.01760844 4278735014
-0.024232075 -0.0061997194 0.017476296 4278603433
-0.020433109 -0.0053441096 0.016540186 4278272189
-0.031586476 -0.011778327 0.020199453 4278995623
-0.027171463 -0.0017048996 0.011076186 4281028228
-0.024993431 -0.0031866338 0.012287255 4279914643
-0.022682875 -0.0054318719 0.014168309 4279259294
-0.020605031 -0.0061489232 0.014707448 4278734758
-0.034135755 -0.009573984 0.015810249 4279259293
-0.031319588 -0.0018175226 0.0088474266 4278272443
-0.026110869 0.0021514464 0.005110085 4282012783
-0.023460139 -0.0023992416 0.0089951567 4279718549
-0.021150041 -0.0046509448 0.010871515 4279194013
-0.018950865 -0.0061361026 0.01207817 4279129243
-0.036451839 -0.0088842642 0.012773078 4278931874
-0.035024375 -0.0049948599 0.0092983227 4278406318
-0.033732239 -0.00033736601 0.0051571596 4279979669
-0.03247289 0.0043194685 0.0010183025 4282406503
-0.021818865 -0.0023670178 0.0063814744 4281095294
-0.019506529 -0.0046250056 0.0082528908 4279653779
-0.038750954 -0.0081807021 0.0097448193 4278801058
-0.037215315 -0.0050512906 0.0069448054 4279128988
-0.039394878 -0.0050983187 0.0045972392 4278735268
-0.037977893 -0.0011874922 0.0011393055 4279719569
-0.047023982 -0.0099202506 0.004159376 4278997664
-0.045455083 -0.0067644231 0.0013761725 4278734758
-0.044190373 -0.0012760386 -0.0033938829 4279454879
