# .PCD v0.7 - Point Cloud Data file format
VERSION 0.7
FIELDS x y z rgba
SIZE 4 4 4 4
TYPE F F F U
COUNT 1 1 1 1
WIDTH 960
HEIGHT 1
VIEWPOINT 0 0 0 1 0 0 0
POINTS 960
DATA ascii
0.0092119202 -6.0376711e-05 0.037898805 4289932063
0.011516176 -0.0015361523 0.039133403 4289866784
0.013040565 0.00078312773 0.037004113 4290586138
0.014870077 0.0015843483 0.036220882 4290978328
0.017021038 0.00086791161 0.036782768 4290847768
0.019343518 -0.00060712267 0.038016684 4291043863
0.02167666 -0.0020818124 0.03925002 4290716954
0.023505285 -0.0012802267 0.03846712 4289211689
0.026374906 -0.0050302478 0.041715182 4289472808
-0.018070526 -0.0068099066 0.042320009 4287902264
-0.016409967 -0.0044828928 0.040186744 4289079599
-0.014765885 -0.0021561375 0.038054533 4289275948
-0.013015691 -0.00059141312 0.036596332 4290257189
-0.011025816 -0.00055046286 0.036484614 4290388514
-0.0087799244 -0.0020329328 0.037718479 4290323744
-0.0066541024 -0.0027533388 0.038279209 4289931554
-0.0047900751 -0.0019502444 0.037494902 4289997344
-0.0032041743 0.00037602615 0.03536642 4290455578
-0.0013568401 0.0011790069 0.034583222 4290651673
0.00048488379 0.0019819653 0.033800412 4289343013
0.0026098341 0.0012620939 0.034361597 4289605409
0.0047400445 0.00054245163 0.034922589 4290193949
0.0071752816 -0.0016996032 0.036826398 4290520858
0.0090162382 -0.00089619216 0.036043901 4289997598
0.011162214 -0.0016152458 0.036604274 4289932319
0.01283925 -5.0640665e-05 0.035151206 4290128158
0.014665984 0.00075272378 0.03436977 4289866274
0.016977541 -0.00072695222 0.035600942 4290389534
0.018967338 -0.00068439078 0.035490423 4290324764
0.021125868 -0.0014026919 0.036050458 4289931553
0.02260296 0.00092260446 0.033929016 4289539363
0.025284179 -0.0020778133 0.036499646 4289407529
0.028164029 -0.0058383821 0.039739136 4288687408
-0.028677549 -0.0048010843 0.038331006 4287967543
-0.026678607 -0.0047609089 0.038218062 4288752434
-0.02467978 -0.0047205919 0.038105235 4288818224
-0.022681069 -0.0046801558 0.037992503 4288687408
-0.020794149 -0.0038753347 0.037207846 4289407784
-0.018798407 -0.0038347179 0.037095461 4289342503
-0.017037056 -0.0022656294 0.0356397 4289931553
-0.015286736 -0.00069670659 0.034184683 4289800738
-0.013547473 0.00087217893 0.032730352 4289997344
-0.011443347 0.00014888588 0.033290561 4290324253
-0.009333916 -0.00057412777 0.033850525 4290324764
-0.0072191991 -0.0012969216 0.034410276 4289997598
-0.005232662 -0.0012556771 0.034299016 4289997598
-0.003382504 -0.00045058597 0.033517186 4289735969
-0.0013990402 -0.00040915702 0.033406276 4290651928
0.00015930086 0.0019233152 0.031284366 4291306259
0.0022786111 0.0012011714 0.031844273 4291437073
0.0045502931 -0.0002843393 0.033074033 4291240723
0.006982483 -0.0025329357 0.03497313 4290586393
0.0088206679 -0.0017274367 0.034192462 4290063388
0.010963716 -0.0024486659 0.034751348 4290063389
0.012638055 -0.00087978039 0.03330173 4290390298
0.014461994 -7.4286945e-05 0.032522071 4289997343
0.016607158 -0.00079516415 0.033081073 4290258973
0.018591389 -0.00075271819 0.032970864 4290324509
0.020744294 -0.0014732545 0.033529565 4289735714
0.022387616 9.5435418e-05 0.032082014 4290193183
0.024717115 -0.0013878038 0.033309262 4289734948
0.027234316 -0.0036336677 0.035204388 4289276458
0.030306898 -0.0081675919 0.039103359 4288164404
-0.032906387 -0.0049464544 0.036029357 4286855999
-0.03101084 -0.0041398769 0.035245385 4288687409
-0.029120844 -0.0033333027 0.034461815 4291303453
-0.027236402 -0.0025267219 0.03367864 4289995558
-0.025251359 -0.0024866788 0.033566594 4290323743
-0.023266431 -0.0024465052 0.033454653 4289931554
-0.021393239 -0.0016397806 0.032672394 4289669924
-0.019296937 -0.0023658173 0.033231046 4289539619
-0.017429456 -0.0015589492 0.032449301 4290324764
-0.015567556 -0.00075205415 0.031667899 4290521114
-0.013833776 0.00082103256 0.030217156 4288950568
-0.011735298 9.5514581e-05 0.030776039 4289343014
-0.0095035397 -0.0013959548 0.032004226 4290193949
-0.0073917471 -0.0021209707 0.032562535 4290521113
-0.0054080859 -0.0020797672 0.032451447 4289735969
-0.0034245774 -0.0020384612 0.032340448 4289343524
-0.0013023689 -0.0027629291 0.032898419 4289408803
0.0004003197 -0.0011897143 0.031449992 4290324763
0.0023805797 -0.0011481326 0.031339429 4290063134
0.0042135939 -0.00034071133 0.030560482 4290193949
0.006340526 -0.0010646954 0.031118546 4290259739
0.0081677213 -0.000257181 0.030340087 4290063389
0.01045493 -0.0017464012 0.031565979 4290325019
0.012436941 -0.0017042737 0.031455696 4290194204
0.014579415 -0.0024274746 0.032013163 4290324764
0.016400367 -0.0016197544 0.031235371 4290455323
0.01838176 -0.0015773494 0.031125341 4290390043
0.020025291 -4.3120235e-06 0.029680934 4289800993
0.021829292 0.00080334023 0.0289043 4290978840
0.023976125 8.0699101e-05 0.029461872 4290389788
0.026305184 -0.0014068671 0.03068601 4290127139
0.029363692 -0.0059541469 0.034576058 4289603370
-0.037023179 -0.0058509973 0.034403559 4286986303
-0.035217304 -0.0042734225 0.032951001 4288621873
-0.033422429 -0.0026959111 0.031499106 4288883504
-0.031442691 -0.0026563257 0.031387098 4289014828
-0.029463045 -0.0026166365 0.031275172 4289407528
-0.027483504 -0.0025768038 0.031163361 4289669668
-0.025716282 -0.0009993976 0.029713441 4290651418
-0.023633584 -0.0017281212 0.030271068 4289866274
-0.021768659 -0.00091936532 0.02949091 4289605154
-0.019566454 -0.002416335 0.030717041 4289735969
-0.017587509 -0.0023759026 0.030605722 4290324763
-0.015967891 -3.0006282e-05 0.028489482 4290979094
-0.014119852 0.00077888649 0.027710628 4291240723
-0.01215221 0.0008194251 0.027600192 4291175189
-0.009928897 -0.00067650061 0.0288256 4291044119
-0.0078254715 -0.0014038719 0.02938275 4289866529
-0.0057167634 -0.0021310039 0.029939707 4289670433
-0.0036027506 -0.0028579743 0.030496478 4289604898
-0.001622282 -0.0028165919 0.030385751 4289409059
0.00021648407 -0.0020070747 0.029607952 4289605409
0.0021938682 -0.0019655582 0.029497545 4290325019
0.0040241107 -0.0011560358 0.028720431 4290390553
0.0056990087 0.00042130705 0.027277056 4289605154
0.0076676831 0.00046295393 0.027167369 4290651928
0.0097913146 -0.00026300829 0.027724128 4290193949
0.011920191 -0.000988774 0.028280657 4289670689
0.014054313 -0.0017143246 0.028836977 4290324509
0.01586704 -0.00090456754 0.028061282 4289931808
0.017674118 -9.4839372e-05 0.027285978 4290258719
0.019475542 0.00071485806 0.026511047 4289800738
0.021442801 0.00075714942 0.026401941 4289212198
0.023409814 0.00079954136 0.026292931 4289081383
0.025730476 -0.00069249049 0.027514275 4290258719
0.028421082 -0.003718656 0.030065101 4289211178
0.031315573 -0.0075113815 0.033279654 4287641144
-0.037152536 -0.0066715502 0.032555331 4286136899
-0.035534285 -0.0035472349 0.029769633 4288622383
-0.033557341 -0.0035078456 0.029657677 4289473319
-0.031678356 -0.0026972303 0.028877892 4289866018
-0.029804915 -0.0018866109 0.028098505 4288819499
-0.028143696 0.00046600588 0.025984216 4288885033
-0.026180767 0.00050561875 0.02587343 4289539363
-0.024109177 -0.00022550486 0.026430067 4290520859
-0.021920737 -0.0017272448 0.027653717 4290193949
-0.019721523 -0.0032286029 0.028876808 4289474339
-0.017862402 -0.0024175523 0.028098766 4289539619
-0.016128533 -0.00083583687 0.026654426 4289932319
-0.014283307 -2.4786219e-05 0.025877301 4290913558
-0.012318537 1.5711412e-05 0.025767043 4290913304
-0.0100982 -0.0014846707 0.026989419 4290389788
-0.0081282817 -0.0014438471 0.026879031 4290128158
-0.0061585084 -0.001402921 0.026768733 4289474339
-0.0040528774 -0.0021321801 0.02732433 4289539619
-0.001941964 -0.0028612167 0.027879708 4289539619
3.2752752e-05 -0.002819838 0.02776939 4289605409
0.0018630996 -0.0020082435 0.026993815 4289997854
0.003540881 -0.00042657461 0.025553443 4289801504
0.0053572431 0.00038498268 0.024778757 4290848023
0.0071679726 0.0011964943 0.024004519 4291371539
0.0094383582 -0.0003017569 0.025224902 4290390043
0.01156161 -0.0010298202 0.02578013 4290913559
0.014011174 -0.0032971948 0.027664032 4289735713
0.015987106 -0.003254991 0.02755424 4290128414
0.017796844 -0.0024430081 0.026780419 4289931553
0.019263543 -9.1851689e-05 0.024679013 4290781978
0.020885102 0.0014895517 0.023242392 4290193694
0.022843868 0.0015317779 0.023133844 4289474084
0.024979264 0.00080463849 0.023688886 4289670433
0.02747906 -0.0014610766 0.025570508 4289539109
0.030359559 -0.0052650049 0.028777737 4288884269
-0.037102513 -0.0090343021 0.032044131 4286071108
-0.035666205 -0.0043544946 0.027931463 4287903028
-0.033787236 -0.0035418225 0.027153209 4289211688
-0.032011624 -0.0019558351 0.025708985 4290585628
-0.030146468 -0.0011431966 0.024931692 4290651164
-0.028390132 0.00044262689 0.023488801 4290781978
-0.026326813 -0.00029096194 0.024044201 4290978328
-0.024149429 -0.001797365 0.025265101 4290586394
-0.022072706 -0.0025304826 0.025819968 4289800993
-0.019990645 -0.0032633236 0.02637459 4289801248
-0.018137071 -0.002450197 0.025598481 4289539364
-0.016408697 -0.00086418539 0.024157654 4289997344
-0.014446653 -0.00082384795 0.024047468 4290062879
-0.012359675 -0.0015561283 0.024602152 4289800993
-0.010523003 -0.00074285828 0.023827363 4289408549
-0.0086919144 7.0404261e-05 0.023052964 4289670434
-0.0068664327 0.00088365283 0.022278965 4289474339
-0.0047746077 0.00015193224 0.022833712 4289343524
-0.0026775002 -0.00057956949 0.023388252 4289605154
-0.00057512522 -0.0013108402 0.023942582 4289670688
0.0015325397 -0.002041948 0.024496734 4290128413
0.0032048672 -0.00045598298 0.023059875 4290520859
0.0051652938 -0.00041457452 0.022950601 4290259229
0.0069732442 0.00039906055 0.022178136 4289800993
0.0090856105 -0.00033148192 0.022732295 4288492588
0.011203237 -0.0010618046 0.023286242 4290586139
0.013326123 -0.0017919661 0.023840006 4289670178
0.01529105 -0.0017499952 0.023730829 4289866274
0.017255761 -0.0017078957 0.02362176 4289866274
0.019051619 -0.00089389272 0.022850361 4290389534
0.020670488 0.00069177896 0.021417178 4290455324
0.022800498 -3.7711114e-05 0.021970857 4290717208
0.02458214 0.00077620428 0.021200478 4290587159
0.026896663 -0.00072455965 0.022415772 4289474339
0.029039644 -0.0014535757 0.022968952 4289015593
0.031742685 -0.004496647 0.025506258 4288949294
-0.035521086 -0.0074837208 0.028091829 4286594879
-0.033826839 -0.0051177824 0.025985148 4288426288
-0.032246798 -0.0019765347 0.023214757 4289866019
-0.030387197 -0.0011618258 0.022439398 4290389534
-0.028636362 0.00042828545 0.021000013 4290455069
-0.026472751 -0.0010829223 0.022218399 4290127903
-0.024407025 -0.0018185005 0.022772152 4289931553
-0.022335961 -0.0025538579 0.023325685 4289800738
-0.02037368 -0.0025138725 0.023215219 4289735204
-0.018411525 -0.0024737846 0.023104843 4289866018
-0.016449489 -0.0024335533 0.022994578 4290062623
-0.014487594 -0.0023932308 0.022884391 4289866529
-0.012525842 -0.0023527909 0.022774301 4290062623
-0.0108197 -0.00076257996 0.021338254 4289670178
-0.0092550889 0.001602347 0.019240011 4291174679
-0.0074405856 0.0024175541 0.018468246 4290979094
-0.0052239373 0.00090878643 0.019684583 4290979094
-0.0029965565 -0.00059970655 0.020900432 4289997599
-0.00089982152 -0.001333259 0.02145347 4289670434
0.0012022033 -0.0020666067 0.022006288 4289932063
0.0030158833 -0.001250864 0.021234978 4290716699
0.004823938 -0.00043514557 0.020464052 4290455324
0.0064741075 0.0011549238 0.019031826 4288361774
0.0085781366 0.00042204373 0.019584846 4288688683
0.010687411 -0.00031067245 0.020137683 4289735714
0.012962364 -0.0018172842 0.02135146 4290128159
0.015084863 -0.0025494881 0.021903664 4290062368
0.017046742 -0.0025074407 0.021794759 4289931553
0.019008406 -0.002465317 0.021685928 4289866274
0.020456001 -0.00010138564 0.019595373 4289670179
0.022235058 0.00071464479 0.018826682 4289474339
0.024008483 0.0015305802 0.018058389 4289016614
0.025955729 0.0015727319 0.017950609 4288033079
-0.03537618 -0.010621434 0.028245974 4286529343
-0.033961423 -0.0059157731 0.024154052 4287706678
-0.032384045 -0.0027658795 0.021390278 4289538599
-0.030527271 -0.0019489732 0.02061668 4289669924
-0.02857288 -0.0019096527 0.020506285 4289735459
-0.026512697 -0.00264767 0.021058694 4289408294
-0.024447173 -0.0033854279 0.021610841 4289735459
-0.022710331 -0.0017908812 0.020175748 4289669923
-0.020756371 -0.0017510802 0.02006574 4289473573
-0.018802542 -0.0017111357 0.019955851 4289735203
-0.016729306 -0.0024483167 0.020507947 4289604899
-0.014650773 -0.0031852066 0.021059807 4290193438
-0.012816846 -0.0023677424 0.020288333 4290324509
-0.011243876 3.7802383e-06 0.018194389 4289931553
-0.0096874051 0.0023750747 0.016101457 4290128158
-0.007748019 0.0024154028 0.015992884 4290389788
-0.0056729168 0.001678939 0.016545381 4291175188
-0.00345397 0.00016597752 0.017758444 4289866784
-0.0013655946 -0.00056992285 0.018310331 4289866784
0.00058404356 -0.00052894652 0.018201508 4290128414
0.002680257 -0.0012644622 0.018753126 4290389533
0.0044827983 -0.00044668093 0.017984126 4290978583
0.0062797144 0.00037109945 0.017215531 4291109399
0.0080709979 0.0011888696 0.016447328 4291174678
0.010171935 0.00045384001 0.016998969 4291174678
0.012117766 0.00049535278 0.016890816 4289866529
0.014063403 0.00053694751 0.016782738 4290128158
0.016008832 0.00057864469 0.01667475 4289997089
0.018122599 -0.00015572272 0.017225966 4289407784
0.0198991 0.00066229422 0.016459003 4289342248
0.021669984 0.0014802748 0.015692413 4288949039
0.023081847 0.003850203 0.013608794 4286854978
-0.035323694 -0.012987625 0.027732044 4286398018
-0.033906043 -0.0082688322 0.023649674 4287052604
-0.032521188 -0.0035505206 0.019569214 4289015338
-0.030767608 -0.0019518035 0.018136095 4289538853
-0.028818823 -0.0019125668 0.018026043 4289669923
-0.0267643 -0.0026528649 0.018577084 4289408294
-0.025030106 -0.0010541575 0.017145347 4290585884
-0.023084354 -0.0010146303 0.017035723 4291043863
-0.021252722 -0.00019550975 0.016265638 4291109143
-0.01919321 -0.00093518849 0.016816787 4290193693
-0.017008912 -0.0024540089 0.018027969 4289670178
-0.015058208 -0.0024139099 0.017918415 4289604899
-0.013357438 -0.00081518944 0.016489074 4290324764
-0.011667714 0.0007834537 0.015060394 4290586139
-0.0099890158 0.0023819469 0.01363246 4288885289
-0.008055225 0.0024221689 0.013524207 4288950568
-0.0059857666 0.0016834661 0.014075371 4289146919
-0.0036339909 -0.00061296578 0.015944742 4289997344
-0.0015485287 -0.0013511134 0.016495176 4289800994
0.00025428832 -0.00053132977 0.015727643 4289866783
0.0023448542 -0.0012691403 0.016277961 4290062623
0.0042913109 -0.0012280336 0.016169462 4289800228
0.0059332997 0.00037056673 0.014744232 4290257953
0.0077190846 0.0011904212 0.013977895 4289996833
0.0096568093 0.001231675 0.013870127 4289015593
0.011594355 0.0012730183 0.01376244 4288816693
0.013205662 0.0028713457 0.012339198 4288031293
-0.035547756 -0.013011631 0.025234565 4286921534
-0.034040514 -0.0090619028 0.021822225 4286725694
-0.032658212 -0.0043305755 0.017751619 4287838004
-0.031007726 -0.0019456306 0.015662186 4289408293
-0.029167596 -0.0011246046 0.01489284 4289473829
-0.027227234 -0.0010853941 0.014783365 4289474083
-0.025395472 -0.00026434474 0.014014707 4290847769
-0.023569278 0.00055674277 0.013246474 4290258974
-0.021634687 0.00059617683 0.01313758 4291109909
-0.019583549 -0.0001458507 0.013687578 4290848023
-0.017407674 -0.0016692551 0.014896029 4289801504
-0.015465282 -0.0016293125 0.014786952 4290193949
-0.01377273 -2.6358292e-05 0.013361271 4289997599
-0.012091193 0.0015764358 0.011936332 4290847769
-0.010550994 0.0039604735 0.009854028 4290978840
-0.0084952079 0.0032192171 0.010404271 4291109654
-0.0062983818 0.0016969489 0.011612072 4291044119
-0.0039523691 -0.00060610194 0.013476864 4290455068
-0.0018725246 -0.0013465798 0.014026039 4289670179
-7.5235963e-05 -0.00052470062 0.013260386 4289932064
0.0020097122 -0.0012648413 0.013809447 4289931553
0.0036518648 0.00033804215 0.012387316 4289145898
0.0054350495 0.0011598933 0.011622722 4289211434
0.0072125867 0.0019817324 0.010858524 4288426033
0.008984521 0.0028035752 0.010094651 4287051839
-0.035587411 -0.014595178 0.024060871 4287052094
-0.033890419 -0.012202976 0.021973435 4286529343
-0.032697581 -0.0058901431 0.016595721 4286922299
-0.03124762 -0.0019304371 0.01319489 4289342758
-0.029619027 0.00046076719 0.011111598 4289343014
-0.02758399 -0.00028429274 0.011660571 4290258974
-0.025868952 0.001322763 0.010236328 4289081384
-0.024053745 0.0021457952 0.0094703259 4288885289
-0.022244092 0.0029688301 0.008704721 4289212198
-0.01997355 0.00065680034 0.010568236 4290259228
-0.017806105 -0.00087112002 0.011773932 4290193949
-0.015627909 -0.0023986446 0.012979082 4289147174
-0.014062874 -7.84453e-06 0.010900103 4289670689
-0.012259319 0.00081569701 0.010135237 4290063134
-0.010721799 0.0032061683 0.0080579808 4290389789
-0.0086689368 0.0024626777 0.0086067719 4290847768
-0.006475091 0.00093603693 0.0098114591 4289539364
-0.004270494 -0.00059033185 0.011015658 4288884524
-0.0023374259 -0.00054977648 0.010907703 4288359478
-0.00054837763 0.00027406402 0.010144169 4287898948
-0.035811149 -0.014605517 0.02157345 4286463299
-0.033835307 -0.014566101 0.021461595 4286463809
-0.032639455 -0.0082358047 0.01609664 4286464064
-0.031286865 -0.0034788628 0.012047262 4287772468
-0.029864136 0.00049133413 0.0086561674 4289277479
-0.027940422 0.00053017959 0.0085476115 4290324253
-0.0261252 0.001355282 0.0077831456 4290651674
-0.024426647 0.0029664868 0.0063631637 4289800993
-0.022511423 0.0030055186 0.0062553519 4290389788
-0.02024664 0.00068680011 0.0081143826 4290978583
-0.017965622 -0.0016314685 0.0099725891 4289997344
-0.015912414 -0.0023775836 0.010519405 4289735969
-0.014228087 -0.00076607522 0.0091006653 4289801504
-0.012554768 0.00084524788 0.0076826504 4289604898
-0.010892492 0.0024564834 0.0062653571 4289276968
-0.0089754462 0.0024963627 0.0061580446 4289342248
-0.0071941689 0.0033219578 0.0053962944 4288033079
-0.033780303 -0.016933285 0.020946745 4286267459
-0.032386575 -0.012162583 0.016904648 4286398528
-0.031025629 -0.0073924195 0.012864496 4287118649
-0.029800363 -0.0018343497 0.0081715258 4288688429
-0.027979687 -0.0010070745 0.0074082855 4289473573
-0.026489563 0.0021851063 0.0046821609 4290258973
-0.024688158 0.0030122092 0.0039201668 4291044119
-0.022892311 0.0038393373 0.0031585898 4290717209
-0.020636015 0.0015139487 0.0050131967 4289735458
-0.018601932 0.00076511502 0.0055594333 4289670179
-0.016684495 0.00080455933 0.0054517705 4289276714
-0.014642503 5.6149438e-05 0.0059976839 4289080363
-0.012977399 0.0016717324 0.0045833448 4288556594
-0.011063069 0.0017114533 0.0044761086 4287704129
-0.032328773 -0.014520765 0.016396288 4286267969
-0.030864831 -0.010528109 0.013018939 4286464064
-0.029633876 -0.0049547376 0.008337006 4287249464
-0.028124496 -0.001753577 0.0056161769 4289343013
-0.026637021 0.0014472753 0.0028966842 4289343014
-0.024727434 0.0014860807 0.0027891072 4289539363
-0.022931676 0.0023153722 0.0020291442 4288490803
-0.021141481 0.0031446656 0.0012695794 4287442243
-0.032368395 -0.016090158 0.01523311 4286333248
-0.030704234 -0.013672309 0.013167148 4286660670
-0.029467598 -0.0080835279 0.008496182 4288295984
-0.028374698 -0.0017026989 0.0031761266 4288492333
-0.027000818 0.0022993879 -0.00018778397 4288359989
-0.032602552 -0.016069219 0.012769745 4286790718
-0.030843843 -0.014439888 0.011358934 4288033844
-0.029506981 -0.0096309045 0.007349343 4287118649
-0.034978636 -0.014483808 0.0091260178 4286985538
-0.03273927 -0.016836543 0.010961591 4288752433
-0.030783448 -0.016797278 0.010851051 4286856509
-0.02954635 -0.011178043 0.0062026801 4286594879
-0.031222574 -0.015162013 0.0071059987 4286267714
-0.02948311 -0.013524229 0.005702843 4286071363
-0.031561423 -0.014310577 0.0040192483 4285940548
-0.029419959 -0.015874557 0.0052000098 4286006338
-0.029664405 -0.015817983 0.0027637826 4285875268
0.02622021 0.0070375009 0.010761301 4282332809
0.028327271 0.0063035199 0.011313285 4280239258
0.031189807 0.0024666758 0.014497419 4281289858
0.034459844 -0.0029208115 0.018995937 4282208623
0.01690045 0.0037325555 0.011467296 4281876868
0.018657871 0.0045523876 0.010702967 4279388834
0.020583548 0.0045939516 0.010596289 4279061669
0.022155792 0.006191873 0.0091755381 4279585949
0.02526702 0.009387291 0.0063360175 4278270148
0.027360328 0.0086508254 0.0068871379 4278270148
0.033464789 -0.00060021412 0.014551953 4280634254
0.036758557 -0.0060023745 0.019037951 4282405483
0.010590576 0.0044060629 0.0086748749 4283186803
0.012185574 0.0060083875 0.0072557712 4282138754
0.013935164 0.006830045 0.0064933589 4280371858
0.015847526 0.0068711406 0.006387284 4279389343
0.017588593 0.007692744 0.0056255152 4278733738
0.019671701 0.0069535589 0.0061753467 4278668203
0.02277793 0.010157392 0.0033425074 4279192229
0.024678424 0.010198644 0.0032373983 4279781533
0.026763424 0.0094598318 0.0037873695 4278403769
0.029415973 0.0063808793 0.0063016964 4278402749
0.032280184 0.0025224406 0.0094695901 4279127714
0.035557121 -0.0028952677 0.013945163 4282471274
0.0012350753 0.0010979418 0.0093809878 4282855813
0.0028636083 0.0027048532 0.0079628918 4281024659
0.0044810921 0.004311637 0.0065454924 4279716764
0.0060875118 0.0059183305 0.0051287422 4279323299
0.0079977885 0.0059589902 0.0050224941 4278599864
0.011654891 0.0068233991 0.0041556573 4278532289
0.01513204 0.0084706387 0.0026354734 4278930853
0.017033234 0.0085115703 0.0025300756 4278537898
0.018760428 0.0093352059 0.0017707334 4278602413
0.020835012 0.0085936962 0.0023195189 4278271423
0.022377163 0.010199816 0.0009069331 4278993839
0.024454072 0.009458554 0.0014556614 4279256743
0.026351526 0.0094998339 0.0013507879 4279519648
0.031286411 0.0048892433 0.005059843 4278667439
0.034163631 0.0010202695 0.0082189823 4279258274
0.037458859 -0.0044122036 0.012682281 4282078319
-0.0035073385 0.0041875616 0.0045282254 4282924919
-0.0015963316 0.0042277575 0.0044215815 4281943424
0.00016798079 0.0050533786 0.0036611371 4279454623
0.0019266978 0.0058789672 0.002901067 4279061669
0.0035278499 0.0074897828 0.0014877557 4278799273
0.0052726194 0.0083152978 0.00072862767 4278274739
0.0073265731 0.0075705843 0.0012764325 4279126439
0.0092256591 0.0076111155 0.0011708881 4279060904
0.011287428 0.0068667186 0.0017184447 4278928813
0.01475358 0.0085180914 0.00020204205 4278602668
0.016649216 0.0085589169 9.6961856e-05 4278602923
0.018370949 0.0093845678 -0.0006604176 4278668969
0.021976657 0.010251113 -0.0015219958 4278401473
0.030293271 0.0072780224 0.00066637853 4279061414
0.03296373 0.0041822428 0.0031668497 4278734249
0.036242157 -0.0012658956 0.0076197824 4279193249
-0.0077770911 0.0049421266 0.0016503748 4282204543
-0.0045352876 0.0081723696 -0.0011726003 4278268873
-0.0026434734 0.0082121426 -0.0012781895 4278400708
-0.00075181574 0.0082520312 -0.0013836802 4279453604
0.001288861 0.0075045666 -0.00083697168 4278800039
0.0030310228 0.0083320877 -0.0015944212 4278472108
0.0066558197 0.0091998419 -0.0024565367 4278861239
0.0087039769 0.0084528895 -0.0019099072 4279977884
0.010757409 0.0077061793 -0.001363548 4279650718
0.012650594 0.007746757 -0.001468637 4279126439
0.016265452 0.0086151725 -0.0023294778 4278799528
0.017981693 0.009442932 -0.0030849737 4278537898
0.020221442 0.0079099694 -0.0018881853 4278669224
0.021934584 0.008737768 -0.0026433582 4278471853
0.024005733 0.0079920394 -0.0020975349 4278274484
0.025713034 0.0088198585 -0.0028522743 4278668203
0.027789228 0.0080744056 -0.0023066071 4278538154
0.029490694 0.0089022564 -0.003060906 4278734504
0.031764597 0.0073705511 -0.0018656976 4278734504
0.034439974 0.004266195 0.0006281212 4278996898
0.037929356 -0.0019832235 0.0057184845 4281291388
-0.017455895 0.0040131174 0.00040363986 4282531198
-0.015430432 0.0032621454 0.00094890455 4281025933
-0.013781689 0.0048817266 -0.00046129758 4279192994
-0.011883833 0.0049211113 -0.00056760618 4278930343
-0.01025169 0.0065405304 -0.0019766646 4278995879
-0.0083595589 0.006580011 -0.0020824936 4278601649
-0.0010853335 0.0083183302 -0.0038063216 4278600629
0.00094972551 0.0075685801 -0.0032609075 4278537388
0.0026863739 0.008398152 -0.0040164413 4278603434
0.0045719743 0.0084382137 -0.0041213715 4278799019
0.013997383 0.0086398358 -0.0046448605 4278864043
0.01554019 0.010258709 -0.0060479422 4278734249
0.017766297 0.008721062 -0.0048537361 4278799784
0.020003103 0.0071836906 -0.0036600167 4278537644
0.021892518 0.0072246147 -0.0037645791 4278668714
0.023600005 0.0080546001 -0.0045177937 4278537898
0.025301836 0.0088844812 -0.005270611 4278669224
0.027372435 0.0081367092 -0.0047262674 4278669224
0.033420295 0.0066831103 -0.0037425421 4278800039
0.036697447 0.0012045838 0.00068783015 4279848599
-0.0217629 0.0055856286 -0.003111742 4282400894
-0.02011108 0.0072092386 -0.0045190942 4279644854
-0.018226601 0.0072479965 -0.0046249111 4279385264
-0.016217679 0.0064945715 -0.004080364 4279389343
-0.014330726 0.006533605 -0.0041861534 4278865319
-0.012573909 0.0073649576 -0.0049418034 4278733994
-0.0088061094 0.0074434606 -0.005152625 4278666928
-0.0069224276 0.0074828761 -0.0052578989 4279323809
-0.0050388724 0.0075223604 -0.0053631109 4278865829
-0.0031554922 0.0075619845 -0.0054682083 4278797998
-0.0014185831 0.0083935345 -0.0062222891 4278994349
0.00061083585 0.0076414878 -0.0056781797 4278537133
0.0023419932 0.0084731085 -0.0064317975 4278668969
0.004222028 0.0085130529 -0.0065364186 4279061413
0.0059446692 0.0093447147 -0.0072893975 4278405554
0.0079815909 0.0085932063 -0.0067454241 4278270914
0.0098611265 0.008633404 -0.0068498198 4278401473
0.011740498 0.0086736819 -0.0069541438 4278601649
0.013619676 0.008714064 -0.0070583774 4278602923
0.015498675 0.0087545151 -0.0071625467 4278537898
0.017551027 0.0080037909 -0.0066190949 4278537899
0.019608639 0.0072532361 -0.0060758912 4278406573
0.021492511 0.0072940672 -0.0061801262 4278733739
0.023194522 0.0081260437 -0.0069313981 4278930598
0.025075302 0.0081669344 -0.0070353672 4278537134
0.02695591 0.0082078958 -0.007139273 4278471343
0.030523948 0.0090809138 -0.007993347 4278727618
0.032596521 0.0083312048 -0.0074505843 4278400709
0.035268299 0.0052094227 -0.0049694562 4278666419
0.038764492 -0.0010745851 9.4722025e-05 4280897923
-0.02725609 0.0023699095 -0.0026128017 4279717018
-0.025693085 0.0047928048 -0.0046678632 4278930853
-0.023805685 0.0048312852 -0.0047740964 4279258273
-0.014752068 0.0074086608 -0.0072493888 4278930598
-0.013003506 0.0082420455 -0.0080030141 4278537898
-0.0073769093 0.0083594332 -0.0083177257 4278467518
-0.0053608343 0.0076045739 -0.007774679 4278730679
0.0001231879 0.0085173445 -0.0087361578 4278668459
0.0018461049 0.0093509862 -0.0094876867 4278865319
0.0040267557 0.0078029549 -0.0082978746 4278472619
0.0059037879 0.0078429254 -0.00840226 4278800803
0.0079405457 0.0070892377 -0.007859895 4278538409
0.0098199695 0.0071294317 -0.0079642842 4278603688
0.011533886 0.0079633342 -0.0087149777 4278472619
0.013074145 0.0095908353 -0.010111544 4278800039
0.014774136 0.010424604 -0.010861339 4278603434
0.016988933 0.0088780085 -0.0096729714 4278865574
0.019214429 0.0073316647 -0.0084851095 4278603179
0.02109278 0.0073723542 -0.0085890545 4278406573
0.022789307 0.0082063796 -0.0093384124 4278537643
0.024664566 0.0082471548 -0.0094420742 4278602669
0.026726693 0.0074948436 -0.008900498 4278732719
0.028604276 0.007535818 -0.0090041775 4278666673
0.030289188 0.0083698751 -0.0097526815 4278731954
0.037717953 0.0013573384 -0.0042628734 4279126949
0.041446604 -0.0057361522 0.001431027 4281619574
-0.02751115 0.0024494678 -0.0050311959 4279324319
-0.025953561 0.004878697 -0.00708109 4278537643
-0.024185304 0.0057139629 -0.0078346506 4278275504
-0.022422612 0.0065492662 -0.0085878577 4278800039
-0.020784464 0.0081812786 -0.0099879904 4279062179
-0.018913884 0.0082197646 -0.010093019 4278730678
-0.016918965 0.0074616941 -0.0095509216 4279125674
-0.014791552 0.0059071733 -0.0083621275 4278471343
-0.013172958 0.0075392919 -0.0097608585 4278472363
-0.011300147 0.0075782621 -0.0098656863 4278669224
-0.0095627978 0.0084137553 -0.010616868 4278470833
-0.005964078 0.0092883864 -0.011471938 4278400709
-0.0025230497 0.010959466 -0.012971905 4278799019
-0.00036409497 0.0094064409 -0.011784254 4278799784
0.001502268 0.0094459923 -0.011888187 4278472109
0.0036772266 0.0078935483 -0.010701323 4278800039
0.0055487156 0.0079333642 -0.010805425 4278668969
0.0077396706 0.0063814139 -0.0096192621 4278865573
0.0096162632 0.0064215427 -0.0097234976 4278931109
0.011327416 0.0072576171 -0.010472452 4278472108
0.016253799 0.010561091 -0.01336128 4278399433
0.018644325 0.0082146199 -0.011531925 4278406318
0.020514421 0.0082551287 -0.011635415 4278668714
0.022384338 0.0082956934 -0.01173885 4278537899
0.024254069 0.0083363289 -0.011842221 4278733738
0.028182678 0.0076225558 -0.011405341 4278995368
0.029862121 0.0084586749 -0.012151923 4279192739
0.031731099 0.0084995823 -0.012255037 4278930344
0.033599868 0.0085405568 -0.012358088 4278996133
0.036270842 0.0054013627 -0.0098898364 4279192993
0.039776571 -0.00091721583 -0.0048520262 4280111249
-0.02828126 -0.0078904089 0.0010679001 4282993004
-0.027333748 -0.00065885857 -0.0048575336 4279849109
-0.026103027 0.0041744309 -0.0088414848 4278668969
-0.022810142 0.0074472157 -0.011636501 4278273974
-0.021061242 0.008284484 -0.012387191 4279519903
-0.01931791 0.0091217766 -0.013137538 4278601394
-0.017455753 0.009160188 -0.013242021 4278271423
-0.015339479 0.007601087 -0.012055833 4278668459
-0.013342284 0.0068410998 -0.011515323 4278472109
-0.011472329 0.00687999 -0.011620004 4278406829
-0.0097377785 0.0077176085 -0.012369409 4278603688
-0.0081468076 0.00935381 -0.013763133 4278341549
-0.006144695 0.0085942978 -0.013222547 4278603433
-0.0045676231 0.010230427 -0.014615332 4278472363
-0.0030015633 0.011866362 -0.016007401 4278472108
-0.00099990517 0.011107172 -0.015466615 4278669224
0.0011586696 0.0095499279 -0.014282145 4278800294
0.0034822822 0.0071947603 -0.012454398 4278603688
0.0055079758 0.006436375 -0.011914732 4278341804
0.0073791668 0.0064762952 -0.012018737 4278538154
0.0094126835 0.0057182731 -0.01147936 4278537899
0.010790676 0.0081523424 -0.01351283 4278406064
0.02029404 0.0075557148 -0.013387137 4278799273
0.022161148 0.0075962162 -0.013490421 4278537389
0.024028063 0.0076367846 -0.013593639 4278668969
0.02776134 0.0077181393 -0.013799877 4278400963
0.029242963 0.0093536684 -0.015186216 4278795449
0.035426207 0.0070843669 -0.013570452 4278669479
0.041634209 -0.0023987256 -0.0060854396 4281945974
-0.028004616 -0.01182821 0.0018659472 4282600304
-0.02715658 -0.0037755626 -0.0046901554 4280177038
-0.026030932 0.0018721512 -0.0093093328 4278865573
-0.024603181 0.0051155146 -0.011992975 4278275504
-0.022848822 0.0059549185 -0.012742467 4278402494
-0.017743398 0.0092742378 -0.015632384 4278795448
-0.015632831 0.007710726 -0.014449142 4278668714
-0.013641261 0.0069483938 -0.013909898 4278472109
-0.011511881 0.0053854762 -0.012727557 4278668714
-0.009912625 0.0070260586 -0.014118544 4278668714
-0.0081864521 0.0078658136 -0.014865835 4278799784
-0.0064658634 0.0087055126 -0.015612698 4278930598
-0.0046074465 0.0087445686 -0.015716434 4278734504
-0.0030414015 0.010384846 -0.017105276 4278471853
0.0029789433 0.0081013637 -0.01548841 4278602668
0.005153276 0.0065402696 -0.014307854 4278931364
0.0070189312 0.0065800482 -0.014411569 4278472619
0.0092092678 0.0050194953 -0.013231826 4278472363
0.011943445 0.0099003548 -0.017287832 4279520414
0.013626985 0.010740283 -0.018031873 4278865574
0.01582481 0.009180232 -0.016852293 4279127458
0.018033333 0.007620451 -0.015673198 4278338488
0.019895077 0.0076607307 -0.015776264 4278274484
0.021756671 0.0077011036 -0.015879247 4278734504
0.023433872 0.0085413335 -0.016622692 4278603433
0.025479265 0.0077820411 -0.016085032 4278733738
0.027340278 0.007822617 -0.016187824 4278271169
0.032922283 0.0079446984 -0.016495861 4279192484
0.034983046 0.0071861176 -0.015958849 4278734503
0.037658602 0.0040296614 -0.013503749 4278865829
0.040973388 -0.0015240228 -0.0091319047 4278865574
0.044534609 -0.0078761121 -0.0041229557 4281685364
-0.028043944 -0.013368097 0.00072466815 4282534768
-0.026979607 -0.006900812 -0.0045290375 4280701573
-0.026069608 0.00036921818 -0.010423202 4278800804
-0.024641782 0.003621269 -0.013100395 4278669479
-0.023119722 0.0060696239 -0.015133617 4278798763
-0.021376435 0.0069111036 -0.015880775 4278468539
-0.017906532 0.0085940501 -0.017373916 4278603433
-0.01617993 0.0094355708 -0.018119927 4278734759
-0.014069717 0.0078677339 -0.016939797 4278537898
-0.012213629 0.007906328 -0.01704371 4278603434
-0.010222513 0.0071420586 -0.016505945 4278406829
-0.0083639622 0.0071809376 -0.016609821 4278799784
-0.0065055527 0.0072198855 -0.016713638 4278799274
-0.0047906041 0.0080617266 -0.017458506 4278340784
0.0006237179 0.0089818975 -0.018409435 4278662084
0.0047988445 0.0066530919 -0.016694434 4278799528
0.0064992979 0.0074951956 -0.017438069 4278603433
0.0086812526 0.0059300577 -0.01626106 4278538154
0.011734873 0.0092190513 -0.019026943 4278401984
0.013245113 0.010863329 -0.020408899 4279060139
0.015437283 0.0092987558 -0.0192322 4278602159
0.019317687 0.0085767349 -0.018798005 4278864298
0.021171018 0.0086169047 -0.018900551 4278930598
0.022840068 0.0094590476 -0.019641913 4278603434
0.025063977 0.0078955879 -0.018466726 4278799783
0.02729857 0.0063323928 -0.017292034 4278734759
0.029351592 0.0055712601 -0.016756363 4278931108
0.031019934 0.0064136656 -0.01749748 4279062689
0.03307803 0.0056527844 -0.016961984 4278800294
0.034940965 0.0056936247 -0.017064717 4279062688
0.037616193 0.0025284775 -0.014616052 4278931363
0.040724657 -0.0022390587 -0.01089321 4278603689
-0.02829358 -0.01329626 -0.001699775 4282077044
-0.026910737 -0.009228779 -0.0050157402 4280242573
-0.025776442 -0.0035504079 -0.0096128322 4279325849
-0.024680354 0.0021272525 -0.014207649 4278997154
-0.023274321 0.0053876331 -0.016877096 4278472364
-0.021652613 0.0070367055 -0.018263379 4278538154
-0.019798912 0.0070748096 -0.018367484 4278538154
-0.017945323 0.0071130442 -0.018471485 4278603433
-0.016218793 0.0079567311 -0.019215882 4278799784
-0.01449782 0.0088003492 -0.01995986 4278668714
-0.012650039 0.0088387607 -0.020063315 4278799783
-0.010667253 0.0080721332 -0.019526709 4278537899
-0.0088169985 0.0081108054 -0.019630145 4278406318
-0.0068263263 0.0073445095 -0.019093782 4278602668
-0.0032670349 0.0082273977 -0.019939974 4278864043
-0.0015660375 0.0090713194 -0.020682298 4279256743
0.00043223053 0.0083056064 -0.020146117 4279388324
0.0039740503 0.0091888597 -0.020990714 4278668203
0.0058204383 0.0092282137 -0.021093369 4278734504
0.0079912916 0.0076584881 -0.019918974 4278603688
0.0098428056 0.0076981308 -0.020021781 4278471599
0.011526406 0.0085423319 -0.02076273 4278271678
0.018919297 0.0087017519 -0.021172386 4279389089
0.02094844 0.0079375831 -0.020637188 4278603689
0.022798784 0.0079777548 -0.020739518 4278800039
0.025209256 0.0056058811 -0.018930463 4278734249
0.027256884 0.0048423121 -0.018396141 4278799019
0.029694155 0.0024711611 -0.016588461 4278667948
0.03156282 0.0025120024 -0.016691603 4278538154
0.033628933 0.0017490834 -0.016158191 4279062434
0.035299584 0.0025938293 -0.016897738 4279326104
0.03777688 0.00022374839 -0.015092047 4280045969
0.040476076 -0.0029495568 -0.012651157 4279586969
-0.030562133 -0.012446182 -0.0046496908 4282467193
-0.028542977 -0.013215518 -0.0041176192 4280766089
-0.027057629 -0.0099451505 -0.0067853127 4280242573
-0.0257047 -0.0058673029 -0.010091439 4280243338
-0.024605643 -0.00017432123 -0.014675159 4279325339
-0.0233128 0.0039025182 -0.017977741 4278406829
-0.021809846 0.0063636238 -0.020000124 4278668969
-0.019958999 0.0064016627 -0.020104075 4278341549
-0.01823242 0.0072473483 -0.020846914 4278472108
-0.010976586 0.0082080746 -0.021899261 4278602924
-0.0092696659 0.0090538887 -0.022640601 4278603434
-0.0072873458 0.0082852794 -0.022105433 4278603434
-0.00374455 0.0091699278 -0.022949066 4278536114
-0.0019031167 0.0092087919 -0.023051728 4279258528
8.9533627e-05 0.0084407972 -0.022516843 4279062179
0.0017793179 0.0092868125 -0.023256809 4279191974
0.0054611489 0.0093651703 -0.023461599 4278668459
0.0076263249 0.0077910172 -0.022290163 4278669224
0.0094722956 0.0078305071 -0.022392686 4278538154
0.011318102 0.0078701014 -0.022495121 4278800039
0.012993373 0.0087163216 -0.023233902 4278341038
0.01483614 0.0087560015 -0.023336057 4278800293
0.016854584 0.0079892976 -0.022802051 4278931108
0.019056849 0.0064163851 -0.021632269 4279192484
0.021088555 0.0056501338 -0.021098875 4279324574
0.023309499 0.0040777903 -0.01993008 4278341293
0.025541157 0.0025056982 -0.018761788 4278472619
0.027783476 0.00093397684 -0.017594054 4278931364
0.029844381 0.0001686262 -0.017062079 4279456154
0.032105386 -0.0014026221 -0.015895257 4279587479
0.033981942 -0.0013615955 -0.015998824 4279653778
0.035858311 -0.0013204888 -0.016102318 4280308363
0.037937485 -0.0020851931 -0.015571168 4280438669
0.040639088 -0.0052671502 -0.013136876 4281356923
-0.029002257 -0.011505578 -0.0078057502 4281618553
-0.027312174 -0.0098468484 -0.0091898171 4280636039
-0.025633063 -0.0081882793 -0.010573145 4280701574
-0.024531029 -0.0024800245 -0.015145729 4279850638
-0.023467209 0.0032274816 -0.019716065 4278866084
-0.022204258 0.0073147034 -0.023008801 4278734504
-0.020483095 0.0081623429 -0.023749802 4278537899
-0.011420667 0.0091624698 -0.024901997 4278995878
-0.009584263 0.0092008328 -0.025004677 4278734504
-0.0077479854 0.0092392778 -0.025107283 4278734758
-0.0022399575 0.0093552181 -0.025414601 4278467773
-0.00025290251 0.0085848561 -0.024880998 4279123888
0.0018934458 0.0070056794 -0.02371195 4278598589
0.0037370622 0.007044862 -0.023814537 4278536369
0.0055805072 0.0070841117 -0.023917057 4278537643
0.0075859949 0.0063145524 -0.023384251 4278799783
0.0097616762 0.0047362801 -0.022216551 4279061669
0.011445194 0.005584809 -0.022954278 4279257763
0.013293467 0.0056245094 -0.023056809 4279454369
0.015141577 0.0056642918 -0.023159269 4278799528
0.017165318 0.0048954748 -0.022627138 4278734759
0.019372806 0.0033183424 -0.021460939 4278472619
0.021591008 0.0017414484 -0.020295253 4278669224
0.023819894 0.00016491301 -0.019130137 4278996644
0.026059479 -0.0014113113 -0.017965555 4279324319
0.028120406 -0.0021789577 -0.017435214 4279652759
0.03037867 -0.0037546488 -0.016271569 4279718293
0.032258034 -0.0037136409 -0.016375352 4279718803
0.034334727 -0.0044807252 -0.015845791 4280045968
0.036216453 -0.0044395286 -0.015949603 4280308364
0.038503885 -0.0060144034 -0.014787362 4280504204
0.040801987 -0.0075889211 -0.013625692 4282209133
-0.029251087 -0.011402597 -0.010207187 4282078063
-0.027351037 -0.011364115 -0.010314323 4280570758
-0.025671959 -0.0097012166 -0.011694432 4280636039
-0.024456508 -0.0047899275 -0.01561934 4280832643
-0.023505598 0.0017449521 -0.020814797 4278997409
-0.022361107 0.006655029 -0.02473554 4278537899
-0.019053988 0.0091664353 -0.026849426 4278733994
-0.01722268 0.0092042712 -0.026952133 4278734249
-0.015391484 0.0092422133 -0.027054749 4278930854
-0.013428189 0.0084685264 -0.026521996 4278536369
-0.011594508 0.00850672 -0.026624605 4278405808
-0.0097609498 0.0085450048 -0.026727136 4278668714
-0.0082082599 0.010206501 -0.028099257 4278341549
-0.0060942173 0.0086218668 -0.026931956 4278800294
0.0016995743 0.0063428869 -0.025438361 4278339508
0.0038537234 0.0047595752 -0.024272941 4278865318
0.0055403784 0.0056100441 -0.025009375 4278668969
0.0077078193 0.0040271748 -0.023844577 4278603434
0.0095563009 0.0040667122 -0.023947246 4278406318
0.011739753 0.0024843281 -0.022783156 4278274229
0.017300107 0.0026039407 -0.02309148 4278998174
0.019510105 0.0010224888 -0.021928668 4278997154
0.021730818 -0.0005587237 -0.020766372 4278932383
0.024146073 -0.0029501743 -0.018972203 4278734248
0.026204325 -0.0037201568 -0.018443404 4279521433
0.028457105 -0.0053004017 -0.017282754 4279587223
0.030528575 -0.0060699061 -0.01675462 4279783829
0.03260532 -0.006839239 -0.016226733 4279980688
0.034292407 -0.0059877578 -0.016962446 4280242574
0.036174074 -0.0059465985 -0.017066281 4280177039
0.038664185 -0.0083360439 -0.015275895 4280045968
-0.027712874 -0.010438021 -0.01334389 4281355904
-0.02571084 -0.011213962 -0.012815578 4280832388
-0.024268985 -0.0079182079 -0.015461302 4280767364
-0.023312315 -0.0013658348 -0.020644173 4279981453
-0.02263638 0.0068140933 -0.027093414 4279062179
-0.019588225 0.010959894 -0.030470151 4278469048
-0.017387785 0.0085554449 -0.028670218 4278470834
-0.015559439 0.0085932976 -0.028772701 4278864299
-0.0099375062 0.0078937029 -0.028446246 4278668459
-0.008247219 0.0087457458 -0.029181771 4278865319
-0.0064194873 0.0087840883 -0.029283844 4278930598
-0.0045918673 0.0088225482 -0.029385824 4278734248
-0.0023189709 0.0064204326 -0.027589411 4278799784
-0.00018105656 0.004832183 -0.026426423 4278931109
0.0019675568 0.0032443171 -0.025263995 4279194014
0.0039702803 0.0024701357 -0.024734423 4279193503
0.0058189481 0.0025094738 -0.024837255 4278341548
0.0078295618 0.0017355857 -0.024307955 4279456664
0.0098454356 0.00096195284 -0.023778915 4279587734
0.012034111 -0.00062463991 -0.022618402 4279652758
0.01389306 -0.00058475975 -0.022721563 4279258783
0.016097732 -0.0021708943 -0.021561775 4279390363
0.017786138 -0.001317773 -0.022296365 4279455898
0.020004071 -0.0029034289 -0.021137245 4279849109
0.021870531 -0.0028630602 -0.021240581 4278996898
0.024104439 -0.0044482215 -0.02008223 4278800293
0.026162535 -0.0052204193 -0.01955507 4279586969
0.028225884 -0.0059923632 -0.019028164 4279783829
0.030294508 -0.0067641349 -0.018501513 4279718549
0.032368392 -0.0075357347 -0.017975107 4280111759
0.034250155 -0.007494681 -0.018079028 4280438413
0.03613174 -0.0074535357 -0.018182866 4280241809
0.0384188 -0.0090371622 -0.017027099 4280833410
-0.027859155 -0.011131758 -0.015096764 4281816434
-0.02586003 -0.011909979 -0.014569863 4280766853
-0.024194721 -0.010238511 -0.015942696 4280374154
-0.023003478 -0.0053015663 -0.019846816 4280308364
-0.022437438 0.0037165973 -0.026913248 4278734759
-0.021325301 0.0086521981 -0.030812789 4278864554
-0.012076613 0.0080248667 -0.030691717 4278669223
-0.010113914 0.0072469478 -0.030161988 4278865574
-0.0081459135 0.0064692991 -0.029632516 4278668714
-0.00617259 0.005691844 -0.029103275 4278733993
-0.0041939542 0.0049145985 -0.028574262 4278472108
-0.0020615906 0.0033217939 -0.027414262 4278275504
0.0020814762 0.00095284265 -0.025726803 4278341293
0.0040867627 0.00017648563 -0.025198955 4279126949
0.0059380606 0.00021584891 -0.025301956 4279390363
0.0079512 -0.0005601095 -0.024774451 4279457173
0.0099696442 -0.0013359068 -0.024247203 4279718803
0.012160815 -0.002926867 -0.023090038 4279456154
0.014192544 -0.0037021972 -0.022563394 4279521689
0.016402423 -0.005292539 -0.021407176 4279456154
0.018447421 -0.0060674385 -0.020881159 4279521689
0.02014108 -0.0052119922 -0.021614399 4279979923
0.021829151 -0.0043565803 -0.022347264 4279455644
0.02406285 -0.0059461244 -0.021192156 4278734759
0.026120804 -0.006720514 -0.02066661 4279848854
0.028373182 -0.0083095124 -0.019512434 4279260059
0.030252509 -0.0082686609 -0.019616328 4279391129
0.032326244 -0.009042453 -0.019091543 4279980178
0.034010597 -0.0081867408 -0.019823916 4280438413
0.035689376 -0.0073310984 -0.020555947 4280767108
0.037768044 -0.0081046298 -0.020031318 4282340714
0.041941188 -0.0096512008 -0.018982824 4282993768
0.044035651 -0.010424289 -0.018458921 4282928998
-0.028220396 -0.010183532 -0.018109929 4282142068
-0.026229646 -0.010964054 -0.017584216 4281619574
-0.02434653 -0.01092575 -0.017690275 4280178058
-0.022810668 -0.0084315408 -0.019690413 4280178059
-0.022001833 -0.0010264115 -0.025476977 4279719313
-0.020999756 0.0047408538 -0.029998504 4279194524
-0.019664247 0.008052214 -0.032625038 4278603433
-0.017844204 0.0080897762 -0.032727141 4278603434
-0.016024273 0.0081274332 -0.032829165 4278538409
-0.014072422 0.0073469644 -0.032300632 4278931363
-0.012115225 0.0065666912 -0.031772338 4279389088
-0.0098777525 0.0041503487 -0.029983886 4279258274
-0.0079044886 0.0033706091 -0.029456344 4278537644
-0.0057829842 0.0017730286 -0.028299116 4279454879
-0.0037963614 0.00099375751 -0.027772181 4279520668
-0.0018044338 0.00021469314 -0.027245466 4279259548
0.00019279122 -0.00056416262 -0.026718978 4279389853
0.0023491234 -0.0021606395 -0.025563419 4279586968
0.0043596849 -0.0029390389 -0.025037542 4279783318
0.0062162951 -0.0028995867 -0.025140855 4279193503
0.0082347021 -0.0036776331 -0.024615277 4279586969
0.010258436 -0.0044555552 -0.024089914 4279914899
0.011952661 -0.0035981843 -0.024821837 4279718294
0.01415161 -0.0051932684 -0.023668289 4279783829
0.016188473 -0.0059706192 -0.023143511 4279849363
0.018581674 -0.0083824657 -0.021362845 4279914134
0.020278014 -0.007524733 -0.022094648 4280176274
0.021968767 -0.006667152 -0.022826094 4279979413
0.024204977 -0.008261051 -0.021674328 4279716253
0.026265509 -0.0090375338 -0.021150596 4280240788
0.028331287 -0.0098138452 -0.020627115 4280635528
0.030210525 -0.0097730076 -0.020731013 4281095038
-0.026598901 -0.010004926 -0.020588782 4281095804
-0.024498213 -0.011608427 -0.019434471 4280505989
-0.022849381 -0.0099285273 -0.02079986 4280440453
-0.021566648 -0.0057866541 -0.024053406 4280701829
-0.020674523 0.00081664231 -0.029193755 4279718294
-0.019330751 0.0041368445 -0.031814307 4278800294
-0.017629232 0.0049951319 -0.032546073 4278603434
-0.013714876 0.003429885 -0.031492893 4278471598
-0.01188441 0.0034679323 -0.031595383 4278668969
-0.0097792223 0.001865509 -0.030440666 4279389853
-0.0076632649 0.00026336126 -0.029286437 4278275758
-0.0053937063 -0.0021586185 -0.027504545 4279323298
-0.0033990964 -0.0029399628 -0.026979644 4279652249
-0.0016957819 -0.0020808661 -0.027710933 4279455643
0.00030400604 -0.0028619086 -0.027186174 4279783318
0.0023090765 -0.0036426974 -0.026661683 4279586714
0.0043194667 -0.0044232896 -0.026137423 4279914389
0.0063351393 -0.0052036848 -0.025613394 4279717784
0.0083561391 -0.0059839557 -0.025089577 4279259294
0.010217801 -0.0059442399 -0.025193058 4279718293
0.012079321 -0.0059044436 -0.025296465 4279849363
0.014280774 -0.0075037871 -0.024146333 4280045459
0.016320184 -0.008283278 -0.023623329 4279914134
0.018540367 -0.0098821344 -0.022474103 4280046223
0.020236671 -0.0090222722 -0.023204319 4280438413
0.022289217 -0.0098013338 -0.022681862 4279390364
0.024530657 -0.011399453 -0.021533679 4279259038
0.026596479 -0.012178036 -0.021011885 4282143854
-0.026857648 -0.0098556429 -0.022955034 4282405994
-0.024875533 -0.010640611 -0.022432007 4280767619
-0.022888064 -0.011425346 -0.021909188 4280505223
-0.021250226 -0.0097412877 -0.023270629 4280701574
-0.020349625 -0.0031203995 -0.028398592 4280308873
-0.018997602 0.00020864513 -0.031013165 4278864554
-0.015325487 0.00028447341 -0.03121914 4278341293
-0.013489593 0.00032252725 -0.03132201 4278930854
-0.011653803 0.00036068726 -0.031424794 4279586203
-0.009818133 0.00039894134 -0.031527501 4279783573
-0.0077024139 -0.0012075659 -0.030376498 4279193503
-0.0055759475 -0.0028137369 -0.029226083 4278865063
-0.0035842359 -0.0035972791 -0.028702684 4279651738
-0.0015872121 -0.0043806834 -0.028179482 4280110738
0.000415124 -0.0051638093 -0.027656529 4279979668
0.0022690818 -0.0051246346 -0.027759857 4280176274
0.0041229054 -0.0050853551 -0.0278631 4280372878
0.0061357021 -0.0058680186 -0.02734055 4280110739
0.0081538036 -0.006650486 -0.026818234 4279652249
0.010341749 -0.0082547031 -0.025670689 4280110994
0.012205876 -0.0082148686 -0.025774252 4280176783
0.014239863 -0.0089967716 -0.025252651 4280636804
0.016106419 -0.008956736 -0.025356241 4280440199
0.018148243 -0.0097382991 -0.02483495 4281882733
-0.03604959 -0.013187187 -0.022278011 4280169644
-0.025026832 -0.011309918 -0.024166297 4281946994
-0.02304228 -0.012096898 -0.023644939 4281159298
-0.021407172 -0.010408561 -0.025003005 4281159810
-0.020267006 -0.0054203281 -0.028865445 4280766853
-0.018788446 -0.0029075248 -0.030847602 4279586969
-0.017199889 -0.001219782 -0.032202862 4279127203
-0.014976565 -0.0036563361 -0.030428417 4279061669
-0.013264507 -0.0027933642 -0.031157378 4279783064
