# .PCD v0.7 - Point Cloud Data file format
VERSION 0.7
FIELDS x y z rgba
SIZE 4 4 4 4
TYPE F F F U
COUNT 1 1 1 1
WIDTH 962
HEIGHT 1
VIEWPOINT 0 0 0 1 0 0 0
POINTS 962
DATA ascii
0.033604823 -0.0062836856 0.01183193 4289605409
0.035936773 -0.0077976454 0.013045495 4289801248
0.038279384 -0.0093113668 0.014258591 4289539619
0.04063262 -0.010824744 0.015471153 4289015338
0.00072666258 9.6926466e-05 0.0050679138 4288037414
0.021506526 -0.0065313429 0.0099716838 4289606429
0.023280285 -0.0057114931 0.0092130955 4289802013
0.024695523 -0.0033321362 0.0071414411 4290979603
0.026810907 -0.0040719034 0.0076969806 4291175699
0.028931499 -0.0048114322 0.0082522687 4291175443
0.031426519 -0.0071099186 0.010119885 4291044629
0.033563003 -0.0078490078 0.010674505 4289408803
0.035704717 -0.0085878605 0.011228871 4289800738
0.038237162 -0.010885403 0.013094738 4289669924
0.040590189 -0.012403129 0.014304088 4287837749
0.00083100796 -0.0022268128 0.0045850361 4289016358
0.0026120543 -0.0014055874 0.0038269758 4290259994
0.0043874606 -0.0005843658 0.0030692937 4289933339
0.0064610764 -0.0013280045 0.0036247084 4289083169
0.0085399374 -0.0020714533 0.0041799089 4289083933
0.019013159 -0.0057857642 0.0069529116 4288692254
0.021123536 -0.0065280008 0.0075068809 4289344033
0.023065485 -0.0064880713 0.0074054133 4290455578
0.024830848 -0.0056661451 0.0066489335 4289408803
0.02676969 -0.005626115 0.006547749 4289408803
0.028890118 -0.0063678133 0.0071014427 4289670688
0.031015791 -0.007109337 0.0076549128 4290913814
0.033333927 -0.0086323572 0.0088626947 4289343013
0.03566277 -0.010155148 0.010069996 4289669924
0.038194947 -0.012459208 0.011931051 4289407273
-0.0012769401 -0.0030236393 0.0028901175 4287574589
0.00079154968 -0.0037698727 0.0034439536 4289343014
0.0024261177 -0.0021617636 0.00203247 4290913048
0.0041987523 -0.0013384242 0.0012765443 4290979859
0.006269455 -0.0020843055 0.0018304931 4290718229
0.0083454326 -0.0028299838 0.0023842352 4289671709
0.010426663 -0.0035754517 0.0029377807 4289412373
0.018467844 -0.0049868673 0.003842108 4288756513
0.020569898 -0.005731469 0.0043948898 4289605408
0.022503577 -0.0056916876 0.0042938692 4290848534
0.024260737 -0.0048677512 0.00353943 4290586393
0.026191317 -0.0048278943 0.0034386767 4289539618
0.028121665 -0.0047879443 0.0033380082 4289539873
0.030236311 -0.0055318894 0.0038904259 4289736224
0.032543391 -0.0070595494 0.0050955899 4290324253
0.035430901 -0.010938391 0.008258529 4289669413
0.038152739 -0.014032835 0.010767497 4287380024
-0.0035174042 -0.0030286033 0.00054452103 4288295219
-0.0013161898 -0.0045642871 0.0017508091 4289343524
0.00075210631 -0.0053127017 0.0023030415 4289539364
0.0023866594 -0.0037002228 0.00089479703 4289931808
0.0040101558 -0.0020878706 -0.00051279459 4289670688
0.0062297583 -0.0036227703 0.00069283228 4290390553
0.0084600523 -0.0051573589 0.0018979693 4290063643
0.010701068 -0.0066916738 0.0031026592 4289867804
0.012792848 -0.0074390215 0.0036540991 4289998618
0.014564522 -0.0066130538 0.002900186 4289868059
0.01616516 -0.0050005354 0.0014941851 4289474848
0.018090971 -0.0049611107 0.0013934327 4290193949
0.020016596 -0.0049215928 0.0012927633 4290128414
0.022115573 -0.0056683924 0.0018441966 4290455068
0.023690976 -0.0040560495 0.00043976773 4291044374
0.025792271 -0.0048025828 0.00099117029 4290847769
0.027535401 -0.0039766096 0.00023918692 4290782999
0.030010596 -0.006295159 0.0020933459 4290455579
0.032314733 -0.0078271944 0.0032953927 4289604643
0.035389014 -0.012503034 0.007101614 4287510838
-0.0060174465 -0.0014456511 -0.0030997624 4287900223
-0.0036945418 -0.0037754141 -0.001243636 4289146663
-0.0016371384 -0.0045263227 -0.0006925175 4289670433
0.00042552501 -0.0052770302 -0.00014160294 4290978840
0.002200909 -0.0044493787 -0.00089451857 4289474338
0.0039706826 -0.0036217459 -0.0016470673 4289212708
0.0060383156 -0.0043720398 -0.0010961825 4289801759
0.0081112087 -0.0051221326 -0.00054550357 4290259738
0.010346547 -0.0066608819 0.00065620802 4289867548
0.012592606 -0.0081993788 0.0018574568 4289867294
0.014361508 -0.0073712706 0.0011053188 4290063133
0.015794091 -0.0049657542 -0.00094811711 4289801503
0.017714366 -0.0049264636 -0.0010485956 4289866784
0.019634441 -0.0048870705 -0.0011489829 4289866784
0.0217278 -0.0056361016 -0.00059889909 4289735969
0.023474 -0.0048080403 -0.0013495404 4290062878
0.025572427 -0.0055568255 -0.00079961494 4290062878
0.027494438 -0.0055170618 -0.0008998597 4290063134
0.029785 -0.0070538768 0.00029963348 4290062623
0.032460399 -0.010166836 0.0027980115 4289211943
-0.006056115 -0.0029727239 -0.0042290473 4288818224
-0.0037334934 -0.0053090407 -0.0023777606 4289605154
-0.0016762912 -0.006062109 -0.0018282272 4289605664
0.00024269521 -0.0060237031 -0.0019292748 4290717208
0.0021615103 -0.0059851799 -0.0020302236 4291044373
0.0039312243 -0.0051553817 -0.0027811639 4291044374
0.005847007 -0.0051167104 -0.0028817975 4291044884
0.0080713928 -0.006660122 -0.0016828021 4291306514
0.010149382 -0.0074122059 -0.0011339439 4289670943
0.012392484 -0.0089551024 6.4243563e-05 4289932573
0.014158599 -0.0081248526 -0.00068619289 4289866784
0.015753821 -0.0065037864 -0.0020854184 4290128669
0.017673977 -0.0064644865 -0.0021858811 4291175188
0.019423224 -0.0056343339 -0.0029351781 4291109909
0.02151373 -0.0063856328 -0.0023865812 4291109909
0.023433305 -0.0063460786 -0.002486818 4290193949
0.025352702 -0.0063064564 -0.0025869915 4289735969
0.027453497 -0.0070572966 -0.002038748 4289931553
0.02992817 -0.0093889423 -0.00019426178 4289735204
0.032792978 -0.013300994 0.0029455945 4288819244
0.035684794 -0.017212434 0.0060840826 4286268224
-0.0063653365 -0.0029122904 -0.0066565108 4289539619
-0.0041864887 -0.0044615809 -0.0054587992 4289735969
-0.0019968972 -0.0060105724 -0.0042615905 4289670689
5.9977174e-05 -0.006765788 -0.0037135542 4289735968
0.0019759536 -0.0067273411 -0.0038143676 4290324763
0.0037428588 -0.0058953529 -0.00456357 4290717464
0.0055041835 -0.0050634518 -0.005312386 4291044373
0.0074142218 -0.0050247991 -0.0054126466 4289867294
0.0094811544 -0.0057792859 -0.0048648212 4289932573
0.011872925 -0.0081199333 -0.0030214121 4290128923
0.013468333 -0.0064946138 -0.0044174958 4289735969
0.015052661 -0.0048693717 -0.0058129653 4289866784
0.01696185 -0.0048303157 -0.0059128683 4291175188
0.019041479 -0.0055840723 -0.0053653587 4291044373
0.021126382 -0.0063377093 -0.0048180437 4291371539
0.023216531 -0.0070910966 -0.0042709718 4290848023
0.025133125 -0.0070515489 -0.0043710107 4289932319
0.027594097 -0.0093900487 -0.0025307545 4289800738
0.030071214 -0.011728164 -0.00069122761 4289408038
0.033125333 -0.016443672 0.0030868789 4286071874
0.035453148 -0.017988285 0.0042780768 4286464829
-0.008571744 -0.002880522 -0.0089772521 4287966778
-0.0064038783 -0.0044345343 -0.0077822255 4289997599
-0.0046391413 -0.0036008488 -0.0085300235 4290848534
-0.002457954 -0.0051543964 -0.0073355511 4290455578
-0.00026602298 -0.0067075719 -0.0061416025 4289997854
0.0017905086 -0.0074648545 -0.0055951481 4289539618
0.0034057945 -0.0058352388 -0.0069893906 4289997598
0.0051615983 -0.0050012702 -0.007736301 4289408803
0.0070661008 -0.0049627768 -0.0078363046 4289866784
0.0091274008 -0.0057195425 -0.0072897905 4289932319
0.011194006 -0.0064761299 -0.0067434995 4289866784
0.013103411 -0.0064372257 -0.006843531 4289932063
0.01484748 -0.0056030229 -0.0075894762 4290520859
0.016753823 -0.0055640051 -0.0076892171 4289670434
0.018489391 -0.004729813 -0.0084345955 4289735968
0.020565957 -0.0054857666 -0.007888509 4290390043
0.022647798 -0.006241506 -0.0073426194 4289866783
0.025092408 -0.0085870149 -0.0055063791 4289866783
0.027553126 -0.010932045 -0.0036709453 4289800738
0.030214176 -0.014071542 -0.0011912696 4289604133
-0.010637172 -0.003637651 -0.010645617 4287967543
-0.0087424889 -0.0036001354 -0.010745683 4289015848
-0.0068479404 -0.0035625389 -0.01084568 4290652184
-0.0050914437 -0.0027268808 -0.011591386 4291109654
-0.0029186606 -0.0042848885 -0.010399727 4291306003
-0.00087848306 -0.0050447742 -0.0098540979 4291306259
0.0013130531 -0.0066022789 -0.0086632576 4289735969
0.0029201657 -0.0049684523 -0.010053901 4289997599
0.004819259 -0.0049301395 -0.010153674 4289605409
0.0068724155 -0.0056894217 -0.0096083991 4289932064
0.0089308396 -0.00644843 -0.0090633519 4289866784
0.010834873 -0.006409741 -0.0091631804 4290063134
0.012738734 -0.006370984 -0.0092629464 4290390043
0.0143122 -0.0047372803 -0.010651411 4291109653
0.01621028 -0.0046984591 -0.010750738 4290390043
0.017937638 -0.003862245 -0.011494065 4290128413
0.020179175 -0.0054178247 -0.010305172 4290128413
0.022431388 -0.0069730589 -0.0091168182 4290128669
0.024873026 -0.0093251467 -0.0072852531 4289866529
0.02751217 -0.012473861 -0.0048110047 4289539619
-0.010545574 -0.005953189 -0.011121555 4288753454
-0.0089131072 -0.0043151611 -0.012510722 4290128159
-0.0070214123 -0.0042776149 -0.012610564 4289212198
-0.0054055601 -0.002639669 -0.013998743 4289539363
-0.003379032 -0.0034021093 -0.013454088 4289932063
-0.0014904886 -0.0033643208 -0.013553537 4290848023
0.00083594024 -0.0057263598 -0.011721574 4289866784
0.0027323514 -0.0056882156 -0.01182129 4290063134
0.0047800541 -0.006449834 -0.011277455 4290063134
0.0066788569 -0.0064114304 -0.011377141 4289997343
0.0087343976 -0.0071727531 -0.01083354 4289997343
0.010475993 -0.0063344054 -0.01157632 4290128413
0.012536637 -0.0070954449 -0.011032854 4289735713
0.014107384 -0.0054574432 -0.012417949 4290716699
0.01600264 -0.0054186722 -0.012517123 4290979094
0.017727233 -0.0045803767 -0.013258721 4291306514
0.01996582 -0.0061403317 -0.012072947 4291437074
0.022215128 -0.0077000363 -0.010887635 4290455834
0.02483242 -0.010858025 -0.0084187109 4289473828
0.027652621 -0.014814746 -0.005308954 4286334013
-0.01298859 -0.0042977128 -0.014715932 4289277224
-0.010972582 -0.0050629526 -0.014172641 4289735459
-0.0092159472 -0.0042231735 -0.014915301 4290520859
-0.0074649043 -0.0033833738 -0.015657568 4290128158
-0.0057194307 -0.002543591 -0.016399473 4289081384
-0.0036985278 -0.0033083241 -0.015856136 4289539618
-0.0016723052 -0.0040728543 -0.015313007 4290324764
0.00050514936 -0.0056393389 -0.014127873 4290324763
0.0025446713 -0.0064034141 -0.013585306 4290259228
0.0047408715 -0.0079693012 -0.012401067 4290128414
0.0066395625 -0.0079309354 -0.012500774 4290128413
0.0082244202 -0.0062886337 -0.01388356 4289801504
0.0099577904 -0.0054483376 -0.014624267 4289801504
0.011847846 -0.0054098517 -0.014723301 4289408803
0.013902716 -0.0061730538 -0.014181123 4289408804
0.015795141 -0.0061343815 -0.01428018 4289670433
0.017857827 -0.0068972404 -0.013738275 4290193948
0.019925781 -0.0076599219 -0.013196592 4290651674
0.022174872 -0.0092239883 -0.0120145 4289669923
0.024791837 -0.012390723 -0.0095520364 4289211688
-0.013026349 -0.0058059823 -0.015831342 4289081383
-0.011140104 -0.005768762 -0.015931057 4289932319
-0.009253975 -0.0057314718 -0.016030714 4290586139
-0.0076380111 -0.0040849745 -0.017412487 4290716954
-0.005895339 -0.003243098 -0.018152652 4291175188
-0.0040177852 -0.0032056384 -0.018251603 4291175188
-0.0018540174 -0.0047768336 -0.017069111 4291109653
0.00032047927 -0.006347707 -0.015887104 4290586393
0.0023571178 -0.0071140607 -0.015345957 4289932319
0.0042476803 -0.0070759603 -0.015445312 4289735969
0.0061381012 -0.0070377546 -0.015544578 4289997598
0.0077148005 -0.005391242 -0.016923767 4290324763
0.0095994622 -0.0053529721 -0.017022597 4291306259
0.011483945 -0.0053146211 -0.017121356 4291175699
0.013698168 -0.0068841246 -0.01594094 4290063133
0.015755445 -0.0076493793 -0.015400445 4289932319
0.017817967 -0.0084144436 -0.014860164 4289866784
0.019885764 -0.0091793071 -0.014320089 4289931554
0.022310443 -0.011551466 -0.012502258 4289604388
0.025108323 -0.01553051 -0.0094075389 4287641654
0.027751952 -0.018705316 -0.0069528595 4286332484
-0.013064094 -0.0073140613 -0.01694661 4289343269
-0.011437006 -0.0056632459 -0.018325936 4289343524
-0.0092919804 -0.0072395667 -0.017145976 4289277479
-0.0078109913 -0.0047820341 -0.019164052 4289669923
-0.0057957545 -0.0055513456 -0.018623725 4290455068
-0.0040559992 -0.0047072591 -0.019362055 4290781978
-0.0017493442 -0.0070893611 -0.0175437 4290586394
0.00013595819 -0.0070515708 -0.01764293 4290259228
0.002169691 -0.0078201089 -0.017103279 4290128413
0.0039061382 -0.0069756978 -0.017841145 4289932319
0.0056369901 -0.0061313026 -0.018578645 4290193949
0.007048808 -0.0036743376 -0.020592544 4290979094
0.0090819299 -0.0044425745 -0.020052556 4290782744
0.011120327 -0.0052105868 -0.019512828 4290259739
0.013658643 -0.0083967485 -0.017059458 4291306259
0.015548155 -0.0083581638 -0.017158384 4289474339
0.017778121 -0.0099314675 -0.015981922 4289866529
0.020018816 -0.011504544 -0.014805941 4289669413
0.022797436 -0.015494935 -0.011718335 4289015083
-0.014863905 -0.0096681099 -0.017323442 4287445303
-0.012975071 -0.0096309744 -0.017423395 4288623914
-0.011215828 -0.0087847561 -0.018161457 4288754984
-0.0093299672 -0.0087474454 -0.018261082 4288820264
-0.0078489445 -0.0062833996 -0.02027433 4288623403
-0.0061091408 -0.0054372177 -0.021011181 4289473829
-0.004374899 -0.0045910496 -0.021747597 4289735203
-0.002073966 -0.0069798627 -0.019933756 4289931554
-0.00019421428 -0.006942207 -0.020032711 4289932319
0.0016853958 -0.0069044349 -0.020131569 4289997599
0.003564842 -0.0068665696 -0.020230349 4289932063
0.0054441541 -0.0068286345 -0.020329066 4290520859
0.0068532974 -0.004365216 -0.022338003 4289277989
0.0087241381 -0.0043272655 -0.022436138 4289932063
0.01075694 -0.0050975801 -0.021897743 4290128413
0.013124667 -0.0074843112 -0.02008687 4290717208
0.015005916 -0.0074458988 -0.020185363 4289147174
0.017397776 -0.0098319585 -0.01837562 4290062368
0.019978784 -0.013025738 -0.015930776 4290061603
0.022932738 -0.017835099 -0.012215476 4286202433
-0.014529631 -0.013611797 -0.016529374 4287772468
-0.012632772 -0.013574506 -0.016629754 4288492843
-0.010994844 -0.011914805 -0.018003223 4288427308
-0.009235803 -0.011066254 -0.018739618 4288296748
-0.0078868717 -0.0077845966 -0.021384485 4288493099
-0.0060095713 -0.007747272 -0.021483522 4289016359
-0.004412964 -0.0060879271 -0.02285454 4289277478
-0.0023983419 -0.0068614166 -0.02231727 4289081128
-0.00066990405 -0.0060130302 -0.023051647 4289343269
0.0012014285 -0.0059754541 -0.023150094 4289800993
0.0030726194 -0.0059377849 -0.02324846 4289735713
0.0049436539 -0.0059000459 -0.023346763 4290913559
0.0063447207 -0.0034302939 -0.025350388 4290521114
0.00788863 -0.0017713765 -0.026718168 4289343268
0.0099076629 -0.0025441535 -0.026180666 4289539619
0.012426279 -0.0057481593 -0.023739193 4290063134
0.01463154 -0.0073308377 -0.022567937 4290324253
0.017358102 -0.011344275 -0.0194939 4289669414
0.019938774 -0.014546775 -0.017055498 4288295473
-0.014071755 -0.018381808 -0.015109571 4287838004
-0.012290768 -0.017530939 -0.015845653 4288100144
-0.010644715 -0.015866673 -0.017216362 4288427308
-0.0090096444 -0.014202569 -0.018586375 4288165678
-0.0075204 -0.011725301 -0.020590454 4288427308
-0.0059100762 -0.010061472 -0.021959001 4288231214
-0.0044510216 -0.0075846002 -0.023961335 4288165933
-0.0025795326 -0.0075472128 -0.024059929 4288231469
-0.00085385144 -0.0066967332 -0.024792571 4288754473
0.0010146499 -0.0066592307 -0.024890879 4288950568
0.0028829873 -0.0066216481 -0.024989117 4289473829
0.0045973584 -0.005771108 -0.025720948 4289735714
0.0063061491 -0.0049205944 -0.026452426 4290651674
0.0076908022 -0.0024445755 -0.028450366 4291306259
0.0095449686 -0.002406911 -0.028547589 4291044374
0.011728406 -0.0039944453 -0.027378537 4290847769
0.014257424 -0.0072068875 -0.024944015 4290128159
0.017148316 -0.012043861 -0.021244926 4288361008
0.020071678 -0.016880121 -0.017547425 4286464063
0.022500731 -0.019278327 -0.015749268 4286333249
-0.01410972 -0.019906461 -0.01623711 4287445303
-0.012075663 -0.020684583 -0.015704585 4287838258
-0.010424178 -0.019015923 -0.017072329 4288165678
-0.0087836981 -0.01734734 -0.018439462 4288296749
-0.0072889589 -0.014863509 -0.020438971 4288296238
-0.0056732222 -0.013195189 -0.021804629 4288165679
-0.0040684789 -0.011527053 -0.023169609 4288231214
-0.0021889582 -0.011489546 -0.023268659 4288231469
-0.00060082227 -0.0098214913 -0.024632651 4288754984
0.0011246651 -0.0089687519 -0.025363602 4289408803
0.0026935041 -0.0073009604 -0.026726412 4289670178
0.0044051036 -0.0064483141 -0.027456496 4289015849
0.0059546083 -0.0047806874 -0.028818199 4289212198
0.0076523274 -0.0039281463 -0.029547423 4289997853
0.0096683204 -0.0047053946 -0.029013032 4290128669
0.011854276 -0.006297302 -0.027847314 4289800994
0.014553055 -0.010333158 -0.024788018 4289604389
0.017448954 -0.015183081 -0.021098863 4288426288
-0.014271468 -0.020613151 -0.017996568 4287642163
-0.012493361 -0.019758008 -0.01872929 4287969839
-0.010591574 -0.019720569 -0.018829893 4288230703
-0.0088218637 -0.018865339 -0.019562056 4288230704
-0.0069230385 -0.018827738 -0.019662339 4288492333
-0.0054365471 -0.016337469 -0.021656519 4288165423
-0.0036862642 -0.015482322 -0.022387434 4288492844
-0.0017986968 -0.015444659 -0.022486912 4288558123
-5.6825578e-05 -0.014589556 -0.023217216 4288885799
0.0013829023 -0.012099812 -0.02520863 4289147429
0.0029571652 -0.010427528 -0.026568551 4288820264
0.0045204312 -0.0087554296 -0.027927794 4288820264
0.006229125 -0.0079006199 -0.028656077 4288754473
0.0077730343 -0.0062286882 -0.030014211 4288362028
0.0099534988 -0.0078251604 -0.028851505 4289081384
0.011980064 -0.00860429 -0.028319223 4289669924
0.0148485 -0.013467934 -0.024638385 4289145899
-0.012784254 -0.019638076 -0.021113962 4287837748
-0.010888033 -0.019600762 -0.021214282 4288165424
-0.0089919232 -0.019563366 -0.021314532 4288492589
-0.0070959404 -0.019525839 -0.021414679 4288492333
-0.005337432 -0.01866851 -0.022144455 4288492333
-0.0034444109 -0.018630868 -0.022244317 4288427308
-0.0015515238 -0.018593121 -0.02234409 4288820009
-9.5300376e-05 -0.016096618 -0.024331681 4288623658
0.0014927015 -0.014419873 -0.025689151 4288558123
0.0032206401 -0.013562684 -0.026416969 4288689449
0.0047893301 -0.011886094 -0.027773323 4289081893
0.0065034181 -0.011029021 -0.028500292 4289016613
0.0078936964 -0.0085334089 -0.030484093 4288820264
0.0099148229 -0.0093149832 -0.029953182 4289015593
0.012270309 -0.011734633 -0.028165955 4288164914
0.015143745 -0.016611239 -0.024495061 4286398529
-0.01131339 -0.01865009 -0.024220683 4287053114
-0.009293694 -0.019434888 -0.023692064 4287968819
-0.0071341284 -0.021041371 -0.022535443 4288492334
-0.0053756908 -0.020181889 -0.023263622 4288753963
-0.0034827814 -0.020144273 -0.023363493 4289146663
-0.0017327592 -0.019284761 -0.02409108 4288361774
1.1697412e-05 -0.018425254 -0.024818368 4288362028
0.0014542714 -0.015922468 -0.026800308 4288623914
0.0036348253 -0.017527977 -0.025644382 4288427564
0.00505808 -0.015025394 -0.027625168 4289408804
0.0069338679 -0.014987569 -0.02772373 4288885288
0.0078552216 -0.010020907 -0.031584058 4288361519
0.0098761916 -0.010804687 -0.031054769 4288426289
0.012231402 -0.013230878 -0.029272374 4287903029
-0.0074413344 -0.02090849 -0.024909342 4287249464
-0.00527668 -0.022519145 -0.023756158 4288295729
-0.0035211295 -0.021657499 -0.024482537 4288361264
-0.0017711669 -0.020795833 -0.025208523 4288100144
-2.6762486e-05 -0.019934172 -0.025934212 4288427819
0.0017120838 -0.019072572 -0.026659496 4289016869
0.0037470311 -0.01985858 -0.026132878 4289213219
0.0051730573 -0.017349433 -0.028108986 4288754473
0.0067389011 -0.01566419 -0.029458733 4288296493
0.00813476 -0.013155524 -0.031433158 4288165423
0.0099992901 -0.01311777 -0.031531014 4287968564
0.012521401 -0.016374048 -0.029128522 4286660413
-0.0038392693 -0.021518156 -0.026850982 4286857274
-0.0019521713 -0.021480609 -0.026950512 4287903538
-6.519258e-05 -0.021442955 -0.027049957 4288362029
0.0016735941 -0.020579215 -0.027773652 4288885799
0.0035575926 -0.020541459 -0.027872819 4288754473
0.0052879602 -0.019677702 -0.028595934 4288165934
0.0070127621 -0.01881397 -0.029318692 4288231214
0.0085730478 -0.017124433 -0.03066488 4287969073
0.010283984 -0.016260831 -0.0313868 4287706934
0.01231809 -0.017048616 -0.030861439 4286725693
0.014357507 -0.017836291 -0.030336283 4287511094
0.0013391376 -0.020429352 -0.030133124 4287903794
0.0032176003 -0.020391744 -0.030232027 4287772978
0.0050959215 -0.020354029 -0.030330844 4288100653
0.0068179518 -0.019488206 -0.031051863 4288035118
0.0086933002 -0.019450402 -0.031150412 4287904303
0.010406904 -0.018584538 -0.031870905 4287772979
0.0027271807 -0.019402821 -0.033205684 4286268224
0.0049040243 -0.021025866 -0.032062434 4288100143
0.0069355071 -0.021818353 -0.031540383 4288361773
0.0088134706 -0.021780539 -0.031639099 4288165423
0.010368213 -0.020082396 -0.032978535 4288165424
0.0081397295 -0.019953249 -0.035225537 4287314743
0.0096836388 -0.018251086 -0.036561184 4286790719
0.0063923448 0.016279992 0.041612368 4281630794
0.0083740279 0.016319498 0.041507903 4281173834
0.003646031 0.018344954 0.037095416 4281568318
0.0069809109 0.021378666 0.034132663 4279481908
0.010008879 0.016246442 0.038850214 4279676474
0.0012116656 0.018950328 0.033968665 4281567809
0.0025925264 0.021953739 0.031115327 4280721974
0.0043939501 0.022733606 0.030325234 4281567553
0.0063399673 0.022772443 0.030222684 4281828164
0.0085917041 0.021329489 0.031494293 4279938358
0.011165492 0.018405009 0.034139238 4280785213
0.01423613 0.013258508 0.038843405 4281306943
0.017022401 0.0095944637 0.042172387 4281501510
-0.001066722 0.018826082 0.031537138 4282023494
0.00031990558 0.021838225 0.028689962 4280785724
0.0021187365 0.022620186 0.027901523 4279678513
0.003911905 0.02340211 0.027113508 4279091503
0.0058496222 0.023440816 0.027011421 4280459323
0.0077871308 0.023479611 0.026909415 4280330038
0.012294918 0.02058534 0.029446222 4281111869
0.014725931 0.018395673 0.031398889 4280850494
0.017500684 0.014720594 0.034720473 4280915773
0.020302415 0.01104617 0.03804072 4281176638
0.022454143 0.010343608 0.038621306 4281959489
0.024095103 0.0118695 0.037148453 4281633344
0.026773147 0.0089391088 0.039781906 4282023493
-0.0026514158 0.014982817 0.032535158 4282608209
-0.0020807981 0.022477649 0.025586173 4280915264
-0.00042927265 0.024007156 0.024115209 4280915264
0.0016452447 0.023300003 0.024697684 4280915773
0.0034301579 0.024084006 0.023911692 4279614763
0.0055097342 0.023377169 0.024494059 4279877924
0.0096845552 0.021964155 0.025658071 4280003893
0.011621505 0.022003159 0.025556251 4280785214
0.014041334 0.019806746 0.027504683 4280850238
0.01598601 0.019846093 0.027402595 4280916538
0.018096931 0.019140478 0.02798368 4281308218
0.021818675 0.019964624 0.027096801 4280396084
0.024286345 0.017769657 0.029043 4279157039
0.028366432 0.0088715712 0.037131183 4280850749
-0.0036460981 0.018643759 0.026589829 4281108298
-0.0023982823 0.022421207 0.023072563 4280980799
-0.00061029941 0.023207247 0.022287957 4280784449
0.0014612973 0.022497926 0.022868942 4281174853
0.003390789 0.022536434 0.022767261 4280587333
0.0053200945 0.022575013 0.022665646 4280784194
0.007249184 0.022613697 0.022564121 4280457539
0.0093336031 0.021904971 0.023144759 4280653889
0.011423245 0.021196496 0.023725159 4280654398
0.01367908 0.019740894 0.02498712 4280849984
0.015618198 0.019780152 0.024885342 4280524094
0.017224267 0.02131395 0.023420703 4280785724
0.018988349 0.022100449 0.022638045 4280980799
0.020746738 0.022886943 0.021855697 4280918323
0.023547001 0.019190915 0.025160108 4278898724
0.026551537 0.014748561 0.029144026 4281438013
0.030848727 0.0050781826 0.037891682 4281698368
-0.0042308494 0.020085551 0.02271165 4280392768
-0.00079123676 0.022411983 0.020464139 4278572068
0.0030568019 0.022488713 0.020261303 4280914244
0.0051305518 0.021777477 0.020840727 4280523074
0.0070568025 0.021816131 0.020739375 4280588609
0.0091383159 0.021105226 0.021318518 4280849729
0.011225067 0.020394497 0.021897513 4280915264
0.013317041 0.019684006 0.02247626 4280849984
0.015086964 0.020472657 0.021694802 4280524604
0.01668486 0.02201074 0.020233816 4279156783
0.018440716 0.022799265 0.01945322 4280785980
0.020362712 0.02283847 0.019352561 4281371458
0.022982605 0.019880719 0.021969728 4281177149
0.02544678 0.017672673 0.02390654 4280656183
0.029366829 0.0094719203 0.031275764 4280979778
0.033529192 0.00052334182 0.039320972 4280848454
-0.0060689449 0.017745793 0.022347994 4281110338
-0.0045425072 0.020040695 0.020206235 4280915264
-0.0027544871 0.020831019 0.019424804 4281175874
-0.00083030015 0.020869266 0.019323286 4281175618
0.00094918162 0.02165965 0.01854247 4278830129
0.0030174926 0.020946041 0.019120499 4280784958
0.004791148 0.021736491 0.018340131 4280980543
0.0068645105 0.021023192 0.018918047 4280915518
0.0086322948 0.021813717 0.018138131 4280785468
0.010710701 0.021100685 0.018715907 4280980799
0.012311749 0.022643015 0.017257925 4281176383
0.014228866 0.022681877 0.017157344 4281046334
0.015979446 0.02347248 0.01637857 4278375209
0.018231474 0.022008322 0.017634518 4278375973
0.019978888 0.022798993 0.01685608 4279356704
0.022418521 0.020583879 0.01878923 4278504748
0.02487427 0.018369146 0.020721652 4279936828
0.028965332 0.0093928548 0.028751131 4280848453
0.03366936 -0.0018358175 0.038809415 4280913733
-0.0083050244 0.017665416 0.019946134 4280651083
-0.0067756474 0.019966822 0.017809073 4279418158
-0.0051265433 0.021513626 0.016351091 4280262973
-0.003349483 0.022305962 0.015571885 4281631813
-0.0014363229 0.022344001 0.015470959 4281435973
0.00062110275 0.021627907 0.016047886 4280980033
0.0026837885 0.020911995 0.016624663 4280394553
0.0046018437 0.020950422 0.016523691 4280981053
0.0066723078 0.020234898 0.017100161 4280980799
0.0082819387 0.02178162 0.015644781 4281111358
0.0098804832 0.023328174 0.014190104 4281111103
0.011467934 0.024874605 0.012736084 4281046333
0.013371319 0.024913222 0.012636246 4281436994
0.015606984 0.023444366 0.013889741 4281306689
0.017684363 0.022729531 0.014466252 4281176129
0.019938648 0.021261167 0.015718926 4280719168
0.022203587 0.019793142 0.016971065 4280392769
0.025187738 0.015311155 0.02092698 4280717893
0.029283457 0.0063087726 0.028936803 4281239369
0.034174554 -0.0057059769 0.039646383 4281304649
-0.010145742 0.015324085 0.01958156 4280582490
-0.0088668317 0.019145537 0.016094891 4280785214
-0.0072148293 0.020696703 0.014639948 4280786234
-0.005573906 0.022247706 0.013185708 4278504494
-0.0038051084 0.023042072 0.012408566 4279025203
0.0024974123 0.020130634 0.014811443 4280524859
0.0041129068 0.021681625 0.013358908 4281046844
0.0061750337 0.020963777 0.013934212 4281111613
0.0077764988 0.022514693 0.012482574 4281046334
0.0095249042 0.023309328 0.01170701 4279613488
0.015234724 0.023425221 0.01140755 4281241153
0.017306499 0.022708118 0.011982758 4281110593
0.019555092 0.021235354 0.013232481 4280784448
0.022163101 0.018251225 0.015830901 4280717129
0.025678046 0.011488863 0.021800503 4280781134
0.03032054 0.00019339193 0.031813432 4280846414
0.034861892 -0.010344679 0.041148026 4282411859
-0.010312378 0.014534538 0.017760944 4278425954
-0.009036053 0.018366873 0.014282515 4280849729
-0.0072533451 0.019163504 0.013506109 4281370948
-0.0056124404 0.020718899 0.012055127 4281502784
-0.0041215047 0.023032911 0.0099299252 4280719679
-0.0020806044 0.02231206 0.010504436 4279807543
-0.00017878413 0.022350013 0.010404214 4280589373
0.0020169988 0.020870943 0.011652909 4280849983
0.003774114 0.021667678 0.01087831 4280915263
0.0058306083 0.020947549 0.011452304 4280981054
0.0075818598 0.02174437 0.010678165 4280851259
0.017097674 0.021937616 0.010179169 4280718659
0.019514933 0.019702401 0.012098938 4280457284
0.022471189 0.015193597 0.016036857 4280717129
0.02652204 0.0061378712 0.02401017 4280716873
0.030817695 -0.0036742976 0.032652836 4281693523
-0.010095082 0.011466251 0.017965207 4278361184
-0.0088131689 0.015309648 0.014494596 4278628168
-0.0071584843 0.016869612 0.013045995 4278370363
-0.0053787529 0.017668497 0.012271462 4280914499
-0.0037434846 0.019228246 0.01082409 4281567553
-0.0018361509 0.019266229 0.010723514 4280784448
-7.3306262e-05 0.020065077 0.0099500939 4280588609
0.001830928 0.020103205 0.0098498389 4280914753
0.0032857656 0.022423465 0.0077317059 4280719679
0.0051814467 0.022461619 0.0076320451 4280850494
0.0072321221 0.021739304 0.0082048103 4279873334
0.0091301426 0.021777678 0.0081051588 4281436993
0.011027955 0.021816138 0.0080055781 4281827909
0.012762211 0.022615094 0.007234171 4281436483
0.01482296 0.021893337 0.0078066736 4280850239
0.016888954 0.021171786 0.0083789751 4280392514
0.019474745 0.018169723 0.010965599 4280784704
0.022953294 0.011367292 0.016907955 4280784194
0.027188465 0.0015254477 0.025532704 4281305668
0.031134769 -0.0067947106 0.032811653 4283000654
-0.010133803 0.0099161295 0.016818842 4278948704
-0.0087211281 0.013007215 0.014028341 4279932748
-0.0069304034 0.01380838 0.01325476 4279867979
-0.0048731789 0.013083343 0.013825065 4279608644
-0.0030882359 0.01388462 0.013051957 4280522818
-0.0014504492 0.015448951 0.011607733 4280587844
0.00017627329 0.017013125 0.010164211 4281435973
0.0019388795 0.017814279 0.0093925167 4280588098
0.0035461634 0.019378301 0.0079501271 4280457029
0.0049899593 0.021704953 0.0058375467 4280653634
0.007037729 0.020980414 0.0064088646 4279352115
0.0087750629 0.021781437 0.0056387801 4279941419
0.010827884 0.021057192 0.006209977 4280397614
0.012722664 0.021095704 0.0061106402 4279939124
0.014783248 0.020371791 0.0066815559 4279743794
0.017017826 0.018885568 0.0079223271 4280718403
0.019948922 0.01435002 0.011842124 4281044549
0.023609206 0.0067657782 0.018439287 4281438523
0.027500577 -0.0015795622 0.025703277 4283925539
-0.0086292215 0.0107007 0.013559068 4279472729
-0.0067025609 0.010738776 0.013457257 4279736908
-0.0046400726 0.01001165 0.014025664 4279803208
-0.0028497577 0.010815228 0.013253897 4280067133
-0.0010650679 0.011618822 0.012482522 4280588098
0.00056981295 0.013187521 0.011041807 4279350074
0.0021936074 0.014756165 0.0096017234 4279611193
0.0038063303 0.016324647 0.008162342 4280067134
0.0052556023 0.018658001 0.0060542915 4280783938
0.0071535781 0.01869633 0.0059546046 4280784703
0.0087357759 0.020264484 0.0045170374 4279677748
0.010627925 0.020302862 0.0044177808 4278374954
0.012356609 0.021106139 0.0036498765 4278700589
0.014577553 0.019615214 0.0048880847 4279675963
0.017146572 0.016595285 0.0074625984 4280979013
0.020422734 0.010517531 0.012709122 4280978758
0.024264649 0.0021470496 0.019957891 4282092088
-0.010083489 0.0060490603 0.015195662 4279275614
-0.0084069148 0.0076224459 0.013755605 4279472474
-0.0066081733 0.00842823 0.012984835 4279867469
-0.0046791062 0.0084664812 0.012882991 4280259658
-0.0027501881 0.0085048126 0.012781218 4279999814
-0.00096284598 0.0093106469 0.012011325 4280130884
0.00067473948 0.010883789 0.010573719 4279934533
0.002154395 0.013224139 0.0084688012 4280784194
0.0039166808 0.014029778 0.0077004526 4281175618
0.0055210292 0.01560255 0.006264817 4281962549
0.0074243471 0.015640978 0.0061648432 4281372733
0.008696489 0.018747758 0.0033954624 4281697093
0.010588512 0.018786158 0.0032962319 4281305669
0.012317151 0.019591637 0.0025299629 4280717383
0.01486969 0.016562589 0.0050988309 4280586314
0.017781064 0.012000346 0.0090002473 4281108298
0.021238916 0.0051385658 0.014900012 4282873663
-0.010122288 0.0044975849 0.014048299 4279798364
-0.0085761882 0.0068451585 0.011944253 4279602778
-0.0067802481 0.007653038 0.011175295 4279868489
-0.0048540309 0.007691239 0.011073606 4279998283
-0.0029279813 0.0077295424 0.010972008 4279935299
-0.0011434332 0.0085375039 0.010203881 4279738949
0.00049140304 0.01011498 0.0087696724 4280456773
0.0022619665 0.010922908 0.0080023892 4280652868
0.0040269122 0.011730795 0.0072355289 4281046843
0.0059384555 0.011769318 0.0071350727 4281569849
0.0078498274 0.011807921 0.0070346855 4281376048
0.009287931 0.014154344 0.0049371487 4280919088
0.010869913 0.015731376 0.0035061045 4279939123
0.012603946 0.016539104 0.002741213 4281175109
0.015161589 0.013501431 0.0053033447 4281239368
0.018246517 0.0081572803 0.0098599698 4281566788
-0.0087453648 0.0060724737 0.010136379 4278883933
-0.0068191104 0.0061105778 0.010034619 4279477064
-0.0050288588 0.006920631 0.0092676543 4279804738
-0.0029670894 0.0061870879 0.0098313522 4279802699
-0.001323916 0.0077689877 0.0083998609 4279803719
0.00045219064 0.0085790725 0.0076338761 4280456519
0.002222687 0.009389217 0.0068682395 4280914754
0.0041370243 0.0094277048 0.0067675691 4280980033
0.0058989897 0.010237825 0.006002564 4281242684
0.0078102276 0.010276451 0.0059022028 4281635638
0.0094060302 0.011857993 0.0044736443 4281505334
0.01115109 0.012668041 0.0037097279 4281180973
0.013053574 0.012706784 0.0036100456 4281311023
0.015619032 0.0096606063 0.0061652679 4281897268
0.018880136 0.003530127 0.011373805 4282680628
-0.005067803 0.0053806202 0.0081288014 4279209058
-0.0030062348 0.004644922 0.0086909104 4279930963
-0.0012218356 0.0054572513 0.0079260319 4280062034
0.0005569458 0.00626959 0.0071615372 4280847433
0.0024767667 0.0063081058 0.0070605166 4281110594
0.0043964237 0.0063467147 0.0069595743 4281569084
0.0061637759 0.0071591334 0.0061959121 4281634363
0.0079254806 0.0079715727 0.0054325704 4281506354
0.0096815601 0.0087839467 0.0046696346 4281571635
0.011592306 0.0088227568 0.0045694411 4281897778
0.013502836 0.0088616693 0.0044693407 4281897778
0.016241863 0.0050334772 0.0076798443 4282484789
0.019176379 0.00043250713 0.011550995 4283791153
-0.0031838119 0.0038791494 0.0068887286 4278622049
-0.001261048 0.0039175274 0.0067874044 4279669333
0.00094935298 0.0024039159 0.0080094337 4280848453
0.0028772354 0.00244259 0.0079079848 4281242174
0.0046555921 0.0032573016 0.0071452782 4281570104
0.0061241686 0.005623796 0.0050605629 4281635129
0.0078858137 0.0064384127 0.0042988388 4281832244
0.0096418411 0.0072529772 0.003537531 4281440308
0.011552468 0.0072917948 0.0034373542 4281571123
0.013625845 0.0065550497 0.0039978931 4281962804
0.01653289 0.0019403594 0.0078607276 4282941238
0.019472361 -0.0026735226 0.011721898 4284313903
0.00090990961 0.00086008105 0.0068677757 4282415939
0.0029842407 0.00012054015 0.0074262526 4282940473
0.0046159402 0.0017156778 0.0060052723 4283071033
0.0063886046 0.0025325613 0.0052445624 4282811443
0.008155629 0.0033494318 0.0044842195 4282094894
0.010074489 0.0033883369 0.0043835528 4282028084
0.011832975 0.0042052446 0.0036238134 4281766964
0.014074534 0.0026885765 0.004841473 4282222393
0.016658038 -0.00038340222 0.0073764287 4283660848
0.0065008402 0.00021313317 0.0047643436 4283726384
0.0082705393 0.0010322277 0.0040054703 4283334449
0.010034591 0.0018513417 0.0032469938 4282486064
0.011793025 0.0026704138 0.0024888655 4282159153
0.014034353 0.0011493973 0.0037033139 4282681393
0.016617507 -0.0019312939 0.0062318388 4283922989
0.012393333 -0.0019932296 0.0039778212 4283790898
0.014319748 -0.0019539725 0.0038769031 4284051508
-0.010910977 0.0034907488 0.040780012 4278930854
-0.0041190386 0.010378559 0.034207769 4280245123
-0.013069741 0.0026000226 0.039018918 4278997154
-0.009202566 0.0034281714 0.03812512 4278798764
-0.0072092153 0.0034672236 0.038019534 4279718039
-0.0058707297 0.0072570508 0.034505397 4278278308
-0.015340097 0.0024667578 0.036580164 4279127969
-0.013709061 0.0047630025 0.034432415 4278865828
-0.017026849 -0.0014313357 0.037544429 4280504204
-0.015848074 0.0038908226 0.032683667 4278931363
-0.01410801 0.0054387422 0.031220447 4278866339
-0.012133695 0.0054772133 0.031115714 4278406829
-0.018953536 -0.003828316 0.037144341 4281946229
-0.01241805 0.0054093162 0.028591458 4279062178
-0.011076111 0.0092318309 0.025101244 4278932128
-0.021103453 -0.0047108075 0.035388757 4281225853
-0.019774124 -0.00011682417 0.031224735 4279193249
-0.011365585 0.0091837766 0.022592038 4279389344
-0.023459908 -0.0040653283 0.032286476 4282536809
-0.022122107 0.00054181181 0.02813163 4279521178
-0.01874489 0.0044249585 0.024549067 4279257253
-0.016784333 0.0044629937 0.024444941 4279848088
-0.014704168 0.0037398869 0.025015131 4279782044
-0.012618691 0.0030169925 0.025585126 4279191464
-0.011153996 0.0061001377 0.022785228 4279389854
-0.024241082 -0.00031320937 0.026394319 4278800038
-0.02270459 0.0027793599 0.023596562 4278669223
-0.017056946 0.0044202013 0.021938421 4278991543
-0.015221845 0.0052217199 0.021162104 4278861239
-0.011318114 0.0052980548 0.020955218 4279523473
-0.026147738 -0.0026952578 0.026003946 4281944699
-0.024809476 0.0019379752 0.021868411 4278866085
-0.023069058 0.0035073673 0.020421011 4278668969
-0.021116715 0.00354503 0.020317161 4278930599
-0.017563205 0.0059177568 0.018096352 4278269638
-0.013431061 0.0044624424 0.019231889 4279454624
-0.011732344 0.0060316483 0.017787242 4278606494
-0.027011871 0.0018696254 0.019473189 4279980178
-0.023324519 0.0034806868 0.01792535 4278341549
-0.021377772 0.0035182377 0.017821794 4278866083
-0.019545309 0.0043238597 0.0170487 4278866083
-0.017601546 0.0043615969 0.016945483 4279127458
-0.015777528 0.0051673194 0.016172959 4278407084
-0.01371444 0.0044374401 0.016739355 4278669478
-0.02880111 -0.0012709005 0.019759333 4279980179
-0.021749996 0.0042706849 0.014664879 4278861238
-0.019811705 0.0043082153 0.014561882 4278603689
-0.017990362 0.0051159142 0.013791075 4278538409
-0.016055059 0.005153616 0.013688406 4278407084
-0.013997622 0.004421507 0.014253458 4278997663
-0.03089432 -0.0021021254 0.018037846 4282143343
-0.029441312 0.0017979024 0.014597664 4278865574
-0.027809378 0.0041524945 0.012493102 4278864043
-0.025876332 0.0041895704 0.01239012 4278667438
-0.02405199 0.0049992027 0.011620471 4278273719
-0.022010572 0.0042641005 0.01218446 4278534073
-0.020077884 0.0043015303 0.012081763 4278406318
-0.018028546 0.0035668565 0.012645461 4278734503
-0.016093388 0.0036045806 0.012542818 4278538154
-0.014158368 0.0036423979 0.012440255 4278866339
-0.032886863 -0.0037033428 0.01698547 4282732903
-0.031615276 0.0017572725 0.012221145 4278865829
-0.026125509 0.0041922415 0.0099157169 4279847578
-0.024415247 0.0057784887 0.00848292 4279978903
-0.022493482 0.0058155907 0.0083807185 4278667184
-0.020457849 0.0050783614 0.008943446 4278339763
-0.018416885 0.0043413574 0.0095059816 4278996644
-0.016370606 0.0036045564 0.010068312 4278472363
-0.01276166 0.0052286079 0.0085353889 4278733994
-0.010965589 0.0060406448 0.0077695046 4279127204
-0.0091751032 0.0068526873 0.0070040021 4279197073
-0.033493347 -0.00060504768 0.011843465 4279914388
-0.032042746 0.0033166269 0.0084194914 4278669223
-0.030218273 0.0041302154 0.0076528378 4278340273
-0.024452742 0.00424089 0.0073457509 4278401219
-0.020723563 0.0050918711 0.0064782668 4278668714
-0.018688235 0.0043525761 0.0070394855 4278669224
-0.016528223 0.002836966 0.0082634296 4278603179
-0.01472377 0.0036511375 0.0074985623 4278603434
-0.0093439668 0.0060936688 0.0052061621 4279125419
-0.0071628504 0.0045789862 0.0064294469 4280570249
-0.035468854 -0.0021921927 0.010800371 4280438669
-0.034099214 0.0025197053 0.0067210272 4278800548
-0.032372285 0.0041145599 0.0052934093 4278866594
-0.030455839 0.0041510994 0.0051911511 4278866339
-0.028436497 0.0034086695 0.0057511982 4278538408
-0.023013383 0.005856202 0.0034595802 4278537899
-0.020875175 0.0043355925 0.004681292 4278538154
-0.018959384 0.004372851 0.0045796102 4278407339
-0.017043736 0.0044101896 0.0044779982 4278800039
-0.015250262 0.0052263206 0.0037153251 4278537134
-0.0074675269 0.0045986241 0.0039713625 4279387813
-0.0055527464 0.0046366425 0.0038703131 4278340273
-0.0034996942 0.0038963584 0.0044296766 4278735779
-0.0011591315 0.0015997784 0.0063091312 4278345118
-0.036333963 0.0032905275 0.0037034368 4278931364
-0.028679505 0.0034362832 0.0032948656 4278865573
-0.026871778 0.0042541539 0.0025325194 4278538154
-0.025069613 0.00507206 0.0017705727 4278603688
-0.02316191 0.0051089218 0.0016691433 4278407084
-0.021140505 0.0043648994 0.0022277972 4278472619
-0.019113757 0.003621093 0.0027862499 4278538409
-0.017320246 0.004439286 0.0020251004 4278669224
-0.013749968 0.0060757073 0.00050395913 4279126949
-0.011590861 0.0045517096 0.00172175 4279782809
-0.0095511675 0.003808721 0.0022799373 4279191973
-0.0075061843 0.0030659614 0.0028379327 4279322533
-0.0055915341 0.0031039631 0.0027368804 4279061414
-0.003677018 0.0031420859 0.0026359251 4279849109
-0.038016334 -0.0006268695 0.0046530934 4279849109
-0.036554333 0.0033274675 0.0012525627 4278275249
-0.029025156 0.0042561879 0.00018623099 4279453859
-0.02722571 0.0050761374 -0.00057409052 4278668714
-0.025431819 0.0058960738 -0.0013339734 4278668969
-0.023421388 0.0051495312 -0.00077644642 4278734759
-0.021291845 0.0036199866 0.00043930486 4278538154
-0.019268017 0.0028739618 0.00099631026 4278603434
-0.017477326 0.0036942968 0.00023693778 4278538154
-0.01391267 0.0053350097 -0.0012807166 4278401473
-0.011756528 0.0038065547 -6.5957196e-05 4278531779
-0.0097197518 0.0030613346 0.00049077161 4278401219
-0.0056303069 0.0015715258 0.0016036248 4279520414
-0.0034393519 4.4209883e-05 0.0028168811 4280240788
-0.040061008 -0.0014136685 0.0029613385 4281029249
-0.038498729 0.0017657978 0.00022624992 4278340528
-0.036958333 0.0049449904 -0.0025075618 4278799528
-0.035155889 0.005766659 -0.0032667378 4278472363
-0.033358984 0.0065883966 -0.0040255636 4279061158
-0.029267676 0.0043039108 -0.0022552274 4278930089
-0.027368229 0.0043403851 -0.0023563867 4278799784
-0.025468882 0.0043769674 -0.0024574613 4278734248
-0.02356964 0.0044136653 -0.0025584409 4278603688
-0.021784242 0.0052358462 -0.0033160886 4278735015
-0.019887958 0.0052727303 -0.0034167301 4278603944
-0.017872635 0.0045244703 -0.0028608078 4278669734
-0.01573009 0.0029911725 -0.0016487176 4278407083
-0.013950635 0.0038137222 -0.0024057627 4278927283
-0.011922088 0.003066021 -0.0018502437 4278269383
-0.010018289 0.0031036055 -0.0019508749 4278401983
-0.0077162758 0.00078633614 -8.4152445e-05 4279650718
-0.0058046058 0.00082429871 -0.00018503238 4279651993
-0.00334014 -0.0022772178 0.0023360634 4282332299
-0.04184882 -0.0045599639 0.0032430338 4282537063
-0.040529311 0.00099260081 -0.0014563752 4278735014
-0.035192106 0.0042521907 -0.0043868455 4279454624
-0.033492614 0.0058639506 -0.0058000796 4278537643
-0.029509984 0.0043605836 -0.0046899947 4278470833
-0.027405143 0.0028215582 -0.0034796791 4278602923
-0.025397725 0.0020704875 -0.002925308 4278800038
-0.023606852 0.0028948346 -0.0036817165 4278472619
-0.02193521 0.0045067305 -0.0050928961 4278276014
-0.018267624 0.0053679729 -0.0059486926 4278800549
-0.016133495 0.0038301544 -0.0047393856 4278931874
-0.013988614 0.0022927215 -0.003530595 4278931619
-0.012087539 0.0023301346 -0.0036311676 4279192483
-0.010316607 0.0031548897 -0.0043859272 4279062179
-0.0081530623 0.0016180901 -0.0031778514 4278996643
-0.042303175 -0.0021466557 -0.0011704052 4279914643
-0.040824361 0.001840421 -0.0045478069 4278866083
-0.039016515 0.002666316 -0.0053042131 4278735014
-0.029854786 0.0052161803 -0.0077723032 4278471853
-0.027652938 0.00288272 -0.00591075 4278406574
-0.025867499 0.0037090527 -0.0066653937 4278603688
-0.02386583 0.0029557804 -0.0061121895 4278734504
-0.020544522 0.0061880304 -0.0089268703 4278268873
-0.016414784 0.0038928939 -0.0071670981 4278732209
-0.014275581 0.0023509404 -0.0059611998 4278865574
-0.01238009 0.0023882436 -0.006061479 4278538154
-0.010614693 0.0032150792 -0.0068143234 4278669224
-0.0083241723 0.00088452175 -0.0049566762 4278865318
-0.042339079 -0.0036736783 -0.0022998396 4279980434
-0.040687539 -0.0012605451 -0.0043624071 4278276013
-0.038963377 0.00035998039 -0.0057707359 4279259038
-0.03715843 0.0011881115 -0.0065252911 4278932128
-0.035359014 0.0020163236 -0.0072794869 4278735268
-0.033759538 0.0044288961 -0.0093388809 4279127459
-0.03177676 0.0036726529 -0.0087866792 4279192994
-0.02999394 0.0045008687 -0.0095396787 4278603433
-0.027900513 0.0029528989 -0.0083352225 4278537899
-0.026120618 0.0037812768 -0.0090879034 4278537898
-0.0241246 0.0030257599 -0.0085360548 4278406573
-0.02069797 0.0054746056 -0.010691882 4279451053
-0.018818576 0.0055112606 -0.010791554 4279057333
-0.014437892 0.0016264496 -0.0077338153 4278799273
-0.012672447 0.0024553938 -0.0084851747 4278537899
-0.010652762 0.0017010802 -0.0079339584 4278865574
-0.042207904 -0.0067897458 -0.0021252539 4279455389
-0.040637169 -0.0035754312 -0.0048350068 4279128224
-0.038999327 -0.0011559092 -0.0068919151 4278735014
-0.0372862 0.00046894327 -0.0082963668 4278734758
-0.03539516 0.00050477684 -0.0083974339 4278996898
-0.033795681 0.0029238882 -0.010451982 4279390363
-0.032012872 0.0037541492 -0.011203463 4279193503
-0.0302356 0.0045844438 -0.011954621 4278800294
-0.028253198 0.0038262075 -0.011403798 4278800039
-0.026481573 0.0046566622 -0.012154454 4278864808
-0.022727951 0.0047293184 -0.012353935 4278931108
-0.020967532 0.0055598384 -0.013103714 4279259293
-0.01909373 0.0055963816 -0.013203092 4279389599
-0.016855005 0.0032512462 -0.011352679 4279126184
-0.014848884 0.0024943324 -0.01080255 4278405043
-0.012964554 0.0025314232 -0.010902232 4279061413
-0.010950521 0.0017748652 -0.010352374 4278728383
-0.04224389 -0.0083206259 -0.0032575415 4278865064
-0.040500693 -0.0066911285 -0.0046605049 4279193248
-0.038768459 -0.005061755 -0.0060628196 4279389854
-0.036863878 -0.0050257863 -0.0061647007 4279062434
-0.035242528 -0.0025997944 -0.0082157012 4278865829
-0.031949267 0.0014550528 -0.011665327 4278734759
-0.030169368 0.0022875378 -0.012414965 4278996899
-0.028395005 0.0031200899 -0.013164252 4278931109
-0.02641017 0.0023598252 -0.012615095 4278931364
-0.015010841 0.0017833756 -0.012565156 4279257253
-0.012875237 0.00022843946 -0.011368712 4279716254
-0.042279877 -0.0098512415 -0.0043896348 4278930599
-0.040536731 -0.0082174353 -0.0057894001 4279324319
-0.03880455 -0.0065836809 -0.0071884636 4279652248
-0.03699173 -0.0057488354 -0.0079386467 4279390109
-0.035184424 -0.0049140165 -0.0086884033 4279193248
-0.033479713 -0.003280431 -0.010085739 4278800293
-0.031785984 -0.0016468745 -0.011482428 4278603688
-0.028326232 0.00082124118 -0.013626206 4278799783
-0.026446834 0.0008574659 -0.013726197 4279389853
-0.024678208 0.0016922979 -0.014473408 4278931873
-0.022801746 0.0017286735 -0.01457309 4278275249
-0.017416127 0.0034350017 -0.016164934 4279061413
-0.015172683 0.0010770084 -0.01432437 4279192739
-0.042315856 -0.011381641 -0.005521568 4278799528
-0.040486656 -0.010544599 -0.0062711542 4279455388
-0.038751796 -0.0089064632 -0.0076671508 4279651994
-0.036844797 -0.0088704396 -0.0077691544 4279390109
-0.035032142 -0.0080333455 -0.0085175857 4279390109
-0.033419035 -0.0055943308 -0.010558376 4278930853
-0.031622894 -0.0047573177 -0.011305753 4279520413
-0.029934738 -0.0031193951 -0.01269883 4278734504
-0.024493698 -0.0014090221 -0.014291416 4278733993
-0.022725273 -0.00057194103 -0.015036872 4278801058
-0.021194525 0.0018662931 -0.017072681 4278932129
-0.019561451 0.0035037817 -0.018462289 4278931109
-0.017574828 0.0027398141 -0.017916072 4278931109
-0.044267036 -0.012947566 -0.0065505737 4282667623
-0.042351823 -0.01291179 -0.0066533163 4279913369
-0.040608782 -0.011269245 -0.0080465972 4279259039
-0.038876697 -0.0096268244 -0.00943923 4279586968
-0.037064083 -0.0087876366 -0.010186181 4279652503
-0.035162751 -0.0087515954 -0.010287789 4279455643
-0.033358447 -0.007912376 -0.011034081 4279193248
-0.031460006 -0.0078761587 -0.011135363 4279127714
-0.02976644 -0.0062338524 -0.012525482 4279389599
-0.027978748 -0.0053945361 -0.013270656 4278734504
-0.024530537 -0.002913109 -0.015403788 4278472364
-0.021115415 -0.00043183006 -0.017534871 4278472873
-0.019598383 0.0020127194 -0.019564999 4278669224
-0.017611947 0.0012465818 -0.019020379 4279520413
-0.015247643 -0.0019271038 -0.016546017 4281805723
-0.042471062 -0.013636157 -0.0084287468 4282210153
-0.040558785 -0.013600303 -0.0085312314 4280244359
-0.038646575 -0.01356433 -0.0086336248 4279194015
-0.03691734 -0.011917481 -0.010022784 4279259548
-0.035104886 -0.011076045 -0.010767983 4279063454
-0.033297967 -0.010234529 -0.011512823 4279325338
-0.031496562 -0.0093930634 -0.012257255 4279259039
