# .PCD v0.7 - Point Cloud Data file format
VERSION 0.7
FIELDS x y z rgba
SIZE 4 4 4 4
TYPE F F F U
COUNT 1 1 1 1
WIDTH 957
HEIGHT 1
VIEWPOINT 0 0 0 1 0 0 0
POINTS 957
DATA ascii
-0.002286084 0.0014819391 0.0054129036 4287772979
-0.00039473549 0.0015326068 0.0052715996 4287904048
0.0014964826 0.001583375 0.0051303869 4287773488
0.0035351254 0.00086418726 0.0056522153 4287838768
0.0054287687 0.00091523491 0.0055109775 4287773488
0.0076283067 -0.00057343021 0.0066949353 4287969584
0.010461558 -0.0051411651 0.010527626 4287772979
0.0136442 -0.011247378 0.015682241 4288099888
0.016547848 -0.015812997 0.019509843 4288492844
0.018828299 -0.017299045 0.020688092 4288820519
-0.050360408 0.0064807944 0.0011821566 4288164914
-0.048790652 0.0096244849 -0.0016269586 4289211688
-0.047089249 0.011219557 -0.0031010113 4289408038
-0.045319296 0.01204041 -0.0039076544 4290389279
-0.043390471 0.01131336 -0.0033812872 4290192928
-0.041371319 0.0098126233 -0.0021891664 4289015339
-0.039516538 0.0098599829 -0.002329472 4288884779
-0.037661791 0.0099074468 -0.0024696975 4288884779
-0.035900153 0.010728747 -0.0032752962 4288950058
-0.034048207 0.010776389 -0.0034151212 4288688684
-0.03199929 0.0092770271 -0.0022247978 4288754219
-0.029939536 0.0077781305 -0.001035226 4288754218
-0.027972899 0.0070529692 -0.00051095244 4288950569
-0.02589421 0.0055547878 0.00067735836 4288819753
-0.023804698 0.0040570088 0.0018649446 4288688939
-0.021704368 0.0025595929 0.0030518537 4288884779
-0.019822925 0.0026088413 0.0029104305 4288426799
-0.018059142 0.0034312494 0.0021055257 4288230448
-0.016060319 0.0027076956 0.0026278784 4288361519
-0.014056146 0.0019844025 0.0031499146 4288034608
-0.011795141 -0.00028433278 0.0049975989 4287969073
-0.009903308 -0.00023422949 0.0048558293 4288231214
-0.007880412 -0.00095668249 0.005376718 4288034608
-0.0059860907 -0.00090627559 0.00523494 4287969073
-0.0040918887 -0.0008557383 0.0050932672 4287903794
-0.0020584688 -0.0015775692 0.0056136241 4288034608
-0.00016181543 -0.0015267581 0.0054719262 4287904048
0.0017346963 -0.0014758278 0.005330327 4287969583
0.0037785843 -0.0021970365 0.0058501568 4287838768
0.0058277659 -0.0029180516 0.0063697016 4287838768
0.0078822337 -0.0036387686 0.0068888962 4287577139
0.010409001 -0.0066753384 0.0093900058 4287707443
0.013115745 -0.010483157 0.012550117 4288034863
0.015849527 -0.014290139 0.015708292 4288296493
0.017955009 -0.015009034 0.016224014 4288950824
0.020065743 -0.015727691 0.016739417 4288494119
-0.050407045 0.0049882382 7.4974261e-05 4287641398
-0.048985034 0.0096933581 -0.0040582079 4288753709
-0.047212433 0.010516342 -0.0048635136 4288295728
-0.045286536 0.0097869076 -0.0043386421 4288361264
-0.043355212 0.0090577304 -0.0038140942 4288687918
-0.04150328 0.0091048852 -0.0039542844 4288687918
-0.03956382 0.0083761141 -0.0034301258 4288557103
-0.037618957 0.0076476596 -0.0029063211 4288688429
-0.035668682 0.0069194846 -0.0023828172 4288753708
-0.033713005 0.0061915368 -0.0018596556 4289081384
-0.031751923 0.0054638125 -0.0013367673 4288623659
-0.029583128 0.0031851195 0.0005121557 4288558379
-0.027605826 0.0024581123 0.0010339702 4288688938
-0.025516529 0.00095580891 0.0022182809 4288558123
-0.023525754 0.0002293922 0.002739259 4288492079
-0.021529604 -0.00049675815 0.0032599261 4288557614
-0.019642863 -0.00044736639 0.003118109 4288295728
-0.017873719 0.00037734956 0.0023144195 4288295983
-0.015989888 0.00042691827 0.0021730093 4288361519
-0.013983201 -0.00029848889 0.002693234 4288165168
-0.011971191 -0.0010236315 0.0032131514 4288296493
-0.010082223 -0.00097358599 0.003071609 4288034608
-0.0080622472 -0.0016983356 0.0035911389 4287903794
-0.0059031323 -0.0031975564 0.0047710612 4287969073
-0.0040063523 -0.0031469576 0.0046291919 4288034609
-0.0021096952 -0.0030962527 0.0044874139 4288100144
-0.00035517663 -0.0022708774 0.003685602 4288100144
0.001538489 -0.0022200327 0.0035442105 4287904303
0.0035794377 -0.0029434897 0.0040626414 4287970094
0.0056256838 -0.0036666971 0.0045807604 4287970094
0.0076772273 -0.0043896958 0.0050986046 4287577903
0.010200832 -0.0074349996 0.0075934324 4287119669
0.01274604 -0.010479646 0.010086784 4286202944
-0.05024026 0.0011602193 0.0009595314 4286594879
-0.04888368 0.0066570863 -0.0038281581 4288229938
-0.047029134 0.0067039207 -0.0039688288 4288230194
-0.045174599 0.0067508891 -0.0041094027 4288818990
-0.043156013 0.005241368 -0.0029238472 4288753453
-0.041296065 0.0052887239 -0.0030646464 4288688174
-0.039261185 0.0037798285 -0.0018800935 4288557359
-0.037305649 0.0030494668 -0.0013587167 4288688173
-0.035344705 0.0023193695 -0.00083765574 4288622638
-0.033378355 0.0015895292 -0.00031691696 4288426798
-0.031504981 0.0016378462 -0.00045826938 4288427053
-0.029328372 -0.00064721331 0.0013852455 4288558123
-0.027239311 -0.0021539386 0.0025662147 4288557868
-0.025139416 -0.0036603138 0.0037464891 4288427053
-0.023247231 -0.0036110133 0.003604088 4288426799
-0.02124314 -0.004339138 0.0041225329 4288295728
-0.019233674 -0.0050670002 0.0046406658 4288492334
-0.017453719 -0.0042397995 0.0038378024 4288099889
-0.015679285 -0.0034126434 0.0030354299 4288165168
-0.013910417 -0.0025854483 0.0022335378 4288361519
-0.012021486 -0.0025355108 0.0020919191 4288099888
-0.010132663 -0.002485469 0.0019503888 4287969073
-0.0081129 -0.0032124016 0.002468314 4287969073
-0.0062215924 -0.0031620581 0.0023267735 4288034609
-0.0043303892 -0.0031116102 0.0021853186 4288035118
-0.0025785305 -0.0022841711 0.0013852166 4287969839
-0.00069031492 -0.0022335593 0.0012441697 4288428330
0.0011977665 -0.0021828543 0.0011032028 4288101419
0.0033804365 -0.0036852881 0.0022785794 4287578413
-0.048782595 0.0036123991 -0.0036044205 4288099124
-0.046846241 0.0028787591 -0.0030836724 4288491568
-0.045062929 0.003706485 -0.0038864603 4288557359
-0.043039188 0.0021926947 -0.0027044984 4288491823
-0.041089259 0.0014597625 -0.0021845037 4288491823
-0.039046511 -5.32493e-05 -0.0010038381 4288491823
-0.037083022 -0.00078557804 -0.00048467889 4288622894
-0.035021275 -0.0022978988 0.00069477968 4288230448
-0.033235416 -0.0014693439 -0.00010763388 4288361264
-0.031258445 -0.0022009499 0.00041078683 4288230448
-0.029175064 -0.0037123077 0.0015888391 4288427053
-0.027184596 -0.0044433232 0.0021064226 4288427053
-0.025082272 -0.0059539806 0.0032832809 4288230448
-0.023187516 -0.0059046131 0.0031406851 4288492078
-0.021069013 -0.0074145533 0.0043164706 4288557614
-0.019168966 -0.0073648021 0.0041736607 4288361263
-0.017503716 -0.0057557877 0.0027134866 4288296238
-0.015729368 -0.0049264431 0.0019127484 4288231214
-0.013960563 -0.0040970873 0.0011124732 4288362539
-0.012197297 -0.0032677948 0.0003127465 4288166444
-0.010439582 -0.0024385378 -0.00048648007 4287905068
-0.0085564516 -0.0023885202 -0.0006274879 4287709229
-0.049978886 -0.0057513304 0.0020395825 4286136388
-0.048534323 -0.0010065064 -0.0020660884 4287706423
-0.04666375 -0.0009592548 -0.0022079698 4288164403
-0.044872351 -0.00012913719 -0.0030097426 4288099378
-0.042922631 -0.00086436793 -0.0024914439 4288164914
-0.040882867 -0.0023819283 -0.0013138796 4288099378
-0.038832236 -0.003899131 -0.00013700593 4288230449
-0.036860809 -0.004633436 0.00037993118 4288164914
-0.034883976 -0.0053674709 0.00089655444 4288230448
-0.033092752 -0.0045366287 9.5335767e-05 4288557614
-0.031012338 -0.006052509 0.0012703026 4288426799
-0.029022027 -0.0067858715 0.0017862264 4288492589
-0.026922664 -0.0083010383 0.0029599313 4288492589
-0.024918871 -0.0090337507 0.003474988 4288296238
-0.022909693 -0.0097662564 0.0039897654 4288557868
-0.020895157 -0.010498459 0.0045041833 4288427053
-0.01910438 -0.0096667428 0.0037036585 4288427563
-0.017553706 -0.0072714966 0.0015893737 4288624424
-0.015779432 -0.0064399932 0.00079025328 4288166443
-0.014010709 -0.0056084264 -8.3679333e-06 4288036138
-0.012247514 -0.0047769845 -0.0008064881 4287316784
-0.04850756 -0.0032873675 -0.0025168834 4287706423
-0.046634421 -0.0032400601 -0.0026589688 4287968309
-0.044761289 -0.0031926148 -0.0028009461 4287903284
-0.042888168 -0.0031450354 -0.0029428247 4288164913
-0.040845975 -0.0046669338 -0.0017686482 4288099378
-0.038880188 -0.0054036863 -0.0012530014 4288099378
-0.036818996 -0.006924808 -8.0119818e-05 4288230449
-0.034839664 -0.0076609552 0.00043469388 4288230448
-0.032759488 -0.0091813616 0.001606388 4288295728
-0.030668478 -0.010701342 0.0027772989 4288492079
-0.028667502 -0.011436611 0.0032907939 4288295728
-0.02666115 -0.012171565 0.0038039377 4288492079
-0.024543088 -0.013690456 0.0049730968 4288754219
-0.022523258 -0.014424812 0.0054854127 4288361774
-0.020721592 -0.013590754 0.0046856012 4288427563
-0.019383419 -0.0096206646 0.0012634415 4287904814
-0.018072542 -0.0056512039 -0.0021565999 4287382319
-0.048407339 -0.0063596163 -0.0023135194 4287902774
-0.046605222 -0.005524952 -0.0031129941 4287902773
-0.044729523 -0.0054774508 -0.0032551754 4287772469
-0.042690326 -0.0070038941 -0.0020841006 4287772214
-0.040555783 -0.0093168486 -0.00025745388 4287968053
-0.03857933 -0.010055533 0.00025581941 4287902774
-0.036417622 -0.01236753 0.0020806072 4287968053
-0.034424897 -0.013105567 0.0025928225 4288033589
-0.03214068 -0.016203275 0.0050712852 4287968053
-0.030128991 -0.01694057 0.0055822553 4287903029
-0.0279103 -0.019250609 0.0074031074 4287772214
-0.025882399 -0.019987162 0.0079130214 4287576118
-0.023849107 -0.020723511 0.0084226541 4286791483
-0.048307382 -0.0094402283 -0.0021164319 4287968054
-0.046499908 -0.0086033121 -0.0029146634 4287771958
-0.04430306 -0.011712778 -0.00043661334 4287772214
-0.042247824 -0.013243112 0.00072997063 4287837238
-0.040097311 -0.015562228 0.0025505917 4287771959
-0.038017623 -0.017091695 0.0037155077 4287902263
-0.033733107 -0.020938378 0.0066973213 4286332738
-0.031427544 -0.024044298 0.0091677196 4286267458
-0.029394316 -0.024783146 0.0096754208 4287118139
-0.027154211 -0.027099209 0.011489835 4286791228
-0.025104763 -0.027837375 0.011996511 4286660924
-0.025256613 -0.032511145 0.0085300375 4286202943
-0.0030469149 -0.0014588106 -0.0017070551 4283526209
-0.0011669956 -0.0014084205 -0.0018474828 4282807109
0.00085735321 -0.0021367781 -0.00133113 4282152779
0.0028870031 -0.0028648842 -0.00081509026 4281564239
0.0050719641 -0.0043714885 0.0003569629 4280976208
0.0071149357 -0.0050990209 0.00087216869 4280781133
0.0096295141 -0.0081619956 0.0033547664 4280845139
0.026270557 -0.013969615 0.007457763 4284377653
-0.0069912449 -0.0022827499 -0.0031977529 4282414664
-0.0051139295 -0.0022326503 -0.0033381516 4282088009
-0.0032367483 -0.0021824595 -0.0034784684 4281370438
-0.0012179203 -0.0029132515 -0.0029634046 4281435209
0.00080621615 -0.0036437791 -0.0024486464 4281239114
0.0028356612 -0.0043740533 -0.0019342015 4280520269
0.0050203465 -0.0058850069 -0.00076536136 4279865683
0.0072157457 -0.0073955115 0.00040272344 4279604818
0.0092665069 -0.0081248917 0.00091581792 4279994459
0.025508214 -0.012390865 0.0037039751 4283983679
-0.014428809 -0.0047681853 -0.0030943211 4281435208
-0.012673855 -0.0039347652 -0.0038901838 4281108554
-0.011052553 -0.0023176819 -0.005340266 4280977739
-0.0089189522 -0.0038351454 -0.0041714376 4280585803
-0.0069081336 -0.0045686495 -0.0036576362 4280520779
-0.0050282367 -0.0045184735 -0.0037982212 4280716618
-0.0030094981 -0.0052515399 -0.0032848422 4280456773
-0.001127135 -0.0052010864 -0.0034254552 4280456773
0.0008995086 -0.0059337262 -0.0029125074 4280586824
0.0027843229 -0.0058829747 -0.0030531278 4280258894
0.004818853 -0.0066151749 -0.0025406005 4280126294
0.0068586916 -0.007347174 -0.0020283493 4279602523
0.026828159 -0.011524251 0.0004730653 4284574003
0.032728795 -0.012148216 0.00070022792 4284114748
0.034635376 -0.012095291 0.00055916514 4283197514
-0.020436607 -0.017477788 0.005515093 4283786818
-0.019433323 -0.011138048 0.00013807695 4282806598
-0.018239379 -0.0063715838 -0.0039277561 4281566279
-0.016598742 -0.004749978 -0.005376298 4280978504
-0.014723897 -0.0047005266 -0.0055169445 4280456263
-0.012849163 -0.0046509579 -0.0056574941 4280455753
-0.010974523 -0.0046012737 -0.0057979468 4280520779
-0.0088384859 -0.006123025 -0.0046325438 4280324684
-0.0069586262 -0.0060729571 -0.004773207 4280912713
-0.0049426928 -0.0068083759 -0.0042613163 4280325959
-0.003199257 -0.0059725083 -0.0050542653 4280390983
-0.0011781342 -0.0067075714 -0.004542599 4280456773
0.00070396438 -0.0066570174 -0.0046831113 4280260168
0.0028800406 -0.008176947 -0.0035202187 4279735633
0.0049171001 -0.0089113116 -0.0030094655 4279799129
0.0068069398 -0.0088602025 -0.0031502983 4279602778
0.026774716 -0.01305033 -0.00065844227 4283721284
-0.020375304 -0.019800708 0.0050297026 4282610758
-0.019483227 -0.012655133 -0.00098706596 4282283849
-0.018523142 -0.0062990151 -0.0063477941 4280848708
-0.01688794 -0.0046732649 -0.007792661 4280326469
-0.014896177 -0.0054120757 -0.0072810086 4280783428
-0.012899075 -0.006150648 -0.0067696813 4280327233
-0.010896619 -0.0068890136 -0.0062586325 4280456263
-0.008888837 -0.0076270644 -0.0057479301 4280391749
-0.0068757311 -0.0083648637 -0.005237543 4280130374
-0.0049933977 -0.0083146263 -0.0053783134 4279738949
-0.0032500289 -0.0074765589 -0.00616962 4279935299
-0.0012291111 -0.0082138143 -0.0056595672 4280130373
0.0006528385 -0.0081632398 -0.0058000502 4279411783
0.0028286427 -0.0096875429 -0.0046403864 4279800914
0.0047157668 -0.0096366219 -0.0047811032 4280192594
-0.020425688 -0.021337148 0.0038901912 4282478923
-0.019418847 -0.014962507 -0.0014611701 4282090304
-0.018338613 -0.0093794018 -0.0061584711 4280784958
-0.016578257 -0.0085395575 -0.0069500613 4280784958
-0.014823429 -0.0076996721 -0.0077411728 4280327233
-0.012573503 -0.010020869 -0.0059315115 4280522819
-0.010690995 -0.0099709854 -0.0060725622 4280392514
-0.008808583 -0.0099209733 -0.0062135085 4280392514
-0.0070596077 -0.0090808291 -0.0070037981 4279934534
-0.0053161792 -0.0082406923 -0.007793569 4280064329
-0.0035783164 -0.0074005779 -0.0085829031 4280064329
-0.0014215633 -0.0089300089 -0.0074251806 4279933769
0.00045752898 -0.0088795181 -0.0075654555 4278887759
0.0024834163 -0.0096185841 -0.0070572225 4278621793
-0.020476062 -0.022873323 0.0027508726 4282347089
-0.019468799 -0.016481265 -0.0025875559 4282154564
-0.018271293 -0.011675585 -0.006624517 4280198714
-0.016627934 -0.010040915 -0.0080635138 4279806524
-0.014628448 -0.010783873 -0.0075556799 4280066624
-0.012748711 -0.01073418 -0.0076966095 4280262974
-0.010613456 -0.012269041 -0.0065409699 4280523073
-0.0087284669 -0.012218963 -0.0066821119 4280260423
-0.006843593 -0.012168771 -0.0068231551 4279736909
-0.0053667203 -0.0097420849 -0.0089069651 4279475279
-0.0034902357 -0.0096918978 -0.0090472205 4279604820
-0.0016138665 -0.009641584 -0.0091873687 4278689879
0.0002623722 -0.0095911901 -0.0093274442 4278883169
-0.019747015 -0.016410038 -0.0050090454 4281369928
-0.018437814 -0.012386249 -0.0083884671 4280196674
-0.016797192 -0.01074725 -0.0098240534 4279150919
-0.014800634 -0.011492528 -0.0093175964 4279084873
-0.019910868 -0.017126901 -0.0067778621 4281172559
-0.01872097 -0.012295278 -0.010794858 4279408979
-0.010224499 0.041124303 0.021933479 4278661573
-0.0087581314 0.043347377 0.01969902 4278922183
-0.0074437819 0.046294715 0.016767854 4279644854
-0.0058749095 0.047792587 0.015233953 4279446973
-0.0038942024 0.047116902 0.015793739 4279381183
-0.0013334528 0.04354405 0.019142667 4278461909
-0.014875282 0.044619102 0.016223397 4279119809
-0.013029516 0.04466759 0.016084787 4279119298
-0.010923903 0.043262359 0.017339772 4279185089
-0.0062004216 0.047769222 0.012746487 4279644088
-0.0042253584 0.047091272 0.013305049 4279644599
-0.0021013878 0.045686971 0.014559068 4278331349
-0.023932273 0.041438047 0.017212493 4278663104
-0.022307746 0.042945217 0.015680317 4278792134
-0.0208105 0.04518168 0.013452837 4279382204
-0.019210711 0.046688404 0.011922684 4279972529
-0.017621938 0.048194993 0.010393387 4278791114
-0.015546337 0.046784382 0.011647284 4279053764
-0.013459958 0.045374203 0.012900406 4279316668
-0.011232875 0.043235268 0.014847971 4279054274
-0.0096527711 0.044742029 0.013319628 4278856648
-0.00016273558 0.043528821 0.014018677 4278529994
-0.021091089 0.045170795 0.010970423 4280170153
-0.019496743 0.04668181 0.0094438959 4279710389
-0.015843526 0.046777535 0.0091693718 4278725323
-0.013762854 0.045362797 0.010419713 4278988993
-0.01167142 0.043948513 0.011669299 4279054528
-0.0099668987 0.044728208 0.010838198 4279054274
-0.0082679652 0.045507845 0.010007577 4279054784
-0.0065746345 0.046287488 0.0091774259 4278987464
-0.0047461465 0.046336044 0.0090404991 4278659533
-0.002917815 0.046384711 0.0089036729 4279316414
-0.0007972531 0.044971731 0.010151548 4279250624
0.0016318746 0.042097609 0.012782883 4279054783
-0.024360869 0.040669989 0.012929734 4279252154
-0.015891805 0.045312461 0.0080828033 4279054274
-0.014065493 0.045360487 0.0079456866 4279054784
-0.01210954 0.044675145 0.0085005574 4279186364
-0.010280758 0.044723447 0.0083634146 4279908524
-0.0085873231 0.045505147 0.0075348541 4279251133
-0.0068994835 0.046286803 0.0067067957 4279053508
-0.0050765723 0.046335246 0.0065703122 4279315648
-0.0032538027 0.046383765 0.0064339032 4279250114
-0.0014312044 0.046432402 0.0062975911 4279447228
0.00054008514 0.045748156 0.0068518231 4279121083
-0.024298325 0.03845587 0.012525257 4279645108
-0.023245927 0.043656502 0.0075456649 4278923969
-0.019949172 0.045959678 0.0051976023 4278857924
-0.018009428 0.045271453 0.005751851 4278989759
-0.016064338 0.044583451 0.0063057644 4279449268
-0.014367845 0.045367133 0.0054783924 4279317944
-0.012676928 0.046150785 0.0046515232 4278858433
-0.010859173 0.046198796 0.0045152148 4279186109
-0.0089064091 0.045511428 0.0050688675 4278924224
-0.0072240643 0.046295132 0.0042428514 4278922948
-0.0052661337 0.045608107 0.0047962731 4279118788
-0.024125399 0.035499316 0.012807833 4279121593
-0.023633515 0.044406723 0.0043897843 4278661829
-0.022163194 0.046668764 0.0021839002 4279449524
-0.020115733 0.045239847 0.0034267502 4279448248
-0.018300358 0.045287412 0.0032903301 4279054784
-0.016609263 0.046073053 0.0024649287 4278398414
-0.014796834 0.046120752 0.0023288811 4279186619
-0.012854911 0.045430716 0.00288158 4279055293
-0.011039998 0.045478683 0.0027454989 4279316923
-0.0090901442 0.044789027 0.0032978011 4279185598
-0.0074105859 0.045574915 0.0024736049 4279185853
-0.0055960901 0.04562318 0.0023377845 4278856648
-0.0037817433 0.045671526 0.0022020424 4278923459
-0.023454703 0.041468088 0.0046851477 4278989758
-0.022210695 0.0452176 0.0011076266 4278530503
-0.020400796 0.045264933 0.00097154547 4279383478
-0.011220682 0.044763174 0.00097928662 4278922694
-0.0092737675 0.044071313 0.0015301527 4278987974
-0.0075969659 0.044859301 0.00070784707 4279053508
-0.00578532 0.044907499 0.00057225395 4278265558
-0.0021624751 0.045004208 0.00030132849 4279907504
-0.00035127625 0.045052689 0.00016598124 4280170153
0.0017624386 0.043622356 0.0014015874 4279842224
0.0040409565 0.041453082 0.0033216113 4279185598
-0.023276184 0.038520988 0.0049742348 4280300969
-0.022142354 0.043024141 0.00071798731 4278858689
-0.020567011 0.04455654 -0.00079074036 4278923969
-0.017449357 0.047620829 -0.0038055209 4279053508
-0.015653539 0.047668118 -0.0039402945 4278331094
-0.011533443 0.044794444 -0.0014686948 4278791114
-0.0098620243 0.045584377 -0.0022890354 4278988484
-0.0080585256 0.045632277 -0.0024240809 4279185600
0.0032212846 0.0436971 -0.0011817953 4278659533
0.0061288774 0.038555469 0.0034668762 4279121338
-0.022758782 0.033330899 0.0073121972 4282200974
-0.022074159 0.040826578 0.00032530725 4279383479
-0.019050252 0.044644747 -0.0033695744 4278398413
-0.017372947 0.045436617 -0.0041890284 4280498338
-0.015827898 0.046972927 -0.00569198 4279973294
-0.013905641 0.046275873 -0.0051426431 4278922439
-0.012110185 0.046323378 -0.005277223 4278528208
-0.010180015 0.045626741 -0.0047283275 4278922694
-0.0085196681 0.046418685 -0.0055461293 4278857159
-0.0064440109 0.044978302 -0.0043144869 4279513274
0.003171932 0.042244498 -0.0022589597 4279054784
0.0056089573 0.039318632 0.00033308379 4278990014
0.0095018633 0.029701069 0.009057682 4278990014
-0.022581063 0.030360345 0.0075838976 4282525843
-0.022006113 0.038624909 -7.0346519e-05 4279776179
-0.020899042 0.043153729 -0.0043050214 4279054018
-0.012290187 0.045630533 -0.0070266286 4279185598
-0.010362942 0.044931654 -0.0064791245 4279316924
-0.0085678697 0.044979382 -0.0066135069 4279119809
-0.0066327155 0.044280913 -0.0060664481 4279185089
-0.004549291 0.042836431 -0.0048385197 4279119298
-0.0026008077 0.042138536 -0.0042922939 4279250623
-0.00035024062 0.039948743 -0.0023849006 4279316923
0.0014631599 0.039997455 -0.0025202814 4279579574
0.0037379265 0.037808482 -0.00061449781 4279316924
0.0060288683 0.035620015 0.0012901351 4278727618
0.0091323815 0.029703248 0.0065933289 4278859709
-0.022290718 0.026632082 0.0085311253 4282789004
-0.021706946 0.034920942 0.00089406967 4279445954
-0.020828128 0.040961128 -0.0046941875 4279054784
-0.014001288 0.043397401 -0.0072773648 4278528718
-0.012206092 0.043444935 -0.0074119037 4279119809
-0.010141619 0.041995358 -0.0061860434 4279119808
-0.0082037821 0.041294653 -0.0056408322 4279251134
-0.0061204992 0.039845783 -0.0044162325 4279054784
-0.0041693486 0.039145682 -0.0038719024 4278925243
-0.0020672791 0.037697475 -0.0026485119 4278662083
4.5519322e-05 0.036249693 -0.0014258977 4278531524
0.0023201033 0.034054074 0.00047495775 4279320239
0.0046108589 0.031859037 0.0023746379 4279189679
0.0067612901 0.030412517 0.0035947114 4279452329
0.0095592849 0.025974572 0.0075273272 4279911329
0.018710513 0.0013974849 0.029621888 4280239258
-0.021292649 0.030452821 0.0025289841 4282591124
-0.020757359 0.038764488 -0.005086422 4279186108
-0.019435018 0.041816559 -0.007940351 4278858434
-0.017639611 0.04186381 -0.0080751171 4279054784
-0.01559139 0.040409144 -0.0068515181 4279381948
-0.013532378 0.038954791 -0.0056286249 4279447738
-0.011594504 0.038251754 -0.0050852261 4279515059
-0.0096513145 0.037548985 -0.004542131 4279318709
-0.007565435 0.036095668 -0.0033210125 4278795449
-0.0054688081 0.034642797 -0.0021006484 4278467519
-0.00336143 0.033190325 -0.00088101439 4279057589
-0.001243297 0.031738203 0.00033793785 4279058353
0.00088555738 0.030286502 0.001556119 4279189933
0.0031761341 0.028084803 0.0034509292 4279648678
0.0053291805 0.026633952 0.0046674507 4279845028
0.007336542 0.025933664 0.0052063949 4279976099
0.010144848 0.021482948 0.0091285221 4280107934
-0.020095661 0.03279667 -0.0020909724 4281480854
-0.018998697 0.037364591 -0.0062954929 4279121593
-0.017068863 0.03665885 -0.0057533458 4278267343
-0.01513369 0.035953384 -0.0052115023 4278792899
-0.012934946 0.033741865 -0.0033153128 4278990524
-0.010983661 0.033037025 -0.0027745236 4278927028
-0.0087579228 0.03082642 -0.00088021019 4279058863
-0.006927833 0.030875131 -0.0010171742 4279189424
-0.0046778619 0.028665435 0.00087545346 4279057843
-0.0026971474 0.027961764 0.0014144005 4279713449
-0.00071113557 0.027258378 0.0019529769 4279581869
0.0012801662 0.026555244 0.0024912497 4279778729
0.003578566 0.024347212 0.0043806024 4279779238
0.0057394989 0.022892252 0.0055933194 4279910563
0.0074421316 0.023694847 0.0047794459 4280237983
0.010093536 0.019983429 0.00801659 4280106658
0.01422805 0.0095025524 0.017325787 4280501398
-0.019552968 0.027558524 0.00020874012 4282594184
-0.018200353 0.030628879 -0.0026344382 4279976354
-0.016251657 0.029921476 -0.0020953179 4280041633
-0.014297612 0.029214282 -0.0015564733 4279647914
-0.012209207 0.027752072 -0.00034228805 4279844263
-0.01024178 0.027045485 0.00019566994 4280041889
-0.0082690306 0.02633911 0.00073335227 4279582378
-0.0062909685 0.025633033 0.0012706807 4279976099
-0.0043076016 0.024927203 0.0018076962 4279582634
-0.0020336062 0.022711683 0.0036937818 4279779238
-0.00017956272 0.022761364 0.0035552755 4279910309
0.0018224195 0.022056356 0.0040911334 4279976099
0.0038297027 0.021351568 0.0046266606 4279910309
0.0058422647 0.020647068 0.0051618945 4279910309
0.0077038333 0.020697355 0.0050231274 4280106658
0.010519166 0.016220648 0.0089253075 4280434333
0.014822397 0.0049550198 0.018884517 4280434333
-0.019129075 0.023056608 0.0018175794 4282528649
-0.017765414 0.026135977 -0.0010199333 4279976864
-0.01580603 0.025426682 -0.00048323255 4279845539
-0.013967555 0.025475208 -0.00062112603 4279976354
-0.011871248 0.024008825 0.00058927294 4280304029
-0.010027554 0.024057698 0.0004511429 4280041633
-0.0080495737 0.023349348 0.00098678749 4279976099
-0.006203413 0.023398507 0.00084863883 4280172448
-0.0042175204 0.022690564 0.001383841 4280041633
-0.0020837411 0.021225732 0.0025918484 4279976099
-8.4526837e-05 0.020518359 0.0031262087 4279976099
0.001771953 0.020568233 0.0029876148 4279976354
0.0037790276 0.019861281 0.0035215458 4279713704
0.0057913885 0.019154597 0.0040551731 4280041633
0.0079652257 0.017691344 0.0052605681 4280106658
0.010944348 0.012445077 0.009824466 4280695964
0.015254471 0.0011469554 0.019758815 4280761754
-0.018823761 0.019297477 0.0027403971 4281937814
-0.017331053 0.02162591 0.00058184098 4280630429
-0.015484437 0.021674532 0.00044325087 4280238239
-0.013637926 0.021723289 0.00030476507 4280106658
-0.011662636 0.021012463 0.00083882175 4279976353
-0.0096820183 0.020301905 0.001372573 4280172958
-0.0078304186 0.020351108 0.00123394 4279976353
-0.0058418661 0.019640937 0.0017673057 4280172958
-0.0038480237 0.01893105 0.0023002997 4279976353
-0.0018488728 0.018221423 0.0028329901 4279780513
1.0348856e-05 0.018271271 0.0026941188 4279910563
0.0020173788 0.017562062 0.0032263706 4280172959
0.0041803829 0.016093969 0.0044291876 4279845029
0.0062007122 0.015385322 0.0049605975 4279976353
0.0088507868 0.011641137 0.0081734657 4280304284
0.012004431 0.0056211278 0.013395105 4280304284
0.016170796 -0.0049503706 0.022633785 4280893588
-0.018872678 0.017811991 0.0016386947 4281806489
-0.017379899 0.020146977 -0.00051498879 4280695454
-0.015533421 0.020195607 -0.00065356214 4280238239
-0.013813149 0.021006279 -0.0014630849 4280303774
-0.011711966 0.019531362 -0.00025957543 4280172959
-0.009600006 0.018056814 0.0009432612 4280041889
-0.0073430166 0.015820999 0.0028157653 4280043163
-0.0054807849 0.015870612 0.002676432 4280435863
-0.0036186948 0.015920337 0.0025371993 4279911073
-0.0017567351 0.015970159 0.0023980448 4279976864
0.0002502352 0.01525864 0.0029286593 4280041889
0.0022625104 0.014547393 0.0034589041 4280435354
0.0045812577 0.012313891 0.0053272881 4281089428
0.0067628846 0.010842048 0.0065255463 4281285013
0.0094233491 0.0070872605 0.0097295325 4282071943
0.012745913 0.00028908066 0.015606062 4283119994
-0.017066989 0.016375504 0.00039792713 4280630938
-0.015212487 0.016424373 0.00025876891 4280631703
-0.013358086 0.016473345 0.0001197001 4281089428
-0.011503801 0.016522426 -1.9277446e-05 4280958103
-0.0091237314 0.013515752 0.0025179815 4280239004
-0.0069903992 0.012037579 0.0037160208 4280435354
-0.0048462972 0.010559794 0.0049133338 4280698258
-0.0031103715 0.011373632 0.0041046869 4282990963
-0.01687504 0.013357729 0.00063310377 4281089428
-0.014891997 0.012640387 0.0011615688 4280631704
-0.013029572 0.012689587 0.0010219095 4281547663
-0.011038568 0.011972632 0.0015499871 4282202248
-0.0087794438 0.0097237043 0.003412528 4282399873
-0.016562935 0.0095628463 0.0015286561 4282466173
-0.014325615 0.0073064752 0.0033877129 4282598264
0.017409969 -0.01424492 0.013093309 4283252084
0.019345876 -0.014192069 0.012949413 4281419399
0.021112408 -0.01336529 0.012147507 4279977884
0.014615659 -0.011967542 0.0088016726 4278862004
0.016701687 -0.012691287 0.0093156192 4278529739
0.018460203 -0.011862667 0.008515846 4279386539
0.020382214 -0.011810085 0.0083730668 4280109718
0.022475872 -0.012533328 0.008886667 4282013038
0.019990701 -0.0117936 0.0059215343 4279258019
0.021906983 -0.011741089 0.005779244 4278275503
0.024172027 -0.01324453 0.0069459928 4281816943
0.011480656 -0.0096347202 0.0020827046 4279852933
0.013383884 -0.0095829535 0.0019410942 4279716253
0.015450481 -0.010311579 0.0024532527 4279650973
0.017356101 -0.010259537 0.0023116209 4278993838
0.019430529 -0.01098776 0.0028233351 4278733229
0.021510195 -0.011715733 0.0033347402 4279193759
0.013009887 -0.0095415451 -0.00049361121 4278860728
0.014907401 -0.0094898269 -0.00063471496 4278533309
0.021285351 -0.012463953 0.0015483387 4279062179
0.023541708 -0.013976382 0.0027092965 4279519903
0.036735091 -0.012824148 0.0010680137 4282210153
0.039232168 -0.015116407 0.0028758319 4281815923
0.010902043 -0.010327719 -0.0021300279 4279653014
0.016419929 -0.0093879737 -0.003202911 4278732463
0.018818002 -0.01169041 -0.0013933005 4278799528
0.021060664 -0.013207593 -0.00023466256 4278931108
0.023139771 -0.013939834 0.00027361512 4279193504
0.025047172 -0.01388733 0.00013216026 4280635019
0.030398052 -0.012160806 -0.0015893877 4281950054
0.032299291 -0.01210811 -0.0017301165 4279982729
0.034200329 -0.012055345 -0.0018707761 4280374154
0.036294434 -0.012786518 -0.0013631205 4279978648
0.038393777 -0.013517498 -0.00085581886 4280307089
0.041293148 -0.017383834 0.0022424776 4280177038
0.044622261 -0.022817018 0.0066341124 4282471528
0.010692026 -0.011057649 -0.0039042067 4279129244
0.012744579 -0.011793297 -0.0033959518 4278407084
0.014639113 -0.011741653 -0.0035368307 4278341294
0.01653349 -0.011689894 -0.003677607 4278602923
0.0187652 -0.013211896 -0.0025214464 4278603688
0.020836126 -0.013946625 -0.0020142477 4278996388
0.022738148 -0.013894374 -0.0021553831 4278865829
0.026362065 -0.013003009 -0.0030850093 4278274483
0.028260846 -0.012950564 -0.0032256935 4278471344
0.031870086 -0.012059016 -0.004153871 4278733229
0.035660896 -0.011953687 -0.0044342726 4278268873
0.037751932 -0.012687111 -0.0039279307 4278400708
0.040642653 -0.016564569 -0.00083709741 4279322534
0.043962989 -0.022013189 0.0035437951 4281225598
-0.021258481 -0.029294133 0.010547474 4282340204
0.0082827248 -0.01025538 -0.0068300208 4279915665
0.010324355 -0.010993596 -0.0063226456 4278997918
0.012371283 -0.01173161 -0.0058155442 4278865573
0.014260259 -0.011680115 -0.0059560086 4278341294
0.01614907 -0.01162852 -0.0060963817 4278668714
0.017869059 -0.010787718 -0.0068835123 4278274484
0.024056319 -0.012998901 -0.0053646318 4279062178
0.025949728 -0.0129467 -0.0055049886 4279389088
0.027842958 -0.012894408 -0.0056452597 4279127714
0.029736008 -0.012842024 -0.0057854461 4278799019
0.031441208 -0.012001043 -0.0065709697 4279323044
0.033521567 -0.012737056 -0.0060656182 4279649699
0.035414051 -0.012684423 -0.0062055667 4279715743
0.039794099 -0.014943752 -0.0045514689 4278797999
0.043102939 -0.020407906 -0.0001810547 4279980179
-0.021526936 -0.029266367 0.008092694 4282273904
0.0060425922 -0.010230998 -0.0091006802 4278801058
0.0083860047 -0.012554938 -0.0073019853 4278342058
0.010114726 -0.011712195 -0.0080884239 4278735269
0.012319159 -0.013243906 -0.0069369124 4279193504
0.01404484 -0.012400975 -0.007722998 4278341549
0.016096693 -0.013140826 -0.0072177313 4278340273
0.021239739 -0.01061216 -0.0095727108 4278532289
0.023473095 -0.012142465 -0.0084229643 4278734758
0.025717165 -0.013672438 -0.0072739115 4278800803
0.027607564 -0.013620241 -0.0074139871 4278538918
0.029497791 -0.013567952 -0.007553977 4278340528
0.033277702 -0.013463113 -0.0078337109 4279913114
0.035167392 -0.013410587 -0.0079734726 4279847579
0.037056867 -0.013357971 -0.0081131477 4279585949
0.039343107 -0.014886132 -0.0069668116 4278668458
0.042042341 -0.017994652 -0.0045356136 4278997153
0.045578692 -0.024263609 0.00046438724 4279653014
-0.023308441 -0.032460496 0.0083833411 4282468979
-0.021686409 -0.030024663 0.0062926039 4281749114
-0.020637844 -0.02361428 0.00096391235 4281751664
-0.0056890473 -0.0096545853 -0.011312233 4278737053
-0.0038181469 -0.0096045509 -0.011452073 4279063198
-0.0018060207 -0.010348555 -0.010946214 4279390874
-0.00022074208 -0.0087100361 -0.012376847 4279194014
0.0036642626 -0.0094032865 -0.012010478 4278995114
0.0056867488 -0.010146575 -0.011505067 4278798764
0.0078694671 -0.011683472 -0.010355363 4280044948
0.0095899664 -0.010838747 -0.011139547 4278669223
0.011465248 -0.010787731 -0.01127907 4278604199
0.01334038 -0.010736611 -0.011418501 4278472618
0.015381161 -0.011478901 -0.010914079 4278405553
0.016921666 -0.0098406244 -0.012340727 4278405808
0.018793616 -0.0097893085 -0.012479712 4278341038
0.023067016 -0.012066022 -0.010828467 4278536623
0.025126006 -0.012807341 -0.010325044 4278668713
0.02700815 -0.012755364 -0.0104645 4278603688
0.028890114 -0.012703295 -0.010603872 4278537388
0.032843772 -0.013391771 -0.010240449 4278271934
0.036611866 -0.013286944 -0.010519071 4278599609
0.038297277 -0.012441833 -0.011299646 4278995624
0.040580351 -0.013974413 -0.010156226 4278996898
0.043893147 -0.019468807 -0.0058087101 4278735523
-0.023676896 -0.031626083 0.0052883485 4282207349
-0.021954358 -0.029981103 0.0038494617 4281290624
-0.020799469 -0.024350632 -0.00081963139 4281422714
-0.011352405 -0.011300605 -0.012002022 4279721099
-0.0096116886 -0.01045426 -0.012786912 4279916174
-0.0078765191 -0.0096079595 -0.01357131 4279652249
-0.0058752522 -0.010354673 -0.013066443 4278996898
-0.0040072016 -0.010304701 -0.013206057 4279586969
-0.001998011 -0.011050953 -0.012701597 4278996898
-0.00012747571 -0.011000713 -0.012841249 4278800294
0.0036132 -0.010899873 -0.013120247 4278732209
0.0075082071 -0.011594607 -0.01275593 4279584418
0.0093807913 -0.011543779 -0.012895336 4278472874
0.011413518 -0.012288697 -0.012392037 4278603943
0.013125513 -0.011441797 -0.013173868 4278732463
0.016701225 -0.010543846 -0.014094029 4279323553
0.018570337 -0.010492601 -0.014232798 4278997154
0.020439301 -0.010441288 -0.014371502 4279062179
0.022661258 -0.011980655 -0.013227351 4278340018
0.024714623 -0.012724303 -0.012725132 4278930853
0.02677324 -0.0134677 -0.012223221 4278865573
0.028652381 -0.013415726 -0.012362396 4278668968
0.030718815 -0.014158735 -0.011860937 4278602923
0.037847158 -0.012359923 -0.013696907 4279389598
0.039521489 -0.011512879 -0.014474993 4278866339
0.042616356 -0.016228279 -0.010777117 4279063198
0.046569388 -0.024120944 -0.0045249639 4280899454
-0.024044925 -0.030778367 0.0022031497 4282011253
-0.022004906 -0.031527396 0.0027026255 4281291133
-0.021183491 -0.023483772 -0.0038890587 4281160064
-0.020188566 -0.017039917 -0.0091877393 4279586969
-0.018887114 -0.012994589 -0.012550388 4279259803
-0.017254651 -0.011347175 -0.013978859 4279390619
-0.015388854 -0.011297951 -0.014118819 4279061669
-0.0096617043 -0.011948418 -0.01389497 4278536368
-0.0080596358 -0.010301229 -0.015320733 4279127458
-0.006197039 -0.010251511 -0.015460024 4279193249
-0.0041960962 -0.011000291 -0.014956662 4278734504
-0.00032216683 -0.011698626 -0.014593033 4279651228
0.001545392 -0.011648353 -0.014732379 4279519649
0.0032634772 -0.010799684 -0.015513396 4278272953
0.0068377294 -0.0099006221 -0.016432591 4279061414
0.0088567995 -0.010648157 -0.015930019 4278602158
0.011041384 -0.012193423 -0.0147868 4278734504
0.012910839 -0.012142468 -0.014925817 4278537898
0.016480941 -0.01124252 -0.01584396 4278599353
0.018176142 -0.010393661 -0.016622668 4278468283
0.020039555 -0.010342501 -0.01676096 4278599099
0.024124313 -0.011834821 -0.015758183 4278931364
0.026174601 -0.012580652 -0.015257297 4278669223
0.028045502 -0.012528921 -0.015395872 4278996898
0.029916231 -0.012477109 -0.015534373 4278604453
0.031786781 -0.012425208 -0.015672788 4278735523
0.034042757 -0.013967481 -0.014534025 4278866338
0.035918381 -0.013915286 -0.0146727 4279194269
0.037793826 -0.013863009 -0.014811301 4279127459
0.039468136 -0.013013803 -0.015587775 4278538664
0.042358804 -0.016945489 -0.012537323 4278800803
0.04630826 -0.024859976 -0.0063010845 4279588243
-0.024306757 -0.030718945 -0.00022875797 4282405484
-0.022272401 -0.031470351 0.00026955828 4281684854
-0.021122273 -0.025809554 -0.0043765712 4281487739
-0.020010289 -0.020149667 -0.0090196924 4280242064
-0.018819831 -0.015291957 -0.013017313 4279586204
-0.017304011 -0.012838876 -0.01508515 4278800294
-0.011707317 -0.012690898 -0.015504736 4279058353
-0.0081096292 -0.011790795 -0.016425375 4279324064
-0.006247174 -0.011741105 -0.016564671 4278733994
-0.0043848418 -0.011691287 -0.016703859 4278799528
-0.00051668659 -0.012391966 -0.016341429 4278405299
0.0012014695 -0.01154124 -0.017120922 4279717274
0.0030633323 -0.011491016 -0.017259764 4279520414
0.0049250573 -0.011440672 -0.017398506 4279061669
0.008805532 -0.012139956 -0.017036201 4278668203
0.010989841 -0.013689603 -0.01589622 4278734504
0.01269633 -0.012838571 -0.016674379 4278734503
0.014562789 -0.012787597 -0.016813099 4278865064
0.016092535 -0.011136668 -0.018229229 4278339763
0.019640114 -0.010234728 -0.019143829 4278668459
0.021674257 -0.010983411 -0.018643467 4278931364
0.023892816 -0.012531446 -0.017505527 4278800039
0.026122052 -0.014079104 -0.016368315 4278996388
0.028177436 -0.014826921 -0.015869316 4278865829
0.030238066 -0.015574464 -0.015370684 4278997154
0.031923939 -0.01472309 -0.016146637 4278341293
0.036060605 -0.016217345 -0.015150215 4278341548
0.038334992 -0.017763257 -0.014015977 4278866083
0.040017437 -0.016911671 -0.014791448 4279391639
0.042712156 -0.020055044 -0.012385781 4279588244
0.046253603 -0.026393365 -0.0074379211 4281816689
-0.024462609 -0.031454399 -0.0020121797 4282732904
-0.022539608 -0.031404313 -0.002156911 4281748859
-0.02095006 -0.028943149 -0.0042257099 4281552763
-0.019832294 -0.02326785 -0.0088579757 4280963204
-0.018636107 -0.018397015 -0.012846287 4279324064
-0.017234065 -0.015133773 -0.01555049 4278274993
-0.01573186 -0.012674365 -0.017612401 4279520413
-0.013996601 -0.011821907 -0.01839222 4278929323
-0.012011986 -0.012575913 -0.017891208 4278535603
-0.0080267414 -0.014083202 -0.016890083 4279847323
-0.0062973015 -0.013230447 -0.017669132 4278276013
-0.0045734309 -0.012377677 -0.018447716 4278277034
-0.0025730133 -0.013130749 -0.017947428 4278799529
0.0028633326 -0.012177728 -0.01900278 4278599609
0.0065809675 -0.01207713 -0.019279778 4278733483
0.0084395856 -0.012026688 -0.019418152 4278406828
0.01045813 -0.012778541 -0.018918671 4278864808
0.012644749 -0.014332374 -0.017782025 4279192993
0.014345583 -0.013479213 -0.018558063 4279061414
0.016040873 -0.012626143 -0.019333646 4279454369
0.0180724 -0.013377203 -0.018834878 4279454114
0.019935589 -0.01332606 -0.018973161 4279258274
0.021798607 -0.013274826 -0.019111361 4278930853
0.02401961 -0.01482715 -0.017976847 4278537898
0.026069526 -0.015577341 -0.017479174 4278604453
0.02830923 -0.017129026 -0.016345877 4278932639
0.030372392 -0.017878693 -0.015849067 4278998684
0.032440823 -0.018628132 -0.015352584 4279128734
0.034514491 -0.019377332 -0.014856421 4279063199
0.036593433 -0.020126339 -0.01436054 4279063198
0.038479555 -0.020073818 -0.014499968 4279325338
0.040566284 -0.020822439 -0.01400461 4279980434
0.043268766 -0.023974307 -0.011606004 4279720079
-0.022914847 -0.030523496 -0.0052167005 4282142069
-0.020889178 -0.031279318 -0.0047209249 4281683833
-0.019768342 -0.025588769 -0.0093421256 4281029758
-0.018802144 -0.019093454 -0.014599687 4279782553
-0.016025059 -0.012550207 -0.019993052 4278864299
-0.014295306 -0.011695722 -0.02077084 4280503438
-0.012316346 -0.01245206 -0.020271029 4280306834
-0.010332048 -0.013208133 -0.019771524 4279847579
-0.0067539997 -0.012304014 -0.020687312 4278864554
-0.0050383322 -0.011449344 -0.021463631 4278537134
-0.0031872541 -0.011399725 -0.021601904 4278537643
-0.00104893 -0.012959926 -0.020465426 4278406573
0.0066845678 -0.014368876 -0.019745879 4279062943
0.0083885044 -0.013513749 -0.020520821 4278538153
0.010406855 -0.014267781 -0.020022947 4278800294
0.012593184 -0.015825972 -0.01888952 4278472618
0.014624823 -0.016579408 -0.018392533 4278603178
0.01649363 -0.016528305 -0.018531375 4278537899
0.018533114 -0.017281339 -0.018034834 4278472109
0.020577904 -0.018034168 -0.017538566 4278603689
0.022627968 -0.018786721 -0.017042667 4278866848
0.024683286 -0.019539036 -0.016547086 4279194014
0.026743878 -0.020291112 -0.016051825 4279194014
0.028809737 -0.021042982 -0.015556913 4279194268
0.030880895 -0.021794658 -0.015062281 4279063454
0.032767419 -0.021742355 -0.01520191 4279456408
0.035038929 -0.023297224 -0.014074069 4279521943
0.036930542 -0.023244636 -0.014213968 4279521943
0.038821984 -0.023191959 -0.014353784 4279717784
0.040713247 -0.023139214 -0.014493532 4279587223
0.043418068 -0.026299739 -0.012101594 4279260314
-0.023073126 -0.031245526 -0.0069899694 4282208368
-0.021161381 -0.031195601 -0.0071337572 4281750134
-0.019704521 -0.027913827 -0.0098292716 4281028993
-0.018851604 -0.020593191 -0.015711954 4280045458
-0.017690293 -0.01569704 -0.019678183 4279192739
-0.0087904856 -0.013028444 -0.022284497 4279258019
-0.0070747919 -0.012171669 -0.023059327 4278996643
-0.0052264594 -0.01212226 -0.023197498 4278865573
-0.0033782274 -0.012072749 -0.02333558 4278800549
-0.0010992847 -0.014444553 -0.021566354 4278735523
0.0007568635 -0.014394603 -0.02170486 4278801058
0.0027619377 -0.015151563 -0.021207985 4278997663
0.0047723353 -0.015908293 -0.020711366 4278539173
0.0066335499 -0.015857894 -0.020850014 4278669223
0.0083374232 -0.015000593 -0.021623332 4278537899
0.012541641 -0.017319392 -0.019996881 4278473384
0.014903773 -0.019688133 -0.018233253 4278472619
0.016945954 -0.020443361 -0.017738597 4278603688
0.018993411 -0.021198358 -0.017244272 4279259803
0.02104615 -0.021953117 -0.016750265 4279521688
0.022927951 -0.021901399 -0.016889885 4279718549
0.024988521 -0.022655746 -0.016396314 4279456409
0.027054373 -0.023409948 -0.015903061 4279521944
0.029125486 -0.024163825 -0.01541014 4279784083
0.031014811 -0.02411156 -0.015550061 4279718549
0.032903943 -0.024059203 -0.015689898 4279783828
0.034985419 -0.024812581 -0.015197585 4279718293
0.037072141 -0.025565719 -0.014705591 4279914898
0.038768295 -0.024707345 -0.015477304 4279587223
0.040860105 -0.0254602 -0.01498558 4279981199
0.04336388 -0.027823865 -0.013231576 4279653268
-0.023447637 -0.030342514 -0.010033299 4282798694
-0.021544203 -0.030292822 -0.010176473 4282077299
-0.019754458 -0.029432897 -0.01095589 4281159553
-0.018784698 -0.022902714 -0.016187897 4280111758
-0.01785852 -0.016373556 -0.021416541 4278865828
-0.016488761 -0.013085018 -0.024098847 4278602923
-0.014642805 -0.013036232 -0.024237253 4278471599
-0.012924157 -0.012177603 -0.025010906 4278340529
-0.011211038 -0.011318993 -0.025784049 4278930599
-0.0092381351 -0.01207963 -0.025286866 4278997153
-0.0072598793 -0.012840003 -0.024789991 4279324318
-0.0054143965 -0.012790656 -0.024927936 4279062178
-0.0034282133 -0.013550614 -0.024431504 4278865574
-0.0011496246 -0.015928976 -0.02266713 4278734503
0.00099891052 -0.017497551 -0.021537783 4278472364
0.003009215 -0.018256541 -0.021042913 4278537898
0.0048731454 -0.01820617 -0.02118184 4278276269
0.0068913512 -0.018964725 -0.020687398 4279062689
0.0086006261 -0.018105183 -0.021459483 4279062688
0.010783833 -0.019672252 -0.02033237 4278997154
0.012815226 -0.020430166 -0.019838694 4279324573
0.015347738 -0.023614042 -0.017447837 4279521434
0.017397847 -0.024371233 -0.016955396 4279390363
0.019453268 -0.02512823 -0.016463239 4279521434
0.021167118 -0.024267916 -0.017235257 4279456154
0.023051534 -0.024216145 -0.017375082 4279849619
0.024935793 -0.024164282 -0.017514823 4279718549
0.027183022 -0.025728928 -0.016391892 4279849619
0.029072385 -0.025676757 -0.016531888 4279718549
0.031148594 -0.026432611 -0.016040921 4279718293
0.033040348 -0.0263802 -0.016180966 4279718293
0.035316799 -0.027943706 -0.015059952 4279128223
0.03740878 -0.028698877 -0.014569968 4279652504
0.039110351 -0.027838226 -0.015340498 4280045713
0.041006859 -0.027785398 -0.01548068 4279980689
-0.021704894 -0.031001477 -0.011939477 4281815414
-0.019690823 -0.031764008 -0.011447601 4281225344
-0.018485371 -0.026840793 -0.015397854 4280701318
-0.017669596 -0.019481961 -0.021248501 4278997153
-0.016294248 -0.016184593 -0.023924757 4278734503
-0.014567439 -0.015323641 -0.024697527 4279062943
-0.01271899 -0.015274698 -0.024836054 4278735269
-0.010870632 -0.015225625 -0.024974477 4279193249
-0.00902237 -0.015176459 -0.025112821 4278472109
-0.00091301277 -0.01903617 -0.022502704 4278603943
0.0012406632 -0.020608908 -0.021377016 4278734504
0.0029584169 -0.019747287 -0.022148356 4279062689
0.0049738362 -0.020508207 -0.021655411 4279193504
0.0069945566 -0.021268889 -0.021162784 4279521434
0.0088635348 -0.021218197 -0.021301951 4279652503
0.010892157 -0.021978475 -0.020809775 4279586968
0.012926076 -0.022738535 -0.020317864 4279718294
0.015295666 -0.025120098 -0.018564563 4279455388
0.017345589 -0.025879482 -0.018073736 4279521433
0.019230198 -0.025827896 -0.018213717 4279194013
0.021114644 -0.025776243 -0.018353634 4279128478
0.022822883 -0.024913859 -0.019123504 4279587479
0.024704326 -0.024862112 -0.019263066 4279587223
0.026948575 -0.026431199 -0.01814316 4279653268
0.029387724 -0.028810211 -0.016394544 4279718803
0.03165609 -0.030378452 -0.015276291 4279848853
0.033555899 -0.03032585 -0.015416956 4279783064
0.035263207 -0.029463036 -0.016186416 4279454878
0.037355009 -0.03022041 -0.01569806 4279848599
0.039056558 -0.02935762 -0.016466994 4280111248
0.040952984 -0.029304793 -0.016607169 4281226108
-0.020081285 -0.030841434 -0.014474925 4281225598
-0.01853507 -0.028348582 -0.016516093 4280635784
-0.017599873 -0.021784505 -0.021719512 4280504459
-0.016100027 -0.019292615 -0.023757007 4279586969
-0.014367841 -0.018429413 -0.024528537 4278734759
-0.012387007 -0.019194419 -0.024035357 4278801314
-0.010660432 -0.018331129 -0.024806291 4279062944
-0.0088068657 -0.018281832 -0.024945037 4278931364
-0.0069533959 -0.018232428 -0.025083696 4278996898
-0.0051000379 -0.018182894 -0.025222249 4278865829
-0.00067668408 -0.022151837 -0.022344634 4278472363
0.0011899471 -0.022101659 -0.022483962 4279259038
0.0032052733 -0.022864867 -0.021992706 4279718294
0.0050743893 -0.022814412 -0.022132065 4279587223
0.0072518885 -0.024390614 -0.02101114 4279521689
0.0089692064 -0.02352646 -0.021780625 4279783574
0.011000339 -0.024288896 -0.021290222 4279718039
0.013036776 -0.025051024 -0.02080016 4279783574
0.015243631 -0.026625985 -0.019681165 4279718039
0.017293375 -0.027387574 -0.019191964 4279718039
0.01917785 -0.027336016 -0.019331951 4279455898
0.021235455 -0.02809725 -0.018843157 4279194269
0.023122359 -0.02804544 -0.018983189 4279325594
0.024830412 -0.027180813 -0.019751444 4279457173
0.02707712 -0.028754177 -0.018634958 4279195034
0.029518668 -0.031139726 -0.016891364 4280243084
0.0317895 -0.032712232 -0.015776595 4280374154
0.033502366 -0.031847186 -0.016544921 4281815668
0.035209637 -0.030982208 -0.017312769 4282145129
-0.022136506 -0.031588413 -0.016087133 4282798694
-0.020357873 -0.0307223 -0.016860887 4281553273
-0.01881703 -0.028223068 -0.018896798 4280700809
-0.017411422 -0.024907662 -0.021562489 4280701064
-0.015906062 -0.022409189 -0.023595531 4279914133
-0.014044214 -0.022360006 -0.023735145 4279586713
-0.012182448 -0.022310704 -0.023874665 4279324573
-0.010191053 -0.023077499 -0.023383819 4279259294
-0.0084592029 -0.022211809 -0.024153462 4279390618
-0.0067328848 -0.021346102 -0.024922643 4279390618
-0.0050120912 -0.020480484 -0.025691295 4279128479
-0.0028750487 -0.022062652 -0.024570983 4279194014
-0.00058393925 -0.024460174 -0.022822138 4278669223
0.0011392497 -0.023594197 -0.023590747 4279259294
0.0031543784 -0.024359595 -0.023101108 4279390363
0.005023364 -0.024309156 -0.023240464 4279259549
0.0072005913 -0.025889717 -0.022122759 4279848853
0.0090747587 -0.025838921 -0.02226234 4279652249
0.010948796 -0.025788043 -0.022401849 4279914389
0.01298504 -0.026552385 -0.02191342 4279717529
0.015026566 -0.027316473 -0.021425305 4279586203
0.017073411 -0.028080324 -0.020937512 4278931619
0.018614117 -0.026398681 -0.022331808 4279260569
0.021009754 -0.028792296 -0.020589948 4279980689
0.022893842 -0.028740603 -0.020729799 4279915408
0.024956401 -0.029503698 -0.020242859 4281161083
0.026661549 -0.028636932 -0.021009248 4282144109
-0.020634167 -0.030594239 -0.019240307 4282012019
