# .PCD v0.7 - Point Cloud Data file format
VERSION 0.7
FIELDS x y z rgba
SIZE 4 4 4 4
TYPE F F F U
COUNT 1 1 1 1
WIDTH 972
HEIGHT 1
VIEWPOINT 0 0 0 1 0 0 0
POINTS 972
DATA ascii
0.044130132 -0.0121333 0.016392959 4289211433
0.046918228 -0.015242419 0.018883487 4288949293
0.04994566 -0.019138552 0.02202086 4289208884
0.025603175 -0.0093070185 0.01228074 4290326294
0.027706869 -0.010056893 0.012827033 4289606174
0.02962245 -0.010016382 0.012725468 4289409569
0.031733863 -0.010765961 0.01327145 4289868059
0.03345298 -0.0099351304 0.012522549 4291110673
0.03516645 -0.0091043776 0.011773978 4291307024
0.037282705 -0.0098536788 0.012319835 4291372304
0.039404184 -0.010602799 0.012865467 4291110673
0.041950181 -0.012931554 0.014704419 4290783253
0.044087537 -0.013680231 0.015249288 4289409313
0.047090381 -0.017587837 0.018379843 4288426799
0.023278199 -0.0092956945 0.0099555301 4289804819
0.024998076 -0.0084629701 0.0092079807 4289344289
0.02709347 -0.0092152124 0.0097530903 4290521624
0.029387392 -0.010759735 0.010944014 4290325528
0.031691954 -0.012303922 0.012134382 4289409569
0.033411056 -0.011470934 0.011387079 4289736988
0.035124511 -0.010638017 0.010640115 4289802014
0.037240624 -0.011389486 0.011184374 4290129178
0.039155118 -0.011348695 0.011083091 4290063898
0.041907728 -0.014476121 0.01356249 4289801759
0.044257246 -0.016018974 0.014750758 4289278498
0.021511406 -0.011659635 0.0095713548 4289477653
0.023051821 -0.010029923 0.0081802439 4289279009
0.024581157 -0.0084004002 0.0067897532 4290652949
0.026480459 -0.0083603049 0.0066889981 4291176463
0.02857279 -0.0091147339 0.0072326972 4291437839
0.03106223 -0.011458024 0.0090646856 4290849044
0.033170484 -0.012212056 0.0096076597 4289409569
0.035082586 -0.01217144 0.0095064109 4289670943
0.036994487 -0.012130756 0.0094052264 4289605664
0.039319783 -0.013678623 0.010591442 4289670178
0.041865282 -0.016020473 0.01242072 4289015593
0.044851348 -0.019950308 0.015535953 4287183929
0.011071503 -0.0094039477 0.0057272809 4290132239
0.019020751 -0.010839555 0.006610434 4290196243
0.020923242 -0.01079963 0.0065093343 4289344543
0.022640541 -0.0099626891 0.005765086 4290325274
0.024352208 -0.0091257561 0.0050211465 4290325528
0.026058272 -0.0082889358 0.0042775809 4290455833
0.028531358 -0.01063924 0.0061055678 4290782998
0.030824661 -0.012192396 0.0072900616 4291437073
0.032930039 -0.012948588 0.0078315586 4289736224
0.03463804 -0.012111468 0.007088081 4289474594
0.036748476 -0.012867461 0.0076293782 4289671710
0.039277621 -0.015216253 0.009454635 4289408804
0.042032346 -0.018361097 0.011920979 4287576373
0.044808574 -0.021505419 0.014386233 4286398783
0.011199698 -0.011723224 0.0052461061 4289412884
0.013271466 -0.012483069 0.005787204 4289869588
0.016900383 -0.011604324 0.0049426216 4288824343
0.018800259 -0.011564542 0.004841594 4290130199
0.020517707 -0.01072548 0.0040988349 4289606174
0.022229522 -0.0098864958 0.0033564789 4290914834
0.023935735 -0.0090475651 0.0026144674 4290063643
0.025636338 -0.0082087014 0.0018727914 4289277989
0.02791062 -0.0097666578 0.0030550335 4289801504
0.030195579 -0.011324395 0.0042367778 4289932063
0.032292694 -0.012082988 0.0047770622 4289670434
0.034395032 -0.012841414 0.0053171115 4289604899
0.036706582 -0.014398357 0.0064975447 4289211944
0.039442167 -0.017552385 0.0089583956 4287641909
0.0085952282 -0.010077677 0.0016581519 4289281304
0.010990605 -0.012443345 0.0034800149 4289869078
0.013230801 -0.014007046 0.0046604145 4289868824
0.014959618 -0.013165849 0.0039185304 4290849298
0.016682826 -0.012324634 0.0031769704 4290849554
0.018400431 -0.011483544 0.0024357766 4289736224
0.020294592 -0.011443818 0.0023351011 4289866529
0.02200368 -0.010602742 0.0015944839 4290259228
0.023707122 -0.0097616827 0.00085424026 4291306259
0.025404967 -0.0089206537 0.00011428352 4291110674
0.027869418 -0.011284251 0.0019330131 4290979603
0.02995842 -0.012045255 0.002472068 4290586903
0.032251157 -0.013607137 0.0036502057 4290716953
0.034353361 -0.014367744 0.0041886475 4289604643
0.037276462 -0.018331796 0.0072828433 4288426799
0.0088867024 -0.013198258 0.0018183747 4289869334
0.011118717 -0.014766587 0.0029959069 4290064663
0.013018914 -0.014727062 0.0028946667 4289868313
0.014744975 -0.013883712 0.0021544937 4289736989
0.016112052 -0.011433206 0.00013704645 4289802013
0.018000863 -0.011393685 3.6586076e-05 4290325018
0.020071618 -0.012157595 0.00057474012 4289539873
0.021777973 -0.011314424 -0.00016413769 4289605664
0.023478664 -0.010471259 -0.00090270676 4290456088
0.025173783 -0.0096281739 -0.0016408754 4291241488
0.027442269 -0.01119506 -0.00046477932 4291110674
0.029721402 -0.012761632 0.00071074255 4290717973
0.032209642 -0.015131129 0.0025234625 4289735714
0.034915119 -0.018303331 0.0049729119 4289211944
0.037642166 -0.021474997 0.007421202 4286202688
0.0086807162 -0.013909247 5.8913603e-05 4290326804
0.010572836 -0.01387 -4.1977968e-05 4290457619
0.012464777 -0.013830661 -0.00014278805 4289998619
0.014008731 -0.012179477 -0.0015183017 4289998364
0.01589489 -0.012140099 -0.0016186866 4291306769
0.017780907 -0.012100652 -0.0017190105 4291175188
0.019848794 -0.01286689 -0.0011823094 4290913558
0.021552384 -0.012021566 -0.0019194768 4289670178
0.023250349 -0.011176333 -0.0026562498 4289932063
0.025132947 -0.011136685 -0.0027561891 4290455578
0.027401224 -0.012707956 -0.0015833299 4289997599
0.02968017 -0.014278915 -0.00041104574 4289867038
0.03216818 -0.016654965 0.001396833 4288557868
0.0083091557 -0.01380744 -0.0023334227 4289933593
0.010027319 -0.012960164 -0.0030700681 4290391574
0.01173988 -0.012112904 -0.0038063419 4290390553
0.013446845 -0.011265712 -0.0045422795 4290063389
0.015501328 -0.012034503 -0.0040066266 4290913558
0.0175611 -0.012803127 -0.003471212 4290913558
0.019444115 -0.012763711 -0.0035713525 4291240724
0.021511674 -0.013532014 -0.003036235 4290586904
0.023209631 -0.012684638 -0.0037714192 4289867039
0.025282301 -0.013452715 -0.0032364861 4290063133
0.027167343 -0.013412987 -0.0033365344 4289801248
0.029834561 -0.016603582 -0.00089808973 4289539363
0.032523327 -0.019793665 0.0015392532 4286268479
0.0057308301 -0.012114804 -0.0058881962 4289214239
0.007440947 -0.011265567 -0.0066229091 4290457363
0.0091454759 -0.010416406 -0.0073572234 4289998619
0.011186555 -0.011187849 -0.0068226135 4290390553
0.012885325 -0.010338662 -0.0075565116 4290194204
0.014931515 -0.011109844 -0.00702206 4289277989
0.016982988 -0.011880893 -0.0064877984 4290259228
0.019221641 -0.013461757 -0.0053200885 4290586393
0.021471031 -0.015042329 -0.004152901 4289997853
0.023168944 -0.014192786 -0.0048864759 4289997343
0.025241464 -0.014963058 -0.0043531577 4289604388
0.027512066 -0.01654304 -0.0031869146 4289146409
0.030379929 -0.020552039 -0.00012223888 4288230704
0.033076547 -0.023750685 0.0023082187 4286922043
0.0036552325 -0.012842022 -0.0075313267 4289478419
0.0053654611 -0.011990747 -0.0082644634 4289999128
0.0067389384 -0.0095143942 -0.010263195 4290129689
0.0087691545 -0.010288347 -0.0097296983 4289867294
0.010804638 -0.011062094 -0.0091964118 4290652183
0.012497924 -0.010210862 -0.0099284183 4291110418
0.014185637 -0.0093596736 -0.010660073 4289735969
0.016405247 -0.010945375 -0.0094946399 4289408803
0.01881744 -0.013343064 -0.0076975911 4290062878
0.021245785 -0.015740305 -0.0059013949 4290258973
0.022940971 -0.014888693 -0.0066332477 4289735714
0.025390722 -0.017285388 -0.0048380424 4289277223
0.028049357 -0.020493692 -0.0024121343 4287903539
0.031315923 -0.026137309 0.0019068057 4286071874
0.033629425 -0.027720582 0.0030675882 4288361008
0.0029754266 -0.011081442 -0.011166165 4290457874
0.0046747178 -0.010228235 -0.011897191 4289605918
0.0065339655 -0.010189814 -0.011996439 4289671454
0.0085613206 -0.010966057 -0.011464369 4290063388
0.010593936 -0.011742061 -0.010932557 4289932574
0.011937112 -0.0092595546 -0.012924718 4291240978
0.013616636 -0.008406396 -0.013654349 4291306769
0.015648782 -0.0091821915 -0.013122354 4291175188
0.018413514 -0.013215472 -0.01006859 4291175188
0.02046708 -0.013990685 -0.0095376354 4289997598
0.022713169 -0.015580059 -0.0083766673 4289342759
0.02534993 -0.018797621 -0.0059561185 4287772469
0.028393626 -0.023642994 -0.0022768262 4286137153
0.032993264 -0.026819028 3.9660372e-05 4286464319
0.034304924 -0.024336522 -0.0019503343 4287445559
-0.0010974184 -0.011013611 -0.013329418 4289673748
0.00091675669 -0.011792609 -0.012798561 4290195733
0.0026161522 -0.010937352 -0.013528001 4289998874
0.004635483 -0.011716075 -0.012997294 4289998108
0.0064946339 -0.011677681 -0.013096552 4290521623
0.0085218176 -0.01245614 -0.012566116 4289278243
0.010212474 -0.011600696 -0.013294892 4289867038
0.011897549 -0.010745352 -0.014023285 4289867294
0.013577037 -0.0098900273 -0.01475131 4290128668
0.015609041 -0.010668041 -0.014220947 4290193949
0.018009864 -0.013079061 -0.012432998 4290062624
0.020242333 -0.014673125 -0.011274645 4289342759
0.022859909 -0.017899873 -0.0088595878 4288361009
0.030451357 -0.025944388 -0.0028773709 4286137153
-0.0011362582 -0.012499038 -0.014427757 4289999383
0.00056324154 -0.011641708 -0.015155671 4289803034
0.0024171397 -0.011603637 -0.015254807 4289671709
0.0042709038 -0.011565472 -0.015353864 4291307024
0.0062899292 -0.01234632 -0.014824713 4291372303
0.0081460997 -0.012307931 -0.01492377 4291240978
0.010172971 -0.013088468 -0.014394926 4290063389
0.011684455 -0.011412062 -0.015749438 4289605408
0.013537481 -0.011373516 -0.015848164 4289866783
0.015569344 -0.012153746 -0.015319435 4289473828
0.018151611 -0.015390069 -0.012909049 4289473829
0.020386614 -0.01698848 -0.011754094 4288491823
0.023380898 -0.021861214 -0.0080916099 4286529598
-0.0030318499 -0.014022311 -0.0154266 4290197773
-0.0014840066 -0.012341363 -0.016780244 4289737754
0.00020999461 -0.011481966 -0.017506322 4290326294
0.002058357 -0.011444019 -0.017605169 4289409313
0.004069224 -0.012227375 -0.017077239 4290325529
0.0060853586 -0.013010466 -0.016549552 4290390809
0.0081067979 -0.013793401 -0.01602211 4291109653
0.0099627376 -0.013754969 -0.016121121 4289736224
0.011818528 -0.013716481 -0.01622008 4289997853
0.01367417 -0.013677934 -0.016318982 4289670179
0.015887566 -0.015281324 -0.01516616 4289604643
0.018293299 -0.017705318 -0.013388239 4288492078
0.021083929 -0.021770693 -0.010360043 4286988088
0.023714468 -0.025014626 -0.0079586152 4287118393
0.025607385 -0.024974983 -0.0080592651 4286267968
-0.0052252859 -0.013897698 -0.017676799 4290066959
-0.0035256147 -0.01303621 -0.018401716 4290000148
-0.0019859448 -0.01135111 -0.019751722 4289213728
-0.00014297664 -0.011313382 -0.019850362 4290194968
0.0015399829 -0.010452042 -0.020574166 4290456344
0.0035425276 -0.011237705 -0.02004745 4289082148
0.0055503696 -0.012023186 -0.019520963 4289147174
0.0077315271 -0.013631918 -0.018369885 4289670433
0.0095819384 -0.013593646 -0.018468633 4289409058
0.01160565 -0.014378576 -0.017942827 4289931808
0.013810806 -0.015986545 -0.016792906 4289997344
0.016205594 -0.01841742 -0.015019258 4289408294
0.018798098 -0.021671027 -0.012622386 4287576629
0.023673803 -0.026530642 -0.0090795029 4286333504
0.025187157 -0.024845161 -0.010427417 4287249718
-0.0052636862 -0.015378291 -0.018771587 4289477399
-0.0037157238 -0.013688766 -0.020118957 4289083423
-0.0021787509 -0.011999406 -0.02146562 4289279264
-0.00033861399 -0.011961764 -0.02156413 4289867548
0.0011817738 -0.010272539 -0.022909829 4290979603
0.0031787455 -0.011060589 -0.022384426 4290717974
0.0051809996 -0.011848376 -0.021859262 4290390043
0.0073565096 -0.013461567 -0.020711176 4290193949
0.0092013925 -0.013423434 -0.020809649 4290520858
0.011392921 -0.01503619 -0.019662263 4289343013
0.013771273 -0.017473996 -0.017892702 4289081129
0.016165808 -0.019911436 -0.0161239 4286660923
-0.0065687224 -0.020209108 -0.01727601 4289347094
-0.0051531941 -0.017686876 -0.019243695 4289214748
-0.0036024898 -0.015992979 -0.020588012 4289934103
-0.0020627826 -0.014299259 -0.021931631 4288886564
-0.00053407997 -0.012605666 -0.023274591 4289409313
0.0011433586 -0.011740093 -0.023994951 4290391064
0.002977699 -0.011702438 -0.024093054 4291176209
0.0049770847 -0.012492564 -0.023569355 4290914323
0.0069817752 -0.013282461 -0.023045922 4290914323
0.0089917555 -0.014072143 -0.022522697 4289932318
0.011353686 -0.016516965 -0.020757129 4289146918
0.0140839 -0.020616511 -0.017750112 4287642419
0.02022624 -0.022982504 -0.016185889 4286137409
-0.0064610839 -0.022528436 -0.017755885 4289345309
-0.0048939362 -0.020829966 -0.019097945 4289542169
-0.0033377856 -0.019131685 -0.02043931 4289672218
-0.0017926544 -0.017433496 -0.021780064 4289999128
-0.00025850534 -0.015735494 -0.023120128 4289671709
0.0012646616 -0.014037645 -0.02445955 4289016869
0.0029392019 -0.013169899 -0.025178103 4289212964
0.0047733188 -0.013132211 -0.025276164 4289278499
0.0067751631 -0.013924424 -0.02475418 4289408804
0.0089528263 -0.015546232 -0.023612628 4289408804
0.011487789 -0.01882742 -0.021232245 4287315254
0.018133678 -0.023690023 -0.017813182 4286267968
-0.00779102 -0.027387559 -0.016279576 4288823069
-0.0063534901 -0.024851993 -0.018238889 4289344544
-0.0049323961 -0.022316691 -0.02019727 4289083679
-0.003376238 -0.020614099 -0.021535445 4289279519
-0.0016768724 -0.019743996 -0.02225388 4289803543
-0.00014000386 -0.018041573 -0.02359093 4289541913
0.0013858899 -0.016339352 -0.024927298 4288952098
0.0029007718 -0.014637224 -0.026263056 4288493354
0.0047347993 -0.014599599 -0.026361158 4289016359
0.0067364797 -0.015394017 -0.025840795 4289343013
0.0092549548 -0.018684268 -0.023466075 4288361518
0.011968255 -0.022806106 -0.020474341 4286202943
0.01622539 -0.025224676 -0.018819584 4286333504
-0.0079728216 -0.028052332 -0.018006518 4288823069
-0.0063919649 -0.0263451 -0.01934295 4290196754
-0.0049708039 -0.023803307 -0.021296524 4289999893
-0.0034146383 -0.022096392 -0.022631492 4289476123
-0.0017153174 -0.021224169 -0.023348356 4289345563
-0.00017843395 -0.019517414 -0.024682192 4288625189
0.0015070438 -0.018645313 -0.025398193 4288624934
0.003024675 -0.016938895 -0.026730886 4288886309
0.0048613325 -0.016901234 -0.02682914 4288820264
0.0070333108 -0.018532019 -0.025693851 4288623404
0.0095569044 -0.021830954 -0.023325842 4288165423
0.012102112 -0.025129387 -0.020958947 4288034864
0.014141291 -0.025925014 -0.020442134 4286987578
-0.006576322 -0.027001239 -0.021063242 4288232999
-0.0048605055 -0.026126668 -0.021779498 4288952863
-0.0033016279 -0.024415357 -0.023111468 4288821793
-0.0015996397 -0.023540933 -0.02382688 4288952608
-6.0006976e-05 -0.021829866 -0.025157711 4288428584
0.00178767 -0.021792145 -0.02525668 4288624678
0.0033107474 -0.020081295 -0.026586464 4288754984
0.0053177029 -0.02088006 -0.026069758 4288623914
0.0074976385 -0.022515118 -0.024938112 4286530108
0.011716597 -0.024947949 -0.023291299 4286268479
-0.004750289 -0.028454248 -0.022265663 4288363559
-0.0031886846 -0.026738565 -0.023594586 4289738009
-0.0016380399 -0.02502308 -0.024922824 4289606684
5.8367848e-05 -0.024146566 -0.025636302 4289213984
0.0019086599 -0.024108849 -0.025735455 4289410079
0.0034344792 -0.022393577 -0.02706222 4288951333
0.0052791014 -0.022355868 -0.027160985 4288623403
-0.0035295486 -0.026542716 -0.025919246 4288625444
-0.0018303543 -0.025664089 -0.026631353 4289148448
-0.00013671815 -0.024785448 -0.027343137 4288821028
0.0018701851 -0.025588809 -0.026829766 4288428584
0.0033960268 -0.02386925 -0.028153358 4288297004
0.0054054037 -0.024672404 -0.027640073 4287969583
0.0072525516 -0.024634585 -0.027738934 4286202943
-0.0023303404 -0.024614174 -0.029558742 4286858293
-0.0004882589 -0.024576796 -0.029657582 4288101674
0.0013537109 -0.024539325 -0.029756343 4288166954
0.0030335039 -0.023658743 -0.030465668 4288231724
0.0048725381 -0.023621218 -0.030564187 4287118903
0.0068789423 -0.024426576 -0.030052336 4286202689
0.00099694729 -0.02432207 -0.032064047 4288100653
0.0026712641 -0.02343943 -0.032771546 4287838769
0.0046695098 -0.024247285 -0.032260906 4286726204
0.0024712682 -0.024058796 -0.034463506 4286923064
0.0094970614 0.0089826714 0.044396557 4282869583
0.010629624 0.012769965 0.040892743 4281044549
0.015022136 0.010602286 0.042724155 4279219768
0.0070234239 0.0096288119 0.041305471 4281762119
0.0078383088 0.014930407 0.036452569 4280980033
0.0096017271 0.015721699 0.035671316 4281111104
0.011192277 0.017264487 0.034212332 4278375718
0.013281487 0.016552726 0.034787867 4278636839
0.018878512 0.0091187786 0.041359656 4281112889
0.004878968 0.0087808091 0.039577622 4282280533
0.0053927451 0.015605727 0.03338125 4280914753
0.0068274811 0.017906724 0.031248262 4280133688
0.008903347 0.017192328 0.031822771 4280135219
0.010650158 0.01798558 0.031044109 4281828163
0.012391306 0.018778795 0.030265816 4281697858
0.014471963 0.018064765 0.030840263 4281503549
0.017259061 0.014336726 0.034118734 4280721208
0.019895121 0.011362802 0.036719915 4280980799
0.022914216 0.0068825632 0.040671539 4281240644
0.0024331361 0.0094500072 0.036501706 4282083163
0.0031200424 0.015538724 0.030994397 4280718913
0.0045577735 0.017846202 0.028866084 4280588609
0.0064638779 0.017885404 0.028764199 4280133179
0.008534126 0.017168747 0.029337408 4278374698
0.012011103 0.018759383 0.027784299 4279810094
0.013913609 0.01879889 0.027682887 4278896938
0.016341656 0.01657127 0.029604828 4279939123
0.018429853 0.015855415 0.030177405 4280654909
0.020703971 0.014384093 0.031423949 4280981564
0.024089202 0.008379668 0.036713999 4281177148
0.027889989 0.00086524151 0.043349523 4281436738
0.0011653155 0.013964219 0.029961644 4281044804
0.0024553314 0.017036667 0.02716385 4281111104
0.0041999444 0.017834039 0.026388327 4280783173
0.0059388876 0.01863136 0.025613224 4281045058
0.008000806 0.017912364 0.026185278 4280524859
0.013700537 0.018030459 0.025881261 4278506023
0.015950389 0.016554123 0.027125753 4280981819
0.017855078 0.016593849 0.027024355 4280918069
0.019759543 0.016633647 0.026923021 4280982838
0.022030473 0.015158048 0.02816654 4281047864
0.024870284 0.011409631 0.031426284 4280853810
0.028114647 0.0061465837 0.036028907 4278439469
0.03197138 -0.0013883319 0.042645406 4278895664
-0.00078940392 0.012390049 0.028929135 4280913479
0.00179106 0.018552398 0.023346391 4278442529
0.0058988333 0.017109467 0.024487935 4281111614
0.0077963248 0.017148642 0.024386624 4281306689
0.0093596876 0.018708413 0.0229421 4281176639
0.011251315 0.01874763 0.022841217 4280981308
0.013142742 0.018786935 0.022740416 4280981309
0.015209064 0.018066229 0.023310898 4280524093
0.017280631 0.017345702 0.02388115 4280786233
0.019357406 0.016625358 0.024451187 4280983604
0.021439388 0.01590517 0.025021046 4280853809
0.025996447 0.012945829 0.027501 4278828854
0.029056787 0.0084274951 0.031421628 4279351348
0.033120364 0.00011142902 0.038691543 4278634543
-0.003788203 0.0061997771 0.032026749 4280256599
-0.0028919429 0.011579055 0.027225833 4280194888
-0.0017328188 0.015432021 0.023768866 4280785213
0.0012832209 0.019323168 0.020212637 4278572323
0.0053743199 0.017875576 0.021351872 4281372989
0.0074277371 0.017152036 0.021921212 4281177914
0.0093194842 0.017191188 0.021820279 4281112123
0.011211015 0.017230412 0.021719411 4281047354
0.012929961 0.018032124 0.020948863 4281242428
0.014993429 0.01730915 0.021517934 4280982074
0.016884297 0.017348623 0.021417297 4280917049
0.019136004 0.01586383 0.022655321 4280200244
0.020848632 0.016665688 0.021885391 4281112379
0.022741564 0.016705429 0.02178481 4281763903
0.024822935 0.015983285 0.022353191 4281698624
0.027292311 0.013737375 0.024258815 4279420454
0.02997189 0.010730006 0.026832215 4281112889
0.03326346 0.0054376945 0.03140983 4281633344
0.037590601 -0.0036626533 0.039327018 4281045059
-0.0054240748 0.013068149 0.023516946 4280390984
-0.003818512 0.014636898 0.022076173 4281046844
-0.0022240281 0.01620557 0.02063603 4279808819
-0.00064061582 0.017774044 0.019196577 4281698113
0.00093171 0.019342409 0.017757805 4282089539
0.0029690191 0.018616231 0.018326219 4281438268
0.0050115734 0.017890254 0.018894428 4281308219
0.0073876455 0.015635045 0.020799566 4281177913
0.008945547 0.017203534 0.0193618 4281242938
0.01066196 0.018007243 0.018592983 4280917049
0.012372702 0.018810922 0.017824532 4281177660
0.014427833 0.018085642 0.018392392 4281176894
0.016310461 0.018124966 0.018292211 4281242683
0.018553764 0.016635666 0.019527465 4280265268
0.020258188 0.017439539 0.018759595 4279028518
0.022142872 0.017479142 0.018659476 4280396593
0.024215937 0.016754644 0.019226683 4281112379
0.026676901 0.014502047 0.021127926 4280982583
0.028765827 0.013777999 0.021694383 4280396593
0.031450272 0.01076211 0.024261134 4281045823
0.035552673 0.0023990162 0.031493597 4280849218
-0.0069378763 0.0092041865 0.024496883 4280781388
-0.0058985874 0.013846578 0.020386653 4281567554
-0.0043012127 0.015419582 0.018949522 4281438269
-0.0025644377 0.016225258 0.018180761 4278572834
-0.00098647177 0.017798012 0.016744854 4278639134
0.00058040768 0.019370673 0.015309568 4280337178
0.0026120916 0.018642211 0.015876681 4280077844
0.0046490282 0.01791391 0.01644362 4280201774
0.0068552941 0.016418984 0.017677257 4280917049
0.0087386444 0.016457999 0.017576795 4280654909
0.010452285 0.017263839 0.016809745 4281178168
0.012332499 0.017302962 0.016709583 4281373753
0.014037549 0.018108802 0.015943123 4281437759
0.0160923 0.017381428 0.016509458 4280980034
0.017971888 0.017420786 0.016409507 4280590904
0.019668125 0.018226685 0.015643703 4278831658
0.023609295 0.017539283 0.016110074 4279620373
0.028530456 0.013021128 0.019902926 4280721208
0.031408563 0.009230271 0.023128588 4280914498
0.035709672 7.7053905e-05 0.031008378 4281370438
-0.0069773868 0.0076745301 0.023365803 4280260168
-0.0059378818 0.012330038 0.019265283 4279609918
-0.004340522 0.013907401 0.017831381 4281632833
-0.0026038066 0.014715275 0.017064258 4281828163
-0.0010258481 0.016292403 0.01563159 4280460853
0.00054102391 0.017869433 0.014199542 4280401694
0.0022553951 0.018677143 0.013433828 4280592178
0.0042867139 0.017946603 0.013999424 4280916284
0.0064873099 0.016447159 0.015230173 4280916539
0.008198373 0.017255107 0.01446479 4280524093
0.010073245 0.01729404 0.014364852 4280981309
0.015341401 0.018948866 0.012736275 4279157549
0.017570689 0.017450569 0.013965826 4281047354
0.01926145 0.018258551 0.01320194 4281111104
0.021132343 0.018297894 0.013102575 4280719679
0.023380004 0.016800182 0.014331372 4280459323
0.026020773 0.013765832 0.01688737 4281175874
0.02926486 0.0084266663 0.021433596 4281045058
0.03294009 0.0015516225 0.027305037 4281110083
0.037062772 -0.0068589598 0.034500834 4282284869
-0.0068747252 0.0053734668 0.02289981 4279797344
-0.0055424869 0.0084988568 0.020138288 4280588099
-0.0040845722 0.010852298 0.018042656 4279027753
-0.0024928451 0.012434034 0.016612384 4281762628
-0.0010652393 0.014787057 0.014518524 4281567298
0.00019004941 0.017911268 0.011761418 4280328253
0.0020574331 0.017949695 0.011661615 4280263993
0.0039246306 0.017988199 0.011561885 4280589884
0.0062834993 0.015713116 0.013453398 4280981564
0.0081584603 0.015751975 0.0133534 4280851769
0.010033242 0.015790919 0.013253475 4281111614
0.013257645 0.018182075 0.011064444 4278704158
0.017349988 0.016718382 0.012191665 4280719679
0.019220993 0.016757665 0.012092249 4281241664
0.02127751 0.016026242 0.012655461 4280522818
0.023527697 0.01452422 0.013880888 4280458049
0.026553176 0.0099398512 0.017754896 4280914499
0.029998802 0.0038149748 0.022951517 4281369673
0.034077466 -0.0046205586 0.030131845 4282347088
-0.0066300556 0.0022943933 0.02309409 4280254813
-0.0050025806 0.0038810186 0.021664988 4280521035
-0.003681317 0.0070150197 0.018910602 4280064584
-0.0022316948 0.0093749333 0.016820336 4280327999
-0.00095162541 0.012508305 0.014068313 4281243958
0.00046222657 0.014867732 0.01198007 4280915518
0.0021764785 0.015679808 0.011217602 4280524093
0.0037239343 0.017265322 0.009793249 4280524858
0.0059159026 0.015757052 0.011017974 4280916284
0.007618688 0.016569173 0.010256326 4280983093
0.0098238885 0.015061347 0.011480469 4280004659
0.011179432 0.017420059 0.0093957782 4281829184
0.013042815 0.017458951 0.009296597 4282349384
0.014728479 0.018271079 0.0085360585 4280851769
0.017129406 0.015990799 0.010420904 4281046079
0.018814653 0.016803039 0.0096605513 4280653378
0.021422565 0.013750399 0.012205321 4280457284
0.023863636 0.011471232 0.014088161 4280849729
0.027276315 0.0053281635 0.019273566 4281435464
0.030732259 -0.00081393309 0.024456717 4282216273
0.034624517 -0.0085004978 0.030958364 4282150993
-0.0066697672 0.00075898692 0.021958763 4280321368
-0.0048975199 0.0015740003 0.021194413 4280257618
-0.0035734028 0.0047167335 0.01844638 4279801933
-0.0021210313 0.0070833061 0.016360784 4280128844
-0.00068517774 0.0094496347 0.014276145 4280394300
0.00088986009 0.011039903 0.012853421 4280589373
0.0024538189 0.012630099 0.011431329 4280329529
0.0040067136 0.014220098 0.010009924 4280589884
0.0057123676 0.015034376 0.0092496797 4280852279
0.0072458163 0.016624199 0.0078294063 4280656438
0.0092760623 0.015887352 0.0083904779 4278377248
0.010795519 0.017477063 0.0069710836 4281567809
0.012828089 0.016740462 0.0075321039 4281958469
0.014510997 0.017554687 0.0067733796 4281568064
0.016728766 0.016043069 0.0079939226 4280460344
0.018774301 0.015306989 0.00855444 4280981308
0.021567501 0.011470495 0.011752106 4280719933
0.024387673 0.0076346118 0.01494837 4281436738
0.027807936 0.0014742836 0.020120464 4281506098
0.031271465 -0.0046850368 0.025290251 4283791918
0.037730709 -0.014676172 0.03364734 4283328329
-0.0067094788 -0.00077615492 0.020823631 4280189789
-0.0050820261 0.00081920996 0.01940101 4280649554
-0.0036130771 0.0031924881 0.017319323 4280585803
-0.0018603131 0.0040095057 0.016557796 4280260424
-0.00011313707 0.0048264321 0.015796661 4280392003
0.0014727786 0.0064212941 0.014376594 4280458049
0.0030476153 0.0080160704 0.012957149 4280982074
0.0042892545 0.011166392 0.01022033 4281176383
0.0058365166 0.012760727 0.0088025294 4281371713
0.007039696 0.015910419 0.006067886 4281110594
0.0088978112 0.015949035 0.0059688613 4278375718
0.010583796 0.016765358 0.0052114855 4279098899
0.012613475 0.016026529 0.0057710512 4279490579
0.014293633 0.01684287 0.0050140852 4280010523
0.01650846 0.015326886 0.0062315227 4279288363
0.018733963 0.013811147 0.0074484791 4281110083
0.021897852 0.0084090997 0.011953526 4281241153
0.025287867 0.0022306088 0.017114233 4281376558
0.028721161 -0.0039468762 0.022272712 4283793193
-0.0071750358 3.0202791e-05 0.017713351 4280319584
-0.0054111034 0.00084937364 0.016952731 4280583509
-0.0035053715 0.00088823773 0.016850617 4280390984
-0.0015997961 0.00092717633 0.016748574 4280653634
0.00030557811 0.00096623413 0.016646631 4280979524
0.0018996596 0.0025656614 0.015229313 4280720954
0.0034826621 0.0041649472 0.013812724 4280851259
0.004893586 0.0065441225 0.01173932 4281569338
0.0062880069 0.0089230128 0.0096669113 4279613235
0.0074994639 0.012081606 0.0069382996 4280915773
0.0088581368 0.014459962 0.0048678783 4281240899
0.010544084 0.015278457 0.0041121114 4281177404
0.012398988 0.015317196 0.0040133987 4280460853
0.014253698 0.015355999 0.0039147492 4280395828
0.016648389 0.013055978 0.0057853931 4281438779
0.019241914 0.0099768657 0.008311457 4281307708
0.022784442 0.0030006953 0.014117062 4281308983
0.026187465 -0.0031949393 0.019264163 4282943789
0.028870098 -0.0062719984 0.021785703 4284250154
-0.0098191127 0.002376629 0.01340099 4280978504
-0.0033977553 -0.0014201738 0.016378837 4280452184
-0.001489602 -0.0013811514 0.016276678 4280524349
0.0002655983 -0.00055968203 0.015518358 4280264758
0.0020151809 0.00026176684 0.01476041 4280655418
0.0036009103 0.0018654838 0.013346843 4281113144
0.0053365305 0.0026868302 0.012589782 4280919344
0.0067391545 0.0050724801 0.010521744 4281833774
0.0079588965 0.0082399677 0.0077991523 4281637169
0.0094949156 0.0098429695 0.0063885469 4281706529
0.010848008 0.012227857 0.0043233498 4282089793
0.012708269 0.012266705 0.0042243511 4281176638
0.014568329 0.012305619 0.0041254149 4281308219
0.017148152 0.0092173703 0.0066457232 4281243194
0.019932225 0.0053479392 0.0098196045 4282617644
0.023485005 -0.0016476326 0.015610123 4284120359
-0.0038794056 -0.00059401616 0.013284336 4280452694
-0.0016795173 -0.002124425 0.014492182 4281110593
7.2903931e-05 -0.0013008285 0.013735631 4281503803
0.0019751415 -0.0012617335 0.013633931 4281439034
0.0037190318 -0.00043807738 0.012877936 4281439544
0.0054573119 0.00038551167 0.012122352 4281508139
0.0070263594 0.0019933898 0.010713091 4281768239
0.0085843205 0.0036011655 0.0093044396 4281706019
0.0099621713 0.0059929695 0.007242742 4281509413
0.011323512 0.0083845593 0.0051819459 4281245998
0.013017319 0.0092076715 0.0044290628 4279809329
0.015237138 0.0076786224 0.0056364723 4281894464
0.018007435 0.0037979241 0.0088029467 4281243959
0.020987369 -0.00086609088 0.012621119 4283079448
-0.0071194917 0.0049282294 0.0063802958 4284377654
-0.0046551675 0.0018191058 0.0088930642 4280727838
-0.0026190728 0.0010708943 0.0094452361 4281368398
-0.00057770312 0.00032284111 0.0099972365 4281697859
0.001624316 -0.0012116097 0.011201864 4281958978
0.0036789402 -0.0019591451 0.011753262 4281766454
0.0054171532 -0.0011333916 0.010999287 4282158133
0.0071497634 -0.00030765496 0.010245683 4282159154
0.0088767335 0.00051806495 0.0094924541 4282552365
0.010598071 0.0013437867 0.0087395394 4282290988
0.011970356 0.0037421007 0.0066830493 4281833774
0.013675012 0.0045676157 0.0059312019 4282226983
0.015905492 0.0030344483 0.0071348259 4282354739
0.018866144 -0.0016430859 0.010944226 4283987504
-0.030455615 0.0085041132 0.0019074371 4284049214
-0.0035579354 0.0042925328 0.0044178255 4281447448
-0.0012278482 0.0019641798 0.0062719071 4281182759
0.0012737289 -0.0011525862 0.0087764524 4282681648
0.0037969127 -0.004268839 0.011279893 4282877744
0.0055378005 -0.0034407983 0.010527356 4283335213
0.0071095675 -0.0018241536 0.0091244057 4282944043
0.008836478 -0.00099625625 0.0083727948 4282356014
0.01072672 -0.0009569712 0.0082720593 4282290478
0.0124451 -0.00012904033 0.0075209858 4282421038
0.014157861 0.00069882721 0.0067703249 4282551598
0.016573384 -0.001626974 0.0086204279 4283007028
0.019184843 -0.0047406871 0.011119688 4284510253
-0.0047957972 0.0091228727 -0.0018899827 4284377143
-0.0021826327 0.0052053314 0.0012600543 4284119083
0.0056583211 -0.0057523595 0.010052426 4283661103
0.0073962435 -0.0049221208 0.0093017202 4283531564
0.0089623928 -0.0033011585 0.0079023559 4283010088
0.010686368 -0.0024710651 0.0071525751 4282681648
0.012404703 -0.001640955 0.0064031188 4283139629
0.014466077 -0.0023922473 0.0069513437 4282550834
0.017063782 -0.0055150222 0.0094448309 4283006774
-0.033926398 0.0030774698 0.0018635388 4283591743
0.0090882033 -0.0056101838 0.0074288696 4283988014
0.010646038 -0.0039849672 0.0060332301 4283204909
0.01253587 -0.0039455947 0.0059325886 4283008558
0.014774039 -0.0054917568 0.0071260543 4283334959
0.017376862 -0.0086231539 0.0096127987 4283724854
0.010943227 -0.0070888149 0.0062054647 4284315434
0.012838401 -0.0070493445 0.0061045284 4283660083
0.015256003 -0.009394804 0.007939918 4283660083
0.017512806 -0.010944854 0.0091292216 4283988014
-0.0033187047 -0.0012973528 0.04638375 4278734249
0.00033586472 0.00029538758 0.044820007 4278335174
-0.006899409 -0.0052366965 0.047449801 4280176019
-0.0054747537 -0.0021620933 0.044644292 4278929834
-0.0037870556 -0.00060502067 0.043189216 4278666673
-0.0018199459 -0.00056514144 0.043083649 4278471344
-0.0095954314 -0.0030616242 0.043014005 4279651739
-0.0078992248 -0.0015001725 0.041561522 4278668203
-0.012000553 -0.0023901444 0.03993699 4279324319
-0.010575369 0.00070174038 0.037144247 4279128224
-0.0086243451 0.0007410422 0.037039351 4278931108
-0.0066734776 0.00078041106 0.036934514 4278406318
-0.013873991 -0.0047665369 0.039550908 4280635019
-0.0074118078 0.0030434579 0.032429434 4278538918
-0.0061866269 0.0069084018 0.028976806 4279655564
-0.015752867 -0.0071471138 0.039162178 4279061923
-0.014685959 -0.001734579 0.034374189 4279191973
-0.011325866 0.0014135502 0.031490214 4278333388
-0.0075913146 0.0022590775 0.030613754 4279522963
-0.01800669 -0.0072220322 0.036768157 4281356414
-0.016422201 -0.0048733996 0.03466019 4278602669
-0.015111439 -0.00098545291 0.031218734 4278732464
-0.013434052 0.00059284829 0.029780108 4279126439
-0.011633664 0.0014013816 0.029009096 4278602923
-0.0094285309 -9.8913908e-05 0.030238828 4279584674
-0.0079102367 0.0022489335 0.028134827 4279652758
-0.020730786 -0.0041991528 0.031716064 4280897159
-0.01915431 -0.0018442608 0.029613286 4278865063
-0.017216813 -0.0018056482 0.029508807 4278602669
-0.011941269 0.001398256 0.026534593 4278275249
-0.0097418129 -0.00010654889 0.027761444 4278929069
-0.023068577 -0.0034721354 0.028675588 4280241553
-0.021612257 -0.00033651479 0.025913127 4279192738
-0.019685663 -0.0002982188 0.025809161 4278865318
-0.017759208 -0.00025983155 0.025705274 4278800294
-0.010054901 -0.00010515191 0.025290668 4278663869
-0.02504506 -0.0050611319 0.027633589 4281683323
-0.01830117 0.0013037361 0.021914868 4278865064
-0.016385902 0.0013420247 0.021811679 4278799529
-0.014339596 0.00060411915 0.02237086 4278995114
-0.012421895 0.00064267032 0.022267697 4279322534
-0.010367744 -9.4804913e-05 0.022826584 4280306578
-0.027021367 -0.0066497652 0.026591847 4279061414
-0.02588715 -0.0011601541 0.02185644 4279258019
-0.01719524 0.0044800546 0.016713398 4281226874
-0.014903247 0.0021827631 0.018593118 4279718548
-0.012862727 0.0014427137 0.019151038 4279128478
-0.010680377 -7.5427815e-05 0.020369105 4279784849
-0.029325306 -0.0058947839 0.023569774 4279783063
-0.027731873 -0.0035138754 0.021485191 4278864808
-0.026269637 -0.00035218894 0.018741645 4278272954
-0.024594426 0.0012473501 0.01731891 4279912858
-0.023170583 0.0044085104 0.014577607 4279716764
-0.013704587 0.0045978371 0.014067659 4280767619
-0.011265792 0.0015139058 0.016600857 4279000214
-0.031612374 -0.0051260749 0.020556793 4279849364
-0.030128039 -0.0019554738 0.017818337 4278603434
-0.028441727 -0.00035158545 0.016398059 4278799529
-0.033467755 -0.0074856775 0.020181919 4281291389
-0.032288916 -0.0019497909 0.015477745 4278931363
-0.030602545 -0.0003416203 0.014060566 4278734504
-0.029039059 0.0020518191 0.011987253 4278865319
-0.035631277 -0.0074860947 0.01783699 4281093508
-0.034231178 -0.0035101958 0.014454586 4279061923
-0.029747669 0.0052647777 0.0069375923 4279324318
-0.028446075 0.0092391931 0.0035608581 4282340969
-0.037685331 -0.0082671233 0.016152496 4280897158
-0.03627412 -0.004280271 0.012777448 4279454369
-0.032895777 -0.001046773 0.0099554965 4278334919
-0.039924335 -0.0074589364 0.013165472 4281225599
-0.038507473 -0.0034612156 0.0097980918 4278799019
-0.036613837 -0.0034244806 0.0096952356 4278601904
-0.034823842 -0.0025955196 0.0089400047 4279454114
-0.033251934 -0.00018260442 0.0068806242 4279323043
-0.032132447 0.005398022 0.0022136159 4281881713
-0.041868672 -0.009020335 0.01214172 4282470508
-0.040533315 -0.0042171273 0.0081302747 4279127713
-0.038936596 -0.0017975587 0.0060741236 4278865319
-0.035378493 -0.00013590232 0.0045680068 4279389853
-0.041998114 -0.0097481031 0.010364562 4281551999
-0.040570054 -0.0057284487 0.0070125964 4279127968
-0.03907131 -0.0025058333 0.0043117753 4278997153
-0.036036044 0.0031421985 -0.00043687643 4279195289
-0.04194247 -0.012068894 0.0098871756 4281224578
-0.040606782 -0.0072395671 0.0058950675 4280044694
-0.039401792 -0.0016121008 0.0012569777 4279783064
-0.043527395 -0.016833592 0.011450987 4281880439
-0.041702047 -0.015995739 0.01069992 4281225598
-0.040548336 -0.0095513742 0.0054242215 4279913368
-0.03992771 0.00089670904 -0.0030805296 4279259038
-0.041739084 -0.017525947 0.0095682628 4281487228
-0.040680215 -0.010261013 0.0036605943 4280306579
-0.04369086 -0.019092666 0.0085410792 4282667623
-0.041776106 -0.019055905 0.0084367907 4280440709
-0.040716909 -0.011771424 0.0025435879 4279455389
-0.040097922 -0.0012668408 -0.0059191012 4282275943
-0.041905403 -0.019778151 0.0066637155 4280438669
-0.040848605 -0.012474125 0.00078516454 4279390619
-0.042219028 -0.018876448 0.0036137418 4281683833
-0.040980183 -0.013172276 -0.0009698933 4280505223
-0.041206528 -0.013054056 -0.0033599637 4281225854
0.040827513 -0.021622866 -0.0066202148 4282929254
0.031209975 -0.023416979 -0.018509088 4282928744
0.0035678223 -0.023543917 -0.039143767 4281880949
-0.0072408393 -0.026074339 -0.039030198 4282994278
0.031616628 -0.007791901 0.025457028 4285032493
0.031380616 -0.0085692042 0.023650475 4285098283
-0.022666547 0.011543894 0.0061187106 4285295144
-0.021179978 0.013929775 0.0040451554 4286278934
-0.019453332 0.01474979 0.0032876439 4286343448
-0.017208245 0.012438497 0.0051602102 4286015009
-0.01226012 0.0054690912 0.01087427 4285627409
0.026522033 -0.0062971739 0.019435028 4285229864
0.029018931 -0.0086012818 0.021295618 4285425959
-0.024687499 0.010801231 0.0044604521 4285295398
-0.02319533 0.013193728 0.0023913425 4285689119
-0.02171962 0.015585927 0.00032321503 4286475538
-0.01987572 0.015622823 0.00022389414 4286539799
-0.018031947 0.0156598 0.00012464123 4286342939
-0.015787303 0.013342114 0.0019924254 4285818913
0.023628987 -0.0039615463 0.015131764 4285360933
0.026292145 -0.0070565129 0.017641369 4285688353
-0.026937284 0.011638315 0.0014955155 4285229864
-0.025204964 0.012462432 0.00074072974 4285558559
-0.02347821 0.013286529 -1.368532e-05 4285754653
-0.021882478 0.014897911 -0.0014221841 4285819679
-0.020041429 0.014934743 -0.0015213559 4285884449
-0.018200509 0.014971668 -0.0016204505 4286343959
-0.016226117 0.014221607 -0.001065413 4285558049
-0.014110085 0.012684701 0.00014330307 4285623839
-0.012122363 0.011935096 0.0006977641 4285492768
-0.0095622018 0.0080378428 0.0038664788 4285230118
0.021494046 -0.0047476767 0.013449119 4285229863
0.023958184 -0.0070656724 0.015301669 4285556774
-0.029284734 0.013278762 -0.0021138028 4284967723
-0.027560554 0.014104838 -0.0028666505 4285558558
-0.02572199 0.014141286 -0.002965935 4285820954
-0.02388354 0.014177846 -0.003065133 4286082328
-0.022295997 0.015793415 -0.0044699642 4285884958
-0.020335138 0.015040671 -0.0039159828 4285687844
-0.018630639 0.015866844 -0.0046673329 4285884959
-0.016531039 0.014325151 -0.0034610382 4285951259
-0.014556967 0.013572948 -0.002907488 4285689374
-0.012577593 0.012821002 -0.0023541902 4285558558
-0.01059293 0.012069268 -0.0018010964 4285427488
-0.0083140731 0.0097395647 5.5502169e-05 4285296418
-0.0057246983 0.0058322828 0.0032147041 4286022403
0.021817833 -0.0078538647 0.013617866 4285294378
-0.031051196 0.010977963 -0.0024511986 4284967978
-0.029550426 0.013389884 -0.0045065046 4285493023
-0.027831763 0.014217963 -0.0052574123 4285558814
-0.025878891 0.013462564 -0.004704854 4285624094
-0.024288524 0.015082436 -0.0061066919 4286344979
-0.02258385 0.015910605 -0.0068566441 4286081818
-0.020884741 0.016738737 -0.0076061715 4286212889
-0.018798858 0.015192257 -0.0064024064 4286147353
-0.016835727 0.014437595 -0.0058500045 4286082839
-0.015003517 0.01447458 -0.0059484593 4285689374
-0.013171434 0.014511632 -0.0060468526 4285689884
-0.01119785 0.013757503 -0.005494772 4285624094
-0.0090745613 0.012212282 -0.0042926469 4285493024
-0.0069405437 0.01066743 -0.0030910536 4285032494
-0.03282303 0.0086730309 -0.0027912916 4284901934
-0.031422894 0.011885662 -0.0054928144 4285885214
-0.029815875 0.013509879 -0.0068925717 4286147099
-0.028102748 0.014340075 -0.0076416074 4285753889
-0.026395191 0.015170218 -0.0083902255 4285689118
-0.024570625 0.015206495 -0.0084886737 4285820699
-0.022871476 0.016036702 -0.0092366673 4286017559
-0.021049879 0.016073132 -0.0093348008 4286148883
-0.019228417 0.016109677 -0.0094328392 4285820698
-0.017006733 0.013765356 -0.0075831492 4285755163
-0.015177358 0.013802251 -0.0076814736 4285689628
-0.013209254 0.013045738 -0.0071307835 4285689628
-0.011377454 0.013082894 -0.0072290828 4285755164
-0.0095458031 0.013120139 -0.0073273019 4286475538
-0.0077143013 0.013157481 -0.0074254419 4286342938
-0.0055833831 0.011608314 -0.006226839 4286342938
-0.0032892525 0.0092661362 -0.004380533 4285687334
-0.00051329285 0.0045448039 -0.00059090974 4285819934
0.019641854 -0.010168601 0.010804951 4285490730
-0.034706388 0.0071603619 -0.0037831157 4284901934
-0.033077408 0.0087891258 -0.0051810131 4285885213
-0.031571038 0.011214115 -0.0072270152 4286540563
-0.029966779 0.012842687 -0.0086234305 4286278169
-0.028490569 0.015267236 -0.010667615 4286278934
-0.026671477 0.015303297 -0.010765851 4285820699
-0.024729997 0.014543438 -0.010215813 4285689629
-0.022908408 0.01457976 -0.010314027 4285624349
-0.02108695 0.014616201 -0.010412144 4285623838
-0.019265614 0.014652746 -0.010510175 4285623839
-0.017311014 0.013893543 -0.0099605527 4285624094
-0.015214995 0.012338782 -0.0087636225 4285624349
-0.013385892 0.012375755 -0.0088618696 4285689628
-0.011556931 0.012412855 -0.0089600123 4285820444
-0.010016695 0.01404131 -0.010352118 4286410514
-0.0081934705 0.014078474 -0.010449819 4286016029
-0.0063704029 0.014115745 -0.010547431 4286474774
-0.0040901527 0.011766756 -0.008705223 4286213144
-0.0019488931 0.010213597 -0.0075102882 4285557284
0.00083461404 0.0054793973 -0.0037306431 4285426723
0.0036505908 0.00074599497 4.7285575e-05 4286409493
0.0090478733 -0.0071282033 0.0063064722 4287129613
-0.037003104 0.0088424422 -0.0073651331 4285230118
-0.035273395 0.0096768066 -0.00811214 4285493024
-0.033549238 0.010511201 -0.0088587478 4285623583
-0.032053731 0.01294248 -0.010899343 4285885469
-0.030460399 0.014575133 -0.012291908 4285884959
-0.028761055 0.015409412 -0.01303697 4286411023
-0.026947539 0.015445361 -0.013134906 4285689118
-0.024889242 0.01388493 -0.011939587 4285689374
-0.023070514 0.013921199 -0.012037642 4285558814
-0.021251902 0.013957562 -0.012135621 4285559069
-0.019433424 0.013994044 -0.012233505 4285427488
-0.017481729 0.013232624 -0.011685325 4285558559
-0.015524723 0.012471406 -0.011137363 4285558559
-0.013701197 0.01250829 -0.011235293 4285689628
-0.012019303 0.013343113 -0.011978677 4286017559
-0.010343008 0.014177894 -0.012721708 4285622563
-0.0085253492 0.014214946 -0.012819111 4285556518
-0.0067078248 0.014252091 -0.012916436 4285557029
-0.0048904642 0.014289344 -0.01301367 4285688864
-0.0030732676 0.014326649 -0.013110852 4285754909
-0.00046708435 0.010376537 -0.0099845566 4285558304
0.0024872199 0.0048321784 -0.0055705938 4285360169
-0.037659179 0.012179777 -0.012326214 4285493279
-0.035733804 0.011414574 -0.011779033 4285690139
-0.034020621 0.0122509 -0.012523454 4286082839
-0.032424487 0.013887899 -0.013913061 4285557029
-0.030725125 0.014724178 -0.014656568 4285557029
-0.028914355 0.014759956 -0.014754442 4285754398
-0.02686435 0.01319492 -0.013561966 4285820699
-0.025048364 0.013231011 -0.013659967 4285689629
-0.023107376 0.01246688 -0.013113065 4285558814
-0.021416735 0.013303528 -0.013855696 4285559069
-0.019601103 0.013339931 -0.01395344 4285558813
-0.017785594 0.013376465 -0.014051078 4285558813
-0.015562214 0.011012707 -0.012215987 4285623839
-0.01387753 0.011849653 -0.01295799 4285689373
-0.012339871 0.013486566 -0.014343569 4286149138
-0.01095742 0.015923386 -0.016372299 4286082328
-0.0090038702 0.01516032 -0.015825462 4286016539
-0.0074938461 0.016796963 -0.017209349 4285885724
-0.0053855479 0.015234334 -0.016019171 4286149138
-0.0035766214 0.01527149 -0.016115896 4285754908
-0.00082122535 0.010510616 -0.012354167 4285623838
0.0021271482 0.0049508363 -0.0079511516 4285425958
-0.039313111 0.0090843532 -0.012013704 4285361443
-0.038004782 0.013134623 -0.015334675 4285558814
-0.036193769 0.013169965 -0.015432892 4285886744
-0.034709014 0.015613919 -0.017463276 4286148373
-0.033017807 0.016452169 -0.018204836 4286147864
-0.03121797 0.016487615 -0.018302204 4286147863
-0.029184435 0.014917782 -0.017112156 4286083348
-0.027259741 0.014150912 -0.016566163 4285820443
-0.025329713 0.013384281 -0.016020356 4285623839
-0.023519419 0.013420386 -0.016117955 4285624604
-0.02170923 0.013456574 -0.016215486 4285689884
-0.020160176 0.015097672 -0.01759875 4285689628
-0.018089231 0.013529247 -0.016410297 4285689628
-0.016007524 0.011961114 -0.015222296 4285688608
-0.014331084 0.012800103 -0.015962297 4285754654
-0.012801595 0.014441205 -0.017344212 4286017559
-0.01113902 0.015280059 -0.018083282 4286279699
-0.009482041 0.016118905 -0.018821971 4286147608
-0.0078306273 0.016957751 -0.019560358 4286279444
-0.0057279915 0.015390595 -0.018373067 4285951259
-0.003304638 0.012219934 -0.015903095 4285492514
-0.00038654357 0.0066442546 -0.011509862 4285556774
-0.039147824 0.006015785 -0.011806186 4285359914
-0.037833922 0.010077026 -0.015119407 4285294888
-0.036335446 0.012527725 -0.017145816 4285492004
-0.034744721 0.014173137 -0.018528741 4286346254
-0.033164989 0.015818508 -0.019911023 4286344469
-0.03136801 0.015853891 -0.020008242 4286278423
-0.029454287 0.015084537 -0.019463336 4286345998
-0.027415656 0.013510542 -0.018276719 4285754909
-0.025488541 0.012741683 -0.017732369 4285558304
-0.023681093 0.01277771 -0.01782983 4285624094
-0.022001486 0.013618479 -0.018568648 4285689628
-0.020197004 0.013654655 -0.018665794 4285754399
-0.018392626 0.013690902 -0.018762881 4285950749
-0.016316608 0.012118343 -0.017577844 4286214164
-0.014507048 0.012154914 -0.017675048 4285754398
-0.012980297 0.013800314 -0.01905359 4285754909
-0.011320502 0.014641272 -0.019790908 4285623583
-0.0096663013 0.01548226 -0.020527897 4285557538
-0.0078681707 0.015518984 -0.020624204 4285557794
-0.005613558 0.013143329 -0.0188 4285623329
-0.0028779507 0.0083558336 -0.01505664 4285492513
0.00052075833 0.00035292655 -0.0087555591 4286279954
0.0038133413 -0.0068447851 -0.0030969926 4287654658
-0.038781844 0.0013240054 -0.010322344 4285491239
-0.037456926 0.005396381 -0.013628146 4285687844
-0.035947539 0.007853765 -0.015650272 4285754908
-0.034563191 0.011118177 -0.018312328 4285426214
-0.032978032 0.012767946 -0.019691646 4285557793
-0.031403869 0.014417646 -0.021070333 4285622564
-0.029607117 0.014453134 -0.021167463 4285689373
-0.027690966 0.013681749 -0.020624226 4285624093
-0.025769468 0.012910524 -0.020081166 4285558304
-0.023967594 0.01294644 -0.020178329 4285689373
-0.022038169 0.012175642 -0.019635569 4285754653
-0.020364191 0.013018547 -0.020372419 4286410259
-0.018562671 0.013054768 -0.020469328 4286212889
-0.016761273 0.013091071 -0.020566171 4286212633
-0.014960006 0.013127474 -0.020662926 4285951004
-0.013158873 0.013163952 -0.020759622 4285689628
-0.011645854 0.014813555 -0.022134181 4285624349
-0.009850435 0.014850119 -0.022230418 4285624093
-0.0076068193 0.012467621 -0.020410532 4285623583
-0.0050427243 0.0084728897 -0.017314412 4285558304
-0.0019869283 0.0020599738 -0.012304505 4286868494
-0.038617078 -0.0017658491 -0.01013064 4285622309
-0.036874112 -0.00092047825 -0.010870401 4285753634
-0.035348371 0.0015437752 -0.012888633 4285754143
-0.033947606 0.0048171915 -0.015545143 4285754398
-0.032791279 0.0097089391 -0.019478589 4285492259
-0.031211697 0.011363022 -0.020854324 4285426723
-0.029643096 0.013017075 -0.022229407 4285558558
-0.027727131 0.01224352 -0.021687767 4285624348
-0.026050169 0.013088362 -0.022423388 4285689883
-0.024004076 0.011506001 -0.021243483 4285689629
-0.022330061 0.012351042 -0.021978831 4285819934
-0.020531267 0.012387065 -0.0220757 4286016793
-0.018865649 0.013232103 -0.022810394 4285950748
-0.017069817 0.01326829 -0.022906937 4286213908
-0.015274107 0.013304552 -0.02300342 4286214163
-0.01333731 0.012532214 -0.02246231 4285689373
-0.011683084 0.013377381 -0.023196127 4285689628
-0.009594433 0.011796657 -0.022017933 4285689373
-0.0073456764 0.0094077624 -0.020203214 4285688863
-0.038452506 -0.0048642103 -0.0099452287 4285556773
-0.03680725 -0.0032049175 -0.011321615 4285688099
-0.035067186 -0.0023573264 -0.012059532 4285753888
-0.033441164 -0.00069814548 -0.013434757 4285819678
-0.032271042 0.0042069033 -0.01735929 4285688608
-0.030905776 0.0074885208 -0.020007282 4285623329
-0.029562384 0.01076985 -0.022653988 4285426724
-0.027882677 0.011616785 -0.023388244 4285493023
