# .PCD v0.7 - Point Cloud Data file format
VERSION 0.7
FIELDS x y z rgba
SIZE 4 4 4 4
TYPE F F F U
COUNT 1 1 1 1
WIDTH 962
HEIGHT 1
VIEWPOINT 0 0 0 1 0 0 0
POINTS 962
DATA ascii
0.010887653 -0.004602477 0.020541687 4289932318
0.012675419 -0.0037857853 0.019784702 4290455578
0.014774792 -0.0045254491 0.020344628 4289932063
0.01687941 -0.0052649034 0.020904366 4290848023
0.019153334 -0.0067822291 0.022121906 4290455834
0.021104366 -0.0067432402 0.022023242 4290324509
0.023055203 -0.0067041581 0.021924663 4290193949
0.025350288 -0.0082208533 0.023141362 4289932063
0.027656026 -0.0097371954 0.024357552 4289735969
0.029439442 -0.008919863 0.023601331 4289604898
0.031036809 -0.0073248297 0.02218828 4289932063
0.032806195 -0.0065075839 0.021432839 4289473573
0.034569927 -0.0056904275 0.020677775 4289801248
0.036893614 -0.0072060395 0.021893412 4290128668
0.039227962 -0.008721333 0.02310851 4289998108
0.041960888 -0.01179128 0.02563617 4289472808
0.0063699111 -0.0031096218 0.016953306 4288888604
0.0086037442 -0.0046325782 0.018169265 4289998363
0.010388911 -0.0038138554 0.01741397 4291175698
0.012168452 -0.0029951418 0.016659033 4288427563
0.014100917 -0.002956775 0.016561123 4288362284
0.01635576 -0.004478923 0.01777631 4289539618
0.01878532 -0.0067810332 0.019647453 4289539873
0.021064252 -0.0083025126 0.020861562 4289932063
0.023184434 -0.0090435948 0.021419143 4290193949
0.02513767 -0.0090043861 0.021320499 4289605154
0.026915811 -0.0081850337 0.020566059 4289866783
0.028688304 -0.007365739 0.019812018 4290324764
0.030635461 -0.0073263999 0.019713871 4291043863
0.03276547 -0.008066834 0.020271217 4290978838
0.034529142 -0.0072474908 0.019517791 4290128413
0.036664143 -0.0079876697 0.020074999 4290063388
0.038995571 -0.0095074093 0.021287045 4289540128
0.041919388 -0.013365742 0.024463238 4288557359
0.0058881417 -0.0023052013 0.013836271 4288953119
0.0081135631 -0.0038326886 0.015049476 4289344033
0.010043576 -0.00379459 0.014951525 4291045394
0.011817604 -0.002973754 0.014198462 4290978838
0.013744511 -0.0029355064 0.014100824 4290979349
0.016154923 -0.0052446146 0.015967997 4290782743
0.018417515 -0.0067708809 0.017179677 4291044628
0.020690799 -0.0082968278 0.018390821 4289736223
0.022805363 -0.0090401564 0.018947015 4290063134
0.024753049 -0.0090010334 0.018848671 4290324763
0.026350871 -0.0073974673 0.017441964 4290259229
0.027937606 -0.0057939859 0.016035844 4290782233
0.029873796 -0.005754861 0.015938254 4290847768
0.031992778 -0.0064977314 0.016494576 4291044373
0.034116954 -0.0072403662 0.017050659 4290979094
0.036434785 -0.0087647382 0.018260062 4289605154
0.039145581 -0.011852611 0.020775784 4289604389
0.041684009 -0.01415814 0.022637248 4286333249
0.007473439 -0.0022346331 0.011285695 4288098358
0.0092394277 -0.0014119325 0.010534626 4288687919
0.011155523 -0.0013740053 0.010437458 4288818734
0.013229884 -0.0021206615 0.010993801 4289734948
0.01563184 -0.0044364017 0.012856503 4289997598
0.01788605 -0.005967183 0.01406536 4289670944
0.019984327 -0.0067131016 0.014620688 4289998108
0.022087835 -0.0074588088 0.015175831 4289736479
0.02419661 -0.0082043875 0.015730798 4289605154
0.025961056 -0.0073809484 0.014980307 4290520603
0.02736488 -0.0049889768 0.012925282 4289474084
0.029473014 -0.0057342574 0.01348044 4289016104
0.031586394 -0.0064793741 0.014035377 4289474084
0.033890635 -0.0080084745 0.015242213 4289474084
0.036393933 -0.01032136 0.017100409 4289473828
0.039104402 -0.013417898 0.019609684 4289538343
0.041642591 -0.015729975 0.021466274 4286202434
0.015109099 -0.00361495 0.0097549455 4288689194
0.017354906 -0.0051502129 0.010960932 4289408548
0.019278303 -0.0051117521 0.010863685 4289932063
0.021540068 -0.0066465577 0.012069044 4289866783
0.023640499 -0.0073944088 0.012622787 4289735713
0.025396749 -0.0065690223 0.01187436 4290586139
0.026792474 -0.0041706357 0.0098245787 4290651928
0.028712139 -0.004131835 0.009727831 4290455578
0.030814499 -0.0048793526 0.010281697 4290455323
0.033478856 -0.0079856729 0.012786687 4290586138
0.035788134 -0.0095189586 0.013990068 4290192929
0.038872197 -0.014196794 0.017793568 4289472554
0.022912793 -0.0057823919 0.0088751679 4289341994
0.02483277 -0.0057437634 0.0087782703 4289276713
0.026397794 -0.0041277288 0.0073830197 4289669669
0.028311953 -0.0040890584 0.0072865346 4290193693
0.030591518 -0.0056273863 0.0084880209 4290521368
0.033067301 -0.0079539726 0.010337864 4290521113
0.035747454 -0.011068592 0.01283562 4289343269
0.038449131 -0.014182658 0.015332308 4287706679
0.027731918 -0.0032465374 0.0042043878 4287639614
0.030185916 -0.0055801673 0.0060503986 4288885034
0.032655977 -0.007913325 0.0078956326 4289670179
0.035518579 -0.011827381 0.011034227 4289212199
0.038408153 -0.015740799 0.01417153 4286399039
-0.019788135 0.013451746 0.036031749 4281371203
-0.016470701 0.017289685 0.03243158 4279155763
-0.014418278 0.016573491 0.033012107 4280525624
-0.011754934 0.012093544 0.036990922 4279350839
-0.022095505 0.014124628 0.032936059 4281502528
-0.020816691 0.018692123 0.028764438 4281242683
-0.019119203 0.020238625 0.027308518 4280459834
-0.017201535 0.020274872 0.027209993 4281111104
-0.015284013 0.020311201 0.02711154 4280264249
-0.013124496 0.018837692 0.02836936 4280915263
-0.010830425 0.016609611 0.030304585 4281044293
-0.0083936304 0.013627065 0.0329169 4280978759
-0.0059351772 0.010645017 0.035528168 4281044294
-0.0037190393 0.0091730207 0.036783412 4281240643
-0.0012227669 0.0061919149 0.039392911 4282411603
0.00074540079 0.0062299762 0.039292432 4281175108
0.003414169 0.0024951305 0.042577531 4279936064
0.0061099827 -0.0012390967 0.045861322 4281370184
-0.022991378 0.018634496 0.026364313 4281306943
-0.021293785 0.020185234 0.02491162 4278963239
-0.019494407 0.020978557 0.024136424 4280329529
-0.017585061 0.021014648 0.02403833 4281567043
-0.015794143 0.021808056 0.023263756 4281045313
-0.013766795 0.021087168 0.023842413 4279416119
-0.0116104 0.019609394 0.025097188 4280915519
-0.0095697269 0.018888986 0.025675336 4281111359
-0.0077821501 0.019682745 0.024901243 4280851513
-0.0056044236 0.018205682 0.026155218 4281112124
-0.003415972 0.016728951 0.027408665 4280331059
0.00099311024 0.013776381 0.029914197 4279414078
0.0066094697 0.0047716256 0.037819434 4280979269
0.0097629651 -0.001242863 0.043119755 4282348108
0.013412841 -0.0095261754 0.050442759 4282805324
-0.024736393 0.015547557 0.026673099 4281695818
-0.023242462 0.018621949 0.023871936 4281111104
-0.021550369 0.020176942 0.022422785 4279677749
-0.019530971 0.019453427 0.023000006 4278374954
-0.017852783 0.021008419 0.021551689 4278374954
-0.0140457 0.021080753 0.021356372 4279872824
-0.012018681 0.020357748 0.021933554 4280915518
-0.010112789 0.020394234 0.021835979 4280915263
-0.0083362088 0.021190027 0.021064045 4280850238
-0.006301485 0.020467503 0.021641081 4280721718
-0.0042614937 0.019745244 0.022217888 4280589374
-0.0024908781 0.020541193 0.021446541 4280329273
-0.00030573457 0.019060271 0.022697078 4279414078
0.0017473474 0.018338574 0.023273449 4279740479
0.0045331717 0.013822787 0.027217481 4281501254
0.0076479539 0.0077900887 0.032506816 4281240133
0.011862755 -0.0035528708 0.042507078 4281369418
0.015544392 -0.011859383 0.049810681 4282804559
-0.025190987 0.017059045 0.02283253 4281371714
-0.023707904 0.020141957 0.020038443 4281046079
-0.021806754 0.020177701 0.019940624 4281046334
-0.019905739 0.020213554 0.019842895 4280981309
-0.018004846 0.020249533 0.019745268 4280589628
-0.016222276 0.02104714 0.018974371 4280720188
-0.014203485 0.020321773 0.019550251 4280784959
-0.012303028 0.020358065 0.019452889 4280784704
-0.010402724 0.020394454 0.019355604 4280392768
-0.0086316615 0.021192288 0.018585633 4280524094
-0.0066025853 0.02046754 0.019161303 4278702374
-0.0048373118 0.021265486 0.018391795 4281045823
-0.002803117 0.020541048 0.018967358 4281827654
-0.00090365857 0.020577943 0.01887051 4281566788
0.0011383519 0.019853855 0.019445824 4281176638
0.0036219433 0.016846852 0.022036815 4281111614
0.0067198277 0.010796439 0.027314026 4281436738
0.010615543 0.00094234385 0.035947476 4281436228
-0.025645182 0.018588262 0.01900517 4281240643
-0.023851272 0.019387839 0.018235009 4280917304
-0.02195299 0.019423546 0.018137351 4280134709
-0.019942161 0.018695524 0.018711764 4280980543
-0.018041406 0.018731499 0.018614145 4281372734
-0.016258925 0.019531311 0.017844904 4281176129
-0.014482036 0.02033112 0.017076025 4280980033
-0.012710758 0.021130985 0.016307484 4281045059
-0.010818757 0.021167228 0.016210634 4281045058
-0.0087978952 0.020440022 0.016785083 4280849729
-0.0067717135 0.019713053 0.017359283 4279742518
-0.0050092489 0.020513138 0.016591555 4278505258
-0.0032524019 0.021313252 0.015824143 4278505003
-0.0012212843 0.020586645 0.016398363 4278374954
0.00081509352 0.019860296 0.016972359 4278574108
0.0032929033 0.016844505 0.019557163 4281371968
0.0066809952 0.0092502646 0.026162043 4281436993
0.010425046 0.00013096631 0.034104373 4281698879
-0.027073704 0.013203811 0.021326855 4281890639
-0.025994521 0.019369004 0.015861785 4281045314
-0.018424038 0.019511649 0.015472498 4279873334
-0.016531743 0.019547598 0.015375413 4281306944
-0.014760397 0.020349493 0.014608458 4280915008
-0.012871109 0.020385595 0.014511682 4280719168
-0.010981981 0.020421812 0.014415003 4280784448
-0.0090929978 0.020458108 0.014318392 4280915009
-0.007204175 0.020494519 0.014221881 4281175618
-0.0053155199 0.020531049 0.014125466 4280719934
-0.0034270287 0.02056765 0.014029115 4279416373
-0.0015387163 0.020604366 0.013932863 4280394043
0.00063464791 0.019110257 0.0151744 4280524094
0.0035453811 0.013789572 0.01975896 4280719679
0.0070863217 0.0054083187 0.027015965 4281437503
0.010385416 -0.0014410773 0.032933127 4283074094
-0.027618159 0.015517408 0.016841382 4280717383
-0.02623916 0.019394713 0.013397558 4280523328
-0.024351954 0.019430107 0.013300391 4280980799
-0.022574708 0.02023386 0.012534439 4281110848
-0.020690475 0.02026944 0.012437605 4278832169
-0.018806357 0.020305118 0.01234085 4281046333
-0.016804356 0.01957283 0.012912663 4281045824
-0.01503855 0.020376818 0.012147631 4280915264
-0.013154842 0.020412808 0.012051138 4280784449
-0.011397503 0.021216864 0.011286709 4280522563
-0.0093879066 0.02048515 0.011858453 4280783938
-0.0076363161 0.021289295 0.011094471 4280785214
-0.0054871999 0.019790119 0.012333734 4281371459
-0.0036015809 0.01982669 0.012237553 4281045314
-0.0017161146 0.019863369 0.012141457 4280523584
0.0004542917 0.018364912 0.013379863 4280523583
0.0035070851 0.012261331 0.018620333 4280784448
0.0071952865 0.0030886494 0.026526459 4281568574
0.010496505 -0.0037802681 0.032428902 4284317473
-0.028162099 0.017853057 0.012372343 4280717383
-0.026483607 0.019429395 0.010940018 4279349564
-0.024709068 0.020235216 0.010175711 4281436228
-0.0228303 0.020270569 0.010079065 4281697603
-0.021176696 0.021846784 0.0086482819 4281371968
-0.019188374 0.021111956 0.0092190895 4280590393
-0.017312717 0.021147603 0.0091228671 4280915773
-0.015316498 0.020413136 0.0096934326 4280849984
-0.013438389 0.020449055 0.0095972512 4280849984
-0.011686571 0.021255175 0.0088347271 4280980544
-0.0080681518 0.022097414 0.0079769306 4278898723
-0.0039130598 0.019860229 0.0097835502 4279221044
-0.0018934011 0.019126965 0.010353471 4280915008
0.00041652471 0.01685434 0.012254397 4280849984
0.0037592202 0.0091938488 0.018812852 4281241409
0.0073041469 0.00076488405 0.026033899 4282354229
-0.029689524 0.013220577 0.014012275 4281891404
-0.028299283 0.017119741 0.010584035 4280914244
-0.026623562 0.018700419 0.009155063 4278632504
-0.024851836 0.019508319 0.0083925631 4280201009
-0.023085676 0.020316241 0.0076304479 4280659243
-0.019570082 0.02193209 0.0061073108 4278506023
-0.01770274 0.021967581 0.0060115168 4280785724
-0.015714884 0.021230796 0.0065808976 4280719933
-0.013845086 0.021266567 0.0064851521 4280850238
-0.012101531 0.022074716 0.0057246843 4280719933
-0.0081050247 0.020602299 0.0068629449 4278894898
-0.0060988367 0.019866409 0.0074317902 4279155764
-0.00422436 0.019902797 0.0073362011 4278374954
-0.0020705983 0.018395191 0.0085689416 4281044803
0.00052122772 0.014572022 0.011793134 4280980033
0.0038659722 0.0068898685 0.018335206 4281633089
0.0074128807 -0.0015629707 0.025538297 4282621213
-0.030021559 0.014031043 0.010889953 4282021963
-0.028436366 0.016391041 0.0087991739 4281240645
-0.026659179 0.01720115 0.0080378912 4280717383
-0.0249945 0.018786045 0.0066128643 4280263484
-0.023340847 0.020370858 0.005188494 4278764848
-0.021585818 0.0211809 0.0044286158 4280263738
-0.019606058 0.020441541 0.0049966769 4280981309
-0.017856721 0.021251699 0.0042372569 4280850238
-0.015871771 0.020512646 0.0048052082 4280785213
-0.014128167 0.021322934 0.0040462576 4280915519
-0.012264099 0.0213587 0.0039508864 4278765613
-0.010271404 0.020620124 0.0045186868 4281175618
-0.0084048957 0.020656148 0.0044233473 4281370948
-0.0064043365 0.019917978 0.0049908562 4280980289
-0.0045354292 0.019954259 0.0048955521 4280915774
-0.0025270209 0.019216446 0.0054628206 4280719169
0.00048339367 0.013059778 0.010666422 4281046079
0.0039725825 0.0045818016 0.017854519 4281503548
0.0072258189 -0.0023468332 0.023715513 4284255509
-0.029958364 0.011746176 0.010429426 4280520523
-0.028268974 0.01333566 0.0090062059 4280848709
-0.026382234 0.013370974 0.0089090113 4281696329
-0.024709426 0.01496038 0.0074868193 4281696328
-0.023047633 0.016549742 0.0060652401 4281631048
-0.02150923 0.018915864 0.0039820978 4281174598
-0.019757126 0.019728148 0.0032240844 4281111103
-0.017892782 0.019763598 0.0031284562 4280851513
-0.016028572 0.019799164 0.003032923 4280590649
-0.014164489 0.019834826 0.0029374699 4280915008
-0.012300558 0.019870603 0.0028421136 4279742518
-0.010308046 0.019129863 0.0034083121 4279287344
-0.008573126 0.019942483 0.002651673 4279938358
-0.0065754727 0.019202037 0.0032177523 4279939123
-0.00270392 0.018498247 0.0036884022 4280981819
0.00044556707 0.011547811 0.0095399143 4281372734
0.0039340258 0.0030459017 0.016710188 4281571889
-0.029895261 0.009457184 0.0099659059 4281042764
-0.028203201 0.011051146 0.0085457796 4280652614
-0.026313879 0.011086505 0.008448449 4280459324
-0.024531525 0.011901146 0.0076902872 4279805248
-0.022645142 0.011936683 0.0075932778 4279284029
-0.021208137 0.015088649 0.0048537729 4280522309
-0.01944793 0.015903218 0.0040970063 4281042508
-0.017811071 0.017496763 0.0026802595 4281500744
-0.015823789 0.016753474 0.0032448198 4281631304
-0.014077608 0.017568113 0.0024890283 4281502784
-0.012211084 0.017603951 0.0023935444 4281241408
-0.010473371 0.018418683 0.0016383035 4279612724
-0.0051569715 0.020084137 3.4269993e-05 4280589884
-0.0027411431 0.017006101 0.0025766555 4280916284
0.00055000931 0.009257609 0.0090727042 4281372733
0.003895469 0.0015102662 0.015566057 4279555348
-0.029733643 0.0063826777 0.010159039 4281370183
-0.028036162 0.0079810079 0.0087418929 4280912969
-0.026141535 0.0080164969 0.0086443108 4280195398
-0.024247009 0.008052066 0.0085467938 4280195653
-0.022462137 0.0088691022 0.0077901818 4279738949
-0.020795092 0.010467356 0.0063749729 4280064838
-0.019139063 0.012065509 0.0049604122 4280195909
-0.017376363 0.01288246 0.0042051859 4280194889
-0.015619226 0.01369937 0.003450373 4279999049
-0.013744526 0.013735263 0.0033543983 4281240644
-0.011995841 0.014552232 0.0026001807 4282153033
-0.010252751 0.015369207 0.0018463347 4282348873
-0.0087779239 0.017747978 -0.00022327073 4282283593
-0.0070514828 0.018564856 -0.0009761015 4281696583
-0.0051938519 0.018600931 -0.0010708235 4281111104
-0.0024993643 0.013952779 0.0027803543 4281176638
0.00079657137 0.0061826445 0.0092599336 4281503549
-0.029769376 0.0048670694 0.0090296753 4280847689
-0.027970646 0.005686162 0.0082737654 4280652614
-0.026177462 0.0065052304 0.0075182021 4280260934
-0.024283089 0.0065408219 0.0074207112 4280456263
-0.022498306 0.0073600411 0.0066657364 4279999303
-0.020719092 0.0081792232 0.0059111742 4280390729
-0.018830504 0.0082150474 0.0058142375 4280260424
-0.016942054 0.0082509648 0.0057173809 4280390729
-0.01505373 0.0082870107 0.0056206267 4280456774
-0.013288647 0.009106366 0.0048671169 4280129353
-0.01165498 0.010708885 0.0034572801 4280197183
-0.010160908 0.013094451 0.0013914867 4279154233
-0.0085520446 0.014696715 -1.6915961e-05 4280002364
-0.0070882402 0.0170819 -0.0020810144 4281826633
-0.0049572885 0.015552113 -0.00086341827 4281956173
-0.0022577792 0.010890948 0.0029777915 4281695819
0.00090073794 0.0038820244 0.0087850383 4281045569
-0.029608056 0.001779994 0.0092135165 4280911694
-0.027905226 0.003387196 0.0078025693 4280324938
-0.026005439 0.0034227595 0.0077047059 4280129608
-0.024212465 0.0042441413 0.0069508823 4279868233
-0.022534471 0.0058512185 0.0055414699 4280194634
-0.020755351 0.0066725723 0.0047885347 4280129609
-0.018866904 0.0067083947 0.0046916055 4280651083
-0.016978595 0.0067443326 0.004594774 4280651083
-0.014970075 0.005994942 0.0051533859 4280651083
-0.013079304 0.0060311388 0.0050565843 4280520779
-0.011440221 0.0076381229 0.0036497253 4280260934
-0.0099406764 0.010030316 0.0015885227 4279868743
-0.0081951618 0.010851802 0.00083788601 4280064584
-0.0065891854 0.012458447 -0.00056705682 4279933769
-0.0045842603 0.011709651 -7.7650184e-06 4280520779
-0.0018770546 0.0070356503 0.003823281 4281238604
0.000720568 0.0031474084 0.0069985017 4279079519
-0.029939327 0.0026246905 0.0061166976 4280452949
-0.028042309 0.0026600864 0.006018891 4280322899
-0.02604147 0.0019076951 0.0065757679 4279671119
-0.024141934 0.0019433759 0.0064780088 4279281734
-0.02235188 0.0027669873 0.0057260394 4279541578
-0.020679504 0.0043784305 0.0043202573 4279802699
-0.019018132 0.0059897471 0.0029151717 4280194124
-0.01725024 0.0068132803 0.0021646 4280259148
-0.015247371 0.0060616173 0.0027218859 4280194634
-0.013362169 0.0060977042 0.0026253674 4280390474
-0.01147712 0.0061339214 0.0025289569 4280195143
-0.0099775493 0.0085326228 0.00047261175 4279933769
-0.0081009418 0.0085688941 0.00037679542 4280129353
-0.0064922757 0.010179948 -0.001025033 4280129099
-0.004211545 0.0078543704 0.0008383356 4280259403
-0.0019146651 0.0055292752 0.0027009349 4280583254
-0.028280441 0.0027277898 0.0035855209 4278361693
-0.026492998 0.0035533011 0.002835145 4278558043
-0.024497911 0.0027987324 0.0033907702 4278950998
-0.022497475 0.0020443518 0.0039462624 4278824264
-0.02071581 0.0028701443 0.003196399 4280063053
-0.019054472 0.0044857804 0.0017945429 4279996243
-0.017286669 0.0053115096 0.0010456156 4280127823
-0.015524432 0.0061372165 0.00029703579 4279866703
-0.013644829 0.0061732177 0.00020082004 4280194124
-0.011765353 0.0062093269 0.00010469172 4279803463
-0.010014419 0.0070352051 -0.00064309419 4280129608
-0.0080068149 0.0062818434 -8.7309745e-05 4280390474
-0.0062616244 0.0071078371 -0.00083463464 4280325449
-0.0039757416 0.0047758408 0.0010236052 4280191829
-0.018976096 0.0021900348 0.0013249037 4279340639
-0.017205648 0.003017962 0.00057744188 4279732318
-0.015560944 0.0046378579 -0.00082014344 4280058973
-0.013681475 0.0046738442 -0.00091635931 4279406939
-0.011927757 0.0055018384 -0.0016627491 4279736909
-0.01005128 0.0055379998 -0.0017586399 4279738949
-0.0081749372 0.0055742692 -0.0018544423 4279870018
-0.0064325295 0.0064023156 -0.002599977 4280195398
-0.0042861775 0.0048553962 -0.0013961054 4279537499
-0.011964489 0.0040048975 -0.0027781064 4279080283
-0.0099598505 0.0032470319 -0.0022254926 4278820949
-0.0082119331 0.0040773004 -0.0029698038 4279149134
-0.0063358694 0.0041136723 -0.0030655111 4279736909
-0.0045963973 0.004943924 -0.0038092064 4278687583
0.0032003894 4.4761226e-05 0.0095183207 4282470253
0.0025828928 0.0016674176 0.0057714293 4280502929
0.0046305731 0.00091760792 0.0063272407 4281549958
0.0066835284 0.00016808324 0.0068828436 4282924408
-0.031584859 -0.0012940159 0.0070476187 4280115328
0.00021851808 0.0024812557 0.0027847977 4278280348
0.0022552982 0.0017290246 0.0033394389 4278865064
0.0040024519 0.0025555044 0.0025924246 4278602413
0.0077856928 0.0026301369 0.0024003841 4278793663
0.0099882856 0.0010894164 0.0036051257 4279186873
0.012201607 -0.00045106839 0.0048094131 4280762773
0.014264561 -0.0012022117 0.0053631542 4280958613
0.016496554 -0.0027420856 0.0065666027 4282397834
-0.032003138 0.00035680458 0.0033087104 4278341548
-0.030404177 0.0027691796 0.0012560659 4279193249
-0.028619453 0.0035966858 0.0005073566 4279650718
-0.026840288 0.0044242144 -0.00024097075 4280241553
-0.00024519116 0.0033456497 -0.00028863549 4278998428
0.0016385615 0.0033825729 -0.00038443552 4279453604
0.00366956 0.0026281513 0.00016894983 4279125674
0.0054055825 0.003456695 -0.00057579478 4279189678
0.0074416772 0.002702577 -2.2516586e-05 4279451819
0.011529699 0.0011948664 0.0010834688 4278993584
0.013420597 0.0012324881 0.00098772277 4279388578
0.015638754 -0.00031198654 0.002188642 4279389343
0.017701186 -0.0010651443 0.0027409128 4279585438
0.019938029 -0.0026091496 0.003941033 4280828818
-0.033561137 -0.0043668589 0.0048825592 4282011509
-0.032134209 -0.00035852008 0.0015333646 4279193759
-0.028756063 0.0028899107 -0.0012611677 4278270403
-0.025315415 0.0053436588 -0.0034035335 4279716763
-0.023225229 0.0037902668 -0.0022008908 4279193503
-0.00042475015 0.0026358683 -0.0020565907 4279651739
0.0014561564 0.0026727412 -0.0021522413 4279059629
0.0053675547 0.0019531902 -0.0016959707 4279651993
0.007250689 0.0019903872 -0.0017915234 4278800039
0.0091336593 0.0020276662 -0.0018870053 4279125163
0.011174694 0.0012716632 -0.0013354571 4278929324
0.013060033 0.0013091639 -0.0014309302 4278864299
0.01527255 -0.00023983791 -0.00023294729 4278799784
0.017162971 -0.00020204857 -0.00032853498 4278668458
0.019053213 -0.00016416423 -0.00042404258 4278995878
0.022484027 0.0014979746 -0.0019071345 4278793663
0.024722807 -5.0092116e-05 -0.00071017514 4279580849
0.026972264 -0.0015978189 0.00048626703 4281287819
0.029597826 -0.0047310861 0.0029736755 4282335104
-0.035231221 -0.0083110444 0.0057959864 4282207858
-0.034153584 -0.0011042915 -0.00014097232 4279259038
-0.032551806 0.0013209935 -0.0021840865 4278799273
-0.028892569 0.0021877456 -0.0030263304 4278798764
-0.025351055 0.0038513001 -0.0045155408 4278535858
-0.023261115 0.00229357 -0.0033161226 4278668714
-0.021384168 0.0023290608 -0.0034125452 4278471599
-0.019621946 0.0031610709 -0.0041564186 4278340784
-0.017747957 0.0031967238 -0.004252526 4278602924
-0.01587408 0.0032324959 -0.0043485379 4279324319
-0.013877556 0.0024721473 -0.0037973211 4279586969
-0.012126714 0.0033043753 -0.0045402846 4279914134
-0.010124996 0.002544323 -0.003989188 4278932383
-0.0027606711 0.0034858603 -0.0050181644 4279130518
-0.00074604899 0.0027265921 -0.0044673258 4278471598
0.001273863 0.0019674506 -0.003916665 4278994859
0.0048795044 0.002837101 -0.0047532334 4278925754
0.0067543536 0.0028741322 -0.0048483694 4279516588
0.0084735975 0.0037068632 -0.0055888891 4278728384
0.010503583 0.0029484462 -0.0050384207 4278338998
0.012538828 0.002190182 -0.0044881091 4278472108
0.014415719 0.0022276174 -0.0045830756 4278669224
0.016292445 0.0022651218 -0.0046779807 4278406063
0.018168986 0.0023027193 -0.0047728037 4278602668
0.024151914 0.00082559511 -0.0037681565 4278270659
0.028827436 -0.0030736942 -0.00073726551 4279913879
0.031463325 -0.0062153684 0.00174319 4279521178
0.034496963 -0.010946445 0.0055102361 4281158533
-0.035807002 -0.0050414382 0.00077669253 4281554039
-0.034559883 0.0005865749 -0.0038507634 4279062689
-0.032777995 0.0014202986 -0.0045946427 4278274483
-0.031001661 0.0022540614 -0.0053381315 4279062944
-0.02902896 0.0014901552 -0.004788009 4279062943
-0.027154576 0.0015252549 -0.0048845569 4278997408
-0.025173903 0.0007617306 -0.0043346742 4278734504
-0.023406107 0.001595797 -0.0050773774 4278800039
-0.021420196 0.00083261169 -0.0045275828 4278734503
-0.019887183 0.0032639224 -0.0065616928 4278800549
-0.018136069 0.0040980075 -0.0073032882 4278866084
-0.012539744 0.0042051692 -0.0075897835 4278272954
-0.010418199 0.0026444793 -0.0063946443 4279650464
-0.0086785965 0.0034788661 -0.0071352609 4279325593
-0.006677337 0.0027168561 -0.0065855943 4278477208
-0.0049434751 0.0035513341 -0.0073257666 4278607769
-0.0027979761 0.0019915272 -0.0061315382 4279784339
-0.00078353286 0.0012300704 -0.0055823224 4278471853
0.0012362152 0.00046876445 -0.0050332658 4278799273
0.0029667541 0.0013036504 -0.0057729911 4278667438
0.0046916977 0.0021384638 -0.0065123308 4278400964
0.0065637231 0.0021754075 -0.0066073453 4278269383
0.010465391 0.001451876 -0.0061534066 4279257254
0.012339629 0.0014891718 -0.0062483056 4278472363
0.014213696 0.0015265327 -0.0063431421 4278537898
0.01592131 0.0023615453 -0.0070811966 4278406063
0.019663125 0.0024365541 -0.007270244 4279388324
0.021708205 0.0016767886 -0.0067217713 4279061668
0.023581371 0.0017145295 -0.0068162661 4278470324
0.028240114 -0.0021959655 -0.0037926454 4279062179
0.030867554 -0.0053465152 -0.0013182651 4279062689
0.034080639 -0.010887973 0.0030817178 4279389598
0.037140816 -0.015631462 0.0068377592 4282208115
-0.036382176 -0.0017455639 -0.0042230254 4279259549
-0.034965742 0.0022949893 -0.0075474037 4278603689
-0.031233177 0.0023642946 -0.0077401027 4278600374
-0.029266138 0.0015981197 -0.0071913069 4278796469
-0.027397338 0.0016330983 -0.0072875777 4278533054
-0.023441922 0.00010172836 -0.0061906502 4278865319
-0.021679781 0.0009379629 -0.0069313617 4278734504
-0.019923184 0.0017742105 -0.0076717027 4278538154
-0.018289387 0.0034111962 -0.0090558873 4278669223
-0.0087154023 0.001989102 -0.0082452549 4278930599
-0.0069814622 0.0028256606 -0.0089838794 4278274993
-0.0031132922 0.0020979494 -0.0085308673 4278931618
-0.001104489 0.0013341978 -0.0079829963 4278669224
0.00076517463 0.0013708267 -0.0080780927 4278669478
0.0026346892 0.0014075376 -0.0081731174 4278735014
0.0042042211 0.0030444767 -0.0095530534 4278669478
0.0062205866 0.0022812504 -0.0090052858 4278669478
0.0079315454 0.0031181592 -0.0097421417 4278538664
0.0099530146 0.0023552366 -0.0091944821 4278538409
0.011658207 0.003192177 -0.0099309385 4278472619
0.013848305 0.0016297195 -0.0087416088 4278537899
0.015550435 0.0024667848 -0.00947777 4278537388
0.021320641 0.0017794948 -0.0091191456 4279715744
0.023188293 0.0018171277 -0.00921336 4279715998
0.027835697 -0.0021044798 -0.0061972942 4278930343
0.030642636 -0.0060631884 -0.003088396 4278865828
0.033852525 -0.011619939 0.0013003761 4279783829
-0.036507014 -0.0024402523 -0.0059833704 4279718039
-0.035185877 0.0024144258 -0.0099433232 4278604199
-0.027536329 0.00094678439 -0.0090406677 4278401728
-0.025457926 -0.00062431581 -0.0078504784 4278930344
-0.023695763 0.00021397322 -0.008589658 4278669223
-0.021939155 0.0010522511 -0.0093284836 4278538664
-0.020188097 0.0018905997 -0.010066966 4278538664
-0.016462844 0.0019615833 -0.010257935 4279126948
-0.014723025 0.0028000083 -0.010995548 4278996898
-0.012738071 0.0020329989 -0.010448548 4278341549
-0.010875866 0.002068853 -0.010543734 4278995623
-0.0090137906 0.0021048374 -0.010638815 4278667948
-0.007151857 0.0021409001 -0.010733826 4278931363
-0.0054262914 0.0029795673 -0.011470325 4279127968
-0.0035673529 0.0030157734 -0.011565037 4278800038
-0.0015668869 0.0022496898 -0.011018361 4278735014
0.0060302541 0.0015938394 -0.010755831 4278538408
0.0078937262 0.0016306955 -0.010850353 4278603944
0.0097570345 0.001667656 -0.010944785 4278538154
0.01145944 0.0025067572 -0.01167952 4278668714
0.013319686 0.0025438312 -0.011773667 4278537899
0.015179783 0.0025809854 -0.011867743 4278669224
0.018899441 0.0026555266 -0.01205569 4278269383
0.020759001 0.0026928987 -0.012149569 4278401219
0.027249038 -0.0012024865 -0.0092345988 4279126949
0.030417852 -0.0067753335 -0.0048551559 4278799528
0.033812456 -0.01314882 0.00016138679 4281881203
-0.036631733 -0.0031304238 -0.0077402769 4278995114
-0.035127934 0.0001262445 -0.010405979 4278538408
-0.033550654 0.0025770999 -0.012428395 4279129499
-0.031597536 0.0018062145 -0.011882203 4279128988
-0.029739838 0.0018408801 -0.011977982 4279259294
-0.027778719 0.0010703485 -0.011432048 4278801058
-0.025812246 0.00030004419 -0.010886298 4278801059
-0.023949388 0.00033515692 -0.01098208 4278473639
-0.022198312 0.0011754986 -0.011719001 4278734759
-0.020223964 0.0004056897 -0.011173397 4278735014
-0.01475925 0.0013172422 -0.012100356 4278994604
-0.012899775 0.0013529286 -0.012195488 4278339508
-0.0093119442 0.0022294 -0.013025723 4279061414
-0.0075890496 0.0030700881 -0.013760541 4278603433
-0.0057355426 0.0031060893 -0.013855048 4278996389
-0.0038821623 0.0031421725 -0.013949485 4278471853
-0.001887314 0.0023737941 -0.013404153 4278668204
0.0019712225 0.001642108 -0.01295348 4278268108
0.0036796555 0.0024830922 -0.013687128 4278399943
0.0056875348 0.0017153472 -0.013142178 4278864299
0.0075454488 0.0017520934 -0.013236417 4278537133
0.0094032064 0.0017889217 -0.013330584 4278733993
0.010939457 0.0034342259 -0.014702095 4278799783
0.012791455 0.0034711212 -0.014795836 4278472619
0.014643289 0.0035080835 -0.014889514 4278472619
0.016494945 0.0035451408 -0.014983112 4278603434
0.018346429 0.0035822652 -0.015076648 4278603688
0.020372003 0.0028155558 -0.014532082 4278275759
0.022579841 0.0012451448 -0.013349855 4278341804
0.024798378 -0.0003250083 -0.012168061 4278603434
0.027210027 -0.0026985807 -0.010349176 4278799784
0.030378349 -0.0082866251 -0.0059810495 4278865829
0.033584535 -0.013873808 -0.0016148319 4282536553
-0.036486816 -0.0062392196 -0.0075715799 4279587223
-0.034977507 -0.0029737977 -0.010231107 4278734758
-0.033299487 -0.0013238853 -0.011608537 4278734504
-0.031534422 -0.00048167538 -0.012344979 4278538664
-0.029674154 -0.00044696499 -0.012440892 4278932128
-0.027917426 0.00039531477 -0.013176735 4279849618
-0.02595387 -0.00037722755 -0.012632465 4279718549
-0.024093878 -0.0003421763 -0.012728105 4279718293
-0.02234561 0.00050026923 -0.013463273 4278736289
-0.020488534 0.0005354844 -0.013558599 4278474148
-0.018631566 0.00057080574 -0.013653841 4278538408
-0.013311859 0.0022915583 -0.015216872 4278271679
-0.0098712593 0.003976807 -0.016683275 4279061668
-0.0080259107 0.0040125474 -0.016777441 4278538154
-0.0061806887 0.004048368 -0.01687154 4278996389
-0.0040578917 0.0024707206 -0.015689146 4278274738
-0.0022075102 0.0025068335 -0.015783364 4278929833
-0.00021297485 0.0017363355 -0.015239521 4279126438
0.0016398579 0.0017726962 -0.015333716 4279258529
0.0053450465 0.0018456951 -0.015521865 4278602159
0.0071974173 0.0018823203 -0.01561583 4278865063
0.0090496242 0.0019190386 -0.015709717 4278930598
0.010901667 0.0019558389 -0.015803531 4278537644
0.012590215 0.0027990565 -0.016534284 4278669223
0.014273174 0.0036422126 -0.017264642 4278275759
0.01779376 0.0045222901 -0.018087782 4278734504
0.019985244 0.0029471256 -0.016908031 4278669223
0.02201052 0.0021782387 -0.016364999 4278602923
0.024220683 0.00060361624 -0.015186066 4278472109
0.026806302 -0.0025826395 -0.012735608 4278865319
0.030153789 -0.0089918999 -0.0077426927 4279127969
-0.038052898 -0.011011017 -0.0060332175 4282601324
-0.036521677 -0.0077366745 -0.008687445 4279456408
-0.034827285 -0.0060822377 -0.010062568 4278407084
-0.032953378 -0.0060475413 -0.010159384 4278472874
-0.031177513 -0.0052029574 -0.010894761 4278538663
-0.029407173 -0.0043583866 -0.011629786 4278342314
-0.022158049 -0.0025988286 -0.013290203 4279849618
-0.020295676 -0.0025635334 -0.013385816 4280832388
-0.018667448 -0.00090936571 -0.014756733 4280308619
-0.016930472 -6.4633787e-05 -0.015489453 4280111248
-0.015321542 0.0015894473 -0.016859243 4278799274
-0.013598416 0.0024341401 -0.017591085 4278536879
-0.011880849 0.0032788068 -0.018322583 4279127204
-0.01016885 0.0041235089 -0.01905369 4278865829
-0.0083290674 0.0041591153 -0.019147592 4278407339
-0.0062172636 0.0025768094 -0.017967956 4278865574
-0.00039430708 0.001067102 -0.016977159 4278995878
0.0014556721 0.0011034124 -0.017071204 4279062433
0.0031558275 0.0019485392 -0.017801216 4278865319
0.0068496093 0.002021458 -0.017988678 4278864808
0.0086962655 0.0020580571 -0.018082291 4278734249
0.01070334 0.0012861788 -0.017540375 4278668969
0.012715697 0.00051447377 -0.016998598 4278930853
0.01977288 0.0022792388 -0.018642556 4278793663
0.021618426 0.0023163669 -0.018735699 4278864808
0.023822963 0.00073720515 -0.017559715 4278602923
0.02676744 -0.004074038 -0.013846689 4278668969
0.030114397 -0.010500683 -0.008866719 4279782554
-0.045192633 -0.017528744 -0.0029339194 4282668134
-0.043285813 -0.017494155 -0.0030329712 4282602599
-0.038174823 -0.011704795 -0.007792999 4282470254
-0.036556527 -0.0092339031 -0.0098031396 4279455388
-0.034862176 -0.007575132 -0.011175024 4278932129
-0.032798041 -0.0091643827 -0.0099973781 4278669478
-0.031114735 -0.0075056013 -0.011368531 4279193759
-0.029241137 -0.007470659 -0.011465144 4278997154
-0.027574342 -0.0058119986 -0.012835231 4278866084
-0.025706358 -0.005776939 -0.012931389 4279062688
-0.023838472 -0.0057417499 -0.013027444 4279128734
-0.021970689 -0.0057064788 -0.013123429 4278735268
-0.020102993 -0.0056710662 -0.013219305 4278341803
-0.016846728 -0.0023539094 -0.015954614 4279783063
-0.015235096 -0.00069548097 -0.017321335 4281487483
-0.013634458 0.00096281618 -0.01868736 4281421693
-0.011916965 0.0018096548 -0.019417232 4279390618
-0.010074463 0.0018452257 -0.019511338 4278604199
-0.0082320832 0.0018808786 -0.019605376 4278996644
-0.0063898303 0.0019166004 -0.019699354 4278996388
-0.0044089705 0.0011413265 -0.019158255 4278668203
0.0011247322 0.0012495685 -0.019439841 4278860983
0.0045084506 0.0029439051 -0.020895733 4278797998
0.0063470006 0.0029802322 -0.020989018 4278733994
0.0083431751 0.0022058934 -0.020448225 4278602923
0.010505147 0.00062102079 -0.01927379 4278668459
0.012514628 -0.00015288219 -0.018733542 4278471599
0.015874751 0.0015419982 -0.020187482 4278601138
0.017717801 0.0015788935 -0.020280637 4278467774
0.02140341 0.0016529225 -0.020466734 4278733738
0.023605034 6.9387257e-05 -0.019293899 4278799784
0.026546359 -0.0047549875 -0.015590397 4278931619
0.02989006 -0.011199039 -0.010623287 4281684343
-0.038209662 -0.013208316 -0.008913395 4281618044
-0.036501672 -0.011545127 -0.0102828 4280044949
-0.034712233 -0.010696223 -0.011015839 4279783574
-0.032738034 -0.011475566 -0.010477344 4278669478
-0.030954186 -0.010626508 -0.011209902 4278931874
-0.029075287 -0.010591473 -0.011306793 4278866084
-0.02729978 -0.0097422991 -0.012038792 4279259294
-0.025529802 -0.0088931844 -0.012770402 4278996898
-0.02365661 -0.0088579031 -0.012866735 4279194014
-0.021894995 -0.0080087073 -0.013597734 4278997664
-0.020024721 -0.0079732612 -0.013693755 4278735014
-0.018505313 -0.0054965215 -0.015693128 4278669223
-0.016763065 -0.0046473537 -0.016422881 4278276269
-0.011825264 -0.00047280546 -0.019877823 4278603178
-0.0099801645 -0.00043721311 -0.019972084 4278800038
-0.0081351846 -0.00040152762 -0.020066269 4278864808
-0.0062903464 -0.00036573689 -0.020160364 4279258273
-0.0045843199 0.00048342161 -0.020887753 4278931874
-0.0026010424 -0.00029388722 -0.020348331 4278865574
0.00094085932 0.00059146807 -0.021168927 4278794938
0.0043190345 0.0022900309 -0.022621373 4278995878
0.0061547533 0.0023263078 -0.022714509 4278734759
0.0079903305 0.0023626294 -0.0228076 4278734758
0.0098257512 0.0023990441 -0.022900613 4278603434
0.013662025 0.0016593151 -0.022454415 4279192229
0.015499711 0.0016960092 -0.022547368 4278800038
0.017508544 0.00092012435 -0.022008559 4278734504
0.019174576 0.0017696247 -0.02273307 4278536113
0.021188527 0.00099398382 -0.022194413 4278536878
0.0237462 -0.0022189822 -0.019762069 4278865574
0.026872024 -0.0078687659 -0.015437334 4278800038
0.030035712 -0.013517758 -0.011114413 4282536809
-0.038157575 -0.015528067 -0.009399239 4280895374
-0.036357272 -0.01467692 -0.010131314 4279979669
-0.03456248 -0.013825737 -0.010863004 4279390363
-0.032678116 -0.013790858 -0.01096037 4279455644
-0.030891649 -0.012939594 -0.011691453 4279128223
-0.029110696 -0.01208833 -0.012422174 4279324829
-0.027335286 -0.011237007 -0.013152565 4279194013
-0.025459416 -0.01120181 -0.013249137 4279063199
-0.023583647 -0.011166496 -0.013345614 4279194269
-0.021819387 -0.01031508 -0.014075129 4279259548
-0.020060673 -0.0094636781 -0.014804292 4279128478
-0.018424377 -0.0077963658 -0.016165921 4278866338
-0.016679488 -0.0069449535 -0.016894247 4279062944
-0.014817845 -0.0069093592 -0.016989591 4279127968
-0.013081338 -0.0060579497 -0.017717293 4278996899
-0.011478145 -0.0043908553 -0.019076915 4278866594
-0.0097554773 -0.0035394486 -0.019803789 4278538919
-0.0079051889 -0.0035036709 -0.019898251 4278275758
-0.0027791485 -0.0009495113 -0.022075944 4279389854
-0.00093753636 -0.00091351382 -0.022169676 4279456410
0.0007571578 -6.2139705e-05 -0.022894666 4279128734
0.0025957674 -2.6028603e-05 -0.022988115 4278603943
0.0042819977 0.00082543679 -0.023712557 4278603943
0.0062725842 4.6474859e-05 -0.023174776 4278669734
0.0076377243 0.0025281571 -0.025160355 4278603688
0.0096280053 0.0017494187 -0.024622461 4278472619
0.015293449 0.0010440145 -0.024270499 4278470324
0.017128147 0.0010807142 -0.024363251 4278602159
0.020797089 0.001154311 -0.024548581 4278996389
0.023528427 -0.0028821398 -0.021492783 4279193249
0.026833206 -0.0093618482 -0.016549675 4279259803
0.029996417 -0.015026062 -0.012238087 4282602599
-0.038366176 -0.015396105 -0.011786487 4281815924
-0.036392238 -0.016180025 -0.011251392 4279914898
-0.034505229 -0.01614522 -0.011348985 4279062433
-0.032618288 -0.016110284 -0.011446476 4278931618
-0.030829187 -0.015256812 -0.012176084 4278538154
-0.029146094 -0.013584982 -0.013537405 4278931619
-0.027267557 -0.013549846 -0.013634197 4279390619
-0.025495045 -0.012696293 -0.014362732 4279456154
-0.023510758 -0.013479269 -0.013827534 4279325339
-0.021743875 -0.012625599 -0.014555614 4279259549
-0.020210706 -0.01013577 -0.016546041 4278997153
-0.018577162 -0.0084641464 -0.017904345 4278603943
-0.016835075 -0.0076106694 -0.01863087 4279062688
-0.014854018 -0.0083930921 -0.018095123 4278997408
-0.012992609 -0.0083574317 -0.018190401 4278800804
-0.011514422 -0.0058681183 -0.020177612 4278931874
-0.0096614026 -0.0058324113 -0.020272307 4279193504
-0.0078085139 -0.0057966001 -0.020366915 4278603689
-0.0058198869 -0.0065783784 -0.019831181 4278865319
-0.00097431988 -0.0023822356 -0.023263959 4278341293
0.0025588125 -0.0014925906 -0.024080774 4278537388
0.0045493618 -0.0022737738 -0.023544723 4278342314
0.0062354133 -0.0014201505 -0.024267469 4279259039
0.0077582374 0.00025078468 -0.025619036 4279061159
0.009430401 0.0011042971 -0.026340954 4278734758
0.011423089 0.00032347441 -0.025804773 4279061923
0.020582579 0.00050654262 -0.026267944 4279258528
0.023490191 -0.0043576816 -0.022592064 4278865828
0.026794434 -0.010854773 -0.017661901 4280571524
-0.03472485 -0.016006786 -0.01373068 4282407014
-0.03274852 -0.016792588 -0.013197146 4281030269
-0.030962233 -0.015937015 -0.013925001 4279063964
-0.029181469 -0.015081443 -0.014652494 4278735524
-0.027509384 -0.013405315 -0.016009958 4279194524
-0.025530659 -0.014190621 -0.015476212 4279194523
-0.023546554 -0.014975785 -0.014942637 4279979669
-0.021557111 -0.015760653 -0.014409265 4279913369
-0.020018484 -0.013264174 -0.016395159 4279586460
-0.018379524 -0.011588169 -0.017750472 4279324319
-0.016751565 -0.0099122245 -0.019105183 4279259038
-0.014890175 -0.0098766703 -0.019200541 4279390619
-0.012903962 -0.01066113 -0.018666577 4279325084
-0.011167735 -0.0098052584 -0.019391004 4278866338
-0.0094370432 -0.0089494493 -0.02011504 4279062944
-0.0077119246 -0.0080936281 -0.020838704 4279324829
-0.0057207532 -0.0088775475 -0.020304736 4279128223
-0.0040013269 -0.0080216583 -0.021027977 4278276013
-0.002428703 -0.0063459734 -0.022379259 4278996644
-0.00086709857 -0.0046704803 -0.023729885 4278472108
0.00083017349 -0.0038147261 -0.024451775 4278405808
0.0026712939 -0.0037785945 -0.024545373 4278799528
0.0043601543 -0.0029228441 -0.025266714 4278407339
0.0080362409 -0.002850282 -0.025453284 4278537899
0.0097137913 -0.0019944664 -0.02617391 4278996644
0.011548772 -0.0019580349 -0.026266882 4279324064
0.013217874 -0.0011022724 -0.026986917 4279259549
0.014881387 -0.0002465453 -0.027706617 4278604453
0.016710475 -0.00021001417 -0.027799129 4278407849
0.018539406 -0.00017340109 -0.027891571 4278472874
0.020721376 -0.0017748578 -0.02673083 4278734759
0.023451976 -0.0058330558 -0.023691222 4278341548
0.026573665 -0.011528598 -0.01940031 4281226619
-0.031095158 -0.016612701 -0.015670553 4281684343
-0.027647886 -0.014074602 -0.017750368 4282079593
-0.02567206 -0.014862169 -0.017218119 4280374919
-0.023690883 -0.015649498 -0.016686043 4280570249
-0.02170435 -0.016436661 -0.01615412 4279979924
-0.020054441 -0.014756178 -0.017506883 4279520924
-0.018298794 -0.013898262 -0.018230978 4279193249
-0.016668126 -0.012217984 -0.019582558 4279390363
-0.014804151 -0.012182397 -0.01967806 4279062688
-0.01294028 -0.012146705 -0.019773476 4279062688
-0.011331715 -0.0104665 -0.021123737 4279259549
-0.009603817 -0.0096086012 -0.02184603 4279259549
-0.0077484548 -0.0095727583 -0.021940775 4279259549
-0.0057574622 -0.010358854 -0.021408422 4278603943
-0.004038088 -0.0095008286 -0.022130063 4278800548
-0.0023242831 -0.0086428048 -0.02285134 4278735014
-0.00075997412 -0.0069628824 -0.024198912 4278735014
0.0010866076 -0.0069267508 -0.024292869 4278734248
0.0026343465 -0.0052470081 -0.025639419 4278865573
0.0044752136 -0.0052108206 -0.025732957 4278800039
0.0061611682 -0.0043528881 -0.026452478 4278669224
0.0081565455 -0.0051382147 -0.025919838 4278668969
0.009836778 -0.0042802384 -0.026638951 4278275758
0.015180722 -0.0033492353 -0.02754355 4278340529
0.016844064 -0.002491314 -0.0282616 4279061413
0.018675625 -0.0024546683 -0.028354187 4278668968
0.020683579 -0.0032392256 -0.027821796 4278931364
0.023413822 -0.007308309 -0.024790294 4278996898
0.026353076 -0.012197968 -0.021135403 4281882223
-0.034979127 -0.017353337 -0.017219014 4279652758
-0.033103514 -0.017318621 -0.01731593 4282471273
-0.02196268 -0.016283449 -0.018522318 4281947249
-0.020090364 -0.01624804 -0.0186185 4281225598
-0.018218145 -0.016212525 -0.018714596 4279848344
-0.016465411 -0.01535239 -0.019436844 4279324829
-0.014718216 -0.014492257 -0.020158732 4279127969
-0.012976568 -0.013632135 -0.020880267 4279127969
-0.011112932 -0.013596375 -0.020975618 4279062688
-0.0096401945 -0.01108755 -0.022947976 4279193758
-0.0077849515 -0.011051744 -0.023042742 4279324829
-0.0059298351 -0.011015834 -0.023137424 4278800293
-0.0040748268 -0.010979855 -0.023232043 4279324574
-0.0023610815 -0.010119671 -0.023951704 4278931364
0.0010496974 -0.0083993431 -0.025390035 4279062688
0.0028960258 -0.0083631687 -0.025483942 4279194015
0.0045902282 -0.0075030141 -0.026202343 4279128478
0.0062788278 -0.0066428976 -0.026920408 4278997409
0.0081193224 -0.0066065863 -0.027013831 4279127713
0.010119855 -0.0073939124 -0.02648302 4278603178
0.013639964 -0.0064971745 -0.027293688 4278669478
0.015311569 -0.0056369957 -0.028010592 4278736543
0.016977564 -0.0047768066 -0.028727194 4279193504
0.018464245 -0.0030932697 -0.030066909 4278407594
0.020822302 -0.0055269087 -0.028289296 4278734758
0.023554921 -0.0096068298 -0.02526604 4281488504
0.032854833 -0.017689148 -0.019412778 4282668134
-0.037247065 -0.015572642 -0.020739734 4279454878
-0.018370785 -0.016877484 -0.020450845 4282536809
-0.014632363 -0.016806273 -0.020642504 4282472039
-0.01288807 -0.015943956 -0.021362573 4280897668
-0.011276823 -0.01425506 -0.02270652 4280701319
-0.0096765533 -0.012566319 -0.024049789 4279586458
-0.0076885 -0.013356956 -0.023520634 4279717274
-0.0058307759 -0.013321035 -0.023615478 4279194014
-0.0041115284 -0.012458713 -0.024333902 4279128479
-0.002256766 -0.012422643 -0.024428438 4278735524
-0.00040212274 -0.012386501 -0.024522915 4278603943
0.0013058707 -0.011524125 -0.025240563 4278800548
0.0031575486 -0.011487881 -0.025334768 4279194015
0.0047051385 -0.0097993761 -0.026674837 4279194015
0.0062417462 -0.0081110746 -0.028014265 4278800548
0.0080821365 -0.0080748005 -0.02810771 4278997154
0.010082513 -0.0088643152 -0.027578522 4278603944
0.01208818 -0.009653653 -0.027049551 4279128478
0.01376804 -0.008791253 -0.027765337 4279128478
0.015610605 -0.0087546185 -0.027858654 4279128734
0.017282017 -0.0078922454 -0.028573908 4279128989
0.018947847 -0.0070299106 -0.029288825 4279062944
0.020960964 -0.007818725 -0.028759951 4279194524
0.023695923 -0.011909485 -0.025744939 4282013293
-0.041010737 -0.017125869 -0.021653039 4281553784
-0.020389806 -0.017573332 -0.022087928 4282733414
-0.0097128712 -0.014044967 -0.025151515 4282078063
-0.0058673806 -0.014801898 -0.024718838 4279717529
-0.004009895 -0.014765888 -0.024813598 4278865829
-0.0021525249 -0.014729818 -0.024908308 4278799528
-0.00015151501 -0.01552202 -0.024381168 4279128479
0.0015618578 -0.014657401 -0.025097493 4278932384
0.0032696724 -0.013792794 -0.025813462 4278997153
0.0048199892 -0.012099942 -0.027150467 4279062688
0.0063593239 -0.010407282 -0.028486818 4278800548
0.0082023293 -0.010370962 -0.028580399 4278407339
0.010365337 -0.011990698 -0.027432065 4278997154
0.012050726 -0.011126125 -0.028146591 4278997408
0.013730556 -0.010261599 -0.028860789 4278800803
0.01557301 -0.010224991 -0.028954117 4279063454
0.017415352 -0.010188323 -0.029047394 4278670243
0.019257516 -0.010151587 -0.02914061 4279391383
0.021275938 -0.01094252 -0.028613664 4280046478
0.023657799 -0.013388678 -0.026846955 4282537318
-0.042828333 -0.019476278 -0.022039328 4280503694
-0.02229204 -0.019095603 -0.023100026 4281946994
-0.0077614523 -0.016318496 -0.025727235 4279259804
-0.0039083287 -0.017077301 -0.025296457 4281027208
-0.0020483509 -0.017041197 -0.02539131 4282339184
-0.00018847734 -0.017005002 -0.025486089 4280962694
0.0013784096 -0.015307744 -0.026820812 4280044949
0.0033817366 -0.016101936 -0.026295312 4279586458
0.0049347952 -0.014404785 -0.02762921 4279259549
0.0066313967 -0.013538022 -0.02834291 4278995624
0.0084797516 -0.013501655 -0.028436806 4279389598
0.010327972 -0.013465185 -0.028530616 4278932128
0.012176052 -0.013428658 -0.028624374 4279193503
0.013693109 -0.011731837 -0.02995616 4279062688
0.015535489 -0.011695253 -0.030049503 4278866338
0.01720684 -0.010828618 -0.03076157 4279259038
0.019393422 -0.012451896 -0.029617425 4279259804
0.021061786 -0.011585193 -0.030329246 4280374154
-0.0079306476 -0.016966119 -0.027449457 4280635019
0.0031955615 -0.016750056 -0.028016793 4281491308
0.0050494969 -0.016713761 -0.028111108 4279849108
0.0069033056 -0.016677374 -0.028205346 4280306578
0.0085997805 -0.015808485 -0.028917376 4279782554
0.010450609 -0.015772006 -0.02901135 4279650718
0.011975959 -0.014070728 -0.030340426 4279454368
0.01382111 -0.014034227 -0.030434012 4279258529
0.015498012 -0.013165395 -0.031144802 4279127713
0.017169334 -0.012296647 -0.031855293 4279128734
0.019182175 -0.013092167 -0.031331401 4278801058
0.020847805 -0.012223386 -0.032041494 4281095039
-0.024878908 -0.017090876 -0.028932169 4281487483
0.0048606619 -0.017357511 -0.029829152 4281358199
0.0099335611 -0.014744689 -0.031959634 4281751664
0.011776045 -0.014708342 -0.032053161 4280571778
0.013618372 -0.014671926 -0.032146629 4280505224
0.015460573 -0.014635429 -0.032240022 4280307344
0.017302647 -0.014598911 -0.032333396 4279193503
0.018971086 -0.013728004 -0.033042081 4279259038
-0.026869401 -0.017761316 -0.030552149 4282077299
-0.0081359595 -0.019085234 -0.030268075 4281881459
0.0045202747 -0.017159896 -0.032158822 4281291389
0.017435901 -0.016905403 -0.032814652 4281881459
0.019280478 -0.016868792 -0.032908119 4280503694
-0.0030399933 -0.017936055 -0.033492967 4282602599
0.0061376244 -0.019226111 -0.035057306 4282078064
0.022536419 -0.01805835 -0.036509044 4282602344
-0.011134211 -0.01679742 -0.038361341 4282275179
0.005792357 -0.019008903 -0.037371952 4282340204
0.024156138 -0.018646797 -0.038304236 4282667624
-0.0037112683 -0.018960724 -0.039213091 4282733414
0.025586225 -0.018386031 -0.040702697 4280832388
0.0069285035 -0.018512582 -0.042074725 4281946993
0.014274649 -0.0073884893 0.043234315 4286081310
0.0035285279 5.3402036e-06 0.011966916 4286735894
